-25.107177734375 56.367431640625 4.365234375
12.34521484375 46.32861328125 0.47509765625
30.127197265625 -71.579833984375 -9.70947265625
22.1015625 -32.11279296875 32.765625
-78.873779296875 59.720703125 7.166015625
0.227294921875 15.95556640625 41.385986328125
17.54541015625 29.14404296875 57.28076171875
16.289794921875 -68.080322265625 -1.245361328125
-29.93798828125 -4.7744140625 18.57470703125
45.79931640625 -66.18505859375 -14.299560546875
-3.7900390625 -7.925537109375 15.277587890625
-67.59814453125 68.334716796875 5.339111328125
42.635986328125 -17.323974609375 14.67529296875
-47.7822265625 16.5849609375 21.557373046875
-22.06005859375 59.183349609375 -2.612060546875
72.2412109375 -60.4912109375 15.492431640625
3.028076171875 -48.17138671875 28.108154296875
36.247314453125 29.931884765625 -4.119140625
-46.654541015625 3.502197265625 12.71142578125
-29.976318359375 -14.061279296875 11.710205078125
44.624755859375 -43.152099609375 -20.14306640625
-34.27734375 34.77685546875 60.5908203125
17.975341796875 44.27587890625 -5.5341796875
-31.77490234375 75.812744140625 -19.685302734375
17.015869140625 56.98388671875 -1.740966796875
6.24658203125 -4.458740234375 16.19970703125
28.6640625 -4.841064453125 17.892333984375
-26.885009765625 19.6552734375 58.3095703125
53.39404296875 -2.309814453125 15.914306640625
-42.47509765625 44.4453125 6.17138671875
-8.250732421875 -38.50439453125 20.832275390625
-25.266845703125 6.266845703125 19.3349609375
8.68896484375 -24.143798828125 33.738525390625
16.30419921875 29.594970703125 -4.046875
56.656982421875 -32.410400390625 11.396240234375
12.546142578125 21.195068359375 44.346435546875
32.239013671875 -47.428466796875 -20.814697265625
-38.787353515625 14.989501953125 14.46484375
-14.47216796875 2.670166015625 21.325439453125
42.5068359375 4.102294921875 18.07373046875
-25.67333984375 42.374755859375 61.828857421875
-38.141845703125 64.5048828125 -2.896240234375
33.87890625 62.524658203125 34.486328125
-1.581787109375 22.84423828125 44.158935546875
0.25048828125 -15.0029296875 24.361083984375
-60.222900390625 58.054443359375 1.471923828125
42.608642578125 19.2587890625 22.1416015625
-40.762939453125 38.280517578125 10.890625
-1.246826171875 52.150390625 -0.003662109375
-26.30810546875 -19.32861328125 24.658935546875
34.00537109375 16.433349609375 20.5
-2.456298828125 39.91455078125 63.27001953125
9.28515625 6.85009765625 18.687255859375
-11.827392578125 28.99267578125 57.027099609375
16.741455078125 -46.96044921875 28.003662109375
-28.290771484375 37.59912109375 9.685302734375
51.341552734375 -61.568359375 14.54931640625
16.375244140625 64.694091796875 33.0693359375
-14.14599609375 59.1572265625 -2.150390625
13.58203125 -21.538330078125 38.021240234375
-27.611572265625 45.101806640625 14.025390625
23.505859375 -66.452880859375 -3.0927734375
20.982177734375 -60.71533203125 9.701171875
1.83056640625 -23.141845703125 35.58837890625
-45.255859375 55.94775390625 -0.654052734375
5.52490234375 -35.361572265625 29.2490234375
-37.634765625 -8.9716796875 9.77001953125
-23.357177734375 -7.07861328125 14.70751953125
8.55908203125 22.61572265625 51.827880859375
57.680908203125 -18.739990234375 15.2626953125
-73.144287109375 55.64111328125 3.349609375
-28.857177734375 58.78759765625 -4.223388671875
-48.204833984375 -4.3857421875 8.883544921875
-31.797119140625 9.112548828125 21.053955078125
-32.12841796875 25.3759765625 9.220458984375
-4.045654296875 10.683349609375 23.431396484375
-21.722412109375 47.12744140625 16.654052734375
9.0126953125 -28.90625 24.78759765625
-26.3232421875 48.9111328125 52.927490234375
7.260986328125 -55.151611328125 23.488525390625
-5.840576171875 67.907470703125 2.4306640625
-35.5078125 14.454345703125 27.020751953125
-6.79931640625 -26.405029296875 28.67138671875
33.83203125 -68.6640625 -15.435302734375
-6.191162109375 -36.01220703125 27.4169921875
6.72412109375 -10.612548828125 24.403076171875
-16.263427734375 42.553466796875 61.177001953125
20.503662109375 36.66943359375 -4.185791015625
41.147705078125 20.612060546875 -2.711669921875
-19.98681640625 51.8818359375 7.824462890625
66.265380859375 -71.0078125 8.72607421875
66.546142578125 -44.91796875 15.07666015625
38.57275390625 -4.939208984375 15.58642578125
10.51611328125 -9.826171875 17.91259765625
-39.456787109375 20.038330078125 23.603515625
23.438720703125 7.64111328125 20.07568359375
84.27490234375 -54.125 29.1005859375
-13.26220703125 50.255859375 66.979248046875
56.37353515625 -71.00048828125 15.213134765625
27.65283203125 -25.8818359375 38.885498046875
-37.704345703125 3.293212890625 11.853271484375
-26.487060546875 28.445556640625 56.89306640625
73.446044921875 -67.52392578125 18.650634765625
68.9970703125 -55.859619140625 12.412109375
68.051025390625 -75.011474609375 14.432861328125
12.89697265625 31.51220703125 1.068359375
-19.4326171875 32.9443359375 58.434326171875
46.614501953125 -22.923583984375 11.796875
55.982666015625 5.77880859375 19.599365234375
14.9306640625 -8.520751953125 24.025390625
16.236572265625 23.54443359375 53.9755859375
16.04541015625 -36.474365234375 30.299072265625
7.551025390625 -63.094970703125 10.563232421875
18.42822265625 -19.063232421875 22.712890625
-54.144287109375 61.93359375 0.164794921875
-12.911376953125 -8.372802734375 19.755126953125
9.891845703125 -16.155517578125 27.73876953125
17.8115234375 2.8994140625 18.10498046875
-32.527587890625 40.810546875 61.236328125
27.31201171875 -12.13671875 28.531982421875
-39.41796875 53.62548828125 3.102294921875
49.86962890625 -10.446044921875 13.478515625
-21.5 -15.786865234375 26.604248046875
-8.7998046875 39.65673828125 60.571044921875
59.8642578125 -6.47119140625 19.73486328125
30.018798828125 4.3466796875 18.056640625
16.92236328125 -28.29150390625 28.2939453125
-58.828857421875 52.209716796875 5.429443359375
43.887939453125 -69.171630859375 -9.207763671875
28.4111328125 37.7001953125 -7.542236328125
-10.406494140625 18.7744140625 49.838134765625
-22.43505859375 32.697998046875 12.041259765625
-13.273193359375 51.48193359375 6.5517578125
15.1708984375 14.4287109375 33.948974609375
35.66357421875 -12.562744140625 23.4775390625
-14.322998046875 48.6416015625 56.70654296875
45.709716796875 -29.461181640625 11.6865234375
45.4453125 9.4521484375 18.423583984375
-26.4306640625 69.418701171875 -1.876953125
-52.551025390625 11.96728515625 21.078369140625
3.947998046875 -26.27685546875 26.79248046875
14.32275390625 -26.565185546875 33.471435546875
-29.98388671875 -11.177001953125 18.60205078125
41.066162109375 -10.59326171875 14.866943359375
27.588623046875 -13.95166015625 43.214111328125
-52.752197265625 51.841796875 5.62158203125
19.317626953125 29.991455078125 44.016357421875
40.8251953125 -52.690185546875 -13.555908203125
5.539306640625 3.10302734375 15.894287109375
60.86181640625 -57.94775390625 9.296630859375
-35.12451171875 -1.825439453125 10.20751953125
65.484619140625 -66.95068359375 13.494384765625
37.314697265625 6.646240234375 16.8837890625
40.47216796875 -47.063232421875 -18.6259765625
30.89453125 -53.1298828125 -20.206298828125
32.120849609375 -63.904541015625 -19.027099609375
-24.991455078125 8.27587890625 27.241455078125
-32.031494140625 10.425537109375 36.04833984375
57.362060546875 -44.814453125 -17.357421875
45.91064453125 -0.50048828125 16.81494140625
11.2412109375 43.74755859375 -4.663818359375
19.181640625 -19.56201171875 38.388427734375
22.37548828125 -4.5166015625 17.944091796875
20.212890625 40.6923828125 0.025390625
-16.50439453125 -4.064453125 16.77783203125
-6.441650390625 -25.569580078125 22.95703125
62.65869140625 -47.606689453125 -13.450439453125
50.22265625 17.077880859375 -5.0595703125
-20.206787109375 50.9501953125 48.295654296875
-5.7138671875 0.03076171875 16.643310546875
-19.605712890625 -8.6455078125 18.8154296875
-41.585205078125 20.28125 48.822265625
-2.688720703125 25.50732421875 49.85595703125
50.1142578125 -46.59423828125 -18.234375
-32.0771484375 53.94140625 3.047119140625
-23.371337890625 52.4140625 18.213623046875
-13.185546875 -14.019287109375 26.56787109375
-24.2021484375 23.309326171875 54.802734375
-26.115478515625 52.4794921875 40.629638671875
59.482177734375 -13.341552734375 18.335693359375
-42.3671875 9.457763671875 17.8642578125
-36.34521484375 72.76708984375 6.440673828125
25.122314453125 -71.717041015625 -12.95068359375
55.5810546875 -83.033203125 16.827880859375
-4.530517578125 -9.8779296875 20.716064453125
-7.937744140625 34.52001953125 58.351806640625
-47.467041015625 53.584228515625 3.97705078125
4.277587890625 11.83984375 24.984375
-8.910400390625 61.05615234375 -2.905029296875
-38.17041015625 37.365478515625 4.58642578125
36.048095703125 -57.7880859375 -18.68603515625
-63.3671875 51.6923828125 8.685302734375
10.67236328125 14.942626953125 37.247314453125
1.752685546875 46.905029296875 1.411376953125
54.265380859375 -66.258056640625 13.122314453125
59.375 -75.312744140625 12.8662109375
41.240478515625 51.54345703125 29.70556640625
17.03955078125 -64.0068359375 3.877197265625
-20.30615234375 38.04833984375 60.482666015625
-62.5498046875 69.059814453125 7.564453125
-31.976806640625 31.23583984375 7.114013671875
22.20556640625 -45.832275390625 28.439697265625
49.132080078125 -61.7470703125 -15.491455078125
8.5380859375 27.294189453125 54.730224609375
24.604248046875 32.812255859375 -2.198974609375
51.289794921875 -54.542236328125 -16.32861328125
-45.46826171875 37.549560546875 13.624267578125
38.29638671875 31.23095703125 -9.603515625
70.460693359375 -64.404052734375 12.091796875
59.290283203125 -64.874755859375 7.882080078125
36.313720703125 -17.004638671875 27.269775390625
1.007568359375 35.56298828125 59.276611328125
-28.00537109375 1.429443359375 17.96826171875
4.439697265625 61.330810546875 -2.833984375
-16.22900390625 9.134521484375 27.36181640625
33.3623046875 -31.480712890625 40.435791015625
3.675537109375 -42.929443359375 29.48486328125
0.94580078125 -5.240966796875 15.107177734375
37.6376953125 24.953369140625 -5.79638671875
-31.968994140625 30.0595703125 58.609130859375
12.46240234375 31.013916015625 58.236328125
-24.03466796875 69.30615234375 3.831298828125
-12.23046875 20.6845703125 41.6552734375
-0.414794921875 -19.765869140625 31.72021484375
17.084228515625 -13.80712890625 25.938720703125
-33.2587890625 53.39111328125 -2.17431640625
-32.494384765625 39.479736328125 2.71630859375
-43.393798828125 68.451904296875 -0.979248046875
10.576171875 9.868896484375 23.34619140625
-43.3515625 59.421142578125 -4.248291015625
10.499755859375 56.68359375 -4.37841796875
45.39892578125 14.6982421875 19.41455078125
51.291015625 -73.178955078125 16.7587890625
31.09716796875 63.970703125 38.786376953125
-6.622802734375 -18.1416015625 24.12939453125
-6.499755859375 43.770751953125 63.0166015625
-38.155517578125 77.746337890625 6.78759765625
-16.399169921875 22.843017578125 54.67138671875
1.900146484375 29.458984375 56.61767578125
7.822509765625 51.47314453125 -1.572998046875
-51.306884765625 5.95068359375 15.18994140625
5.2626953125 -15.48828125 22.8330078125
39.6181640625 -67.60791015625 -14.8251953125
-25.307373046875 63.14453125 -1.42138671875
25.950927734375 28.153564453125 43.499267578125
-30.50341796875 -16.24267578125 23.9921875
-17.8623046875 13.964599609375 50.640869140625
24.488525390625 -29.496826171875 36.7919921875
-29.9423828125 43.210205078125 9.51123046875
57.067138671875 -55.51904296875 -16.37744140625
-66.742431640625 58.901611328125 1.301513671875
-41.300537109375 26.79052734375 11.07666015625
46.986572265625 -14.91455078125 13.070068359375
-12.4580078125 25.031982421875 51.255615234375
-34.45654296875 68.301513671875 -0.635986328125
0.237548828125 5.297119140625 17.00537109375
43.8662109375 -29.394775390625 22.647705078125
-76.009033203125 62.54052734375 2.643798828125
19.887939453125 -55.35888671875 21.376708984375
26.988037109375 -64.106689453125 -18.7275390625
31.107666015625 -22.09228515625 42.0712890625
11.924072265625 -45.426513671875 28.8173828125
-17.974365234375 63.291259765625 -1.907470703125
-41.872314453125 5.72607421875 14.40625
51.392333984375 9.68603515625 17.1513671875
-26.59619140625 46.999755859375 57.968017578125
-71.68798828125 52.2333984375 6.990234375
-31.89501953125 7.28759765625 16.287353515625
-25.4951171875 51.32080078125 7.488525390625
33.746337890625 -3.60888671875 14.73681640625
74.369873046875 -72.638916015625 15.91748046875
0.38134765625 -34.886962890625 31.298095703125
57.278564453125 9.728515625 -1.8564453125
32.959228515625 26.305908203125 -1.501708984375
-49.76611328125 59.441650390625 0.021484375
32.883544921875 -6.291259765625 20.22900390625
54.218994140625 15.17724609375 -8.73193359375
40.93505859375 -58.215576171875 -17.581787109375
11.42724609375 -58.0556640625 16.85791015625
56.23193359375 -23.156494140625 12.98828125
-17.35595703125 68.880615234375 2.72900390625
-5.325927734375 64.42724609375 -1.93359375
38.22900390625 -23.46826171875 18.990478515625
-34.547607421875 61.076904296875 -3.586669921875
45.19091796875 19.5986328125 -5.927490234375
-73.239990234375 50.952392578125 13.08642578125
-21.947998046875 2.70263671875 21.712158203125
23.404541015625 40.7734375 -6.483642578125
55.530029296875 10.630615234375 20.6884765625
59.992919921875 -38.81787109375 13.12841796875
22.033203125 46.29736328125 -7.552978515625
-25.877685546875 -2.83935546875 16.28662109375
-72.138916015625 66.637939453125 4.321533203125
-30.76806640625 46.581298828125 2.8173828125
-29.452392578125 17.69580078125 29.465576171875
-43.718017578125 16.559326171875 24.526611328125
6.83251953125 -33.90673828125 24.73388671875
15.23046875 -51.71142578125 26.5859375
32.991943359375 57.702880859375 34.184326171875
-45.43994140625 17.38330078125 34.137939453125
62.63525390625 -31.113525390625 16.3017578125
26.00732421875 -6.049560546875 26.56884765625
22.10693359375 -14.3310546875 39.44775390625
59.663818359375 4.273193359375 23.4140625
-45.3935546875 12.4052734375 20.882568359375
-21.153076171875 53.950927734375 40.68115234375
-43.3291015625 72.794677734375 3.421875
59.342529296875 11.958984375 -5.730224609375
-8.64013671875 4.724609375 22.42626953125
-11.387451171875 -18.78076171875 24.150146484375
-5.224609375 28.35595703125 55.89990234375
-77.532470703125 54.123046875 4.53857421875
0.7822265625 54.736083984375 -3.543701171875
18.354736328125 -10.438720703125 21.3115234375
-20.77978515625 49.42431640625 52.7783203125
-46.525146484375 67.15283203125 2.375732421875
14.293701171875 -41.525390625 30.17578125
-4.056396484375 -26.98046875 34.28125
-29.495849609375 74.49462890625 6.797607421875
-11.29248046875 15.689208984375 37.119140625
65.846923828125 -49.19482421875 13.139404296875
16.344482421875 53.596435546875 -4.99560546875
29.33251953125 63.367919921875 33.249267578125
65.022216796875 -39.96826171875 15.09521484375
23.59814453125 -23.35888671875 40.19189453125
18.61083984375 18.67333984375 52.71923828125
55.54736328125 1.114990234375 19.102294921875
-5.345458984375 53.46484375 -2.270751953125
35.065673828125 11.7314453125 18.53515625
6.468505859375 44.141357421875 -1.40478515625
40.305419921875 -0.041748046875 15.55078125
8.263427734375 17.3984375 48.211669921875
-5.922119140625 50.5693359375 2.121337890625
-56.071533203125 65.682373046875 2.23095703125
47.780517578125 -63.697509765625 16.744873046875
60.035888671875 -79.9873046875 9.623779296875
-40.0517578125 43.1435546875 9.966552734375
-39.485107421875 33.563232421875 7.7451171875
-22.264892578125 52.859619140625 3.1728515625
15.029052734375 11.28955078125 27.212646484375
-33.140625 -10.288330078125 10.699462890625
58.619384765625 -59.139404296875 -13.63818359375
-19.777587890625 -17.832275390625 30.41650390625
-17.718994140625 56.277587890625 -1.41748046875
44.601806640625 -62.091796875 -16.452392578125
30.9755859375 31.30859375 -6.441162109375
38.0986328125 18.505615234375 21.38232421875
18.8046875 -23.376220703125 27.623046875
-6.51708984375 -31.34619140625 27.119873046875
18.884521484375 -28.770751953125 34.3154296875
59.859130859375 -49.81494140625 -16.388671875
-10.810302734375 -16.64697265625 29.5263671875
-39.52001953125 47.3310546875 1.81640625
17.78515625 48.965087890625 -6.429931640625
67.668701171875 -75.355712890625 9.849609375
7.368408203125 -46.645263671875 27.9248046875
-1.6396484375 49.021728515625 3.66650390625
-15.848876953125 53.528564453125 47.18115234375
-30.282958984375 21.00341796875 55.177490234375
54.4248046875 -35.89013671875 9.21240234375
-27.685302734375 -8.565185546875 14.714599609375
-65.407470703125 64.345458984375 2.63134765625
16.918701171875 -58.914306640625 14.14990234375
62.587158203125 -73.67333984375 9.19677734375
43.423583984375 -50.329833984375 -9.4658203125
-14.41015625 19.400634765625 45.440185546875
10.01904296875 -2.494384765625 14.263916015625
49.732421875 -5.568115234375 15.232177734375
39.1083984375 -15.17822265625 16.5693359375
-9.267333984375 -8.86328125 22.7666015625
2.45751953125 24.50634765625 48.6953125
-17.273193359375 0.533447265625 18.382080078125
-52.567138671875 51.130126953125 10.92431640625
54.974609375 -13.7666015625 14.718994140625
23.35888671875 -36.44970703125 32.56640625
8.29736328125 53.079833984375 -5.942626953125
-25.989013671875 55.4287109375 -0.597412109375
41.83203125 22.292236328125 -7.33447265625
27.55419921875 -5.235107421875 22.2275390625
-42.946044921875 -5.9521484375 8.682373046875
8.02587890625 48.1396484375 1.416748046875
-47.043701171875 -0.096435546875 9.43603515625
30.0986328125 -0.0302734375 17.1552734375
-13.70849609375 52.953369140625 1.17529296875
46.614990234375 23.65380859375 -7.14453125
63.13916015625 -66.89892578125 8.89453125
14.32861328125 -62.35107421875 7.609130859375
50.943603515625 -61.775146484375 -11.427978515625
-20.648681640625 42.14794921875 62.174560546875
-43.076171875 1.667236328125 10.816650390625
11.67822265625 -35.814453125 30.800537109375
7.279541015625 -25.560791015625 29.64599609375
17.834716796875 -30.3876953125 22.885009765625
-37.1328125 44.80419921875 5.660400390625
-6.89404296875 -20.931884765625 33.49462890625
-21.3447265625 -11.780517578125 22.39306640625
-15.203369140625 5.51025390625 24.645263671875
56.140869140625 -80.114013671875 12.260986328125
-33.326171875 75.640380859375 -15.560791015625
31.92529296875 -9.349853515625 26.322265625
-37.69189453125 10.96337890625 20.1201171875
7.521728515625 -19.8623046875 33.292236328125
13.012939453125 66.805908203125 34.943603515625
57.01123046875 -28.177490234375 12.501220703125
-10.0830078125 -36.134033203125 25.3984375
-31.03466796875 36.228759765625 5.261962890625
3.759765625 51.800048828125 0.017578125
45.285888671875 -52.59130859375 -14.71533203125
62.12939453125 -23.32470703125 18.6572265625
12.128662109375 22.755859375 49.325927734375
-9.04833984375 -7.62158203125 17.880859375
13.41015625 27.0888671875 55.07568359375
-5.75634765625 20.648681640625 51.43115234375
-27.112060546875 25.672607421875 8.156005859375
-23.976318359375 31.768310546875 58.111328125
-42.111572265625 40.942138671875 14.240478515625
-4.98291015625 37.390625 59.69970703125
-28.651123046875 -15.679931640625 20.114501953125
-39.704833984375 16.24169921875 26.12646484375
-6.655029296875 46.0791015625 59.35693359375
-3.109375 19.072021484375 42.710205078125
39.755859375 -29.33740234375 16.32373046875
13.173583984375 47.566162109375 -3.794677734375
-16.486572265625 29.812744140625 57.447998046875
22.416259765625 29.626953125 35.797607421875
-2.5244140625 -14.13720703125 21.1826171875
16.1162109375 -18.377685546875 26.280029296875
-26.33837890625 48.987548828125 15.993408203125
40.614990234375 -48.47998046875 -14.38427734375
14.341064453125 5.327880859375 18.7734375
-10.9150390625 2.4462890625 18.943359375
27.673828125 8.23388671875 19.972412109375
51.50830078125 -31.089599609375 10.620361328125
73.005859375 -67.0849609375 14.389404296875
27.608642578125 62.355224609375 41.49853515625
-16.8232421875 92.01123046875 70.15478515625
48.567626953125 45.9140625 31.44677734375
55.96728515625 -67.52490234375 8.583984375
3.5185546875 18.278564453125 42.798095703125
5.326416015625 -8.5947265625 16.348388671875
-8.154541015625 -22.7392578125 27.048095703125
16.820556640625 44.236572265625 -1.48046875
5.086181640625 7.01953125 18.412841796875
-79.148193359375 51.0498046875 11.959716796875
19.301025390625 -31.668212890625 29.099365234375
-58.18896484375 9.24853515625 19.041015625
35.98193359375 -45.87060546875 -19.708251953125
-0.967041015625 62.153564453125 -2.83349609375
-26.77197265625 50.833251953125 2.35888671875
-11.72265625 43.275390625 61.533935546875
65.1357421875 -56.307373046875 10.84814453125
-37.2890625 25.231201171875 9.09521484375
-15.76953125 66.52197265625 -0.422607421875
12.6728515625 -6.14306640625 17.90966796875
33.26611328125 27.632080078125 -5.9296875
-31.08203125 -1.830078125 11.255859375
-40.702392578125 -11.490966796875 11.454833984375
11.630859375 -20.720947265625 34.433837890625
37.293212890625 52.499755859375 30.618408203125
-41.581298828125 54.1787109375 -1.484375
17.703369140625 -1.243896484375 18.431884765625
3.0361328125 22.376953125 43.23779296875
18.89501953125 -67.639892578125 -4.445556640625
-22.954833984375 18.298583984375 57.197021484375
-10.39892578125 51.6337890625 3.29150390625
56.08837890625 -5.565185546875 16.93603515625
-52.670166015625 8.822998046875 18.394287109375
-49.47119140625 63.830810546875 0.533447265625
6.74365234375 -51.874267578125 26.39990234375
-34.31787109375 74.257080078125 -22.536865234375
-54.397705078125 3.669189453125 13.693359375
-13.46630859375 32.59326171875 58.4404296875
2.6025390625 -15.84375 27.63330078125
-17.698486328125 -14.88232421875 25.314697265625
31.69189453125 -13.873046875 44.80126953125
8.936279296875 -14.18115234375 21.541259765625
-23.03271484375 36.759033203125 11.07080078125
-9.660400390625 10.492919921875 29.370361328125
51.05517578125 -21.393798828125 12.32763671875
49.452392578125 -66.9091796875 -12.59375
48.736083984375 -51.4482421875 -17.1484375
-2.21435546875 -17.298095703125 27.88623046875
26.4443359375 33.399658203125 -5.800537109375
42.44970703125 -21.2958984375 15.600830078125
-22.76171875 -10.859375 17.479248046875
51.813720703125 -76.711181640625 18.72705078125
37.572265625 -9.01513671875 13.49609375
-17.960693359375 -21.129150390625 31.95654296875
45.358154296875 -10.209716796875 13.568603515625
62.869384765625 -47.31005859375 11.109619140625
20.469482421875 -10.934326171875 26.26953125
2.69091796875 -38.090087890625 30.37841796875
-27.398681640625 46.53076171875 9.786376953125
-34.22509765625 4.71337890625 13.490478515625
54.956787109375 -86.388671875 14.66943359375
-25.72509765625 73.805419921875 5.536865234375
-0.482177734375 -10.721923828125 21.83837890625
-34.6552734375 70.82080078125 3.3447265625
10.595458984375 -19.550048828125 30.707275390625
-28.356689453125 31.783447265625 59.0615234375
15.61474609375 40.72802734375 -4.06689453125
-30.576904296875 44.31591796875 60.979248046875
12.595703125 -53.94970703125 24.552734375
-56.590576171875 54.217529296875 2.425048828125
-21.9873046875 -17.628662109375 23.0849609375
-38.849365234375 40.61376953125 7.12255859375
47.81787109375 -68.104248046875 -9.155029296875
29.29833984375 -70.77099609375 -14.261474609375
-30.5830078125 37.364013671875 60.79345703125
-23.70849609375 2.104736328125 18.1796875
36.249755859375 59.65478515625 32.675537109375
-27.304931640625 40.0107421875 12.683837890625
-31.9677734375 1.23486328125 18.12744140625
62.059814453125 -15.105712890625 20.786376953125
14.08642578125 -66.927734375 1.9541015625
-23.724365234375 9.881103515625 31.20361328125
-21.127197265625 52.7060546875 44.44189453125
-4.315185546875 21.3076171875 46.578125
-33.93798828125 -14.249755859375 12.01123046875
24.153076171875 -33.47119140625 35.864501953125
7.1220703125 -56.7998046875 19.68017578125
62.093505859375 -62.113037109375 8.26123046875
14.912109375 29.072021484375 3.43505859375
-42.06884765625 64.871826171875 -2.65673828125
18.245361328125 36.064208984375 -0.787109375
-61.8291015625 51.267822265625 12.28955078125
-23.67724609375 -3.5966796875 19.67529296875
52.23876953125 1.462158203125 15.815673828125
33.962646484375 -71.222900390625 -8.9013671875
-29.124755859375 5.556884765625 19.0576171875
41.65478515625 16.213623046875 19.59619140625
52.962158203125 -67.893798828125 17.142822265625
40.968994140625 -42.45458984375 -18.9072265625
-51.09228515625 -1.794189453125 8.36376953125
-18.28466796875 51.62939453125 4.30859375
-3.318115234375 -22.452880859375 33.027099609375
-15.916015625 46.765869140625 59.748779296875
-10.265869140625 -26.30078125 22.683837890625
-45.302001953125 7.031494140625 15.734619140625
14.583984375 -31.9765625 31.616455078125
45.903564453125 -33.25537109375 22.4560546875
-16.698486328125 19.059326171875 53.804931640625
-29.462158203125 49.453369140625 50.690185546875
-3.952392578125 -11.88330078125 24.01611328125
-20.487548828125 -15.130615234375 20.509033203125
9.216796875 -33.11962890625 28.0205078125
-20.170654296875 55.818603515625 5.1650390625
21.28466796875 -65.254150390625 0.510009765625
25.802490234375 -2.219970703125 17.6904296875
0.78857421875 49.4013671875 -1.84130859375
-36.216796875 17.48388671875 24.70068359375
-10.20458984375 57.39794921875 -2.87841796875
33.353271484375 6.3154296875 18.296142578125
2.942138671875 -11.36083984375 23.97314453125
29.22802734375 -17.449462890625 43.520263671875
-6.271728515625 -33.518310546875 23.833251953125
24.3017578125 -11.55810546875 26.164794921875
48.568359375 -26.250732421875 12.039794921875
-31.6796875 39.466796875 7.79736328125
8.336181640625 -59.986572265625 13.156982421875
-34.819091796875 -18.17138671875 13.636474609375
48.793701171875 -41.656494140625 -19.3583984375
-36.099365234375 53.4833984375 0.419921875
7.6884765625 63.53076171875 -0.273193359375
-7.2890625 -4.273193359375 15.841064453125
-13.75244140625 62.973388671875 -1.911376953125
-6.7900390625 8.39697265625 22.01611328125
23.688232421875 -67.9716796875 -6.616455078125
39.853759765625 27.648193359375 -4.191162109375
-35.582763671875 32.059814453125 6.09228515625
-61.8681640625 61.505126953125 1.151611328125
-62.44580078125 54.35009765625 2.9580078125
-3.19970703125 -2.150634765625 14.7548828125
42.566650390625 -30.2568359375 13.714111328125
-12.30859375 -10.08447265625 24.7314453125
47.44677734375 -19.210693359375 12.131103515625
-8.2998046875 30.29833984375 57.6875
42.02685546875 -3.6318359375 14.646240234375
19.351318359375 -35.9970703125 28.477294921875
59.8486328125 -17.120361328125 18.105712890625
5.897705078125 10.0556640625 20.9775390625
-75.24072265625 58.6513671875 4.31884765625
68.88330078125 -68.4755859375 11.035400390625
59.552490234375 -21.951416015625 16.255615234375
-34.674072265625 -6.52978515625 10.04638671875
41.014892578125 9.490966796875 17.451904296875
0.307861328125 19.97119140625 45.71435546875
4.65673828125 22.689208984375 51.1513671875
-39.233642578125 60.9853515625 -3.64111328125
-0.70556640625 -9.497802734375 16.738525390625
50.5703125 -14.10693359375 13.941162109375
60.8837890625 -33.119384765625 13.30322265625
53.532958984375 -5.952880859375 14.2119140625
57.889404296875 -36.236328125 10.60986328125
-3.746337890625 -36.589111328125 30.199951171875
-29.52392578125 48.20947265625 54.747802734375
49.39208984375 -1.8369140625 15.1572265625
13.626708984375 60.582275390625 1.116943359375
3.535400390625 33.246337890625 57.774658203125
31.97314453125 37.718017578125 -9.60595703125
54.648193359375 -19.781494140625 13.1318359375
-0.200439453125 -44.07861328125 29.40869140625
4.845703125 27.169677734375 55.226806640625
17.26904296875 -61.01171875 9.693115234375
-3.21923828125 41.978271484375 60.26513671875
-32.983154296875 57.730224609375 -3.12158203125
-14.865966796875 26.7099609375 56.1796875
-67.6025390625 52.302734375 6.694091796875
-23.78125 48.1123046875 55.8212890625
-30.998291015625 50.219482421875 2.135009765625
38.243408203125 -10.851806640625 17.287841796875
-39.138427734375 67.7578125 -0.802978515625
-18.70068359375 48.679931640625 55.74658203125
2.957763671875 -33.859375 27.0498046875
-20.0888671875 22.629150390625 54.81982421875
11.4951171875 24.504150390625 53.041015625
-27.29736328125 66.02197265625 -3.53857421875
-33.01220703125 44.725341796875 6.4033203125
-70.06640625 57.20703125 2.050048828125
-41.259521484375 50.449462890625 3.4599609375
38.84033203125 3.344482421875 17.496337890625
18.62646484375 -43.86767578125 29.650390625
-33.05126953125 43.501708984375 11.46630859375
-6.58447265625 -29.7392578125 23.4453125
6.021728515625 -29.310546875 27.0
-35.0830078125 22.01904296875 10.510986328125
-42.462646484375 30.222900390625 9.03369140625
-50.770263671875 1.82568359375 11.786376953125
25.007568359375 -6.428955078125 19.65380859375
37.97265625 22.810546875 -2.838134765625
-0.3173828125 -29.48583984375 32.90576171875
-27.483154296875 39.186279296875 61.509765625
8.591796875 0.719970703125 15.299072265625
-13.061767578125 39.603515625 61.16943359375
-23.21142578125 26.828125 56.608642578125
35.72509765625 -66.17626953125 -17.345703125
21.6875 -58.770263671875 12.972900390625
37.859375 -13.74560546875 19.68994140625
-27.677001953125 25.12060546875 55.96630859375
-32.430908203125 16.496826171875 27.172607421875
-1.861083984375 7.51318359375 18.999267578125
20.957763671875 42.0048828125 -4.079345703125
-13.1083984375 55.557861328125 -1.30224609375
32.6767578125 -56.205322265625 -19.41650390625
34.08447265625 -60.846435546875 -18.8564453125
12.806884765625 -10.131591796875 21.55078125
7.36962890625 -43.804443359375 30.3662109375
-29.319580078125 54.68798828125 -2.543212890625
12.44775390625 12.891357421875 32.11181640625
19.59375 -36.3720703125 32.072998046875
53.09326171875 -80.312255859375 14.2080078125
-42.0537109375 34.470947265625 10.763427734375
46.927001953125 -32.84130859375 11.309326171875
68.150146484375 -52.461181640625 13.61376953125
69.6640625 -59.851318359375 13.04736328125
-29.108642578125 33.330078125 7.727783203125
33.0185546875 -43.92236328125 -20.520751953125
22.633544921875 29.177978515625 45.1650390625
16.58984375 -56.80126953125 18.521728515625
10.114501953125 19.546875 50.425048828125
-27.48291015625 -8.644775390625 19.1025390625
-38.279052734375 -4.00146484375 9.044677734375
-7.18798828125 -21.34228515625 22.603271484375
-12.18798828125 6.285400390625 22.86669921875
-5.75244140625 -28.989013671875 31.846923828125
20.89013671875 -49.163330078125 28.43408203125
-25.650146484375 71.77734375 1.80517578125
6.764892578125 -15.4248046875 26.1552734375
10.68115234375 48.800048828125 -1.501220703125
10.56396484375 -55.867919921875 21.654052734375
9.36181640625 -63.838623046875 7.5810546875
24.43701171875 -68.784423828125 -11.044921875
22.19482421875 -0.9501953125 16.794677734375
-7.222900390625 16.76025390625 49.604736328125
-58.377197265625 67.689697265625 4.052001953125
59.318115234375 -41.767822265625 -17.1875
20.383056640625 -7.850341796875 24.498291015625
-11.416748046875 17.58544921875 46.06640625
-0.755859375 -26.106201171875 35.273681640625
5.11474609375 -1.13330078125 15.671142578125
30.13525390625 -29.376708984375 39.21044921875
-42.913330078125 46.218505859375 3.128662109375
29.072265625 36.484375 -4.275634765625
33.633544921875 -50.881103515625 -20.077880859375
2.249755859375 58.1025390625 -4.44189453125
20.689208984375 -62.24072265625 6.518798828125
-63.865234375 67.43701171875 4.716064453125
-26.22216796875 -11.55322265625 17.4482421875
-24.864013671875 67.005126953125 0.277587890625
-14.146240234375 -1.002685546875 17.86376953125
-22.21923828125 56.493896484375 -0.34423828125
44.885986328125 -26.07421875 12.15185546875
33.7548828125 -20.915283203125 44.802978515625
-10.291015625 22.28466796875 51.592041015625
-39.265625 0.8046875 9.57373046875
-23.2841796875 7.0537109375 23.770263671875
-17.966552734375 2.441162109375 21.422607421875
-31.820068359375 -3.9228515625 15.746337890625
58.0615234375 -60.318115234375 8.885009765625
-24.298583984375 44.1884765625 14.6591796875
40.6484375 -54.753173828125 -17.93701171875
-0.739013671875 10.20751953125 22.012939453125
10.363037109375 -27.2041015625 33.851318359375
19.478515625 22.43359375 55.877197265625
27.296630859375 -9.58154296875 26.15576171875
71.16650390625 -73.74853515625 11.078125
-9.26708984375 -15.06787109375 26.494873046875
33.33740234375 -70.33251953125 -12.41748046875
-23.168701171875 -18.500732421875 28.010498046875
12.30517578125 40.316650390625 -1.826171875
25.298828125 4.74365234375 18.772705078125
51.873779296875 -64.65966796875 16.47607421875
39.0009765625 -20.959716796875 16.71728515625
49.22216796875 -58.2880859375 -15.76416015625
60.928955078125 -10.513671875 20.626708984375
-8.39306640625 -23.465576171875 36.328369140625
30.6083984375 -67.567626953125 -17.220947265625
61.336669921875 -4.080810546875 21.762939453125
-78.360107421875 50.8515625 16.321533203125
53.494873046875 -46.623779296875 -17.4931640625
7.616943359375 -10.201171875 19.7646484375
55.950927734375 -41.35546875 -17.95849609375
-26.738037109375 61.58984375 -4.15625
-26.1884765625 52.460693359375 37.175537109375
9.194580078125 30.307861328125 56.282470703125
-57.472412109375 62.018310546875 1.076904296875
51.07080078125 16.583740234375 -8.662109375
-12.54931640625 18.344482421875 38.924560546875
4.439453125 -22.729248046875 33.3740234375
73.361572265625 -63.741455078125 15.706787109375
-49.578125 13.648681640625 21.5859375
-39.468994140625 72.17578125 5.144775390625
-30.712158203125 34.267333984375 59.295166015625
36.65234375 -1.647216796875 14.88818359375
-28.20654296875 19.5498046875 26.276611328125
-32.614501953125 72.600341796875 5.449951171875
23.8095703125 -13.91845703125 42.385498046875
-19.4853515625 -4.031005859375 18.451416015625
-23.62060546875 38.79443359375 60.846435546875
32.351318359375 13.4775390625 20.06298828125
14.15771484375 56.070068359375 -4.14453125
-22.974853515625 45.0458984375 60.2666015625
-60.007080078125 51.617919921875 9.2568359375
6.66455078125 -39.16357421875 29.819580078125
-15.943359375 49.334716796875 53.655029296875
34.92626953125 19.704345703125 20.261962890625
-57.178466796875 58.722900390625 0.101806640625
13.911376953125 -23.097412109375 33.598388671875
-5.499755859375 60.297119140625 -3.196533203125
-22.43994140625 -6.9423828125 18.0517578125
27.379638671875 -21.659423828125 41.04736328125
35.38720703125 54.8076171875 32.21435546875
8.130126953125 59.852783203125 -2.68212890625
62.552001953125 -27.1826171875 17.822265625
-27.70947265625 51.5380859375 43.468994140625
-25.613525390625 50.376220703125 49.954833984375
-7.4658203125 -25.472900390625 31.860595703125
-36.884033203125 37.32861328125 1.452880859375
-52.797119140625 65.219482421875 1.498046875
-30.008544921875 69.551025390625 0.392333984375
-3.177001953125 4.62451171875 16.973876953125
19.56103515625 -7.890869140625 19.400146484375
-44.394775390625 -2.252685546875 7.72412109375
-6.123046875 56.8193359375 -2.409912109375
-37.28564453125 -12.46875 11.62353515625
-25.978271484375 35.1552734375 10.72802734375
-16.070556640625 -9.3994140625 20.320068359375
13.25390625 17.403564453125 35.17431640625
31.951416015625 -3.6630859375 18.35009765625
17.913818359375 26.326171875 54.83935546875
-26.158203125 -15.847900390625 22.361083984375
33.968994140625 -11.258544921875 20.886474609375
34.520263671875 -8.236328125 14.661865234375
-24.1806640625 27.271240234375 8.498046875
-70.091796875 54.169921875 3.470947265625
20.697265625 4.53173828125 18.597900390625
56.7958984375 13.32421875 -7.427734375
-7.642333984375 66.6025390625 -0.8828125
-75.6220703125 65.971435546875 4.122802734375
41.4697265625 -65.11279296875 -16.60107421875
30.901611328125 -26.260009765625 40.1416015625
56.394775390625 -68.460693359375 11.78759765625
36.758544921875 14.605712890625 18.662109375
-30.345458984375 27.753173828125 10.73046875
-29.0048828125 -1.756591796875 16.679443359375
14.321044921875 18.391845703125 44.082763671875
12.588134765625 58.82177734375 -2.242919921875
16.831298828125 10.130615234375 24.191650390625
35.583984375 -13.664794921875 26.827880859375
46.830322265625 3.99462890625 16.6357421875
-51.259765625 54.58837890625 3.558837890625
21.876220703125 9.82275390625 22.010009765625
13.65234375 -16.207275390625 25.890625
53.04638671875 -10.03955078125 14.294921875
21.167236328125 43.109375 -7.47265625
22.353515625 -22.46142578125 37.266845703125
-31.47802734375 -15.693603515625 14.1572265625
57.156982421875 -52.072265625 -16.6494140625
-45.304931640625 41.69091796875 14.666015625
-23.350341796875 34.798095703125 59.51806640625
-49.578125 56.25390625 0.8232421875
22.223388671875 -27.953857421875 34.97607421875
-35.859130859375 17.396240234375 28.4404296875
-17.296142578125 35.294677734375 59.273193359375
15.981201171875 -16.9072265625 22.32421875
-16.24169921875 38.822509765625 60.9228515625
-37.299072265625 18.83984375 41.0302734375
-45.44677734375 59.12353515625 -1.45166015625
-2.29638671875 55.053955078125 1.103515625
67.347412109375 -64.804443359375 11.14306640625
60.262451171875 9.5498046875 -3.707275390625
-10.94287109375 37.303466796875 59.731201171875
-9.2685546875 26.253662109375 55.5673828125
25.8583984375 62.314453125 33.267822265625
54.519287109375 -73.66015625 16.885009765625
0.056640625 37.1630859375 61.95751953125
74.98681640625 -70.396728515625 18.768798828125
-55.278564453125 10.536376953125 19.740478515625
-20.741943359375 9.105224609375 26.034423828125
-19.921875 -10.42724609375 25.642578125
10.4580078125 -14.9775390625 24.755615234375
15.767822265625 -54.60107421875 23.33642578125
8.636474609375 -7.409912109375 16.808837890625
25.343994140625 39.3564453125 -3.66015625
7.01806640625 -16.194091796875 29.303466796875
-2.6572265625 49.071044921875 0.58056640625
46.95947265625 -46.02099609375 -17.71630859375
-53.22412109375 58.826416015625 -0.02734375
-34.364501953125 27.3271484375 7.907958984375
53.703125 -63.569091796875 11.3955078125
54.330322265625 -29.526123046875 10.951171875
-41.0546875 -8.4091796875 9.632568359375
-11.314208984375 -13.24755859375 24.034912109375
-16.211669921875 -16.1748046875 28.305908203125
-25.197265625 20.23828125 55.033447265625
-1.2314453125 28.68212890625 56.371826171875
24.58447265625 35.557373046875 -4.2666015625
30.831298828125 -4.433349609375 22.8759765625
35.245361328125 24.90185546875 -3.309326171875
-35.653564453125 39.83740234375 3.295166015625
13.20751953125 21.775146484375 53.280517578125
-25.715576171875 58.488037109375 -1.59716796875
-7.783447265625 3.03076171875 18.415283203125
18.174560546875 -65.639404296875 -0.287841796875
60.458984375 -76.361572265625 10.01171875
60.572998046875 -56.465576171875 -13.4375
-2.7607421875 -16.154296875 24.302490234375
-5.223876953125 -33.830078125 31.175537109375
-37.08154296875 13.147705078125 24.532470703125
47.91552734375 11.48583984375 18.79150390625
34.0068359375 3.386962890625 16.4365234375
11.953125 7.475830078125 20.369140625
14.590087890625 30.3662109375 -1.4130859375
61.075439453125 -49.919921875 12.463623046875
10.86181640625 3.43896484375 16.8662109375
10.007080078125 -11.043212890625 22.831298828125
65.183837890625 -52.2421875 11.12109375
64.352294921875 -43.88525390625 12.975341796875
36.7685546875 -69.025390625 -14.19677734375
-46.374755859375 51.561767578125 6.2080078125
17.574951171875 38.217041015625 -3.73291015625
13.839599609375 -48.18994140625 27.473388671875
3.0625 -13.99072265625 21.066650390625
-9.37841796875 -34.4658203125 22.234619140625
18.743896484375 -16.03662109375 38.684326171875
56.8798828125 -2.567138671875 17.64453125
58.31005859375 -10.392822265625 18.30322265625
19.892822265625 53.565185546875 -4.217529296875
-36.945556640625 43.7412109375 9.761474609375
40.04443359375 -7.0263671875 13.710693359375
60.34423828125 -45.6064453125 -16.638671875
14.19091796875 -7.315673828125 21.121826171875
2.23974609375 -2.351318359375 15.145751953125
23.87890625 -25.823486328125 38.22705078125
-33.946044921875 9.362060546875 17.51318359375
48.85400390625 0.95556640625 16.541748046875
14.552001953125 48.719482421875 -6.658447265625
-18.139404296875 50.21630859375 51.228271484375
-29.212890625 16.21337890625 26.68505859375
86.849365234375 -54.049560546875 26.81591796875
49.59765625 -28.65576171875 9.996826171875
22.02490234375 34.428955078125 -1.364990234375
-30.55322265625 61.4453125 -4.18212890625
87.1552734375 -52.526611328125 22.23095703125
30.796630859375 -11.97607421875 27.951171875
-11.9833984375 -6.25390625 17.619873046875
17.621826171875 -40.29345703125 30.799072265625
48.60546875 -64.763427734375 -14.79052734375
45.277587890625 -29.351806640625 15.01318359375
-34.876708984375 75.479248046875 5.869140625
26.09912109375 39.750732421875 -8.07080078125
53.20166015625 7.033447265625 18.88525390625
10.241455078125 -61.62548828125 9.61474609375
16.642578125 29.55322265625 0.807861328125
0.533203125 -31.5478515625 30.708984375
-2.082763671875 35.633544921875 58.783447265625
-29.75146484375 -18.485595703125 20.953857421875
-27.405517578125 50.843017578125 9.917236328125
9.006591796875 12.0107421875 24.995361328125
-63.630615234375 58.641357421875 1.174072265625
-29.910888671875 44.857421875 6.085693359375
46.552978515625 -3.44287109375 14.672607421875
-45.442626953125 51.451171875 2.953369140625
4.34619140625 53.03857421875 -2.777099609375
60.091064453125 -28.91845703125 13.85498046875
70.285888671875 -58.001708984375 15.466064453125
-33.80615234375 1.81298828125 11.8369140625
-38.744873046875 16.287841796875 22.5234375
-9.0302734375 67.887451171875 1.574951171875
-18.308349609375 60.2412109375 -2.358642578125
-9.0341796875 64.1923828125 -2.250244140625
37.556640625 9.890380859375 18.42919921875
40.381591796875 -68.943115234375 -12.135986328125
15.517333984375 -12.571044921875 22.843505859375
-78.693115234375 52.189208984375 6.650390625
-27.58056640625 47.86181640625 2.110107421875
2.08251953125 -28.556640625 25.23974609375
-72.3232421875 51.875244140625 10.286376953125
22.614501953125 -16.618408203125 41.4833984375
7.93505859375 46.671630859375 -2.387939453125
-67.841552734375 61.75439453125 1.98486328125
47.186279296875 -68.857177734375 -13.34765625
19.241455078125 -4.57275390625 19.049560546875
-30.649169921875 4.780029296875 14.765869140625
28.871337890625 62.494384765625 36.16015625
48.079345703125 -8.434814453125 14.9560546875
-24.340576171875 32.991455078125 9.291015625
-1.851806640625 65.857666015625 -0.505126953125
-77.469482421875 57.026611328125 5.66015625
-5.568115234375 -9.31640625 23.613525390625
-64.6240234375 52.24609375 5.6669921875
-42.638916015625 70.693115234375 0.954833984375
63.844970703125 -59.046630859375 11.252197265625
40.299072265625 20.790283203125 20.856689453125
41.496826171875 -13.479248046875 17.4248046875
31.272705078125 27.952880859375 -3.528076171875
20.147216796875 29.293212890625 46.928955078125
46.8681640625 18.413818359375 -3.674072265625
8.3818359375 -36.650634765625 29.982421875
35.90185546875 -48.9453125 -19.4658203125
-29.663818359375 29.21337890625 8.11865234375
62.787841796875 -40.555419921875 13.1181640625
17.53662109375 -21.968505859375 22.763916015625
-43.376953125 19.329833984375 23.32568359375
9.57666015625 -28.014404296875 31.031494140625
53.253662109375 12.53515625 19.2294921875
-32.588623046875 32.765380859375 4.563232421875
30.37451171875 27.537841796875 -0.49169921875
36.542724609375 27.743408203125 -6.271728515625
45.15283203125 -40.95361328125 -18.11962890625
-13.202392578125 9.0048828125 27.51953125
68.415283203125 -72.4814453125 10.970947265625
43.3671875 7.004150390625 18.176513671875
-47.550537109375 -7.25439453125 9.599609375
0.42138671875 31.983642578125 57.3876953125
-27.624755859375 -5.308837890625 16.280029296875
54.01416015625 -32.543212890625 9.756591796875
25.342529296875 9.521240234375 21.478759765625
22.1689453125 -19.216064453125 38.667724609375
-76.12646484375 50.505615234375 12.32080078125
7.99169921875 4.77294921875 16.4521484375
42.701171875 -66.889404296875 -14.494384765625
3.24609375 5.107421875 16.8583984375
13.943115234375 -17.84716796875 28.935302734375
-54.093505859375 -1.67529296875 8.1943359375
43.834228515625 -11.84228515625 15.57763671875
5.0908203125 14.20263671875 34.35302734375
-21.537353515625 43.873046875 15.79248046875
-35.6015625 52.9970703125 3.33544921875
17.21435546875 -21.408447265625 37.0830078125
6.156005859375 -18.253662109375 26.931884765625
-55.11865234375 51.68115234375 9.137939453125
2.560791015625 -19.845458984375 32.03564453125
-11.9501953125 -23.691162109375 22.5966796875
-18.39599609375 45.27001953125 60.481201171875
39.96044921875 -18.208984375 16.060302734375
13.5849609375 -18.877197265625 35.732421875
22.43603515625 39.01708984375 -1.047119140625
54.373779296875 -54.249755859375 -16.23779296875
-10.582275390625 32.27001953125 57.775390625
-20.123291015625 1.7490234375 19.496337890625
-39.20068359375 74.135009765625 7.364501953125
24.9072265625 61.887939453125 39.1865234375
-43.306640625 51.760498046875 -1.4951171875
43.1962890625 -47.639404296875 -13.179931640625
-68.335693359375 66.115966796875 3.514892578125
-22.07861328125 29.302001953125 57.7841796875
-48.4326171875 5.205322265625 14.361328125
8.994873046875 -31.880615234375 24.70361328125
43.546630859375 1.157958984375 16.157958984375
-30.459716796875 76.323974609375 -15.30078125
42.498046875 -33.021728515625 23.13818359375
17.96826171875 -52.349853515625 25.427490234375
57.263671875 -12.34814453125 16.3515625
54.957275390625 -17.119873046875 14.374267578125
-2.950439453125 55.976806640625 -1.64501953125
60.916748046875 -36.092041015625 12.485107421875
17.20166015625 5.71826171875 19.36572265625
44.290771484375 -22.885986328125 13.937255859375
-42.882568359375 56.395263671875 -2.924560546875
10.103515625 49.9697265625 -4.822998046875
-12.7412109375 48.93505859375 60.068115234375
-33.981201171875 66.021240234375 -2.43701171875
-17.640380859375 52.628173828125 45.027099609375
58.981689453125 -78.97998046875 12.178466796875
29.57177734375 39.521728515625 -9.538330078125
-38.703857421875 50.7275390625 2.033447265625
-21.849609375 61.965087890625 -1.685791015625
-23.525634765625 29.991943359375 9.394287109375
-0.40869140625 -22.904052734375 33.701171875
36.73046875 -16.663330078125 24.383544921875
-49.450439453125 66.39306640625 1.96533203125
-11.792236328125 68.977783203125 4.42236328125
53.559326171875 3.243896484375 18.805908203125
16.63818359375 -32.7646484375 29.612548828125
57.71533203125 6.317626953125 22.654541015625
9.970703125 41.9541015625 -2.474853515625
20.53515625 -1.68310546875 19.087890625
4.6328125 -40.598876953125 31.353515625
12.365966796875 -59.203857421875 13.971435546875
9.326171875 -28.91943359375 27.689208984375
-6.80224609375 -25.47412109375 34.935791015625
33.126220703125 0.517333984375 16.486572265625
40.537109375 6.617919921875 17.590576171875
9.052978515625 -53.326416015625 25.372314453125
45.29345703125 -17.282958984375 13.212890625
-30.234130859375 53.208740234375 0.916259765625
-7.8603515625 9.922607421875 27.069580078125
-73.6953125 60.132080078125 2.3466796875
39.244140625 -52.940673828125 -16.1474609375
-34.68701171875 19.84716796875 23.970947265625
6.0234375 49.26953125 -0.998779296875
-11.771240234375 21.115966796875 47.87646484375
-54.05517578125 54.0947265625 4.14892578125
12.466552734375 29.947265625 55.548828125
-5.3466796875 -13.8056640625 22.368408203125
-15.253662109375 55.4306640625 0.628173828125
6.037841796875 -13.265869140625 21.16015625
31.184814453125 -12.754150390625 30.932373046875
-29.9443359375 -11.67041015625 13.32568359375
12.22900390625 -29.55859375 32.927490234375
33.560302734375 -23.3681640625 42.887939453125
11.386474609375 -12.040283203125 19.924072265625
19.086181640625 9.3291015625 20.948486328125
30.345703125 7.87744140625 18.9619140625
44.92236328125 17.423095703125 20.208251953125
-30.156494140625 27.2587890625 56.761474609375
-45.7421875 10.289306640625 18.929443359375
21.21923828125 1.81884765625 17.8037109375
23.505126953125 48.534423828125 -6.51171875
-18.4833984375 67.800048828125 0.31787109375
-5.763916015625 -8.5146484375 18.509033203125
-14.404541015625 44.739013671875 61.206787109375
-27.144287109375 22.27587890625 55.56689453125
