-7.71875 -10.947509765625 -30.13671875
7.83154296875 25.06689453125 9.64404296875
28.410400390625 42.14013671875 41.439697265625
-16.12353515625 52.82080078125 -4.740234375
-6.843505859375 22.736328125 6.36572265625
-13.44775390625 75.470703125 36.462890625
10.97802734375 -14.7255859375 -27.2275390625
-17.4013671875 54.34912109375 -10.972900390625
3.068115234375 62.762451171875 22.283203125
-14.69873046875 55.030517578125 9.28076171875
-8.66943359375 53.48486328125 15.616455078125
3.061767578125 3.56787109375 -31.085693359375
33.72802734375 13.47119140625 -9.454833984375
13.95361328125 -21.308837890625 -14.336669921875
7.394775390625 -21.240478515625 -15.55029296875
18.38232421875 -5.24169921875 -28.312255859375
43.4150390625 -6.50341796875 -29.905029296875
60.937255859375 -1.53759765625 -25.052978515625
35.370849609375 -3.236572265625 -27.875
5.634033203125 -35.853759765625 -17.941162109375
8.481201171875 49.4990234375 30.010986328125
62.277587890625 -14.0615234375 -22.49951171875
1.3955078125 7.343994140625 -29.087158203125
43.10498046875 -26.828369140625 -22.50732421875
39.469482421875 23.284912109375 -14.998779296875
1.567626953125 65.94482421875 27.821044921875
24.546630859375 9.298828125 -19.1044921875
-0.631103515625 31.763671875 13.926513671875
53.2919921875 -45.745849609375 -63.4822998046875
18.79443359375 -17.23779296875 -22.17041015625
-13.062744140625 34.224853515625 14.3154296875
13.647705078125 44.953125 32.0869140625
-13.787109375 -0.59619140625 -31.4501953125
-75.001953125 52.589599609375 2.516357421875
25.436767578125 -46.15185546875 -19.836181640625
15.985107421875 1.494384765625 -30.742919921875
-18.67236328125 30.76904296875 12.647216796875
-13.50146484375 51.878662109375 10.11376953125
3.28857421875 -32.436767578125 -16.642333984375
30.68798828125 -42.849853515625 -18.79833984375
-33.951171875 -28.27294921875 -16.802001953125
-12.885009765625 4.285400390625 -28.0537109375
58.72900390625 -4.8447265625 -28.04638671875
-67.6650390625 57.17333984375 -1.79443359375
-13.807373046875 49.387451171875 3.1650390625
11.632568359375 -2.95849609375 -32.237548828125
64.7734375 -28.44921875 -23.919921875
-13.053955078125 -16.65576171875 -15.905029296875
-42.869384765625 40.6728515625 12.7021484375
13.070068359375 53.362060546875 25.445068359375
57.1083984375 -27.28076171875 -33.87841796875
-22.93017578125 -15.15771484375 29.627197265625
-1.900146484375 -7.907958984375 -31.696044921875
-54.22216796875 55.09130859375 2.04541015625
22.33837890625 -11.023193359375 -25.194091796875
2.71728515625 28.3759765625 12.947509765625
-21.290283203125 40.645751953125 15.9873046875
10.040283203125 51.67041015625 24.11865234375
-38.513671875 30.7333984375 12.49609375
14.56591796875 50.491943359375 27.26318359375
55.805419921875 -53.3603515625 -64.166259765625
19.001220703125 45.01171875 36.2919921875
38.288818359375 -9.3369140625 -26.1875
4.852294921875 -12.556640625 -29.99951171875
-1.763427734375 -24.019287109375 -26.650390625
29.3193359375 -11.452392578125 -22.117919921875
0.414306640625 55.984130859375 16.524169921875
10.77001953125 21.104248046875 8.062744140625
39.608154296875 -6.439208984375 -29.0966796875
65.69677734375 -12.819091796875 -15.79150390625
-12.42431640625 -18.9228515625 -24.283935546875
38.077880859375 12.353271484375 -24.371337890625
9.67333984375 -10.176025390625 -31.05322265625
47.505859375 -11.67138671875 -24.850830078125
-4.56640625 -12.579345703125 -29.1396484375
50.794189453125 -14.12255859375 -22.262451171875
25.69091796875 47.803955078125 41.634765625
-3.66650390625 2.413818359375 -29.277099609375
-16.306396484375 76.09814453125 29.626220703125
-10.642578125 41.28125 15.999267578125
26.1181640625 35.10595703125 46.3115234375
59.8564453125 -54.653564453125 -63.877685546875
66.403076171875 -53.791259765625 -61.9669189453125
14.913330078125 -42.83642578125 -18.64404296875
5.83984375 -40.376708984375 -19.14990234375
85.006591796875 -36.1318359375 26.844482421875
-0.15625 2.2568359375 -31.845947265625
-11.02978515625 52.473876953125 13.63330078125
52.016845703125 -48.044189453125 -57.1605224609375
47.264892578125 -16.951904296875 -27.14111328125
13.72265625 -36.86865234375 -18.6044921875
53.093505859375 -5.077392578125 -28.6611328125
-22.184326171875 8.102783203125 -23.42919921875
6.209228515625 -31.12548828125 -22.781005859375
61.12939453125 -48.908935546875 -63.6246337890625
30.28759765625 -22.1884765625 -5.69580078125
71.5380859375 -43.43115234375 -60.96533203125
57.890869140625 -31.21337890625 -31.404541015625
-27.03125 38.258544921875 14.735595703125
-14.48583984375 53.78662109375 12.50634765625
-69.655517578125 54.658447265625 -1.2255859375
3.753662109375 -2.958251953125 -32.557861328125
-7.14306640625 38.9228515625 16.8623046875
-9.625244140625 -17.515380859375 -21.6064453125
23.2294921875 -18.12744140625 -21.304443359375
-17.443603515625 -19.6279296875 -26.45068359375
-25.03173828125 100.287841796875 29.827880859375
-14.342529296875 -26.140380859375 28.132568359375
25.0712890625 -2.216552734375 -28.19482421875
-68.30029296875 51.89013671875 0.7158203125
19.149169921875 41.610595703125 40.72998046875
-3.927001953125 23.368896484375 7.53857421875
-2.01318359375 -20.606201171875 -23.442626953125
-12.8427734375 -16.89794921875 -28.016845703125
19.639892578125 39.95654296875 46.213623046875
21.307861328125 -21.32421875 -22.531005859375
-24.613037109375 34.61865234375 14.373779296875
19.22216796875 53.63623046875 33.02783203125
38.2197265625 17.064453125 -24.6318359375
21.181640625 0.057373046875 -27.226806640625
59.642822265625 -14.46826171875 -24.537353515625
27.762451171875 -12.892578125 -15.27783203125
-74.420166015625 57.831787109375 -2.80517578125
23.687744140625 10.64208984375 -16.42578125
6.758056640625 -26.814697265625 -19.0166015625
64.18701171875 -24.900390625 -24.828857421875
-73.79150390625 54.871826171875 -1.55322265625
31.186767578125 13.536865234375 -4.13671875
52.306884765625 -21.65771484375 -29.418701171875
27.940673828125 -26.632080078125 -10.113037109375
63.151611328125 -4.278564453125 -23.739501953125
-18.17626953125 46.060302734375 -28.266357421875
29.946533203125 -16.6171875 -2.803466796875
-4.187255859375 25.451416015625 11.06689453125
22.177978515625 -35.34228515625 -19.139404296875
-60.560302734375 59.4345703125 -0.6240234375
10.05126953125 -31.44384765625 -23.2021484375
59.783935546875 -45.8828125 -64.1600341796875
-7.5146484375 -0.8974609375 -31.057861328125
-80.00927734375 56.854248046875 -1.461181640625
26.212890625 -12.9697265625 -3.134521484375
-38.0927734375 34.05029296875 12.547607421875
-5.46337890625 35.42333984375 15.323486328125
-18.990966796875 21.963134765625 10.046142578125
-63.08984375 53.767822265625 0.416015625
55.87255859375 -9.967041015625 -25.914794921875
-1.5478515625 -27.302490234375 -17.72705078125
66.9306640625 -49.618896484375 -62.06103515625
44.152099609375 21.615966796875 -12.28369140625
-0.045654296875 -37.56201171875 -21.083740234375
56.452880859375 -15.44921875 -28.742431640625
2.279296875 -19.54541015625 -21.70751953125
-10.4130859375 49.455810546875 10.716552734375
8.232421875 -18.234130859375 -21.88525390625
45.206298828125 -15.912109375 -23.844970703125
19.53466796875 -23.32666015625 -12.548828125
53.615966796875 -22.32861328125 -23.8251953125
16.53369140625 22.618896484375 -1.658935546875
-69.028564453125 60.035400390625 -2.171630859375
32.37109375 -30.5478515625 -9.33056640625
20.1015625 6.32861328125 -25.3896484375
-14.9296875 42.0390625 14.473388671875
-2.139892578125 37.377685546875 14.812744140625
15.91357421875 7.307861328125 -23.181396484375
-54.660888671875 57.783447265625 0.12060546875
-8.102294921875 -7.96826171875 -30.312744140625
28.66845703125 2.252197265625 -26.853271484375
41.63134765625 17.659912109375 -22.080322265625
-20.878173828125 -21.943359375 30.777099609375
55.27197265625 -51.001220703125 -62.4017333984375
25.32177734375 -31.590087890625 -15.178466796875
29.133056640625 -34.296630859375 -13.20947265625
31.33056640625 -19.598388671875 -3.85791015625
48.135009765625 -26.45458984375 -26.4052734375
16.12744140625 -3.750244140625 -29.575439453125
1.95556640625 -29.703125 -16.251708984375
70.961181640625 -49.6357421875 -61.2183837890625
1.053955078125 -34.388671875 -18.178466796875
5.807373046875 -18.957275390625 -20.316650390625
24.599365234375 -27.109375 -22.842529296875
19.73876953125 -33.40966796875 -16.938232421875
36.137451171875 -13.0322265625 2.131103515625
18.831298828125 -45.8193359375 -19.848388671875
-78.740966796875 54.119140625 -0.7470703125
5.127197265625 -6.242431640625 -33.22265625
-16.084716796875 52.614501953125 1.1044921875
-19.94580078125 4.582763671875 -27.222900390625
11.923583984375 58.94921875 24.489990234375
35.709228515625 -22.036865234375 -2.188720703125
-2.260986328125 -39.093994140625 -24.52734375
50.491455078125 -51.910400390625 -60.7569580078125
23.338134765625 -42.871337890625 -16.8828125
62.99755859375 -11.04638671875 -20.684814453125
57.3447265625 -21.11865234375 -30.908447265625
23.87939453125 43.66748046875 37.72412109375
-9.283447265625 33.304443359375 13.808349609375
35.890625 -18.411376953125 0.043212890625
64.99853515625 -8.230712890625 -19.34326171875
11.4111328125 -12.796142578125 -29.384033203125
-1.9619140625 5.594970703125 -31.256591796875
-0.979248046875 66.115966796875 26.402587890625
-52.801025390625 52.2578125 3.821533203125
-5.83349609375 67.9033203125 24.83740234375
-5.5908203125 55.330322265625 18.71435546875
27.1533203125 -20.650634765625 -7.171142578125
10.839599609375 5.55712890625 -29.92236328125
-31.658935546875 -28.591064453125 -10.4697265625
16.607666015625 -19.1923828125 -17.156494140625
25.21826171875 -35.52685546875 -17.460693359375
25.054443359375 -39.5986328125 -16.88671875
-12.926513671875 26.42529296875 13.6220703125
-18.738037109375 47.7265625 -1.207275390625
62.76416015625 -43.09912109375 -63.16796875
21.427978515625 -24.11962890625 -23.447998046875
9.96826171875 27.347900390625 12.83740234375
-16.416015625 -9.23828125 25.181396484375
15.274658203125 -33.785400390625 -17.74853515625
-21.41162109375 26.061279296875 10.602783203125
32.2841796875 6.305419921875 -25.532958984375
2.651123046875 46.1162109375 -42.4140625
59.56494140625 -24.265869140625 -26.62255859375
-8.98779296875 60.22607421875 12.847412109375
22.242431640625 54.117431640625 43.4111328125
4.470458984375 22.819091796875 -0.90380859375
-18.1279296875 -18.93359375 26.666748046875
62.488525390625 -15.587890625 -24.885009765625
23.572021484375 35.717041015625 50.701416015625
38.540771484375 -14.0673828125 -20.21728515625
-16.861083984375 -22.110595703125 27.135986328125
46.240234375 -9.2802734375 -27.158447265625
55.13427734375 -0.1796875 -27.4951171875
-77.483642578125 58.80908203125 -2.146728515625
-24.5302734375 23.207763671875 8.3134765625
58.74169921875 -28.28564453125 -31.049560546875
33.337158203125 -12.789794921875 0.763671875
-64.59814453125 57.658447265625 -1.109130859375
-3.544677734375 -42.70703125 -18.547607421875
-4.2060546875 -6.62744140625 -30.752197265625
-22.08935546875 -18.360107421875 30.004638671875
20.286376953125 51.7578125 34.875
56.2412109375 -42.44970703125 -65.1392822265625
11.07470703125 -19.675048828125 -16.971923828125
15.382080078125 -16.7421875 -19.52197265625
7.75048828125 -42.386962890625 -18.29248046875
24.809814453125 -24.62548828125 -11.388427734375
-32.9462890625 28.798828125 10.689208984375
15.06689453125 19.85546875 -3.48388671875
-13.4482421875 22.401611328125 9.705810546875
-14.10302734375 1.990966796875 -30.13427734375
28.07763671875 -9.037353515625 -24.45458984375
-10.53955078125 -18.10302734375 -17.517578125
-59.178466796875 57.005859375 -0.376953125
8.656005859375 -7.86669921875 -32.147705078125
-36.57568359375 36.7490234375 13.823974609375
2.9306640625 -25.491455078125 -14.642822265625
-4.982177734375 -21.446533203125 -27.29345703125
1.740966796875 -21.299072265625 -17.04736328125
4.2646484375 18.27001953125 -2.302001953125
-18.9970703125 45.555419921875 9.94970703125
56.668701171875 -17.8056640625 -31.13525390625
-2.8232421875 -18.2255859375 -27.5166015625
22.09033203125 -30.203369140625 -20.59326171875
-58.3974609375 52.086669921875 2.113525390625
60.8037109375 -57.5986328125 -63.17236328125
8.208984375 -16.344970703125 -25.975830078125
13.22900390625 58.51123046875 30.264404296875
-15.063232421875 60.983154296875 10.947509765625
-13.8515625 24.89208984375 11.5625
-8.78759765625 28.227294921875 11.381103515625
59.6064453125 -7.905517578125 -22.367431640625
67.315673828125 -40.11376953125 -62.5992431640625
82.631103515625 -29.962646484375 28.08154296875
0.30078125 63.9267578125 22.16796875
54.71923828125 -7.460693359375 -29.19091796875
29.46484375 -2.62744140625 -27.154052734375
51.22705078125 -19.22314453125 -29.92529296875
-21.147705078125 16.683837890625 7.574951171875
53.373291015625 -27.5927734375 -26.396240234375
47.653076171875 -19.60302734375 -27.519287109375
-6.578857421875 55.81494140625 14.520751953125
10.729248046875 -17.74560546875 -19.5029296875
-19.29638671875 73.213623046875 27.980224609375
24.180908203125 48.1083984375 39.33154296875
65.39501953125 -20.61181640625 -19.487548828125
49.473388671875 -47.20654296875 -60.7598876953125
-0.97021484375 -24.7548828125 -14.3154296875
15.90234375 43.3818359375 35.11572265625
24.1826171875 5.819580078125 -24.719482421875
-17.449462890625 -26.043701171875 29.806884765625
-20.625244140625 8.331787109375 -20.9052734375
-0.3779296875 -13.245849609375 -29.056396484375
11.843994140625 57.705810546875 14.5595703125
-1.5546875 -28.957275390625 -27.701171875
-20.734619140625 -21.2275390625 -25.12451171875
15.365234375 4.9541015625 -29.461181640625
-14.07421875 -19.36962890625 -26.333740234375
26.27001953125 1.33544921875 -27.563720703125
-76.057373046875 53.60986328125 -0.231201171875
-29.208984375 32.3779296875 12.327880859375
21.08837890625 -18.572021484375 -23.43359375
17.008544921875 -0.822509765625 -29.6435546875
6.05712890625 -34.253173828125 -20.0166015625
19.67431640625 2.963623046875 -27.94580078125
-10.454345703125 52.843994140625 17.46435546875
2.777099609375 -17.337158203125 -26.132080078125
-18.44677734375 25.2509765625 11.666259765625
18.405029296875 47.879638671875 31.751220703125
-0.1630859375 -2.9296875 -31.89306640625
-31.490966796875 25.331787109375 10.49755859375
18.756591796875 17.020751953125 -7.265869140625
12.7744140625 -0.685546875 -31.556396484375
-8.077392578125 -19.497314453125 -18.96728515625
29.359619140625 -13.5859375 -17.4326171875
-8.3134765625 -20.2939453125 -23.67529296875
3.74755859375 -9.41162109375 -32.686279296875
9.858154296875 -34.277099609375 -24.4912109375
21.32666015625 -13.293701171875 -24.3662109375
16.5595703125 -9.46484375 -30.0078125
30.600830078125 -27.642578125 -8.394287109375
50.884521484375 9.299072265625 -24.265869140625
5.72265625 -19.570068359375 -17.777587890625
22.830322265625 40.455810546875 41.0146484375
-1.126220703125 19.241943359375 -1.879150390625
-14.32861328125 48.377197265625 5.515625
-19.056396484375 51.35400390625 -26.531982421875
-17.775634765625 50.82275390625 -5.414306640625
-18.199951171875 44.07177734375 -29.94970703125
11.446044921875 -37.041259765625 -19.8505859375
27.310546875 6.490234375 -23.268310546875
11.433837890625 -27.843017578125 -23.70703125
-15.3896484375 74.285888671875 34.25732421875
48.22607421875 -29.724365234375 -27.75439453125
53.11328125 -51.5908203125 -60.450927734375
26.6318359375 -24.27099609375 -9.58642578125
-5.374755859375 39.10595703125 14.986572265625
24.94921875 50.941650390625 37.77001953125
29.73974609375 14.922119140625 -5.76416015625
-4.808837890625 -3.033447265625 -31.83056640625
43.1533203125 -25.0791015625 -25.46435546875
24.084716796875 -29.2841796875 -24.8828125
-16.02783203125 55.364013671875 0.8427734375
-41.943359375 38.254150390625 12.8427734375
61.196533203125 -17.76416015625 -28.466796875
12.330322265625 57.569091796875 19.513916015625
-17.740234375 70.68408203125 36.191650390625
45.870849609375 -22.265380859375 -26.900146484375
36.68359375 14.145263671875 -23.198486328125
47.061767578125 14.000244140625 -22.681640625
30.8447265625 -24.685791015625 -6.869384765625
-9.893798828125 -1.815185546875 -31.767578125
63.98974609375 -19.29150390625 -21.162841796875
-20.3359375 20.93408203125 7.95947265625
39.630126953125 25.70654296875 -15.719482421875
2.540283203125 -14.690673828125 -28.991455078125
20.626953125 -1.714599609375 -28.9443359375
64.003662109375 -20.45849609375 -25.4541015625
32.853515625 -12.5029296875 -23.53955078125
-2.3154296875 -44.449951171875 -20.402587890625
-21.86572265625 -22.120849609375 -22.206298828125
27.951416015625 45.758056640625 41.898193359375
-9.885009765625 -4.409912109375 -31.791259765625
65.923583984375 -22.846923828125 -21.428466796875
-4.201416015625 -24.402099609375 -27.037841796875
-2.001220703125 57.962646484375 14.802978515625
-16.71826171875 53.976806640625 -8.074951171875
-7.8876953125 19.552978515625 4.858642578125
-8.583740234375 42.014892578125 17.1982421875
-72.269775390625 59.216552734375 -3.785400390625
14.40966796875 24.271484375 2.94287109375
-7.942626953125 49.2705078125 12.0810546875
-19.02197265625 3.466064453125 -29.24365234375
61.892578125 -30.490478515625 -27.673583984375
12.398681640625 -25.927734375 -17.617431640625
46.708984375 23.02001953125 -8.84912109375
41.589111328125 -13.17578125 -23.979248046875
16.23486328125 -16.336669921875 -24.145263671875
9.465087890625 23.967529296875 8.0380859375
42.88427734375 -20.4912109375 -25.659423828125
-14.837158203125 46.6396484375 9.8828125
12.054931640625 -24.85107421875 -13.457763671875
37.441650390625 24.611572265625 -15.484619140625
0.319580078125 -21.795166015625 -14.283447265625
34.362060546875 -6.364013671875 -27.110595703125
35.193359375 -13.362548828125 -19.97021484375
5.787353515625 30.241455078125 13.587646484375
-4.315185546875 68.877197265625 29.048828125
-17.368408203125 -12.8505859375 25.322509765625
59.87109375 -2.851318359375 -26.814697265625
-10.320068359375 72.603271484375 37.570556640625
-21.866943359375 35.41015625 14.49853515625
17.261962890625 21.08544921875 -3.41064453125
-6.070556640625 33.0546875 13.76708984375
26.24072265625 -14.13671875 -13.846923828125
16.242431640625 -29.11376953125 -15.82666015625
-1.633544921875 -29.6357421875 -25.369384765625
0.830322265625 51.88330078125 21.3251953125
-56.4384765625 54.171875 1.672119140625
-11.575927734375 25.00048828125 9.478759765625
24.0830078125 37.13525390625 47.589599609375
37.2138671875 5.65234375 -25.138916015625
-15.123046875 30.69580078125 13.210693359375
-0.80517578125 -36.816162109375 -23.45556640625
-23.71533203125 19.098388671875 8.79443359375
-15.65966796875 49.31591796875 1.25146484375
-13.949951171875 73.88330078125 38.817626953125
12.052734375 56.662109375 23.59375
-19.22509765625 18.261962890625 7.09912109375
-16.945556640625 38.456298828125 -31.44482421875
57.895263671875 -1.495849609375 -26.998779296875
-6.306884765625 30.815185546875 12.6513671875
-2.55419921875 -39.94921875 -19.200439453125
-26.58349609375 -11.710205078125 31.392822265625
19.355224609375 -39.467529296875 -17.61669921875
-18.55322265625 52.782470703125 -28.65966796875
5.84033203125 -1.7890625 -32.488525390625
10.0205078125 25.9599609375 10.011962890625
64.20556640625 -6.1904296875 -22.76220703125
-10.27978515625 3.914306640625 -30.107666015625
-19.87548828125 24.3212890625 9.90478515625
13.241943359375 -5.146240234375 -32.0419921875
-3.32373046875 20.048828125 4.517333984375
11.513427734375 -29.968505859375 -22.0390625
-20.42236328125 -9.08154296875 26.66845703125
-63.364013671875 59.646728515625 -0.674072265625
9.6201171875 56.640869140625 21.669921875
21.618408203125 -27.9296875 -20.07861328125
-18.367919921875 71.839599609375 32.457275390625
17.290771484375 49.380126953125 30.22802734375
52.905517578125 5.082763671875 -24.849853515625
-11.48583984375 38.818603515625 15.593994140625
-16.04443359375 56.25830078125 -3.1123046875
-0.716796875 -0.10791015625 -31.22607421875
7.843017578125 51.11279296875 23.4287109375
-19.109619140625 53.50927734375 -24.514892578125
-0.455810546875 -41.748291015625 -19.201904296875
-19.437744140625 42.50634765625 -32.00146484375
15.75537109375 -24.467529296875 -12.808349609375
-21.000732421875 44.522705078125 10.64794921875
-6.157470703125 -17.549560546875 -25.75732421875
-11.9375 32.3984375 13.34228515625
-17.4755859375 49.668701171875 -0.7802734375
-4.865234375 63.02685546875 19.93701171875
-1.01513671875 65.275390625 24.16015625
-1.570068359375 51.37158203125 19.364013671875
14.721923828125 24.25341796875 -1.255615234375
-16.402587890625 75.120361328125 32.27490234375
-14.258056640625 27.19873046875 11.34423828125
38.573486328125 21.112548828125 -15.031005859375
58.64697265625 -56.84765625 -63.71826171875
15.909423828125 6.58544921875 -25.498046875
60.626220703125 -6.44873046875 -27.31396484375
22.453125 35.16064453125 48.718017578125
22.540771484375 -29.6015625 -23.148681640625
7.85888671875 26.76123046875 12.0029296875
56.7509765625 -11.8798828125 -23.515625
2.256591796875 -44.641357421875 -20.2177734375
0.686279296875 20.898193359375 -2.018310546875
-6.433349609375 60.417724609375 13.922119140625
7.7763671875 0.926513671875 -31.610107421875
17.666748046875 8.564208984375 -25.7490234375
21.405517578125 38.547607421875 46.806396484375
-43.769287109375 35.97314453125 12.77197265625
27.982666015625 -39.7890625 -17.0419921875
15.92578125 41.630859375 45.987060546875
5.191650390625 57.16455078125 18.15673828125
-3.074462890625 27.662353515625 12.355224609375
-16.450439453125 51.025634765625 -3.293701171875
49.5595703125 -46.377197265625 -55.638427734375
57.865234375 -13.959228515625 -23.123779296875
-5.323486328125 53.364501953125 17.357421875
41.34619140625 24.11474609375 -16.08544921875
22.8466796875 -38.591552734375 -18.48193359375
26.7177734375 2.02978515625 -25.19091796875
22.96484375 -13.535888671875 -21.790771484375
3.034912109375 50.9375 21.874755859375
-26.69775390625 34.44775390625 13.396484375
18.726806640625 -29.201416015625 -15.618896484375
0.39599609375 29.58447265625 13.256103515625
-22.75244140625 -11.183349609375 28.824462890625
1.8427734375 59.71728515625 16.46435546875
24.62353515625 -33.18408203125 -23.556396484375
24.02587890625 45.873291015625 37.067626953125
-14.556396484375 77.354248046875 37.17333984375
16.566650390625 12.8828125 -12.30810546875
-15.930908203125 25.214111328125 10.640869140625
14.31884765625 55.06689453125 26.40185546875
43.778076171875 -11.357421875 -24.581298828125
65.76611328125 -16.796875 -17.828369140625
5.854248046875 -29.802978515625 -20.946044921875
17.031005859375 -14.358154296875 -26.084228515625
16.477783203125 54.74169921875 30.039794921875
30.702392578125 -42.2578125 -16.201171875
-15.057373046875 35.081787109375 15.021484375
-1.043212890625 35.54541015625 13.83935546875
29.989501953125 7.3330078125 -24.152587890625
7.691162109375 -29.7890625 -23.878662109375
-18.04443359375 -20.63720703125 -23.90625
85.0107421875 -38.235107421875 25.327880859375
-16.023193359375 39.513916015625 15.23193359375
6.726318359375 29.964111328125 15.81982421875
0.39013671875 -10.754150390625 -30.6640625
26.978271484375 -12.24072265625 -5.133544921875
51.508056640625 -47.1650390625 -61.745361328125
13.68359375 -23.099609375 -12.98291015625
-34.209228515625 -28.04150390625 -14.14892578125
-2.783935546875 61.078857421875 16.49365234375
15.85400390625 -20.40869140625 -15.411376953125
-13.919677734375 37.284912109375 16.163818359375
-64.689697265625 55.435302734375 -0.635009765625
-23.6552734375 -24.50439453125 -21.835693359375
64.206298828125 -53.36572265625 -62.2823486328125
-15.771484375 72.121337890625 33.771240234375
32.5830078125 16.03955078125 -4.446533203125
-3.26416015625 35.4140625 15.783203125
-17.781982421875 3.98291015625 -27.271240234375
10.9619140625 2.7197265625 -30.677734375
11.966064453125 -20.502685546875 -15.000732421875
15.99169921875 18.4306640625 -6.2978515625
-24.73046875 28.788330078125 11.022216796875
-1.9951171875 6.2626953125 -29.11767578125
20.259765625 -23.146240234375 -16.682373046875
43.826171875 -4.296630859375 -29.5361328125
30.825927734375 -14.498779296875 -18.85595703125
32.970947265625 -9.967529296875 -26.605224609375
18.587158203125 -19.9951171875 -16.495361328125
1.255126953125 4.74267578125 -30.490234375
-15.62548828125 55.05908203125 -4.951904296875
59.521728515625 -28.647216796875 -27.481689453125
62.603515625 -7.572998046875 -23.478271484375
-14.372802734375 73.447998046875 36.248046875
-23.11474609375 27.407470703125 10.02490234375
-35.707275390625 32.38818359375 12.364990234375
67.222412109375 -18.244384765625 -16.58349609375
65.103271484375 -41.7685546875 -63.5101318359375
62.69921875 -19.391357421875 -27.965087890625
36.0263671875 7.8701171875 -25.24267578125
-20.763427734375 48.4677734375 -28.48779296875
27.78515625 -28.812255859375 -12.007080078125
-78.66845703125 51.801513671875 2.201416015625
-1.9404296875 4.60888671875 -27.407958984375
34.363037109375 3.016357421875 -25.907958984375
-2.310302734375 -14.516357421875 -27.901611328125
41.26806640625 22.54296875 -12.821533203125
-29.648193359375 36.789306640625 14.048828125
31.310546875 -4.438720703125 -28.508056640625
23.84912109375 -8.931640625 -26.5224609375
55.72265625 -11.979736328125 -28.536865234375
29.84228515625 -10.962158203125 -1.417236328125
6.31298828125 20.2431640625 -1.384765625
-13.77880859375 -15.52490234375 -29.4716796875
27.238037109375 -17.8408203125 -4.73291015625
-9.059814453125 1.736572265625 -29.85009765625
41.419189453125 -5.586181640625 -30.120361328125
17.620849609375 -17.5234375 -20.3232421875
14.466064453125 56.239990234375 28.3291015625
23.73583984375 -22.01806640625 -24.607421875
-2.8857421875 -30.90869140625 -27.369873046875
62.298095703125 -24.662353515625 -25.93115234375
42.98876953125 -10.909423828125 -27.65087890625
3.46484375 -18.338623046875 -23.34521484375
45.660400390625 -24.47021484375 -25.77587890625
28.898193359375 47.72509765625 42.11474609375
28.8173828125 -41.998291015625 -17.32958984375
40.802734375 -17.26904296875 -22.048583984375
-13.3994140625 55.174072265625 13.90625
0.3271484375 -5.648193359375 -32.267333984375
23.6298828125 -17.0517578125 -23.544189453125
45.351318359375 -7.288818359375 -29.25830078125
15.673828125 42.771240234375 41.966064453125
50.12353515625 -18.49267578125 -27.511962890625
68.313232421875 -43.218017578125 -62.391845703125
-16.47021484375 45.7333984375 11.013916015625
19.213134765625 -25.40087890625 -15.693115234375
-20.40625 41.383544921875 14.138427734375
31.251708984375 -7.5234375 -25.91748046875
-11.6279296875 47.35986328125 9.93017578125
55.34814453125 -21.916748046875 -31.23193359375
34.445556640625 -10.57470703125 -0.58154296875
52.297119140625 -48.179443359375 -59.3104248046875
62.4345703125 -52.255859375 -62.8592529296875
16.603759765625 3.136962890625 -29.46923828125
58.669677734375 -24.537109375 -29.4111328125
-21.015380859375 49.781005859375 -31.077392578125
6.675048828125 27.81884765625 13.55517578125
-33.66650390625 -28.217041015625 -11.17919921875
-12.843505859375 -2.502197265625 -31.832275390625
-11.33203125 -11.80615234375 -30.951904296875
19.940673828125 -35.861083984375 -18.2880859375
3.858154296875 -34.363037109375 -17.43603515625
25.1904296875 -13.807861328125 -4.841796875
3.1591796875 6.031494140625 -31.4990234375
-18.339599609375 53.3017578125 -12.71533203125
4.170166015625 -27.251953125 -14.5185546875
43.60888671875 -17.240966796875 -24.4140625
24.77880859375 4.107666015625 -25.90673828125
12.44140625 58.30517578125 21.53466796875
-17.63916015625 74.01953125 29.140625
-36.8310546875 38.8544921875 12.91455078125
-12.306640625 45.168212890625 13.048095703125
-17.31103515625 -20.504638671875 -21.59326171875
16.513916015625 -37.273681640625 -17.8984375
-22.97998046875 43.9189453125 11.219482421875
58.14306640625 -26.06787109375 -32.17626953125
6.082275390625 -38.048828125 -18.16455078125
39.7333984375 -9.860107421875 -27.680419921875
12.951904296875 23.06689453125 6.015869140625
-1.081787109375 -16.2646484375 -27.765625
-31.37646484375 35.318603515625 13.548095703125
12.772705078125 -13.72412109375 -27.82568359375
20.89501953125 -15.4267578125 -24.453369140625
-8.059326171875 34.884765625 14.556640625
55.67724609375 -48.6337890625 -62.08740234375
33.37353515625 4.8017578125 -27.332763671875
55.5009765625 -5.607421875 -28.4794921875
58.1328125 -8.247314453125 -23.871826171875
14.86181640625 -27.567138671875 -15.080078125
-19.688232421875 7.187744140625 -22.973876953125
51.639404296875 -21.911865234375 -27.410888671875
15.266357421875 -29.601318359375 -19.718017578125
49.427490234375 -22.706787109375 -26.18408203125
-11.560302734375 -17.6328125 -22.480224609375
-31.593994140625 33.114990234375 12.595458984375
37.94482421875 0.4130859375 -27.984619140625
-2.0263671875 -21.783203125 -21.40087890625
-18.89892578125 47.5283203125 3.46435546875
11.52294921875 -17.45654296875 -21.443603515625
-10.977783203125 -7.563232421875 -32.53125
12.77099609375 -15.267333984375 -25.69482421875
18.563720703125 41.9267578125 38.622802734375
-17.213134765625 34.540283203125 14.34521484375
-23.998046875 -24.585205078125 -23.913818359375
-21.59912109375 -12.90234375 27.811767578125
27.8740234375 -46.2294921875 -19.6298828125
-10.109619140625 -13.8779296875 -28.889404296875
47.69580078125 -8.55078125 -28.700927734375
-6.215576171875 -7.057373046875 -31.201904296875
12.4951171875 -34.494873046875 -23.0576171875
20.42919921875 -10.75146484375 -26.171142578125
27.382568359375 -2.92138671875 -27.164794921875
9.294921875 -36.85009765625 -19.5302734375
3.522705078125 -16.098876953125 -27.688232421875
3.771728515625 -40.72607421875 -19.30517578125
23.15673828125 47.837158203125 36.90087890625
-73.431640625 62.457763671875 -1.839599609375
-13.992919921875 56.782958984375 10.276123046875
40.05517578125 -4.31591796875 -29.014892578125
9.177490234375 -4.16845703125 -32.534912109375
0.31396484375 -19.61962890625 -22.428466796875
16.51708984375 -41.56103515625 -18.214111328125
12.804931640625 5.643798828125 -29.207275390625
42.57421875 15.01171875 -23.256103515625
3.994873046875 60.344970703125 17.321533203125
-18.86767578125 -11.231689453125 25.88330078125
-7.48876953125 4.566650390625 -27.360107421875
-9.776611328125 56.16552734375 12.1435546875
-0.9873046875 -30.076904296875 -18.43408203125
17.467529296875 -23.277587890625 -12.8232421875
-1.657470703125 33.46484375 14.55615234375
37.07666015625 -1.677978515625 -28.006103515625
-5.823974609375 0.72314453125 -31.0439453125
-18.56884765625 5.361083984375 -25.805419921875
21.0029296875 -31.76171875 -16.855712890625
23.809326171875 2.759521484375 -27.688720703125
-13.914306640625 -13.722412109375 -30.725830078125
51.256103515625 -29.473876953125 -26.09130859375
39.326904296875 15.025390625 -23.93505859375
18.162841796875 -2.490234375 -29.21484375
-6.31103515625 -18.551513671875 -23.12939453125
-11.458984375 -15.408447265625 -28.526611328125
17.073486328125 -11.1669921875 -28.386474609375
20.656982421875 3.823486328125 -26.34033203125
-41.080810546875 36.395263671875 13.198974609375
23.71240234375 -3.692138671875 -27.6875
26.05126953125 -13.29296875 -20.2236328125
41.786865234375 -7.749267578125 -30.17822265625
50.997802734375 -27.12109375 -26.71875
27.595458984375 43.978271484375 40.90771484375
30.07861328125 -32.548095703125 -11.04150390625
22.232666015625 38.74169921875 44.58349609375
-23.890380859375 21.059326171875 7.56787109375
-22.370849609375 30.589111328125 12.723388671875
63.693115234375 -14.943603515625 -20.794189453125
36.7294921875 23.93603515625 -13.672607421875
-1.98974609375 -20.305908203125 -25.533447265625
-71.5859375 53.93359375 -1.002197265625
40.471435546875 -15.183837890625 -22.274169921875
46.019775390625 -11.458740234375 -22.93798828125
16.382568359375 -45.7412109375 -20.055419921875
23.39453125 -40.8046875 -17.020751953125
-1.72314453125 61.618408203125 18.16943359375
9.033935546875 -40.783447265625 -18.359619140625
-17.276123046875 19.96240234375 8.512451171875
21.05615234375 -43.462158203125 -18.158447265625
11.10546875 -41.719970703125 -18.299072265625
31.77001953125 -10.55859375 -2.730712890625
23.18017578125 -5.654541015625 -27.18701171875
-3.21044921875 -9.474365234375 -31.480712890625
18.47119140625 -9.95751953125 -26.8251953125
23.6689453125 -27.101806640625 -24.67236328125
31.39990234375 -12.02685546875 -22.170654296875
13.339111328125 -44.144287109375 -19.22119140625
47.6884765625 -21.8955078125 -28.237060546875
67.34619140625 -20.0283203125 -18.451416015625
43.324462890625 24.474365234375 -11.943359375
39.01611328125 -3.34130859375 -27.41259765625
-6.94482421875 37.141845703125 15.866943359375
-11.247802734375 -17.65869140625 -14.35107421875
24.36474609375 50.295166015625 41.4287109375
26.648193359375 10.091064453125 -18.91455078125
22.242919921875 1.352294921875 -28.405517578125
6.79736328125 59.5009765625 19.583740234375
-2.24072265625 -33.259521484375 -26.50390625
16.096435546875 -4.37548828125 -31.68896484375
56.672119140625 1.832275390625 -26.173095703125
52.96484375 -50.083251953125 -58.998779296875
-51.8125 55.40966796875 3.445068359375
-76.67041015625 51.533447265625 1.894287109375
17.35302734375 15.58447265625 -9.2587890625
5.409912109375 -20.87451171875 -16.2470703125
-61.2158203125 54.557861328125 0.360107421875
-10.231689453125 43.257080078125 16.268798828125
-18.4453125 46.319091796875 5.49658203125
62.226318359375 -41.071044921875 -64.462890625
64.97900390625 -45.21875 -63.4248046875
42.452880859375 -9.694091796875 -29.434326171875
38.399658203125 18.0712890625 -22.880126953125
-18.54150390625 42.177978515625 14.078857421875
4.433349609375 -29.857177734375 -18.048583984375
-10.1484375 58.46240234375 11.751220703125
-30.88818359375 30.858642578125 11.66015625
13.7900390625 -18.09130859375 -20.1044921875
-17.791748046875 43.5908203125 12.797607421875
-1.2119140625 21.23095703125 -1.404296875
0.166259765625 -7.567626953125 -31.537841796875
53.1142578125 -10.119873046875 -29.978271484375
-13.89404296875 43.699462890625 13.97216796875
-18.449951171875 29.01708984375 11.667236328125
-70.010986328125 52.761474609375 0.089111328125
48.71044921875 -17.529296875 -25.85546875
-20.998779296875 28.146484375 12.78369140625
-19.976806640625 45.48779296875 8.1865234375
9.635009765625 48.4697265625 28.715087890625
-69.373291015625 58.04345703125 -2.42041015625
49.21533203125 10.3857421875 -23.952880859375
-66.474853515625 52.746826171875 0.828369140625
-3.10986328125 66.867431640625 25.30859375
-3.71728515625 58.836669921875 14.17431640625
24.29931640625 -11.3818359375 -24.509521484375
-13.051513671875 49.73974609375 12.26611328125
61.594482421875 -26.23779296875 -27.328125
-19.501220703125 51.827392578125 -30.16015625
-17.155029296875 -24.074951171875 28.469970703125
-16.935302734375 29.845458984375 13.098876953125
58.078857421875 -29.456787109375 -32.533935546875
6.584228515625 -14.314697265625 -28.268310546875
44.016845703125 19.332763671875 -17.840576171875
1.49951171875 18.185791015625 -1.744140625
-27.27294921875 41.2890625 13.741455078125
54.90478515625 -9.18408203125 -27.811767578125
21.927734375 6.382568359375 -26.202880859375
59.69287109375 -22.340087890625 -27.195556640625
28.453369140625 5.816650390625 -25.173583984375
-6.047119140625 -13.500244140625 -28.162841796875
37.2216796875 -10.1181640625 -24.691162109375
56.691162109375 -8.19873046875 -25.486083984375
25.57861328125 37.84423828125 44.08056640625
36.699462890625 9.537353515625 -23.948486328125
-32.076416015625 -29.4296875 -12.225341796875
14.46875 -33.910400390625 -20.19775390625
-12.318359375 35.8720703125 15.14599609375
-35.57666015625 -28.313232421875 -15.567138671875
-17.919677734375 48.04931640625 1.17626953125
67.76904296875 -46.960693359375 -62.02783203125
-22.095458984375 21.9013671875 7.678466796875
-22.362548828125 -19.903564453125 31.22314453125
4.556640625 52.0419921875 21.23828125
30.442138671875 -13.9267578125 -13.719970703125
-34.2158203125 36.064208984375 13.725830078125
46.62744140625 -16.41455078125 -25.342529296875
3.7470703125 54.932861328125 18.35009765625
25.874755859375 52.0009765625 40.999755859375
31.5205078125 -15.10693359375 -1.718017578125
1.91259765625 54.07177734375 18.23681640625
58.03857421875 -53.04150390625 -63.9383544921875
-4.23095703125 -19.671630859375 -26.861328125
8.311279296875 -11.65087890625 -30.548828125
-10.282958984375 -17.783447265625 -24.362060546875
37.796142578125 -17.630126953125 1.781494140625
-27.341064453125 36.165771484375 14.122802734375
-13.131591796875 52.28759765625 12.654052734375
8.57666015625 -20.021484375 -17.213623046875
-12.65576171875 53.002197265625 14.7373046875
14.330810546875 -31.703125 -21.573486328125
19.766845703125 41.22900390625 42.66259765625
9.490966796875 -20.891357421875 -15.393798828125
-9.664794921875 25.192138671875 9.04345703125
-26.232177734375 30.000732421875 11.512939453125
71.027099609375 -45.58544921875 -60.400634765625
-7.77490234375 32.028076171875 13.1435546875
52.637939453125 -22.37255859375 -25.78125
-16.456298828125 47.115478515625 6.837646484375
19.72705078125 50.462890625 32.461181640625
23.247802734375 -37.03271484375 -20.687744140625
23.789794921875 50.01416015625 39.0771484375
44.40087890625 23.0087890625 -10.73583984375
18.651123046875 46.31494140625 32.908935546875
59.35498046875 -47.796630859375 -64.2025146484375
17.71044921875 -18.337890625 -18.541259765625
60.34033203125 -40.117431640625 -64.1856689453125
64.330810546875 -16.340576171875 -19.5751953125
-20.85791015625 -16.9150390625 28.62158203125
-2.739501953125 36.409423828125 13.218017578125
33.936767578125 -11.280029296875 -25.01171875
-24.146240234375 -14.305419921875 30.90380859375
64.854248046875 -10.146728515625 -18.6123046875
7.184326171875 -5.90380859375 -33.064697265625
-7.32373046875 27.025146484375 10.893798828125
-8.458984375 22.10009765625 5.466064453125
57.400390625 -50.385986328125 -64.213623046875
26.001953125 43.978515625 39.111328125
-13.07958984375 41.4140625 14.45458984375
-25.033203125 42.944580078125 12.09228515625
50.124755859375 -9.121337890625 -28.66357421875
-14.40869140625 45.482421875 12.115966796875
-2.212646484375 68.7099609375 30.383544921875
-15.975341796875 -18.653076171875 -27.286376953125
65.462158203125 -13.328125 -17.65966796875
-2.421142578125 -13.19482421875 -29.3310546875
62.38330078125 -2.48974609375 -23.640380859375
-17.060791015625 73.474365234375 33.08203125
2.009033203125 52.792236328125 20.070068359375
6.0439453125 53.21044921875 20.778076171875
45.897216796875 20.888671875 -12.74267578125
9.18603515625 54.133544921875 21.34619140625
26.82958984375 41.135498046875 42.4736328125
-53.11865234375 57.610595703125 1.291015625
16.90625 -6.76708984375 -29.462646484375
-9.7392578125 74.404296875 37.13037109375
28.7353515625 -22.78857421875 -6.694091796875
34.09228515625 -11.259765625 1.687744140625
31.699951171875 -35.62939453125 -11.08935546875
27.925048828125 9.601318359375 -21.570068359375
-4.03564453125 37.62744140625 15.13134765625
26.90283203125 -22.706787109375 -8.47607421875
3.515625 -28.758544921875 -15.54443359375
61.615966796875 -15.552978515625 -27.955810546875
31.787353515625 -13.00341796875 -0.37744140625
49.274169921875 8.37353515625 -24.81005859375
55.43994140625 -15.429443359375 -30.389892578125
-14.156982421875 26.030517578125 15.06103515625
-10.826416015625 34.156005859375 14.603759765625
11.39453125 46.473876953125 31.76513671875
-19.16064453125 -16.900634765625 27.194091796875
24.916259765625 -19.6865234375 -8.97021484375
44.590087890625 14.110107421875 -22.89306640625
-21.2216796875 50.343994140625 -28.454833984375
-41.87841796875 34.038818359375 14.571044921875
-13.832763671875 32.15380859375 13.615478515625
58.904052734375 -20.19921875 -30.24072265625
10.487060546875 58.7138671875 19.582763671875
56.60888671875 -14.829833984375 -26.50341796875
66.038330078125 -23.419921875 -18.8037109375
-21.904541015625 38.796630859375 14.6328125
16.3525390625 -26.06494140625 -13.885498046875
27.010009765625 -36.0634765625 -15.76318359375
-57.598876953125 55.837158203125 0.713134765625
-73.072998046875 56.39892578125 -2.4775390625
-9.914794921875 54.791748046875 14.95068359375
-36.53662109375 40.95654296875 13.526611328125
69.687255859375 -44.2373046875 -61.5130615234375
-2.43212890625 54.392578125 16.831298828125
-54.462890625 53.063720703125 3.025634765625
4.31689453125 -37.428466796875 -17.724365234375
64.075439453125 -49.370361328125 -63.280029296875
21.185791015625 49.7255859375 34.861572265625
22.084716796875 -32.353271484375 -20.74755859375
-17.937744140625 75.73486328125 28.330810546875
18.0146484375 52.802001953125 31.791259765625
49.509765625 -11.246826171875 -24.40380859375
-12.85791015625 49.526611328125 5.072265625
20.824462890625 41.411865234375 39.0439453125
30.408447265625 0.6484375 -27.482666015625
-13.8154296875 55.3173828125 11.568359375
22.350341796875 52.259765625 39.55322265625
-17.08203125 52.25390625 -6.476318359375
7.216796875 24.14404296875 8.086669921875
9.077392578125 49.267333984375 26.708984375
26.273193359375 45.94921875 40.648681640625
26.3173828125 49.446044921875 40.831787109375
20.892333984375 44.811279296875 36.123046875
20.989013671875 40.0205078125 40.767578125
-14.706298828125 3.441162109375 -31.21728515625
14.240966796875 2.1728515625 -30.32373046875
36.33251953125 -12.158935546875 -24.568603515625
-7.5966796875 23.71826171875 7.816162109375
-13.981689453125 51.11279296875 3.95458984375
-1.989013671875 59.89794921875 14.805908203125
25.018310546875 -16.02734375 -6.62939453125
12.802001953125 24.771240234375 6.96435546875
8.424560546875 -22.27880859375 -14.331298828125
-13.660888671875 58.90966796875 10.882080078125
19.2490234375 43.436767578125 37.45947265625
32.010986328125 13.582275390625 -6.658935546875
-5.8095703125 20.128662109375 5.68017578125
20.27978515625 47.199951171875 34.421142578125
-27.73876953125 31.217041015625 12.005126953125
37.773193359375 -13.898193359375 2.56298828125
-16.215576171875 -19.591796875 26.290283203125
29.8515625 -8.9130859375 -25.1162109375
38.85595703125 -11.080322265625 -24.708251953125
17.162841796875 52.69189453125 28.55322265625
-74.2607421875 53.1044921875 0.09912109375
62.499755859375 -50.346923828125 -62.89208984375
-8.808837890625 39.239013671875 16.019287109375
14.2138671875 46.708251953125 31.657958984375
28.949462890625 -26.71826171875 -8.513671875
61.665283203125 -45.173828125 -63.989990234375
24.767822265625 -22.786865234375 -10.947998046875
-20.47900390625 19.592041015625 6.6162109375
-19.204833984375 40.1435546875 14.97412109375
37.26708984375 -12.956298828125 -22.64599609375
-4.357421875 33.594482421875 14.34814453125
-73.39013671875 60.91748046875 -3.3525390625
18.331298828125 -38.428955078125 -18.812744140625
4.25732421875 -43.79541015625 -19.736083984375
-23.375 42.63037109375 12.933837890625
-14.946044921875 29.00244140625 12.39990234375
34.112060546875 -21.223388671875 -2.77392578125
14.234619140625 52.2431640625 26.649169921875
-24.06689453125 101.35498046875 27.722900390625
60.608642578125 -52.6650390625 -63.3848876953125
12.76953125 55.045166015625 24.654296875
-35.36767578125 -28.0625 -18.025634765625
-23.8037109375 32.17822265625 12.9189453125
-56.84521484375 57.295166015625 -0.3798828125
20.879150390625 -45.4716796875 -19.6943359375
60.199951171875 -43.933837890625 -63.992431640625
22.46728515625 53.06298828125 41.86865234375
66.144775390625 -18.608642578125 -18.165771484375
-5.304931640625 64.874755859375 22.151611328125
-23.86376953125 25.3603515625 9.33642578125
23.7919921875 38.29541015625 43.568603515625
-2.692626953125 -26.412109375 -26.263427734375
-78.15234375 57.21337890625 -1.387939453125
33.39111328125 -7.794921875 -26.374755859375
-12.697265625 0.865234375 -30.671142578125
35.2548828125 -13.3828125 -23.09619140625
-9.642578125 -9.447509765625 -32.825439453125
-9.978271484375 47.54248046875 10.808837890625
45.46533203125 17.806884765625 -19.459716796875
-30.85546875 26.927978515625 9.740234375
27.01513671875 -19.068115234375 -6.1357421875
1.02490234375 62.864990234375 20.801513671875
24.7412109375 36.1689453125 49.30615234375
2.129638671875 -27.243408203125 -14.9453125
-9.57275390625 -15.248046875 -27.517578125
4.5634765625 -39.011474609375 -19.01123046875
5.97998046875 2.973876953125 -30.9609375
-16.897216796875 37.115234375 15.0
42.598876953125 21.35888671875 -13.400146484375
4.98876953125 28.677490234375 12.9375
4.97314453125 -25.5 -14.2158203125
30.44140625 -1.197021484375 -27.89111328125
-0.560546875 62.459716796875 19.37158203125
-4.31689453125 -17.847412109375 -26.44970703125
-1.945068359375 -41.423828125 -18.114990234375
38.65673828125 -5.215087890625 -28.0478515625
-1.2890625 53.2822265625 18.019287109375
15.3974609375 44.422119140625 40.9716796875
61.248291015625 -47.119140625 -64.1573486328125
64.482421875 -47.398193359375 -62.9866943359375
-9.116455078125 -6.080078125 -31.4443359375
59.278564453125 -49.677978515625 -64.0438232421875
-22.5966796875 33.760986328125 13.667724609375
4.275146484375 6.394287109375 -28.6982421875
9.025390625 -44.6005859375 -18.49462890625
-19.625 43.229248046875 12.728515625
13.8447265625 -20.44140625 -15.98828125
56.85205078125 -54.882080078125 -63.8848876953125
2.12744140625 55.609375 17.1982421875
-21.520263671875 52.18212890625 -30.867431640625
-6.0205078125 57.546142578125 14.09765625
15.79931640625 42.457275390625 43.99853515625
0.119384765625 57.65380859375 15.74169921875
15.37109375 -22.307861328125 -12.87890625
20.711669921875 8.493408203125 -23.9111328125
-18.99365234375 33.626953125 14.0615234375
-24.00830078125 30.420654296875 11.84423828125
-16.091796875 53.03466796875 -2.88671875
-1.037841796875 -22.68701171875 -18.0419921875
9.51171875 -1.89501953125 -32.0224609375
57.931640625 -46.654296875 -64.5794677734375
-8.215576171875 56.056640625 13.503173828125
11.55078125 21.86865234375 6.286376953125
-2.281982421875 1.289306640625 -29.814697265625
-4.87841796875 29.664306640625 12.330322265625
-23.296875 -13.385009765625 29.197998046875
-18.939453125 73.5556640625 32.88232421875
26.39697265625 -13.79931640625 -17.30810546875
-33.073486328125 34.281982421875 12.919921875
-17.349365234375 70.4765625 34.3876953125
44.841064453125 -9.70947265625 -26.015380859375
-12.424560546875 2.778564453125 -30.03076171875
-13.320556640625 47.733154296875 9.264892578125
35.785888671875 -15.460205078125 1.21826171875
33.048583984375 12.661376953125 -7.930908203125
-62.81396484375 52.105224609375 1.190185546875
12.1875 -22.8564453125 -14.05126953125
12.328369140625 -18.587646484375 -19.076904296875
14.463134765625 -16.514404296875 -23.628173828125
37.602294921875 15.73095703125 -23.50146484375
3.506591796875 -12.06494140625 -31.582275390625
-18.08447265625 36.966552734375 -32.088134765625
2.13818359375 30.06201171875 13.664306640625
-62.1806640625 58.31201171875 -1.407470703125
-18.353271484375 -9.4697265625 25.638671875
-2.104248046875 67.570068359375 27.389892578125
24.152587890625 -43.8896484375 -19.34375
-19.10205078125 -22.00439453125 28.992431640625
40.140625 21.31640625 -14.072021484375
-13.272216796875 50.720703125 6.965576171875
-14.510986328125 -17.6806640625 -28.11962890625
8.972412109375 -17.425048828125 -23.48681640625
-25.4326171875 41.652099609375 13.810546875
9.533447265625 -13.66845703125 -28.3515625
-0.14453125 54.25146484375 16.94775390625
25.23291015625 -37.708984375 -17.767578125
26.97119140625 -11.57177734375 -23.066650390625
31.519775390625 -32.250244140625 -9.48486328125
-14.530517578125 -27.76416015625 28.98974609375
49.663818359375 -21.903564453125 -27.823974609375
35.864501953125 -7.5009765625 -26.280517578125
-70.63623046875 59.84130859375 -3.04345703125
28.277099609375 -14.774658203125 -2.846923828125
19.08203125 -6.81640625 -27.676513671875
26.713134765625 -8.158203125 -26.16845703125
-18.486572265625 27.18994140625 11.836669921875
14.34814453125 -41.34033203125 -17.74365234375
5.916015625 -43.01708984375 -19.6337890625
-26.301025390625 22.789306640625 8.075927734375
17.589111328125 -11.568359375 -26.672119140625
-5.17138671875 21.885009765625 6.978271484375
