98.6435546875 69.3555908203125 7.4383544921875
136.36865234375 31.6175537109375 -6.8546142578125
126.746337890625 59.009521484375 19.9671630859375
91.58642578125 36.99609375 39.2965087890625
-20.8359375 94.5997314453125 27.87158203125
5.300537109375 48.320556640625 41.4012451171875
115.027587890625 50.26513671875 27.6387939453125
20.8271484375 99.7064208984375 -48.794921875
125.300048828125 60.656494140625 -26.60546875
30.25927734375 47.498779296875 7.2420654296875
62.568115234375 44.1168212890625 11.589599609375
120.560302734375 70.9613037109375 -12.7216796875
35.2294921875 94.331787109375 -18.243408203125
-9.982177734375 68.9190673828125 39.634033203125
19.87744140625 72.3082275390625 3.6129150390625
62.9921875 30.0926513671875 45.2027587890625
15.976806640625 25.9471435546875 51.8387451171875
108.828125 27.2965087890625 49.0181884765625
16.731689453125 48.1375732421875 30.6461181640625
97.1376953125 93.8175048828125 -40.2337646484375
66.508544921875 -9.94970703125 84.8001708984375
33.8935546875 93.4725341796875 -45.0345458984375
70.62255859375 9.2862548828125 65.8411865234375
85.255615234375 85.9036865234375 -9.32470703125
137.0849609375 40.393310546875 -18.236083984375
52.590576171875 64.9102783203125 11.19482421875
120.75439453125 34.661376953125 34.286865234375
-10.7490234375 81.06201171875 12.487060546875
76.72509765625 -0.6771240234375 76.3848876953125
69.899169921875 73.3497314453125 1.5845947265625
41.761962890625 79.8583984375 -3.457763671875
80.65380859375 27.5443115234375 47.83642578125
8.443603515625 54.8233642578125 15.139404296875
72.635986328125 76.1776123046875 -36.5294189453125
75.64599609375 107.6810302734375 -54.9080810546875
85.199951171875 87.2156982421875 -45.25732421875
95.820556640625 76.8988037109375 -4.5765380859375
111.702880859375 72.1588134765625 3.622802734375
58.4951171875 81.8319091796875 -41.9073486328125
29.29833984375 28.3831787109375 47.757080078125
133.900634765625 57.7584228515625 -40.5965576171875
73.35595703125 96.728759765625 -21.5870361328125
102.7978515625 54.0943603515625 24.184326171875
83.8857421875 17.9866943359375 57.4478759765625
49.487548828125 0.266357421875 75.113525390625
39.197998046875 12.3577880859375 63.141357421875
-15.049560546875 83.2322998046875 25.1051025390625
44.697998046875 46.7315673828125 28.784912109375
125.553955078125 48.943359375 -21.58203125
48.68310546875 97.5992431640625 -22.16943359375
-1.221435546875 58.594482421875 38.9085693359375
95.57177734375 15.8768310546875 60.577392578125
139.418701171875 55.00048828125 23.2703857421875
124.487548828125 31.8248291015625 -3.823974609375
53.748779296875 -8.388427734375 83.6319580078125
37.223876953125 18.8782958984375 -44.69775390625
42.451904296875 100.086181640625 -50.60302734375
59.243896484375 82.4632568359375 -7.2374267578125
57.653564453125 21.189453125 53.9783935546875
99.088623046875 45.294189453125 31.5172119140625
61.70751953125 92.123779296875 -16.8057861328125
109.474365234375 74.932373046875 -14.94287109375
4.02880859375 65.188720703125 18.7540283203125
-10.1982421875 93.7232666015625 -6.242431640625
27.365966796875 41.3074951171875 35.0205078125
8.209716796875 36.6668701171875 47.0760498046875
67.755126953125 104.333740234375 -62.739013671875
10.051025390625 91.015380859375 -12.47509765625
60.787353515625 64.9871826171875 1.300537109375
51.896484375 117.056640625 -64.740478515625
64.9580078125 40.1956787109375 34.5120849609375
6.55322265625 29.5191650390625 57.0980224609375
18.43896484375 15.5062255859375 61.4375
135.76806640625 68.2498779296875 4.0377197265625
49.254638671875 68.4713134765625 -31.2510986328125
40.037109375 20.302734375 55.18603515625
103.332275390625 86.2119140625 -23.048828125
100.733642578125 32.922119140625 44.011962890625
-17.689453125 71.2080078125 -53.6014404296875
80.371826171875 44.7686767578125 31.297607421875
29.23193359375 9.34375 66.547607421875
74.63232421875 97.297607421875 -48.924560546875
60.452392578125 91.1312255859375 -47.846435546875
14.7939453125 63.5654296875 -0.2161865234375
17.85009765625 51.0501708984375 20.381591796875
59.947509765625 47.277099609375 27.4664306640625
19.364013671875 51.2841796875 5.583251953125
8.09814453125 101.1251220703125 -20.8756103515625
47.9990234375 33.640869140625 41.9803466796875
-0.736083984375 50.0203857421875 54.3948974609375
96.006591796875 69.7637939453125 -12.3828125
65.18017578125 52.0941162109375 5.1778564453125
77.158203125 80.2987060546875 -5.612548828125
-3.337646484375 65.14990234375 30.3680419921875
27.18017578125 0.2275390625 75.4609375
39.332763671875 87.520751953125 -11.344482421875
130.882568359375 65.2928466796875 12.75830078125
52.837646484375 100.3572998046875 -50.8516845703125
55.812744140625 51.939208984375 11.1212158203125
29.473876953125 77.283935546875 -0.6236572265625
39.903076171875 85.3458251953125 -42.967529296875
62.521728515625 14.1319580078125 60.771728515625
1.63037109375 88.718994140625 -7.1434326171875
3.5458984375 80.0345458984375 2.3919677734375
20.097412109375 89.154296875 -12.1851806640625
-2.88134765625 74.27099609375 15.1434326171875
119.415771484375 65.077880859375 13.8140869140625
128.443359375 68.5174560546875 -4.88330078125
113.93896484375 28.84619140625 40.4765625
-12.629638671875 75.7138671875 32.6663818359375
7.72998046875 62.3924560546875 8.7293701171875
45.6796875 70.6473388671875 5.180419921875
120.65283203125 44.8306884765625 33.6859130859375
61.05517578125 7.387451171875 67.7322998046875
-14.22021484375 90.4539794921875 3.414306640625
57.650146484375 63.968505859375 -26.314208984375
103.14599609375 72.114013671875 -0.99462890625
71.097412109375 26.74462890625 48.6881103515625
45.5146484375 6.3768310546875 69.128173828125
30.099853515625 99.7459716796875 -50.9566650390625
59.655517578125 109.1981201171875 -56.49462890625
126.267822265625 68.6041259765625 -31.397216796875
65.03369140625 50.3111572265625 19.88525390625
35.680908203125 -3.427978515625 78.931640625
8.468505859375 47.17822265625 6.5106201171875
49.050048828125 19.0189208984375 56.3330078125
79.53662109375 81.5296630859375 -40.81396484375
123.913818359375 52.2313232421875 26.7164306640625
39.26025390625 110.302490234375 -62.751708984375
11.948974609375 43.47705078125 37.48388671875
101.34716796875 20.8485107421875 55.597412109375
-53.108642578125 -76.0303955078125 -45.3927001953125
38.279541015625 29.315673828125 46.749267578125
43.58837890625 40.3714599609375 35.172607421875
21.2060546875 80.09228515625 -3.0316162109375
-20.616455078125 89.4237060546875 20.4720458984375
116.24072265625 57.32763671875 21.2237548828125
52.40283203125 74.8104248046875 -36.8026123046875
103.300048828125 77.4398193359375 -21.3759765625
50.64111328125 80.5238037109375 -4.33154296875
77.801513671875 13.3868408203125 62.015869140625
132.4072265625 56.877197265625 -30.68505859375
48.34375 82.3660888671875 -42.4388427734375
117.930419921875 68.8302001953125 -1.7086181640625
83.045654296875 33.97314453125 42.2803955078125
67.04296875 79.350341796875 -4.5428466796875
27.442626953125 35.1153564453125 41.0721435546875
76.48779296875 55.002685546875 0.30322265625
8.195068359375 51.981689453125 33.7708740234375
15.530029296875 55.41259765625 -2.9405517578125
90.909423828125 43.1248779296875 32.934814453125
77.71826171875 6.0859375 69.436767578125
62.007080078125 57.70458984375 -3.0350341796875
12.280517578125 76.10693359375 2.9061279296875
107.179931640625 68.076904296875 9.5640869140625
113.29736328125 67.1663818359375 -10.43017578125
56.465087890625 33.85302734375 41.2015380859375
25.6826171875 94.517822265625 -18.14453125
3.74169921875 34.7100830078125 63.211181640625
66.853759765625 80.766845703125 -40.973876953125
23.982421875 50.40673828125 26.383056640625
89.415283203125 29.3408203125 46.4754638671875
35.315673828125 43.1829833984375 32.9100341796875
47.77587890625 -13.2130126953125 88.2052001953125
24.59521484375 93.92041015625 -43.2747802734375
108.553466796875 46.128662109375 31.040283203125
118.425537109375 75.9287109375 -19.1519775390625
13.364013671875 12.4146728515625 67.365478515625
131.52294921875 38.4906005859375 -11.451416015625
129.1240234375 76.6553955078125 -12.406005859375
60.950927734375 -5.2633056640625 80.5989990234375
92.514892578125 73.1920166015625 3.264892578125
-4.26611328125 80.533935546875 6.872314453125
69.837158203125 -4.178466796875 79.333984375
24.50341796875 23.444091796875 52.3160400390625
23.5224609375 43.6673583984375 10.81005859375
69.943359375 3.1075439453125 71.929931640625
72.273193359375 45.0948486328125 12.0850830078125
87.74169921875 80.38525390625 -3.7916259765625
29.686767578125 52.8328857421875 1.04736328125
-0.776611328125 53.3455810546875 45.1787109375
132.79638671875 28.0889892578125 0.224609375
55.96533203125 27.17041015625 48.1048583984375
4.646728515625 44.76416015625 48.6546630859375
12.37646484375 68.48095703125 5.7568359375
135.2421875 58.673095703125 17.378173828125
-20.6201171875 88.548583984375 33.239990234375
12.6669921875 53.771728515625 25.9681396484375
131.782470703125 52.626953125 24.4862060546875
128.021728515625 62.504150390625 -36.4058837890625
72.71142578125 42.7235107421875 32.768798828125
20.67333984375 30.6533203125 45.8446044921875
132.0234375 44.604736328125 -23.5147705078125
78.241455078125 90.20068359375 -47.9454345703125
80.223388671875 50.051513671875 25.263916015625
30.219482421875 90.0748291015625 -38.8043212890625
76.678466796875 22.366943359375 53.080810546875
-9.400146484375 65.262939453125 46.6583251953125
-24.177001953125 75.671630859375 -54.4068603515625
40.698974609375 105.47509765625 -56.11181640625
98.95166015625 39.2066650390625 37.478759765625
90.065185546875 94.9390869140625 -43.5635986328125
124.80419921875 23.8035888671875 11.14697265625
79.741943359375 89.607177734375 -13.541259765625
13.929443359375 21.0352783203125 57.60546875
52.81201171875 45.452880859375 29.9981689453125
59.939453125 -12.8157958984375 87.8465576171875
-15.516357421875 86.574951171875 15.177978515625
67.798095703125 94.3262939453125 -51.1195068359375
68.2177734375 34.4371337890625 40.773193359375
90.824462890625 83.1038818359375 -41.833740234375
26.98046875 69.5306396484375 5.011962890625
-12.884765625 77.3720703125 40.2291259765625
43.89697265625 92.9364013671875 -16.744140625
53.22802734375 6.04150390625 69.11328125
124.208740234375 29.601318359375 3.8280029296875
85.903076171875 23.8587646484375 52.06982421875
76.447265625 70.807373046875 4.696044921875
47.36376953125 -5.410400390625 80.6510009765625
41.44580078125 92.6337890625 -45.578369140625
-10.839111328125 77.710693359375 19.7554931640625
-2.323486328125 67.39404296875 22.927490234375
52.550048828125 57.7288818359375 14.7222900390625
30.973388671875 89.4796142578125 -13.1995849609375
55.4326171875 95.2633056640625 -19.5640869140625
54.864501953125 59.047119140625 7.0556640625
88.053955078125 13.800537109375 62.103759765625
127.261474609375 42.926025390625 -17.411376953125
8.6513671875 59.67578125 20.93115234375
117.504638671875 68.8680419921875 7.63720703125
115.6650390625 39.7581787109375 36.26904296875
42.19189453125 -0.9027099609375 76.1304931640625
33.758056640625 23.2645263671875 52.4676513671875
62.46484375 73.076171875 1.545654296875
19.422119140625 41.33154296875 35.3092041015625
12.515380859375 48.63916015625 15.0247802734375
64.495849609375 24.4349365234375 51.0113525390625
100.821533203125 27.7249755859375 49.23193359375
96.75 50.4130859375 26.1982421875
84.935546875 40.11962890625 35.8856201171875
35.252685546875 81.970947265625 -5.7684326171875
65.50146484375 96.512451171875 -21.1026611328125
71.494873046875 103.5367431640625 -50.6650390625
108.542724609375 33.286376953125 42.1583251953125
75.7060546875 31.3193359375 44.32666015625
66.353271484375 72.961669921875 -35.07763671875
131.879638671875 52.04833984375 -24.9556884765625
81.1494140625 104.2939453125 -51.5645751953125
6.69873046875 96.191162109375 -15.962890625
82.94775390625 95.139892578125 -46.0614013671875
-10.14501953125 84.38720703125 6.045654296875
102.890869140625 69.7681884765625 -14.013671875
45.6181640625 14.5478515625 60.606201171875
66.601806640625 106.7548828125 -56.006103515625
10.361572265625 30.691162109375 50.14208984375
46.43359375 113.0020751953125 -62.9796142578125
73.04638671875 91.871337890625 -16.527587890625
135.983642578125 68.47705078125 -2.970947265625
47.3203125 75.279296875 -32.015869140625
-3.952392578125 93.247802734375 -9.3472900390625
56.4716796875 88.8160400390625 -12.702880859375
61.138671875 76.67041015625 -38.0235595703125
25.01220703125 104.406005859375 -52.01025390625
58.7890625 49.3280029296875 5.317626953125
-8.22998046875 70.047119140625 31.0867919921875
67.43017578125 109.5806884765625 -67.29541015625
31.8916015625 40.4566650390625 -71.0616455078125
36.35791015625 76.829833984375 -0.1619873046875
57.248291015625 69.8040771484375 5.146728515625
25.34912109375 13.9432373046875 62.0064697265625
76.1416015625 75.5076904296875 -0.3243408203125
-6.11962890625 62.9520263671875 40.9600830078125
108.691162109375 56.1834716796875 21.3421630859375
4.720458984375 84.408203125 -2.744873046875
18.15771484375 84.6708984375 -7.390380859375
91.640869140625 19.797119140625 56.578125
55.081298828125 112.54541015625 -60.7489013671875
55.504150390625 16.7591552734375 58.6676025390625
6.025634765625 27.562744140625 63.81396484375
48.188232421875 75.1405029296875 0.4034423828125
39.678955078125 50.4217529296875 26.241943359375
6.960205078125 53.81103515625 7.7406005859375
47.14111328125 84.3779296875 -8.554443359375
125.677978515625 54.0367431640625 -27.4327392578125
-0.22314453125 59.2794189453125 32.1009521484375
58.817626953125 50.8800048828125 16.98828125
25.61767578125 4.9078369140625 70.968017578125
125.490478515625 35.9781494140625 -8.9473876953125
68.001953125 100.1343994140625 -26.1058349609375
56.64892578125 -1.606689453125 76.606201171875
36.671142578125 100.6324462890625 -53.955322265625
132.69384765625 62.9873046875 -44.5230712890625
-19.118896484375 82.499755859375 30.65478515625
63.641357421875 85.8634033203125 -10.82421875
67.08837890625 45.16650390625 30.32861328125
108.3876953125 51.3291015625 26.33203125
27.786865234375 46.15380859375 30.5848388671875
54.2939453125 86.60400390625 -45.594970703125
104.113525390625 72.45263671875 5.4544677734375
71.459716796875 14.2088623046875 60.7548828125
-12.166015625 76.906005859375 26.1610107421875
98.44775390625 73.820068359375 -18.1134033203125
68.90625 54.945068359375 0.72216796875
6.420654296875 67.14892578125 13.07373046875
134.85546875 53.0308837890625 -35.2718505859375
33.2880859375 14.343017578125 61.4517822265625
124.0390625 47.6966552734375 -14.5377197265625
8.777099609375 41.938232421875 42.863525390625
13.846435546875 50.76611328125 2.3563232421875
13.7470703125 34.0897216796875 45.1217041015625
58.66015625 42.363525390625 32.574462890625
50.834716796875 51.241943359375 25.5975341796875
61.71240234375 36.609375 38.6778564453125
36.05517578125 8.4521484375 67.0667724609375
54.8896484375 94.764892578125 -48.64697265625
64.637939453125 85.767578125 -44.6776123046875
3.430419921875 53.7454833984375 37.54443359375
48.105712890625 96.9705810546875 -48.3675537109375
104.201904296875 63.898681640625 13.21142578125
2.4072265625 62.97998046875 25.8272705078125
6.461181640625 36.277099609375 53.0965576171875
54.15966796875 105.4136962890625 -56.013427734375
48.094970703125 102.9447021484375 -53.9954833984375
22.50830078125 18.455322265625 57.7042236328125
99.570556640625 70.3572998046875 -5.8035888671875
41.439208984375 25.212646484375 50.231201171875
18.614990234375 -96.756103515625 -0.106201171875
7.67626953125 87.246337890625 -7.4913330078125
73.677978515625 82.9837646484375 -42.3226318359375
112.896484375 65.53369140625 12.1600341796875
130.34228515625 67.5848388671875 0.9532470703125
75.9111328125 17.413330078125 57.6993408203125
25.0712890625 49.419677734375 4.0543212890625
62.65185546875 107.8450927734375 -62.789794921875
72.29052734375 50.9276123046875 3.9915771484375
112.4638671875 76.9033203125 -20.7259521484375
104.321533203125 42.865234375 34.1033935546875
53.2568359375 84.6390380859375 -9.125
68.165283203125 47.364501953125 7.717041015625
3.99267578125 92.119140625 -11.674072265625
21.78125 10.361083984375 66.031005859375
-9.25634765625 89.6844482421875 -1.732421875
41.71435546875 74.413330078125 1.5494384765625
81.049560546875 9.740966796875 65.6873779296875
57.498779296875 118.497314453125 -66.6959228515625
79.92333984375 77.9227294921875 -35.9075927734375
22.25390625 53.60888671875 0.638427734375
33.472900390625 31.8701171875 44.013671875
1.592041015625 76.8951416015625 7.2218017578125
42.190185546875 32.28125 43.1612548828125
63.47119140625 65.162841796875 -27.545166015625
-13.439697265625 88.8162841796875 9.9619140625
9.127685546875 24.4703369140625 59.6580810546875
138.172607421875 66.0540771484375 10.63232421875
125.41064453125 67.71923828125 10.8480224609375
38.0771484375 92.19091796875 -40.6123046875
57.38330078125 2.8006591796875 71.96630859375
-6.37841796875 65.764404296875 35.492919921875
12.7021484375 16.793701171875 62.562255859375
59.041748046875 77.71630859375 -2.1436767578125
98.144287109375 74.486083984375 1.2332763671875
55.0908203125 99.283203125 -23.9603271484375
79.400146484375 84.9010009765625 -9.83642578125
39.688720703125 18.0472412109375 -39.3399658203125
122.0458984375 56.4169921875 22.5362548828125
95.310302734375 30.14404296875 46.3392333984375
91.60791015625 83.6025390625 -6.97119140625
63.838134765625 20.025634765625 55.16259765625
53.70703125 -13.035400390625 88.2166748046875
79.625 87.1290283203125 -43.0711669921875
10.186279296875 61.362060546875 2.7860107421875
78.571533203125 40.3048095703125 35.3380126953125
-20.56396484375 86.9453125 27.0523681640625
130.10791015625 67.73046875 6.9613037109375
125.728515625 71.123046875 -9.8922119140625
124.53515625 40.54150390625 34.77734375
8.9599609375 80.2506103515625 -0.34326171875
51.05029296875 29.478515625 45.8446044921875
47.18115234375 10.607421875 64.676513671875
34.60009765625 18.3968505859375 57.3621826171875
60.95166015625 97.1197509765625 -50.7039794921875
1.56884765625 70.517333984375 14.6669921875
100.015869140625 81.15673828125 -24.4466552734375
57.090087890625 60.521240234375 0.8134765625
-18.947021484375 75.7470703125 -56.984619140625
54.435302734375 72.15380859375 -32.0716552734375
52.28564453125 64.15625 -28.850341796875
-4.569580078125 58.75830078125 44.774169921875
106.4091796875 80.7047119140625 -25.00830078125
20.59228515625 66.7823486328125 2.0423583984375
123.472900390625 67.4228515625 -0.741455078125
66.036376953125 67.4124755859375 1.4107666015625
131.029541015625 32.255126953125 -4.7421875
13.30859375 87.4439697265625 -8.8447265625
115.63720703125 33.4671630859375 36.6533203125
80.7314453125 2.7626953125 73.053466796875
119.194091796875 61.0828857421875 17.9378662109375
32.57275390625 38.9952392578125 37.0137939453125
85.3662109375 81.5457763671875 -41.0526123046875
79.72314453125 99.7596435546875 -47.0633544921875
-0.401123046875 45.5079345703125 57.8914794921875
52.798583984375 23.140380859375 51.672119140625
67.345947265625 91.8919677734375 -15.9688720703125
51.359619140625 70.6168212890625 4.9349365234375
93.763427734375 47.242431640625 29.8470458984375
16.179931640625 78.3720703125 -0.5494384765625
7.271484375 61.1549072265625 15.6390380859375
12.401123046875 94.5950927734375 -16.172607421875
131.190185546875 65.82080078125 -39.67626953125
43.435302734375 36.3768310546875 39.5047607421875
25.483642578125 87.822265625 -11.26416015625
58.051025390625 102.3253173828125 -52.8580322265625
12.626953125 52.744140625 19.2789306640625
58.5654296875 10.6907958984375 63.959716796875
87.1904296875 46.4984130859375 30.2255859375
72.180419921875 81.27392578125 -7.9764404296875
88.830810546875 70.0362548828125 6.03955078125
40.85546875 -5.03173828125 80.2960205078125
124.4404296875 63.4664306640625 15.628173828125
49.09765625 42.4244384765625 32.8472900390625
23.01708984375 76.4522705078125 0.77978515625
115.261474609375 45.5323486328125 32.4725341796875
103.972412109375 48.3876953125 28.828125
64.799560546875 10.3125 64.8389892578125
30.99267578125 73.37451171875 3.0308837890625
65.370849609375 49.792236328125 25.411376953125
61.533203125 54.007568359375 1.076904296875
-13.24658203125 82.6888427734375 19.3101806640625
12.3173828125 47.8935546875 33.9962158203125
17.888427734375 46.1036376953125 6.8946533203125
50.44921875 93.4150390625 -18.0284423828125
-4.739501953125 89.4603271484375 -4.9071044921875
27.853515625 97.2857666015625 -46.1923828125
48.06494140625 66.89697265625 8.451416015625
38.666259765625 97.2685546875 -47.74853515625
-19.3291015625 73.6473388671875 -48.5811767578125
125.340087890625 55.4720458984375 -22.1363525390625
53.886474609375 79.3853759765625 -40.180419921875
48.572998046875 38.217041015625 36.9510498046875
90.220458984375 76.8248291015625 -0.4710693359375
40.500732421875 44.3475341796875 31.3431396484375
69.398681640625 30.720458984375 44.5784912109375
127.3154296875 26.55810546875 0.0308837890625
42.623779296875 2.930908203125 72.3314208984375
102.7548828125 36.6756591796875 40.351806640625
124.2841796875 47.9423828125 31.18603515625
38.7265625 91.37451171875 -15.39306640625
130.24267578125 61.541015625 16.7530517578125
81.765380859375 71.00732421875 5.4881591796875
125.695068359375 71.01806640625 -36.73828125
11.4326171875 27.366455078125 54.311279296875
18.98583984375 22.294921875 54.3580322265625
124.26220703125 37.452880859375 -3.9429931640625
60.362060546875 51.0711669921875 23.7073974609375
70.4189453125 37.648193359375 36.898193359375
48.190673828125 78.0025634765625 -39.35205078125
115.51806640625 70.9512939453125 -14.49609375
23.03515625 37.703125 38.5908203125
81.00927734375 78.3897705078125 -2.4439697265625
-2.826171875 76.8646240234375 10.474609375
38.239013671875 40.005859375 36.2603759765625
21.34423828125 45.5496826171875 31.307373046875
40.7412109375 16.0968017578125 59.114501953125
26.342529296875 80.77099609375 -4.2572021484375
135.053466796875 34.5145263671875 -11.6856689453125
55.634765625 64.217529296875 6.0977783203125
40.505859375 80.0196533203125 -40.5245361328125
88.281005859375 33.2294921875 42.64990234375
46.34521484375 22.099365234375 52.9754638671875
105.7197265625 31.171142578125 46.1094970703125
104.593505859375 24.201171875 53.112060546875
18.54248046875 51.7020263671875 25.5782470703125
23.37939453125 83.935302734375 -7.3519287109375
13.53955078125 38.599609375 40.7607421875
111.17724609375 42.2822265625 35.158447265625
-12.531982421875 72.412353515625 42.636474609375
66.66015625 6.6903076171875 68.1708984375
2.2119140625 48.94482421875 46.606689453125
72.75341796875 92.5283203125 -50.067626953125
31.62744140625 3.7391357421875 71.9813232421875
60.024658203125 -8.9505615234375 84.206298828125
-1.499267578125 81.94384765625 1.9210205078125
33.80615234375 85.463623046875 -9.388671875
-14.135498046875 80.9078369140625 30.4903564453125
-8.0185546875 76.7279052734375 15.4654541015625
-48.047119140625 -75.448486328125 -44.235107421875
23.548583984375 27.4310302734375 48.7755126953125
132.297607421875 41.1627197265625 -16.320556640625
2.304443359375 44.358154296875 53.2894287109375
54.726318359375 52.5380859375 5.838134765625
65.669189453125 69.665771484375 -31.1370849609375
11.72900390625 58.8023681640625 -2.0206298828125
96.47607421875 34.888671875 41.824951171875
59.427001953125 86.18896484375 -45.1397705078125
119.10888671875 48.248779296875 30.0865478515625
105.587158203125 59.739013671875 17.553466796875
57.085205078125 47.00537109375 10.3453369140625
107.396728515625 68.212158203125 -12.0732421875
56.52490234375 67.13720703125 -31.0787353515625
-12.42626953125 73.2099609375 37.1524658203125
43.375732421875 28.74365234375 46.9324951171875
71.393798828125 68.76953125 3.3497314453125
124.941162109375 63.140380859375 -32.353271484375
44.413330078125 87.7935791015625 -11.9285888671875
41.286865234375 83.47314453125 -7.049560546875
44.02294921875 108.822509765625 -59.5858154296875
118.170654296875 67.98583984375 -9.11669921875
72.251708984375 77.9876708984375 -2.5272216796875
111.357421875 29.2830810546875 44.86474609375
57.4228515625 73.874267578125 -35.916015625
33.41455078125 0.2943115234375 75.2967529296875
76.095458984375 46.4652099609375 29.08740234375
95.48974609375 41.8438720703125 34.81787109375
-17.278564453125 81.9385986328125 -42.693603515625
66.1611328125 16.6177978515625 58.2452392578125
126.865234375 57.433837890625 -31.015380859375
-20.4326171875 88.444580078125 15.0281982421875
53.244140625 -4.76708984375 80.1177978515625
-3.3740234375 70.949462890625 19.47900390625
130.7314453125 71.8338623046875 -9.5875244140625
-2.487548828125 54.7066650390625 50.92626953125
16.185302734375 91.38330078125 -14.48681640625
7.92333984375 48.011962890625 36.884521484375
126.53759765625 39.713623046875 -13.5809326171875
7.344482421875 76.71435546875 3.7674560546875
123.365966796875 68.6395263671875 -6.1912841796875
69.390625 23.1807861328125 51.822021484375
21.34375 93.004638671875 -16.0694580078125
62.625244140625 3.655029296875 70.8704833984375
15.968017578125 30.1673583984375 47.5299072265625
36.63525390625 46.82421875 29.3101806640625
71.148193359375 -0.768798828125 75.8956298828125
-0.211181640625 84.8870849609375 -1.9273681640625
131.221923828125 58.1121826171875 -36.3802490234375
1.730712890625 39.2003173828125 61.43994140625
125.151611328125 33.947998046875 0.6544189453125
90.642333984375 79.374755859375 -38.5093994140625
-22.548828125 71.10546875 -52.4349365234375
60.61572265625 97.0543212890625 -21.9853515625
131.209716796875 52.0452880859375 -31.0546875
29.16015625 21.6065673828125 54.178466796875
124.721435546875 74.5955810546875 -13.531005859375
67.873779296875 76.78955078125 -38.14404296875
66.955810546875 90.360595703125 -48.22216796875
28.22802734375 52.0618896484375 24.3955078125
8.057373046875 50.5943603515625 2.5987548828125
4.343017578125 35.621337890625 58.3638916015625
64.9501953125 -2.740234375 77.8466796875
-15.037353515625 80.4898681640625 35.4359130859375
127.342529296875 54.774169921875 24.0191650390625
49.42333984375 3.5146484375 71.3795166015625
16.506591796875 60.4423828125 -3.65185546875
119.1240234375 53.173583984375 25.9068603515625
9.46435546875 69.3858642578125 9.6427001953125
95.033447265625 75.09326171875 -14.78173828125
7.308349609375 58.3111572265625 5.7431640625
112.621337890625 53.3311767578125 24.62939453125
39.559814453125 6.013427734375 69.6343994140625
42.72216796875 9.0767822265625 66.080322265625
134.55078125 55.3114013671875 20.8955078125
133.49658203125 48.7237548828125 28.1241455078125
5.08740234375 40.015625 50.242919921875
93.885986328125 70.547607421875 7.15283203125
75.50634765625 9.6478271484375 65.857177734375
82.953369140625 81.643310546875 -5.5286865234375
82.59375 14.1295166015625 61.4166259765625
111.62841796875 69.7794189453125 7.88818359375
67.354248046875 99.1478271484375 -50.4989013671875
-20.631591796875 93.696044921875 22.8328857421875
44.977783203125 85.669189453125 -43.6868896484375
35.3642578125 88.65966796875 -42.6004638671875
8.622314453125 51.3988037109375 11.6363525390625
-2.88134765625 62.37060546875 35.4705810546875
10.8486328125 46.425048828125 11.016357421875
-5.2490234375 69.21630859375 27.3228759765625
26.2705078125 31.1900634765625 45.176513671875
63.596435546875 63.0565185546875 -2.1705322265625
12.286865234375 50.757080078125 30.0709228515625
81.375244140625 37.5450439453125 38.15185546875
-17.429931640625 85.491943359375 21.564697265625
65.81201171875 75.6763916015625 -0.7626953125
66.45068359375 27.1116943359375 47.4483642578125
135.174072265625 63.123046875 13.0806884765625
75.448974609375 79.30615234375 -39.5799560546875
60.52001953125 112.609130859375 -59.8253173828125
96.7783203125 21.966796875 54.6248779296875
100.572998046875 66.317138671875 10.610107421875
12.686279296875 99.7750244140625 -21.2464599609375
29.4833984375 103.63720703125 -55.5936279296875
3.6171875 55.590576171875 32.2294921875
-9.389892578125 86.516845703125 1.8277587890625
51.991455078125 35.523193359375 40.1832275390625
7.056396484375 57.678466796875 10.5191650390625
-13.36279296875 92.6307373046875 -0.706298828125
113.319580078125 69.799560546875 -1.302978515625
0.17822265625 67.91748046875 18.554443359375
48.982421875 71.7340087890625 -34.654296875
107.389892578125 76.75830078125 -19.1231689453125
-48.55859375 -70.8031005859375 -48.11279296875
19.794677734375 90.5167236328125 -40.7030029296875
71.276611328125 107.7686767578125 -56.6767578125
76.763671875 103.16162109375 -50.2978515625
80.228759765625 20.2000732421875 55.4923095703125
0.46044921875 73.517333984375 10.697265625
27.975830078125 56.2886962890625 -2.273681640625
47.626220703125 -8.6409912109375 84.031982421875
3.890869140625 99.3184814453125 -18.0281982421875
100.0078125 67.2476806640625 -9.2742919921875
123.905517578125 25.3790283203125 5.813232421875
86.339111328125 36.4117431640625 39.842041015625
50.24462890625 14.9100341796875 60.124755859375
15.57861328125 44.2894287109375 34.6705322265625
62.43408203125 33.1373291015625 41.706298828125
29.037109375 93.123291015625 -42.12646484375
9.125 56.760009765625 25.5362548828125
59.95703125 17.4185791015625 57.5067138671875
80.321044921875 30.799072265625 44.427001953125
22.82568359375 33.354248046875 42.739990234375
1.730712890625 51.809326171875 41.400634765625
75.498046875 88.193359375 -12.374755859375
95.87939453125 74.0498046875 -8.2047119140625
51.945068359375 74.518798828125 -28.9981689453125
75.64599609375 50.454345703125 25.277099609375
58.413818359375 30.0648193359375 44.934326171875
112.50634765625 35.4678955078125 39.3406982421875
57.44140625 37.4190673828125 37.230224609375
46.2763671875 49.69775390625 25.6881103515625
106.985595703125 72.6915283203125 1.3990478515625
-7.229736328125 74.4493408203125 19.3338623046875
60.88623046875 88.570556640625 -13.804443359375
53.176025390625 90.7373046875 -15.5489501953125
127.37646484375 44.007568359375 33.982421875
-17.0166015625 92.422119140625 6.4141845703125
35.44287109375 26.2586669921875 49.4893798828125
55.1240234375 49.873291015625 24.9915771484375
136.777587890625 51.6346435546875 24.7977294921875
97.940673828125 76.877685546875 -21.4344482421875
25.746337890625 90.1036376953125 -39.6221923828125
17.03125 81.6966552734375 -3.8021240234375
67.2421875 13.2503662109375 62.11474609375
64.878173828125 82.8592529296875 -7.6649169921875
21.269287109375 96.4400634765625 -45.0419921875
73.254150390625 6.31103515625 68.7135009765625
54.69921875 81.8192138671875 -5.8583984375
135.8984375 45.4000244140625 -25.7117919921875
134.225830078125 37.2064208984375 -15.2965087890625
103.785400390625 69.01171875 -4.89794921875
-20.64453125 92.55224609375 17.21533203125
65.144287109375 -6.5035400390625 81.691162109375
90.42822265625 11.0987548828125 64.8155517578125
45.608154296875 77.96630859375 -2.0811767578125
97.8154296875 18.8389892578125 58.0364990234375
29.850830078125 25.0528564453125 51.131591796875
31.738525390625 80.1029052734375 -3.7008056640625
97.671875 82.923583984375 -21.0582275390625
59.51708984375 23.86474609375 50.9110107421875
9.115478515625 53.8353271484375 28.924560546875
5.68017578125 60.04736328125 24.25634765625
89.1357421875 16.735107421875 58.9090576171875
90.08203125 39.8502197265625 36.2015380859375
139.353271484375 60.834716796875 17.4869384765625
115.27783203125 62.16015625 16.07958984375
66.999267578125 43.7822265625 12.025146484375
8.80419921875 73.230712890625 6.495849609375
77.824951171875 52.337890625 3.615234375
130.8505859375 35.2208251953125 -8.05810546875
62.52001953125 106.707275390625 -54.17041015625
24.746337890625 46.2872314453125 7.19873046875
37.384521484375 107.55078125 -58.228759765625
62.744140625 44.306640625 30.71435546875
32.462646484375 45.5814208984375 30.492919921875
52.67333984375 83.132568359375 -43.0701904296875
124.451416015625 51.293212890625 -17.979736328125
70.518310546875 51.22900390625 23.0184326171875
35.0771484375 98.3333740234375 -50.12890625
26.437255859375 91.5946044921875 -14.89794921875
43.410888671875 96.7528076171875 -47.8436279296875
99.42578125 24.6275634765625 52.273681640625
89.5498046875 98.9527587890625 -45.775634765625
80.745849609375 24.6435546875 51.1571044921875
88.20849609375 73.927978515625 2.1732177734375
0.2275390625 47.3524169921875 50.818115234375
84.677734375 28.9752197265625 46.7685546875
125.130859375 21.1591796875 7.0306396484375
15.61767578125 66.972412109375 2.4384765625
14.02685546875 72.602294921875 4.8861083984375
108.49560546875 64.7291259765625 12.927490234375
-9.752197265625 69.547119140625 35.16455078125
-57.414794921875 -78.54052734375 -49.2996826171875
56.2021484375 8.265625 66.7349853515625
52.89501953125 68.1932373046875 -27.3040771484375
133.6083984375 69.514404296875 -6.482177734375
18.248291015625 19.366943359375 57.8848876953125
130.406982421875 56.654296875 21.0498046875
75.560791015625 3.2110595703125 71.9019775390625
120.555419921875 73.919921875 -15.92626953125
92.01416015625 79.53857421875 -3.737548828125
82.299072265625 47.5257568359375 28.1412353515625
129.738525390625 48.572021484375 -22.725341796875
67.406982421875 88.2052001953125 -13.4581298828125
116.222412109375 79.2598876953125 -22.7686767578125
69.212158203125 53.106201171875 6.4422607421875
120.759033203125 68.150634765625 2.5721435546875
32.57763671875 35.4683837890625 40.473876953125
113.142333984375 59.1710205078125 18.8028564453125
-11.2822265625 68.6470947265625 44.4010009765625
69.357177734375 -7.3447265625 82.300537109375
17.776123046875 12.5472412109375 64.53271484375
126.280517578125 65.654541015625 -28.231689453125
19.784912109375 56.130615234375 -3.1888427734375
61.7138671875 26.75439453125 48.569091796875
75.093505859375 28.1302490234375 47.1640625
50.890380859375 113.1490478515625 -61.562255859375
85.072509765625 11.50927734375 64.2021484375
29.86865234375 93.8353271484375 -17.4091796875
-6.77587890625 61.54833984375 47.4735107421875
50.955322265625 8.9796142578125 65.939453125
125.085693359375 65.6102294921875 -35.9442138671875
58.277587890625 114.8172607421875 -62.7523193359375
115.99072265625 70.6778564453125 4.04541015625
-12.580810546875 84.3114013671875 10.3978271484375
67.154541015625 57.390625 -2.3154296875
72.42626953125 47.39599609375 8.0438232421875
135.326171875 29.140380859375 -3.5335693359375
59.24951171875 47.5113525390625 13.977294921875
68.658935546875 94.282958984375 -19.336669921875
41.581787109375 70.1815185546875 6.1904296875
74.1845703125 -3.22412109375 78.6312255859375
61.70263671875 68.4609375 3.551025390625
94.318603515625 75.915283203125 -0.0135498046875
9.916015625 54.0987548828125 -2.22119140625
9.47998046875 97.5325927734375 -19.189697265625
9.59912109375 65.0042724609375 6.0286865234375
54.67041015625 55.966796875 11.3958740234375
122.0771484375 67.9552001953125 8.2418212890625
53.37939453125 19.311279296875 56.1077880859375
103.88134765625 73.2244873046875 -16.169189453125
-13.082763671875 79.6845703125 23.16015625
57.072021484375 98.684326171875 -50.4781494140625
116.255126953125 29.32470703125 36.560546875
4.528076171875 30.4691162109375 61.1973876953125
71.110107421875 80.224365234375 -40.4986572265625
13.26806640625 45.3765869140625 7.7657470703125
53.93115234375 77.5440673828125 -1.9776611328125
45.402099609375 -2.7213134765625 78.1044921875
94.753173828125 95.958251953125 -42.92236328125
130.601318359375 45.9022216796875 -19.6307373046875
20.49169921875 25.5460205078125 50.9041748046875
53.535888671875 60.8450927734375 11.2862548828125
49.986083984375 48.0540771484375 28.1529541015625
73.798828125 33.97021484375 41.477783203125
34.275390625 91.33837890625 -14.94091796875
10.179443359375 17.4427490234375 65.8172607421875
53.7197265625 109.0362548828125 -58.967529296875
68.091796875 84.556884765625 -9.689208984375
18.602294921875 75.62744140625 1.424560546875
85.982177734375 77.1490478515625 -1.0677490234375
33.013916015625 102.2786865234375 -52.868408203125
57.037353515625 -6.490966796875 81.96435546875
108.164306640625 71.458984375 6.3480224609375
69.954833984375 106.847900390625 -65.18798828125
-6.09521484375 79.400390625 10.6087646484375
73.946044921875 39.392578125 35.614501953125
-17.07958984375 89.3548583984375 12.283935546875
55.66162109375 90.087158203125 -47.3597412109375
17.24609375 39.9381103515625 38.5355224609375
132.376953125 48.2440185546875 -26.4932861328125
32.760009765625 10.9921875 65.1651611328125
43.669921875 18.3818359375 57.3052978515625
31.922119140625 97.0584716796875 -47.787109375
113.72119140625 73.6605224609375 -17.03173828125
54.922119140625 55.00634765625 16.7120361328125
28.613525390625 106.3748779296875 -52.3599853515625
110.4609375 70.25830078125 -13.9097900390625
90.2353515625 23.2039794921875 53.0023193359375
-10.84716796875 73.935302734375 29.4151611328125
90.71142578125 26.4022216796875 50.006103515625
134.497802734375 66.8282470703125 8.96044921875
46.147216796875 81.6822509765625 -5.619873046875
131.003173828125 61.75927734375 -40.9910888671875
-2.273681640625 55.583984375 42.08349609375
99.921875 48.5999755859375 28.21923828125
84.486328125 42.8853759765625 32.8912353515625
86.446044921875 93.42236328125 -44.728515625
135.661865234375 42.7608642578125 -22.5927734375
74.6337890625 87.434814453125 -45.624755859375
45.323974609375 43.87158203125 32.2320556640625
85.18212890625 21.046875 54.9471435546875
43.478759765625 82.064697265625 -42.481689453125
48.5830078125 100.2642822265625 -50.9517822265625
75.481689453125 24.8658447265625 50.0843505859375
53.86767578125 67.6549072265625 7.40380859375
58.769775390625 85.416259765625 -10.009033203125
62.604248046875 82.858154296875 -42.6771240234375
45.958740234375 105.7840576171875 -55.9874267578125
67.269775390625 0.130126953125 75.037109375
37.8779296875 73.605712890625 2.65234375
7.07177734375 40.800537109375 46.382568359375
64.113525390625 47.017822265625 7.9249267578125
8.174560546875 31.0518798828125 53.556396484375
92.30224609375 33.8175048828125 42.43994140625
0.092041015625 92.7034912109375 -10.673583984375
31.2705078125 42.022705078125 34.154541015625
57.276611328125 13.6129150390625 61.4488525390625
79.37060546875 74.033203125 1.646484375
-0.29736328125 51.2977294921875 50.033447265625
26.137451171875 100.183837890625 -48.4461669921875
11.6650390625 55.3170166015625 22.258544921875
82.747802734375 83.584228515625 -43.37841796875
1.000244140625 57.4129638671875 35.4825439453125
-6.2470703125 83.28857421875 4.66162109375
21.632568359375 4.3914794921875 72.1058349609375
40.695068359375 102.5289306640625 -53.3360595703125
62.045654296875 73.1103515625 -35.2159423828125
44.78515625 -11.22265625 86.360107421875
50.801513671875 93.7237548828125 -47.4420166015625
58.52001953125 72.697998046875 2.3033447265625
16.420166015625 9.4207763671875 68.6138916015625
82.76904296875 6.411865234375 68.9881591796875
129.595947265625 54.591796875 -28.15478515625
50.972900390625 -10.533935546875 85.5933837890625
11.794921875 20.5576171875 60.9752197265625
37.335205078125 32.4847412109375 43.0982666015625
89.521484375 90.96044921875 -43.6279296875
54.98779296875 56.431640625 4.0107421875
58.25439453125 57.0982666015625 -1.7425537109375
109.26318359375 78.558837890625 -22.4862060546875
11.645751953125 38.2381591796875 44.276123046875
19.73583984375 43.4857177734375 9.5057373046875
46.68017578125 74.177490234375 -36.8446044921875
53.240478515625 2.7117919921875 72.292236328125
65.18603515625 111.937255859375 -64.9720458984375
60.6591796875 -1.986328125 77.1693115234375
-13.14697265625 87.003173828125 6.3330078125
58.805419921875 -16.5501708984375 91.843505859375
140.11181640625 57.9993896484375 20.7373046875
64.36328125 99.052978515625 -24.1956787109375
29.78759765625 13.140625 62.92919921875
11.30224609375 23.6572265625 56.1551513671875
85.482666015625 72.0877685546875 4.545166015625
60.2646484375 39.7686767578125 35.696044921875
22.995849609375 42.282958984375 33.8494873046875
18.314697265625 53.5372314453125 1.135009765625
25.098388671875 73.95556640625 3.050537109375
63.26416015625 93.989501953125 -49.9595947265625
23.9169921875 47.231689453125 28.815185546875
95.2021484375 38.3140869140625 38.38671875
61.732177734375 79.57373046875 -4.3675537109375
96.373779296875 72.2550048828125 4.598388671875
96.81005859375 27.6395263671875 49.0047607421875
37.58837890625 84.9237060546875 -8.377685546875
75.685546875 82.7947998046875 -8.970703125
5.22216796875 45.1922607421875 43.807373046875
28.321044921875 38.5673828125 37.695068359375
111.75537109375 39.386474609375 37.7742919921875
130.17578125 59.5341796875 -32.859130859375
108.701416015625 65.8192138671875 -9.234375
-12.916015625 83.6722412109375 14.632568359375
51.677978515625 -15.3363037109375 90.6802978515625
127.08251953125 32.9591064453125 -6.989990234375
12.90380859375 80.43017578125 -1.2589111328125
82.154296875 78.9681396484375 -38.9716796875
0.1787109375 62.5546875 29.9638671875
131.9423828125 62.7313232421875 -36.2371826171875
43.975830078125 89.3280029296875 -44.7109375
12.27978515625 64.98876953125 3.0367431640625
66.099609375 37.792724609375 37.4017333984375
129.74267578125 51.1624755859375 27.5001220703125
76.998046875 43.0281982421875 32.2274169921875
-16.298583984375 75.0966796875 -45.7012939453125
22.023193359375 95.9439697265625 -18.55224609375
120.7705078125 39.65673828125 35.32177734375
112.46337890625 32.2830810546875 41.5987548828125
17.334716796875 87.169921875 -10.276611328125
34.6005859375 5.5604248046875 70.236572265625
-20.795166015625 91.891357421875 31.244384765625
31.2392578125 -2.05859375 77.512939453125
72.262451171875 45.82861328125 29.3594970703125
72.76416015625 21.4661865234375 54.192138671875
72.401611328125 55.8267822265625 -0.7392578125
101.7626953125 73.396728515625 2.404541015625
31.92138671875 70.2764892578125 5.536376953125
51.9775390625 32.66552734375 42.8140869140625
66.72705078125 104.459228515625 -51.6964111328125
77.6591796875 33.659423828125 41.66845703125
8.275146484375 45.33349609375 41.060546875
45.804443359375 30.8212890625 44.7406005859375
50.677490234375 -2.6624755859375 78.12158203125
86.623291015625 26.669189453125 49.194091796875
23.46923828125 7.7630615234375 68.3504638671875
46.138671875 95.027587890625 -19.0888671875
67.819091796875 83.975341796875 -43.435791015625
94.491943359375 71.421630859375 -15.824951171875
85.54541015625 50.5186767578125 26.2191162109375
79.502197265625 16.50439453125 58.7596435546875
24.26318359375 2.0379638671875 73.6424560546875
-18.651611328125 83.6563720703125 26.49853515625
56.966552734375 91.2364501953125 -15.9488525390625
-0.9404296875 64.810791015625 26.2646484375
31.2373046875 50.9473876953125 4.008056640625
122.94140625 59.3934326171875 19.654052734375
59.805908203125 94.3621826171875 -19.37841796875
21.073486328125 51.5384521484375 22.3885498046875
100.4482421875 42.7694091796875 34.0452880859375
68.889404296875 40.4720458984375 34.8265380859375
25.606689453125 19.948974609375 56.041015625
28.65380859375 48.76025390625 27.598388671875
0.219970703125 79.0689697265625 4.400634765625
72.30078125 106.215087890625 -53.2587890625
44.313232421875 -6.7669677734375 82.4862060546875
124.0146484375 43.8914794921875 -14.368408203125
92.392333984375 13.4970703125 62.6025390625
-22.633544921875 77.798583984375 -46.23779296875
1.271728515625 64.4364013671875 22.504638671875
74.189697265625 72.667236328125 2.2701416015625
35.38818359375 79.459228515625 -2.72705078125
18.483154296875 32.925537109375 43.736572265625
53.020751953125 68.452880859375 -31.71044921875
127.618408203125 50.8228759765625 -24.9176025390625
-11.626708984375 79.52685546875 15.8367919921875
44.608642578125 79.070556640625 -40.46533203125
45.008056640625 93.4727783203125 -46.5277099609375
131.7646484375 54.795166015625 -33.9971923828125
39.871826171875 89.4124755859375 -44.382080078125
70.97119140625 17.0235595703125 58.2119140625
36.52587890625 15.9239501953125 60.31884765625
32.381103515625 7.599365234375 67.9735107421875
74.80419921875 94.1439208984375 -19.25830078125
-12.8447265625 77.4901123046875 36.033447265625
56.486328125 45.565673828125 29.209228515625
20.824951171875 93.7103271484375 -42.498779296875
32.7900390625 29.260009765625 46.684326171875
103.42578125 68.33154296875 9.2269287109375
6.828369140625 64.887451171875 16.2734375
106.9423828125 71.9793701171875 -14.3948974609375
112.413330078125 56.306640625 21.7344970703125
-11.363525390625 75.4481201171875 22.8065185546875
38.788818359375 -2.0257568359375 77.20458984375
87.951416015625 83.65869140625 -7.7503662109375
37.164306640625 104.131103515625 -55.175048828125
4.813720703125 62.6395263671875 21.7080078125
64.927978515625 106.588134765625 -59.3406982421875
116.2978515625 66.88427734375 11.427734375
122.98046875 65.99267578125 13.092041015625
63.01416015625 79.8546142578125 -40.504638671875
64.150146484375 90.020263671875 -14.8775634765625
-20.32373046875 84.1370849609375 33.7801513671875
10.470458984375 33.9365234375 48.230712890625
125.62060546875 45.937255859375 -18.8690185546875
20.023193359375 48.530517578125 28.9473876953125
33.35009765625 91.47705078125 -40.2540283203125
64.17578125 47.3082275390625 27.914306640625
104.151611328125 39.7779541015625 37.3050537109375
68.25732421875 81.3016357421875 -7.5447998046875
69.097900390625 98.4854736328125 -22.95654296875
40.447265625 94.126220703125 -17.4490966796875
-20.38623046875 74.386474609375 -53.8406982421875
76.328125 90.952880859375 -15.046875
35.974365234375 50.50390625 25.977294921875
42.11083984375 22.64794921875 52.8304443359375
132.15380859375 74.620849609375 -11.7286376953125
66.3193359375 3.61474609375 71.2015380859375
59.6787109375 65.7344970703125 -29.724609375
15.358642578125 50.9107666015625 27.291015625
49.39990234375 104.35791015625 -57.2281494140625
36.790771484375 -5.9219970703125 81.42529296875
52.35302734375 25.861328125 49.21533203125
34.998779296875 88.610595703125 -12.5616455078125
4.16552734375 67.776611328125 15.9205322265625
111.96875 48.70947265625 28.9810791015625
-20.685302734375 90.5888671875 26.52685546875
7.9560546875 84.531494140625 -4.4940185546875
15.35400390625 48.4453125 4.7791748046875
10.017578125 55.3067626953125 18.9228515625
-5.402099609375 69.7713623046875 23.5877685546875
127.413330078125 65.0118408203125 14.139892578125
1.878173828125 82.0931396484375 -0.1409912109375
29.4482421875 86.949462890625 -10.619140625
98.01318359375 74.278076171875 -3.268798828125
25.05517578125 78.396240234375 -1.5511474609375
83.01318359375 101.99658203125 -49.1590576171875
-2.98388671875 56.9539794921875 47.52392578125
7.168212890625 63.171875 12.59814453125
3.089599609375 95.06591796875 -13.62548828125
26.8779296875 44.5802001953125 9.616943359375
125.49609375 29.703857421875 -0.052490234375
65.068115234375 70.8056640625 2.674560546875
60.462646484375 116.978271484375 -64.7581787109375
25.6474609375 53.7205810546875 -0.6419677734375
64.12255859375 108.016357421875 -66.0989990234375
-8.629638671875 71.387451171875 27.74267578125
83.440185546875 99.458740234375 -46.4442138671875
42.11181640625 89.8526611328125 -13.8197021484375
74.96728515625 100.8001708984375 -48.0723876953125
130.147705078125 29.324462890625 -1.9041748046875
18.64208984375 28.0191650390625 49.0238037109375
14.81591796875 24.08154296875 54.7088623046875
5.614501953125 89.5496826171875 -9.722900390625
94.75732421875 44.1004638671875 32.0977783203125
80.781494140625 84.91650390625 -40.470947265625
10.807861328125 48.7388916015625 3.9888916015625
5.25 50.9306640625 38.8472900390625
97.53564453125 70.410400390625 -9.19384765625
123.8671875 51.9625244140625 -22.562255859375
74.079833984375 1.0423583984375 74.355224609375
-8.18017578125 65.5731201171875 42.294921875
24.959716796875 16.590576171875 59.613037109375
13.458740234375 53.13720703125 -0.3104248046875
-3.303466796875 96.4307861328125 -12.1612548828125
22.018798828125 13.1907958984375 63.0980224609375
48.911865234375 87.0499267578125 -44.871337890625
53.3837890625 -0.5721435546875 75.5758056640625
49.697998046875 6.5400390625 68.883056640625
3.208740234375 40.4693603515625 53.3768310546875
