35.674560546875 41.965087890625 0.3585205078125
6.057373046875 -16.6016845703125 1.598388671875
-18.701171875 -52.9205322265625 -8.1197509765625
-23.482177734375 -39.71875 -3.5936279296875
13.91552734375 -68.5888671875 -4.32861328125
-26.110595703125 7.0064697265625 7.05712890625
-9.4140625 51.22900390625 3.2611083984375
-5.45849609375 15.134521484375 2.2603759765625
20.221435546875 5.47705078125 1.4293212890625
14.139404296875 -8.7733154296875 1.6231689453125
-13.58447265625 -28.806640625 -2.6478271484375
-69.4638671875 -42.1710205078125 -1.615234375
-49.39111328125 -26.87548828125 -2.7083740234375
-46.697509765625 -51.06982421875 -1.52783203125
39.6826171875 87.1649169921875 -7.0020751953125
-25.654296875 -15.1458740234375 2.766357421875
-27.75 -44.65087890625 -9.1705322265625
-2.855224609375 -102.5281982421875 10.9107666015625
10.489501953125 71.5068359375 18.24267578125
-72.4248046875 -99.3961181640625 4.28076171875
-64.731689453125 -13.4820556640625 -1.195556640625
26.937744140625 60.2008056640625 -6.9302978515625
-40.147705078125 -43.104736328125 -2.0931396484375
35.17919921875 102.4642333984375 24.25341796875
20.14208984375 62.4246826171875 11.140380859375
-23.794677734375 -22.6470947265625 0.72119140625
-25.59375 -7.3095703125 2.959716796875
21.98779296875 70.61376953125 4.3907470703125
19.708984375 -29.69482421875 -4.24462890625
-29.44580078125 75.1929931640625 29.714111328125
30.79638671875 36.178955078125 -21.9508056640625
-72.5244140625 -60.8282470703125 16.007080078125
26.932373046875 85.4971923828125 10.23974609375
-21.06640625 -112.3095703125 10.9984130859375
-50.525146484375 -38.7738037109375 -3.08447265625
39.696533203125 103.7933349609375 17.6544189453125
-21.452880859375 22.977294921875 2.92529296875
6.430908203125 -9.0936279296875 1.734619140625
-78.170166015625 -13.375732421875 12.274658203125
-10.02880859375 -32.7679443359375 -3.5616455078125
38.55810546875 -96.157470703125 -3.7982177734375
-50.62841796875 -59.1641845703125 -2.2635498046875
-59.720703125 -98.0765380859375 -10.0384521484375
-9.584716796875 34.57666015625 2.9527587890625
-56.31494140625 -50.00244140625 -2.12109375
22.691162109375 78.6116943359375 16.668212890625
4.389892578125 -27.8294677734375 -2.786376953125
-18.388427734375 66.90185546875 19.2208251953125
-65.687744140625 -82.913330078125 -6.786865234375
4.3349609375 -45.1195068359375 -4.13037109375
-57.400390625 -80.446533203125 -0.6671142578125
39.74853515625 80.0009765625 -11.2440185546875
27.585693359375 59.257080078125 7.1029052734375
23.95458984375 93.2567138671875 23.2545166015625
-5.4423828125 -17.700927734375 1.8184814453125
-11.71630859375 54.1181640625 10.5574951171875
-17.72900390625 -35.76953125 -3.2230224609375
-0.91796875 34.5106201171875 2.4681396484375
21.457763671875 -74.468505859375 -4.608154296875
-25.772705078125 -59.113525390625 -8.5894775390625
9.229736328125 65.3814697265625 11.21875
18.790771484375 -82.8675537109375 -4.6898193359375
-17.693603515625 -39.72021484375 -16.4295654296875
-58.34814453125 -54.7559814453125 -1.3760986328125
2.352783203125 71.3277587890625 21.3348388671875
18.624267578125 -41.1094970703125 -4.1937255859375
2.263427734375 -93.9437255859375 -4.0223388671875
-2.022216796875 -33.4754638671875 -3.9443359375
-81.489013671875 30.4615478515625 -3.117431640625
20.600830078125 -16.2049560546875 1.1982421875
0.7021484375 -61.422607421875 -4.19189453125
-50.552978515625 -78.1864013671875 3.3658447265625
-71.667236328125 -88.5205078125 3.8526611328125
25.23876953125 91.0714111328125 3.9073486328125
-11.86181640625 -19.779052734375 1.8358154296875
1.738525390625 -108.9459228515625 11.1175537109375
-5.4658203125 -40.950927734375 -4.0260009765625
15.045654296875 48.4586181640625 2.1116943359375
36.71826171875 91.0902099609375 -3.5416259765625
31.016845703125 32.2469482421875 1.980224609375
-27.48876953125 39.24853515625 8.0655517578125
6.542236328125 -119.209228515625 10.5491943359375
-15.97021484375 -3.259521484375 2.5174560546875
-63.966796875 -82.789794921875 2.047119140625
11.902099609375 -29.68994140625 -3.5057373046875
15.583740234375 22.1314697265625 1.6566162109375
21.677978515625 13.62939453125 1.2646484375
-45.854736328125 -65.7158203125 -2.42333984375
35.36865234375 85.0318603515625 -10.0858154296875
4.498291015625 -52.57275390625 -3.99462890625
3.82373046875 10.7659912109375 1.860107421875
-29.44873046875 -44.9923095703125 13.130615234375
26.073486328125 -1.8133544921875 1.133544921875
-8.627685546875 76.6268310546875 28.3653564453125
-3.009521484375 29.216064453125 2.5511474609375
-53.138427734375 -79.2734375 -8.11962890625
25.859619140625 -22.275390625 -0.7603759765625
-2.348876953125 -4.486328125 2.1600341796875
-18.314697265625 -101.9295654296875 11.2281494140625
-74.19677734375 -17.2110595703125 -0.4901123046875
41.07080078125 16.946533203125 0.3343505859375
12.76904296875 41.1412353515625 2.1962890625
28.538330078125 92.5028076171875 15.44921875
-18.3544921875 78.918701171875 31.5848388671875
-13.0078125 20.4437255859375 2.57568359375
-9.436279296875 -11.071044921875 2.1141357421875
9.782470703125 -103.5689697265625 -4.0908203125
43.025390625 26.343505859375 0.01953125
-8.701171875 -114.313232421875 10.9580078125
8.596923828125 -89.8675537109375 -3.5474853515625
40.06298828125 93.4027099609375 2.202880859375
15.25244140625 -85.9151611328125 -4.5399169921875
33.28857421875 -27.987060546875 -3.58984375
-85.109130859375 10.334716796875 -2.03076171875
-63.1708984375 -51.081298828125 17.64306640625
-18.963623046875 32.0008544921875 3.1448974609375
-32.901123046875 -47.37158203125 -2.930419921875
7.346923828125 -66.1031494140625 -3.841552734375
-13.00439453125 16.1162109375 2.5308837890625
37.52978515625 -123.143798828125 2.16162109375
27.459716796875 42.3817138671875 -15.650390625
10.95263671875 -112.8404541015625 -4.4261474609375
-57.393798828125 -30.4425048828125 -2.2802734375
-0.934326171875 47.3271484375 2.6806640625
11.232421875 37.3289794921875 1.99072265625
-81.658203125 7.5201416015625 -1.917724609375
28.2265625 76.0596923828125 -5.7056884765625
-27.874267578125 17.5291748046875 3.0450439453125
17.12158203125 -56.040771484375 -6.3492431640625
-23.292724609375 -49.796875 15.3450927734375
-54.896240234375 -20.4068603515625 -1.8033447265625
33.065673828125 91.0440673828125 11.9547119140625
40.18017578125 93.2274169921875 7.471435546875
-75.29345703125 -83.2747802734375 5.3922119140625
-4.62158203125 77.1376953125 28.277587890625
27.435791015625 -15.382080078125 0.8548583984375
-75.947509765625 -91.34619140625 8.3177490234375
-29.132080078125 69.1048583984375 22.6595458984375
28.65478515625 22.7413330078125 1.1053466796875
57.7236328125 -20.14208984375 0.74755859375
-26.72265625 -33.0574951171875 -2.8109130859375
3.041748046875 -82.8988037109375 -3.2164306640625
31.27490234375 87.1285400390625 -6.3262939453125
16.6953125 -52.046875 1.7900390625
-68.23779296875 9.1583251953125 -3.0369873046875
22.364501953125 17.8809814453125 1.3985595703125
-39.08935546875 -40.4075927734375 3.615966796875
10.092529296875 -82.1605224609375 -1.442626953125
-4.65087890625 37.9212646484375 2.547119140625
37.836181640625 34.626220703125 3.22900390625
-56.72607421875 -41.9490966796875 -2.3912353515625
33.005615234375 92.5577392578125 0.9495849609375
-73.255859375 1.1263427734375 -2.071533203125
-26.697265625 -55.1708984375 -3.1875
31.8349609375 3.5152587890625 1.401123046875
23.014404296875 31.6453857421875 1.800048828125
6.244873046875 -31.1231689453125 -3.94091796875
20.98193359375 76.8472900390625 10.369873046875
2.148681640625 -90.00341796875 -3.8289794921875
16.69921875 -23.597900390625 -1.3411865234375
-62.3046875 -69.6690673828125 9.64306640625
64.37158203125 40.0577392578125 -1.8338623046875
28.881103515625 46.125732421875 -16.3876953125
28.733154296875 47.3665771484375 1.4100341796875
-21.491943359375 -31.7318115234375 -3.0267333984375
-61.7001953125 -47.023681640625 -2.14697265625
-50.401611328125 -92.331298828125 -11.3115234375
-54.05859375 -79.1102294921875 -2.8232421875
-73.439453125 -92.111083984375 4.1746826171875
-10.75830078125 30.8433837890625 3.030517578125
15.74755859375 -94.9102783203125 -3.6392822265625
37.86181640625 21.5196533203125 0.549560546875
36.0263671875 30.2266845703125 0.841552734375
21.222412109375 74.758056640625 -2.159912109375
-67.616455078125 -83.86279296875 3.39501953125
14.626220703125 71.725830078125 7.9932861328125
22.39990234375 64.646484375 7.1005859375
29.900390625 -83.6153564453125 -4.825439453125
33.203369140625 -40.1165771484375 -5.1029052734375
43.32568359375 -124.0877685546875 3.5174560546875
10.499755859375 -106.559814453125 10.378173828125
42.8837890625 98.7174072265625 13.0902099609375
-23.441650390625 73.72216796875 31.0557861328125
33.494140625 97.0577392578125 17.897216796875
-24.7744140625 67.549072265625 20.2908935546875
-49.072021484375 -45.8634033203125 -1.71533203125
-9.533203125 -119.9364013671875 10.932373046875
-11.98681640625 71.5428466796875 23.2215576171875
-64.345947265625 -27.2371826171875 -2.0521240234375
22.181640625 49.2940673828125 1.876708984375
-64.718994140625 -103.65673828125 3.730224609375
1.477783203125 -0.9710693359375 1.843994140625
-8.628662109375 66.792236328125 17.996337890625
28.02099609375 42.2391357421875 1.31396484375
-24.975341796875 -54.1588134765625 -10.630859375
27.136962890625 54.3299560546875 2.7930908203125
13.581787109375 72.4119873046875 20.29296875
-70.569580078125 -95.9107666015625 4.0284423828125
15.736328125 15.128173828125 1.81298828125
-31.140625 -33.8280029296875 -2.6353759765625
10.17138671875 60.7657470703125 9.8988037109375
-65.610595703125 -3.2578125 -1.7872314453125
-61.442138671875 -76.7183837890625 5.23876953125
-90.52783203125 31.1138916015625 0.8990478515625
29.077880859375 58.8577880859375 -10.2530517578125
-14.671630859375 -42.7908935546875 -5.2567138671875
-57.34375 -68.888916015625 5.5008544921875
11.86083984375 -16.911865234375 1.283203125
22.115478515625 -50.0595703125 -1.3494873046875
20.7705078125 76.4256591796875 14.1226806640625
17.427978515625 72.592041015625 19.028076171875
-70.371826171875 -34.332275390625 -1.8289794921875
13.185791015625 -107.307373046875 -3.34814453125
-63.372314453125 -95.565673828125 -9.0556640625
21.973876953125 70.2835693359375 8.7430419921875
-93.305419921875 -4.386962890625 16.328369140625
15.349609375 60.1319580078125 9.0919189453125
21.91357421875 -8.789794921875 0.9967041015625
37.355712890625 -100.7066650390625 -2.0408935546875
-5.020751953125 -31.2471923828125 -3.4954833984375
-44.287353515625 -53.9488525390625 -0.5548095703125
25.857177734375 -27.0087890625 -3.1005859375
38.88330078125 -62.6416015625 -4.691650390625
-18.37109375 -37.763916015625 -8.7156982421875
45.183349609375 89.5814208984375 -0.36181640625
25.2900390625 -51.89306640625 -8.3974609375
18.700439453125 72.2601318359375 15.0623779296875
-67.204345703125 -90.7733154296875 -8.5181884765625
-18.35009765625 -51.1854248046875 -14.3787841796875
-14.459716796875 73.977294921875 25.9449462890625
21.525390625 82.4107666015625 4.0435791015625
-86.827392578125 -7.378662109375 16.34619140625
-10.702880859375 38.7615966796875 12.6044921875
-5.3330078125 -13.937255859375 2.060546875
-79.587158203125 15.34130859375 -2.60595703125
-18.09326171875 -121.106201171875 11.0494384765625
41.42529296875 107.8004150390625 17.04052734375
-69.953125 -63.3681640625 15.0653076171875
29.694091796875 -68.1695556640625 -8.54638671875
-80.2236328125 -11.947021484375 15.607421875
22.609619140625 88.7093505859375 20.40576171875
-69.033203125 -11.6092529296875 -0.56298828125
33.565185546875 12.614990234375 1.407470703125
-75.047119140625 12.805419921875 -2.7269287109375
4.661376953125 -97.2537841796875 -4.4647216796875
-1.425537109375 -87.14794921875 -3.0457763671875
-26.64599609375 1.114013671875 2.798828125
-71.985107421875 -52.2939453125 18.816162109375
26.641357421875 88.0220947265625 18.4276123046875
21.95263671875 38.6236572265625 1.566162109375
7.5322265625 -111.5914306640625 -5.0059814453125
-51.421630859375 -31.276611328125 -3.0860595703125
-57.42529296875 -34.693359375 -2.2657470703125
4.0439453125 -116.539306640625 10.997802734375
-37.413330078125 -54.998291015625 -9.4716796875
-42.36083984375 -77.181396484375 1.8931884765625
-19.649169921875 -43.9482421875 -4.804443359375
-30.90576171875 -40.36474609375 -2.8260498046875
25.3623046875 -80.7109375 -3.96142578125
16.201904296875 4.19384765625 1.4515380859375
-18.378173828125 -47.28759765625 -14.713134765625
-2.26220703125 -48.0650634765625 -3.974365234375
10.8125 71.276611328125 14.6021728515625
33.357666015625 -60.0728759765625 -7.7462158203125
-2.1962890625 69.2615966796875 19.82861328125
-86.64013671875 29.7186279296875 -3.54345703125
35.301513671875 -96.9952392578125 -1.8167724609375
5.62109375 -56.6915283203125 -4.0294189453125
13.19970703125 74.5159912109375 11.5584716796875
-14.620361328125 -108.74560546875 11.01220703125
45.312744140625 -85.600341796875 -5.16796875
-24.622314453125 -29.843505859375 -2.744873046875
-14.249267578125 9.244873046875 2.393310546875
-18.376953125 -51.1422119140625 -4.868408203125
-75.955810546875 -27.8382568359375 -2.2344970703125
-26.787353515625 -4.5679931640625 6.94482421875
33.37841796875 -43.9932861328125 -4.78076171875
-34.85693359375 -39.2794189453125 0.1104736328125
-6.898681640625 8.244140625 2.4609375
26.642578125 89.9932861328125 0.241943359375
-19.89306640625 39.4730224609375 3.117919921875
-81.57470703125 -1.2362060546875 -0.934814453125
23.258544921875 -46.7235107421875 -4.0709228515625
17.858154296875 -56.1153564453125 2.8475341796875
27.836181640625 -10.4512939453125 0.7833251953125
-64.9697265625 -57.564697265625 16.23193359375
-61.23779296875 -67.7451171875 13.429931640625
-101.409423828125 25.7740478515625 -1.2747802734375
7.466796875 71.6319580078125 20.99658203125
-13.357666015625 -46.3114013671875 18.6297607421875
-17.950927734375 10.8782958984375 2.6949462890625
34.99462890625 61.9307861328125 -11.9080810546875
-55.442138671875 -93.975830078125 -8.0662841796875
34.72900390625 90.3179931640625 3.175048828125
4.408203125 66.1229248046875 17.0504150390625
30.780517578125 52.498779296875 1.39794921875
-69.66650390625 -24.6151123046875 -1.6773681640625
3.6689453125 60.8499755859375 10.7822265625
-62.56591796875 -23.196533203125 -1.8326416015625
-83.89306640625 -11.34228515625 13.1876220703125
16.22998046875 -16.0394287109375 1.4720458984375
7.94091796875 75.629638671875 23.2958984375
-59.24658203125 -12.1796875 -1.4508056640625
-10.343505859375 46.9298095703125 6.4912109375
17.423095703125 -91.1490478515625 -5.0523681640625
-57.814697265625 -17.4122314453125 -1.232421875
-29.330078125 25.51416015625 3.5443115234375
38.118408203125 -83.9090576171875 -5.2379150390625
-29.41015625 -40.6119384765625 -9.115966796875
-11.9013671875 -25.991455078125 -1.250244140625
29.49462890625 35.4627685546875 1.764404296875
-7.469482421875 -5.3255615234375 2.3759765625
-89.0009765625 22.9815673828125 0.151123046875
29.282958984375 100.6229248046875 25.6632080078125
-14.99169921875 76.419921875 28.6070556640625
19.177001953125 -54.9212646484375 -11.5726318359375
-24.480224609375 -1.6422119140625 3.6070556640625
19.014404296875 41.638671875 1.86474609375
-7.6474609375 -43.7886962890625 -3.646240234375
8.956298828125 -97.529052734375 -4.4708251953125
-79.52587890625 -10.87890625 -0.3670654296875
-40.5634765625 -64.4505615234375 -2.642822265625
38.620361328125 13.757568359375 -0.0206298828125
-50.08203125 -83.051513671875 -9.3646240234375
14.666015625 10.048095703125 1.5108642578125
33.056640625 -35.921630859375 -4.8905029296875
-12.573974609375 61.2542724609375 12.487548828125
12.14794921875 -79.137939453125 -2.545166015625
13.17919921875 29.6312255859375 1.9530029296875
25.095947265625 85.5272216796875 -2.3060302734375
-104.0712890625 35.59765625 -1.8985595703125
-12.304443359375 37.237060546875 2.7633056640625
45.234619140625 20.3145751953125 -0.2645263671875
-56.47705078125 -25.1600341796875 -2.3143310546875
-60.566162109375 -80.552734375 3.6468505859375
-4.862548828125 70.642578125 21.6529541015625
-5.79638671875 -47.216552734375 -3.7191162109375
-41.52001953125 -53.632568359375 -5.5682373046875
-28.201904296875 -59.2862548828125 -3.2664794921875
-15.207763671875 -7.2806396484375 2.4324951171875
4.810302734375 29.5439453125 1.8448486328125
49.404296875 -91.510009765625 -5.208251953125
-68.138671875 -28.288818359375 -2.09033203125
-77.540283203125 -16.254638671875 -0.0684814453125
-0.9326171875 -111.166015625 10.683349609375
-54.568115234375 -77.969970703125 1.581298828125
1.483642578125 75.5343017578125 25.5599365234375
16.178466796875 35.619873046875 2.4539794921875
28.696533203125 84.6937255859375 -6.9012451171875
-80.383056640625 23.9361572265625 -3.619384765625
6.26611328125 -42.2071533203125 -4.150146484375
39.296875 -75.1787109375 -5.4798583984375
26.268798828125 -68.974853515625 -8.47265625
8.60400390625 11.8077392578125 1.92041015625
-36.068359375 -45.456298828125 6.8909912109375
-20.413818359375 -38.071533203125 -3.772216796875
-27.0869140625 -46.215087890625 -5.9371337890625
-16.016357421875 -55.18994140625 14.4901123046875
27.00927734375 91.7242431640625 22.637451171875
-22.36279296875 -116.1436767578125 10.5091552734375
60.96728515625 -19.8433837890625 -0.453857421875
1.95703125 -86.3729248046875 -3.110107421875
14.44091796875 -56.6781005859375 -4.24462890625
-18.966552734375 17.5035400390625 2.773681640625
9.395751953125 -23.9383544921875 -0.8411865234375
0.710205078125 22.8677978515625 2.189208984375
-12.3212890625 52.6619873046875 4.4755859375
4.779052734375 -3.5120849609375 1.7064208984375
0.74609375 -45.7454833984375 -3.774169921875
-1.20654296875 -40.72021484375 -3.8701171875
-29.22216796875 -48.225830078125 -15.0670166015625
-32.4794921875 67.5025634765625 21.8741455078125
-65.893798828125 -83.86279296875 -1.3812255859375
-34.69970703125 -52.3544921875 -8.4102783203125
-16.91796875 -20.3564453125 1.5670166015625
-15.649658203125 25.3963623046875 2.7138671875
16.60693359375 62.561279296875 11.1773681640625
-14.312744140625 60.0855712890625 16.74951171875
-65.631591796875 -92.328125 1.5697021484375
-71.633544921875 9.496826171875 -2.635498046875
31.356201171875 -9.2921142578125 0.8880615234375
-41.499267578125 -59.6690673828125 -7.5548095703125
-62.878173828125 -9.3426513671875 -1.4427490234375
-39.9052734375 -85.7879638671875 2.947998046875
-71.1220703125 -67.052001953125 14.7747802734375
-29.08544921875 -45.2017822265625 9.633544921875
-26.150634765625 -41.646484375 -8.8961181640625
-72.94287109375 -78.24609375 9.1185302734375
22.304931640625 -59.850341796875 -12.5535888671875
26.3603515625 27.7347412109375 1.27294921875
-38.33447265625 -50.764404296875 -0.485107421875
-7.349365234375 60.90625 11.8509521484375
37.02685546875 -22.6845703125 -1.5133056640625
-13.2431640625 43.955810546875 2.8543701171875
-6.99462890625 57.7259521484375 8.585205078125
-87.930908203125 14.534912109375 -1.4539794921875
21.26123046875 -36.0064697265625 -4.425048828125
-68.125732421875 -74.48388671875 4.4476318359375
32.50537109375 58.3084716796875 -12.814697265625
-36.27001953125 -39.850341796875 -2.9134521484375
-69.74609375 3.893798828125 -2.379150390625
20.522705078125 72.9765625 23.5802001953125
-23.230712890625 -9.72021484375 2.816162109375
28.375 97.6636962890625 21.9945068359375
-25.781494140625 -61.927001953125 -6.727294921875
-60.53515625 -78.559326171875 -5.835205078125
39.7841796875 107.2437744140625 20.2459716796875
48.995361328125 -94.8721923828125 -5.32373046875
-24.985107421875 -18.4439697265625 2.560546875
-0.85302734375 12.64208984375 2.0872802734375
13.002685546875 -110.8297119140625 -2.6611328125
19.149169921875 -63.0775146484375 -6.7823486328125
-47.61328125 -82.746826171875 -1.6885986328125
46.660400390625 -89.6387939453125 -4.719482421875
43.468994140625 84.2325439453125 -8.1829833984375
20.904541015625 2.262451171875 2.6341552734375
-60.376220703125 -41.0499267578125 -2.5078125
-72.01171875 -73.0682373046875 13.9599609375
-47.328125 -60.0361328125 -2.5081787109375
-73.11669921875 -8.9183349609375 -0.442626953125
32.25244140625 40.7474365234375 1.6962890625
-38.927978515625 -81.1773681640625 2.5526123046875
-53.29345703125 -23.289794921875 -2.334228515625
5.3076171875 17.8863525390625 2.2220458984375
28.401123046875 -34.0750732421875 -4.757568359375
-74.294189453125 -2.924560546875 -1.2257080078125
-66.5888671875 -40.447021484375 -1.8536376953125
35.060302734375 -118.6085205078125 3.27587890625
21.3876953125 67.446044921875 5.219482421875
-54.63720703125 -58.0810546875 -3.09814453125
-45.400390625 -87.9237060546875 -8.8763427734375
27.470458984375 -88.5006103515625 -3.8502197265625
-19.328125 -41.8377685546875 -9.519775390625
-28.908447265625 73.3270263671875 27.0166015625
-26.2890625 29.393310546875 3.245849609375
10.423583984375 69.7115478515625 11.593017578125
-28.384765625 -16.8172607421875 3.6412353515625
-69.30859375 -87.614013671875 -4.9722900390625
-32.901123046875 76.4559326171875 28.8314208984375
13.378662109375 -61.89990234375 -4.5797119140625
8.769775390625 -2.9163818359375 1.7371826171875
-58.248291015625 -82.4752197265625 2.2689208984375
33.841064453125 -6.34912109375 0.73193359375
4.119384765625 41.2294921875 2.28759765625
-60.66259765625 -19.430908203125 -1.483154296875
-75.882568359375 -21.735595703125 -1.05126953125
-26.103515625 38.833984375 3.225830078125
19.16748046875 -77.894287109375 -4.75732421875
21.54736328125 -51.3653564453125 -8.6546630859375
-6.82958984375 45.7015380859375 2.7095947265625
0.33837890625 -52.314697265625 -4.0611572265625
29.14404296875 -22.1419677734375 -0.765625
-0.38623046875 43.46533203125 2.4544677734375
33.94482421875 -55.9381103515625 -4.86279296875
-62.07177734375 -37.4239501953125 -2.6444091796875
-86.2177734375 1.9693603515625 -0.48876953125
25.1123046875 46.9495849609375 1.5299072265625
11.51904296875 -115.246826171875 10.5977783203125
27.141845703125 16.7852783203125 1.0438232421875
43.438232421875 -97.49169921875 -6.381591796875
-37.873779296875 -51.8349609375 -6.944580078125
-35.422119140625 -49.9976806640625 -2.2686767578125
-69.125244140625 -21.378173828125 -1.2374267578125
27.18701171875 -41.30224609375 -4.5723876953125
-16.501953125 35.739990234375 2.9639892578125
40.056640625 62.9180908203125 -15.8984375
-31.291015625 -41.1334228515625 -14.501220703125
3.22802734375 54.841796875 4.2921142578125
-39.5146484375 -58.7847900390625 -9.9967041015625
5.165283203125 -63.697265625 -3.807373046875
-15.821533203125 68.5225830078125 20.3720703125
29.556640625 24.87255859375 -19.81396484375
18.535400390625 55.4384765625 3.8482666015625
22.45947265625 -92.93603515625 -5.0968017578125
-77.726806640625 -8.192626953125 -0.4544677734375
-55.796142578125 -71.8138427734375 3.7344970703125
-64.752685546875 -80.00732421875 3.8421630859375
3.833251953125 -60.7314453125 -3.81494140625
35.892578125 26.933349609375 0.4625244140625
-41.3369140625 -38.705322265625 1.8253173828125
-83.956787109375 -5.04931640625 -0.10888671875
-0.56005859375 -18.90625 1.036376953125
-25.5478515625 -108.3570556640625 12.0892333984375
13.6181640625 -72.0340576171875 -4.2900390625
-58.335205078125 -94.6708984375 -9.4581298828125
25.709716796875 -127.07275390625 0.1522216796875
3.406982421875 6.02685546875 2.002197265625
26.191650390625 88.3275146484375 6.1800537109375
-55.775634765625 -12.8101806640625 -1.399169921875
57.44189453125 -14.360595703125 0.3114013671875
-52.188232421875 -52.1239013671875 -2.0968017578125
-63.25927734375 -63.8226318359375 14.6416015625
0.367431640625 60.4765625 10.484375
-14.86767578125 -54.427490234375 -16.5672607421875
6.841064453125 -84.4449462890625 -3.956787109375
-26.973876953125 -39.8621826171875 -2.80712890625
-31.088134765625 -51.771240234375 -2.81005859375
-74.09716796875 -96.495361328125 10.454345703125
-21.90673828125 78.1829833984375 31.4853515625
-27.1162109375 -27.8746337890625 -1.53564453125
25.26513671875 24.4730224609375 1.296142578125
-53.87841796875 -93.8006591796875 -10.8272705078125
26.084228515625 65.980712890625 -3.568115234375
11.5576171875 17.117919921875 1.9189453125
-8.0576171875 11.3333740234375 2.378173828125
21.326904296875 56.9986572265625 5.0877685546875
-10.935546875 40.8359375 10.213134765625
12.26904296875 -35.0126953125 -4.4720458984375
6.27978515625 21.3717041015625 2.0615234375
28.458251953125 56.8857421875 -1.393798828125
-10.139404296875 78.5548095703125 30.398193359375
33.09130859375 29.110107421875 1.02978515625
-27.540283203125 43.3223876953125 5.0684814453125
19.1611328125 -51.689208984375 -6.3922119140625
-77.421630859375 -57.950927734375 18.3668212890625
23.72021484375 54.2838134765625 2.98974609375
39.969970703125 99.8741455078125 12.96142578125
5.127685546875 -90.5633544921875 -4.6375732421875
41.95458984375 57.136474609375 -16.3802490234375
-11.9912109375 53.0472412109375 7.5704345703125
-3.044677734375 65.6148681640625 16.264892578125
-3.702392578125 45.6552734375 2.90771484375
-7.921875 -19.5604248046875 1.3594970703125
35.5166015625 78.5093994140625 -8.6966552734375
20.33203125 -21.5374755859375 -0.7010498046875
-29.853515625 35.52490234375 3.910400390625
-26.0771484375 -52.285400390625 -5.184326171875
-75.92578125 2.7298583984375 -1.8157958984375
10.085693359375 6.6668701171875 1.8125
41.787353515625 -73.20556640625 -5.683837890625
20.342529296875 -105.554443359375 -5.137451171875
24.083984375 -29.4251708984375 -4.08837890625
-71.1826171875 -105.464111328125 13.3802490234375
25.81005859375 35.6942138671875 1.833984375
10.3076171875 3.3179931640625 1.7264404296875
22.54638671875 86.3970947265625 3.9154052734375
-68.93798828125 -87.36279296875 2.920654296875
31.257080078125 48.438720703125 -2.9073486328125
-67.92041015625 -72.4202880859375 11.4000244140625
25.26171875 -54.277099609375 -12.593505859375
-33.1396484375 -43.1527099609375 6.0047607421875
-13.541748046875 -113.409912109375 11.0594482421875
-62.0732421875 -72.2838134765625 3.6357421875
-60.071044921875 -44.075439453125 -1.890869140625
0.9765625 -27.2001953125 -2.469970703125
39.14013671875 73.7340087890625 -8.0169677734375
-24.548095703125 72.5953369140625 27.4735107421875
31.690185546875 51.307861328125 -14.40185546875
30.946044921875 65.1195068359375 -8.0008544921875
-18.888427734375 24.701416015625 3.0267333984375
29.18505859375 28.9610595703125 1.01806640625
-6.66259765625 63.1556396484375 14.009033203125
-20.50927734375 -4.5030517578125 2.591552734375
-75.0146484375 -68.76123046875 15.4227294921875
6.16455078125 -72.4398193359375 -3.6044921875
-12.94580078125 65.12109375 16.5843505859375
-15.8349609375 65.9285888671875 17.8013916015625
-37.260986328125 -36.9482421875 -2.352294921875
30.7861328125 20.1973876953125 1.1446533203125
6.58447265625 -22.494140625 -0.710693359375
9.326171875 22.8681640625 1.96044921875
-75.40625 -83.8948974609375 9.2535400390625
-1.906005859375 -7.5946044921875 2.2298583984375
28.03759765625 38.830322265625 -16.5546875
-12.49560546875 -11.22509765625 2.1123046875
37.163330078125 61.9228515625 -15.762939453125
10.521240234375 55.2801513671875 4.333984375
-76.322021484375 -89.9088134765625 15.0635986328125
-88.92724609375 27.9246826171875 -2.5836181640625
-21.55859375 0.73486328125 4.35400390625
34.95458984375 69.321533203125 -7.5889892578125
-49.5 -24.0333251953125 -1.593994140625
11.145751953125 10.12744140625 1.7191162109375
-64.8740234375 -70.45068359375 7.8787841796875
-64.900146484375 -71.016845703125 4.6751708984375
-106.061279296875 31.989990234375 -2.2880859375
17.300048828125 -110.1058349609375 -5.0966796875
18.14404296875 -99.7620849609375 -4.053466796875
-76.02685546875 -79.1236572265625 15.2327880859375
15.8876953125 73.9581298828125 13.9371337890625
-94.166748046875 32.586181640625 1.16845703125
-13.635986328125 29.5634765625 2.665771484375
-75.84033203125 -84.3251953125 13.4263916015625
40.699462890625 -79.2626953125 -4.965087890625
20.644287109375 80.9127197265625 10.2427978515625
10.2568359375 -94.7501220703125 -3.817138671875
16.84228515625 -103.4183349609375 -4.66162109375
-16.305908203125 -25.06103515625 -0.6724853515625
38.3173828125 -89.39208984375 -5.4114990234375
-5.435546875 53.3922119140625 4.323486328125
13.8203125 -120.56787109375 9.6082763671875
31.7919921875 -2.4796142578125 0.728515625
-73.281005859375 -35.90966796875 -1.6591796875
31.61279296875 -125.7869873046875 0.3173828125
14.095703125 -76.764404296875 -3.6639404296875
6.63232421875 66.5362548828125 12.221923828125
-38.611328125 -51.9993896484375 4.8131103515625
18.0537109375 -70.9560546875 -4.25244140625
36.045166015625 88.4344482421875 6.5391845703125
-86.072998046875 18.34716796875 -2.6353759765625
-72.08251953125 -57.8824462890625 16.4049072265625
-14.7158203125 45.2938232421875 5.0933837890625
37.3828125 103.2432861328125 19.470947265625
-93.5869140625 20.1943359375 -1.9051513671875
-24.857666015625 10.745361328125 2.94384765625
27.22900390625 6.2073974609375 0.813232421875
21.787353515625 -88.5736083984375 -4.6595458984375
-2.70068359375 56.846923828125 7.2972412109375
14.75732421875 26.483642578125 1.760986328125
-17.550537109375 4.779541015625 2.616943359375
-62.6103515625 -80.1580810546875 -4.4041748046875
5.742919921875 69.9984130859375 14.623779296875
-21.251220703125 -48.191650390625 17.1383056640625
-16.369140625 -57.3104248046875 -13.1011962890625
21.17919921875 73.8109130859375 15.6279296875
-18.470947265625 -30.79052734375 -3.15478515625
-24.740966796875 5.0391845703125 2.6668701171875
4.240478515625 58.3294677734375 8.033935546875
22.11474609375 -57.2100830078125 -10.6572265625
26.418701171875 -19.19091796875 -0.0753173828125
-11.3837890625 48.8101806640625 3.6136474609375
-10.380126953125 55.2442626953125 6.0213623046875
-73.91259765625 -85.60205078125 3.9984130859375
-63.582275390625 -31.0299072265625 -2.008544921875
37.26513671875 -120.541015625 3.6141357421875
-2.33056640625 51.74658203125 3.231689453125
-16.34814453125 -114.8948974609375 11.0306396484375
-53.181396484375 -47.81494140625 -2.277587890625
-39.801513671875 -40.19091796875 -2.7088623046875
42.236328125 105.7227783203125 19.662353515625
-8.5 25.89013671875 2.6142578125
21.57763671875 -67.2708740234375 -5.519775390625
32.851318359375 0.7659912109375 1.2015380859375
26.84423828125 54.7884521484375 -9.526123046875
-76.74951171875 -65.2998046875 16.8359375
-0.66259765625 -95.985107421875 -2.9796142578125
47.36279296875 86.3734130859375 -1.611083984375
13.404541015625 -11.85986328125 1.380859375
-21.9189453125 -28.3951416015625 -2.08447265625
-28.353271484375 7.0079345703125 3.4505615234375
-80.2724609375 -4.8489990234375 -0.877197265625
-88.494384765625 21.789306640625 -2.6385498046875
-17.46533203125 -17.6300048828125 2.4718017578125
13.08154296875 -128.1236572265625 9.71044921875
6.55517578125 -5.82666015625 1.540771484375
-82.3779296875 -10.0411376953125 0.38623046875
26.89501953125 47.2818603515625 -12.899658203125
30.347412109375 60.787109375 7.340087890625
-11.561767578125 -16.277099609375 2.2156982421875
-89.356689453125 -5.95654296875 16.6644287109375
36.367431640625 68.3697509765625 -10.4293212890625
14.7890625 19.3463134765625 1.3546142578125
-16.824462890625 -14.3267822265625 2.5689697265625
33.412109375 -100.7904052734375 -14.160888671875
-3.59033203125 79.849853515625 31.09326171875
43.1162109375 -94.5389404296875 -5.5740966796875
-10.108642578125 -106.88623046875 11.020263671875
-64.22119140625 -16.330078125 -0.9281005859375
1.380126953125 -107.654541015625 -3.590087890625
-2.91796875 -10.5943603515625 2.3421630859375
-13.40673828125 58.19189453125 8.8814697265625
-8.000244140625 73.056884765625 24.438720703125
27.20947265625 0.9493408203125 1.1627197265625
2.59033203125 -37.8516845703125 -3.7117919921875
-20.77587890625 -50.9810791015625 16.1636962890625
32.10791015625 98.9129638671875 19.6416015625
18.242919921875 23.2734375 1.8126220703125
32.7568359375 -79.0428466796875 -4.9405517578125
-44.1328125 -57.8558349609375 -1.5909423828125
-8.012451171875 -110.2620849609375 11.0369873046875
17.05126953125 70.568115234375 9.7452392578125
3.051025390625 -31.2332763671875 -3.927978515625
32.25537109375 90.0606689453125 -4.025146484375
22.291015625 79.9632568359375 -1.3836669921875
21.14892578125 76.08447265625 5.7598876953125
32.777099609375 46.0723876953125 -17.3033447265625
22.169677734375 67.2020263671875 9.14892578125
28.850830078125 86.8304443359375 8.55126953125
-87.594482421875 30.61572265625 1.32470703125
17.22021484375 -58.9781494140625 -9.8912353515625
29.0888671875 81.1893310546875 -9.219970703125
26.0302734375 -35.9393310546875 -4.5634765625
23.28369140625 72.8287353515625 -1.60791015625
45.97216796875 93.1363525390625 9.843994140625
34.737548828125 73.049560546875 -4.6300048828125
-23.697265625 -12.5576171875 2.8052978515625
-44.808837890625 -82.8460693359375 3.039306640625
-74.590087890625 -24.9852294921875 -1.6533203125
-1.79052734375 15.3568115234375 2.2083740234375
-15.230712890625 -46.8995361328125 -17.3739013671875
41.298828125 91.3218994140625 5.031005859375
21.597900390625 60.6041259765625 8.86376953125
4.1611328125 -49.7564697265625 -4.428466796875
12.46728515625 69.9444580078125 8.623046875
40.582275390625 -85.406494140625 -5.87255859375
21.0478515625 -13.375 1.2850341796875
-24.4072265625 19.8492431640625 2.7120361328125
-77.367431640625 25.1712646484375 -3.9681396484375
-28.385498046875 -7.3916015625 3.5848388671875
-11.495849609375 76.69580078125 28.6978759765625
-66.224609375 -87.3519287109375 -9.327392578125
31.763671875 -48.1717529296875 -4.4949951171875
23.460693359375 88.9642333984375 4.7781982421875
-3.176513671875 -116.83056640625 10.8521728515625
-65.340087890625 -96.9625244140625 0.7298583984375
18.158203125 -34.2066650390625 -4.418701171875
-7.40673828125 64.962890625 16.17822265625
6.489990234375 -103.3724365234375 -4.538818359375
-75.721435546875 -85.726318359375 7.0904541015625
-20.39453125 32.652587890625 5.5233154296875
-23.445556640625 -5.4527587890625 2.7086181640625
-7.462890625 -33.9713134765625 -3.8404541015625
2.1669921875 -14.8912353515625 1.988037109375
9.856689453125 33.2696533203125 1.9169921875
-11.919921875 -34.8885498046875 -3.5904541015625
3.190185546875 -104.859375 -2.6114501953125
-87.532958984375 6.02294921875 -1.1776123046875
-58.58154296875 -82.6993408203125 -8.830322265625
39.681396484375 65.264892578125 -14.3441162109375
-98.203857421875 32.5919189453125 -2.91845703125
-15.56787109375 17.331787109375 2.6416015625
41.21826171875 89.8656005859375 -3.8480224609375
-67.120849609375 -94.714111328125 1.9224853515625
35.39208984375 34.8568115234375 4.64208984375
-51.244384765625 -87.293212890625 -9.16552734375
12.516845703125 21.26513671875 1.707275390625
28.188720703125 25.583740234375 1.1085205078125
-32.530517578125 74.29443359375 27.047119140625
6.420654296875 -25.153076171875 -1.656982421875
-25.70263671875 -101.3756103515625 11.783203125
-85.355712890625 24.1768798828125 -3.07177734375
16.955810546875 -8.779296875 1.396240234375
-1.7412109375 74.1566162109375 24.8951416015625
-20.4384765625 -35.0003662109375 -3.0357666015625
-74.2001953125 -79.564208984375 12.794677734375
9.2890625 -110.92333984375 10.515625
23.708740234375 85.0482177734375 0.095947265625
20.11669921875 27.693115234375 1.6983642578125
-63.31005859375 2.5093994140625 -2.429931640625
32.145263671875 -30.2939453125 -4.7171630859375
38.8642578125 95.0040283203125 9.308837890625
20.901123046875 74.6854248046875 0.9498291015625
-17.744140625 -9.988525390625 2.5164794921875
-65.837646484375 -54.2303466796875 17.236083984375
-53.111083984375 -17.9544677734375 -1.3563232421875
-9.27880859375 6.7601318359375 2.5079345703125
-10.689208984375 23.5848388671875 2.8438720703125
24.658203125 66.0430908203125 -1.156494140625
18.126220703125 -54.3297119140625 0.7069091796875
23.6689453125 83.3621826171875 12.537109375
-15.135498046875 1.0147705078125 2.6446533203125
24.5458984375 -14.660888671875 1.0330810546875
36.68310546875 53.4620361328125 -17.1123046875
-17.228759765625 73.956298828125 26.350830078125
-7.625732421875 38.3763427734375 2.4290771484375
31.18994140625 -60.4464111328125 -5.8177490234375
-43.661376953125 -85.236083984375 -9.0501708984375
33.9541015625 45.789794921875 1.4659423828125
-13.058349609375 -3.62646484375 2.5040283203125
-59.5 -77.3558349609375 -9.0203857421875
26.636474609375 72.552734375 23.410888671875
-75.586181640625 -93.7523193359375 14.5367431640625
27.610107421875 89.0599365234375 14.190185546875
30.678955078125 88.6329345703125 9.616943359375
3.67529296875 -80.3084716796875 -2.440185546875
-18.791748046875 -38.6097412109375 -14.1341552734375
2.984130859375 24.455078125 2.07568359375
7.052978515625 61.3914794921875 10.621826171875
15.068115234375 74.4183349609375 24.042236328125
-10.583251953125 12.459716796875 2.557861328125
27.9013671875 -125.1484375 -0.3212890625
26.432373046875 59.399658203125 -4.327880859375
24.011474609375 -17.3721923828125 0.874267578125
-34.734375 -45.3001708984375 -2.8328857421875
-66.651123046875 -100.0128173828125 3.5291748046875
-70.90234375 -78.4473876953125 4.07666015625
34.780029296875 -24.073486328125 -2.3341064453125
-2.726806640625 -114.1029052734375 10.905517578125
-78.447265625 -72.3800048828125 16.7296142578125
21.380615234375 72.8978271484375 10.0394287109375
-8.624267578125 -1.4638671875 2.240234375
35.232177734375 -119.714111328125 5.80029296875
-41.751953125 -37.1334228515625 -0.757080078125
-0.9638671875 -23.0023193359375 -0.445556640625
-18.84912109375 -108.429931640625 10.9639892578125
11.594482421875 -27.0294189453125 -2.8470458984375
-18.314697265625 -47.7647705078125 -7.7874755859375
-14.892578125 11.9141845703125 2.1751708984375
3.749267578125 -22.7989501953125 -0.991455078125
16.225341796875 7.18310546875 1.74560546875
23.39111328125 1.0975341796875 2.800537109375
38.314453125 -119.240966796875 5.9732666015625
32.57373046875 -53.115234375 -4.7935791015625
14.656982421875 -89.810546875 -4.6719970703125
10.5830078125 -51.2657470703125 -2.803466796875
19.390625 33.6258544921875 4.250244140625
-67.412109375 0.03076171875 -2.582275390625
36.322265625 -47.3055419921875 -5.443603515625
-18.95556640625 -42.4925537109375 -14.442626953125
37.275146484375 -29.54541015625 -4.163818359375
-11.054931640625 -8.8780517578125 2.34521484375
44.879150390625 -121.01318359375 6.10986328125
35.384521484375 95.7366943359375 16.4312744140625
26.233154296875 63.536376953125 -5.691650390625
18.74609375 -49.961181640625 1.889404296875
-0.8701171875 -101.116943359375 -3.28759765625
-8.302978515625 14.0516357421875 2.4439697265625
26.76025390625 9.160888671875 0.8175048828125
4.237060546875 -101.9998779296875 -3.837158203125
24.43798828125 70.1495361328125 -0.17333984375
-5.94482421875 -21.6412353515625 0.2767333984375
22.0322265625 10.8409423828125 1.193115234375
37.468017578125 -69.250732421875 -4.69873046875
-20.772216796875 74.7916259765625 27.502685546875
39.135498046875 -124.9605712890625 0.9190673828125
8.229736328125 -86.788330078125 -4.0020751953125
-56.12158203125 -37.508056640625 -2.5294189453125
-60.192626953125 -2.693115234375 -1.9300537109375
0.963134765625 55.618896484375 5.5792236328125
30.98046875 -33.22265625 -4.7603759765625
35.975830078125 32.6005859375 2.160888671875
20.459716796875 24.9996337890625 1.629638671875
39.9873046875 70.768798828125 -10.162353515625
-57.406494140625 -27.704345703125 -2.1324462890625
-67.8623046875 -18.7342529296875 -1.2052001953125
37.0791015625 -41.8504638671875 -5.2474365234375
29.099365234375 62.7144775390625 -9.0377197265625
-53.017822265625 -39.33544921875 -2.172119140625
-66.551025390625 -77.3519287109375 5.452392578125
12.374755859375 43.8236083984375 2.1954345703125
1.697021484375 -7.8538818359375 2.09033203125
-20.60302734375 -103.4111328125 11.5274658203125
3.76318359375 63.7083740234375 13.945556640625
-24.513671875 45.3763427734375 3.5587158203125
13.369140625 -84.0035400390625 -4.20654296875
-9.883544921875 51.0509033203125 12.213623046875
38.03662109375 84.2542724609375 -10.6766357421875
-57.424560546875 -87.38427734375 -6.931640625
7.08740234375 -33.9052734375 -4.2335205078125
-15.278076171875 -36.842041015625 -3.5689697265625
-49.953857421875 -81.591796875 -2.3685302734375
-7.611328125 41.198974609375 2.63818359375
-74.7001953125 -59.4971923828125 16.875244140625
19.521240234375 -1.795166015625 3.068603515625
24.584228515625 73.6435546875 20.9044189453125
-27.348388671875 0.9068603515625 5.386474609375
-26.334716796875 -49.0992431640625 -4.0797119140625
-63.91455078125 -67.611328125 13.63330078125
-108.439453125 34.120361328125 -2.20849609375
37.590576171875 81.5867919921875 -12.2144775390625
0.89013671875 3.3328857421875 2.085693359375
-65.395263671875 -97.2816162109375 -8.63427734375
10.266357421875 39.9002685546875 2.1099853515625
-70.89013671875 -92.9169921875 3.931884765625
-70.797607421875 -4.17236328125 -1.4539794921875
25.269287109375 -45.004150390625 -4.502685546875
-6.517822265625 18.6868896484375 2.1949462890625
-2.818115234375 75.7752685546875 26.8367919921875
-44.110595703125 -85.448974609375 2.1793212890625
-18.416015625 -2.1954345703125 2.766357421875
-31.23779296875 -43.265380859375 -3.275634765625
-26.9736328125 41.4205322265625 3.2723388671875
-19.6025390625 2.81982421875 2.933837890625
-18.102783203125 -38.9482421875 -6.332275390625
-69.26025390625 -57.5545654296875 16.2935791015625
-23.560791015625 30.1636962890625 3.5927734375
-24.818603515625 -52.1063232421875 -7.5350341796875
-29.650146484375 77.7200927734375 31.571044921875
-48.35400390625 -81.790771484375 -7.7628173828125
-57.7451171875 -97.0506591796875 -11.513916015625
-12.752685546875 2.5 2.5975341796875
40.26513671875 -98.2730712890625 -10.586669921875
-49.482666015625 -85.46923828125 -10.316650390625
-23.18701171875 71.92529296875 24.2056884765625
7.965087890625 71.7730712890625 17.428466796875
-63.65087890625 -83.80712890625 -9.020263671875
20.964599609375 72.6942138671875 20.9674072265625
-78.134521484375 19.1365966796875 -3.0987548828125
34.188720703125 103.1749267578125 26.85791015625
18.0361328125 -52.3643798828125 -1.1217041015625
8.927978515625 -74.6341552734375 -3.84765625
24.470458984375 58.7381591796875 6.5447998046875
-25.8076171875 14.2813720703125 2.875732421875
8.75341796875 16.54541015625 2.1212158203125
-24.077392578125 -106.184326171875 11.145751953125
-37.112548828125 -40.765869140625 1.872802734375
-59.266845703125 -48.04638671875 -1.8453369140625
34.950927734375 100.7091064453125 21.4010009765625
35.98828125 39.2880859375 1.7286376953125
-10.731201171875 -40.9801025390625 -3.8316650390625
-27.95654296875 -45.2513427734375 15.3046875
-94.824951171875 31.1654052734375 -2.9012451171875
-28.855224609375 -53.343017578125 -3.24658203125
37.600830078125 -58.098388671875 -5.1766357421875
-1.7919921875 4.6273193359375 2.2010498046875
-34.981689453125 -43.0665283203125 7.90380859375
9.501953125 -79.1724853515625 -2.59814453125
-89.155029296875 -8.107421875 13.645263671875
29.13232421875 -3.427978515625 1.1513671875
38.429931640625 -97.5086669921875 -1.528564453125
0.928466796875 -21.2529296875 0.1441650390625
9.960693359375 72.4541015625 20.6943359375
37.308349609375 92.8480224609375 2.328125
-76.102294921875 -90.841552734375 10.906982421875
23.392578125 91.2423095703125 21.6392822265625
2.53125 -118.69189453125 10.7584228515625
35.010498046875 -21.1483154296875 -0.7694091796875
-30.793701171875 -44.1466064453125 6.698486328125
-64.00732421875 -85.307861328125 1.256103515625
11.26806640625 -109.177978515625 10.521484375
14.4853515625 -30.04541015625 -3.908203125
1.209716796875 10.6112060546875 2.146728515625
42.005859375 -118.93115234375 4.17919921875
35.20556640625 -78.154052734375 -4.55810546875
-11.921142578125 4.989990234375 2.403564453125
-33.094970703125 70.6217041015625 23.3427734375
28.3994140625 56.435791015625 -11.0228271484375
11.273681640625 -19.9498291015625 0.610595703125
-21.6650390625 20.2947998046875 2.5830078125
16.3310546875 -42.6619873046875 -2.3603515625
-51.636474609375 -80.84130859375 -9.6009521484375
26.173583984375 -24.5745849609375 -1.9937744140625
-51.619140625 -28.58837890625 -3.560546875
41.72412109375 66.4637451171875 -12.177978515625
33.480712890625 88.9532470703125 6.232177734375
-82.0654296875 14.513671875 -2.8685302734375
-32.02490234375 -37.6461181640625 -2.837158203125
6.23046875 45.1226806640625 2.3720703125
27.771728515625 98.6959228515625 24.345947265625
27.437255859375 66.9066162109375 -5.6129150390625
-72.272705078125 -101.7532958984375 9.7694091796875
34.39794921875 92.0211181640625 -2.7703857421875
-19.84130859375 -114.619873046875 10.925537109375
-44.751708984375 -87.6114501953125 -6.27587890625
37.3740234375 89.2725830078125 -5.33642578125
20.8037109375 83.0440673828125 8.722412109375
26.77392578125 94.2703857421875 23.16943359375
5.4033203125 -111.94384765625 11.5086669921875
6.96142578125 -105.8944091796875 -4.057373046875
-5.0849609375 31.2332763671875 2.4254150390625
-10.426025390625 43.1229248046875 8.3333740234375
40.824462890625 -90.5390625 -5.4842529296875
-82.105712890625 5.0137939453125 -1.35400390625
-8.25439453125 -37.5201416015625 -3.5343017578125
-2.551025390625 -30.4161376953125 -3.496826171875
-45.93017578125 -55.73779296875 -1.4981689453125
-21.648681640625 25.5911865234375 2.9876708984375
-66.88916015625 -34.25 -1.8924560546875
34.572998046875 18.2684326171875 0.6715087890625
-22.56494140625 76.28564453125 29.8330078125
-19.434814453125 14.1898193359375 2.8140869140625
13.885986328125 55.6434326171875 4.6181640625
9.374267578125 48.1756591796875 2.2548828125
21.332763671875 58.9581298828125 6.8768310546875
16.361083984375 -1.0836181640625 1.451416015625
28.174560546875 52.4288330078125 -12.8525390625
-51.8056640625 -61.4737548828125 -2.281005859375
-20.53759765625 -24.7366943359375 -0.4666748046875
15.519775390625 -97.4290771484375 -4.18896484375
36.711181640625 100.6470947265625 18.306640625
20.166748046875 -38.3497314453125 -4.4466552734375
43.485107421875 82.3414306640625 -9.9468994140625
11.7060546875 59.167236328125 8.1771240234375
13.6728515625 50.6175537109375 2.478515625
23.337158203125 34.9466552734375 1.7625732421875
37.087158203125 66.64111328125 -12.7242431640625
41.841552734375 -124.26318359375 1.4107666015625
36.785400390625 -50.17529296875 -5.0037841796875
-70.674072265625 -101.7501220703125 4.20751953125
-83.68603515625 2.7890625 -1.1904296875
22.05078125 76.767578125 18.3585205078125
31.707275390625 -122.9149169921875 0.8016357421875
26.50341796875 52.389404296875 -8.637451171875
26.5419921875 -30.952880859375 -4.5374755859375
-82.54833984375 19.0050048828125 -2.9927978515625
33.42724609375 82.6312255859375 -10.720703125
8.3046875 -12.9534912109375 1.743896484375
-12.0693359375 -52.419677734375 14.727294921875
36.455322265625 50.0245361328125 -16.6265869140625
11.759033203125 -9.7510986328125 1.6890869140625
-68.0185546875 -91.1444091796875 -5.7816162109375
16.9404296875 33.044189453125 2.6729736328125
1.2001953125 -103.0655517578125 -2.9132080078125
-31.80078125 -44.025634765625 13.5040283203125
-62.37646484375 -34.483154296875 -2.220458984375
-59.954345703125 -68.899658203125 5.79296875
-26.68408203125 -21.8887939453125 1.2408447265625
-10.40283203125 15.527099609375 2.3681640625
-86.86669921875 32.1873779296875 -2.2283935546875
-3.2294921875 61.2740478515625 11.780517578125
-75.682861328125 -92.505859375 5.3572998046875
23.7939453125 85.1798095703125 10.5418701171875
41.675048828125 28.4560546875 0.5487060546875
27.11572265625 -8.027587890625 1.19775390625
42.796142578125 -70.5167236328125 -5.73291015625
28.608154296875 12.21142578125 1.2952880859375
11.657470703125 52.732177734375 2.894775390625
8.629150390625 51.9578857421875 2.8763427734375
43.7236328125 23.8858642578125 0.0986328125
6.39111328125 73.5782470703125 23.428466796875
12.917236328125 -122.95166015625 9.7879638671875
-54.329833984375 -86.0716552734375 -7.63916015625
-68.1416015625 -85.0098876953125 -6.1021728515625
6.512939453125 47.79052734375 2.318359375
-24.6083984375 -57.21435546875 -6.9127197265625
-58.31298828125 -120.1719970703125 4.7935791015625
