-61.409423828125 3.474609375 1.0841064453125
13.511962890625 -74.5718994140625 2.7855224609375
31.536376953125 80.615478515625 17.1295166015625
41.712646484375 -11.85595703125 7.35693359375
4.8701171875 -104.8013916015625 3.434326171875
-0.578125 -45.4814453125 2.0626220703125
-15.786865234375 -89.3092041015625 10.377197265625
51.4306640625 75.4609375 -3.2294921875
40.205810546875 93.8638916015625 21.8853759765625
-10.748046875 -66.2891845703125 -9.7491455078125
40.101806640625 -17.1307373046875 -28.259521484375
-5.761962890625 -77.75341796875 2.9141845703125
51.00927734375 46.5545654296875 -16.0850830078125
26.7333984375 31.7965087890625 6.0513916015625
12.453369140625 46.9779052734375 9.4547119140625
44.063232421875 -50.21728515625 -26.2802734375
68.457763671875 35.12890625 13.1561279296875
-67.841552734375 -103.244873046875 13.2823486328125
34.456787109375 6.6639404296875 6.80126953125
-49.46484375 -87.55908203125 7.7144775390625
-58.502685546875 -107.0406494140625 -4.1297607421875
-54.92724609375 -47.02392578125 1.745849609375
43.947998046875 -71.9324951171875 2.98388671875
-14.419677734375 -55.77197265625 0.943603515625
-22.93798828125 -42.7054443359375 3.2935791015625
-9.0791015625 24.614990234375 6.4337158203125
34.062255859375 53.897216796875 -3.6123046875
53.910400390625 62.6947021484375 4.6134033203125
-51.2900390625 -19.4500732421875 2.0526123046875
-22.799560546875 -22.017333984375 7.450927734375
-2.2412109375 45.3448486328125 9.1973876953125
18.40869140625 -88.222412109375 5.0391845703125
40.064697265625 37.5634765625 5.2921142578125
31.73486328125 -68.4334716796875 -4.6412353515625
37.503662109375 73.8927001953125 -7.339111328125
-32.4208984375 -62.85107421875 -4.7308349609375
-101.659423828125 3.1170654296875 10.177734375
42.554931640625 -107.064208984375 -21.130126953125
5.5595703125 -2.0347900390625 7.003662109375
38.9697265625 -118.0040283203125 -13.0216064453125
-13.69580078125 56.2064208984375 20.204833984375
-73.485107421875 -26.7364501953125 3.4798583984375
-33.30078125 -104.339111328125 8.908447265625
12.677734375 -47.9166259765625 2.5037841796875
-83.884765625 12.01171875 6.2015380859375
49.2890625 -78.8697509765625 -24.36474609375
31.26171875 -112.912353515625 3.0172119140625
-41.962158203125 -93.0947265625 -3.64501953125
6.068115234375 -120.495361328125 3.3431396484375
8.958984375 17.9237060546875 6.5384521484375
0.625244140625 -29.7222900390625 6.6920166015625
-59.062255859375 -31.5579833984375 2.193359375
50.002685546875 -105.021728515625 5.1400146484375
-78.391357421875 -13.0252685546875 1.653564453125
14.12060546875 -21.454345703125 7.5914306640625
49.1279296875 16.5052490234375 6.555419921875
32.411376953125 83.5089111328125 3.8807373046875
44.727783203125 -42.23291015625 2.954833984375
26.78369140625 67.2294921875 16.62548828125
-14.044677734375 36.261962890625 6.6334228515625
47.3896484375 10.724853515625 -27.4022216796875
28.531494140625 77.76513671875 28.9302978515625
33.30908203125 101.2396240234375 33.1124267578125
37.253173828125 30.3331298828125 -18.349609375
-8.0556640625 -0.2974853515625 6.61572265625
-10.8408203125 -54.205322265625 -11.297119140625
-10.8828125 -18.6976318359375 7.52734375
-60.17236328125 -97.091552734375 6.208740234375
37.111328125 64.02001953125 2.165771484375
61.15966796875 -85.3985595703125 3.01513671875
-72.647705078125 -2.382080078125 0.4898681640625
-94.339111328125 8.038330078125 0.3104248046875
-29.495361328125 -80.5498046875 2.615234375
16.987548828125 -102.4931640625 2.9447021484375
40.94384765625 -96.3194580078125 3.5936279296875
25.4345703125 -33.2410888671875 5.528076171875
33.231201171875 -54.036865234375 2.770263671875
-21.60888671875 -62.2506103515625 -11.0341796875
-56.177001953125 -7.9835205078125 1.63330078125
-27.546142578125 -54.9144287109375 2.1290283203125
26.25439453125 59.3814697265625 7.02392578125
11.416748046875 62.1220703125 24.6759033203125
28.4130859375 -10.30712890625 11.1883544921875
-11.3173828125 -67.693115234375 1.7691650390625
10.486083984375 -59.437255859375 2.44482421875
14.238037109375 6.47998046875 6.80322265625
-2.379150390625 34.4102783203125 6.2569580078125
-50.8173828125 -99.7200927734375 -0.2830810546875
-43.37060546875 -63.40869140625 2.3533935546875
41.768798828125 49.001708984375 -10.6090087890625
-1.480712890625 63.985107421875 27.1571044921875
-100.531494140625 24.573486328125 -0.3594970703125
55.604248046875 -107.0751953125 -4.0439453125
52.5068359375 -103.0125732421875 -19.36474609375
-11.37158203125 -44.5467529296875 2.239013671875
-12.0947265625 14.1317138671875 6.7144775390625
21.691650390625 42.30322265625 6.36279296875
-26.1318359375 65.46435546875 30.2821044921875
44.57958984375 38.5869140625 -19.0946044921875
-65.020751953125 -50.176025390625 2.0706787109375
23.147216796875 -70.3046875 2.786376953125
-55.054931640625 -82.9775390625 15.3673095703125
4.317138671875 -80.838134765625 2.806396484375
-75.033935546875 7.7388916015625 -0.860595703125
47.190185546875 21.6734619140625 -26.390625
34.707275390625 -28.77197265625 6.9522705078125
15.978759765625 -125.6094970703125 4.002685546875
-8.1337890625 45.9281005859375 17.706787109375
32.609130859375 17.3931884765625 6.32568359375
12.485595703125 -9.6998291015625 7.0634765625
-15.615234375 -80.7132568359375 3.048583984375
23.87353515625 -49.0020751953125 2.44677734375
9.95263671875 53.834716796875 16.530517578125
42.849365234375 81.8421630859375 -0.068115234375
53.111328125 -78.1055908203125 2.3031005859375
21.009765625 52.6749267578125 13.822021484375
8.955322265625 -94.888427734375 3.1240234375
32.402587890625 87.7054443359375 24.197021484375
40.12158203125 -106.6561279296875 7.1053466796875
53.924072265625 -112.9197998046875 9.696533203125
24.54443359375 6.4598388671875 6.820556640625
-45.83642578125 -80.063720703125 13.3197021484375
53.682861328125 81.3013916015625 4.36328125
35.54833984375 -4.2333984375 6.8128662109375
0.731689453125 24.783203125 6.335693359375
35.86669921875 44.8695068359375 -0.240234375
-38.55615234375 -97.34521484375 4.5101318359375
5.883544921875 40.591552734375 6.0906982421875
-21.869140625 -32.0655517578125 7.19775390625
-34.30078125 -50.5147705078125 9.8768310546875
-5.5224609375 -10.1854248046875 7.290283203125
33.267822265625 -90.4464111328125 3.20068359375
18.898681640625 26.2132568359375 6.3009033203125
-39.786376953125 -42.7191162109375 3.475830078125
2.57666015625 -71.3837890625 2.4061279296875
26.51171875 -121.2584228515625 2.9635009765625
-81.244140625 18.362548828125 -1.4964599609375
36.53076171875 -64.7938232421875 2.7423095703125
39.388427734375 86.7176513671875 14.9659423828125
45.94140625 67.09716796875 -1.928466796875
-23.0107421875 -1.10009765625 7.1802978515625
-17.307861328125 20.9337158203125 10.705810546875
51.86328125 -99.5821533203125 -10.609375
35.190185546875 -120.0936279296875 8.7989501953125
4.842041015625 -37.865966796875 3.668701171875
44.708984375 27.469482421875 6.1689453125
20.756103515625 -14.86669921875 7.2171630859375
-4.4228515625 -70.5823974609375 -3.5518798828125
-38.64208984375 -84.1033935546875 7.7164306640625
19.1826171875 -40.754150390625 2.5443115234375
35.509521484375 29.36376953125 6.28125
-33.2900390625 -72.7998046875 -1.06591796875
50.4541015625 -95.5433349609375 2.9671630859375
-50.42529296875 -55.7420654296875 2.143798828125
43.415283203125 8.9398193359375 6.5994873046875
-21.587890625 -61.97705078125 2.3536376953125
40.3369140625 -80.20703125 2.7564697265625
37.35107421875 -19.758056640625 7.36181640625
45.42041015625 -42.35546875 -30.45654296875
-5.286865234375 -37.5137939453125 3.3511962890625
26.263427734375 75.5946044921875 11.888916015625
66.97412109375 30.4525146484375 5.742919921875
38.635009765625 8.918212890625 -25.146728515625
-19.7763671875 61.1640625 25.9139404296875
27.613525390625 22.5703125 11.41357421875
-60.59716796875 -105.820068359375 7.3099365234375
-4.550048828125 -53.33203125 2.1630859375
9.687744140625 -112.1318359375 3.22900390625
24.048095703125 -107.65625 3.3870849609375
21.173583984375 81.9222412109375 31.182861328125
-68.076416015625 -95.24755859375 9.786865234375
-65.27099609375 12.322021484375 0.9520263671875
-64.37353515625 -24.6884765625 2.8934326171875
-49.53076171875 -88.76123046875 -1.8482666015625
31.772216796875 39.843017578125 5.82763671875
43.162109375 -24.6431884765625 -31.0146484375
48.728515625 -111.6317138671875 -24.840087890625
25.365234375 58.995361328125 18.17431640625
25.698486328125 -61.51416015625 -4.6517333984375
-49.490966796875 -69.0697021484375 3.8779296875
40.142333984375 101.1451416015625 28.1414794921875
-60.299072265625 -39.87158203125 1.614990234375
40.119140625 -7.6529541015625 -29.164306640625
-46.576416015625 -27.2579345703125 4.7547607421875
18.736328125 64.1676025390625 20.0284423828125
39.76904296875 -35.023681640625 4.66357421875
-65.043701171875 -5.8333740234375 0.515380859375
4.732666015625 48.934326171875 12.057861328125
-17.859375 -67.4085693359375 -3.6475830078125
-14.4150390625 5.0765380859375 6.3951416015625
-23.890869140625 17.37255859375 6.7982177734375
-95.623779296875 16.8367919921875 -0.8140869140625
20.68310546875 -80.5360107421875 2.9541015625
6.1337890625 8.173828125 6.8690185546875
39.06982421875 -109.7772216796875 -13.1402587890625
-20.550537109375 -51.335205078125 -2.685791015625
-50.98046875 -110.1243896484375 -5.36572265625
52.358642578125 -70.183837890625 4.230712890625
-30.643310546875 -47.4122314453125 2.4136962890625
-3.22607421875 -21.555908203125 7.6182861328125
16.049072265625 -66.4093017578125 2.84912109375
25.513427734375 97.9366455078125 32.8411865234375
6.22802734375 -23.1444091796875 7.9136962890625
19.83349609375 -27.1591796875 7.5526123046875
-8.306884765625 60.6593017578125 24.41748046875
40.593017578125 -49.7845458984375 2.5745849609375
-47.861572265625 -43.21142578125 1.7906494140625
10.955322265625 -86.0712890625 3.025634765625
33.1865234375 55.6148681640625 7.8133544921875
40.48681640625 17.3544921875 5.4884033203125
-16.6708984375 27.5546875 5.6859130859375
46.1240234375 90.8624267578125 14.97705078125
33.71484375 93.8526611328125 28.9813232421875
42.30078125 -114.917724609375 -20.5206298828125
42.04736328125 0.19091796875 6.4688720703125
40.06005859375 62.744873046875 -5.0133056640625
5.729248046875 -53.1983642578125 2.4425048828125
-35.337158203125 -61.685546875 2.454833984375
-72.449951171875 -18.4710693359375 2.4625244140625
47.439697265625 -106.634765625 -14.6278076171875
-85.237060546875 7.3492431640625 -0.2579345703125
46.88134765625 53.398681640625 -14.546630859375
17.592529296875 33.889892578125 5.8240966796875
-21.9580078125 -55.96337890625 17.3056640625
31.915283203125 76.3017578125 -1.6578369140625
36.854736328125 45.90478515625 7.4127197265625
-42.468505859375 -90.7496337890625 6.414794921875
-52.977294921875 -37.3363037109375 1.6446533203125
16.722900390625 66.904052734375 27.642822265625
28.6162109375 -0.8486328125 6.7286376953125
44.87109375 -57.7545166015625 -24.9566650390625
-58.95361328125 -54.88134765625 2.073486328125
-6.94140625 53.4813232421875 17.0404052734375
25.856689453125 -88.0892333984375 3.2471923828125
-23.323974609375 -12.170654296875 6.652587890625
-54.8701171875 -92.77880859375 2.0384521484375
43.26416015625 26.844482421875 -21.52392578125
60.581298828125 -106.3707275390625 1.7078857421875
-59.5341796875 -99.84130859375 -1.8082275390625
-6.65673828125 40.2601318359375 12.7919921875
21.19140625 -96.140869140625 3.195556640625
-57.932861328125 -89.6778564453125 9.0640869140625
-57.489990234375 -82.0191650390625 8.239501953125
33.69482421875 46.571044921875 -7.54443359375
-12.767333984375 -49.442138671875 -5.7349853515625
-16.220703125 -25.6214599609375 7.656982421875
28.787353515625 63.9248046875 1.6185302734375
-66.704345703125 -32.650390625 1.950927734375
45.414794921875 -64.58447265625 3.29296875
-71.419921875 -9.72705078125 1.3203125
46.069091796875 -71.8974609375 -22.9459228515625
-4.34765625 17.6331787109375 6.60498046875
47.2294921875 -83.9398193359375 -19.4307861328125
-21.947265625 -50.1888427734375 4.4571533203125
-0.141845703125 2.616943359375 6.6551513671875
12.846923828125 -0.7381591796875 6.8013916015625
-21.268798828125 34.9688720703125 7.012939453125
-27.423828125 -68.1697998046875 -5.5655517578125
26.390380859375 67.7525634765625 8.891845703125
8.75146484375 -67.0294189453125 2.8310546875
35.8544921875 -101.8765869140625 3.6085205078125
33.051513671875 -74.343505859375 -0.57470703125
42.756591796875 41.02783203125 -12.4793701171875
36.08203125 81.8592529296875 9.9407958984375
-18.333740234375 -57.4791259765625 -5.82080078125
47.5224609375 -98.577392578125 -16.302978515625
45.53515625 -107.7333984375 0.0799560546875
-68.375 4.1466064453125 -0.66162109375
30.57421875 -61.135498046875 0.618408203125
30.734130859375 69.57421875 -3.8763427734375
44.64599609375 74.53369140625 -7.11474609375
40.234130859375 -122.4541015625 -18.4921875
-58.68798828125 -20.43701171875 2.2286376953125
40.800048828125 -87.8402099609375 2.983642578125
32.483154296875 -35.73828125 4.6397705078125
15.765869140625 -54.266357421875 2.2276611328125
1.345947265625 -7.6866455078125 7.0963134765625
54.3779296875 -89.390625 2.8773193359375
12.927001953125 40.8663330078125 6.0740966796875
-16.889404296875 -39.2506103515625 3.1036376953125
-22.042236328125 -78.037353515625 2.9744873046875
-8.737548828125 31.5946044921875 6.0667724609375
14.49072265625 13.7064208984375 6.53759765625
-11.492919921875 -61.703857421875 -4.6036376953125
32.8349609375 -14.509521484375 7.1573486328125
-53.206787109375 -27.6953125 2.8170166015625
-7.995361328125 -26.5361328125 7.639404296875
5.13623046875 59.964599609375 22.9200439453125
-43.3115234375 -100.6336669921875 -1.0677490234375
-16.93994140625 -15.48779296875 7.476318359375
12.175048828125 -40.508056640625 2.6961669921875
40.500732421875 55.03955078125 -7.6685791015625
50.440185546875 39.1787109375 -22.5177001953125
51.3662109375 -110.8216552734375 -7.8182373046875
11.809814453125 -28.1744384765625 7.720458984375
-89.43115234375 15.1514892578125 1.3353271484375
15.293212890625 20.5360107421875 6.425537109375
-1.27685546875 50.9207763671875 14.3099365234375
4.97900390625 65.7210693359375 27.6976318359375
28.05126953125 12.47412109375 6.460205078125
2.259521484375 17.0001220703125 6.624267578125
9.389404296875 -15.55810546875 7.431640625
-78.818603515625 -4.7015380859375 1.1949462890625
28.005126953125 84.7025146484375 28.1317138671875
35.1689453125 -112.712158203125 8.346435546875
44.59326171875 45.052978515625 -17.792236328125
-27.21435546875 -64.131591796875 -0.358154296875
1.175537109375 72.020263671875 29.953857421875
20.96044921875 59.6982421875 13.065185546875
-78.3896484375 1.9561767578125 0.1746826171875
26.06640625 64.5689697265625 22.8343505859375
-11.314697265625 -74.190185546875 2.600341796875
31.366943359375 23.9608154296875 6.255615234375
6.080078125 -44.0809326171875 2.1268310546875
28.2939453125 78.716552734375 6.5521240234375
21.687744140625 75.9493408203125 28.6910400390625
-8.4794921875 7.70556640625 6.474853515625
39.406982421875 85.7149658203125 3.83642578125
-15.733154296875 -1.2608642578125 6.6650390625
-64.348876953125 -110.801513671875 8.9476318359375
-55.62939453125 -14.400146484375 1.447998046875
25.30712890625 -68.1483154296875 -4.8721923828125
20.641845703125 47.7196044921875 9.678466796875
-10.822265625 -6.5738525390625 6.8153076171875
28.25244140625 80.1663818359375 22.6385498046875
37.878662109375 -58.5272216796875 2.876220703125
-33.945556640625 -55.2320556640625 2.11474609375
15.475830078125 56.7991943359375 15.2115478515625
46.373291015625 -109.4384765625 9.1826171875
7.39404296875 24.09619140625 6.4671630859375
-36.30517578125 -78.9437255859375 2.697998046875
20.10693359375 -121.7396240234375 6.884033203125
38.57177734375 37.6624755859375 -15.849365234375
12.9833984375 -120.0963134765625 3.1077880859375
40.270751953125 -25.3779296875 7.4078369140625
41.786865234375 15.40234375 -26.396240234375
33.596435546875 59.003662109375 0.61572265625
-43.743408203125 -88.43359375 0.6566162109375
-49.537353515625 -62.0689697265625 2.3533935546875
-48.625732421875 -106.9354248046875 -0.4605712890625
54.28369140625 -100.54833984375 3.03955078125
15.587890625 -108.6104736328125 2.8968505859375
27.021728515625 53.983154296875 12.6519775390625
4.561279296875 -87.08837890625 2.9573974609375
-50.77001953125 -81.2723388671875 9.7030029296875
-38.773193359375 -67.6055908203125 2.5726318359375
-80.213623046875 12.2347412109375 -1.1607666015625
-45.952880859375 -74.565185546875 7.12548828125
38.606689453125 -41.3873291015625 2.3350830078125
25.266357421875 -76.36474609375 3.2236328125
3.561279296875 32.6341552734375 6.22998046875
-18.269775390625 14.2249755859375 6.5391845703125
25.622314453125 -38.826171875 2.8985595703125
-5.38623046875 40.143310546875 6.75
35.091796875 51.4686279296875 11.97021484375
40.05126953125 68.8602294921875 -2.369873046875
10.239501953125 -101.783203125 3.229248046875
61.924072265625 -92.19921875 1.7938232421875
43.451171875 -20.028076171875 8.07958984375
49.392578125 10.3154296875 6.4371337890625
-34.84765625 -52.2076416015625 15.73681640625
-9.125244140625 -60.4102783203125 -10.1982421875
10.852783203125 59.863525390625 19.021240234375
-44.20361328125 -57.2696533203125 2.3768310546875
-59.789794921875 -2.364013671875 0.3048095703125
22.68701171875 -125.995361328125 3.3275146484375
47.1279296875 -78.909423828125 3.164306640625
37.90283203125 -71.2930908203125 2.7198486328125
-32.830078125 -98.2784423828125 8.7642822265625
-49.484130859375 -49.7215576171875 1.8089599609375
20.624267578125 -20.923828125 7.5037841796875
37.404296875 80.0091552734375 -1.9678955078125
-99.53857421875 11.101806640625 -0.0120849609375
38.14208984375 39.468017578125 -1.6724853515625
34.185302734375 50.7978515625 4.3580322265625
-89.536376953125 2.8726806640625 0.253173828125
59.7841796875 -78.9453125 2.480712890625
-35.496826171875 -68.147216796875 -4.119873046875
51.635498046875 68.7535400390625 -2.715087890625
-42.66064453125 -79.542724609375 6.8077392578125
24.418212890625 -113.6103515625 3.5089111328125
31.22998046875 -106.974853515625 3.4969482421875
-64.678466796875 -100.6632080078125 8.945068359375
9.431884765625 -125.3638916015625 3.9814453125
-5.2353515625 -32.3443603515625 6.2904052734375
-13.9345703125 62.0950927734375 26.4891357421875
43.39453125 31.973876953125 -18.5462646484375
-15.903564453125 -50.119873046875 1.965576171875
-21.802490234375 57.35791015625 21.8463134765625
-6.96484375 47.5296630859375 12.0093994140625
37.054931640625 21.968017578125 6.8492431640625
0.8994140625 -56.5972900390625 2.3497314453125
45.603759765625 -101.5233154296875 3.3636474609375
23.961669921875 -7.4468994140625 8.601806640625
37.044189453125 24.5286865234375 -19.204345703125
42.21044921875 83.0279541015625 9.9417724609375
27.01611328125 -15.0455322265625 7.6046142578125
11.272216796875 -80.221435546875 3.033935546875
6.96826171875 -30.779052734375 5.71337890625
30.701904296875 -48.177978515625 2.5482177734375
20.247314453125 10.83740234375 6.66162109375
-38.265380859375 -94.03271484375 9.283447265625
16.203125 -60.4979248046875 2.615478515625
-15.041015625 -61.54052734375 0.603759765625
50.3935546875 54.077392578125 -9.9814453125
-43.014892578125 -47.22802734375 1.8043212890625
26.6005859375 61.09423828125 12.9222412109375
-21.246337890625 -56.228759765625 2.1280517578125
-4.22900390625 27.719970703125 6.3294677734375
-44.2880859375 -84.87060546875 8.5396728515625
-21.31787109375 -55.963623046875 -10.4793701171875
-2.373046875 -3.346923828125 6.8560791015625
-46.819580078125 -96.004638671875 -2.8873291015625
28.086669921875 -56.486572265625 3.0556640625
49.692138671875 78.55859375 1.2335205078125
36.874267578125 89.8299560546875 19.0299072265625
-5.86181640625 -43.1087646484375 2.1492919921875
18.240234375 2.4521484375 6.496826171875
27.2763671875 20.01123046875 6.239501953125
-36.2158203125 -48.500732421875 2.152099609375
36.16650390625 -84.5599365234375 3.197998046875
21.656982421875 -64.71875 2.51318359375
50.96728515625 -105.8480224609375 -1.000732421875
14.3583984375 -96.6014404296875 3.4271240234375
-64.874267578125 -43.2117919921875 1.6405029296875
-53.988525390625 -104.1920166015625 -1.6971435546875
-6.474365234375 67.5648193359375 30.1297607421875
-16.462890625 -71.90869140625 2.155517578125
33.2001953125 -96.0843505859375 3.4085693359375
35.39306640625 12.2095947265625 6.363525390625
-3.79052734375 -15.9488525390625 7.6484375
45.07861328125 -91.757080078125 3.019287109375
29.695556640625 72.336669921875 29.841064453125
-59.935791015625 -94.5989990234375 0.1884765625
-21.871337890625 22.905517578125 6.19091796875
27.1875 -93.5498046875 3.15380859375
-76.993408203125 21.9495849609375 -0.763427734375
36.018798828125 -9.900146484375 7.09765625
18.024169921875 -8.8729248046875 7.1368408203125
30.590576171875 -7.1583251953125 7.123291015625
27.574951171875 43.4344482421875 6.544921875
49.64208984375 -106.2950439453125 -23.551025390625
55.63037109375 -83.9703369140625 2.96240234375
-13.26904296875 -55.3974609375 -5.00390625
44.939453125 21.94482421875 6.0146484375
-18.15966796875 -84.3653564453125 6.320556640625
26.19091796875 -28.0362548828125 7.2147216796875
37.09130859375 104.8009033203125 31.2947998046875
-8.3701171875 -49.1419677734375 1.981201171875
-2.825439453125 59.5062255859375 22.82958984375
70.21630859375 30.0399169921875 12.081787109375
20.476806640625 -35.2115478515625 4.23779296875
29.285888671875 90.9903564453125 27.293701171875
42.1630859375 20.5975341796875 -24.490234375
38.66748046875 57.718017578125 -3.2593994140625
50.16796875 -86.890380859375 -22.98388671875
0.58544921875 -76.8492431640625 3.1036376953125
33.99365234375 34.6016845703125 5.86083984375
24.498046875 37.6370849609375 5.8697509765625
15.3115234375 -15.3323974609375 7.3433837890625
56.670654296875 -94.3455810546875 3.126708984375
-64.2275390625 -90.7728271484375 8.5338134765625
34.51513671875 84.6790771484375 20.1778564453125
31.837890625 78.8865966796875 11.6004638671875
-16.0693359375 -12.4764404296875 12.15234375
-1.58203125 -67.9251708984375 2.8226318359375
26.774658203125 -72.5562744140625 -0.56005859375
21.28662109375 65.4705810546875 15.4398193359375
36.32568359375 96.7982177734375 25.2716064453125
-59.566650390625 -85.153564453125 12.7222900390625
-54.05615234375 -95.38671875 -2.6285400390625
5.465576171875 -61.3861083984375 2.8134765625
20.7587890625 64.3646240234375 25.11474609375
7.128173828125 -74.261962890625 2.52490234375
7.738037109375 2.8748779296875 6.8726806640625
23.667236328125 25.5792236328125 8.6697998046875
-0.15234375 -36.07177734375 4.3389892578125
-17.201904296875 65.213623046875 30.1214599609375
49.36669921875 63.828857421875 0.545654296875
42.118896484375 32.652099609375 5.7098388671875
-38.65185546875 -98.04296875 -1.2669677734375
-62.12939453125 -10.7877197265625 1.259521484375
-18.7529296875 -67.0723876953125 1.8895263671875
-10.8544921875 19.28759765625 6.5167236328125
15.878662109375 51.457763671875 13.243896484375
13.28271484375 -91.4278564453125 2.97021484375
-66.399658203125 -105.6640625 8.63818359375
-20.178466796875 3.31884765625 6.4737548828125
18.799560546875 -74.811767578125 2.88720703125
-11.89990234375 -11.722412109375 7.3321533203125
-103.904541015625 18.6324462890625 -0.205322265625
-60.17626953125 -46.5211181640625 1.50537109375
36.044921875 1.0108642578125 6.4873046875
35.819091796875 -46.9228515625 2.3348388671875
-25.646240234375 61.4097900390625 25.8585205078125
23.609375 -101.6295166015625 3.140380859375
-9.4765625 -69.166259765625 -3.695068359375
-33.961669921875 -86.1063232421875 6.46630859375
-71.24560546875 11.3382568359375 -1.2347412109375
46.28125 22.0677490234375 -21.254638671875
-30.360595703125 -59.3092041015625 2.177734375
4.767578125 -97.97998046875 3.4910888671875
28.88720703125 76.169677734375 17.7760009765625
-28.59326171875 -75.0596923828125 -1.20263671875
26.0859375 -44.282958984375 2.3604736328125
46.74609375 35.53076171875 -22.962646484375
-29.810302734375 -53.078369140625 10.4725341796875
51.814697265625 -110.61767578125 5.5343017578125
-23.594482421875 -7.005615234375 6.1845703125
42.069580078125 -38.191162109375 -28.68408203125
58.381591796875 -72.4134521484375 5.1702880859375
4.7880859375 53.809326171875 16.475341796875
-17.8505859375 -44.2156982421875 2.072998046875
47.31396484375 84.4827880859375 3.8658447265625
-71.747314453125 -31.9036865234375 2.74169921875
-43.331787109375 -70.1400146484375 2.7674560546875
42.353271484375 -6.809814453125 6.504150390625
6.763916015625 45.642333984375 8.6654052734375
41.79443359375 77.874755859375 -4.4444580078125
44.771240234375 -35.353515625 3.54541015625
9.26611328125 36.505615234375 5.903076171875
-8.66845703125 56.85693359375 20.9486083984375
-9.508056640625 36.6195068359375 8.9805908203125
-66.5673828125 -92.4520263671875 14.2764892578125
5.623779296875 -11.7659912109375 7.3402099609375
15.381103515625 -83.5162353515625 3.1566162109375
-0.3203125 40.704833984375 6.630126953125
70.46435546875 26.6905517578125 5.70703125
12.196533203125 25.78173828125 6.3524169921875
9.290283203125 -5.73876953125 7.0924072265625
-7.754638671875 -56.90576171875 0.4971923828125
31.16748046875 -62.6669921875 -4.1837158203125
-76.115966796875 15.1890869140625 -1.5782470703125
-60.52783203125 -101.3245849609375 3.4444580078125
9.99267578125 66.074951171875 28.2841796875
-64.374267578125 -0.3499755859375 -0.416259765625
37.7958984375 43.551025390625 -12.863037109375
9.720458984375 -106.7882080078125 2.8070068359375
3.05419921875 -65.93994140625 2.6591796875
36.4326171875 80.4542236328125 15.9432373046875
18.204345703125 -49.871826171875 2.502685546875
-87.71875 10.3441162109375 2.9307861328125
40.215576171875 27.4481201171875 8.4267578125
-36.669677734375 -72.28076171875 2.720703125
-49.838134765625 -32.652587890625 2.2166748046875
-41.6328125 -38.07958984375 3.640625
-59.423583984375 -25.342529296875 2.828125
36.8115234375 50.4371337890625 -8.04833984375
47.5888671875 26.620361328125 -25.8638916015625
-95.605224609375 23.8406982421875 -0.2960205078125
48.635009765625 71.852783203125 -5.22265625
0.015869140625 -51.3682861328125 2.0015869140625
-18.411376953125 -34.9110107421875 5.0391845703125
43.068115234375 -107.0037841796875 -12.126220703125
21.91015625 30.6121826171875 6.1319580078125
34.5302734375 67.5413818359375 -1.4029541015625
5.83935546875 13.5616455078125 6.5946044921875
-50.2998046875 -91.04736328125 2.88623046875
33.4384765625 -22.7601318359375 7.8369140625
-12.180908203125 -37.7435302734375 3.4149169921875
-21.580078125 -27.169921875 7.8541259765625
35.626953125 91.9593505859375 24.521240234375
46.640625 77.1424560546875 -3.41748046875
-44.9267578125 -51.9371337890625 1.8040771484375
-63.677490234375 7.7821044921875 -0.096923828125
50.590576171875 -116.5301513671875 9.907470703125
-53.611572265625 -90.936767578125 7.090087890625
-41.92724609375 -92.9886474609375 2.102294921875
10.224853515625 50.0257568359375 12.5545654296875
-1.642333984375 -40.65869140625 2.2740478515625
-55.767578125 -42.2230224609375 1.8382568359375
29.961669921875 -85.5023193359375 2.791259765625
43.258056640625 57.9686279296875 -10.82470703125
41.115478515625 -12.3658447265625 -29.802490234375
35.193359375 -78.571533203125 3.0426025390625
41.09521484375 -28.4232177734375 -28.8006591796875
39.970947265625 -30.0982666015625 6.364990234375
-84.603759765625 15.3857421875 1.527099609375
-11.97900390625 52.892822265625 17.13671875
25.145751953125 -61.9072265625 0.3509521484375
26.26416015625 71.6031494140625 14.5777587890625
-50.506103515625 -92.289794921875 -4.96875
41.38037109375 -67.18115234375 2.9517822265625
-25.837158203125 -47.3419189453125 2.2750244140625
-67.13818359375 -19.3265380859375 2.4296875
48.312255859375 64.1507568359375 -6.1920166015625
44.002685546875 36.514404296875 -14.8321533203125
46.0732421875 5.007080078125 6.213134765625
35.65625 34.6473388671875 -13.5970458984375
-10.467529296875 -52.690673828125 -0.396728515625
-6.502197265625 13.392822265625 6.697509765625
-54.629150390625 -23.162109375 2.67626953125
40.720947265625 -62.4962158203125 2.5391845703125
-70.444580078125 -23.105224609375 3.1610107421875
38.527587890625 -92.2716064453125 3.0386962890625
22.68115234375 21.0828857421875 6.604248046875
40.17333984375 -114.7109375 -16.303466796875
10.177734375 11.7027587890625 6.8046875
-65.3212890625 -37.0931396484375 1.13427734375
24.554443359375 49.8154296875 11.27587890625
30.240966796875 -118.4019775390625 2.5850830078125
42.512451171875 -121.5992431640625 -22.5260009765625
35.55029296875 -106.6673583984375 5.986572265625
40.49365234375 -111.9832763671875 9.7032470703125
-36.135986328125 -101.1798095703125 6.8797607421875
19.424072265625 -111.4427490234375 3.2005615234375
-57.5009765625 -111.53369140625 -3.1910400390625
27.137451171875 68.7882080078125 21.0399169921875
17.680419921875 -31.26904296875 6.84912109375
1.21044921875 -23.0655517578125 7.802001953125
41.476806640625 89.6468505859375 18.1497802734375
49.144287109375 86.1773681640625 11.06396484375
50.920166015625 -96.6710205078125 -20.970458984375
23.1201171875 86.5999755859375 31.5904541015625
-21.531494140625 -16.457275390625 7.1282958984375
46.91943359375 17.0240478515625 -26.7314453125
44.057861328125 49.9183349609375 -15.854248046875
5.763671875 -115.84033203125 3.297119140625
45.7509765625 -54.638916015625 -28.3111572265625
5.573486328125 -109.4063720703125 3.266357421875
17.927734375 39.59912109375 5.86376953125
48.9599609375 43.6429443359375 -19.08935546875
-13.65380859375 23.791748046875 6.7027587890625
28.23486328125 94.8572998046875 30.666748046875
-1.914306640625 -72.4830322265625 3.6431884765625
43.87744140625 13.5482177734375 6.3131103515625
48.16650390625 -73.842529296875 2.9093017578125
45.981201171875 -115.2640380859375 -24.0025634765625
13.428466796875 -114.8426513671875 3.4072265625
-14.819580078125 9.671630859375 6.692626953125
40.599853515625 5.2596435546875 -27.9683837890625
35.275634765625 101.5718994140625 28.5418701171875
40.570556640625 -110.2047119140625 -17.4837646484375
41.224609375 -102.579345703125 4.316650390625
30.623779296875 -31.62109375 5.525634765625
44.224853515625 -111.0855712890625 -22.621337890625
-0.220703125 -12.000244140625 7.427734375
-24.7451171875 -67.99462890625 -0.6981201171875
-68.28564453125 -98.67822265625 13.2823486328125
29.904296875 77.3238525390625 2.4881591796875
15.284423828125 -43.8497314453125 2.24951171875
-92.45458984375 12.435546875 -0.7886962890625
-3.033935546875 -27.187255859375 7.787353515625
20.42919921875 -45.160400390625 2.4166259765625
23.1201171875 -118.0009765625 3.4776611328125
-11.202392578125 -48.795166015625 -9.97900390625
10.291748046875 -52.9901123046875 2.3848876953125
33.781982421875 -124.962158203125 7.7236328125
27.19482421875 74.050048828125 6.6337890625
19.552001953125 -106.35009765625 3.0296630859375
15.693359375 29.4520263671875 6.2540283203125
15.04296875 61.8218994140625 18.7647705078125
1.190673828125 66.9053955078125 29.9183349609375
38.468994140625 41.794921875 4.8349609375
39.722412109375 -3.7393798828125 -26.8878173828125
31.839111328125 60.518798828125 4.5235595703125
9.3583984375 -37.053466796875 3.5792236328125
38.51904296875 -15.3668212890625 7.3433837890625
-39.04248046875 -88.987548828125 8.80615234375
-15.459716796875 -19.767822265625 7.2939453125
47.81982421875 -108.04150390625 -9.89111328125
-40.47216796875 -59.8258056640625 2.5736083984375
24.1611328125 -0.073974609375 6.703369140625
-57.78662109375 -50.5181884765625 1.5289306640625
29.07177734375 27.8546142578125 6.210205078125
43.727294921875 -45.7467041015625 -26.8519287109375
-55.04248046875 -85.72998046875 9.0361328125
32.69873046875 53.4683837890625 1.0357666015625
30.87744140625 3.92138671875 6.83154296875
43.13134765625 70.8653564453125 -4.9727783203125
24.45947265625 -83.811767578125 3.28857421875
-72.391357421875 2.05810546875 -0.1888427734375
-86.537353515625 19.5594482421875 -1.2998046875
-8.18798828125 -15.029052734375 7.5032958984375
-12.17919921875 -22.9967041015625 7.5460205078125
4.79736328125 -91.491943359375 3.795654296875
40.362060546875 4.3399658203125 6.775146484375
-91.401123046875 18.26220703125 -1.3193359375
43.62646484375 -84.35888671875 3.0032958984375
-72.717041015625 -14.0762939453125 1.650634765625
32.728759765625 44.59521484375 6.275146484375
-17.363037109375 32.9852294921875 6.09912109375
33.33056640625 -64.4183349609375 -0.66552734375
2.593505859375 44.144287109375 8.064453125
-76.70703125 -17.1175537109375 2.6075439453125
-75.772216796875 -8.7467041015625 1.2801513671875
-22.662353515625 63.1419677734375 28.7159423828125
-19.210693359375 -4.0465087890625 6.809326171875
-11.5126953125 -79.1453857421875 3.785400390625
-16.531005859375 -76.376220703125 2.6419677734375
-68.37890625 -27.0274658203125 2.7744140625
44.044921875 -47.018798828125 2.0943603515625
44.34326171875 -105.3079833984375 6.7144775390625
-6.491943359375 44.0565185546875 9.19580078125
22.169677734375 -54.611328125 2.6048583984375
42.567626953125 11.13134765625 -27.3243408203125
55.685546875 -104.7484130859375 2.739013671875
12.201904296875 -69.8179931640625 2.7923583984375
-31.059814453125 -66.87255859375 -3.3841552734375
45.711181640625 -48.391357421875 -29.9635009765625
-48.76318359375 -23.6666259765625 3.3719482421875
-15.92138671875 -30.306884765625 7.11767578125
-19.76904296875 18.906494140625 6.459716796875
17.957275390625 17.008544921875 6.35791015625
50.075927734375 -83.0601806640625 2.821044921875
-46.955078125 -107.853759765625 -4.795654296875
26.39697265625 -128.1651611328125 6.795166015625
-62.59375 -28.7030029296875 2.809326171875
-80.504150390625 7.9130859375 -0.497314453125
-63.194580078125 -95.0604248046875 8.6376953125
-5.293701171875 3.0916748046875 6.823486328125
26.25537109375 64.625244140625 5.8336181640625
3.9111328125 21.447021484375 6.4962158203125
30.59912109375 -27.486328125 7.6959228515625
-58.934326171875 -109.7774658203125 6.5
-3.232177734375 21.8427734375 6.36376953125
35.765869140625 -32.775146484375 5.5853271484375
48.555908203125 -74.7310791015625 -25.4896240234375
22.80712890625 -91.167236328125 2.8526611328125
-66.9384765625 -9.6702880859375 1.29736328125
28.9501953125 64.913330078125 26.0716552734375
-47.24658203125 -102.4173583984375 -1.5540771484375
-58.64892578125 -93.40625 4.4783935546875
-53.612548828125 -52.803466796875 1.835693359375
-55.4189453125 -58.5489501953125 2.33447265625
-3.244140625 -58.72021484375 2.4278564453125
45.873046875 -61.686279296875 -26.5035400390625
-17.267822265625 58.7357177734375 23.3406982421875
49.876953125 -107.7747802734375 -5.1217041015625
40.73876953125 -21.8948974609375 -28.705322265625
16.67626953125 65.2149658203125 16.370361328125
18.000732421875 44.793701171875 7.8936767578125
16.53076171875 -78.493408203125 2.9046630859375
14.271728515625 -5.7667236328125 7.20068359375
39.47607421875 -54.518798828125 2.699951171875
41.998046875 -106.3145751953125 -16.2510986328125
58.98828125 -89.3466796875 3.16064453125
-10.77587890625 -64.0091552734375 -0.4102783203125
5.7939453125 56.6610107421875 19.5467529296875
27.4375 68.4693603515625 -0.1435546875
-31.5341796875 -62.5556640625 -0.39404296875
-100.369384765625 15.294677734375 -0.5198974609375
23.212890625 64.228271484375 19.6312255859375
30.958984375 -18.348876953125 7.6614990234375
3.373779296875 28.1650390625 6.42724609375
33.59521484375 48.2071533203125 8.9876708984375
18.97705078125 -92.45458984375 5.43115234375
33.035400390625 72.7711181640625 -5.5648193359375
41.6162109375 96.7225341796875 24.74755859375
-47.436279296875 -38.950927734375 1.75537109375
48.099853515625 -82.9307861328125 -23.711669921875
31.566162109375 -102.307373046875 2.8924560546875
44.32861328125 -29.7047119140625 -31.45751953125
49.29345703125 -105.82177734375 -19.2271728515625
39.353759765625 10.627685546875 6.422607421875
41.633544921875 -76.1475830078125 2.9136962890625
-35.401123046875 -65.6217041015625 -0.686279296875
-9.886474609375 50.032958984375 13.8427734375
-46.33203125 -90.34814453125 4.6678466796875
18.996826171875 6.76904296875 6.561279296875
44.030029296875 -52.2744140625 2.2904052734375
40.094970703125 -45.4786376953125 2.4122314453125
-56.875244140625 -35.672607421875 1.9112548828125
-67.6943359375 16.370361328125 -0.613037109375
49.82177734375 -91.36279296875 2.706298828125
5.33056640625 -48.2489013671875 2.12939453125
0.065185546875 -81.02587890625 2.6561279296875
-24.04345703125 13.1661376953125 6.3568115234375
-7.6083984375 35.946044921875 14.2313232421875
2.296875 36.663330078125 5.9979248046875
1.640625 6.44970703125 6.790771484375
-21.43310546875 -37.399658203125 3.453125
28.7958984375 35.48193359375 5.9952392578125
29.795166015625 72.6890869140625 -1.116943359375
-98.632080078125 19.79052734375 -1.0352783203125
31.018798828125 9.111328125 6.7056884765625
-15.0615234375 18.947998046875 6.56201171875
46.19384765625 -77.44482421875 -21.88037109375
-89.479736328125 7.078125 -0.018798828125
16.540771484375 64.2835693359375 24.34765625
-13.36767578125 -49.34619140625 -1.565185546875
37.134521484375 -115.5616455078125 10.7490234375
45.13330078125 -36.3922119140625 -30.943603515625
41.90283203125 52.96630859375 -12.0048828125
-17.51416015625 -56.232177734375 -1.8662109375
50.55224609375 -109.2679443359375 9.5767822265625
-60.193115234375 -105.49072265625 3.0400390625
46.020751953125 -95.837158203125 2.93798828125
41.773193359375 104.1173095703125 30.5970458984375
1.59130859375 61.2718505859375 24.720458984375
-7.33544921875 -22.3125 7.3839111328125
-45.84912109375 -91.548095703125 -3.7545166015625
11.070068359375 -63.538330078125 2.935302734375
43.313232421875 85.9730224609375 13.779541015625
-5.853759765625 -5.6214599609375 6.96630859375
-51.02978515625 -81.9395751953125 15.2520751953125
-60.33203125 -16.6600341796875 1.71044921875
28.87939453125 84.3443603515625 24.089111328125
47.75244140625 -102.6966552734375 -16.694091796875
-59.25927734375 -96.314453125 -3.965087890625
-12.849609375 31.14990234375 6.2239990234375
33.91162109375 98.0994873046875 30.488525390625
58.6337890625 -101.304931640625 2.8878173828125
16.9814453125 -71.1065673828125 3.051025390625
26.344970703125 71.8472900390625 10.022216796875
-8.54541015625 64.384033203125 28.502197265625
25.230712890625 82.6004638671875 30.8328857421875
-32.1708984375 -51.5068359375 2.064697265625
41.498046875 44.8648681640625 -11.6083984375
-40.810791015625 -102.7613525390625 -4.522705078125
40.957763671875 -106.13134765625 -8.6968994140625
43.280029296875 84.9788818359375 2.6492919921875
-37.318603515625 -45.591552734375 5.0548095703125
36.431640625 -37.9517822265625 2.822998046875
-29.106689453125 62.695556640625 27.6285400390625
48.405029296875 -108.74755859375 2.81787109375
47.208984375 -89.389404296875 -18.5626220703125
-20.26904296875 30.1153564453125 6.2730712890625
45.5556640625 -107.1619873046875 -18.260498046875
-75.2119140625 -21.39892578125 3.1590576171875
-11.648681640625 1.6405029296875 6.7510986328125
13.050048828125 34.9837646484375 6.0709228515625
26.96826171875 -51.658447265625 2.6126708984375
35.436279296875 -70.2952880859375 -0.3751220703125
-44.878662109375 -30.9302978515625 4.217529296875
7.92724609375 -83.340087890625 2.9776611328125
-18.345703125 7.6265869140625 6.5732421875
49.92578125 6.2952880859375 5.856201171875
36.70849609375 46.8800048828125 -10.268310546875
-61.30517578125 -87.177490234375 9.6468505859375
-12.05029296875 -59.1273193359375 -1.5020751953125
48.123291015625 -70.511474609375 -26.17236328125
-41.271484375 -97.73681640625 -4.3626708984375
32.7470703125 79.7861328125 0.9434814453125
69.58984375 32.40869140625 8.84619140625
29.031494140625 -11.436767578125 7.3409423828125
-0.737548828125 29.7479248046875 6.4473876953125
26.460205078125 65.264892578125 13.1129150390625
30.8154296875 52.603759765625 12.731201171875
-18.469970703125 -52.87548828125 0.39990234375
-32.942138671875 -76.75390625 3.028076171875
-23.848876953125 5.500732421875 6.2679443359375
24.609130859375 -24.3677978515625 7.680419921875
-3.679443359375 55.343994140625 18.520263671875
10.2373046875 6.12353515625 6.6541748046875
50.890380859375 35.45068359375 -23.93896484375
-67.2685546875 -107.0982666015625 12.3238525390625
14.947021484375 -25.6827392578125 7.6883544921875
41.24267578125 -118.3426513671875 -18.7340087890625
-4.21533203125 -47.1519775390625 2.0223388671875
-16.76611328125 -63.837890625 -2.171142578125
16.181884765625 -38.2203369140625 3.262939453125
-24.757080078125 -58.1187744140625 2.3243408203125
4.378173828125 -34.1571044921875 5.0576171875
-12.449462890625 -59.1065673828125 -7.4727783203125
37.1611328125 61.146240234375 -0.593505859375
41.2294921875 35.1650390625 -17.5511474609375
-47.14208984375 -81.234375 8.0682373046875
44.445556640625 63.2200927734375 -6.28076171875
20.63916015625 -84.913330078125 3.2091064453125
-31.82958984375 -70.3411865234375 -5.16943359375
-68.56201171875 0.2283935546875 -0.015869140625
42.695068359375 24.5 9.385986328125
22.0947265625 -10.74951171875 7.4361572265625
45.8642578125 -107.5068359375 -23.4833984375
-12.468994140625 -28.4752197265625 7.7947998046875
-46.130126953125 -67.3489990234375 2.486328125
-70.550048828125 -35.919189453125 1.478515625
22.103759765625 -30.2275390625 6.5240478515625
3.32666015625 -41.255615234375 2.2864990234375
-8.173583984375 -72.0223388671875 1.589599609375
-43.437744140625 -43.3123779296875 2.080078125
-54.922119140625 -108.62548828125 -4.583984375
34.099365234375 -59.640625 2.79833984375
-82.791748046875 4.3330078125 0.3394775390625
36.21728515625 84.4354248046875 15.297607421875
10.287109375 -43.929931640625 2.3907470703125
35.188232421875 76.192626953125 -3.805419921875
36.062255859375 82.2899169921875 0.9183349609375
-28.582275390625 -63.570068359375 -4.7730712890625
-82.9658203125 11.6610107421875 1.54833984375
42.618896484375 -38.9561767578125 2.7889404296875
43.119873046875 -16.2081298828125 7.3712158203125
-3.15625 6.3497314453125 6.80029296875
8.950927734375 42.764892578125 7.1090087890625
-18.599609375 -12.1614990234375 9.211669921875
26.04345703125 -80.1717529296875 3.020751953125
28.703369140625 16.3055419921875 6.4442138671875
42.5751953125 -41.70849609375 -27.111083984375
26.101318359375 56.9935302734375 10.085205078125
-51.641357421875 -65.3165283203125 2.687255859375
2.95263671875 -26.5355224609375 7.7818603515625
22.9541015625 55.9859619140625 14.3946533203125
1.7158203125 -1.490966796875 7.014404296875
19.238525390625 63.0616455078125 12.2012939453125
40.130615234375 23.6588134765625 -23.266845703125
25.15576171875 -3.8001708984375 6.994384765625
55.64404296875 -73.605712890625 2.7142333984375
-52.585693359375 -100.964111328125 -3.4803466796875
-68.8603515625 -5.363525390625 0.8382568359375
36.990478515625 -88.4422607421875 2.992431640625
26.552490234375 -104.0938720703125 2.8101806640625
3.88720703125 2.8707275390625 6.9193115234375
29.477294921875 -89.770751953125 3.135498046875
2.98876953125 10.390625 7.00439453125
-33.70751953125 -48.4390869140625 5.062744140625
23.689697265625 -66.811279296875 0.0167236328125
45.9580078125 31.7872314453125 -22.6402587890625
-19.29345703125 -19.724853515625 7.340087890625
-58.87646484375 -103.26953125 -4.6729736328125
43.7421875 -117.919677734375 -22.399169921875
39.51318359375 28.32421875 -20.689208984375
29.141357421875 -77.2469482421875 3.53662109375
1.008544921875 53.2928466796875 16.4263916015625
29.26513671875 82.9561767578125 31.262451171875
11.1201171875 21.0474853515625 6.6300048828125
9.242919921875 -19.349609375 7.5703125
31.935791015625 31.4141845703125 5.8822021484375
43.972412109375 -60.495361328125 2.54443359375
-21.921875 -46.3485107421875 3.0194091796875
13.7236328125 -105.3193359375 3.10205078125
-6.1826171875 36.794189453125 10.7852783203125
46.50537109375 -68.146728515625 2.6309814453125
24.9794921875 78.4295654296875 30.0445556640625
-53.74658203125 -90.8436279296875 -1.0069580078125
-55.31298828125 -18.7420654296875 2.1546630859375
-8.492431640625 -40.415771484375 2.4251708984375
9.010498046875 -49.0164794921875 2.4281005859375
39.2509765625 64.788818359375 -1.9498291015625
16.195556640625 -118.6846923828125 5.6083984375
19.00244140625 56.110107421875 14.0828857421875
-14.052978515625 -4.638916015625 6.75634765625
-20.416015625 -60.546875 -6.4825439453125
17.807861328125 -98.0477294921875 3.064697265625
50.539794921875 -100.7581787109375 3.2667236328125
41.293701171875 59.640380859375 -8.09375
14.252685546875 -88.049560546875 4.29541015625
4.624267578125 69.493408203125 29.8779296875
38.586181640625 12.626708984375 -24.5833740234375
48.315673828125 57.3267822265625 -10.3218994140625
40.76806640625 22.281005859375 6.4547119140625
19.07861328125 -122.9559326171875 3.4942626953125
-98.478271484375 7.59375 0.7596435546875
-60.878662109375 -36.178466796875 1.465576171875
-4.890625 61.765380859375 25.4654541015625
4.940185546875 -6.6793212890625 7.291015625
-63.490478515625 -20.0966796875 2.6317138671875
-24.276611328125 -53.1517333984375 18.1114501953125
-6.675537109375 35.8226318359375 6.688232421875
-22.717529296875 -141.885009765625 -25.5067138671875
-21.49072265625 -50.00341796875 0.7647705078125
-14.670654296875 -35.3387451171875 4.7877197265625
-67.94384765625 -98.875732421875 8.9132080078125
-19.243896484375 -60.2437744140625 0.041259765625
8.808837890625 -117.9747314453125 3.1832275390625
-83.236083984375 21.4864501953125 -1.189453125
9.106201171875 60.20458984375 22.485595703125
30.330810546875 82.0765380859375 6.6060791015625
-34.30126953125 -83.0648193359375 4.3604736328125
49.835693359375 -105.6383056640625 -11.8798828125
9.72509765625 -90.3829345703125 3.1181640625
37.017333984375 69.87353515625 -4.24951171875
-5.7236328125 50.9659423828125 14.6014404296875
1.445556640625 -19.366455078125 7.7806396484375
17.767578125 -18.099365234375 7.5234375
7.613525390625 63.73779296875 26.012939453125
49.370849609375 89.2554931640625 14.2381591796875
-7.85595703125 42.2967529296875 17.073974609375
38.23388671875 -98.8184814453125 3.753662109375
-61.619384765625 -51.541015625 1.653076171875
-75.99853515625 -0.844970703125 0.45458984375
26.389404296875 73.9522705078125 29.701904296875
61.96533203125 -81.801513671875 1.6798095703125
9.866455078125 -33.1993408203125 5.76953125
24.57861328125 11.2623291015625 6.499267578125
-16.296142578125 24.24267578125 9.4639892578125
12.97900390625 2.932373046875 6.6673583984375
-46.320556640625 -71.907470703125 3.9635009765625
-54.396484375 -11.4677734375 3.2791748046875
-55.33251953125 -32.3780517578125 2.397705078125
29.186767578125 57.339599609375 8.1292724609375
26.21240234375 63.6085205078125 16.7860107421875
16.931640625 -34.7427978515625 5.0570068359375
29.53173828125 97.6986083984375 32.5906982421875
23.114013671875 45.9505615234375 7.627197265625
28.773193359375 -65.3931884765625 -3.6768798828125
-12.73828125 -15.556396484375 7.234130859375
35.180419921875 38.520751953125 5.9613037109375
44.6630859375 -31.6512451171875 5.651611328125
-52.581787109375 -15.3975830078125 3.197265625
-50.932373046875 -41.237060546875 1.8642578125
37.77978515625 -76.0118408203125 2.76171875
33.44482421875 50.656494140625 -5.1627197265625
-17.66455078125 36.6861572265625 6.64453125
-55.9697265625 -99.91357421875 -2.5567626953125
9.71728515625 -24.18212890625 8.0235595703125
50.655029296875 -113.3074951171875 8.153076171875
28.279052734375 -109.0809326171875 3.2750244140625
29.259033203125 -71.060791015625 -4.253173828125
29.59521484375 76.6136474609375 14.243408203125
-23.971435546875 -53.8369140625 2.2032470703125
-96.45458984375 12.966796875 -0.39892578125
-51.973876953125 -44.9345703125 1.5208740234375
18.71142578125 21.738525390625 6.386962890625
6.649169921875 -101.34521484375 3.41455078125
35.39501953125 87.6180419921875 22.168701171875
27.1337890625 58.0872802734375 14.858642578125
29.236572265625 -38.76611328125 2.9251708984375
-69.7099609375 -16.178466796875 1.91162109375
7.1416015625 -40.4864501953125 2.717041015625
44.06591796875 41.5247802734375 -17.055908203125
-68.440673828125 9.065673828125 -1.1767578125
