41.84912109375 55.129638671875 -3.360595703125
-50.265625 2.27734375 11.1826171875
30.624267578125 62.20166015625 15.6668701171875
81.051025390625 -75.968017578125 9.753173828125
36.679443359375 4.6590576171875 16.4591064453125
-10.54833984375 24.6063232421875 16.63720703125
28.232177734375 16.5467529296875 16.5899658203125
-34.677490234375 -68.322509765625 15.34375
50.2783203125 -46.9525146484375 -9.8065185546875
38.95068359375 -92.3673095703125 -11.20751953125
-8.802978515625 -49.01953125 10.2216796875
6.022216796875 -91.6973876953125 9.45361328125
35.122314453125 59.705322265625 15.5208740234375
10.716552734375 -27.35009765625 11.0621337890625
-24.179443359375 26.0906982421875 18.2420654296875
67.380859375 31.074951171875 4.5494384765625
-49.75439453125 -74.7686767578125 5.261962890625
50.576416015625 -17.8553466796875 -13.23681640625
76.80078125 -83.0687255859375 3.1871337890625
-85.49072265625 33.2635498046875 10.4637451171875
-13.160400390625 -33.6571044921875 -0.843994140625
61.098876953125 -93.4376220703125 9.6956787109375
37.30419921875 24.8427734375 -11.7108154296875
73.513916015625 -49.056640625 8.546875
3.9228515625 13.8016357421875 16.765380859375
45.787353515625 12.4278564453125 -11.2032470703125
18.13818359375 45.2249755859375 16.51025390625
47.2158203125 -99.063232421875 -8.1273193359375
40.534912109375 8.5218505859375 16.0830078125
-80.059326171875 18.9735107421875 12.0216064453125
48.306640625 20.3076171875 -13.1083984375
-33.085693359375 -52.8201904296875 10.6820068359375
88.0029296875 -84.6064453125 -3.710205078125
51.215087890625 -89.604736328125 -17.7459716796875
10.03662109375 -81.22705078125 9.8427734375
-35.755126953125 -49.5313720703125 12.740478515625
22.0888671875 -29.968505859375 9.0784912109375
-17.90966796875 64.2244873046875 14.97021484375
-67.80322265625 -20.2430419921875 8.8807373046875
23.574951171875 33.3798828125 16.4588623046875
-7.909423828125 43.4268798828125 16.7591552734375
30.30419921875 86.4530029296875 16.6746826171875
52.001220703125 35.6910400390625 -8.5670166015625
-70.037109375 -81.6220703125 15.8236083984375
-20.466552734375 32.443115234375 16.0965576171875
30.37451171875 1.54541015625 16.371337890625
-89.106201171875 39.125732421875 9.6265869140625
20.703125 37.8890380859375 16.4993896484375
-58.402099609375 -81.539306640625 10.0535888671875
-15.609130859375 43.589599609375 16.8638916015625
-16.380126953125 35.3433837890625 16.323486328125
53.401123046875 45.5281982421875 -9.386474609375
-4.215576171875 3.874755859375 16.7059326171875
80.93701171875 -71.8856201171875 -4.716796875
-21.642822265625 -29.423095703125 12.0877685546875
42.45703125 -33.4166259765625 11.56494140625
-101.8955078125 47.9007568359375 10.0562744140625
-56.688720703125 -80.3946533203125 13.4215087890625
92.455322265625 -98.6044921875 -7.5147705078125
4.408935546875 -77.6656494140625 9.7178955078125
-0.883544921875 32.56396484375 16.490478515625
70.208984375 29.500244140625 21.716796875
40.947509765625 42.8082275390625 -8.15185546875
31.35791015625 54.5157470703125 15.5162353515625
57.7421875 -14.1734619140625 -4.5950927734375
58.2734375 -93.194091796875 -11.0908203125
17.20068359375 -92.5501708984375 9.95166015625
-5.207763671875 -33.7554931640625 10.5076904296875
-55.400634765625 20.1561279296875 11.887451171875
-3.620361328125 -53.192138671875 11.760498046875
30.492431640625 -53.450927734375 10.3953857421875
22.99169921875 -88.5364990234375 9.75927734375
47.09375 72.960693359375 -0.5233154296875
13.722900390625 -62.612548828125 13.3609619140625
-46.333251953125 -37.6422119140625 10.64306640625
35.12109375 -33.30078125 10.85498046875
43.052734375 -53.6373291015625 10.51708984375
95.442626953125 -64.7852783203125 -3.7115478515625
42.8037109375 -93.9326171875 -5.373046875
5.57958984375 9.6708984375 16.924072265625
-64.9267578125 30.3240966796875 9.8031005859375
-82.203857421875 51.2916259765625 7.75341796875
-25.0517578125 -35.830322265625 11.1009521484375
52.720458984375 -44.3756103515625 -11.35302734375
34.69482421875 -19.595947265625 10.7705078125
41.305419921875 82.4427490234375 4.315185546875
79.6279296875 -39.669921875 -0.231689453125
73.88427734375 0.2061767578125 1.61865234375
-63.53369140625 -75.29833984375 3.8984375
-88.092041015625 49.664306640625 9.0208740234375
-0.2724609375 -39.43994140625 10.7181396484375
-102.76708984375 38.811767578125 10.383544921875
41.34033203125 -90.43359375 1.0133056640625
14.251953125 34.7760009765625 16.0296630859375
-16.430419921875 51.3829345703125 19.3162841796875
-63.16552734375 -85.1790771484375 15.2042236328125
41.749267578125 -85.2720947265625 -15.959716796875
74.84912109375 -52.5645751953125 10.3392333984375
72.73974609375 -82.906982421875 0.4892578125
-22.951904296875 -42.781982421875 10.705810546875
78.3232421875 -58.7669677734375 1.9637451171875
-63.21826171875 -77.3282470703125 13.91064453125
10.12939453125 -31.595703125 10.555908203125
82.1640625 -90.3951416015625 9.2218017578125
77.349365234375 -46.1734619140625 0.5892333984375
28.253173828125 -75.9638671875 9.848388671875
37.50537109375 -2.9114990234375 15.4434814453125
91.887451171875 -80.772216796875 -3.7132568359375
85.713623046875 -90.06884765625 -2.1622314453125
43.810546875 -123.0645751953125 -4.183349609375
4.47998046875 -14.4744873046875 10.269287109375
89.2392578125 -65.5872802734375 -3.0770263671875
46.193603515625 -52.5928955078125 -11.98388671875
29.031005859375 90.0953369140625 14.07763671875
-94.959716796875 34.73388671875 10.8026123046875
-2.94873046875 -45.372314453125 10.2635498046875
-70.443115234375 -19.263427734375 11.46533203125
-72.98876953125 49.7852783203125 9.288330078125
-29.42333984375 -49.1041259765625 18.425537109375
16.78857421875 -51.0364990234375 10.7852783203125
52.46044921875 40.835205078125 -12.68115234375
96.443359375 -86.8192138671875 -8.2745361328125
-71.056884765625 -15.127197265625 12.380615234375
-54.32470703125 -72.6912841796875 7.686279296875
-26.2373046875 -5.7100830078125 14.52392578125
75.10595703125 -18.7222900390625 0.8780517578125
22.285888671875 27.00732421875 16.0557861328125
-58.84912109375 26.6856689453125 10.684814453125
34.6201171875 -54.2515869140625 10.0260009765625
36.86279296875 33.1744384765625 16.3824462890625
41.073974609375 -9.3729248046875 -14.009521484375
16.57568359375 -80.20751953125 9.63623046875
26.460693359375 45.1292724609375 17.139892578125
71.9091796875 -69.030029296875 9.718505859375
36.36669921875 67.5938720703125 0.002685546875
50.61865234375 -13.45751953125 -12.7005615234375
-4.062744140625 30.472412109375 16.574951171875
44.65234375 84.9471435546875 6.279541015625
-46.0029296875 -19.82373046875 10.611572265625
38.153076171875 20.980712890625 -13.052490234375
71.84765625 -90.266845703125 7.551025390625
22.3662109375 -47.4412841796875 10.74169921875
-48.0234375 -14.1405029296875 10.8985595703125
92.5244140625 -92.3885498046875 -5.6556396484375
29.826171875 92.3795166015625 11.359130859375
16.582275390625 -25.437744140625 11.1422119140625
13.834716796875 -59.2486572265625 16.428466796875
-52.333251953125 -34.8177490234375 11.790771484375
63.640625 -54.87353515625 10.0257568359375
-2.46826171875 -15.6080322265625 10.6048583984375
35.807373046875 90.7603759765625 13.512939453125
56.21923828125 -89.9088134765625 -6.5533447265625
-29.09033203125 -33.2020263671875 7.303466796875
19.7890625 34.29833984375 16.18798828125
10.897216796875 8.9041748046875 16.7144775390625
-63.531982421875 -81.081298828125 10.591552734375
-17.181640625 11.4273681640625 16.752197265625
-68.313232421875 -58.1802978515625 16.6005859375
-60.32568359375 -30.3026123046875 11.2054443359375
5.732177734375 -54.7763671875 10.38525390625
24.788330078125 -73.30859375 9.706787109375
97.455322265625 -92.68408203125 -16.8592529296875
75.303466796875 -39.365966796875 1.41259765625
-36.131591796875 -53.1275634765625 16.338623046875
30.142822265625 -33.551513671875 7.675048828125
61.12451171875 -93.7264404296875 -1.476806640625
-60.805419921875 -25.292236328125 12.788818359375
-60.163330078125 6.1552734375 12.003173828125
-24.5068359375 -24.9063720703125 6.878662109375
-14.605712890625 -37.8232421875 11.2662353515625
82.257080078125 -66.870849609375 7.1160888671875
2.43115234375 27.311767578125 16.8060302734375
47.561279296875 30.303955078125 -12.1802978515625
69.5234375 -39.0364990234375 3.7303466796875
85.539306640625 -81.5836181640625 0.30322265625
-24.118408203125 61.3887939453125 16.2830810546875
-30.610595703125 -21.0943603515625 10.5799560546875
27.23388671875 5.9207763671875 16.557373046875
-15.084716796875 59.547119140625 16.8812255859375
-52.760498046875 -27.447509765625 10.6829833984375
18.91064453125 -34.9337158203125 10.84619140625
39.676513671875 17.42529296875 15.8653564453125
-60.70068359375 22.3663330078125 10.618896484375
26.1181640625 86.6624755859375 22.0401611328125
10.05517578125 -42.0548095703125 10.66552734375
-15.392822265625 -32.413818359375 10.0982666015625
7.85400390625 -68.363037109375 9.8360595703125
-6.44677734375 23.137939453125 16.884033203125
8.638671875 52.6402587890625 17.0860595703125
28.85888671875 -37.52880859375 3.43798828125
78.78955078125 -91.732421875 7.5650634765625
57.1103515625 -23.4678955078125 -7.6485595703125
0.681640625 -65.620361328125 11.047607421875
37.24609375 10.797607421875 -11.9918212890625
31.209716796875 -21.119140625 10.6483154296875
-17.956298828125 -47.3585205078125 10.3291015625
44.66259765625 -111.515380859375 -6.37939453125
-43.9208984375 -73.3184814453125 2.2686767578125
10.323486328125 -46.2890625 10.6907958984375
40.14892578125 -13.4254150390625 11.0926513671875
70.69970703125 3.2867431640625 3.4576416015625
-12.904052734375 35.990966796875 16.47802734375
89.6494140625 -58.927978515625 -4.0093994140625
-63.53759765625 -68.2225341796875 4.7127685546875
-52.579345703125 -81.4473876953125 14.7115478515625
39.9365234375 -35.8458251953125 10.8040771484375
-39.24609375 -37.2960205078125 11.3326416015625
-58.7841796875 -22.425537109375 10.7657470703125
-72.049072265625 1.7279052734375 12.697509765625
80.26904296875 -60.6136474609375 8.2122802734375
50.833984375 -111.062255859375 -1.7203369140625
46.3515625 40.4468994140625 -11.3197021484375
70.418701171875 30.09375 1.5301513671875
3.93505859375 62.500244140625 16.44189453125
46.104736328125 -79.2154541015625 -17.705322265625
46.75390625 79.9996337890625 1.8106689453125
-0.7646484375 9.3922119140625 16.462646484375
36.877685546875 15.1278076171875 16.2977294921875
51.676513671875 21.58154296875 -11.6102294921875
69.136962890625 -88.2789306640625 5.720703125
-3.201171875 57.0657958984375 16.1416015625
12.8662109375 -65.2698974609375 9.9315185546875
31.22705078125 10.9337158203125 16.29150390625
46.07666015625 -9.7451171875 -12.5184326171875
12.294921875 13.6651611328125 16.733154296875
4.753173828125 -84.1767578125 9.772705078125
-7.287109375 10.3326416015625 16.8707275390625
43.886962890625 -16.2210693359375 -14.4190673828125
51.884521484375 -103.0985107421875 -3.5333251953125
-101.157470703125 39.254150390625 13.459716796875
32.832275390625 52.8912353515625 -1.501220703125
-6.7158203125 37.894775390625 16.83544921875
-45.244140625 -7.7904052734375 10.755615234375
-62.605224609375 -11.04296875 10.731689453125
11.591064453125 -38.9281005859375 10.4207763671875
93.119140625 -67.4530029296875 -4.390380859375
-6.8251953125 -22.558349609375 10.4864501953125
-103.99267578125 42.469482421875 10.157470703125
6.727294921875 31.9530029296875 16.5162353515625
48.249267578125 45.9796142578125 -10.1519775390625
70.981201171875 -16.69921875 8.0863037109375
47.404296875 -40.60302734375 -12.107177734375
-32.474853515625 -37.361572265625 3.3988037109375
-58.848876953125 -72.0333251953125 5.7908935546875
43.86962890625 -55.5076904296875 -11.634765625
14.003173828125 -68.7008056640625 10.232666015625
-41.782470703125 -50.7723388671875 16.220703125
24.94921875 23.08740234375 17.2828369140625
-84.7919921875 45.8157958984375 14.192138671875
53.938232421875 -1.1029052734375 -12.376953125
42.971923828125 67.722900390625 -2.3095703125
-17.37255859375 -53.1392822265625 10.0234375
-31.638671875 -44.40283203125 10.822509765625
-49.08056640625 -50.307373046875 16.6800537109375
-11.433837890625 -40.0521240234375 -0.472900390625
49.11328125 -82.8294677734375 -17.8670654296875
-40.964599609375 -71.22900390625 15.4310302734375
33.36376953125 44.9119873046875 16.9620361328125
-63.601806640625 -6.5184326171875 10.7308349609375
79.076904296875 -4.8525390625 3.1475830078125
-5.338623046875 -42.6483154296875 10.7294921875
-41.4814453125 -57.6500244140625 16.255126953125
57.1298828125 -30.2310791015625 -9.4976806640625
-64.450439453125 -81.1204833984375 15.463134765625
-30.0107421875 -38.9532470703125 6.54541015625
31.9423828125 48.8758544921875 15.6268310546875
13.57568359375 46.6446533203125 16.7938232421875
9.541259765625 -91.3436279296875 10.207275390625
-71.697021484375 38.2060546875 9.3841552734375
76.60107421875 -87.2030029296875 4.2435302734375
-77.766357421875 13.3013916015625 12.1929931640625
56.020263671875 -83.508544921875 -16.027587890625
46.164794921875 33.781982421875 -11.360107421875
20.868896484375 -16.85205078125 10.79296875
18.23583984375 -68.4534912109375 10.0731201171875
-97.233154296875 52.0714111328125 6.0010986328125
-103.108642578125 53.7305908203125 9.0499267578125
69.686767578125 17.4498291015625 4.5616455078125
52.535888671875 -89.9287109375 -8.1026611328125
11.213134765625 -15.631103515625 10.20849609375
15.514892578125 52.890869140625 16.135498046875
-12.981201171875 -52.663818359375 10.8712158203125
9.01220703125 44.8006591796875 16.576416015625
45.756591796875 5.1373291015625 -11.80029296875
-33.705810546875 -50.6702880859375 15.2489013671875
14.3056640625 -77.4493408203125 9.7501220703125
68.899658203125 -22.6556396484375 5.432861328125
72.967529296875 -33.9822998046875 4.1397705078125
-90.551513671875 52.73046875 6.7857666015625
20.744140625 13.7236328125 16.9454345703125
-66.002685546875 -24.6629638671875 9.5283203125
-50.619384765625 -61.9410400390625 2.5484619140625
-10.26513671875 60.622802734375 16.1839599609375
5.563232421875 40.8797607421875 16.554443359375
73.40966796875 -28.853271484375 1.837646484375
59.83056640625 -88.4970703125 -12.9998779296875
18.212890625 60.31884765625 16.716552734375
22.876953125 -34.4854736328125 2.8568115234375
61.9833984375 -94.23046875 2.6640625
-100.183837890625 56.970703125 10.7913818359375
37.800537109375 -10.485595703125 11.5804443359375
-46.07568359375 -52.034912109375 16.9610595703125
-2.791748046875 -30.1434326171875 10.896240234375
49.93798828125 -39.8729248046875 -9.7650146484375
-56.28173828125 11.836669921875 10.7220458984375
50.396728515625 -69.7969970703125 -8.6298828125
-41.275390625 -16.847412109375 -26.396240234375
19.19091796875 89.3067626953125 22.210693359375
-37.579833984375 -18.238525390625 10.28662109375
-45.33984375 -66.2059326171875 1.65625
41.135498046875 -88.4976806640625 -3.498779296875
32.609130859375 -72.49951171875 9.8729248046875
16.525146484375 -62.30419921875 11.13623046875
48.56103515625 10.048583984375 -13.970703125
19.783935546875 83.7147216796875 24.726806640625
-7.98828125 16.0855712890625 16.764892578125
11.08349609375 86.2344970703125 25.4188232421875
18.675048828125 -57.2099609375 10.610595703125
-72.83642578125 -1.826904296875 18.652587890625
11.344482421875 50.650146484375 16.1505126953125
41.091552734375 -31.525390625 -12.197509765625
28.34375 -60.26220703125 10.47998046875
20.281982421875 -73.0213623046875 9.9903564453125
24.818359375 98.9783935546875 28.47998046875
-35.138916015625 -41.679931640625 3.209228515625
40.624755859375 51.7391357421875 -5.1798095703125
0.72265625 -84.08447265625 10.468017578125
3.201904296875 19.3033447265625 16.291015625
-95.69384765625 42.800048828125 9.9884033203125
33.053466796875 61.7138671875 0.5670166015625
26.49951171875 29.7864990234375 16.15869140625
-20.2421875 -20.9130859375 6.4267578125
10.083740234375 27.912353515625 16.3201904296875
-7.820068359375 53.584228515625 16.7071533203125
21.42138671875 55.60400390625 18.6041259765625
36.45458984375 -81.3189697265625 -10.6678466796875
3.084228515625 58.1590576171875 16.7718505859375
84.795654296875 -78.6580810546875 9.8719482421875
-78.29736328125 39.9388427734375 9.41162109375
39.965087890625 -14.7958984375 -13.3155517578125
71.2705078125 23.615966796875 2.9149169921875
-49.1142578125 -80.71923828125 9.6641845703125
27.31201171875 58.81396484375 17.0565185546875
56.8056640625 -94.6068115234375 -1.7142333984375
49.64794921875 -58.0518798828125 -9.2337646484375
-53.129638671875 9.43701171875 11.033203125
73.3095703125 -44.6273193359375 4.0213623046875
-81.953857421875 25.5628662109375 10.960693359375
1.792724609375 -17.187744140625 10.5867919921875
7.8408203125 -34.01220703125 10.4930419921875
-8.142822265625 -15.686279296875 10.376220703125
41.272216796875 46.946044921875 -7.3065185546875
20.357177734375 -37.3272705078125 6.843505859375
96.711669921875 -72.0413818359375 -4.417724609375
-8.289794921875 -41.0528564453125 10.8997802734375
3.287353515625 -89.8294677734375 9.605224609375
15.33837890625 -58.6644287109375 10.382568359375
21.76318359375 19.8890380859375 18.6209716796875
60.078857421875 50.7308349609375 14.74853515625
48.990234375 -108.1190185546875 -5.926025390625
67.02587890625 -44.342041015625 7.644775390625
-94.347900390625 50.9501953125 9.1531982421875
3.008544921875 -44.5836181640625 10.219482421875
54.572265625 -118.094482421875 -0.357421875
-70.412353515625 14.6165771484375 11.3453369140625
43.398193359375 19.562744140625 -14.6260986328125
57.72314453125 -78.358642578125 -16.0108642578125
-61.640869140625 -65.3763427734375 2.3629150390625
25.861572265625 80.6744384765625 25.4149169921875
95.1455078125 -74.0687255859375 1.336181640625
23.402587890625 1.3323974609375 17.30419921875
59.640380859375 -40.5821533203125 -11.1446533203125
-24.3427734375 30.256591796875 17.3565673828125
51.3916015625 -54.2022705078125 -9.5638427734375
9.270751953125 -60.768798828125 10.450439453125
6.028076171875 37.4053955078125 16.412109375
11.974853515625 4.3609619140625 16.2939453125
4.321533203125 -26.9647216796875 10.7615966796875
-0.1708984375 -51.9510498046875 10.2750244140625
-10.86572265625 48.9034423828125 16.537841796875
48.52001953125 -24.3292236328125 -10.2235107421875
12.322021484375 59.3018798828125 16.183837890625
18.200439453125 -84.9989013671875 9.696044921875
-43.766357421875 -77.3944091796875 13.8876953125
77.767333984375 -49.3846435546875 0.04833984375
14.29443359375 65.1055908203125 16.167236328125
21.723388671875 49.408203125 16.7850341796875
17.536865234375 11.9398193359375 16.65625
66.650390625 -51.5771484375 10.15771484375
2.8720703125 -56.3466796875 10.697509765625
69.64208984375 28.7313232421875 5.051513671875
52.805908203125 -22.1241455078125 -12.356201171875
45.08251953125 -27.1734619140625 -13.3668212890625
71.936279296875 -5.0487060546875 2.7706298828125
-37.78076171875 -41.161865234375 8.5526123046875
87.0673828125 -71.056640625 -3.927734375
42.578369140625 -60.42626953125 -8.27685546875
-91.50146484375 45.3670654296875 9.801513671875
54.180908203125 -26.48193359375 -11.6458740234375
-21.914794921875 4.3359375 16.9669189453125
-12.808837890625 -39.4769287109375 7.614990234375
35.494873046875 -88.16650390625 -7.9923095703125
7.740478515625 25.216552734375 16.9805908203125
-51.28173828125 -68.361328125 4.2530517578125
70.1796875 9.3294677734375 5.718994140625
42.002685546875 -49.3153076171875 -10.7286376953125
83.96240234375 -47.76416015625 -0.1484375
53.27392578125 5.519775390625 -13.1036376953125
77.05615234375 -49.912841796875 7.40576171875
84.029541015625 -61.212646484375 -2.8272705078125
40.14013671875 89.2774658203125 10.727294921875
-54.549560546875 -79.4400634765625 3.8409423828125
41.443603515625 -28.60693359375 10.769287109375
-88.201904296875 42.98046875 13.449951171875
-55.42333984375 -68.8773193359375 3.988525390625
-65.647705078125 1.0438232421875 11.941162109375
38.1953125 -18.06591796875 10.893310546875
-65.3662109375 8.0655517578125 11.711669921875
46.002197265625 -85.8055419921875 -17.9591064453125
-59.368408203125 -79.4305419921875 2.976806640625
25.708740234375 -92.9638671875 9.6334228515625
95.550537109375 -82.221435546875 -0.326904296875
33.73193359375 -14.7364501953125 10.5533447265625
39.76806640625 61.964111328125 -0.994873046875
24.2724609375 -63.9937744140625 10.2073974609375
54.574951171875 -92.1319580078125 -16.9530029296875
-45.781494140625 -79.74951171875 8.56591796875
80.380126953125 -64.7982177734375 2.5927734375
10.68798828125 88.0770263671875 28.04248046875
59.969482421875 -93.200439453125 -6.920654296875
82.829345703125 -67.3380126953125 -2.521728515625
22.934326171875 -19.779296875 10.9251708984375
-57.15673828125 -5.8929443359375 11.0179443359375
-62.60888671875 -2.8612060546875 11.5615234375
-41.53076171875 -17.756591796875 10.1817626953125
15.845458984375 -33.945556640625 10.798583984375
-38.77099609375 -67.778564453125 16.04931640625
25.771240234375 53.4765625 20.154541015625
-43.72607421875 -39.52294921875 10.7308349609375
30.631103515625 31.595458984375 16.3988037109375
84.55517578125 -76.1419677734375 5.37646484375
-47.35693359375 -3.0577392578125 10.947021484375
29.9794921875 23.4383544921875 16.46142578125
51.21435546875 -29.325927734375 -12.258056640625
14.638671875 87.4398193359375 27.3812255859375
46.2900390625 68.1865234375 -3.6597900390625
-53.31103515625 -81.9619140625 8.8675537109375
24.42236328125 -50.054443359375 11.0947265625
15.16650390625 89.5631103515625 22.4638671875
1.953857421875 -37.134521484375 10.6678466796875
27.55078125 41.3621826171875 16.05615234375
75.03173828125 -12.6669921875 0.9071044921875
-18.810791015625 2.1669921875 16.9041748046875
-21.44482421875 19.40283203125 17.35205078125
34.07421875 57.655029296875 -3.159912109375
-69.28076171875 35.9940185546875 9.385986328125
78.9619140625 -64.67529296875 -4.74658203125
20.58251953125 -78.884765625 9.81005859375
-20.463134765625 63.0059814453125 16.81689453125
73.640380859375 -62.493408203125 10.0194091796875
98.715576171875 -86.095947265625 -2.2056884765625
72.444580078125 -88.6962890625 0.9317626953125
23.69873046875 -80.8245849609375 9.6324462890625
41.282470703125 -38.2861328125 -11.6715087890625
87.50146484375 -92.8153076171875 -4.4708251953125
23.933837890625 9.2850341796875 16.75634765625
-75.0830078125 36.15625 9.510009765625
68.142333984375 35.184326171875 4.826416015625
-41.359619140625 -21.10791015625 -28.6917724609375
-19.2685546875 25.5987548828125 17.05908203125
87.86279296875 -52.2603759765625 0.2401123046875
49.315185546875 -64.385009765625 -9.248779296875
13.86767578125 -27.55078125 10.8638916015625
10.4814453125 19.9827880859375 16.5760498046875
17.228759765625 80.23876953125 25.547119140625
-41.170166015625 -24.7210693359375 10.7171630859375
-13.0380859375 15.67822265625 16.838623046875
47.66259765625 -34.1224365234375 -12.3232421875
27.205810546875 -20.951171875 10.7825927734375
38.390380859375 10.8731689453125 16.3369140625
26.65625 17.931884765625 18.9432373046875
56.420166015625 -67.0029296875 -7.5899658203125
21.873046875 -85.5965576171875 9.5789794921875
29.89111328125 -49.62841796875 10.5137939453125
14.660400390625 -40.140625 10.81640625
46.44775390625 -5.6929931640625 -11.8701171875
18.847412109375 55.1983642578125 16.1746826171875
81.55419921875 -30.6162109375 0.302490234375
17.5908203125 -17.2276611328125 10.8858642578125
-77.498046875 23.5966796875 10.5841064453125
-56.756591796875 -63.78369140625 1.5777587890625
48.947509765625 -118.92138671875 -2.1527099609375
-0.33349609375 5.0491943359375 16.9461669921875
-0.765380859375 -26.240234375 10.9605712890625
27.967041015625 -15.456787109375 10.80615234375
-4.116455078125 17.1015625 16.7635498046875
83.890380859375 -87.77685546875 9.3165283203125
39.161376953125 74.71142578125 3.14111328125
38.0419921875 81.7657470703125 6.734619140625
-28.44091796875 -47.844970703125 10.662109375
75.778076171875 -89.8900146484375 6.19580078125
37.327392578125 45.6800537109375 16.5819091796875
39.8837890625 -20.4813232421875 -11.119873046875
24.59130859375 -31.3353271484375 5.9158935546875
-76.009033203125 18.227294921875 11.1705322265625
-19.83154296875 -42.8236083984375 10.7364501953125
38.658935546875 -80.2203369140625 -13.56005859375
-67.89111328125 -14.46533203125 11.3514404296875
-14.1748046875 12.15283203125 17.0511474609375
-40.17578125 -44.3251953125 10.6824951171875
7.490478515625 -77.289306640625 9.7386474609375
76.68701171875 -65.19970703125 10.187255859375
44.714111328125 -62.1456298828125 -11.3768310546875
46.527587890625 -57.8326416015625 -11.627685546875
-34.972900390625 -46.9676513671875 10.3858642578125
62.852294921875 44.492919921875 16.1348876953125
89.767578125 -73.148681640625 -3.621337890625
77.477783203125 -76.6292724609375 9.98388671875
-39.12548828125 -32.941162109375 8.7418212890625
75.0537109375 9.90771484375 2.6109619140625
-51.214111328125 -20.8035888671875 10.491943359375
-44.40625 -76.427734375 9.078125
95.01806640625 -61.5357666015625 -3.6370849609375
-99.869873046875 40.1246337890625 10.665771484375
70.008544921875 -57.132080078125 10.3287353515625
83.108642578125 -70.150146484375 6.979248046875
90.536376953125 -104.158935546875 -8.505615234375
49.701904296875 -121.63037109375 0.2327880859375
38.970947265625 -91.5906982421875 3.2301025390625
48.137939453125 49.4110107421875 -11.3223876953125
35.267578125 -26.9210205078125 10.9117431640625
83.26416015625 -53.6607666015625 -1.244384765625
7.813720703125 -83.8089599609375 9.79345703125
39.27978515625 -86.4232177734375 -14.52294921875
-3.133056640625 -21.962158203125 10.714599609375
44.736083984375 57.6480712890625 -6.19091796875
75.85107421875 -58.1201171875 -3.9151611328125
42.876953125 -109.2698974609375 -4.6751708984375
32.902099609375 60.78564453125 17.3524169921875
55.526123046875 -45.075439453125 -10.309326171875
81.38232421875 -56.362548828125 -1.85888671875
30.318603515625 -57.5006103515625 10.55712890625
70.87353515625 -15.9315185546875 5.112548828125
9.631103515625 30.98779296875 16.7149658203125
-22.3671875 24.2076416015625 16.639404296875
93.432373046875 -70.521240234375 -3.580078125
4.594482421875 -47.5572509765625 10.036865234375
70.172607421875 -4.4166259765625 5.505126953125
-29.204833984375 -28.977294921875 11.1685791015625
15.390625 -46.76513671875 10.8333740234375
94.5966796875 -90.5538330078125 -16.9522705078125
-15.10546875 -46.3040771484375 10.5909423828125
51.65380859375 -6.7440185546875 -13.0845947265625
53.388427734375 -33.2904052734375 -11.7261962890625
-16.01708984375 17.130126953125 19.256103515625
5.15869140625 6.262939453125 16.5941162109375
4.861572265625 -22.4449462890625 10.916748046875
37.54345703125 23.059814453125 16.11083984375
-3.179443359375 -40.5177001953125 10.4534912109375
39.40576171875 55.1748046875 -5.17724609375
80.690673828125 -23.6456298828125 1.062744140625
81.98583984375 -64.083251953125 -2.4195556640625
-26.144287109375 -23.650390625 0.667724609375
83.533447265625 -82.6832275390625 9.75244140625
39.701171875 -57.3382568359375 10.416748046875
-70.606689453125 -2.67236328125 12.3060302734375
10.08544921875 -22.201904296875 10.7000732421875
51.927001953125 -62.8675537109375 -8.9219970703125
66.837890625 37.0166015625 16.0191650390625
56.4677734375 -50.452880859375 -8.68603515625
-49.639892578125 -77.42626953125 3.8023681640625
-54.2705078125 -11.398193359375 10.4390869140625
32.785400390625 19.3751220703125 16.169921875
36.805908203125 78.7872314453125 4.2625732421875
-26.39453125 9.260498046875 17.837890625
37.781982421875 17.765869140625 -12.4661865234375
-77.3916015625 42.8292236328125 8.93994140625
-84.74658203125 50.380615234375 6.08984375
-83.572265625 45.152587890625 10.8992919921875
29.786865234375 83.1380615234375 22.2059326171875
64.26025390625 -46.9725341796875 9.9288330078125
14.1435546875 -88.111328125 12.963623046875
32.171142578125 8.09814453125 16.735595703125
8.707763671875 -74.0250244140625 10.068359375
22.726806640625 51.7255859375 18.785400390625
35.296142578125 -90.9356689453125 -2.853271484375
23.781494140625 -38.5277099609375 4.5780029296875
-34.40625 -39.005126953125 5.0189208984375
35.433349609375 44.3521728515625 -7.1094970703125
-56.994140625 -17.3153076171875 9.7645263671875
7.1650390625 -16.5081787109375 10.948486328125
-31.642578125 -51.7100830078125 13.0714111328125
-5.50537109375 -51.2275390625 10.4925537109375
6.724365234375 55.972412109375 16.292236328125
-22.790771484375 34.5482177734375 16.60791015625
-29.003173828125 -36.12841796875 6.5472412109375
47.905517578125 -94.7098388671875 -8.50390625
44.1474609375 -117.200439453125 -5.7840576171875
-48.883056640625 -80.923828125 13.5899658203125
78.22998046875 -27.1019287109375 0.3438720703125
88.4228515625 -76.688232421875 -4.334228515625
-49.0966796875 -38.7130126953125 11.0626220703125
78.879638671875 -94.5054931640625 8.6864013671875
-37.861328125 -36.026611328125 2.481201171875
39.246826171875 -49.990966796875 10.26806640625
-72.33447265625 18.6466064453125 10.447998046875
53.939453125 -107.108642578125 -2.5284423828125
35.575927734375 28.9447021484375 -8.2901611328125
77.376953125 -49.41455078125 3.366455078125
-19.41845703125 14.5322265625 16.630615234375
65.8115234375 -92.746826171875 8.1785888671875
-9.718505859375 -23.2030029296875 10.20947265625
39.207763671875 12.7193603515625 -14.022216796875
14.582763671875 15.5455322265625 16.457763671875
-3.9462890625 10.64501953125 16.6580810546875
-69.78076171875 20.6107177734375 11.58544921875
18.556640625 67.1849365234375 16.5433349609375
48.343017578125 -17.12841796875 -11.0924072265625
26.63623046875 13.6473388671875 16.9473876953125
11.453125 81.3214111328125 25.3734130859375
-19.951171875 8.2705078125 16.6988525390625
90.780029296875 -86.7620849609375 -4.2747802734375
-23.39599609375 -6.3546142578125 15.0694580078125
27.2548828125 24.9052734375 16.8814697265625
13.0439453125 27.828125 16.2591552734375
-69.959228515625 40.8272705078125 8.6192626953125
-61.785400390625 -77.6375732421875 4.3739013671875
42.0439453125 -5.189697265625 -14.4326171875
9.1826171875 -96.3363037109375 9.6339111328125
84.454833984375 -42.16357421875 0.4132080078125
94.619384765625 -85.8687744140625 -6.1510009765625
-10.89306640625 -36.686279296875 8.2540283203125
-16.39697265625 -2.047607421875 20.18994140625
-72.37109375 -65.083984375 16.921875
-93.68603515625 37.2589111328125 9.949951171875
49.4384765625 -99.2061767578125 -6.188232421875
32.671142578125 -39.0557861328125 10.82421875
57.494384765625 -54.4454345703125 -7.7706298828125
-71.848388671875 46.5225830078125 8.7723388671875
-67.0322265625 -63.0206298828125 15.439453125
34.51953125 51.017578125 -5.3829345703125
-20.148193359375 -1.6220703125 19.3240966796875
-44.55908203125 -47.817138671875 12.257080078125
-62.53759765625 28.1396484375 9.80419921875
86.7177734375 -49.015625 0.8297119140625
-12.313232421875 0.7728271484375 17.232177734375
12.729736328125 -51.7010498046875 10.3636474609375
47.197509765625 -0.76513671875 -12.064208984375
19.382568359375 27.296630859375 16.3638916015625
56.806640625 -20.5509033203125 -7.702392578125
-81.050537109375 29.0157470703125 10.609130859375
-69.50439453125 -68.4146728515625 15.987548828125
85.8759765625 -87.5306396484375 -3.6212158203125
40.871337890625 -22.024169921875 10.9918212890625
34.9658203125 52.20703125 18.1439208984375
-0.956787109375 39.963623046875 16.716064453125
46.69189453125 -89.8216552734375 -18.2559814453125
39.337158203125 -44.920166015625 10.7978515625
47.44677734375 61.8909912109375 -6.5850830078125
-58.211181640625 14.0321044921875 10.8154296875
-21.6435546875 -49.27587890625 10.1334228515625
-65.203369140625 -75.155029296875 8.2100830078125
55.446533203125 -60.5098876953125 -8.674072265625
6.84423828125 -52.0166015625 10.3988037109375
12.989013671875 -73.278076171875 10.010498046875
35.978759765625 60.6009521484375 -1.850341796875
9.1982421875 15.888671875 16.796630859375
-18.255126953125 53.537109375 21.1060791015625
-48.975341796875 -43.83984375 11.8065185546875
55.663818359375 -93.046875 -12.9940185546875
-45.805908203125 -23.1456298828125 10.759765625
53.41455078125 -18.624755859375 -12.276611328125
-65.7890625 -23.0255126953125 13.777587890625
37.92236328125 2.9810791015625 -10.7703857421875
-7.53125 30.1702880859375 16.1680908203125
-73.240478515625 42.4588623046875 8.5577392578125
44.319091796875 10.3804931640625 -13.0146484375
42.21728515625 -82.090576171875 -16.313232421875
17.640869140625 -41.8992919921875 11.106689453125
-33.0986328125 -27.7879638671875 10.7061767578125
33.944091796875 87.3143310546875 13.116943359375
15.01416015625 -94.418701171875 9.56640625
48.638916015625 -121.709716796875 -2.89208984375
53.18994140625 -96.391845703125 -4.826171875
80.857177734375 -37.06640625 -0.5823974609375
78.7587890625 -63.886474609375 -1.5521240234375
97.365478515625 -95.6136474609375 -14.7957763671875
1.438232421875 42.2596435546875 16.8096923828125
50.21826171875 34.892822265625 -10.701904296875
76.515625 -1.6339111328125 1.9544677734375
4.310546875 -30.4293212890625 10.6807861328125
-75.69921875 29.1055908203125 10.1444091796875
-15.986572265625 1.5660400390625 16.8505859375
65.726806640625 -93.460205078125 1.9805908203125
-10.567138671875 -16.89404296875 11.369873046875
13.3427734375 -17.51708984375 9.737548828125
36.24072265625 38.4481201171875 16.026611328125
70.81005859375 -9.991943359375 3.6212158203125
1.51904296875 30.978271484375 16.5972900390625
-11.87646484375 -49.131591796875 10.646484375
28.109130859375 -27.1849365234375 11.7220458984375
45.009521484375 0.31298828125 -13.8939208984375
21.024169921875 44.3668212890625 16.202880859375
-8.61328125 -36.3922119140625 10.753662109375
-40.7978515625 -47.9013671875 10.8831787109375
23.48046875 56.7440185546875 16.6539306640625
18.626220703125 -48.83447265625 10.6474609375
-13.49267578125 -27.2337646484375 -2.5479736328125
50.916259765625 55.9029541015625 -6.18017578125
-67.558837890625 14.072021484375 12.01318359375
41.620361328125 -91.3614501953125 -11.5166015625
26.730224609375 -12.78857421875 10.9814453125
16.273193359375 40.292724609375 16.64404296875
-40.970458984375 -27.6187744140625 10.7423095703125
36.453857421875 -77.4556884765625 -10.0521240234375
32.3125 93.1441650390625 15.3260498046875
37.71435546875 48.3861083984375 -6.9903564453125
51.355712890625 -80.6800537109375 -17.786865234375
-24.075927734375 13.247802734375 16.9324951171875
-24.835693359375 51.2662353515625 17.154052734375
33.4169921875 27.0294189453125 16.2349853515625
-62.563720703125 -76.5924072265625 10.8968505859375
-17.814208984375 37.9583740234375 16.7784423828125
71.30078125 7.76416015625 2.51708984375
43.7275390625 73.414794921875 -0.0618896484375
1.337158203125 -31.93017578125 10.5360107421875
-9.146484375 -33.1182861328125 6.5997314453125
62.966064453125 -46.472412109375 -3.5546875
-72.770263671875 0.895751953125 17.5433349609375
25.436279296875 69.3416748046875 16.364501953125
42.501220703125 -57.4443359375 -9.2213134765625
-52.617431640625 -31.8243408203125 10.6197509765625
71.374267578125 -53.9744873046875 10.221435546875
-48.98486328125 -65.624755859375 2.418701171875
17.572998046875 9.102294921875 16.415771484375
44.171142578125 7.373291015625 -13.4881591796875
39.046142578125 -91.836181640625 0.009765625
-70.737060546875 -71.04296875 15.98095703125
-5.455078125 -47.0723876953125 10.4423828125
11.936767578125 36.68994140625 16.295166015625
-87.908935546875 36.559326171875 9.83544921875
70.033447265625 -48.355224609375 10.153076171875
43.68310546875 -46.1036376953125 -12.674560546875
43.19580078125 -46.7401123046875 9.6429443359375
74.783447265625 -22.952880859375 1.19677734375
34.4287109375 6.3759765625 16.59716796875
93.415771484375 -95.5386962890625 -6.5958251953125
38.81591796875 -24.932373046875 11.025634765625
-20.98046875 -24.5565185546875 2.1748046875
24.13916015625 -53.88916015625 10.231201171875
61.021240234375 -49.5997314453125 -8.0146484375
93.9560546875 -75.5960693359375 -1.7625732421875
70.24951171875 -9.78125 6.51513671875
42.495849609375 -41.75927734375 -12.517333984375
-14.556884765625 -29.375732421875 0.3880615234375
42.32275390625 -90.1514892578125 -5.4388427734375
36.995361328125 -91.9097900390625 -8.502685546875
30.341552734375 66.5531005859375 15.93212890625
81.420654296875 -72.3477783203125 9.8193359375
-18.897216796875 55.548095703125 16.8846435546875
44.61279296875 -91.67822265625 -17.946044921875
81.62109375 -88.6053466796875 7.1351318359375
14.981689453125 18.4925537109375 16.7962646484375
-46.11767578125 -34.2806396484375 10.6981201171875
40.12060546875 5.6820068359375 -14.316650390625
-82.77197265625 44.73388671875 7.90380859375
27.6318359375 -42.232666015625 9.5498046875
-18.974853515625 -50.0601806640625 10.4271240234375
60.978759765625 -81.54541015625 -12.1483154296875
-2.601806640625 20.006103515625 16.406005859375
55.878662109375 -38.2479248046875 -10.637451171875
6.157958984375 -60.7913818359375 10.309814453125
52.282470703125 -77.364990234375 -17.9727783203125
-43.90673828125 -42.3089599609375 10.77978515625
43.43017578125 -24.640625 -13.89404296875
66.74560546875 31.697509765625 7.19482421875
55.39306640625 -99.917236328125 -3.623046875
79.303955078125 -58.0264892578125 8.5965576171875
38.985595703125 -5.157470703125 13.89404296875
-36.056884765625 -61.759521484375 15.7161865234375
-85.943359375 30.8748779296875 12.1124267578125
28.624755859375 35.3614501953125 16.8970947265625
46.2080078125 -103.29736328125 -7.6322021484375
77.942138671875 -11.447265625 1.882568359375
22.93212890625 -25.7568359375 10.859619140625
-11.873046875 10.332275390625 16.791259765625
1.966796875 11.186279296875 16.7757568359375
95.997802734375 -94.845458984375 -4.654052734375
40.8173828125 40.221435546875 -9.1600341796875
18.96435546875 -63.35107421875 10.3125
75.8662109375 -57.352294921875 10.189453125
40.469482421875 15.492431640625 -13.8453369140625
-24.899169921875 48.420166015625 19.08935546875
20.09228515625 -92.56787109375 9.3310546875
44.521728515625 -93.25390625 -8.326416015625
-96.588134765625 36.987548828125 10.871826171875
34.724609375 -66.2415771484375 9.9036865234375
-50.967529296875 -81.1676025390625 3.9691162109375
-44.513671875 -77.2314453125 2.9320068359375
29.196044921875 -10.0694580078125 11.2818603515625
39.0126953125 86.0069580078125 9.2437744140625
-46.427978515625 -26.6441650390625 10.6146240234375
22.822509765625 80.171630859375 26.822509765625
84.591064453125 -75.9969482421875 -2.03125
-98.139404296875 48.31787109375 9.9322509765625
38.3857421875 -3.7823486328125 -11.5179443359375
-68.846435546875 -8.1717529296875 11.0892333984375
34.241455078125 77.2615966796875 3.2908935546875
23.921142578125 59.610107421875 17.2686767578125
29.479736328125 78.3504638671875 24.230712890625
43.071533203125 80.9718017578125 2.802978515625
3.939208984375 -94.7850341796875 10.6019287109375
94.47412109375 -93.8428955078125 -13.4200439453125
49.08203125 39.8487548828125 -11.957275390625
85.823974609375 -82.367919921875 -2.31640625
74.7001953125 -36.705810546875 1.7557373046875
-23.326416015625 64.1204833984375 18.0284423828125
28.770751953125 64.0770263671875 16.430419921875
29.603515625 -69.6405029296875 10.0362548828125
-62.072265625 -16.6480712890625 10.5445556640625
5.245849609375 -42.847412109375 10.7486572265625
25.0185546875 92.8126220703125 28.5562744140625
67.549560546875 -59.5068359375 10.15576171875
-66.374267578125 36.472900390625 8.7039794921875
35.683837890625 -60.506591796875 10.357177734375
-51.344970703125 -79.659912109375 8.486328125
24.086669921875 -57.09765625 10.265625
32.47216796875 -1.5084228515625 16.4927978515625
-27.70556640625 -34.48291015625 10.907958984375
58.10693359375 -87.52490234375 -14.886474609375
-23.08203125 -29.4033203125 9.3936767578125
19.776611328125 -22.532958984375 11.1495361328125
33.23193359375 -43.3563232421875 10.82470703125
44.702880859375 48.9482421875 -8.79052734375
26.269287109375 84.1903076171875 25.2724609375
-16.137939453125 -24.31103515625 -0.6417236328125
-23.18896484375 40.4227294921875 16.347412109375
49.040771484375 -114.2821044921875 -3.9166259765625
42.771240234375 -40.7203369140625 10.7791748046875
20.15771484375 16.457275390625 16.3514404296875
-3.468994140625 27.815673828125 16.675048828125
44.599853515625 78.790771484375 0.55810546875
-24.02978515625 -45.8150634765625 10.3553466796875
86.388671875 -54.318359375 -0.7591552734375
-67.774658203125 -11.75439453125 11.657470703125
-21.494140625 60.531494140625 17.2818603515625
-73.5654296875 31.53564453125 9.8497314453125
78.265380859375 -59.9581298828125 -0.4786376953125
41.30517578125 -88.944580078125 -15.0787353515625
70.6318359375 11.928466796875 3.715087890625
77.564697265625 -54.75048828125 0.375
23.468017578125 18.3082275390625 20.025390625
39.541015625 25.0711669921875 -13.2669677734375
63.31884765625 -93.9207763671875 -3.1044921875
25.4462890625 92.9964599609375 24.8228759765625
28.09521484375 71.2119140625 17.77099609375
-86.865966796875 47.414794921875 12.8121337890625
51.5146484375 -0.1826171875 -13.1611328125
-89.8232421875 46.1363525390625 14.5087890625
45.248046875 42.1158447265625 -9.4954833984375
-77.60400390625 34.8050537109375 9.8140869140625
-44.67138671875 -17.47021484375 10.4949951171875
-10.77392578125 4.197265625 16.9967041015625
36.517578125 34.259521484375 -9.679931640625
8.59130859375 64.884765625 16.5283203125
39.609130859375 10.04833984375 -14.078857421875
-1.105224609375 25.8056640625 16.9102783203125
-26.167236328125 -25.08837890625 10.579345703125
85.07568359375 -107.5992431640625 -5.46240234375
81.504150390625 -82.8448486328125 7.979736328125
-34.407470703125 -70.80859375 16.3583984375
-34.61865234375 -32.0279541015625 5.470703125
1.728271484375 16.9293212890625 16.6431884765625
-70.899169921875 -75.0963134765625 15.8106689453125
89.914306640625 -63.02001953125 -2.6160888671875
75.72900390625 -45.339599609375 3.0743408203125
-38.19189453125 -50.13720703125 11.7659912109375
36.2021484375 -52.1197509765625 10.479736328125
48.607177734375 52.0350341796875 -10.940673828125
37.45849609375 7.234619140625 16.404052734375
-2.46435546875 63.953369140625 16.7105712890625
-38.8388671875 -57.96630859375 15.8623046875
-60.980224609375 -74.03173828125 1.8848876953125
51.830810546875 11.72265625 -13.196044921875
-34.080810546875 -53.427001953125 18.048583984375
42.55712890625 57.905029296875 -4.0814208984375
26.220458984375 89.0677490234375 23.93896484375
-34.784912109375 -17.9276123046875 10.104248046875
-7.81982421875 4.7188720703125 17.0526123046875
-40.757568359375 -13.959228515625 11.961181640625
0.72705078125 -90.19189453125 10.318359375
35.74609375 -12.5008544921875 10.8856201171875
36.333251953125 31.2054443359375 -10.65185546875
70.54931640625 -92.526611328125 8.75732421875
-9.890869140625 36.11865234375 16.6651611328125
-14.431884765625 -0.6802978515625 17.9825439453125
94.5517578125 -86.5654296875 -3.1202392578125
0.626220703125 34.7725830078125 16.511474609375
3.25830078125 -71.4541015625 9.7178955078125
26.716064453125 -70.9342041015625 10.0079345703125
18.633056640625 49.2677001953125 16.594482421875
28.356689453125 46.938232421875 16.63037109375
-59.876220703125 -12.4327392578125 10.928466796875
-58.749755859375 -66.866455078125 2.2120361328125
68.1513671875 37.697265625 0.7001953125
31.4921875 -33.3192138671875 10.7340087890625
43.475830078125 -78.517578125 -16.734130859375
58.085693359375 -91.8238525390625 -8.19970703125
-47.42578125 -48.25830078125 16.329345703125
59.052978515625 -81.47900390625 -14.1162109375
11.71533203125 -87.35888671875 11.2342529296875
73.665283203125 -6.9599609375 1.0255126953125
-70.663818359375 -13.456298828125 9.9976806640625
25.80859375 55.7818603515625 21.4630126953125
-70.64208984375 7.7947998046875 11.93212890625
18.888671875 -52.633056640625 10.552734375
73.030517578125 -2.2984619140625 1.70947265625
16.886474609375 64.243896484375 16.5277099609375
-56.84765625 -79.560546875 2.1787109375
69.355712890625 -88.4200439453125 8.3551025390625
16.180908203125 28.35986328125 16.940673828125
-64.356201171875 13.2901611328125 11.0972900390625
-69.88916015625 -78.057861328125 15.9981689453125
-26.895751953125 -18.4302978515625 9.6077880859375
88.0810546875 -108.342041015625 -7.304931640625
50.671875 48.67236328125 -8.4405517578125
-5.199951171875 49.4420166015625 16.5604248046875
-90.695556640625 43.735107421875 11.7447509765625
74.38720703125 15.6435546875 2.45556640625
17.462890625 -27.9268798828125 11.1085205078125
10.709716796875 -66.7626953125 9.63623046875
17.35791015625 82.7525634765625 24.3338623046875
31.938720703125 60.3658447265625 14.2919921875
-31.75048828125 -50.5445556640625 10.6805419921875
-0.32080078125 -21.969482421875 10.7708740234375
81.86279296875 -66.1319580078125 9.636962890625
47.072509765625 24.096435546875 -11.852783203125
-35.011474609375 -36.4056396484375 4.6702880859375
-18.305419921875 -37.307373046875 9.1942138671875
-50.97509765625 -71.716796875 6.58251953125
-13.93310546875 18.89306640625 17.5003662109375
-82.37646484375 42.90283203125 10.240234375
43.72021484375 -71.6318359375 -10.2769775390625
-41.1552734375 -10.5006103515625 14.555908203125
37.420654296875 28.415771484375 15.978759765625
-49.614013671875 -66.9891357421875 5.750732421875
-53.107666015625 -84.5771484375 15.2171630859375
86.8017578125 -58.073974609375 -2.1748046875
-14.498779296875 -40.4261474609375 10.9427490234375
57.849609375 -64.839599609375 -6.3299560546875
-10.127197265625 56.9334716796875 16.5802001953125
-22.653076171875 -34.8048095703125 10.5899658203125
92.259765625 -58.5628662109375 -4.7388916015625
81.399658203125 -63.5682373046875 7.25390625
50.650146484375 2.5115966796875 -13.6441650390625
51.517333984375 27.562744140625 -10.942138671875
-21.16064453125 38.6170654296875 16.8604736328125
13.70361328125 -58.6585693359375 12.420166015625
-13.777587890625 49.7652587890625 16.8455810546875
-59.743896484375 -69.213134765625 7.4251708984375
-55.130126953125 -82.4619140625 3.0933837890625
-16.272216796875 7.70751953125 16.71435546875
39.981201171875 -91.8785400390625 -13.7606201171875
9.4482421875 3.3446044921875 16.948974609375
-59.9892578125 1.3740234375 11.8140869140625
-50.344482421875 -26.4776611328125 10.74658203125
-23.758056640625 -2.5997314453125 16.63623046875
-2.806884765625 -37.1552734375 10.5081787109375
75.152587890625 -88.3062744140625 2.3828125
75.490478515625 -41.8792724609375 2.583740234375
-57.15478515625 -29.1593017578125 10.8719482421875
-14.07666015625 -33.7841796875 1.58056640625
30.542724609375 88.9840087890625 16.119140625
-43.834228515625 -44.0826416015625 13.653076171875
-42.13232421875 -75.0418701171875 3.052490234375
25.266357421875 -78.1041259765625 9.8372802734375
47.459716796875 -91.663818359375 -13.12451171875
17.3291015625 42.5860595703125 16.059326171875
78.39794921875 -85.880859375 5.7645263671875
70.128662109375 -27.6923828125 5.997802734375
43.59375 17.1312255859375 -13.751953125
-66.356689453125 3.5325927734375 11.834716796875
20.28955078125 -32.326171875 9.8006591796875
81.628662109375 -67.8404541015625 0.7730712890625
34.075927734375 -48.18408203125 10.6961669921875
-73.743896484375 12.0115966796875 11.9537353515625
46.12841796875 -20.799560546875 -13.302978515625
49.784423828125 -105.317138671875 -4.5972900390625
16.121337890625 3.9599609375 16.5252685546875
-23.6494140625 55.6240234375 16.92822265625
-18.59716796875 -16.5010986328125 11.0506591796875
35.781982421875 12.8316650390625 16.746337890625
84.638916015625 -44.766357421875 0.1005859375
51.929443359375 14.2535400390625 -12.6986083984375
38.814697265625 -1.6021728515625 -13.204345703125
0.1220703125 21.411865234375 16.8505859375
51.62548828125 -49.39599609375 -10.5880126953125
77.057861328125 -8.3243408203125 2.6070556640625
-6.37060546875 60.14453125 16.3272705078125
-68.9599609375 9.8756103515625 11.3179931640625
-9.981201171875 30.3038330078125 16.9500732421875
72.333251953125 -23.36962890625 3.2274169921875
36.730224609375 38.987060546875 -9.9405517578125
24.7568359375 63.6298828125 16.5543212890625
25.8203125 -87.0040283203125 9.5631103515625
