-17.561767578125 -108.4937744140625 -20.7484130859375
-3.437744140625 -110.1524658203125 -20.8919677734375
-3.17626953125 -126.5863037109375 -20.5865478515625
-52.624755859375 -134.212646484375 -18.83984375
-81.4375 -68.4415283203125 -25.1165771484375
-66.081787109375 -134.8021240234375 -18.256591796875
-74.623046875 -59.3575439453125 -29.603271484375
-88.5859375 -37.07861328125 -8.0833740234375
-8.35400390625 -80.1905517578125 -19.768798828125
-91.03173828125 -53.0628662109375 -12.203369140625
-31.5087890625 -122.2227783203125 -21.0008544921875
-0.966552734375 -121.2969970703125 -20.9664306640625
-9.43603515625 -126.8270263671875 -20.6451416015625
-23.696533203125 -19.775634765625 -1.8724365234375
-1.705322265625 -124.5009765625 -20.793212890625
-76.5380859375 -28.6026611328125 -8.02001953125
-1.166015625 -94.9898681640625 -21.20654296875
-74.4775390625 -61.9122314453125 -29.59814453125
-41.529296875 10.072998046875 13.915771484375
-47.128173828125 -133.9085693359375 -19.3226318359375
-91.50830078125 -58.1326904296875 -12.3387451171875
-19.12841796875 -7.7330322265625 3.151123046875
-32.849609375 -146.593017578125 -17.618408203125
-92.675048828125 -23.1572265625 6.966796875
0.514892578125 -134.1937255859375 -19.4608154296875
-53.891845703125 -148.1776123046875 -15.4107666015625
11.61376953125 -126.292236328125 -23.292724609375
-29.763671875 -44.663330078125 -27.128662109375
-48.6201171875 11.8543701171875 15.14111328125
-72.530029296875 -72.683837890625 -33.5457763671875
-99.778564453125 -14.35009765625 15.0289306640625
-34.593017578125 -129.8768310546875 -20.416259765625
-12.28369140625 -131.1497802734375 -20.1292724609375
-13.43115234375 -128.6912841796875 -20.4659423828125
-83.315673828125 -74.9483642578125 -20.7637939453125
-68.175048828125 -118.4652099609375 -19.9588623046875
-72.274169921875 -70.173583984375 -33.7181396484375
-39.55029296875 -31.685302734375 -13.5062255859375
-30.545166015625 -30.5240478515625 -10.3411865234375
-51.146484375 -64.1131591796875 -29.6531982421875
-79.39990234375 -35.1744384765625 -12.3814697265625
-10.098876953125 -79.0517578125 -35.2960205078125
-12.52001953125 -93.95263671875 -20.8369140625
-83.18701171875 -83.7559814453125 -19.5743408203125
-46.22900390625 -136.1590576171875 -18.349853515625
-42.083251953125 -147.411376953125 -16.314208984375
-4.763671875 -96.116943359375 -20.5440673828125
30.408447265625 -112.3018798828125 -29.061767578125
-94.515380859375 -40.421630859375 -3.5423583984375
-69.622802734375 -68.2197265625 -31.4459228515625
-38.131591796875 5.1568603515625 11.64599609375
-84.439208984375 -45.00341796875 -14.9090576171875
-8.753662109375 -109.317626953125 -20.505615234375
10.73779296875 -132.3072509765625 -19.93701171875
-0.72705078125 -98.8193359375 -37.2047119140625
-83.208984375 12.653076171875 17.99462890625
-29.239990234375 -125.3153076171875 -20.7528076171875
6.287353515625 -100.943603515625 -36.5584716796875
-10.224853515625 -96.227783203125 -20.548583984375
-88.804931640625 12.6497802734375 13.3468017578125
-48.552001953125 2.1011962890625 10.9610595703125
14.47802734375 -87.29736328125 -36.321044921875
-76.795166015625 -66.182861328125 -29.46484375
-24.539306640625 -24.1663818359375 -4.84716796875
-92.7958984375 -7.4422607421875 4.8798828125
-61.38232421875 -149.68359375 -14.4981689453125
-25.692626953125 -120.9852294921875 -21.104248046875
-95.66015625 6.39208984375 13.92919921875
-80.569091796875 -45.6866455078125 -16.0382080078125
75.754638671875 -87.6141357421875 -36.2984619140625
-9.611328125 -89.0205078125 -36.1842041015625
0.379150390625 -77.3033447265625 -35.3980712890625
-24.507568359375 -135.0185546875 -19.7142333984375
18.765625 -122.03076171875 -31.4429931640625
41.527099609375 -24.1710205078125 -27.8765869140625
-19.680908203125 -14.5120849609375 0.9739990234375
-20.874267578125 -17.252197265625 -0.8446044921875
-50.600341796875 -73.64404296875 -30.6387939453125
-66.14697265625 -55.5062255859375 -28.60693359375
-18.394287109375 -117.6688232421875 -20.66943359375
-36.028076171875 -82.5672607421875 -20.892333984375
-67.404541015625 -128.34912109375 -19.604736328125
76.07763671875 -81.4429931640625 -36.722900390625
49.169677734375 -25.8077392578125 -30.674072265625
-7.052734375 -121.1861572265625 -20.7747802734375
-10.6376953125 2.8807373046875 19.3421630859375
-14.27001953125 -98.4415283203125 -20.6163330078125
-71.766357421875 0.0992431640625 18.2271728515625
-3.78271484375 -136.9801025390625 -18.916748046875
-11.80908203125 -122.464111328125 -20.708984375
14.51953125 -92.5760498046875 -37.165283203125
-53.690185546875 -125.795654296875 -19.53076171875
-29.824951171875 -114.2965087890625 -21.00927734375
-91.749755859375 -36.430908203125 -4.5665283203125
12.74169921875 -95.7301025390625 -36.16162109375
-64.934814453125 17.9578857421875 20.0152587890625
-6.31884765625 -85.545166015625 -20.2249755859375
18.220703125 -116.32958984375 -30.39501953125
32.05859375 -108.512451171875 -26.5467529296875
-95.93994140625 -4.51611328125 20.8785400390625
-85.277587890625 -59.21484375 -16.796630859375
-99.769775390625 -34.1246337890625 6.6982421875
2.128173828125 -92.4990234375 -36.4622802734375
-7.1845703125 -75.96435546875 -35.61669921875
-34.032470703125 -35.1201171875 -17.382080078125
-36.039306640625 -32.52734375 -14.0274658203125
73.0302734375 -89.990478515625 -38.2132568359375
-90.82568359375 -43.03759765625 -9.328857421875
-92.882568359375 -47.6785888671875 -8.776123046875
-34.298828125 -124.5992431640625 -21.0057373046875
-7.812255859375 -106.5045166015625 -20.4739990234375
-99.407958984375 -12.1163330078125 10.3714599609375
-96.698486328125 1.5933837890625 15.272705078125
52.468994140625 -19.5677490234375 -20.5699462890625
-80.963134765625 -67.009521484375 -21.4508056640625
12.100830078125 -128.8486328125 -22.355224609375
30.72412109375 -120.77392578125 -32.3824462890625
-40.53271484375 -29.499755859375 -28.397216796875
-56.0869140625 -61.979248046875 -29.44775390625
-60.0576171875 19.841064453125 21.968017578125
-22.189453125 -142.758056640625 -17.688720703125
-2.494384765625 -96.7554931640625 -36.8065185546875
-32.953857421875 -142.41943359375 -18.874755859375
-28.234130859375 -116.246826171875 -20.7305908203125
12.895263671875 -110.3944091796875 -31.8955078125
-10.48974609375 -124.5438232421875 -20.876953125
-57.957275390625 -52.16845703125 -26.7088623046875
-68.924072265625 4.9228515625 18.838134765625
-86.28955078125 -33.5074462890625 -8.2952880859375
-11.322509765625 -139.0699462890625 -18.4173583984375
-34.332275390625 -138.76171875 -19.4793701171875
-57.91748046875 -149.8243408203125 -14.59521484375
-38.681640625 -132.0552978515625 -19.7445068359375
-70.93408203125 -104.691162109375 -18.95751953125
-77.343994140625 -55.0174560546875 -18.62939453125
-17.918701171875 -104.88720703125 -20.7371826171875
-9.630615234375 -101.9227294921875 -20.5855712890625
10.8017578125 -83.7896728515625 -36.393310546875
-30.490234375 -108.2659912109375 -21.169189453125
21.85546875 -94.59130859375 -32.7574462890625
-1.334716796875 -106.701416015625 -21.59765625
-71.47021484375 -59.3924560546875 -29.63720703125
-74.446533203125 -58.5914306640625 -23.5689697265625
-84.143798828125 -73.5953369140625 -18.88720703125
55.6357421875 -20.447998046875 -21.392578125
-55.231689453125 -53.136474609375 -29.5955810546875
30.357421875 -117.8372802734375 -32.279296875
-73.617431640625 -72.0850830078125 -31.3636474609375
-42.369384765625 5.380615234375 11.7012939453125
-52.50732421875 -137.75048828125 -18.2073974609375
-35.258544921875 -89.732177734375 -21.43359375
-18.177734375 -101.451171875 -20.626220703125
-27.022705078125 -139.2913818359375 -18.7427978515625
-47.22998046875 -62.9000244140625 -31.587646484375
-69.576416015625 -63.0947265625 -29.535400390625
-16.871337890625 -122.5888671875 -20.9061279296875
-58.360107421875 1.5899658203125 11.10546875
-35.25830078125 -84.9605712890625 -20.90869140625
-97.896484375 -9.0411376953125 7.501220703125
39.165771484375 -74.0184326171875 -35.9254150390625
-26.572509765625 -144.6513671875 -17.2122802734375
-71.52978515625 -92.5009765625 -30.8568115234375
-56.77197265625 17.42041015625 17.83642578125
-31.560546875 -140.1732177734375 -19.1845703125
-54.21240234375 -130.72802734375 -19.873779296875
-59.71630859375 13.8017578125 16.3880615234375
-18.67919921875 1.1622314453125 19.5958251953125
3.68115234375 -125.9296875 -20.5767822265625
-61.341796875 -120.7486572265625 -21.6378173828125
-24.18408203125 -114.0421142578125 -20.66259765625
-33.3447265625 -132.6175537109375 -19.880859375
-58.4599609375 -125.90478515625 -19.7269287109375
-77.439697265625 -101.4007568359375 -19.3524169921875
-99.970703125 -32.6873779296875 8.668212890625
-28.10595703125 -129.091552734375 -20.507568359375
-13.6142578125 2.010498046875 22.612548828125
-34.863525390625 -3.8260498046875 2.3975830078125
35.364501953125 -111.37451171875 -26.264404296875
-59.922119140625 -145.4095458984375 -16.1776123046875
42.95703125 -13.9439697265625 -19.01806640625
-16.04296875 -118.906494140625 -20.9322509765625
-99.33251953125 -11.8074951171875 23.2574462890625
-28.216796875 -111.9202880859375 -20.967041015625
-67.487548828125 17.2796630859375 24.294189453125
-8.239990234375 -83.545166015625 -35.88037109375
-16.427978515625 -82.734619140625 -20.5015869140625
42.912109375 -21.294921875 -24.488525390625
-84.026611328125 -76.8250732421875 -18.8916015625
-80.568359375 -32.1627197265625 -9.53662109375
0.17236328125 -89.0322265625 -36.0609130859375
13.553466796875 -126.83984375 -25.6072998046875
-82.811767578125 -81.1585693359375 -23.3734130859375
48.6708984375 -19.0472412109375 -20.51806640625
-92.747802734375 12.044189453125 19.0933837890625
-78.456298828125 -78.75927734375 -29.7152099609375
-90.8515625 -26.6719970703125 2.17529296875
-71.613525390625 -109.7769775390625 -20.2294921875
-27.588134765625 -94.02099609375 -21.0804443359375
-57.041748046875 -154.950927734375 -12.9986572265625
-24.014892578125 -124.3321533203125 -20.9090576171875
-44.106201171875 -145.8895263671875 -16.4609375
-10.005126953125 -135.4140625 -19.406494140625
-66.025634765625 -126.2049560546875 -19.9017333984375
-36.87548828125 -135.77099609375 -19.3392333984375
-49.224853515625 18.7896728515625 20.492431640625
35.641845703125 -113.6754150390625 -27.8262939453125
-23.772216796875 0.43310546875 16.51123046875
34.430908203125 -113.916259765625 -29.954345703125
-98.388427734375 -17.16796875 11.890625
-66.028564453125 -56.2684326171875 -26.37890625
-21.5302734375 -11.43701171875 1.1029052734375
-63.693115234375 -56.6260986328125 -29.7056884765625
-62.849365234375 -124.6566162109375 -20.1251220703125
-18.78564453125 -94.5009765625 -20.5057373046875
-32.595947265625 -127.427001953125 -20.6669921875
-90.85205078125 -10.025634765625 3.3194580078125
-95.55419921875 6.2562255859375 16.288818359375
78.80712890625 -92.3131103515625 -38.39794921875
8.867919921875 -88.404052734375 -35.8349609375
-59.99072265625 -131.7447509765625 -19.146240234375
9.614990234375 -94.6348876953125 -35.2821044921875
-13.51025390625 -100.811279296875 -20.732666015625
-85.4013671875 -72.072265625 -17.609130859375
-0.335205078125 -81.3790283203125 -35.45947265625
-25.657470703125 -95.8421630859375 -21.0927734375
-39.334716796875 -31.63525390625 -25.7628173828125
-95.39794921875 -12.556884765625 6.0494384765625
-88.5087890625 -10.5037841796875 3.1036376953125
29.222900390625 -109.2109375 -26.2060546875
-52.58447265625 -66.4173583984375 -29.608642578125
-46.851318359375 -68.6021728515625 -29.58642578125
-5.733154296875 -98.233642578125 -20.533203125
-81.755859375 -75.45654296875 -29.64208984375
32.408935546875 -106.044677734375 -26.454345703125
-5.69921875 -104.890380859375 -20.666015625
-7.064697265625 -132.4517822265625 -20.0133056640625
-19.854248046875 -109.8004150390625 -20.758544921875
-3.639892578125 -85.7657470703125 -36.4659423828125
24.012939453125 -118.27490234375 -32.1859130859375
6.41015625 -92.28857421875 -35.0294189453125
-66.332763671875 7.7554931640625 15.398681640625
-20.011962890625 -96.8095703125 -20.8349609375
-101.283447265625 -26.073486328125 16.5386962890625
-31.331787109375 -40.744873046875 -27.1978759765625
-70.2451171875 -52.8714599609375 -18.1629638671875
6.236083984375 -129.8350830078125 -20.3629150390625
-43.619384765625 2.3675537109375 10.49560546875
-22.669189453125 -105.36865234375 -20.730712890625
-10.3828125 -119.7216796875 -20.870361328125
-33.941162109375 0.8560791015625 11.1136474609375
-53.935791015625 -58.0006103515625 -29.806884765625
-13.6728515625 -123.9052734375 -20.9132080078125
-16.393798828125 -88.6556396484375 -20.49072265625
-12.7509765625 -120.360595703125 -20.83740234375
0.111083984375 -93.5787353515625 -36.1280517578125
-71.5625 -115.67236328125 -19.787353515625
-41.62939453125 11.879638671875 15.345703125
-81.8505859375 -83.13671875 -29.5389404296875
-24.154052734375 -110.3822021484375 -20.9420166015625
-67.234130859375 -104.4068603515625 -28.24365234375
-69.26171875 -55.6083984375 -21.3548583984375
-22.9765625 -102.4508056640625 -20.76171875
-76.760986328125 -38.887939453125 -13.955322265625
-64.3212890625 -120.7462158203125 -20.27685546875
-48.417236328125 -72.4776611328125 -29.85888671875
41.96533203125 -114.8011474609375 -27.59228515625
-11.502197265625 -83.104736328125 -20.3511962890625
-76.087890625 -24.8572998046875 -5.0269775390625
-42.22607421875 -142.415771484375 -18.3797607421875
-39.032470703125 -1.1827392578125 7.77197265625
-55.37255859375 -65.9913330078125 -29.618408203125
-25.164794921875 -137.1702880859375 -19.24755859375
-79.03076171875 -92.2664794921875 -20.2608642578125
-39.229736328125 -4.53955078125 1.556884765625
-11.802001953125 -1.5421142578125 12.393310546875
29.692138671875 -97.0960693359375 -27.9500732421875
-88.436279296875 -56.25 -14.5172119140625
-69.32421875 -57.2222900390625 -22.9996337890625
-23.069091796875 -96.2698974609375 -20.8702392578125
-80.66796875 -19.1629638671875 1.7850341796875
33.154541015625 -110.1593017578125 -27.7967529296875
-46.08642578125 -139.72900390625 -17.7110595703125
11.723876953125 -124.0335693359375 -24.3192138671875
-53.022216796875 9.789794921875 14.6871337890625
-66.669921875 4.4619140625 13.321044921875
-70.800048828125 -121.5709228515625 -19.9063720703125
-78.211181640625 -27.0240478515625 -5.958251953125
-93.02197265625 12.3770751953125 15.0306396484375
-65.78271484375 -111.5699462890625 -23.8426513671875
-24.921630859375 -126.6590576171875 -20.797119140625
-28.831298828125 -131.743408203125 -20.19091796875
-71.2587890625 -56.87548828125 -29.1549072265625
-65.129638671875 -106.10595703125 -30.04541015625
-58.668701171875 -67.033447265625 -31.8759765625
-15.295166015625 -108.3660888671875 -20.9239501953125
4.152587890625 -121.6995849609375 -20.914306640625
-47.744873046875 8.40478515625 13.23291015625
-32.4609375 -134.745361328125 -19.75048828125
-42.328369140625 -10.078857421875 1.9224853515625
-60.904541015625 16.1175537109375 17.7152099609375
-56.022216796875 13.6834716796875 16.51171875
-63.8212890625 -115.6461181640625 -23.798828125
-83.35546875 12.100341796875 11.2586669921875
28.31640625 -92.998779296875 -29.5006103515625
-20.28466796875 -112.19970703125 -20.8382568359375
-61.452880859375 -127.7872314453125 -20.0296630859375
-67.39697265625 -123.095703125 -19.997314453125
-84.35888671875 -49.14501953125 -15.729736328125
-11.10400390625 -85.44189453125 -20.1785888671875
-21.35205078125 -100.75 -20.761962890625
-33.571044921875 -91.1978759765625 -20.9267578125
-77.142333984375 -86.469970703125 -29.9241943359375
-26.868408203125 -103.0146484375 -21.2313232421875
14.56982421875 -119.306396484375 -28.4505615234375
-29.547119140625 -84.4197998046875 -20.951904296875
-68.69091796875 3.313720703125 14.7412109375
73.160888671875 -84.4202880859375 -36.88037109375
-29.369384765625 -2.2012939453125 12.5426025390625
23.88330078125 -123.54296875 -32.491943359375
-77.6279296875 -42.5576171875 -15.375732421875
-99.087890625 -8.75830078125 9.39306640625
-61.22705078125 -64.04443359375 -31.3865966796875
-63.254150390625 4.1015625 12.34423828125
-28.88427734375 -99.2147216796875 -21.092529296875
-18.490478515625 -91.3798828125 -20.485107421875
-76.85498046875 -74.9404296875 -29.4481201171875
-87.1025390625 -37.8109130859375 -9.635009765625
-22.29345703125 0.7093505859375 18.4580078125
20.93359375 -121.604736328125 -31.8408203125
7.096923828125 -97.8609619140625 -33.69287109375
-53.035400390625 18.991455078125 20.2542724609375
-74.0673828125 -88.7421875 -30.3201904296875
-35.15234375 -34.192626953125 -20.0887451171875
-87.496826171875 -39.979736328125 -11.017333984375
-27.261962890625 -89.150634765625 -20.8358154296875
-32.162841796875 -26.2510986328125 -5.576171875
52.914306640625 -20.897705078125 -22.3702392578125
45.584716796875 -23.154541015625 -25.310791015625
-99.64013671875 -6.8172607421875 21.2320556640625
-40.462890625 -121.98193359375 -20.259033203125
-22.85205078125 -91.2220458984375 -20.7236328125
-78.37353515625 -18.934814453125 2.1622314453125
-36.913818359375 -32.7374267578125 -20.7562255859375
-65.395263671875 3.5294189453125 11.46923828125
-57.281494140625 -129.265625 -19.97021484375
-34.924072265625 -11.7786865234375 0.1275634765625
7.576171875 -124.367919921875 -19.4876708984375
-42.8349609375 -125.6512451171875 -20.63818359375
-37.741455078125 -32.2890625 -15.471435546875
-38.812255859375 -123.463134765625 -20.5701904296875
-62.9755859375 -139.13134765625 -17.4818115234375
-63.53466796875 -132.0159912109375 -19.280029296875
-8.0234375 -94.883056640625 -35.8800048828125
-29.045654296875 -90.542724609375 -21.03173828125
28.81298828125 -5.48388671875 -26.9373779296875
-38.2568359375 -31.694091796875 -18.1639404296875
-95.96484375 8.98095703125 12.0308837890625
-4.41845703125 -112.3135986328125 -20.8814697265625
-91.63427734375 -25.410888671875 4.751708984375
-59.694580078125 -51.6182861328125 -22.5570068359375
-80.406982421875 -65.99755859375 -27.172119140625
-71.633056640625 -58.0037841796875 -26.892578125
77.315673828125 -91.1453857421875 -35.45703125
-13.9287109375 -115.4119873046875 -20.8946533203125
-45.792724609375 -0.007080078125 7.3948974609375
-50.269775390625 -124.561767578125 -20.285400390625
34.02294921875 -82.146240234375 -36.0955810546875
-93.557373046875 -51.7769775390625 -9.1451416015625
-33.504150390625 -2.3726806640625 5.0106201171875
-66.6748046875 -54.078125 -19.1842041015625
-6.34033203125 -97.4359130859375 -36.418701171875
-94.658935546875 -43.6240234375 -4.5767822265625
33.808349609375 -75.1373291015625 -35.727294921875
-18.796630859375 -2.7569580078125 10.478271484375
-54.417724609375 -128.4083251953125 -19.94873046875
-34.37109375 -26.4017333984375 -7.0079345703125
-65.527587890625 -68.00439453125 -31.70703125
-39.07958984375 9.28369140625 14.2840576171875
-16.319091796875 1.664794921875 19.8197021484375
8.107177734375 -78.2169189453125 -35.7449951171875
6.740234375 -127.5028076171875 -20.93896484375
-20.23681640625 -0.7650146484375 15.9588623046875
-62.30908203125 -60.5716552734375 -29.64990234375
-44.807861328125 -72.9921875 -30.3052978515625
-96.85302734375 -38.3111572265625 0.5
-44.350341796875 -122.4652099609375 -20.0015869140625
-82.043701171875 11.6103515625 9.5670166015625
-27.02783203125 -33.5235595703125 -11.8798828125
-90.60888671875 -47.974609375 -11.40283203125
-23.029296875 2.587646484375 21.9937744140625
-17.124755859375 -1.1307373046875 12.785400390625
-74.656005859375 -39.4766845703125 -13.9544677734375
-59.179443359375 -153.781982421875 -13.4022216796875
-59.774169921875 -52.6605224609375 -25.5994873046875
-24.517822265625 -27.121337890625 -7.9805908203125
-66.5537109375 -55.4197998046875 -22.72119140625
46.138427734375 -20.2947998046875 -22.1488037109375
-87.87109375 -64.2850341796875 -15.5447998046875
-26.32958984375 -8.3092041015625 3.0889892578125
-27.026123046875 -18.8214111328125 -1.7552490234375
-94.04541015625 -18.6644287109375 7.231689453125
-64.063720703125 -118.6025390625 -20.535400390625
-77.531494140625 -60.4952392578125 -19.955810546875
-87.1044921875 -67.97998046875 -16.1080322265625
-88.8681640625 -8.295166015625 3.3656005859375
11.040283203125 -110.568115234375 -30.416748046875
-40.205322265625 5.5279541015625 12.4710693359375
-36.258544921875 11.6619873046875 15.3994140625
-38.780029296875 13.61767578125 15.75244140625
-83.884033203125 -35.1856689453125 -10.0264892578125
-98.223388671875 -13.496337890625 9.18505859375
2.842529296875 -97.622314453125 -36.439208984375
-72.273193359375 -57.5552978515625 -24.13916015625
-61.08740234375 -62.5460205078125 -29.6427001953125
-39.725830078125 -145.4293212890625 -17.76513671875
-62.91650390625 10.5831298828125 15.31787109375
-98.049560546875 -26.244384765625 12.361328125
-34.28759765625 -20.8116455078125 -2.0748291015625
-56.5859375 -66.9315185546875 -31.288330078125
-28.9677734375 -37.9786376953125 -14.8365478515625
-30.881103515625 -145.3099365234375 -17.3074951171875
-65.083984375 -62.9580078125 -29.96728515625
-49.76806640625 -67.4423828125 -29.643310546875
-77.146728515625 -61.5072021484375 -29.607666015625
-34.7587890625 -118.7735595703125 -20.9664306640625
-63.7705078125 21.7021484375 23.9989013671875
-57.146728515625 -51.1160888671875 -21.9976806640625
-42.86181640625 -1.0111083984375 7.6756591796875
16.8857421875 -88.390625 -35.8968505859375
-49.93505859375 -59.788818359375 -31.18701171875
-96.828369140625 -42.369140625 -1.0338134765625
-28.765869140625 -10.869384765625 1.1068115234375
-16.48974609375 -134.598388671875 -19.6346435546875
-38.836181640625 -21.887939453125 -3.821533203125
-78.886962890625 -58.8155517578125 -19.5423583984375
-45.34814453125 6.5435791015625 12.7724609375
-76.58544921875 -88.6531982421875 -30.05517578125
-49.430419921875 -145.265380859375 -16.3388671875
3.29541015625 -84.4345703125 -36.665283203125
-67.69482421875 10.714599609375 23.0172119140625
-78.31884765625 -81.4058837890625 -29.7103271484375
-52.225341796875 -128.3104248046875 -20.12158203125
-38.915283203125 -140.1534423828125 -19.3145751953125
-35.385986328125 1.1336669921875 9.24072265625
-63.708251953125 -51.9908447265625 -17.90966796875
-23.279296875 -140.950927734375 -18.0767822265625
-47.46533203125 -144.0123291015625 -16.7786865234375
-82.3017578125 -44.5413818359375 -15.5047607421875
-58.16357421875 -139.7528076171875 -17.315673828125
-56.69140625 6.095947265625 12.9739990234375
-65.513671875 -60.533447265625 -29.61572265625
-36.9287109375 -126.608154296875 -20.7667236328125
-98.568359375 -28.2218017578125 11.567138671875
-97.40869140625 -5.4534912109375 16.39892578125
-58.877685546875 7.7364501953125 13.6273193359375
-49.118896484375 -141.097900390625 -17.1356201171875
-62.111083984375 -55.1943359375 -29.6142578125
-32.55419921875 -97.6314697265625 -21.094970703125
28.8095703125 -122.2449951171875 -32.5872802734375
-92.227783203125 -31.16064453125 0.044921875
-15.156005859375 -95.28955078125 -20.5584716796875
-63.568603515625 14.21484375 16.7401123046875
-81.167724609375 -58.5135498046875 -18.3194580078125
-90.532958984375 -50.991943359375 -12.1448974609375
-76.0908203125 -32.673828125 -10.5025634765625
-86.440673828125 -29.9061279296875 -5.45751953125
42.84716796875 -27.2852783203125 -31.0628662109375
-76.690673828125 -21.646240234375 -1.3782958984375
-64.416015625 8.0299072265625 14.5157470703125
-13.662109375 -133.3978271484375 -19.8189697265625
-19.54150390625 -134.7808837890625 -19.6143798828125
34.030517578125 -107.7294921875 -26.3883056640625
46.7373046875 -27.8721923828125 -30.34814453125
-102.42529296875 -25.3526611328125 18.5966796875
-87.317138671875 -47.1016845703125 -13.9873046875
-33.075927734375 -35.3128662109375 -15.491943359375
-25.490234375 -11.2264404296875 1.028076171875
51.255615234375 -21.638916015625 -23.6182861328125
43.991943359375 -17.9708251953125 -20.671142578125
-30.340087890625 -3.9923095703125 6.842529296875
-68.865478515625 -53.9632568359375 -19.97607421875
-36.5908203125 -94.21923828125 -21.4051513671875
-47.432861328125 10.1324462890625 14.494384765625
-30.306884765625 -133.8076171875 -19.9864501953125
7.6796875 -80.9632568359375 -35.279052734375
-20.176513671875 -128.641845703125 -20.43310546875
-85.9658203125 -43.0736083984375 -12.615234375
-44.8388671875 4.6607666015625 11.1771240234375
-19.633544921875 -99.1947021484375 -20.66259765625
-78.28955078125 -52.8731689453125 -18.3558349609375
-51.25390625 -71.4305419921875 -29.8233642578125
39.9853515625 -116.825439453125 -27.9515380859375
-92.830078125 -36.3846435546875 -2.4510498046875
-16.680419921875 -3.780029296875 8.1009521484375
-83.146728515625 -81.30859375 -20.8778076171875
-75.333740234375 -77.94775390625 -34.8485107421875
-86.20703125 -52.98974609375 -15.6080322265625
36.67138671875 -87.299560546875 -34.8497314453125
-6.5712890625 -90.6292724609375 -35.6751708984375
-75.432373046875 -63.8009033203125 -29.597900390625
34.66845703125 -88.215087890625 -31.5604248046875
-41.611328125 -129.0245361328125 -20.151123046875
-50.884033203125 -129.989501953125 -20.0416259765625
-77.24609375 -61.4024658203125 -26.8641357421875
38.801025390625 -85.262939453125 -36.3623046875
71.2421875 -86.372802734375 -36.484619140625
-7.152587890625 -86.87744140625 -35.8013916015625
-74.85205078125 -29.04931640625 -6.407958984375
-74.174560546875 -31.8321533203125 -9.947509765625
-2.247802734375 -80.9259033203125 -36.210693359375
35.01416015625 -71.23828125 -35.761962890625
-86.631103515625 -55.189208984375 -15.5797119140625
-82.045166015625 -70.3880615234375 -24.6165771484375
-80.205078125 -89.4998779296875 -21.727783203125
-78.487548828125 -29.373046875 -7.9110107421875
-103.57080078125 -22.9383544921875 22.1669921875
-14.404296875 -135.4000244140625 -19.453125
-23.66748046875 -130.615234375 -20.4488525390625
-21.97509765625 -89.013916015625 -20.83251953125
-75.949462890625 -105.9234619140625 -19.846923828125
-30.411376953125 -136.2286376953125 -19.61376953125
-82.097900390625 -25.2249755859375 -4.1419677734375
-62.95703125 -137.1163330078125 -18.0938720703125
-7.78955078125 -136.384033203125 -19.119140625
-0.84130859375 -95.6678466796875 -36.1351318359375
-70.360595703125 -111.9984130859375 -20.19287109375
45.274169921875 -21.5604248046875 -23.99658203125
-84.169677734375 -22.9884033203125 -0.474853515625
-87.275634765625 -24.65087890625 0.82861328125
-89.14794921875 -26.0810546875 0.998779296875
-85.53271484375 -24.6842041015625 -1.040771484375
-7.63818359375 -78.71826171875 -35.8614501953125
37.783203125 -81.54736328125 -35.3692626953125
-79.58935546875 -47.293701171875 -16.93408203125
-89.78125 -20.5867919921875 4.6337890625
15.884033203125 -85.31640625 -36.5072021484375
-6.29443359375 -81.8480224609375 -36.159423828125
-95.36865234375 -20.9940185546875 8.9388427734375
-18.1064453125 -127.540771484375 -20.7725830078125
-94.43505859375 -23.0887451171875 8.070556640625
23.73681640625 -113.5496826171875 -30.23388671875
-100.12060546875 -6.01708984375 18.234619140625
-96.053466796875 -9.2877197265625 5.8536376953125
-56.681396484375 -51.3363037109375 -24.959228515625
33.816650390625 -83.38330078125 -34.4447021484375
-84.518798828125 -13.03515625 3.0128173828125
-64.028076171875 -103.6236572265625 -30.6021728515625
78.529541015625 -90.2664794921875 -38.2332763671875
-21.64111328125 -84.7979736328125 -20.630126953125
-32.150634765625 -130.0919189453125 -20.3896484375
-37.2861328125 -133.7677001953125 -19.6624755859375
-8.89990234375 -84.6417236328125 -20.30908203125
-59.869384765625 17.7794189453125 18.5389404296875
-85.873779296875 -16.9127197265625 3.1077880859375
-9.71484375 -66.031005859375 -34.3214111328125
-90.794189453125 -34.602783203125 -4.5926513671875
74.166015625 -95.35986328125 -38.1986083984375
-51.308349609375 6.72265625 13.2562255859375
-32.982177734375 -85.5714111328125 -21.0225830078125
-20.63134765625 -133.0067138671875 -19.994873046875
15.91259765625 -120.7369384765625 -29.3450927734375
-3.557373046875 -114.2412109375 -20.8553466796875
-82.94189453125 -79.1043701171875 -23.435791015625
12.749755859375 -120.14208984375 -26.248291015625
-78.7861328125 -69.2713623046875 -29.5101318359375
-40.958984375 8.1805419921875 13.1051025390625
-22.20458984375 -109.7769775390625 -20.683837890625
-74.417724609375 -46.650390625 -16.9599609375
-82.583251953125 -81.2767333984375 -28.9619140625
-94.902587890625 8.9918212890625 17.2874755859375
39.0888671875 -117.5645751953125 -30.547119140625
16.532958984375 -109.719482421875 -31.246826171875
76.90673828125 -92.9786376953125 -36.2734375
33.10595703125 -116.9586181640625 -31.9735107421875
-66.621826171875 -120.5565185546875 -20.3028564453125
7.24365234375 -133.2398681640625 -19.6561279296875
-82.86376953125 -74.296142578125 -25.9869384765625
-63.994384765625 -55.5643310546875 -27.17333984375
-99.917236328125 -16.9876708984375 18.5946044921875
40.36376953125 -114.7203369140625 -24.946044921875
-39.25 16.465087890625 17.48291015625
44.677734375 -24.8914794921875 -27.2940673828125
5.63232421875 -69.0694580078125 -34.9986572265625
-67.741943359375 -125.1024169921875 -19.835693359375
-89.651611328125 -13.5972900390625 3.5330810546875
-1.621826171875 -90.7781982421875 -21.151123046875
-87.01123046875 12.650390625 17.461181640625
-73.1552734375 -64.12060546875 -29.412109375
-25.19580078125 -106.8857421875 -21.082275390625
40.040771484375 -114.5394287109375 -28.2120361328125
-80.09375 -73.557373046875 -29.4171142578125
-67.094482421875 -102.1690673828125 -27.8785400390625
-23.64453125 -22.111328125 -3.4832763671875
-77.883544921875 -72.5955810546875 -29.2330322265625
-33.671142578125 -83.307373046875 -20.9088134765625
2.0439453125 -132.783447265625 -19.714111328125
-16.145751953125 -116.8782958984375 -20.803466796875
-82.7890625 -65.7611083984375 -18.7867431640625
19.776611328125 -111.9842529296875 -30.095703125
-53.145751953125 -57.0130615234375 -31.5067138671875
-43.731689453125 10.1036376953125 14.512939453125
-78.425048828125 -98.410400390625 -19.0255126953125
-67.2158203125 9.7584228515625 18.572998046875
-35.80322265625 2.839599609375 10.263916015625
51.037353515625 -20.55078125 -21.6259765625
-2.190673828125 -90.1871337890625 -36.1566162109375
0.015869140625 -123.4228515625 -20.837158203125
6.71533203125 -66.69189453125 -34.7567138671875
-96.18115234375 -5.2274169921875 22.765869140625
-37.803466796875 3.1087646484375 11.1932373046875
-27.30517578125 -133.6248779296875 -20.0072021484375
-3.443359375 -104.0902099609375 -20.7998046875
-2.8271484375 -98.636962890625 -37.485107421875
-69.416748046875 -57.6014404296875 -29.58935546875
-22.81640625 -138.4578857421875 -18.7554931640625
49.984375 -22.40185546875 -28.4591064453125
-97.811279296875 -5.9146728515625 24.041259765625
-22.728515625 -116.3681640625 -20.6258544921875
-79.364501953125 -64.310302734375 -24.90478515625
-87.006103515625 12.5726318359375 15.287109375
-50.979248046875 -139.78759765625 -17.91796875
-59.884521484375 -52.987060546875 -20.0662841796875
-67.0322265625 19.115478515625 22.84423828125
11.349853515625 -90.7962646484375 -35.51171875
41.615478515625 -25.519775390625 -29.3770751953125
-17.6962890625 -113.1973876953125 -20.75439453125
-76.100830078125 -30.9755859375 -8.98046875
-13.459228515625 -106.9417724609375 -20.7227783203125
-10.595947265625 -117.5286865234375 -20.8428955078125
12.26953125 -77.9140625 -35.845947265625
-17.97216796875 1.9578857421875 21.3076171875
-28.90380859375 -103.4385986328125 -20.859375
-24.564208984375 -117.7918701171875 -20.827392578125
26.0859375 -117.658447265625 -31.932373046875
17.5703125 -104.26708984375 -33.5103759765625
-28.286376953125 -119.2926025390625 -21.14453125
-20.659423828125 1.70654296875 19.241455078125
-72.959716796875 -45.0450439453125 -16.2926025390625
-36.97119140625 0.157470703125 8.4837646484375
-95.35400390625 -27.251220703125 8.88525390625
-81.889404296875 -39.5550537109375 -13.9405517578125
-31.091064453125 -37.1021728515625 -15.2969970703125
-38.97021484375 0.4293212890625 9.4150390625
-7.1005859375 -115.5478515625 -20.82763671875
-29.74609375 -34.532958984375 -12.6015625
-27.054931640625 -13.3289794921875 0.2142333984375
-86.6875 -60.373291015625 -15.9027099609375
-60.021484375 5.1097412109375 11.8841552734375
-58.423828125 -52.0235595703125 -28.718505859375
-34.2685546875 -81.1904296875 -20.6988525390625
-3.80126953125 -135.0482177734375 -19.4464111328125
-31.69140625 -33.9044189453125 -12.8765869140625
17.42431640625 -124.2535400390625 -30.390869140625
-94.444580078125 -8.607177734375 4.603271484375
13.0126953125 -92.06005859375 -35.953369140625
40.91357421875 -113.028564453125 -24.0313720703125
-92.79296875 -49.559814453125 -9.4473876953125
-67.590087890625 -130.679931640625 -19.2432861328125
-59.88134765625 9.244873046875 14.468505859375
38.94091796875 -113.3096923828125 -24.8094482421875
-26.456787109375 -31.573974609375 -10.9356689453125
-42.757080078125 -133.5699462890625 -19.77197265625
-28.14794921875 -2.503662109375 10.5423583984375
-48.53125 -136.7723388671875 -18.3201904296875
-36.52001953125 -128.580810546875 -20.4482421875
-61.973876953125 22.7022705078125 23.7139892578125
31.912109375 -90.901123046875 -33.6796875
-20.862548828125 -117.479248046875 -20.695556640625
-17.11328125 3.0999755859375 23.2525634765625
-74.769287109375 -37.6065673828125 -13.2764892578125
-84.493896484375 -10.3472900390625 3.1395263671875
-29.095947265625 -109.889404296875 -21.092041015625
33.908203125 -10.5091552734375 -28.875
-36.611083984375 -24.040771484375 -3.9844970703125
31.357421875 -97.77587890625 -29.086181640625
-40.65234375 -124.205078125 -20.728271484375
-29.86376953125 -120.49755859375 -21.0010986328125
1.6943359375 -125.999755859375 -20.6964111328125
4.485107421875 -93.559814453125 -35.3199462890625
-40.1357421875 15.0089111328125 16.1795654296875
73.441650390625 -88.6517333984375 -36.8011474609375
-81.00048828125 -62.2965087890625 -19.032470703125
-15.8564453125 -111.7706298828125 -20.5526123046875
-78.664794921875 -94.178466796875 -19.8660888671875
-13.216552734375 -91.1087646484375 -20.5797119140625
-10.193115234375 -80.95849609375 -19.9251708984375
-54.080322265625 -0.084228515625 8.287353515625
-18.155517578125 0.0618896484375 15.864501953125
-82.87451171875 -76.879150390625 -21.7354736328125
-2.77783203125 -131.595458984375 -20.029052734375
-66.627197265625 17.9056396484375 21.20654296875
-26.203857421875 -29.0836181640625 -29.677734375
-82.295654296875 -83.96240234375 -22.0731201171875
-9.50244140625 -92.62841796875 -35.15576171875
16.5458984375 -112.060302734375 -30.15380859375
39.68798828125 -80.813232421875 -35.954345703125
-3.089111328125 -95.059326171875 -20.5865478515625
-21.218505859375 -107.6517333984375 -20.6944580078125
-26.685546875 2.501708984375 23.68408203125
-67.106201171875 -106.7652587890625 -22.9940185546875
-99.5771484375 -18.669677734375 17.606689453125
-58.746337890625 -136.6324462890625 -18.63720703125
-51.25390625 16.2066650390625 16.8248291015625
-74.56494140625 -109.0396728515625 -19.6563720703125
-99.32666015625 -17.92333984375 15.7205810546875
-49.418212890625 -127.9671630859375 -20.2423095703125
-22.924072265625 -2.9168701171875 10.1444091796875
-2.6748046875 -88.611083984375 -20.64453125
-85.784423828125 -50.79833984375 -15.6363525390625
36.889404296875 -74.8388671875 -35.779541015625
-83.053955078125 -77.62353515625 -24.98095703125
-95.522705078125 9.9144287109375 14.16064453125
-69.0087890625 5.3369140625 24.593994140625
-84.5087890625 -79.6689453125 -18.2244873046875
-8.381103515625 -134.1734619140625 -19.5540771484375
-13.644775390625 -2.2281494140625 12.1148681640625
-33.00634765625 -117.8763427734375 -20.908935546875
-43.27685546875 -130.0738525390625 -20.108642578125
35.7294921875 -108.8525390625 -25.412353515625
-39.1845703125 -126.0347900390625 -20.5489501953125
-13.970703125 -88.7835693359375 -20.46484375
-39.040771484375 -2.0489501953125 3.4432373046875
-27.14794921875 -105.010986328125 -21.0699462890625
-80.38818359375 -24.6317138671875 -3.1336669921875
-80.4833984375 -65.209716796875 -29.390869140625
-57.043701171875 -54.78759765625 -29.999755859375
-29.1904296875 -22.2952880859375 -3.4771728515625
-23.400390625 -34.965576171875 -12.43798828125
-10.103759765625 -83.622314453125 -35.265380859375
-54.291748046875 -138.622802734375 -17.528076171875
-81.43115234375 -68.531494140625 -22.9227294921875
-38.30126953125 -1.84765625 5.84423828125
-54.282958984375 -135.2576904296875 -18.7978515625
-75.02099609375 -79.169189453125 -32.3514404296875
-29.9580078125 -1.1878662109375 14.7261962890625
-41.667236328125 -30.693115234375 -22.3951416015625
-30.90771484375 -28.7965087890625 -8.4930419921875
-43.2578125 -6.6070556640625 2.4178466796875
-77.0458984375 -50.9075927734375 -17.963623046875
-56.381591796875 19.6470947265625 20.652587890625
-83.376953125 -70.7025146484375 -19.1392822265625
-84.025390625 -40.5792236328125 -13.382080078125
-25.58349609375 -26.56396484375 -6.4384765625
-33.927978515625 -22.529052734375 -3.9127197265625
-35.0283203125 -136.9361572265625 -19.4063720703125
-74.990478515625 -82.241455078125 -31.81494140625
-82.69189453125 -29.283447265625 -7.34033203125
74.28662109375 -83.238037109375 -34.0684814453125
-30.967041015625 -18.5850830078125 -1.8201904296875
-56.855224609375 15.413330078125 16.8887939453125
4.810302734375 -65.057373046875 -33.9052734375
-89.23095703125 -52.007080078125 -13.263671875
-72.63623046875 -90.0140380859375 -29.9510498046875
-4.253173828125 -97.6153564453125 -36.136962890625
-100.169677734375 -17.7327880859375 20.48974609375
-62.7919921875 -64.955810546875 -32.1038818359375
-19.6171875 -2.8704833984375 8.71337890625
-66.340576171875 -104.865966796875 -24.8311767578125
34.785888671875 -119.4093017578125 -32.73095703125
-20.6787109375 -2.3153076171875 10.249267578125
-69.014892578125 -115.671875 -20.14013671875
-20.62646484375 -4.24560546875 7.2783203125
-28.656005859375 -95.9517822265625 -21.1689453125
-15.632568359375 -2.96240234375 9.5184326171875
-73.049560546875 -86.218505859375 -30.9542236328125
20.3525390625 -93.6865234375 -33.5872802734375
70.384765625 -90.5302734375 -38.2576904296875
-37.68896484375 -28.6219482421875 -7.25830078125
-73.955078125 -68.0047607421875 -30.7869873046875
-69.38037109375 -65.1497802734375 -30.155029296875
14.301025390625 -125.58447265625 -27.52880859375
14.3037109375 -64.5484619140625 -34.757080078125
23.043701171875 -88.775146484375 -32.55419921875
-82.823974609375 -82.2381591796875 -25.67333984375
-68.052490234375 -47.8631591796875 -17.706787109375
-8.048583984375 -118.4000244140625 -20.860107421875
-24.91748046875 -80.377197265625 -20.516357421875
-32.4736328125 -16.9002685546875 -0.7537841796875
-20.481201171875 -92.50048828125 -20.880615234375
-83.075927734375 12.376220703125 16.0054931640625
-24.897216796875 -82.7593994140625 -20.7786865234375
-22.25048828125 -86.8199462890625 -20.904296875
-78.39111328125 -48.69287109375 -17.5211181640625
12.7978515625 -122.059326171875 -26.4912109375
-5.443603515625 -92.912353515625 -36.114501953125
-95.0234375 11.79833984375 14.9267578125
-36.656982421875 -4.405029296875 2.8209228515625
-32.454345703125 -92.966796875 -21.1856689453125
-1.565185546875 -104.5465087890625 -21.56884765625
-79.525634765625 -63.324462890625 -29.3914794921875
21.138916015625 -119.494384765625 -31.98974609375
-79.510498046875 -82.9537353515625 -29.9813232421875
-39.543701171875 3.968994140625 11.08935546875
-26.531494140625 2.0224609375 20.955322265625
-19.622314453125 -1.968505859375 12.346923828125
-33.308837890625 -88.625244140625 -21.0440673828125
-90.371826171875 12.4942626953125 15.36328125
-99.11669921875 -19.9630126953125 15.2862548828125
-90.113525390625 12.6932373046875 17.937744140625
-68.7880859375 -113.4420166015625 -21.2047119140625
9.85888671875 -96.828369140625 -36.788818359375
5.945556640625 -85.9261474609375 -35.9632568359375
33.653076171875 -115.2813720703125 -31.0650634765625
27.560791015625 -113.0296630859375 -29.4718017578125
-74.073974609375 -81.2987060546875 -34.86083984375
-40.083984375 1.995361328125 9.49365234375
-27.73681640625 0.227294921875 17.7694091796875
-64.44140625 -53.67431640625 -19.0269775390625
-61.759521484375 -53.4232177734375 -21.1650390625
74.694580078125 -81.7298583984375 -35.41943359375
-65.2509765625 -55.8125 -24.5892333984375
-64.2080078125 -128.7923583984375 -19.95166015625
-26.34912109375 -1.01708984375 13.7364501953125
-34.022705078125 -9.8409423828125 0.782470703125
-97.066650390625 -36.8282470703125 1.702880859375
-46.610595703125 -71.867431640625 -29.6258544921875
-84.95654296875 -68.0428466796875 -17.5223388671875
46.071533203125 -16.55029296875 -18.1429443359375
-9.168212890625 -111.7357177734375 -20.5855712890625
-19.1533203125 -85.055908203125 -20.50634765625
-87.339599609375 11.289794921875 8.2789306640625
-75.4453125 -101.1304931640625 -19.61328125
11.886474609375 -130.948974609375 -20.6552734375
-49.046875 -70.3172607421875 -29.727294921875
-37.615478515625 -146.41455078125 -17.4766845703125
-60.40234375 -54.5216064453125 -28.7197265625
-10.115234375 -114.56787109375 -20.6175537109375
-47.868408203125 -63.56787109375 -29.643798828125
-35.218505859375 -0.96484375 5.7308349609375
-29.72314453125 -36.2984619140625 -14.1842041015625
-12.7177734375 -112.3662109375 -20.5157470703125
32.16064453125 -94.32373046875 -29.7347412109375
32.47265625 -99.3074951171875 -28.8302001953125
27.148193359375 -3.9810791015625 -27.1807861328125
-45.25341796875 -75.188232421875 -30.3958740234375
-66.24462890625 -51.91259765625 -18.4395751953125
49.5615234375 -24.0106201171875 -25.8983154296875
-67.654541015625 15.3785400390625 23.255126953125
-7.91650390625 -72.6201171875 -35.275634765625
-85.373779296875 12.0357666015625 11.179931640625
-71.17431640625 -69.1240234375 -32.1610107421875
-59.75439453125 -64.124755859375 -30.1741943359375
-25.844482421875 -87.2015380859375 -21.031982421875
-71.759765625 -72.8472900390625 -31.8070068359375
-49.350341796875 -0.614013671875 8.252197265625
-67.44775390625 -55.117431640625 -21.0267333984375
-80.762939453125 -68.8551025390625 -29.2957763671875
-78.895751953125 -63.2850341796875 -27.0867919921875
-37.5048828125 10.2642822265625 15.0430908203125
-92.91943359375 -29.5001220703125 3.5108642578125
2.62353515625 -66.964599609375 -33.9560546875
-63.176025390625 7.18994140625 13.338623046875
-88.75 -60.4373779296875 -14.4066162109375
-71.368896484375 -56.7705078125 -20.691650390625
-51.555419921875 -136.1082763671875 -18.36328125
32.554443359375 -113.6248779296875 -29.80859375
-17.284423828125 -131.4007568359375 -20.2274169921875
-65.810546875 -112.90478515625 -21.70263671875
-34.9853515625 -122.8271484375 -20.9306640625
2.795654296875 -128.3111572265625 -20.461669921875
25.2275390625 -96.8140869140625 -30.0477294921875
-30.255126953125 -130.029296875 -20.27197265625
-78.471435546875 -14.38427734375 2.942138671875
-40.23046875 -130.7200927734375 -20.070556640625
49.116943359375 -17.21337890625 -18.337158203125
-7.570556640625 -123.496826171875 -20.958740234375
-54.234375 1.8961181640625 11.0703125
-28.41015625 -14.63916015625 -0.2470703125
-7.7783203125 -102.334716796875 -20.6124267578125
-78.46875 -32.7607421875 -10.947509765625
-61.1064453125 11.0538330078125 15.01025390625
-73.841796875 -57.900390625 -20.52685546875
1.320068359375 -95.3372802734375 -35.7061767578125
75.1669921875 -83.1409912109375 -37.3294677734375
28.396240234375 -119.8421630859375 -32.6351318359375
-15.676513671875 -0.1109619140625 16.1661376953125
3.917236328125 -123.8109130859375 -20.745849609375
-60.65869140625 -54.095458984375 -26.8939208984375
-84.57666015625 -21.7718505859375 1.1717529296875
-34.75048828125 -32.68115234375 -12.4002685546875
-6.790283203125 -83.7005615234375 -20.5390625
-22.546875 -120.408447265625 -20.8819580078125
-34.186279296875 -15.5302734375 -0.703857421875
-96.324462890625 -30.7279052734375 6.640869140625
-98.0234375 -36.407958984375 3.278564453125
-47.265869140625 6.621826171875 12.3250732421875
-25.9853515625 -116.1304931640625 -20.906005859375
-94.796630859375 -34.8739013671875 0.6279296875
-46.9072265625 0.6402587890625 8.7933349609375
-66.5361328125 -62.8809814453125 -31.1737060546875
-76.08740234375 -60.4705810546875 -25.217529296875
-21.89599609375 -0.0028076171875 16.7537841796875
42.446044921875 -77.320556640625 -36.4803466796875
-55.5615234375 -63.9652099609375 -29.66748046875
-69.939697265625 -57.333740234375 -27.41943359375
-11.96923828125 -116.00341796875 -20.8206787109375
-83.32275390625 -57.815673828125 -17.6405029296875
13.529052734375 -93.9852294921875 -36.3973388671875
-88.462646484375 -34.4588623046875 -7.077392578125
-58.765625 10.8125 15.395263671875
-66.6669921875 -50.0924072265625 -18.1533203125
-42.040771484375 -30.8603515625 -25.6512451171875
-81.08154296875 -14.6512451171875 2.823486328125
-31.484619140625 -45.4178466796875 -27.2705078125
-35.530029296875 -33.7523193359375 -21.9053955078125
-83.0732421875 -14.23583984375 2.879150390625
-81.546875 12.6251220703125 14.6351318359375
-62.49267578125 -55.106689453125 -22.2822265625
-48.677001953125 -139.1771240234375 -17.947265625
-82.510498046875 -50.484375 -16.8399658203125
14.22509765625 -80.691650390625 -36.1954345703125
10.73388671875 -87.68359375 -36.410888671875
-13.3466796875 -82.09716796875 -20.283935546875
-12.381103515625 -104.9588623046875 -20.6328125
-55.791015625 0.8609619140625 8.8682861328125
-56.04931640625 -136.8056640625 -18.1622314453125
-70.06591796875 -106.7435302734375 -20.951416015625
-96.7734375 -20.38427734375 10.5687255859375
-34.947265625 -2.5474853515625 3.8199462890625
35.203857421875 -73.158203125 -35.914794921875
-24.15966796875 -2.1436767578125 11.4742431640625
17.41650390625 -120.59619140625 -30.5439453125
-74.67626953125 -43.9605712890625 -16.423095703125
-65.16650390625 -101.6949462890625 -29.72705078125
-68.400146484375 7.1004638671875 24.798828125
-20.8642578125 -1.19287109375 13.6806640625
-56.234375 -1.1240234375 8.8428955078125
46.56005859375 -25.16015625 -27.331298828125
-67.745361328125 2.884765625 13.168701171875
-25.883544921875 -111.9473876953125 -21.0419921875
-35.427978515625 -13.7156982421875 -0.0103759765625
-61.49365234375 -55.01220703125 -24.521728515625
53.5361328125 -13.9814453125 -15.6390380859375
-98.968994140625 -6.2166748046875 13.283447265625
-77.9775390625 -24.6011962890625 -3.33935546875
-62.265625 -57.785400390625 -29.3427734375
-85.656982421875 -20.58349609375 2.57421875
-54.873291015625 10.3853759765625 15.0364990234375
-92.00341796875 -38.2696533203125 -5.727783203125
-38.105224609375 -10.892333984375 1.019287109375
-13.254638671875 -109.08837890625 -20.749755859375
-69.792724609375 -117.5362548828125 -19.79541015625
3.744384765625 -80.451416015625 -35.5093994140625
46.47216796875 -29.2613525390625 -31.5743408203125
-80.726318359375 -23.523193359375 -1.388427734375
-28.333984375 -25.3280029296875 -6.2520751953125
-79.175537109375 -54.8702392578125 -18.2518310546875
46.29248046875 -18.7872314453125 -21.0203857421875
-40.397216796875 0.2491455078125 8.2188720703125
-92.030029296875 -27.5677490234375 3.38037109375
-43.96435546875 -150.2303466796875 -15.0928955078125
-100.786376953125 -8.8038330078125 17.2254638671875
-92.652587890625 -24.8782958984375 6.2254638671875
-18.469970703125 -140.4073486328125 -18.17919921875
-80.927001953125 -65.32421875 -20.5692138671875
-3.942138671875 -79.5750732421875 -35.87158203125
-86.420654296875 -27.7081298828125 -3.1593017578125
-87.350830078125 -22.855712890625 2.2420654296875
-74.432861328125 -75.440673828125 -31.275390625
-67.13427734375 8.5118408203125 17.186279296875
-15.142578125 -102.5224609375 -20.732421875
-39.201416015625 -15.820556640625 -0.8795166015625
-89.034423828125 -47.7030029296875 -12.804931640625
47.84765625 -22.150146484375 -24.02099609375
-39.427001953125 -31.3433837890625 -23.08544921875
-36.82080078125 -130.654296875 -20.282958984375
-22.233154296875 -123.4263916015625 -20.850830078125
-64.98291015625 -56.2427978515625 -22.115478515625
-82.8759765625 -61.5013427734375 -17.9434814453125
29.900146484375 -94.620849609375 -29.4437255859375
-88.01220703125 12.4276123046875 11.62744140625
-29.941650390625 -118.48486328125 -20.873291015625
