51.57177734375 -47.03466796875 10.7677001953125
89.566650390625 -30.8966064453125 7.9534912109375
92.65869140625 -63.6976318359375 3.4761962890625
72.633056640625 -110.830322265625 8.83056640625
45.068115234375 51.9849853515625 15.3426513671875
61.287109375 -28.8062744140625 15.6488037109375
39.887451171875 36.0294189453125 13.380859375
45.1708984375 -63.7919921875 14.736083984375
54.218994140625 6.9346923828125 -21.5982666015625
66.955322265625 20.9873046875 -14.6748046875
11.256591796875 33.072265625 14.3046875
26.135498046875 11.13818359375 14.9879150390625
4.5625 -13.76025390625 15.8851318359375
53.248046875 -38.004150390625 13.782958984375
25.393798828125 -4.55078125 15.5545654296875
30.201416015625 -34.8773193359375 15.9979248046875
0.267578125 -38.1800537109375 14.795654296875
38.813232421875 53.722412109375 19.42919921875
69.123046875 -43.3570556640625 -16.891357421875
93.904541015625 -57.290283203125 0.1593017578125
65.923828125 -55.3494873046875 13.048095703125
56.50439453125 -114.1727294921875 -11.8944091796875
98.9619140625 -85.630859375 7.09521484375
-0.461669921875 18.7965087890625 17.8316650390625
4.71484375 -52.357421875 3.2989501953125
43.9697265625 55.8759765625 20.51708984375
-0.871337890625 -51.0037841796875 13.3206787109375
71.874267578125 -83.1502685546875 -5.3765869140625
14.93603515625 -11.047607421875 16.271240234375
90.640380859375 -42.3414306640625 7.5941162109375
24.473876953125 42.760009765625 17.9097900390625
57.4453125 -45.183349609375 -24.30615234375
62.512451171875 -93.551513671875 -11.2298583984375
60.323486328125 -63.2469482421875 -17.36572265625
69.3037109375 -110.2257080078125 -0.2213134765625
60.42724609375 -68.5225830078125 11.441650390625
49.520263671875 50.5589599609375 5.63037109375
43.8779296875 63.6004638671875 11.6580810546875
98.976318359375 -89.0213623046875 -0.0357666015625
3.89697265625 12.561767578125 15.4188232421875
-6.276611328125 -60.2991943359375 5.5567626953125
11.2314453125 37.9835205078125 20.2940673828125
55.7353515625 -35.320556640625 -21.832763671875
2.327880859375 -57.3472900390625 11.5260009765625
35.728759765625 58.0755615234375 18.51025390625
100.672119140625 -100.408447265625 10.360107421875
58.79638671875 -54.005859375 -23.4989013671875
63.847412109375 -105.470703125 -2.441650390625
9.76708984375 13.4312744140625 15.4962158203125
31.09375 7.4984130859375 15.019775390625
10.341064453125 43.542236328125 25.0545654296875
97.108642578125 -69.184326171875 -4.0599365234375
64.057373046875 -54.03076171875 -17.716796875
43.663818359375 10.932373046875 14.369140625
71.11669921875 -0.9986572265625 -22.3946533203125
28.60791015625 53.0467529296875 23.6444091796875
71.147705078125 -9.7728271484375 -25.8575439453125
14.55908203125 15.6085205078125 16.0499267578125
53.193359375 66.24072265625 -0.6962890625
16.013916015625 53.63916015625 28.40380859375
60.9189453125 -49.1519775390625 -25.8848876953125
52.460693359375 -6.5025634765625 -21.715576171875
97.77978515625 -90.16064453125 12.3956298828125
69.495361328125 -79.6400146484375 -8.4068603515625
9.716552734375 20.7198486328125 15.1934814453125
68.281982421875 -114.0423583984375 5.66796875
63.595458984375 -104.4735107421875 -8.0064697265625
0.182861328125 31.50390625 15.236328125
11.83056640625 -72.9664306640625 5.6212158203125
72.181396484375 -112.529296875 -8.5546875
57.21630859375 -31.97021484375 -26.8922119140625
42.595947265625 20.617919921875 16.1898193359375
46.962890625 45.3333740234375 18.14208984375
70.654052734375 -44.5989990234375 -12.1546630859375
61.08251953125 35.553955078125 -5.22802734375
43.1845703125 62.842529296875 24.7607421875
64.5751953125 -67.72607421875 -14.3369140625
18.26611328125 -38.1007080078125 14.647216796875
-2.04248046875 -2.6363525390625 16.3798828125
38.763427734375 -71.9283447265625 6.857666015625
98.297607421875 -57.114501953125 -4.172119140625
45.177734375 -46.813232421875 10.968505859375
-5.795166015625 18.609375 16.2406005859375
14.758056640625 27.565673828125 14.51611328125
60.712158203125 -79.4703369140625 -18.1866455078125
32.6669921875 18.4825439453125 14.445068359375
33.34375 -29.7799072265625 16.8751220703125
51.931640625 18.41796875 -8.98779296875
49.527099609375 73.6163330078125 23.669189453125
-2.208251953125 -68.7242431640625 6.2681884765625
71.3076171875 -17.9229736328125 -23.6566162109375
23.14794921875 28.3388671875 14.759765625
61.3994140625 -71.9984130859375 -20.4306640625
40.84130859375 -53.3841552734375 12.8306884765625
94.006591796875 -62.586181640625 8.19091796875
36.616455078125 -18.932861328125 16.442626953125
54.998046875 -25.040771484375 -21.2852783203125
28.943359375 -1.044677734375 15.593994140625
14.109375 43.2904052734375 18.5687255859375
51.494384765625 23.6044921875 -13.8524169921875
23.798583984375 -25.00146484375 17.256103515625
41.183349609375 -43.9561767578125 11.9193115234375
44.433837890625 38.1383056640625 13.7203369140625
7.719482421875 3.569091796875 15.106689453125
42.8662109375 59.372802734375 7.7877197265625
42.0322265625 -15.5745849609375 17.68896484375
68.391357421875 15.8856201171875 -17.061767578125
71.265869140625 -94.375244140625 -2.83154296875
41.35595703125 -25.2603759765625 16.530517578125
98.002685546875 -95.0963134765625 2.531005859375
58.528076171875 28.0224609375 -10.6649169921875
53.577392578125 35.1466064453125 -9.455810546875
56.57177734375 17.9405517578125 16.35595703125
54.12646484375 74.0091552734375 20.8521728515625
-16.243896484375 -67.22607421875 5.073486328125
28.99169921875 -19.5115966796875 16.310302734375
96.443359375 -76.0413818359375 9.736083984375
27.687744140625 -10.4329833984375 15.5977783203125
50.128662109375 18.1883544921875 -13.703125
26.4560546875 16.001220703125 15.1090087890625
66.21533203125 -112.853271484375 -15.0030517578125
0.88916015625 -52.0968017578125 0.2686767578125
48.78759765625 72.3204345703125 8.5455322265625
57.1591796875 -21.8355712890625 -28.80419921875
61.496826171875 -82.3311767578125 -12.8245849609375
62.326416015625 30.6759033203125 -7.57275390625
33.038330078125 47.7864990234375 20.7738037109375
44.502685546875 -1.7567138671875 14.4425048828125
57.419921875 -31.631591796875 16.15380859375
51.19384765625 8.9981689453125 -15.76123046875
64.895751953125 8.646240234375 -16.107177734375
63.829345703125 22.284423828125 -11.1751708984375
59.0888671875 16.63427734375 -15.4395751953125
70.229736328125 -71.4833984375 12.252197265625
63.470458984375 -73.0577392578125 11.7806396484375
90.47607421875 -51.843505859375 3.9654541015625
11.538818359375 31.334716796875 25.1259765625
36.66943359375 59.5311279296875 25.129638671875
3.36669921875 -59.986572265625 1.1341552734375
60.664794921875 -112.6549072265625 -9.059326171875
49.946533203125 42.1488037109375 -1.697998046875
31.630615234375 33.860595703125 14.0853271484375
5.940673828125 -73.32666015625 2.0543212890625
51.062744140625 34.1412353515625 -1.7308349609375
31.5595703125 -41.9681396484375 12.2127685546875
21.122802734375 -29.754150390625 17.992431640625
62.089599609375 -58.6448974609375 -26.1959228515625
60.017822265625 50.7620849609375 3.2239990234375
5.94140625 -18.2230224609375 15.7177734375
49.3310546875 77.8115234375 25.7159423828125
92.244140625 -54.1160888671875 8.4259033203125
71.154541015625 -76.0509033203125 11.1741943359375
22.74609375 48.6339111328125 22.848388671875
6.822509765625 -4.2196044921875 16.3062744140625
25.545654296875 -14.827392578125 16.1141357421875
65.166259765625 -73.6202392578125 -12.35791015625
62.117919921875 -96.8018798828125 -7.75048828125
101.701904296875 -103.1346435546875 6.242919921875
50.09423828125 27.3206787109375 -6.87158203125
-5.56640625 -58.9305419921875 10.5809326171875
71.960693359375 -51.6427001953125 -12.0240478515625
57.229248046875 -48.3978271484375 10.588623046875
89.28759765625 -28.5654296875 2.2222900390625
56.710205078125 -1.5880126953125 -24.0361328125
92.958251953125 -39.45068359375 -4.048095703125
53.29638671875 81.5023193359375 27.751953125
95.392578125 -47.698486328125 -3.630859375
57.511474609375 39.4302978515625 -4.359375
42.421142578125 44.9114990234375 17.9503173828125
69.990966796875 -59.410888671875 -12.7352294921875
66.885986328125 -0.1031494140625 -18.7764892578125
63.571044921875 -48.7244873046875 -18.6817626953125
45.583740234375 -57.013427734375 11.1534423828125
-7.0654296875 26.201171875 16.22314453125
58.50439453125 55.4964599609375 5.80419921875
54.003173828125 -16.6888427734375 -21.066650390625
63.677490234375 -89.8043212890625 -7.8575439453125
45.723388671875 66.115966796875 28.781005859375
11.295166015625 -34.890380859375 16.398193359375
46.907470703125 64.87939453125 1.8387451171875
56.368408203125 -115.7039794921875 5.167724609375
95.741943359375 -80.45263671875 5.3599853515625
40.724853515625 -37.791259765625 14.186767578125
-1.18310546875 -74.47705078125 1.6119384765625
1.54736328125 -54.757568359375 5.374267578125
29.04052734375 39.8792724609375 15.2794189453125
92.296875 -91.476318359375 4.8416748046875
62.72119140625 -111.4996337890625 8.2432861328125
79.083984375 -79.6488037109375 12.0604248046875
50.411376953125 37.198974609375 -5.594482421875
46.314697265625 -7.133544921875 15.1707763671875
47.396728515625 7.111572265625 13.7509765625
48.78515625 81.2440185546875 29.7000732421875
54.326171875 69.9915771484375 1.4661865234375
22.9912109375 -43.02685546875 12.600830078125
52.786376953125 49.6986083984375 11.2542724609375
22.926513671875 33.7525634765625 14.7052001953125
48.048095703125 -31.1163330078125 16.516357421875
64.78369140625 -109.6195068359375 -8.607421875
48.2490234375 -74.046142578125 4.8106689453125
90.01025390625 -44.9149169921875 3.077880859375
37.27587890625 -7.43994140625 15.8975830078125
80.554931640625 -111.82177734375 6.2623291015625
60.1826171875 -37.7191162109375 11.4200439453125
13.872314453125 0.9930419921875 15.42822265625
45.132080078125 -23.3406982421875 15.50341796875
35.399169921875 42.731201171875 16.516357421875
57.542236328125 -112.5931396484375 -2.19677734375
64.488037109375 -111.6773681640625 -0.793701171875
34.4619140625 -3.13818359375 15.5260009765625
25.425048828125 -34.45068359375 16.2666015625
55.470458984375 -24.92041015625 -25.696044921875
60.17529296875 -66.035888671875 -21.6104736328125
97.3388671875 -79.875244140625 0.9014892578125
49.312744140625 48.419677734375 16.3248291015625
-3.92529296875 -74.285888671875 10.1910400390625
73.16162109375 -111.9404296875 1.1629638671875
50.586181640625 43.6572265625 3.5511474609375
50.15771484375 -42.55126953125 12.0433349609375
-7.68994140625 -53.74169921875 0.89111328125
38.421875 3.219970703125 15.064453125
51.348876953125 13.3387451171875 -16.504150390625
2.90576171875 -35.187255859375 16.2264404296875
11.691162109375 26.5028076171875 24.8365478515625
9.470458984375 -70.763671875 0.5408935546875
62.830078125 -113.9112548828125 3.42333984375
69.133056640625 -66.419189453125 -12.9227294921875
49.6875 -36.005615234375 14.8565673828125
33.3486328125 27.7515869140625 14.2540283203125
61.03759765625 41.455322265625 -1.8802490234375
35.608154296875 -48.3817138671875 11.02490234375
50.83740234375 20.4481201171875 14.208984375
15.10498046875 50.156494140625 25.146240234375
95.1435546875 -72.0238037109375 8.11376953125
61.970458984375 -88.396240234375 -34.4254150390625
22.1650390625 6.7894287109375 15.5595703125
9.335205078125 40.3740234375 17.48876953125
60.466064453125 16.4635009765625 12.3004150390625
11.05810546875 34.053466796875 19.040771484375
14.200439453125 -43.99853515625 11.889404296875
73.84228515625 -40.1531982421875 -13.2900390625
38.71533203125 -70.4588623046875 15.2496337890625
51.689453125 50.6177978515625 2.129638671875
42.343505859375 -29.4151611328125 17.0595703125
0.020751953125 -51.61962890625 7.7010498046875
16.447509765625 -18.8055419921875 17.2340087890625
89.556640625 -35.3203125 3.5076904296875
38.122314453125 -70.1585693359375 10.63134765625
68.91748046875 -74.568115234375 -11.01708984375
-6.300048828125 -60.845947265625 1.3814697265625
29.5009765625 57.3173828125 27.4345703125
45.4150390625 -67.3839111328125 4.2742919921875
58.9892578125 -117.3916015625 -12.2734375
5.586181640625 -41.5020751953125 12.8419189453125
59.084716796875 -93.0772705078125 -35.1121826171875
18.179931640625 34.7977294921875 14.902099609375
98.56396484375 -83.466552734375 -0.5849609375
37.55224609375 50.2996826171875 21.20166015625
59.70751953125 -41.9388427734375 10.8038330078125
50.978515625 -0.5966796875 -16.5716552734375
66.978271484375 -97.527587890625 -4.382080078125
52.10400390625 -8.6492919921875 -17.1348876953125
54.626708984375 -116.5736083984375 -6.84375
9.494140625 -40.4962158203125 13.763916015625
-2.3759765625 27.3597412109375 15.4635009765625
17.997802734375 41.3521728515625 16.682861328125
57.961181640625 -49.945068359375 -23.3011474609375
68.685302734375 -8.413330078125 -21.497802734375
45.35791015625 -61.275146484375 11.633056640625
56.05615234375 48.7176513671875 1.4407958984375
32.091796875 57.05126953125 21.1798095703125
-0.421875 -54.504638671875 10.95703125
2.9990234375 -2.71435546875 16.02294921875
48.162841796875 67.395263671875 23.3782958984375
42.017333984375 -66.0421142578125 15.6102294921875
42.703369140625 55.080810546875 16.83984375
71.849365234375 -114.4854736328125 3.986083984375
45.057373046875 -38.3387451171875 13.6180419921875
44.052978515625 68.6229248046875 18.70947265625
44.16650390625 28.091796875 13.0716552734375
64.474365234375 -84.6907958984375 -9.457763671875
64.461669921875 45.93408203125 -1.8095703125
1.4501953125 15.615966796875 14.9901123046875
56.59423828125 -10.2255859375 -25.658935546875
0.5927734375 -11.12158203125 16.9561767578125
12.029541015625 -7.08349609375 15.739990234375
38.932861328125 11.9805908203125 14.7276611328125
55.7314453125 -65.107666015625 12.2625732421875
16.55078125 -1.839111328125 15.93994140625
61.421630859375 -67.17724609375 -25.1326904296875
43.571533203125 61.6063232421875 20.4459228515625
54.433837890625 -94.376220703125 11.45703125
22.32763671875 13.67333984375 15.3297119140625
97.0087890625 -86.66552734375 3.0938720703125
52.362060546875 41.92431640625 14.724609375
60.91845703125 -38.6563720703125 -19.84716796875
58.221435546875 -40.7008056640625 -26.7252197265625
42.78369140625 -65.75341796875 8.660888671875
64.154296875 18.3092041015625 -12.44970703125
42.027099609375 -74.1510009765625 4.628173828125
31.478271484375 -10.56494140625 16.3262939453125
8.274169921875 -14.7843017578125 16.1390380859375
0.422119140625 -42.191650390625 13.195068359375
1.07177734375 -46.5784912109375 11.781982421875
-2.93701171875 32.71875 17.3218994140625
32.719482421875 -20.443115234375 16.4730224609375
25.28076171875 1.1571044921875 15.5433349609375
-3.8837890625 6.0950927734375 16.1856689453125
-4.962646484375 9.83544921875 15.9696044921875
56.384033203125 13.5030517578125 13.99853515625
90.307861328125 -38.501220703125 5.908203125
9.88330078125 41.0804443359375 22.0791015625
92.117919921875 -43.9757080078125 0.033203125
2.68701171875 -59.21923828125 5.978759765625
48.136474609375 73.94677734375 27.896728515625
29.318115234375 -45.433349609375 10.9329833984375
70.5537109375 22.2440185546875 -14.5462646484375
61.54833984375 -71.017333984375 -13.94140625
54.25244140625 16.118896484375 -17.742431640625
55.176513671875 -28.7286376953125 -25.834228515625
66.421630859375 29.9320068359375 -11.044921875
34.0986328125 -16.1153564453125 16.0601806640625
100.373046875 -96.5982666015625 11.705078125
51.81640625 -66.9495849609375 11.413330078125
47.04833984375 35.4503173828125 13.2113037109375
-4.824951171875 -55.3111572265625 4.7734375
49.021484375 -57.4134521484375 13.06982421875
60.718017578125 4.0172119140625 -20.0439453125
67.9658203125 -57.712158203125 -16.2091064453125
46.7607421875 71.0738525390625 11.4554443359375
61.551513671875 -2.8653564453125 -22.4442138671875
63.6015625 50.420166015625 1.0450439453125
36.63037109375 -27.538330078125 17.098388671875
53.215576171875 73.578125 5.7303466796875
51.851806640625 53.830322265625 4.7337646484375
91.755126953125 -54.48193359375 1.6597900390625
45.680419921875 -12.708251953125 15.3121337890625
93.185546875 -67.9117431640625 3.7130126953125
49.386474609375 56.1158447265625 7.9190673828125
92.228515625 -37.9886474609375 -0.7001953125
9.282470703125 -66.5369873046875 2.2313232421875
63.206787109375 -68.755615234375 14.08251953125
17.364990234375 48.1236572265625 22.99462890625
93.849853515625 -64.6473388671875 -0.7216796875
9.452880859375 30.5257568359375 18.4710693359375
27.045166015625 31.2076416015625 14.5098876953125
100.4521484375 -91.4951171875 10.181396484375
69.295654296875 -110.1934814453125 -8.40966796875
104.834228515625 -88.1500244140625 10.1953125
70.31396484375 -86.718505859375 -5.38916015625
47.296875 10.9530029296875 13.62255859375
23.083251953125 51.17822265625 25.803955078125
1.573486328125 22.1788330078125 15.1287841796875
10.024169921875 36.1312255859375 16.1632080078125
58.066162109375 -36.070068359375 14.557373046875
6.228515625 -63.5660400390625 3.476318359375
75.72998046875 -112.210693359375 7.3729248046875
59.614990234375 10.964599609375 -17.7564697265625
36.12890625 61.014404296875 21.549072265625
55.88671875 -101.66162109375 11.9085693359375
70.722412109375 -4.655517578125 -22.5650634765625
68.447509765625 7.88232421875 -18.9912109375
65.740966796875 13.0130615234375 -16.1431884765625
30.30224609375 21.2894287109375 14.5753173828125
57.2529296875 36.517333984375 -6.5718994140625
69.71435546875 -92.060791015625 -5.21484375
47.138671875 67.7828369140625 5.2501220703125
63.322998046875 -112.8480224609375 -11.5733642578125
46.5087890625 73.065185546875 15.855712890625
71.018310546875 -107.030517578125 -0.728515625
64.17236328125 -64.4144287109375 -25.2071533203125
53.86962890625 -115.192626953125 -2.9547119140625
57.255859375 -112.6888427734375 1.7471923828125
62.55126953125 -87.2935791015625 -30.664306640625
59.759033203125 -58.1256103515625 -22.2264404296875
56.88720703125 -17.3248291015625 -26.937744140625
8.612060546875 30.6199951171875 14.6513671875
50.099853515625 13.3475341796875 14.11669921875
72.6328125 -79.2618408203125 -6.638916015625
61.957275390625 -60.060302734375 -16.84228515625
95.97607421875 -90.34375 3.829833984375
44.436279296875 59.4603271484375 24.558349609375
7.385009765625 16.4327392578125 15.1119384765625
45.732177734375 41.726318359375 15.05810546875
53.741455078125 7.64501953125 13.699951171875
68.98046875 -83.1949462890625 -8.5159912109375
16.669677734375 -35.1905517578125 16.024169921875
58.2607421875 45.8790283203125 0.6556396484375
-4.953125 -63.2655029296875 7.3048095703125
60.11962890625 -113.2911376953125 -4.7784423828125
53.06005859375 -34.838623046875 15.4432373046875
52.0859375 3.5858154296875 -19.6802978515625
53.73779296875 -16.6495361328125 -17.500244140625
38.184814453125 -41.1065673828125 12.7923583984375
32.486083984375 -38.9219970703125 13.82666015625
44.080322265625 65.3399658203125 7.61767578125
21.778076171875 -37.5611572265625 14.8577880859375
56.532470703125 24.49609375 -13.1807861328125
44.773681640625 52.442138671875 20.979736328125
52.827880859375 -10.4921875 -20.27099609375
55.1669921875 2.22802734375 -23.2022705078125
20.53857421875 -5.6710205078125 16.03955078125
29.068359375 24.5914306640625 14.3431396484375
6.88330078125 22.814453125 15.4027099609375
25.532958984375 39.6024169921875 15.0494384765625
59.51806640625 -53.79443359375 -18.9239501953125
53.91015625 -49.552978515625 11.510986328125
66.062744140625 25.445068359375 -12.639892578125
62.45947265625 -54.97412109375 12.6226806640625
44.9453125 20.787353515625 13.587158203125
7.02490234375 -58.9168701171875 -0.86865234375
56.374755859375 42.9656982421875 15.146240234375
97.221435546875 -72.3433837890625 -1.3394775390625
35.253662109375 12.7181396484375 14.577880859375
38.077392578125 -74.9505615234375 12.135498046875
94.906982421875 -66.5086669921875 -3.567626953125
59.763916015625 19.72607421875 16.94287109375
52.004638671875 36.76318359375 12.71533203125
36.640869140625 37.197509765625 13.8883056640625
56.0712890625 -34.8896484375 -25.371337890625
95.688232421875 -75.5509033203125 0.758544921875
50.187255859375 26.10693359375 -10.9539794921875
39.658447265625 -10.849365234375 17.0845947265625
-0.784423828125 -67.0206298828125 1.94287109375
10.697509765625 49.1151123046875 24.3502197265625
52.750732421875 31.7425537109375 -10.621337890625
38.12841796875 -34.3968505859375 15.7354736328125
10.939697265625 9.650390625 15.7132568359375
30.952392578125 56.22607421875 24.5125732421875
65.779296875 -104.3037109375 -10.6580810546875
64.0849609375 -86.8551025390625 -13.822998046875
46.27587890625 49.6181640625 17.820556640625
-3.03857421875 -66.196533203125 9.339111328125
54.91796875 -29.8316650390625 17.6619873046875
38.137451171875 20.04931640625 15.13818359375
10.935791015625 -67.1962890625 5.712646484375
93.036865234375 -51.7596435546875 -0.52880859375
41.510009765625 51.6234130859375 20.389892578125
41.11962890625 8.302978515625 14.4078369140625
-2.645751953125 16.7060546875 16.2452392578125
33.53271484375 -34.1436767578125 16.1123046875
43.01513671875 59.0228271484375 16.0438232421875
94.100341796875 -72.089599609375 3.08935546875
52.059326171875 45.012451171875 -2.2965087890625
45.956298828125 4.17724609375 14.6986083984375
3.91455078125 -70.4072265625 3.2772216796875
63.5517578125 -113.969970703125 10.4195556640625
2.995849609375 -56.209716796875 2.6749267578125
32.363037109375 -24.193359375 16.4583740234375
11.662109375 23.7899169921875 15.4404296875
63.036865234375 -80.5047607421875 -15.94921875
27.1181640625 45.574951171875 19.744140625
58.335205078125 -27.7403564453125 16.9105224609375
57.42431640625 -44.6947021484375 -20.9625244140625
92.160888671875 -59.380615234375 2.7628173828125
56.5224609375 -41.772705078125 -23.7491455078125
22.4248046875 53.3631591796875 28.278564453125
64.12744140625 -96.5125732421875 -10.4298095703125
44.558837890625 55.376953125 11.1004638671875
63.85498046875 -50.42919921875 -26.8673095703125
60.095703125 -74.881591796875 -19.3336181640625
42.733154296875 53.6956787109375 13.6612548828125
26.96533203125 -27.2113037109375 17.5509033203125
54.6259765625 -21.4669189453125 -20.9761962890625
44.01611328125 69.454345703125 29.6387939453125
54.550537109375 -118.111572265625 0.59326171875
44.4091796875 68.3116455078125 12.3568115234375
88.88818359375 -31.1793212890625 4.704833984375
52.13525390625 9.466796875 -18.921142578125
64.4580078125 38.334716796875 -7.16748046875
21.807373046875 -16.8297119140625 16.127197265625
51.703125 76.2855224609375 23.53857421875
5.498291015625 -9.60791015625 16.1815185546875
22.613037109375 20.4031982421875 15.1513671875
-0.3642578125 -21.1531982421875 15.77197265625
52.29345703125 10.15283203125 -11.62353515625
51.79833984375 -2.808349609375 -20.142333984375
16.06982421875 23.8192138671875 14.7744140625
19.120849609375 21.076416015625 15.0035400390625
47.77734375 19.098388671875 13.70556640625
66.00927734375 -87.0477294921875 -16.5694580078125
41.457275390625 30.3275146484375 13.93701171875
50.694580078125 -91.9610595703125 12.595703125
53.112060546875 -41.125 12.4658203125
66.925048828125 -74.007080078125 12.13232421875
45.419189453125 -50.3486328125 10.2587890625
30.440673828125 15.760498046875 14.5811767578125
-0.6181640625 0.153076171875 15.479736328125
64.8369140625 -58.557373046875 -16.530517578125
22.422607421875 45.5504150390625 20.2833251953125
102.700927734375 -89.97216796875 12.2989501953125
33.626953125 -45.5687255859375 10.4241943359375
31.083251953125 2.6949462890625 15.492431640625
41.885986328125 -64.687255859375 11.775634765625
6.87255859375 -44.2337646484375 11.36669921875
48.254150390625 -44.695068359375 10.553955078125
37.153076171875 -51.0697021484375 11.9267578125
61.44580078125 -51.9649658203125 11.511962890625
62.933837890625 -76.1103515625 -12.5311279296875
39.078857421875 -15.243408203125 16.44091796875
55.722900390625 -43.8173828125 8.477294921875
90.955322265625 -48.42822265625 2.54541015625
26.17578125 -43.087890625 12.119140625
0.943603515625 3.360595703125 15.9951171875
49.09521484375 -64.57958984375 10.480712890625
91.828125 -45.25 8.239013671875
38.166259765625 26.596435546875 14.419921875
29.629150390625 -31.871826171875 16.938232421875
34.42578125 49.7633056640625 22.8642578125
17.887451171875 -32.2703857421875 17.2669677734375
12.509521484375 40.6585693359375 16.3538818359375
50.22607421875 -38.8912353515625 13.37841796875
50.138427734375 67.1702880859375 1.65380859375
94.834228515625 -91.306640625 12.1282958984375
51.27294921875 16.5157470703125 -16.1383056640625
102.03125 -83.3873291015625 9.0823974609375
48.78271484375 70.3416748046875 24.3536376953125
59.295166015625 -61.7987060546875 -19.9832763671875
69.190185546875 -67.91357421875 -10.136474609375
45.496826171875 66.50244140625 25.6507568359375
-7.215576171875 -56.989990234375 3.5667724609375
-3.8974609375 -55.2646484375 8.859619140625
35.70703125 17.6536865234375 14.3272705078125
59.45263671875 -113.0831298828125 -12.1175537109375
42.299072265625 -4.7529296875 15.070556640625
39.09716796875 -0.5196533203125 15.4693603515625
43.617431640625 62.253173828125 8.825439453125
3.5849609375 29.560546875 15.3291015625
37.523681640625 66.7276611328125 29.166259765625
6.604248046875 27.3970947265625 15.2164306640625
37.546142578125 58.92919921875 28.084228515625
24.79052734375 23.6536865234375 14.619140625
56.847412109375 -40.0245361328125 12.6976318359375
41.937744140625 -41.105224609375 12.9805908203125
52.57373046875 -43.85498046875 10.531494140625
59.345458984375 -112.8756103515625 8.232177734375
54.363037109375 42.752685546875 -3.8580322265625
36.116455078125 70.6142578125 27.142333984375
12.66064453125 -13.4813232421875 15.5087890625
2.542236328125 -49.87255859375 7.135009765625
44.299072265625 -31.81640625 16.7423095703125
-1.89990234375 12.4617919921875 15.830810546875
59.51806640625 13.510498046875 12.529541015625
25.392333984375 -7.5904541015625 16.20361328125
27.425048828125 56.0006103515625 25.5347900390625
-2.480224609375 -71.8656005859375 8.22900390625
42.08642578125 0.152587890625 14.9739990234375
98.49658203125 -91.1947021484375 2.125
7.7275390625 -69.7359619140625 3.6142578125
59.497802734375 -9.398193359375 -24.95263671875
64.14111328125 -83.1912841796875 -14.8560791015625
57.20654296875 71.0355224609375 1.84521484375
33.642822265625 58.9383544921875 25.0579833984375
-3.38916015625 20.3607177734375 17.0423583984375
41.45068359375 47.2906494140625 20.4063720703125
43.658935546875 -52.9798583984375 11.67041015625
-6.426513671875 -57.50390625 7.9979248046875
42.81591796875 17.2708740234375 14.6116943359375
41.895263671875 -35.2257080078125 15.3978271484375
55.391845703125 75.63427734375 6.39013671875
27.015380859375 50.7606201171875 24.92138671875
63.478515625 -81.429443359375 -18.8343505859375
53.484130859375 47.87353515625 -0.099853515625
4.11181640625 4.1959228515625 15.7369384765625
70.2919921875 -112.3194580078125 7.1912841796875
47.18505859375 -0.42431640625 13.8582763671875
70.74365234375 -6.97705078125 -24.7047119140625
62.04052734375 -5.8028564453125 -23.105224609375
49.8984375 -86.3499755859375 12.26416015625
24.47314453125 36.7249755859375 14.3333740234375
12.49365234375 18.9686279296875 15.410888671875
57.910888671875 -67.0958251953125 12.99658203125
28.728515625 12.75537109375 14.9141845703125
54.890869140625 -115.537109375 2.5206298828125
61.69384765625 -85.2598876953125 -11.1083984375
102.30517578125 -102.7061767578125 9.1773681640625
27.990234375 -37.353515625 14.8145751953125
65.89990234375 -76.5474853515625 -11.430419921875
68.95654296875 4.9744873046875 -19.642578125
-6.393798828125 23.257080078125 16.311767578125
39.92822265625 -70.2269287109375 4.6021728515625
64.12890625 -112.8409423828125 -8.2059326171875
3.947998046875 -75.699951171875 3.3193359375
50.04443359375 5.79296875 14.2769775390625
68.652099609375 1.896484375 -20.15673828125
94.17724609375 -59.7740478515625 -4.55029296875
33.304931640625 5.138916015625 14.8585205078125
33.670654296875 15.2584228515625 14.581298828125
51.388916015625 16.4898681640625 -11.208251953125
101.481689453125 -86.34375 8.5377197265625
64.633056640625 -66.494873046875 11.4127197265625
1.5654296875 -56.848388671875 8.4412841796875
50.4130859375 46.84521484375 3.39306640625
57.97705078125 18.509765625 13.7828369140625
16.3232421875 -14.234619140625 16.6343994140625
74.054931640625 -112.282470703125 -10.8656005859375
94.457763671875 -61.3184814453125 -0.097900390625
43.364990234375 65.94921875 20.330810546875
91.522705078125 -51.66162109375 6.9034423828125
4.7607421875 8.0740966796875 15.4547119140625
44.8603515625 -20.488525390625 14.7088623046875
50.878662109375 14.6644287109375 -13.8489990234375
63.66259765625 43.488037109375 -3.2933349609375
11.243896484375 33.353515625 22.9677734375
102.558349609375 -89.828125 8.580810546875
55.56787109375 -32.7056884765625 -23.424560546875
69.59912109375 -113.0523681640625 0.630859375
51.924072265625 41.0855712890625 2.919189453125
93.111572265625 -65.441650390625 6.5029296875
-1.682373046875 -5.5755615234375 16.326416015625
4.989013671875 -6.5421142578125 16.1871337890625
44.01318359375 66.0421142578125 15.4144287109375
62.60791015625 -103.481689453125 -4.25146484375
62.197265625 -47.582275390625 -28.044921875
90.31494140625 -34.35791015625 7.8614501953125
64.39013671875 -91.5084228515625 -12.2550048828125
43.070068359375 -48.901611328125 11.314453125
49.984619140625 1.8741455078125 -15.2955322265625
96.6767578125 -83.253173828125 5.4171142578125
58.58740234375 19.3482666015625 -14.39111328125
1.46240234375 -52.5657958984375 12.4237060546875
24.282958984375 -28.813232421875 17.6224365234375
38.811279296875 32.4278564453125 13.46728515625
28.963134765625 18.6707763671875 14.651611328125
-1.73291015625 -48.268310546875 12.67041015625
99.678955078125 -88.8702392578125 7.020751953125
-3.633056640625 -63.3701171875 0.9835205078125
59.5908203125 -31.6025390625 14.1842041015625
51.9521484375 -6.183837890625 -18.7010498046875
45.518798828125 62.236572265625 27.4725341796875
56.096923828125 -37.4266357421875 -23.8253173828125
13.287353515625 -3.4647216796875 15.697998046875
59.11328125 40.1549072265625 13.2880859375
50.2998046875 19.7366943359375 -11.23388671875
1.19287109375 -73.244140625 2.7686767578125
43.048583984375 57.8414306640625 10.2969970703125
67.318115234375 -101.0411376953125 -3.107421875
26.61474609375 -17.84375 16.32958984375
49.85302734375 37.1279296875 -2.745849609375
29.73095703125 -39.8740234375 13.4827880859375
13.522216796875 30.068115234375 13.752685546875
53.427001953125 -18.915283203125 -19.27099609375
28.267333984375 7.2315673828125 15.5726318359375
12.215576171875 23.9617919921875 23.570068359375
68.9775390625 -77.5780029296875 -10.3551025390625
17.177734375 14.619873046875 15.3621826171875
66.268798828125 17.3953857421875 -15.837890625
63.4736328125 -109.0640869140625 -1.4447021484375
33.07080078125 67.3697509765625 29.4130859375
61.425537109375 -79.464111328125 -13.0137939453125
88.91064453125 -27.1806640625 5.17041015625
70.605224609375 -112.7252197265625 -11.7518310546875
33.208984375 10.3143310546875 14.8328857421875
20.571533203125 -41.3541259765625 13.0750732421875
19.767333984375 -2.9107666015625 15.9285888671875
71.7412109375 -42.0286865234375 -13.8311767578125
48.043701171875 70.0670166015625 6.7176513671875
64.645751953125 -115.2164306640625 -15.379150390625
38.80224609375 -23.9705810546875 16.47900390625
51.147705078125 73.0926513671875 19.9530029296875
59.109619140625 -44.7359619140625 10.7626953125
44.625244140625 -64.90576171875 10.985107421875
77.515625 -82.0098876953125 11.6846923828125
68.2822265625 -1.6258544921875 -20.7529296875
93.83203125 -67.384765625 0.978759765625
51.05126953125 79.8680419921875 27.0758056640625
23.767578125 -39.2725830078125 13.72802734375
54.87548828125 -119.37939453125 -6.0225830078125
96.103515625 -55.85595703125 -2.8446044921875
42.96484375 60.9022216796875 11.8719482421875
17.57470703125 38.828857421875 15.4180908203125
61.828857421875 -65.9949951171875 11.2828369140625
54.507568359375 -45.9456787109375 10.65771484375
52.59521484375 43.1341552734375 6.061279296875
34.443115234375 -7.4466552734375 15.592041015625
65.18603515625 -114.964599609375 2.2325439453125
24.760498046875 -22.32568359375 16.517578125
62.94384765625 -74.346435546875 -22.562744140625
45.36572265625 65.57666015625 4.7298583984375
70.28271484375 -47.252197265625 -13.09716796875
69.43603515625 -70.8560791015625 -9.8917236328125
74.64697265625 -83.2655029296875 -4.7998046875
65.380615234375 -111.6448974609375 7.2821044921875
51.1396484375 40.0823974609375 -4.099853515625
58.293212890625 -29.2989501953125 -27.538818359375
33.47705078125 55.7830810546875 19.06689453125
34.1845703125 -74.025390625 12.9578857421875
35.306396484375 33.74658203125 13.8782958984375
68.126708984375 -94.55029296875 -5.1123046875
69.04296875 -63.6051025390625 -13.11083984375
43.265625 57.872314453125 18.654541015625
59.7880859375 -65.829833984375 -18.361572265625
64.086669921875 31.823486328125 -9.446044921875
69.892578125 -96.69384765625 -3.6328125
50.94970703125 50.43505859375 9.2628173828125
66.775390625 -90.90966796875 -6.7540283203125
7.243408203125 -1.4906005859375 15.8203125
13.3896484375 8.03076171875 15.789794921875
61.935791015625 -93.5880126953125 -37.0689697265625
62.353271484375 -99.6761474609375 -6.4649658203125
34.88427734375 20.3228759765625 14.2227783203125
11.119873046875 40.9263916015625 25.647216796875
37.63623046875 39.7216796875 14.5491943359375
3.17431640625 -61.60302734375 4.6109619140625
59.527587890625 13.4881591796875 -16.5704345703125
53.80078125 -19.148681640625 -22.3658447265625
73.96484375 -113.3927001953125 5.485595703125
79.037353515625 -112.456298828125 4.0128173828125
25.185302734375 -36.93017578125 15.0185546875
40.654296875 14.127685546875 14.3031005859375
50.218505859375 34.46826171875 -5.108642578125
17.99609375 28.2181396484375 15.1234130859375
98.68505859375 -78.7998046875 9.29541015625
49.757568359375 29.8955078125 -5.8182373046875
62.16943359375 -91.979736328125 -8.6964111328125
54.928955078125 -26.8568115234375 -23.3829345703125
15.505859375 34.8033447265625 14.1649169921875
68.7197265625 -53.8028564453125 -16.4122314453125
78.921875 -110.91796875 1.528564453125
54.96435546875 -32.893798828125 15.9549560546875
31.927001953125 30.120849609375 14.3072509765625
9.467041015625 -4.9918212890625 16.0997314453125
55.4931640625 -23.4796142578125 -19.0615234375
16.5986328125 17.276123046875 14.890380859375
24.271240234375 -2.046142578125 15.2772216796875
99.906005859375 -77.3665771484375 -2.4371337890625
105.171142578125 -86.8056640625 12.5797119140625
62.19140625 -78.9967041015625 -20.49609375
51.839599609375 -62.64892578125 11.3380126953125
50.690185546875 76.3187255859375 10.168701171875
30.503173828125 48.5765380859375 21.4842529296875
-7.919677734375 28.805908203125 16.025390625
44.01171875 -13.7515869140625 18.2403564453125
64.36865234375 -71.1912841796875 -13.3612060546875
23.966064453125 9.6175537109375 15.6973876953125
54.380126953125 -23.512451171875 -23.6209716796875
51.5849609375 0.740478515625 -18.8779296875
94.5419921875 -53.936767578125 -1.207763671875
2.97509765625 -14.9501953125 17.7626953125
43.04638671875 52.2862548828125 17.1544189453125
50.59326171875 20.8507080078125 -14.0877685546875
50.75390625 72.583251953125 6.359619140625
29.193359375 -7.80224609375 15.5692138671875
44.661865234375 59.27001953125 28.601806640625
47.752197265625 -47.6846923828125 11.01904296875
-3.812255859375 -53.2984619140625 11.802978515625
63.609130859375 34.7972412109375 -7.921630859375
60.96875 -41.8389892578125 -27.74169921875
56.245849609375 -112.9949951171875 -8.3377685546875
10.383056640625 3.1361083984375 15.379638671875
73.935546875 -112.2569580078125 -13.9774169921875
42.01220703125 41.03759765625 14.7576904296875
7.703857421875 46.0345458984375 24.4622802734375
1.94189453125 -19.0335693359375 14.290771484375
56.40576171875 -24.5267333984375 -28.515625
8.01220703125 -36.3447265625 15.7181396484375
94.313720703125 -73.0174560546875 5.624755859375
96.115478515625 -77.3636474609375 7.3974609375
95.468505859375 -59.22314453125 -1.4781494140625
0.562744140625 11.380615234375 15.5631103515625
44.703857421875 18.97216796875 15.5723876953125
-2.800537109375 -67.9700927734375 3.7437744140625
5.829345703125 -53.869140625 1.359130859375
69.39599609375 14.032958984375 -18.7467041015625
93.374755859375 -57.8094482421875 7.961181640625
62.459716796875 -76.0205078125 -20.0330810546875
10.3251953125 -11.498046875 15.97119140625
9.692138671875 6.685302734375 15.3570556640625
2.15771484375 6.577392578125 15.4774169921875
34.08740234375 59.4547119140625 20.527099609375
71.873779296875 -109.6905517578125 0.3626708984375
70.043701171875 -51.3726806640625 -14.651611328125
33.722900390625 45.7669677734375 19.140625
29.010986328125 50.5504150390625 22.741455078125
28.728515625 54.861572265625 28.1953125
11.281005859375 38.9774169921875 22.9820556640625
30.29150390625 -22.2239990234375 16.6494140625
67.849609375 -57.1036376953125 13.679443359375
50.231689453125 -1.1942138671875 15.0703125
98.932861328125 -86.45556640625 -0.79052734375
67.252685546875 -112.6572265625 -12.545654296875
43.301513671875 -18.5224609375 15.6292724609375
53.511474609375 -14.569091796875 -19.1583251953125
29.158447265625 -29.288330078125 17.41552734375
44.731201171875 -66.1483154296875 6.534912109375
51.1533203125 43.7919921875 16.1922607421875
48.32275390625 69.4786376953125 21.461181640625
46.389404296875 62.441162109375 3.9375
4.62646484375 -58.0479736328125 3.69970703125
44.409912109375 1.2108154296875 14.2222900390625
1.564208984375 -52.3675537109375 2.8272705078125
40.112548828125 -68.5594482421875 7.26123046875
60.286865234375 -113.298828125 2.943359375
35.30224609375 -0.126220703125 15.2451171875
61.783447265625 52.2034912109375 1.872802734375
59.422607421875 -65.0191650390625 12.34814453125
49.884521484375 43.2437744140625 1.0306396484375
-1.483642578125 -45.703125 12.060791015625
31.287841796875 36.6234130859375 14.1944580078125
16.50732421875 -39.8458251953125 13.7208251953125
6.00927734375 1.386474609375 15.9329833984375
43.214599609375 23.682373046875 14.0391845703125
44.515869140625 61.2193603515625 6.49658203125
61.625 -69.5966796875 -21.5032958984375
32.8544921875 -36.502685546875 15.140625
44.976318359375 8.0589599609375 14.19482421875
35.484130859375 -39.4461669921875 13.667724609375
58.6630859375 52.8756103515625 5.5745849609375
36.93017578125 14.751708984375 14.5814208984375
64.46484375 -98.085205078125 -4.9437255859375
50.18603515625 -32.6444091796875 16.337646484375
39.81640625 22.96533203125 15.2275390625
61.7646484375 -36.2169189453125 -19.2275390625
38.587158203125 -43.5574951171875 11.79345703125
62.14306640625 24.2362060546875 -10.6669921875
-1.52734375 -74.97021484375 9.3609619140625
27.66259765625 43.6251220703125 18.0704345703125
52.20458984375 4.65087890625 -13.6680908203125
44.705322265625 71.19921875 17.5052490234375
-9.33154296875 -55.308349609375 -0.420166015625
47.087890625 70.5958251953125 18.4439697265625
55.4296875 45.2586669921875 -1.3970947265625
90.344482421875 -37.3807373046875 2.0972900390625
34.00927734375 36.02001953125 13.9810791015625
61.95947265625 37.5394287109375 -3.7666015625
-1.9951171875 -72.3084716796875 2.8240966796875
60.589599609375 -46.152099609375 -26.5621337890625
16.66650390625 32.483642578125 14.4730224609375
56.517822265625 -14.7484130859375 -26.7333984375
56.152099609375 -50.8486328125 11.84423828125
98.01318359375 -94.5 9.4034423828125
39.49560546875 -73.5762939453125 10.42919921875
77.72607421875 -110.8326416015625 8.33544921875
52.136474609375 37.4593505859375 -7.5321044921875
96.334228515625 -94.8121337890625 4.5142822265625
39.003173828125 -29.081787109375 16.5845947265625
48.89501953125 -2.11474609375 -16.1923828125
7.0615234375 -72.685546875 -0.2086181640625
98.0576171875 -73.163330078125 -3.6658935546875
94.321044921875 -93.06298828125 4.4317626953125
34.234130859375 7.93115234375 15.0584716796875
40.4697265625 -33.281005859375 16.37744140625
43.900390625 64.2025146484375 26.942626953125
7.484130859375 31.703369140625 17.24951171875
42.586181640625 -46.0731201171875 11.369384765625
58.032470703125 -119.6103515625 6.518310546875
60.58935546875 -73.1885986328125 -15.53955078125
-0.34228515625 21.6865234375 16.8094482421875
42.636474609375 -67.49169921875 4.5528564453125
22.53857421875 -11.9864501953125 16.3974609375
24.916259765625 19.0638427734375 14.7099609375
42.962158203125 -57.247802734375 11.462158203125
27.95166015625 -4.8768310546875 15.737060546875
54.5712890625 -14.8841552734375 -24.7303466796875
0.122314453125 26.7413330078125 15.2623291015625
43.471923828125 60.494140625 18.1192626953125
56.240234375 72.7001953125 19.855712890625
81.411376953125 -112.0169677734375 8.685791015625
11.539306640625 28.982421875 24.0775146484375
29.949462890625 -26.6094970703125 17.056640625
-4.7734375 30.1629638671875 15.44189453125
11.908447265625 26.22265625 22.2882080078125
52.09912109375 39.22607421875 13.4510498046875
47.68701171875 -38.7205810546875 13.7508544921875
55.6259765625 -118.304931640625 -8.650146484375
71.050048828125 -14.29736328125 -23.73095703125
52.881103515625 -8.810302734375 -22.7576904296875
71.732421875 -55.5919189453125 -12.5859375
19.71875 42.9036865234375 18.003173828125
6.20947265625 10.57666015625 15.427490234375
-7.914794921875 -54.4271240234375 7.5562744140625
96.78662109375 -92.390380859375 8.6165771484375
45.50390625 69.3477783203125 20.69091796875
55.68896484375 -112.5057373046875 -3.960205078125
43.55126953125 -61.810791015625 14.6993408203125
57.040771484375 -24.8648681640625 16.1573486328125
61.239501953125 -54.3330078125 -25.0078125
35.737060546875 -21.404296875 16.308837890625
67.141845703125 -81.76611328125 -9.5692138671875
55.184814453125 45.1473388671875 17.111328125
97.94091796875 -87.9422607421875 5.393798828125
9.52294921875 47.4290771484375 22.83251953125
46.76611328125 -63.6236572265625 11.5313720703125
57.408447265625 69.2845458984375 -0.00341796875
28.392578125 3.0673828125 15.2613525390625
39.16943359375 68.5665283203125 27.8740234375
53.245361328125 -113.9927978515625 -5.1121826171875
56.578369140625 -37.944091796875 -21.3790283203125
35.15185546875 40.18505859375 14.857421875
101.2548828125 -100.565185546875 6.350341796875
55.268310546875 -4.0224609375 -24.8775634765625
12.94384765625 -30.3577880859375 17.9560546875
33.92431640625 -11.154052734375 15.9588623046875
94.266357421875 -49.3126220703125 -1.763427734375
57.188232421875 -117.4766845703125 -10.46728515625
21.43408203125 30.11083984375 14.1712646484375
29.56591796875 31.1119384765625 14.2677001953125
93.6669921875 -45.9329833984375 -3.079345703125
54.056640625 14.3594970703125 14.49462890625
-2.363525390625 -41.1654052734375 13.3685302734375
62.475341796875 -94.3333740234375 -7.3367919921875
66.505615234375 -66.0938720703125 -14.3775634765625
49.460205078125 71.9801025390625 21.7452392578125
45.558837890625 24.276611328125 13.2821044921875
89.38720703125 -33.7640380859375 5.589599609375
53.281494140625 71.8941650390625 3.850830078125
39.529052734375 60.4183349609375 24.2724609375
51.78759765625 21.169189453125 -8.71728515625
38.511962890625 44.64013671875 18.023193359375
59.55810546875 -30.3089599609375 16.70263671875
41.807861328125 58.2269287109375 21.1258544921875
-14.649169921875 -69.1492919921875 4.7442626953125
61.049560546875 -69.62939453125 -18.822998046875
11.203125 30.9190673828125 22.328369140625
54.638671875 4.6773681640625 -22.6298828125
61.974853515625 -88.805419921875 -9.414794921875
-2.340576171875 31.276123046875 15.3563232421875
55.18603515625 16.6240234375 14.73046875
64.345947265625 -95.4691162109375 -5.7130126953125
66.94140625 32.335205078125 -10.5494384765625
46.183837890625 71.5498046875 13.84716796875
13.99169921875 52.55419921875 27.3978271484375
19.6015625 14.066650390625 15.055419921875
59.69775390625 21.929931640625 15.75634765625
43.106201171875 14.5308837890625 14.02099609375
7.260498046875 -11.36669921875 15.947265625
96.72998046875 -92.6341552734375 11.1845703125
61.609130859375 -72.4078369140625 -17.9744873046875
62.397216796875 -78.153076171875 -16.8963623046875
63.132080078125 -46.2923583984375 -19.0216064453125
71.78662109375 -3.1925048828125 -24.281982421875
70.900390625 -40.0845947265625 -15.343017578125
90.46923828125 -47.8380126953125 4.916015625
40.614501953125 -6.5145263671875 15.572998046875
55.18603515625 -115.540283203125 -9.037353515625
73.811279296875 -78.2147216796875 11.5528564453125
97.059326171875 -90.125244140625 10.01611328125
66.50830078125 23.2208251953125 -13.6552734375
49.217041015625 42.548095703125 15.2623291015625
71.106201171875 -111.1636962890625 10.75830078125
92.6240234375 -62.3245849609375 6.1495361328125
99.306884765625 -80.505859375 -0.4676513671875
13.742919921875 -35.127685546875 16.10107421875
27.315185546875 -21.2647705078125 16.8111572265625
32.0869140625 -8.1895751953125 15.4219970703125
44.206787109375 65.73291015625 12.873046875
36.097900390625 52.25146484375 20.748779296875
0.345947265625 -58.228515625 10.095458984375
58.35107421875 -46.9232177734375 -20.418701171875
36.631591796875 -4.2642822265625 15.9044189453125
52.27880859375 6.4608154296875 -20.1400146484375
47.844970703125 77.0302734375 27.613037109375
-3.937744140625 -45.864501953125 12.298095703125
51.325439453125 -88.9970703125 12.635009765625
54.285400390625 25.1861572265625 -13.9356689453125
54.259033203125 -117.3770751953125 -4.0343017578125
69.069580078125 -112.76611328125 -15.4083251953125
61.5908203125 -68.6461181640625 -14.61962890625
52.762939453125 26.9306640625 -12.966552734375
41.493408203125 -2.4263916015625 14.941650390625
91.659423828125 -54.7288818359375 6.1123046875
55.1923828125 -27.7021484375 -21.0841064453125
33.79150390625 31.682861328125 13.9234619140625
95.18408203125 -77.8114013671875 3.3785400390625
62.869873046875 -90.0615234375 -32.8560791015625
-1.77734375 9.7515869140625 15.6807861328125
0.396728515625 24.3275146484375 15.6268310546875
36.744140625 -16.4910888671875 16.2486572265625
45.943359375 47.4197998046875 20.125244140625
-1.254150390625 -69.83349609375 3.356201171875
63.87060546875 -87.44970703125 -8.5150146484375
52.16552734375 12.03857421875 13.9359130859375
1.4912109375 -50.122314453125 12.622314453125
60.052490234375 42.3358154296875 13.89794921875
62.111083984375 -102.6273193359375 -7.3868408203125
52.39794921875 -95.2142333984375 12.52734375
53.79541015625 -5.223388671875 -23.3172607421875
6.446533203125 6.31103515625 15.6351318359375
63.5517578125 -89.1279296875 -12.8056640625
68.854248046875 20.0545654296875 -15.9005126953125
56.097900390625 55.0897216796875 5.6842041015625
9.852294921875 -0.0921630859375 16.2158203125
50.556396484375 44.8477783203125 5.8690185546875
27.437255859375 -33.17919921875 16.7962646484375
54.981689453125 67.2091064453125 -2.040771484375
-6.100830078125 -54.3974609375 2.9080810546875
50.154296875 40.533447265625 0.8349609375
57.76953125 -34.6016845703125 -27.4957275390625
12.396728515625 28.062255859375 14.81884765625
98.52294921875 -98.417724609375 2.8834228515625
39.6787109375 -73.9432373046875 8.0352783203125
-6.66064453125 -56.629150390625 10.250732421875
22.982421875 -4.3031005859375 15.423095703125
9.96484375 -33.133056640625 17.770751953125
61.67431640625 -56.7918701171875 -24.6837158203125
55.44189453125 75.331298828125 22.4044189453125
48.003662109375 75.81298828125 25.39794921875
57.758544921875 -112.8026123046875 -5.176025390625
55.697509765625 -22.734619140625 -26.70556640625
26.763427734375 28.1993408203125 14.55712890625
6.38916015625 -70.9530029296875 1.98583984375
62.021728515625 33.6827392578125 -6.431396484375
56.84423828125 -112.712890625 4.1243896484375
-0.483642578125 6.3226318359375 16.0093994140625
38.156494140625 -69.423828125 13.1444091796875
49.368896484375 74.32958984375 9.8521728515625
62.58251953125 -106.466796875 -7.1123046875
66.01806640625 10.7108154296875 -16.7894287109375
64.020751953125 -56.3441162109375 -17.052734375
