-90.576416015625 -60.595703125 17.86181640625
-53.169189453125 -88.69091796875 -4.306640625
55.168701171875 -80.5426025390625 1.5078125
92.2490234375 -92.74365234375 -10.92822265625
17.422607421875 47.6121826171875 5.571533203125
23.747802734375 -19.706787109375 5.97314453125
-65.465087890625 -98.2803955078125 13.958251953125
-1.707275390625 40.4384765625 14.680908203125
-4.222900390625 58.552734375 16.9400634765625
24.246337890625 -110.326416015625 0.2528076171875
96.072509765625 -98.4515380859375 -14.4837646484375
40.151123046875 53.4552001953125 6.1583251953125
41.546875 -103.4576416015625 -9.117919921875
20.93798828125 19.3580322265625 6.10302734375
15.4619140625 21.622802734375 5.999267578125
-15.4638671875 -35.418212890625 2.0823974609375
35.578125 -72.4422607421875 1.60595703125
-52.13427734375 -79.47265625 5.4512939453125
12.827880859375 71.97216796875 24.087890625
-20.563232421875 17.8642578125 5.409423828125
-12.72509765625 -20.413330078125 6.1021728515625
41.97509765625 -15.618896484375 6.6700439453125
42.19921875 70.2947998046875 -9.1341552734375
56.318359375 -96.0672607421875 -25.3958740234375
82.45703125 -103.9383544921875 -3.0048828125
-20.0888671875 -43.634521484375 16.5321044921875
-32.879638671875 -42.63916015625 1.181884765625
-43.346923828125 -42.4736328125 0.8162841796875
-14.89404296875 -51.2020263671875 -11.0986328125
6.864990234375 -51.136962890625 1.3212890625
30.86865234375 -115.806640625 3.149169921875
50.419921875 -98.478515625 -6.2506103515625
10.220703125 -96.8115234375 1.208251953125
36.6015625 -80.623779296875 1.2255859375
31.609375 22.1556396484375 5.34716796875
53.160888671875 -45.9437255859375 -19.1424560546875
49.340576171875 -103.83984375 7.925537109375
-4.250732421875 -4.9942626953125 6.7470703125
26.4189453125 52.592529296875 6.17041015625
91.759765625 -95.05859375 -6.6387939453125
6.773681640625 38.86962890625 5.9937744140625
60.6630859375 -82.6749267578125 1.445068359375
18.5693359375 -5.3963623046875 6.5728759765625
7.45166015625 -22.722900390625 5.2376708984375
-14.6474609375 -9.7158203125 6.631103515625
24.350830078125 -25.6072998046875 3.694091796875
-101.6162109375 27.869873046875 2.436767578125
-61.79296875 -18.7259521484375 1.42431640625
53.915283203125 14.2200927734375 2.184814453125
-11.892822265625 1.1817626953125 8.8619384765625
-9.2998046875 -43.6488037109375 -9.9453125
33.213623046875 -6.8778076171875 6.5386962890625
56.3681640625 17.5921630859375 5.3609619140625
-44.8564453125 -26.2757568359375 0.755615234375
0.851318359375 21.7803955078125 5.5938720703125
-16.456298828125 -49.843505859375 -4.3402099609375
36.888427734375 29.01806640625 5.6141357421875
-15.79345703125 -61.2891845703125 -1.921142578125
35.920166015625 -53.5736083984375 0.82470703125
31.276611328125 72.4522705078125 2.5015869140625
9.518798828125 -42.58251953125 1.133544921875
53.645263671875 -59.5401611328125 2.0531005859375
42.9169921875 42.878662109375 5.1370849609375
29.011474609375 17.7161865234375 5.987548828125
-84.521240234375 13.7442626953125 0.808349609375
68.141357421875 31.35693359375 -12.8720703125
46.935302734375 -111.3787841796875 10.9364013671875
32.275146484375 -17.4398193359375 6.737060546875
13.079345703125 67.66650390625 20.7135009765625
48.08837890625 -74.3856201171875 -18.8834228515625
23.750732421875 -84.4071044921875 1.3558349609375
-2.362548828125 -25.020751953125 3.3380126953125
49.2744140625 -98.0904541015625 1.3895263671875
-0.385986328125 59.31298828125 11.3812255859375
17.2578125 62.031005859375 13.7852783203125
16.2998046875 3.678955078125 6.2657470703125
20.645263671875 39.517822265625 5.8148193359375
33.976806640625 36.92529296875 5.874267578125
42.62548828125 -96.00146484375 -11.2347412109375
5.2900390625 -45.0718994140625 1.1673583984375
50.62451171875 -16.259765625 -27.827392578125
-58.271728515625 -46.5870361328125 2.711181640625
28.39501953125 -59.9232177734375 -7.0673828125
-2.888916015625 53.5889892578125 8.245849609375
20.87890625 -69.5313720703125 1.3878173828125
24.324951171875 10.27099609375 -19.890625
-21.701416015625 -36.5439453125 1.0517578125
44.92919921875 -75.4774169921875 1.717041015625
-56.77294921875 2.8387451171875 0.3817138671875
28.09423828125 -36.88671875 1.276611328125
-24.94970703125 -45.1318359375 16.48095703125
12.51171875 40.3853759765625 5.442626953125
12.099609375 10.82958984375 5.94189453125
50.023193359375 1.2449951171875 -19.8607177734375
-77.068603515625 -67.2562255859375 17.302490234375
38.4716796875 62.3760986328125 -11.7808837890625
-31.5302734375 -84.965576171875 6.528076171875
-60.696044921875 5.4395751953125 0.0408935546875
-78.7333984375 15.0615234375 -0.1103515625
-9.15869140625 -26.4578857421875 2.985595703125
35.372802734375 50.5201416015625 5.859375
42.38720703125 32.640625 7.8662109375
4.78125 13.689697265625 6.25390625
48.62744140625 -90.796142578125 1.4034423828125
89.537109375 -74.470703125 -10.0386962890625
-15.18017578125 -28.9017333984375 2.0440673828125
18.934814453125 -40.1463623046875 1.647705078125
-8.306640625 -53.8331298828125 -3.946044921875
-67.782470703125 17.9793701171875 -0.421630859375
-7.369873046875 27.570556640625 5.66845703125
50.29052734375 20.3077392578125 -16.572998046875
-43.24853515625 -92.073486328125 -6.629150390625
12.55322265625 -23.44970703125 4.4517822265625
-21.879638671875 -56.1163330078125 0.8402099609375
48.27978515625 -66.768798828125 1.6080322265625
-60.801025390625 -89.906494140625 -2.4688720703125
-86.82568359375 31.470947265625 -1.1175537109375
-17.39501953125 -56.3792724609375 4.133056640625
10.64013671875 48.7607421875 5.44384765625
-61.328857421875 -30.421142578125 0.294677734375
-95.29248046875 31.0994873046875 -0.38916015625
35.75439453125 72.8226318359375 1.560546875
28.1201171875 -52.39208984375 -2.7708740234375
40.968994140625 -110.2052001953125 -17.03173828125
1.4580078125 -36.6656494140625 0.755859375
31.66455078125 -12.4356689453125 6.9925537109375
45.7255859375 -26.516357421875 2.2076416015625
-6.88330078125 6.482666015625 6.0836181640625
55.392578125 -94.8822021484375 -18.2864990234375
40.38330078125 59.178466796875 -19.9169921875
49.361572265625 -100.2413330078125 -24.843017578125
-44.929931640625 -16.290771484375 1.7763671875
20.303466796875 71.1494140625 11.162109375
47.019287109375 34.8165283203125 8.9114990234375
45.778076171875 25.066650390625 5.687744140625
-14.59521484375 77.2615966796875 31.29931640625
-37.7939453125 -49.451416015625 0.9422607421875
16.0458984375 -76.1163330078125 2.26611328125
82.987548828125 -77.695556640625 -13.864990234375
51.180419921875 66.5194091796875 -7.751220703125
51.4365234375 -54.26123046875 -20.1480712890625
41.00146484375 -21.253662109375 5.8369140625
50.26171875 -97.6580810546875 -20.7950439453125
47.530029296875 18.9468994140625 6.2645263671875
6.72705078125 -55.9876708984375 1.701416015625
27.2587890625 -95.4271240234375 2.6571044921875
-88.594970703125 16.4039306640625 0.4788818359375
87.644775390625 -105.3743896484375 -8.9456787109375
-76.53662109375 9.181396484375 0.4737548828125
11.259521484375 62.0059814453125 14.2342529296875
60.43408203125 -97.6890869140625 -19.0234375
85.447509765625 -86.2786865234375 -14.068359375
34.719970703125 58.195068359375 -15.303955078125
46.515380859375 61.23095703125 -14.02685546875
-62.8857421875 -58.4576416015625 18.105224609375
58.5029296875 28.8746337890625 5.6822509765625
36.508056640625 64.739990234375 10.3887939453125
18.489013671875 -92.4227294921875 0.9588623046875
25.144287109375 1.52587890625 6.239501953125
-49.819091796875 -52.578369140625 0.8958740234375
-1.03955078125 -30.89013671875 1.389404296875
-64.5947265625 -9.769775390625 1.833984375
49.16455078125 -46.7279052734375 -25.7408447265625
-69.3916015625 -62.4677734375 16.79150390625
44.41064453125 -100.422119140625 -18.827880859375
-50.923828125 -91.7451171875 -6.58056640625
61.154296875 -114.5511474609375 -25.8101806640625
-50.809326171875 -95.212646484375 -2.68115234375
39.41162109375 55.510986328125 -22.7681884765625
-18.82373046875 -43.938232421875 1.50048828125
102.6591796875 -79.8870849609375 -17.5208740234375
30.277099609375 30.73828125 6.149658203125
-66.620361328125 -1.6456298828125 1.207275390625
53.03564453125 -61.3994140625 -27.5389404296875
53.46337890625 -41.73876953125 -20.404541015625
28.517822265625 15.580810546875 -17.42724609375
33.408203125 -90.8118896484375 1.338623046875
-63.69970703125 -70.396484375 16.1634521484375
-6.729736328125 38.50244140625 5.681396484375
-36.837158203125 -85.26806640625 -4.772216796875
103.888916015625 -71.7205810546875 -15.0517578125
-73.59521484375 21.458740234375 -0.88916015625
51.862060546875 -61.0467529296875 -13.589111328125
-2.267578125 9.052734375 6.1798095703125
-51.901123046875 -4.3341064453125 0.7418212890625
-43.79052734375 -69.709716796875 8.053955078125
45.908447265625 -108.101318359375 -21.4520263671875
53.751220703125 -89.397705078125 0.9912109375
17.35205078125 -111.2315673828125 1.426513671875
-78.73876953125 30.4239501953125 -0.7999267578125
56.44921875 -96.1156005859375 0.48291015625
-39.201904296875 -66.725341796875 1.889892578125
34.857666015625 8.6171875 -14.717529296875
32.95751953125 -21.8125 5.408447265625
-16.282470703125 35.3468017578125 6.8055419921875
-2.63330078125 -40.233642578125 0.7073974609375
50.650390625 40.8145751953125 5.5704345703125
40.739990234375 -86.5126953125 1.2332763671875
15.544189453125 -98.1435546875 1.51171875
47.861328125 -55.4390869140625 -26.4456787109375
-54.178955078125 -79.8048095703125 -1.2890625
51.869873046875 32.3680419921875 5.6531982421875
3.33251953125 52.868408203125 6.2930908203125
-82.861328125 23.2939453125 0.5692138671875
-72.108642578125 -69.1688232421875 16.904541015625
41.609130859375 7.1180419921875 5.69482421875
5.2197265625 -26.458251953125 3.4097900390625
32.177978515625 -82.318359375 0.8389892578125
43.012939453125 -99.5943603515625 -6.1732177734375
-56.78564453125 -28.560302734375 0.4234619140625
-40.688232421875 -79.4197998046875 6.1326904296875
-53.701171875 -14.655517578125 1.849365234375
95.5615234375 -89.07275390625 -12.15234375
-17.862060546875 40.4705810546875 5.7105712890625
-8.258056640625 23.3843994140625 5.8331298828125
16.291748046875 68.7799072265625 17.4012451171875
-49.373291015625 -99.827392578125 -5.4903564453125
54.610107421875 -105.668212890625 -26.541015625
89.445068359375 -96.8643798828125 -2.6324462890625
-0.860595703125 74.777587890625 27.36572265625
31.235595703125 -67.5584716796875 0.4573974609375
45.182373046875 -45.96826171875 1.0574951171875
-33.961669921875 -56.235595703125 -1.7880859375
19.477294921875 -28.023193359375 2.4111328125
0.197998046875 52.247802734375 24.6822509765625
44.355224609375 -39.507568359375 1.4354248046875
41.81201171875 -116.36865234375 -8.5614013671875
13.826416015625 -27.736328125 2.606201171875
-52.583251953125 -75.4208984375 6.63427734375
21.41748046875 46.1798095703125 5.50048828125
-55.763671875 -97.5211181640625 -5.7188720703125
-14.03369140625 47.1290283203125 6.356689453125
52.207275390625 -74.7564697265625 1.5386962890625
25.511474609375 7.9708251953125 6.559326171875
49.802490234375 -31.4638671875 -28.43994140625
-52.736328125 0.6016845703125 0.8447265625
11.73291015625 -68.8895263671875 1.294921875
-25.107666015625 -39.359130859375 1.16796875
17.7060546875 -105.5155029296875 2.0533447265625
48.31103515625 -92.968505859375 -16.6092529296875
35.09912109375 45.81884765625 5.82470703125
47.56689453125 -82.380615234375 -18.47900390625
-19.07666015625 69.5511474609375 23.1605224609375
8.012939453125 27.1112060546875 5.989990234375
32.01123046875 -123.7874755859375 7.2659912109375
-69.82080078125 -85.319091796875 15.43701171875
16.308837890625 55.4656982421875 7.521728515625
-9.47705078125 -47.69140625 -8.219970703125
-73.1474609375 26.673583984375 -1.0948486328125
-12.83642578125 -38.1719970703125 0.2401123046875
-2.056640625 0.5833740234375 6.35009765625
88.0615234375 -78.419921875 -10.416015625
-69.1630859375 -14.8060302734375 1.8824462890625
11.113525390625 -51.623046875 1.4354248046875
18.638671875 -12.4664306640625 6.68994140625
25.4345703125 -55.3580322265625 -1.6710205078125
45.526123046875 -101.93701171875 -23.227783203125
8.686767578125 -91.896484375 1.6070556640625
-56.8544921875 -81.1861572265625 -4.1348876953125
-59.4287109375 -87.545654296875 2.269775390625
-41.811767578125 -83.2158203125 -5.8858642578125
-45.479736328125 -63.60009765625 4.5260009765625
10.42919921875 -106.5167236328125 1.29931640625
-56.65966796875 -64.36181640625 16.14111328125
-6.17578125 -59.3253173828125 -8.83154296875
-6.72314453125 44.99365234375 8.470703125
37.927490234375 70.0670166015625 -6.8243408203125
-44.764892578125 -60.010009765625 2.4376220703125
5.769287109375 3.4549560546875 6.31640625
75.315185546875 -101.669677734375 -6.955322265625
-9.567138671875 41.7364501953125 5.3306884765625
47.7001953125 -66.55908203125 -23.3544921875
-2.00537109375 47.3941650390625 13.6041259765625
-85.4482421875 35.3382568359375 -0.8394775390625
27.58642578125 60.0517578125 11.7030029296875
-85.532470703125 -65.0718994140625 17.7021484375
34.324462890625 -30.7510986328125 2.0577392578125
-10.436279296875 -47.4249267578125 -4.139892578125
63.06103515625 -62.4197998046875 1.375
-13.2060546875 22.7684326171875 6.1287841796875
34.686279296875 -118.551513671875 5.468505859375
-56.756591796875 -89.7381591796875 -6.890869140625
92.671875 -100.987548828125 -13.0535888671875
29.82958984375 -74.9371337890625 1.6004638671875
4.50830078125 45.1763916015625 5.7275390625
30.123291015625 -101.6392822265625 1.314453125
-73.08642578125 -8.0396728515625 2.4189453125
43.9130859375 72.16796875 -5.93310546875
17.89794921875 -34.5576171875 0.8321533203125
93.05126953125 -71.67041015625 -8.606201171875
-32.529052734375 -79.8238525390625 3.1602783203125
-55.444580078125 -23.529296875 0.6812744140625
12.39599609375 32.0111083984375 5.648193359375
40.931884765625 -102.388427734375 -15.56005859375
62.272216796875 -78.9534912109375 1.18115234375
-74.037109375 -0.5040283203125 1.123291015625
-12.796875 -5.926025390625 6.8011474609375
23.84326171875 -12.6038818359375 6.689453125
12.205078125 -59.68359375 1.3370361328125
-19.364990234375 -62.9588623046875 -1.0635986328125
33.137939453125 -37.165771484375 1.520751953125
-30.668701171875 -38.1746826171875 1.1492919921875
-7.49462890625 71.0855712890625 23.905517578125
31.60791015625 69.87451171875 12.5845947265625
-57.486328125 -6.499755859375 1.0623779296875
4.65869140625 71.100830078125 23.040283203125
-65.717041015625 -73.866943359375 16.040771484375
-32.04541015625 -52.4202880859375 -3.595458984375
30.662353515625 14.0587158203125 5.852294921875
-50.014892578125 -72.2587890625 6.7747802734375
31.575927734375 -45.063232421875 1.615234375
51.95458984375 -52.86669921875 -27.9832763671875
50.993896484375 -75.8551025390625 -21.3502197265625
35.761474609375 -41.8343505859375 1.5333251953125
11.884521484375 2.1427001953125 6.7099609375
54.143310546875 -32.798583984375 -21.4569091796875
5.111572265625 -2.6314697265625 6.4642333984375
-100.4052734375 35.8695068359375 0.143798828125
49.374755859375 12.3897705078125 5.6358642578125
97.681884765625 -85.9493408203125 -15.263427734375
31.09814453125 75.671875 5.201171875
1.65234375 -27.88671875 2.3519287109375
46.07861328125 -81.7451171875 1.0889892578125
37.261474609375 61.030029296875 11.6083984375
48.280517578125 -35.4935302734375 -32.0123291015625
-6.96728515625 75.494873046875 28.116455078125
-16.13037109375 2.0943603515625 7.174560546875
-62.803466796875 -93.4027099609375 6.4683837890625
25.259765625 -88.0692138671875 1.04150390625
7.31201171875 -15.5999755859375 6.8564453125
53.587890625 21.5196533203125 5.75927734375
-59.47265625 -94.84375 2.96533203125
1.2734375 11.1175537109375 6.198486328125
-14.075927734375 69.947021484375 22.584228515625
37.465576171875 -23.949951171875 4.7540283203125
-39.175048828125 -93.9617919921875 -7.2938232421875
-23.55029296875 -39.673095703125 -14.28564453125
-53.1611328125 -83.9906005859375 5.098388671875
-27.2880859375 -33.177490234375 -15.1724853515625
-14.625244140625 73.0770263671875 30.7261962890625
-28.683837890625 -47.5482177734375 1.054443359375
-44.36328125 -69.7113037109375 12.1322021484375
-0.488525390625 45.1749267578125 4.8853759765625
-48.9599609375 -6.9501953125 0.978515625
98.17578125 -80.5640869140625 -10.9451904296875
26.13134765625 -58.622802734375 -4.09130859375
-65.5185546875 21.1617431640625 -0.907470703125
50.45263671875 -5.19775390625 -20.850341796875
9.060302734375 72.873291015625 24.7388916015625
38.51708984375 56.7218017578125 -16.8128662109375
3.867431640625 -6.6153564453125 6.9329833984375
52.328125 -27.7984619140625 -18.53271484375
-62.816162109375 -88.8182373046875 6.11962890625
-46.22705078125 -51.1746826171875 0.236328125
48.704345703125 -96.33349609375 -2.931396484375
16.09814453125 26.9873046875 5.819580078125
-60.1787109375 -81.2286376953125 6.0030517578125
41.586181640625 -96.2158203125 -15.0045166015625
-60.171142578125 -14.1734619140625 1.9979248046875
-9.4609375 30.912353515625 5.596923828125
5.05224609375 -79.87353515625 1.3828125
-73.63818359375 3.628662109375 0.7122802734375
62.777099609375 -71.3935546875 0.57666015625
-16.405029296875 -52.3824462890625 1.2274169921875
22.187255859375 63.7078857421875 13.5816650390625
-96.694091796875 35.3255615234375 -0.869384765625
1.422119140625 36.7822265625 5.6513671875
-11.736572265625 -37.261474609375 -8.567626953125
41.63330078125 63.6021728515625 -16.080810546875
35.89697265625 51.740478515625 -22.1259765625
-67.531982421875 4.7891845703125 0.59423828125
-52.4033203125 -70.6580810546875 9.366943359375
37.134765625 -76.0491943359375 1.2930908203125
26.4599609375 33.3359375 6.751708984375
-62.825439453125 -84.827880859375 7.1279296875
-13.644775390625 74.539794921875 27.2852783203125
-18.695068359375 -4.06494140625 6.4486083984375
38.580078125 -114.7432861328125 -13.0263671875
38.1650390625 4.3779296875 6.463134765625
-58.125732421875 -83.490234375 0.8587646484375
16.321044921875 -47.8016357421875 1.345947265625
52.4970703125 -56.466064453125 -17.0479736328125
52.317138671875 -17.1427001953125 -22.824951171875
-20.026123046875 73.523681640625 27.314697265625
-3.04248046875 53.875732421875 12.8306884765625
-45.209716796875 -63.09326171875 11.0245361328125
36.727294921875 -49.9267578125 1.7078857421875
80.9482421875 -103.401123046875 -7.7459716796875
-40.6162109375 -53.1141357421875 1.0164794921875
34.568359375 11.114013671875 6.3944091796875
40.695556640625 -77.4398193359375 1.5147705078125
49.072509765625 -40.6455078125 -26.952392578125
-24.166259765625 -53.578369140625 -0.8809814453125
34.06396484375 13.4052734375 -16.873046875
43.164306640625 29.5948486328125 5.6878662109375
-45.259033203125 -89.4327392578125 -4.7340087890625
37.42919921875 -14.9627685546875 7.0191650390625
-50.351318359375 -66.388916015625 16.5330810546875
51.3212890625 -88.565185546875 -21.09619140625
93.1552734375 -104.3780517578125 1.400146484375
-73.956298828125 12.876953125 -0.2109375
-53.9248046875 -93.17578125 -8.4425048828125
-76.547119140625 32.923828125 1.0582275390625
17.5048828125 51.72998046875 5.8153076171875
49.45703125 -29.415283203125 -0.1649169921875
34.63720703125 32.02197265625 6.21875
-0.5068359375 26.087158203125 5.9644775390625
19.537109375 34.40673828125 6.07470703125
-10.445556640625 9.9830322265625 6.2169189453125
20.875 -57.5892333984375 2.0931396484375
31.59375 63.137939453125 13.033203125
35.805419921875 -96.1107177734375 1.6353759765625
32.748046875 -108.4752197265625 1.6192626953125
87.667724609375 -81.878662109375 -12.2274169921875
8.378662109375 -10.2720947265625 7.014892578125
-52.669677734375 -20.56298828125 1.264404296875
-63.955322265625 15.8707275390625 -0.63427734375
-0.15771484375 -8.740966796875 6.4447021484375
-12.253662109375 -67.028076171875 0.745849609375
0.9375 -46.8834228515625 1.1546630859375
49.851318359375 -62.088134765625 1.529296875
47.94287109375 38.210205078125 5.8101806640625
-66.48828125 -90.7939453125 13.1219482421875
-33.695556640625 -72.66015625 3.250244140625
22.78515625 -40.6004638671875 1.27734375
-1.357421875 -21.7237548828125 4.9853515625
-42.411376953125 -81.4022216796875 1.7197265625
-8.834228515625 35.403564453125 5.7947998046875
43.09130859375 -29.1767578125 2.1005859375
-8.739501953125 -19.2677001953125 6.428955078125
55.722412109375 -66.741455078125 1.4796142578125
56.967529296875 -111.9676513671875 -26.8155517578125
-65.3154296875 -65.62841796875 16.45166015625
43.455078125 13.2828369140625 0.345703125
5.573486328125 -99.107421875 1.0589599609375
26.947998046875 48.9730224609375 5.4681396484375
-53.698486328125 -94.0335693359375 -4.8258056640625
47.766845703125 70.5733642578125 -3.5699462890625
-58.30517578125 -75.1678466796875 11.028076171875
51.375 -47.81787109375 -14.4915771484375
-64.01025390625 -32.9822998046875 0.524658203125
31.9677734375 57.67724609375 8.910400390625
57.88232421875 -99.2603759765625 -26.4556884765625
-15.840087890625 28.082763671875 5.6710205078125
-6.5986328125 -32.9906005859375 1.126708984375
-15.297119140625 9.6102294921875 6.099609375
-58.60791015625 -71.824462890625 14.384521484375
26.799560546875 -120.2518310546875 4.200927734375
58.985595703125 -95.99072265625 -2.2545166015625
6.769775390625 -33.5859375 1.45166015625
-20.355712890625 28.233154296875 5.2708740234375
31.460205078125 69.7255859375 4.976806640625
-58.70654296875 -91.563720703125 0.0694580078125
-5.58447265625 -43.3885498046875 0.087158203125
37.45751953125 25.0302734375 6.0355224609375
-98.448974609375 27.59130859375 0.0125732421875
11.483154296875 -5.66552734375 6.8360595703125
15.556884765625 -14.8646240234375 6.6727294921875
-71.65185546875 33.0087890625 -1.6474609375
10.965087890625 66.0618896484375 18.10400390625
3.788330078125 58.3773193359375 11.213623046875
30.221923828125 52.6864013671875 6.1275634765625
-68.816650390625 -10.4224853515625 2.0565185546875
-67.773681640625 -24.335205078125 0.957275390625
49.292236328125 -60.5816650390625 -20.5035400390625
-0.9453125 33.9013671875 5.5189208984375
34.265625 6.9921875 6.52392578125
99.16064453125 -87.4840087890625 -11.61962890625
52.383544921875 -37.1749267578125 -18.047119140625
18.365966796875 -82.4739990234375 1.7869873046875
-12.364990234375 -42.5045166015625 2.7576904296875
-81.626708984375 29.306884765625 1.4031982421875
-47.40673828125 -80.1019287109375 -6.3726806640625
53.582275390625 -97.7823486328125 4.628173828125
-48.40869140625 -26.7294921875 0.1607666015625
-35.662841796875 -39.760498046875 0.7613525390625
39.79248046875 -40.3446044921875 1.5963134765625
-45.34765625 -98.330810546875 -7.18994140625
50.36376953125 72.954833984375 -2.7086181640625
-70.8564453125 -2.2254638671875 1.350341796875
13.53173828125 14.1441650390625 6.2447509765625
-89.151123046875 19.942626953125 -0.0592041015625
-2.119384765625 53.4271240234375 19.778076171875
3.43798828125 29.3670654296875 6.09326171875
-3.37158203125 14.377685546875 5.7529296875
-56.416015625 -12.264892578125 1.84912109375
8.5048828125 51.6351318359375 5.9422607421875
25.323486328125 17.0460205078125 6.16650390625
-6.317138671875 60.8857421875 14.893798828125
28.393798828125 -18.4951171875 6.7935791015625
-28.609375 -69.0308837890625 1.1083984375
55.10888671875 -98.1307373046875 -6.67822265625
41.38916015625 36.7769775390625 8.2386474609375
20.98095703125 -50.22314453125 1.5137939453125
-8.63818359375 14.955322265625 5.9586181640625
-59.073974609375 -73.510986328125 7.4000244140625
-51.75830078125 -85.3721923828125 -4.9200439453125
37.2041015625 65.996826171875 -5.632568359375
101.18115234375 -86.8251953125 -14.7576904296875
37.13525390625 -56.48681640625 -1.663818359375
-47.316650390625 -35.24560546875 0.60009765625
11.339599609375 -81.609375 0.8118896484375
-9.377197265625 3.2069091796875 6.4525146484375
30.9345703125 66.666259765625 14.7388916015625
6.210205078125 67.9661865234375 20.1666259765625
-35.326904296875 -68.2457275390625 1.097900390625
30.65087890625 -93.5499267578125 1.92822265625
41.144775390625 -112.8900146484375 -14.68896484375
-59.218994140625 -87.447998046875 -5.7001953125
-4.713134765625 -14.812744140625 6.6375732421875
50.833251953125 -23.2471923828125 3.1064453125
24.03369140625 25.428955078125 5.703125
-62.6328125 -25.99365234375 0.326904296875
-64.91015625 -77.42138671875 14.753662109375
93.386474609375 -83.3310546875 -11.6082763671875
-54.6533203125 -35.186279296875 0.518798828125
-2.205322265625 56.8184814453125 9.5262451171875
-14.2294921875 -64.3841552734375 -0.527099609375
50.1416015625 62.0438232421875 -9.203369140625
48.580322265625 27.1990966796875 5.407470703125
-76.779052734375 -61.0750732421875 18.037353515625
21.521728515625 30.08251953125 6.2437744140625
48.842529296875 -50.9412841796875 -24.50927734375
-4.1689453125 70.479736328125 22.92236328125
-61.79638671875 -75.7520751953125 11.288330078125
7.789794921875 57.9134521484375 10.3072509765625
59.580322265625 18.8358154296875 4.649169921875
91.953125 -103.98095703125 -7.777099609375
-7.193603515625 -6.908935546875 6.8526611328125
-41.335693359375 -70.294677734375 5.6129150390625
-66.225830078125 -94.1104736328125 10.389892578125
49.032470703125 -34.3406982421875 -0.9510498046875
-78.824951171875 -71.095458984375 16.804443359375
32.953857421875 0.44189453125 9.46826171875
52.475341796875 -105.60546875 8.8692626953125
56.264404296875 25.9332275390625 5.1956787109375
13.17578125 18.971923828125 6.069580078125
6.6298828125 42.3939208984375 5.83544921875
50.5029296875 -12.9378662109375 -18.9364013671875
2.177490234375 7.7415771484375 6.064453125
42.11962890625 75.58984375 -2.568603515625
-16.642333984375 23.363525390625 5.880615234375
-31.2998046875 -59.3924560546875 -6.204345703125
15.143798828125 -72.944580078125 1.1158447265625
-11.564208984375 -2.896240234375 9.294189453125
25.378662109375 -7.404296875 6.7650146484375
15.945556640625 -90.07666015625 0.547119140625
-58.399658203125 -21.708251953125 0.974853515625
21.830322265625 -23.3543701171875 4.517333984375
36.32373046875 48.0098876953125 -20.8697509765625
-10.53564453125 -22.919189453125 5.098388671875
55.12939453125 -91.5301513671875 -19.1600341796875
-41.1376953125 -59.6776123046875 0.962890625
52.2646484375 -51.8662109375 -17.5667724609375
-69.22314453125 25.7730712890625 -0.96923828125
99.719482421875 -74.4150390625 -14.486328125
38.039306640625 67.367431640625 -0.030517578125
44.5439453125 -23.34814453125 4.1092529296875
51.683349609375 -67.4759521484375 1.0843505859375
-19.6357421875 -72.2763671875 2.708740234375
-48.0947265625 -22.1671142578125 1.043212890625
26.5908203125 -63.0843505859375 0.82763671875
49.7705078125 -60.2637939453125 -26.813232421875
45.7900390625 -112.0157470703125 -23.6783447265625
-2.925048828125 60.4991455078125 13.397216796875
47.615234375 34.6270751953125 5.3370361328125
12.45947265625 23.3153076171875 6.02587890625
-17.3046875 -52.2388916015625 5.455078125
46.285400390625 41.2255859375 5.9072265625
19.029052734375 70.86083984375 17.8319091796875
27.656005859375 24.9100341796875 5.8736572265625
-30.7158203125 -49.9241943359375 -0.3760986328125
-10.940185546875 -29.1546630859375 1.8133544921875
-37.987548828125 -82.405029296875 6.422119140625
-70.536865234375 13.1451416015625 -0.0797119140625
50.775634765625 -48.6619873046875 -17.763671875
-4.541015625 46.7413330078125 6.4803466796875
37.2265625 -125.2230224609375 7.81396484375
38.294189453125 75.78369140625 -1.38525390625
21.4892578125 -3.3447265625 6.3775634765625
28.4814453125 35.712158203125 8.14990234375
-7.57177734375 -51.5335693359375 -10.4874267578125
-91.75 25.9908447265625 -0.1370849609375
11.46875 -115.3360595703125 1.1004638671875
49.934814453125 -78.991455078125 -20.517822265625
40.700439453125 12.624755859375 5.81494140625
22.857666015625 68.4993896484375 12.844482421875
49.30517578125 16.8619384765625 -19.446533203125
50.40478515625 -106.5980224609375 -26.405029296875
90.98046875 -100.660400390625 -4.64208984375
-23.967041015625 -50.072265625 1.126708984375
55.37109375 -76.139404296875 1.2489013671875
-22.682373046875 -33.15625 1.634765625
50.878173828125 -10.4208984375 -22.1671142578125
0.81640625 -17.486572265625 6.8349609375
-18.681884765625 -47.4354248046875 3.8092041015625
49.719970703125 -98.587890625 -9.6710205078125
-16.480712890625 -12.5767822265625 6.619384765625
46.146484375 15.863037109375 5.4327392578125
39.67138671875 -54.5142822265625 2.03857421875
24.442626953125 -34.38623046875 0.972900390625
-7.30712890625 -57.011474609375 -11.041748046875
-55.05517578125 -61.3831787109375 16.4007568359375
-68.7861328125 10.2384033203125 0.0743408203125
-20.803466796875 33.61767578125 5.5009765625
-25.323974609375 -68.5322265625 0.4326171875
15.9365234375 -60.468017578125 1.4119873046875
37.334228515625 43.047607421875 5.8516845703125
43.4736328125 -96.647705078125 -7.80859375
-78.923095703125 26.11279296875 2.9244384765625
41.2666015625 -60.135986328125 1.3763427734375
36.499267578125 55.4818115234375 7.4178466796875
51.48486328125 7.6015625 -23.4078369140625
-8.653076171875 -57.551513671875 -4.8988037109375
-85.178466796875 -69.0184326171875 17.3153076171875
-83.401611328125 -62.4639892578125 17.96533203125
39.962158203125 -94.3759765625 3.0245361328125
-7.098388671875 65.4630126953125 18.810791015625
50.783203125 9.91845703125 -18.37548828125
40.710693359375 -46.8121337890625 1.989501953125
52.34521484375 -66.5496826171875 -24.9749755859375
14.397216796875 49.234130859375 5.51708984375
42.482421875 47.18310546875 5.555908203125
-33.26513671875 -76.3245849609375 6.7569580078125
-64.597412109375 10.8489990234375 -0.0709228515625
50.760009765625 -42.975341796875 -18.4388427734375
-82.500244140625 31.6573486328125 -0.8138427734375
-98.005126953125 24.2301025390625 0.46728515625
49.455322265625 -94.563720703125 -13.784423828125
-14.483154296875 39.8271484375 5.3543701171875
41.872802734375 -107.4617919921875 -20.20361328125
97.359619140625 -82.806640625 -14.185546875
29.125 43.4615478515625 6.1424560546875
21.087890625 -60.977783203125 1.7501220703125
40.23876953125 66.8707275390625 -11.813232421875
10.27490234375 -35.1429443359375 1.26806640625
-13.6279296875 -53.766845703125 -9.3890380859375
90.74658203125 -97.3995361328125 -8.81005859375
46.728515625 -96.729248046875 -20.293701171875
53.54150390625 -46.5750732421875 -30.5267333984375
-53.959716796875 -41.2744140625 0.787841796875
38.71826171875 -64.6259765625 -2.1583251953125
31.253662109375 38.9833984375 5.7716064453125
-34.564208984375 -64.580810546875 1.12060546875
46.0400390625 38.3887939453125 -17.32373046875
31.459716796875 -52.0177001953125 -2.3507080078125
41.088134765625 -100.216064453125 -9.6572265625
36.765869140625 -34.781982421875 1.3570556640625
-16.61962890625 -17.208251953125 6.4556884765625
-34.6416015625 -84.388427734375 2.0927734375
-43.580810546875 -77.76123046875 6.121337890625
-60.81103515625 -37.7735595703125 0.2774658203125
-50.79345703125 -79.8011474609375 -7.1851806640625
-59.31298828125 15.413818359375 -0.9368896484375
20.86328125 15.882080078125 6.0115966796875
25.70556640625 -69.604736328125 1.3641357421875
44.61181640625 -70.841796875 2.2508544921875
27.99169921875 -5.3626708984375 6.829833984375
48.97265625 23.001953125 -20.125732421875
51.29736328125 -96.714111328125 -0.960205078125
35.890625 58.7174072265625 9.7322998046875
-35.30078125 -84.245849609375 6.7923583984375
23.9150390625 39.30908203125 5.73193359375
-29.948974609375 -63.6607666015625 -2.496337890625
-12.757080078125 16.8133544921875 5.7789306640625
41.809814453125 16.2872314453125 5.8638916015625
51.213134765625 11.7548828125 -21.5921630859375
19.601318359375 7.52001953125 6.224609375
50.57470703125 -86.501953125 -13.6434326171875
52.14501953125 -81.5780029296875 0.821533203125
-25.789306640625 -54.3514404296875 -6.16943359375
-11.21240234375 -41.6468505859375 -2.2479248046875
88.5244140625 -104.3104248046875 -5.8397216796875
11.232177734375 -109.9263916015625 0.9837646484375
14.581298828125 -33.76220703125 1.1522216796875
33.333251953125 -70.0838623046875 1.604248046875
68.158935546875 -95.63916015625 -11.509033203125
40.898193359375 -10.1871337890625 6.5697021484375
90.274169921875 -92.613525390625 -2.889404296875
17.43505859375 -43.7423095703125 1.31982421875
51.78466796875 49.785400390625 -16.4490966796875
-17.363037109375 15.75146484375 5.7935791015625
-23.82958984375 74.5797119140625 29.451416015625
20.458251953125 -54.0804443359375 1.581298828125
-66.2705078125 -82.62109375 9.0621337890625
-70.846923828125 19.0244140625 -0.5960693359375
53.16015625 -109.8310546875 8.8204345703125
4.0205078125 22.1337890625 6.1673583984375
-0.03369140625 53.3935546875 6.728271484375
-68.395263671875 -81.9571533203125 14.0242919921875
-73.24609375 -61.79638671875 17.91162109375
-6.47998046875 -11.5667724609375 6.9874267578125
-48.78125 -38.19287109375 0.4127197265625
43.240234375 10.5333251953125 5.0107421875
12.228515625 -101.8175048828125 1.3140869140625
15.08935546875 -85.07861328125 1.0816650390625
36.98876953125 12.941162109375 -14.008544921875
53.2080078125 59.1553955078125 -10.1881103515625
41.462158203125 59.2928466796875 10.406005859375
-59.82177734375 -83.6929931640625 -5.4293212890625
11.023193359375 56.5648193359375 8.95947265625
88.335693359375 -95.4310302734375 -13.998779296875
21.32421875 -110.86376953125 -0.9984130859375
46.403076171875 -49.431396484375 1.0228271484375
17.444091796875 -8.69091796875 6.65087890625
-46.8408203125 -69.615234375 15.2059326171875
8.894775390625 11.0372314453125 6.1107177734375
63.224609375 -112.576171875 -27.2672119140625
-61.9501953125 9.0369873046875 0.035888671875
41.05419921875 -32.696533203125 1.19140625
51.616455078125 -20.60107421875 -21.291015625
31.5654296875 33.961181640625 5.7381591796875
34.89794921875 75.0966796875 -0.5247802734375
15.133544921875 -5.4698486328125 6.531982421875
-58.8984375 -1.731201171875 0.37255859375
-43.744140625 -33.3271484375 0.6962890625
-9.731689453125 0.0101318359375 6.8212890625
14.903076171875 0.8421630859375 6.72314453125
-81.52685546875 19.076904296875 0.1983642578125
8.731689453125 -60.6712646484375 1.8956298828125
-37.94287109375 -90.2529296875 -6.0328369140625
-39.530517578125 -75.12158203125 6.66259765625
-4.63232421875 -20.782470703125 5.8406982421875
50.626708984375 20.3985595703125 6.118408203125
-12.6669921875 67.1097412109375 18.5062255859375
23.442138671875 -16.3363037109375 6.860107421875
38.277587890625 -44.3687744140625 1.8056640625
41.80615234375 -89.5078125 1.1484375
-82.714599609375 33.311767578125 3.9058837890625
29.05224609375 -0.3369140625 8.2518310546875
-66.550537109375 27.86474609375 -1.6024169921875
47.268798828125 -58.8184814453125 -24.6597900390625
7.798583984375 -75.6116943359375 1.8006591796875
37.572998046875 59.4896240234375 -12.739501953125
-11.968017578125 -41.7724609375 -7.6114501953125
4.6298828125 62.852783203125 15.2237548828125
62.37451171875 -91.35595703125 0.1424560546875
42.24755859375 23.2681884765625 5.879638671875
41.778076171875 50.809326171875 5.5618896484375
-13.544189453125 3.8455810546875 6.697509765625
28.723388671875 -31.771240234375 1.60107421875
-56.684814453125 -86.8023681640625 5.873046875
-52.760498046875 -81.404296875 1.0355224609375
-4.3974609375 29.7490234375 5.7667236328125
1.82568359375 18.5177001953125 6.1641845703125
-5.734130859375 -2.2152099609375 6.718017578125
2.399169921875 69.0889892578125 21.3502197265625
-79.35107421875 8.18505859375 1.6912841796875
54.60986328125 -93.031005859375 1.862060546875
20.08935546875 -19.0936279296875 5.8834228515625
-45.654296875 -83.28369140625 -4.5498046875
52.240966796875 -43.8548583984375 -31.795166015625
15.0849609375 60.3245849609375 12.291259765625
-41.46630859375 -88.653076171875 -4.7286376953125
-46.716064453125 -77.6136474609375 0.1624755859375
-11.1337890625 35.05029296875 7.902587890625
27.572509765625 -83.673828125 0.9625244140625
37.6376953125 73.2587890625 -3.1268310546875
48.683349609375 -28.519287109375 -29.48388671875
0.23046875 64.7835693359375 17.046875
50.86572265625 -36.94482421875 -26.1937255859375
-63.81640625 -99.81884765625 6.75048828125
14.858154296875 -52.9447021484375 1.4683837890625
47.451904296875 51.7451171875 4.5889892578125
24.550048828125 -94.0274658203125 1.9591064453125
-60.6123046875 -90.248291015625 -5.6910400390625
28.93798828125 -106.5823974609375 1.9124755859375
3.9560546875 -15.2120361328125 6.9393310546875
-15.377685546875 -21.8809814453125 5.35302734375
4.752685546875 -36.9217529296875 1.217529296875
30.58056640625 -89.2269287109375 1.2518310546875
25.878662109375 -40.9989013671875 1.35302734375
31.891845703125 45.0435791015625 5.83447265625
47.07666015625 33.5880126953125 -17.366943359375
16.986083984375 11.3994140625 5.8900146484375
98.854248046875 -90.4173583984375 -12.5933837890625
40.702392578125 -108.643310546875 -11.6590576171875
38.788330078125 55.3585205078125 -19.5889892578125
-13.769287109375 30.5682373046875 6.6158447265625
-7.0009765625 43.47265625 5.552001953125
22.259521484375 22.7435302734375 6.3201904296875
-20.08349609375 10.14306640625 6.138671875
93.693359375 -94.8912353515625 -13.3138427734375
-101.689208984375 25.5592041015625 0.3731689453125
-45.34326171875 -40.1181640625 0.566650390625
54.052734375 -73.9267578125 -23.5889892578125
-92.278564453125 33.0345458984375 -0.4522705078125
13.197265625 -77.1259765625 1.6009521484375
63.023193359375 -96.137939453125 -21.9730224609375
7.93603515625 -29.11083984375 2.2034912109375
30.37744140625 -53.68701171875 -5.73779296875
22.37158203125 -106.3338623046875 2.979248046875
43.31689453125 59.124267578125 -20.8858642578125
-2.275146484375 50.878662109375 12.6446533203125
23.556640625 10.587158203125 6.1484375
-65.833251953125 -60.426025390625 16.821533203125
-35.941650390625 -36.3419189453125 0.8323974609375
102.485595703125 -76.516357421875 -14.312255859375
17.55615234375 -113.919677734375 -0.1641845703125
-40.451416015625 -45.11865234375 0.811279296875
53.9892578125 -24.169677734375 -23.330078125
-44.29833984375 -64.8624267578125 13.375244140625
-19.578369140625 66.9300537109375 21.6251220703125
13.227294921875 -39.8948974609375 1.1893310546875
-59.843994140625 -59.949462890625 17.1629638671875
-12.04248046875 -13.0625 6.6649169921875
21.98486328125 -87.99609375 0.827392578125
49.5986328125 4.1370849609375 -20.808349609375
65.3310546875 -97.708251953125 -13.4593505859375
22.856201171875 -79.4273681640625 1.8875732421875
48.260498046875 -47.2275390625 -29.181640625
-48.487548828125 -78.0133056640625 4.0362548828125
-24.1396484375 -47.4906005859375 14.504150390625
-7.274658203125 -55.2049560546875 -8.1513671875
-58.795166015625 -66.50146484375 16.648193359375
-53.189453125 -70.9617919921875 12.4693603515625
96.726806640625 -71.80126953125 -10.9259033203125
-50.595703125 -81.9083251953125 4.420166015625
31.318359375 5.77001953125 6.2357177734375
-5.96875 -17.9947509765625 6.6282958984375
23.645263671875 14.419189453125 -20.33447265625
47.479736328125 -28.91015625 2.9327392578125
-49.36376953125 -14.91259765625 2.15625
14.110107421875 -104.98828125 1.552978515625
22.12353515625 1.4771728515625 6.671875
34.5029296875 -0.528076171875 6.602783203125
53.57861328125 -77.2757568359375 -22.8709716796875
88.477294921875 -107.75244140625 -10.6649169921875
48.01806640625 -33.779541015625 -29.503662109375
-49.97900390625 -102.2479248046875 -3.7371826171875
42.997802734375 -6.7427978515625 5.69580078125
40.151611328125 -105.1754150390625 -11.5816650390625
-17.921875 -41.1358642578125 -2.8760986328125
51.92138671875 -93.1759033203125 -11.6314697265625
13.45556640625 -46.585205078125 1.6195068359375
-15.691650390625 -58.014892578125 -3.9637451171875
28.307861328125 64.16162109375 14.97509765625
52.893798828125 -30.197265625 -20.3077392578125
-63.515869140625 -6.0367431640625 1.6495361328125
48.261474609375 65.1063232421875 -7.60009765625
47.983642578125 -76.240478515625 1.47314453125
65.142333984375 -87.773193359375 1.0194091796875
-33.803466796875 -60.460693359375 0.537841796875
2.15771484375 60.4842529296875 12.6630859375
25.936279296875 -10.3809814453125 6.840087890625
35.1259765625 23.1402587890625 5.6309814453125
-22.47705078125 70.2943115234375 23.964111328125
-1.263671875 48.200927734375 17.5687255859375
-14.176513671875 -41.8748779296875 0.0906982421875
-5.556884765625 20.6302490234375 6.064208984375
49.61669921875 68.4906005859375 -6.0810546875
-8.158935546875 -41.98681640625 -12.1915283203125
41.787353515625 13.9166259765625 2.962158203125
-91.581787109375 17.5189208984375 0.2283935546875
39.2109375 52.472900390625 -23.094482421875
39.700927734375 64.5150146484375 -13.95166015625
17.167724609375 66.49365234375 15.0467529296875
45.829833984375 -106.7880859375 -24.5535888671875
30.1962890625 -25.9920654296875 3.591552734375
-16.84814453125 -64.218017578125 1.0667724609375
22.9130859375 -73.2115478515625 1.6705322265625
-45.308837890625 -23.1968994140625 0.53955078125
33.276611328125 -85.8095703125 1.40771484375
44.592041015625 65.6114501953125 -10.5433349609375
25.2080078125 -37.734619140625 1.20654296875
45.636474609375 -58.5035400390625 1.0711669921875
90.52685546875 -99.60888671875 -10.844482421875
36.104248046875 -27.4923095703125 2.6519775390625
38.66748046875 -82.795166015625 1.0390625
47.642822265625 -39.510498046875 -29.9259033203125
-15.773681640625 -58.285888671875 2.4766845703125
12.66357421875 46.545166015625 5.5045166015625
-5.80419921875 -37.5423583984375 0.7130126953125
33.828857421875 19.8450927734375 6.0479736328125
-66.46533203125 -83.4072265625 12.259521484375
19.64599609375 -112.0357666015625 3.1678466796875
-45.4140625 -93.5924072265625 -2.6417236328125
-3.19140625 57.3919677734375 20.9342041015625
39.01806640625 -58.79052734375 -1.3994140625
-39.038330078125 -63.294189453125 1.1390380859375
47.607177734375 -66.9598388671875 -20.3824462890625
28.307861328125 6.968505859375 6.3111572265625
-58.80859375 -89.0546875 5.7215576171875
48.759033203125 -54.8760986328125 0.4876708984375
-21.076904296875 78.0018310546875 31.4002685546875
53.1982421875 -97.2275390625 -20.9901123046875
57.082275390625 -71.40673828125 1.9666748046875
29.112548828125 20.69775390625 6.0421142578125
58.661376953125 -97.3856201171875 -21.3876953125
35.84375 -4.82421875 6.603759765625
50.523681640625 15.0845947265625 -21.5201416015625
23.894775390625 -103.0157470703125 1.7760009765625
-4.229248046875 56.458984375 14.837158203125
87.820068359375 -87.950439453125 -13.45654296875
56.178466796875 -61.0313720703125 2.4227294921875
-25.414794921875 -45.41650390625 1.9691162109375
47.406005859375 -96.4365234375 -0.2713623046875
40.783203125 -2.9114990234375 5.355224609375
46.2744140625 -96.8651123046875 -6.2503662109375
47.930419921875 -34.363037109375 2.3367919921875
-16.542724609375 -54.3155517578125 -4.42822265625
19.551025390625 53.8428955078125 6.6473388671875
9.810546875 19.3328857421875 6.06787109375
-35.7490234375 -86.2406005859375 -2.204833984375
47.59814453125 -107.4139404296875 9.56884765625
21.578369140625 74.703857421875 13.17138671875
-48.24072265625 -96.0079345703125 -7.102783203125
-35.501953125 -33.4356689453125 1.0687255859375
46.751220703125 -98.369873046875 -12.70458984375
0.556396484375 -25.361572265625 3.4169921875
63.60205078125 -83.999267578125 -0.4642333984375
91.06640625 -102.5618896484375 0.4139404296875
-54.28369140625 -30.6732177734375 0.7864990234375
51.176025390625 -3.4683837890625 -25.60595703125
19.9951171875 3.493408203125 6.5653076171875
90.94775390625 -97.5517578125 -5.322998046875
17.036865234375 -37.3131103515625 1.333251953125
1.553466796875 73.3016357421875 25.1700439453125
-88.050537109375 34.183349609375 -0.1505126953125
23.801025390625 57.8026123046875 9.5865478515625
48.29736328125 -24.6566162109375 2.72216796875
40.071044921875 -35.9429931640625 0.8101806640625
-64.619873046875 -79.083984375 10.10791015625
-17.801025390625 -70.1856689453125 1.804931640625
16.915771484375 -2.9896240234375 6.41943359375
-51.7529296875 -82.6513671875 -5.9869384765625
23.494384765625 -43.4215087890625 1.5550537109375
31.942138671875 68.83154296875 8.148681640625
38.45068359375 0.454345703125 6.6348876953125
30.406005859375 -20.5550537109375 6.06298828125
-81.3759765625 -74.207763671875 16.673828125
-3.123291015625 -33.1009521484375 1.238525390625
41.9658203125 56.996337890625 8.1519775390625
17.3876953125 -100.667236328125 1.7950439453125
31.24267578125 13.656982421875 -16.1998291015625
91.97119140625 -89.858154296875 -11.1962890625
-55.882080078125 -45.1124267578125 0.606689453125
47.13330078125 -22.892578125 -30.9404296875
45.39013671875 32.4669189453125 7.956787109375
33.85107421875 -15.01025390625 6.975830078125
-20.043701171875 5.0465087890625 6.107666015625
-21.817138671875 -62.75927734375 -2.6087646484375
15.380615234375 69.697021484375 22.420166015625
100.77392578125 -78.3876953125 -15.72119140625
-16.639404296875 -32.9759521484375 1.0509033203125
10.05029296875 -21.5626220703125 5.78759765625
-39.098876953125 -83.4652099609375 -4.61669921875
21.62109375 -33.77685546875 1.20458984375
26.365966796875 -103.419677734375 3.74853515625
49.9794921875 -102.7998046875 -26.047119140625
46.17431640625 -118.5985107421875 -15.2503662109375
-5.36279296875 35.605712890625 5.587646484375
-85.241455078125 21.6622314453125 0.3629150390625
5.16943359375 56.4901123046875 9.5115966796875
16.363037109375 -22.3115234375 5.0445556640625
-64.943603515625 -93.33056640625 12.8583984375
15.548095703125 -24.8807373046875 3.7144775390625
-19.944580078125 -23.266845703125 4.271240234375
31.593505859375 -57.6380615234375 -5.1739501953125
-41.540283203125 -31.48974609375 0.385009765625
48.46484375 -16.5146484375 -29.9874267578125
11.80712890625 54.4822998046875 7.1240234375
67.1845703125 -95.41064453125 -17.685546875
14.12109375 62.6944580078125 14.5679931640625
-64.44970703125 2.789306640625 0.6240234375
53.681396484375 -83.9656982421875 1.296630859375
9.043701171875 67.6822509765625 19.759765625
-95.665771484375 20.31103515625 0.3934326171875
-11.6513671875 68.6849365234375 21.6900634765625
-66.974853515625 24.009765625 -1.28662109375
-46.64599609375 -69.7684326171875 7.1824951171875
53.387451171875 40.0093994140625 5.2366943359375
43.837890625 32.8624267578125 -19.0093994140625
40.068359375 47.6971435546875 -19.4617919921875
7.358154296875 -88.378173828125 2.008056640625
13.054931640625 -96.384765625 1.052490234375
89.59716796875 -81.2027587890625 -10.2132568359375
-50.100341796875 -87.387451171875 -3.7313232421875
-80.61474609375 23.450927734375 2.3394775390625
37.16845703125 -116.9151611328125 4.9659423828125
-44.0830078125 -29.353271484375 0.7230224609375
48.097412109375 -96.4769287109375 -24.69873046875
-22.072509765625 -48.76025390625 4.86865234375
53.462158203125 -44.34716796875 -21.5811767578125
12.902099609375 -17.337890625 6.482177734375
-15.4873046875 6.177001953125 6.0101318359375
-6.917724609375 62.919189453125 17.4617919921875
11.203125 -91.1495361328125 0.48681640625
44.255859375 -51.3040771484375 0.9974365234375
7.663330078125 17.0093994140625 6.34375
-2.016357421875 47.1607666015625 8.208740234375
-80.661865234375 -66.4019775390625 17.3416748046875
8.03173828125 35.2236328125 5.579345703125
2.672119140625 48.5535888671875 6.01708984375
57.161865234375 -78.34619140625 1.3453369140625
-64.004150390625 -61.7135009765625 14.9996337890625
41.03173828125 44.9027099609375 -18.572021484375
53.066650390625 -64.4632568359375 -16.25244140625
-63.112548828125 -78.7528076171875 7.23974609375
-9.9873046875 -38.8228759765625 -2.3475341796875
-50.448974609375 -32.7156982421875 0.85595703125
91.3955078125 -77.2880859375 -10.8343505859375
48.952880859375 -50.203369140625 2.8887939453125
0.927978515625 -20.162841796875 5.9144287109375
45.780029296875 -78.1622314453125 1.4471435546875
47.378662109375 -62.382568359375 -21.551513671875
-56.025146484375 -80.03125 5.2464599609375
-56.769287109375 -81.24853515625 -1.3095703125
92.008056640625 -104.0885009765625 -11.08203125
11.18505859375 -9.940673828125 7.05419921875
-32.412353515625 -80.7054443359375 0.478271484375
-77.957763671875 22.630615234375 -0.3680419921875
-66.275634765625 -95.1785888671875 7.4105224609375
