-62.498046875 -90.3804931640625 -18.0775146484375
-7.697509765625 47.822509765625 -9.4869384765625
40.745849609375 -77.714111328125 -19.8880615234375
-44.12744140625 -72.2056884765625 -14.2880859375
-73.1357421875 9.4842529296875 -19.334228515625
38.685546875 -97.753173828125 -30.71240234375
27.251708984375 67.1231689453125 -3.0772705078125
-61.281982421875 -151.944091796875 -0.1805419921875
-64.526611328125 -119.65966796875 -4.8223876953125
39.170654296875 -108.06982421875 -29.5885009765625
22.803955078125 -9.4443359375 -13.4993896484375
-8.84033203125 -26.844482421875 -19.352783203125
31.007568359375 -49.5205078125 -26.4688720703125
36.812255859375 -32.4324951171875 -19.5087890625
-25.1640625 -134.8187255859375 -3.34619140625
-32.534912109375 -67.091552734375 -19.75634765625
80.3115234375 -100.3726806640625 -25.17138671875
41.650146484375 -19.8748779296875 -16.3350830078125
24.912109375 1.1549072265625 -12.955810546875
-12.09423828125 75.1845703125 5.2247314453125
1.082763671875 30.87451171875 -13.898681640625
-73.784912109375 -108.0958251953125 -5.264892578125
-39.3505859375 -46.162109375 -19.24560546875
-59.119384765625 -47.1776123046875 1.401123046875
-9.75927734375 4.4542236328125 -14.0712890625
11.735595703125 68.583740234375 -1.9791259765625
-70.686767578125 -83.287353515625 -12.724853515625
55.0908203125 -66.0428466796875 -19.775146484375
-81.23974609375 -15.8568115234375 22.6910400390625
7.405029296875 -99.099609375 -3.59130859375
32.045166015625 -81.3450927734375 -20.4927978515625
36.778564453125 -93.1866455078125 -18.3792724609375
-85.430419921875 31.5255126953125 -18.6182861328125
47.938720703125 -72.9974365234375 -35.6744384765625
-2.113037109375 44.417236328125 -13.873046875
-53.23095703125 -18.7864990234375 -19.2822265625
-0.170166015625 14.1964111328125 -13.9552001953125
-88.2646484375 -44.6470947265625 3.125244140625
-58.627197265625 -76.9000244140625 -18.6533203125
-38.0556640625 -81.8326416015625 -23.654052734375
10.304443359375 -112.925048828125 -3.836669921875
-14.419189453125 35.1810302734375 -13.8084716796875
-4.2451171875 20.4364013671875 -13.7882080078125
11.188232421875 -97.5634765625 -20.538818359375
-100.44775390625 33.155029296875 -19.7496337890625
-9.059326171875 -44.861083984375 -32.10693359375
16.610595703125 -131.9656982421875 -3.9541015625
-82.38623046875 5.79833984375 24.740966796875
8.258544921875 33.021728515625 -14.0074462890625
33.468994140625 38.1556396484375 -14.1099853515625
2.5283203125 76.9708251953125 6.278564453125
11.537109375 4.3477783203125 -13.8349609375
-66.0 -86.4112548828125 -26.9554443359375
-26.734130859375 -49.26708984375 -20.2923583984375
-77.722900390625 -78.0185546875 -4.10498046875
58.119873046875 24.2376708984375 -15.2371826171875
48.004150390625 21.281005859375 -14.0723876953125
-34.189208984375 -36.7164306640625 -19.5888671875
-52.876220703125 -1.9307861328125 -19.3687744140625
6.77001953125 -21.7469482421875 -16.8583984375
100.501220703125 -86.331787109375 -36.1170654296875
26.6533203125 44.201904296875 -14.09521484375
32.8505859375 69.4227294921875 -10.032958984375
88.548095703125 -68.102294921875 -31.30224609375
80.914306640625 -103.4593505859375 -36.6240234375
-71.842529296875 23.6661376953125 -20.5848388671875
-66.706787109375 -10.1312255859375 -18.0728759765625
-95.343505859375 -44.6082763671875 20.0107421875
47.20556640625 14.0225830078125 -17.0433349609375
34.80029296875 1.4439697265625 -14.1700439453125
-22.879638671875 -38.18310546875 -3.6251220703125
-20.774169921875 41.827880859375 -14.0718994140625
-22.00634765625 -41.82568359375 -22.7451171875
7.7802734375 -126.1856689453125 -3.7689208984375
-31.92919921875 -145.586181640625 -1.853759765625
-68.979736328125 -126.8157958984375 -4.6602783203125
68.557373046875 -94.32958984375 -31.4395751953125
-66.0595703125 5.5743408203125 -19.404296875
-11.08837890625 -43.786376953125 2.9764404296875
-10.908935546875 -53.0174560546875 -23.362548828125
1.946533203125 -86.2066650390625 -19.4793701171875
29.91552734375 -33.289306640625 -19.3214111328125
-82.344970703125 -27.11083984375 12.2569580078125
20.830810546875 -105.1015625 -17.34912109375
-72.735595703125 -2.856689453125 -18.1185302734375
5.295166015625 -106.3095703125 -3.603271484375
-74.736083984375 -48.9105224609375 0.562255859375
-48.97265625 -41.5198974609375 -19.9541015625
-9.51708984375 -19.79150390625 20.9571533203125
-44.657470703125 -84.99267578125 -23.9609375
17.960693359375 53.59716796875 -13.8126220703125
2.322509765625 -135.9818115234375 -3.583251953125
-16.68603515625 -124.4920654296875 -3.427001953125
48.918212890625 -116.401611328125 -8.4671630859375
23.679931640625 12.8345947265625 -13.86083984375
88.46728515625 -100.7105712890625 -31.9930419921875
-6.178466796875 -22.794921875 15.77099609375
35.7607421875 23.6065673828125 -14.1341552734375
32.642822265625 -46.42626953125 -19.006103515625
-59.376953125 -43.5484619140625 -18.07958984375
-15.2880859375 14.063232421875 -13.9246826171875
82.609130859375 -80.3155517578125 -36.0474853515625
-58.26904296875 -86.525146484375 -26.7332763671875
-45.93505859375 -32.68994140625 -19.6898193359375
-16.333251953125 28.707275390625 -14.0263671875
97.25390625 -71.0203857421875 -36.6114501953125
-9.592041015625 66.1712646484375 -3.326904296875
-86.677001953125 -16.0274658203125 18.4815673828125
28.943115234375 57.766845703125 -13.0289306640625
-68.578125 -35.1549072265625 9.132568359375
-83.447265625 17.6812744140625 -19.608154296875
34.54638671875 74.935546875 -16.1929931640625
-15.963623046875 -1.1129150390625 -13.3509521484375
-1.626708984375 -38.755859375 -19.5687255859375
-4.618896484375 58.1888427734375 -11.3387451171875
48.873779296875 38.8458251953125 -14.1395263671875
-65.495849609375 -76.480224609375 -14.3720703125
-95.79248046875 40.315673828125 -19.6485595703125
-65.518310546875 -31.890380859375 -20.0645751953125
-46.307373046875 -75.728515625 -20.79150390625
-86.474365234375 5.0599365234375 19.6009521484375
18.837646484375 22.7379150390625 -14.09814453125
-74.111083984375 -62.548828125 -3.7528076171875
12.417236328125 -53.030517578125 -19.3797607421875
-20.3876953125 -43.989990234375 -32.07861328125
4.027587890625 48.8486328125 -13.9666748046875
40.755126953125 16.5244140625 -21.8486328125
-5.2421875 -117.5684814453125 -4.0047607421875
42.609130859375 -93.392333984375 -23.724609375
32.177490234375 -87.810302734375 -19.5709228515625
-83.314453125 37.843994140625 -19.5491943359375
-13.092041015625 69.689453125 0.8677978515625
-55.2783203125 -92.46435546875 -29.1177978515625
-73.908203125 -16.3660888671875 16.2188720703125
-11.04931640625 -37.235107421875 -23.5478515625
25.46240234375 -59.6097412109375 -22.7188720703125
83.588134765625 -71.9718017578125 -28.599609375
8.133544921875 -7.2335205078125 -13.4302978515625
28.37890625 76.9053955078125 -12.5303955078125
-36.02685546875 -77.5537109375 -19.2926025390625
11.816650390625 -18.163330078125 -15.0911865234375
21.857421875 75.462646484375 -8.2850341796875
-26.15576171875 -39.6961669921875 -18.24072265625
27.6318359375 62.83837890625 -9.326171875
19.2783203125 -24.9696044921875 -18.3258056640625
33.86865234375 -19.62744140625 -15.61962890625
-47.693115234375 -93.237060546875 -28.6961669921875
-47.018310546875 -48.49169921875 -19.7034912109375
-70.540771484375 -80.1146240234375 -5.958251953125
-45.941162109375 -64.3818359375 -10.194091796875
-11.797607421875 -39.1661376953125 -31.680908203125
16.77294921875 61.994384765625 -9.398681640625
20.532470703125 -80.99365234375 -20.1513671875
-1.74951171875 -27.711181640625 -19.1241455078125
-19.74658203125 -61.122802734375 -19.73388671875
86.54541015625 -102.2418212890625 -26.200927734375
2.075439453125 -92.97265625 -19.7674560546875
-94.628173828125 -49.5516357421875 2.364990234375
13.0009765625 -60.9749755859375 -19.497802734375
-95.2373046875 -44.2021484375 12.2923583984375
90.416259765625 -89.59423828125 -33.4049072265625
-62.528076171875 -70.4981689453125 -7.2066650390625
-59.635986328125 10.108154296875 -20.1309814453125
86.44189453125 -87.630859375 -28.2191162109375
-13.608642578125 -29.5687255859375 12.7022705078125
-54.400146484375 -58.356201171875 -4.5347900390625
-0.865234375 -109.4462890625 -3.4144287109375
-69.3916015625 18.009033203125 -20.484130859375
-25.853515625 -18.4974365234375 19.3907470703125
4.77783203125 -75.08740234375 -14.450439453125
51.055908203125 -55.96435546875 -19.1927490234375
-84.994384765625 -33.1019287109375 9.6539306640625
19.74560546875 40.778564453125 -13.82666015625
36.257568359375 -6.5673828125 -13.6353759765625
-53.703125 -72.34716796875 -14.6759033203125
6.500244140625 -120.190185546875 -3.6131591796875
29.33251953125 -101.5233154296875 -20.463623046875
-55.175048828125 -13.03369140625 -18.48046875
-79.033447265625 -38.7989501953125 6.4688720703125
48.422607421875 53.0062255859375 -12.6585693359375
9.25634765625 24.496337890625 -13.8782958984375
23.02978515625 -92.42578125 -20.18359375
-67.162353515625 -41.1944580078125 5.05908203125
22.626220703125 -53.7760009765625 -21.409423828125
-61.8017578125 -83.05029296875 -21.956298828125
-64.864990234375 -22.7640380859375 12.9486083984375
-15.813720703125 -14.5772705078125 -13.3515625
37.86865234375 66.9222412109375 -7.6842041015625
18.115478515625 -71.8408203125 -19.134521484375
28.39599609375 26.037109375 -14.1318359375
-95.1591796875 -31.8084716796875 15.6258544921875
-13.04833984375 -33.0989990234375 -19.4129638671875
-68.424072265625 -53.9837646484375 -1.759521484375
-21.64306640625 77.41845703125 7.984619140625
-80.583251953125 -85.9168701171875 -4.2435302734375
-33.019775390625 -47.8553466796875 -23.621337890625
-19.123291015625 -50.5614013671875 -14.151123046875
66.240478515625 -92.8900146484375 -37.3519287109375
55.68115234375 -92.93505859375 -38.0548095703125
-58.24609375 -121.723388671875 -4.8416748046875
-83.928466796875 -72.2681884765625 -4.3765869140625
-24.0615234375 -57.97705078125 -23.652587890625
-63.0107421875 -62.993408203125 -2.3101806640625
101.347900390625 -65.3555908203125 -32.6546630859375
-69.8759765625 5.7349853515625 21.02490234375
90.725341796875 -104.3502197265625 -21.2542724609375
-37.062255859375 -80.6815185546875 -14.1343994140625
-96.725830078125 23.60498046875 -19.595458984375
81.871337890625 -94.9898681640625 -23.0830078125
43.850830078125 -104.4368896484375 -11.6041259765625
89.343994140625 -79.0050048828125 -33.1767578125
-19.2490234375 -49.93603515625 -20.1134033203125
96.50048828125 -101.102294921875 -36.98828125
-6.82666015625 -18.7989501953125 -15.7608642578125
14.524658203125 -104.902099609375 -19.466552734375
-3.635498046875 27.2332763671875 -13.7664794921875
3.00439453125 -106.0093994140625 -20.1678466796875
-61.187744140625 -107.1441650390625 -5.9208984375
-25.00048828125 -32.492431640625 8.6190185546875
41.80322265625 -26.427490234375 -20.0360107421875
10.24462890625 -74.5604248046875 -19.635498046875
7.853515625 17.301513671875 -13.6883544921875
-44.501953125 -60.9822998046875 -16.7923583984375
-37.550048828125 -59.2056884765625 -19.4215087890625
44.209716796875 -94.2435302734375 -34.8770751953125
27.67138671875 -42.2523193359375 -18.97509765625
-8.43310546875 -105.3018798828125 -3.8939208984375
-70.45556640625 -88.2803955078125 -7.2060546875
43.890625 31.708740234375 -14.227783203125
-56.134765625 -67.34521484375 -10.395263671875
-22.026123046875 4.1856689453125 -13.9710693359375
9.656982421875 -44.95361328125 -19.6839599609375
-64.188232421875 -20.792724609375 -19.8038330078125
14.451171875 -84.5762939453125 -20.08154296875
-20.7470703125 80.518798828125 14.2584228515625
-0.16796875 -15.99072265625 -14.111328125
-90.18701171875 -55.2027587890625 -1.4873046875
36.033447265625 11.8699951171875 -13.8345947265625
1.00048828125 -122.1109619140625 -3.8143310546875
-71.322265625 3.170166015625 -18.8656005859375
38.323974609375 33.35546875 -14.236572265625
54.56298828125 -73.1324462890625 -19.8304443359375
12.662109375 11.2008056640625 -13.81591796875
-57.640380859375 -75.2847900390625 -24.6917724609375
-5.41845703125 -124.962646484375 -3.81884765625
-67.684814453125 -95.7646484375 -7.7169189453125
-61.457763671875 1.9290771484375 -19.604736328125
-42.3203125 -24.9429931640625 -20.72705078125
-50.99951171875 -75.33154296875 -27.85888671875
53.372314453125 -92.2904052734375 -20.364013671875
41.62158203125 -56.5660400390625 -19.3475341796875
25.383544921875 -69.90771484375 -19.501220703125
-62.205322265625 17.245361328125 -20.6888427734375
20.288330078125 34.6304931640625 -13.8514404296875
-49.936279296875 -82.925048828125 -24.7747802734375
96.4560546875 -76.9869384765625 -35.6412353515625
-1.383544921875 74.0133056640625 3.1435546875
-25.101806640625 70.94970703125 2.974853515625
-10.374267578125 -39.127197265625 7.1756591796875
-46.53466796875 -143.972412109375 -2.9378662109375
-25.110595703125 -28.3035888671875 13.056396484375
51.58349609375 25.6959228515625 -14.2886962890625
-22.310546875 -140.576171875 -2.7674560546875
41.457275390625 -38.1309814453125 -20.2745361328125
-70.665771484375 -121.427978515625 -4.2806396484375
-85.39208984375 36.31884765625 -14.521484375
12.18408203125 58.4093017578125 -12.6773681640625
48.6982421875 -65.8778076171875 -19.7640380859375
-89.866943359375 -24.716552734375 17.8109130859375
16.22900390625 71.595458984375 -3.5308837890625
-8.000732421875 -27.31787109375 12.9769287109375
-58.591064453125 -32.51220703125 -19.8123779296875
42.899658203125 51.181396484375 -14.564697265625
24.298583984375 -49.5 -25.8843994140625
-18.051025390625 -99.6612548828125 -3.958251953125
-73.71240234375 -74.3768310546875 -5.5087890625
-14.39306640625 -42.3238525390625 -19.8287353515625
-17.082763671875 -35.68017578125 7.707763671875
-71.064697265625 -101.9517822265625 -4.79345703125
40.332275390625 -92.4656982421875 -31.248046875
12.27587890625 -2.0111083984375 -13.560302734375
-5.364501953125 8.2213134765625 -14.036376953125
16.391357421875 -31.247802734375 -19.447998046875
-28.8310546875 -141.2689208984375 -3.46435546875
-70.344970703125 -22.8499755859375 13.796142578125
-18.795166015625 -23.1268310546875 17.3798828125
-73.159912109375 29.539306640625 -20.4652099609375
-0.16357421875 -1.7686767578125 -13.5904541015625
50.276123046875 -76.6302490234375 -19.6815185546875
28.8046875 32.9482421875 -14.1072998046875
41.5126953125 58.659912109375 -13.200927734375
23.242431640625 -16.7230224609375 -14.40234375
-10.149658203125 79.039794921875 8.6558837890625
-21.19921875 -36.574462890625 -24.216552734375
-16.180908203125 46.2122802734375 -14.0374755859375
-72.50341796875 -29.6053466796875 11.803466796875
-2.9404296875 67.3131103515625 -3.8272705078125
17.72216796875 3.5159912109375 -13.4375
-13.88623046875 -93.8804931640625 -3.8377685546875
-56.364501953125 -140.500732421875 -3.329833984375
37.2734375 -124.4998779296875 -12.642578125
-37.00732421875 -130.5006103515625 -3.55810546875
18.561279296875 14.7435302734375 -13.490966796875
32.423583984375 -10.4722900390625 -13.4552001953125
88.595947265625 -92.698974609375 -21.3231201171875
-3.89453125 51.9678955078125 -9.2513427734375
-53.468017578125 -25.4000244140625 -19.7113037109375
-22.1982421875 -32.6737060546875 -19.0272216796875
20.492919921875 -49.205322265625 -18.970703125
-20.595947265625 -7.9095458984375 -13.4786376953125
89.7109375 -95.703369140625 -34.233642578125
11.980712890625 -111.0205078125 -21.2813720703125
-10.39013671875 -14.389404296875 -13.4166259765625
9.94482421875 -31.9580078125 -19.6142578125
-9.37060546875 -136.9661865234375 -3.6168212890625
-89.085693359375 35.605224609375 -20.699951171875
15.290771484375 -67.0899658203125 -19.3892822265625
3.7294921875 -70.9423828125 -18.9598388671875
75.825439453125 -102.0372314453125 -29.97314453125
3.288818359375 -45.633056640625 -19.103759765625
46.619873046875 -21.90966796875 -16.6473388671875
-41.500732421875 -82.26708984375 -27.87109375
41.211669921875 -49.0645751953125 -19.5550537109375
-88.149169921875 -63.008056640625 -3.2906494140625
0.181640625 70.3394775390625 -0.404541015625
27.0751953125 -126.9595947265625 -11.48876953125
-11.65673828125 -48.4964599609375 -28.63330078125
13.2314453125 48.720703125 -13.971435546875
-6.82373046875 -39.918701171875 -19.8348388671875
-16.9580078125 -22.2567138671875 -17.119384765625
6.119873046875 -26.5592041015625 -19.054443359375
-22.885498046875 -27.227783203125 -18.38134765625
-88.25830078125 -49.0263671875 0.1214599609375
-42.8447265625 -138.2000732421875 -5.099609375
32.491943359375 80.3385009765625 -19.886474609375
81.384033203125 -52.852294921875 -20.458984375
-62.988037109375 -33.006103515625 9.86962890625
-69.21826171875 -78.3123779296875 -11.0697021484375
-19.54296875 -27.0819091796875 13.93994140625
32.53515625 50.5665283203125 -13.685302734375
-63.84228515625 -44.744384765625 2.9793701171875
59.982177734375 -62.3009033203125 -19.8797607421875
23.71484375 -3.9727783203125 -13.3558349609375
-52.70751953125 -150.73486328125 -0.2353515625
8.196044921875 65.965087890625 -5.152587890625
31.948486328125 -27.509765625 -19.20166015625
-50.15380859375 -52.71337890625 -19.4591064453125
-65.81689453125 -88.3980712890625 -14.507080078125
28.63623046875 -77.3660888671875 -20.0548095703125
-44.2333984375 -43.7713623046875 -19.6435546875
-5.909423828125 60.1026611328125 -0.70751953125
-77.181640625 -20.3187255859375 14.24169921875
-61.510498046875 -58.3016357421875 -4.774169921875
-22.0380859375 -130.6201171875 -3.40869140625
-46.47216796875 -76.9215087890625 -15.69921875
14.84326171875 65.5792236328125 -6.1505126953125
79.85791015625 -43.38671875 -23.56591796875
-47.40087890625 -130.64599609375 -4.205322265625
-46.788330078125 -56.6099853515625 -18.4168701171875
38.766357421875 42.18896484375 -12.52294921875
-4.357421875 -133.13720703125 -3.7198486328125
-63.194091796875 -68.785888671875 -2.3541259765625
14.10205078125 -93.3087158203125 -19.9708251953125
14.757080078125 42.829833984375 -14.04248046875
6.308837890625 5.5587158203125 -13.806640625
-91.172119140625 -40.485107421875 4.1378173828125
-8.838623046875 -65.081787109375 -16.981689453125
41.90087890625 -93.31640625 -17.70654296875
37.3798828125 -97.3741455078125 -37.2969970703125
-20.447265625 -17.857666015625 -14.783203125
21.737060546875 63.0631103515625 -8.545166015625
-3.56640625 -98.6884765625 -3.5850830078125
-10.52490234375 47.275390625 -13.941650390625
-94.8935546875 -40.37841796875 16.4671630859375
29.559326171875 12.43603515625 -13.8033447265625
43.824462890625 -116.45166015625 -9.0087890625
-15.037353515625 -109.925537109375 -3.8416748046875
8.74951171875 75.130615234375 4.09521484375
-51.415283203125 -125.193603515625 -5.1328125
3.90185546875 -130.5599365234375 -3.854248046875
41.69189453125 -7.2474365234375 -13.7052001953125
44.17626953125 40.5721435546875 -13.2227783203125
16.03173828125 -41.571044921875 -19.180908203125
-37.9033203125 -137.043701171875 -4.665283203125
-11.623046875 -115.062744140625 -4.038818359375
-16.92333984375 76.2760009765625 6.268798828125
96.738525390625 -89.67724609375 -35.9228515625
2.43798828125 -98.25439453125 -3.56640625
48.724853515625 -92.9202880859375 -25.3017578125
45.354248046875 -86.2843017578125 -20.096923828125
-94.2216796875 -50.838134765625 9.95849609375
60.011474609375 -82.2138671875 -21.47509765625
-63.4228515625 -53.6319580078125 -2.0382080078125
-62.964111328125 -6.3487548828125 -18.6337890625
-104.97802734375 31.2672119140625 -18.7274169921875
3.223876953125 43.415283203125 -14.0650634765625
-37.503173828125 -52.0625 -21.066650390625
25.273193359375 -97.5562744140625 -19.3572998046875
-6.623046875 -7.328125 -13.6654052734375
9.726318359375 39.922119140625 -14.111083984375
-8.657958984375 23.4554443359375 -14.0030517578125
-54.27587890625 -39.884033203125 -19.802490234375
-50.086669921875 -29.772216796875 -19.9111328125
-71.531982421875 -57.8677978515625 -4.117431640625
-10.806640625 9.4547119140625 -13.8389892578125
35.225341796875 6.929443359375 -13.8480224609375
58.16650390625 -90.9903564453125 -21.2086181640625
22.17236328125 -61.5953369140625 -19.4486083984375
53.23583984375 -80.9334716796875 -20.1683349609375
-23.27880859375 -55.103271484375 -19.689697265625
25.068359375 -36.632568359375 -19.3958740234375
-61.8974609375 -11.2432861328125 -18.4456787109375
86.322509765625 -75.1326904296875 -31.250732421875
12.59716796875 -129.0806884765625 -3.736572265625
10.5185546875 -95.4920654296875 -2.2657470703125
-9.569091796875 33.3111572265625 -14.0010986328125
23.2294921875 -109.8349609375 -20.387451171875
-10.994873046875 -3.7027587890625 -13.675537109375
-6.630126953125 42.3626708984375 -13.939697265625
-14.23193359375 3.0469970703125 -11.3360595703125
-49.469482421875 -15.2415771484375 -18.6727294921875
23.239990234375 5.78369140625 -13.2386474609375
-32.7265625 -32.1361083984375 -18.506591796875
6.63037109375 -95.5963134765625 -20.523681640625
94.126953125 -67.901123046875 -33.6578369140625
-74.56787109375 -34.9908447265625 9.34033203125
46.034912109375 -28.846435546875 -21.8408203125
-18.553466796875 -68.0531005859375 -19.36669921875
-82.66796875 22.5111083984375 -20.0213623046875
-41.404541015625 -128.24169921875 -4.4359130859375
37.910400390625 49.8232421875 -14.12841796875
-64.28369140625 -27.1514892578125 -19.9476318359375
-6.1044921875 74.5238037109375 4.33935546875
-95.673095703125 34.327880859375 -19.899658203125
-51.256103515625 -66.589111328125 -8.9178466796875
42.897705078125 -15.243408203125 -14.093017578125
88.178955078125 -83.6229248046875 -32.1513671875
42.57275390625 -73.2095947265625 -19.7259521484375
-18.60498046875 22.6312255859375 -13.9576416015625
-41.715576171875 -76.4183349609375 -14.537109375
-59.92333984375 -156.37646484375 1.2615966796875
-88.438720703125 27.5635986328125 -19.8663330078125
-1.800537109375 39.3912353515625 -13.8123779296875
5.29541015625 27.27197265625 -14.097900390625
-53.185791015625 -7.1363525390625 -18.4879150390625
-76.6005859375 -89.7056884765625 -4.1201171875
97.07275390625 -82.964111328125 -36.5455322265625
8.730224609375 -101.8192138671875 -19.90380859375
-21.000244140625 9.822509765625 -13.7896728515625
-76.779541015625 12.7979736328125 -19.3809814453125
7.861083984375 -64.4874267578125 -19.2125244140625
38.6474609375 -102.5396728515625 -30.376953125
-55.9970703125 -126.740234375 -4.5784912109375
14.589599609375 32.826904296875 -13.748291015625
-27.905517578125 -65.80859375 -19.3946533203125
-74.008544921875 -44.6129150390625 2.5360107421875
-44.3369140625 -67.0166015625 -14.6151123046875
-62.707275390625 -132.0726318359375 -4.197509765625
52.865478515625 -61.8125 -19.859130859375
-82.68017578125 -65.88427734375 -3.6781005859375
30.118408203125 -69.275390625 -19.583251953125
-13.86279296875 -128.261474609375 -4.16455078125
37.52099609375 -46.0518798828125 -19.58740234375
22.87451171875 47.4671630859375 -13.8994140625
-35.9375 -63.6826171875 -19.3897705078125
11.944580078125 -101.0435791015625 -4.3306884765625
32.2392578125 65.568359375 -6.858642578125
4.6357421875 63.110107421875 -7.8184814453125
-6.3779296875 -23.03662109375 -17.8453369140625
61.939208984375 -77.7501220703125 -21.2138671875
35.081787109375 -67.8050537109375 -19.2918701171875
-89.310302734375 -19.8082275390625 17.3814697265625
-59.87548828125 -147.22998046875 -1.736083984375
-89.67138671875 -33.703857421875 9.33740234375
24.157958984375 72.05615234375 -5.955078125
-66.615966796875 30.4073486328125 -16.892822265625
23.481689453125 -102.35888671875 -20.1346435546875
10.152099609375 -57.2105712890625 -19.3507080078125
18.845947265625 -13.6541748046875 -13.539306640625
-54.041748046875 -93.247802734375 -24.2547607421875
50.787841796875 -87.3489990234375 -20.0125732421875
-58.42724609375 -22.2271728515625 -19.75390625
-61.029296875 -78.16064453125 -22.508544921875
-26.5576171875 -37.93994140625 -0.693115234375
-84.1728515625 -41.4674072265625 4.10107421875
34.09716796875 58.62109375 -12.717529296875
8.537109375 -36.5228271484375 -19.42333984375
5.93310546875 -111.2421875 -3.61962890625
5.437255859375 54.4058837890625 -13.750732421875
-63.277099609375 -136.7548828125 -3.846435546875
-35.5966796875 -41.802734375 -19.3682861328125
36.076416015625 -79.07568359375 -19.76513671875
-85.853759765625 -57.896240234375 -2.6341552734375
34.02197265625 -52.1759033203125 -22.550048828125
-81.187255859375 -22.56884765625 13.40771484375
1.861083984375 10.00732421875 -13.6444091796875
-77.34423828125 -96.0894775390625 -4.1297607421875
-70.56494140625 -6.981201171875 -18.2520751953125
-42.781494140625 -78.430908203125 -22.2052001953125
81.940673828125 -76.281494140625 -29.2591552734375
-17.753662109375 38.095703125 -12.3753662109375
-46.2265625 -88.2332763671875 -27.6365966796875
56.58203125 28.582763671875 -14.6041259765625
-63.574951171875 -49.54736328125 0.1768798828125
-81.35009765625 33.7109375 -20.3634033203125
-66.21728515625 28.926025390625 -21.3897705078125
-26.54248046875 79.7066650390625 10.1783447265625
-23.52490234375 -14.7734375 22.037353515625
-32.330322265625 -53.2073974609375 -26.8062744140625
-59.044677734375 -1.97021484375 -20.1458740234375
-13.080810546875 -24.5537109375 -18.1019287109375
-5.918212890625 47.4530029296875 -14.0439453125
30.76318359375 22.0819091796875 -14.2435302734375
-65.20556640625 -16.3138427734375 -19.3465576171875
38.644775390625 62.302490234375 -10.1630859375
41.0361328125 -30.9903564453125 -21.1417236328125
-0.180908203125 -33.2196044921875 -19.5758056640625
-58.59619140625 -38.1044921875 -19.7843017578125
40.5849609375 11.22216796875 -14.11767578125
-21.069580078125 -44.9522705078125 -25.9949951171875
33.922119140625 74.819580078125 -20.7545166015625
18.597412109375 -36.423095703125 -19.29248046875
-49.081787109375 -20.75048828125 -19.5042724609375
4.507080078125 -54.8768310546875 -19.3255615234375
-5.87646484375 57.9942626953125 -6.926513671875
-39.94287109375 -70.3414306640625 -14.3453369140625
-98.828369140625 28.5213623046875 -19.6695556640625
-49.9765625 -74.387939453125 -18.403564453125
-54.427734375 -64.3150634765625 -5.1600341796875
12.92919921875 -6.5367431640625 -13.6641845703125
42.285888671875 -82.31689453125 -19.847412109375
-59.2607421875 -81.9783935546875 -15.865966796875
29.56201171875 2.823486328125 -12.013427734375
-14.33837890625 -39.6197509765625 -26.3944091796875
37.295654296875 19.311279296875 -14.0291748046875
-73.118896484375 -66.926513671875 -4.8487548828125
51.078125 -120.3216552734375 -7.6141357421875
-7.1435546875 -95.7989501953125 -3.8504638671875
39.30810546875 -96.8179931640625 -16.3760986328125
-88.746337890625 -15.8160400390625 22.5244140625
98.1796875 -64.4671630859375 -36.013427734375
-83.235107421875 27.5908203125 -17.88232421875
-48.835693359375 -153.5672607421875 0.7313232421875
-36.952880859375 -68.0084228515625 -18.505126953125
-4.92236328125 45.26806640625 -6.1851806640625
17.32275390625 -63.0594482421875 -19.7349853515625
12.28857421875 -116.9617919921875 -4.341796875
-71.245849609375 -111.8641357421875 -4.335205078125
-20.162109375 31.0743408203125 -14.4412841796875
-13.953369140625 -33.4490966796875 10.422119140625
-27.541748046875 -60.8436279296875 -23.5595703125
-69.0390625 -106.56640625 -4.628662109375
-72.759521484375 35.5799560546875 -21.1544189453125
36.274658203125 -83.5716552734375 -19.75830078125
41.114990234375 -61.03564453125 -19.4720458984375
10.41943359375 -11.45458984375 -13.5396728515625
-11.597412109375 -34.4718017578125 -31.2930908203125
-77.339599609375 -16.156005859375 20.4754638671875
65.0380859375 -91.691650390625 -32.3692626953125
-65.955810546875 -115.4000244140625 -4.89306640625
-25.390380859375 -44.9866943359375 -20.0494384765625
-68.65185546875 -61.870849609375 -4.0831298828125
-4.650146484375 51.146240234375 -4.9068603515625
-58.330322265625 -61.562744140625 -4.398193359375
-0.349365234375 63.304931640625 -7.4603271484375
27.593994140625 -29.4669189453125 -19.1358642578125
-54.936279296875 -77.0357666015625 -13.99169921875
-51.78857421875 -134.4566650390625 -4.2918701171875
30.24462890625 37.5982666015625 -11.073974609375
-70.1455078125 -87.600341796875 -13.7845458984375
-41.893310546875 -149.93603515625 -0.61279296875
-61.582275390625 -114.297119140625 -4.88720703125
-14.1953125 -20.4176025390625 19.2672119140625
21.9404296875 -21.7308349609375 -16.74560546875
-11.722900390625 -45.20458984375 -22.3914794921875
14.321533203125 23.500244140625 -13.989501953125
-77.24462890625 7.8603515625 -19.19287109375
18.580322265625 -8.1427001953125 -13.4339599609375
29.55419921875 72.927734375 -11.00439453125
-38.564208984375 -36.1046142578125 -19.583740234375
-77.40478515625 23.2508544921875 -20.450927734375
7.880126953125 59.112548828125 -11.974853515625
-64.78955078125 -124.1029052734375 -5.5374755859375
22.364013671875 53.85693359375 -13.7506103515625
29.230224609375 71.15283203125 -3.09814453125
-8.122314453125 -49.1572265625 -32.4290771484375
-65.609130859375 -72.3790283203125 -12.7593994140625
52.737060546875 35.596923828125 -14.5123291015625
79.76416015625 -105.6480712890625 -32.2723388671875
27.642578125 -91.5220947265625 -19.7498779296875
-81.47265625 -56.19970703125 -2.112548828125
17.041259765625 -51.9029541015625 -19.321533203125
-72.713134765625 -53.2171630859375 -1.1871337890625
2.807861328125 17.4193115234375 -13.7486572265625
21.943359375 -45.0665283203125 -19.2174072265625
27.331787109375 -18.959716796875 -15.4896240234375
-87.575439453125 -26.3282470703125 12.611083984375
24.322265625 65.4364013671875 -5.9244384765625
42.626953125 -89.7449951171875 -20.29150390625
50.188720703125 -94.3807373046875 -30.095947265625
88.493408203125 -95.822509765625 -24.824462890625
-4.970458984375 31.3919677734375 -13.949462890625
-79.6259765625 -50.404052734375 -0.61376953125
29.56103515625 -54.9012451171875 -27.7806396484375
-64.71630859375 -36.8253173828125 7.9632568359375
-95.293212890625 -46.8448486328125 8.5740966796875
-14.836181640625 -46.4036865234375 3.5633544921875
-5.804443359375 1.9178466796875 -13.7216796875
-59.674072265625 -82.6275634765625 -28.056884765625
29.4052734375 47.551513671875 -14.0543212890625
-78.19189453125 5.4716796875 22.418701171875
41.884521484375 21.726806640625 -14.2137451171875
89.3671875 -104.913818359375 -31.453369140625
2.404052734375 -91.4571533203125 -3.2772216796875
41.052001953125 1.9639892578125 -14.9412841796875
28.82421875 68.226318359375 -6.9962158203125
-13.191650390625 38.830322265625 -11.8243408203125
23.541259765625 -25.462646484375 -18.8914794921875
2.33984375 -81.9034423828125 -19.673828125
11.73388671875 -79.7584228515625 -19.556396484375
27.1337890625 16.0634765625 -13.822509765625
-70.70166015625 -71.37548828125 -4.7747802734375
6.14111328125 -78.614990234375 -20.224853515625
83.518310546875 -103.48046875 -23.3895263671875
-99.3984375 42.7230224609375 -20.7496337890625
84.3056640625 -98.775390625 -24.907958984375
-29.685302734375 -133.1180419921875 -3.5643310546875
-7.857666015625 17.5787353515625 -14.071044921875
29.89990234375 -48.411376953125 -21.6539306640625
-61.5615234375 6.277099609375 -19.8756103515625
18.7197265625 -84.9859619140625 -20.1705322265625
-22.155029296875 73.930419921875 3.919677734375
-18.041015625 -33.2171630859375 -18.1285400390625
-22.8828125 -50.3255615234375 -17.874755859375
-92.5634765625 25.7540283203125 -19.9910888671875
-93.545166015625 -31.77587890625 10.2108154296875
33.63525390625 -15.2327880859375 -13.7403564453125
11.9453125 -40.399658203125 -19.576171875
6.7333984375 69.13916015625 -1.525146484375
8.466796875 -103.4405517578125 -3.753173828125
6.370361328125 -115.93701171875 -3.8321533203125
16.931884765625 58.759765625 -12.1663818359375
46.063232421875 -76.0849609375 -19.968017578125
-10.0146484375 -10.12158203125 -13.57470703125
-21.505859375 -33.8892822265625 6.632568359375
-76.4443359375 -41.8162841796875 4.962158203125
36.904541015625 -94.0977783203125 -33.160888671875
26.9189453125 -6.85107421875 -13.5960693359375
-88.509521484375 18.529541015625 -19.432861328125
-66.265869140625 -95.72705078125 -14.3594970703125
-46.1171875 -134.640625 -3.7069091796875
-57.32373046875 -150.4658203125 -0.1697998046875
-46.97607421875 -74.8707275390625 -24.873779296875
-22.18701171875 -41.1309814453125 -18.327880859375
2.64208984375 2.2265625 -13.5047607421875
42.1015625 -100.7781982421875 -14.154541015625
30.854736328125 41.4482421875 -13.7926025390625
-68.066650390625 9.3033447265625 -19.6990966796875
-98.93603515625 37.6451416015625 -20.45068359375
-29.057861328125 -35.332275390625 -19.751708984375
-48.216064453125 -70.3648681640625 -14.391357421875
39.512451171875 -22.9967041015625 -18.5640869140625
-18.829833984375 -52.027587890625 -25.1483154296875
-78.064208984375 -63.93603515625 -3.5865478515625
-86.92822265625 4.471923828125 23.7244873046875
45.81689453125 48.1788330078125 -14.5928955078125
44.750732421875 36.374755859375 -14.1290283203125
87.309326171875 -106.3275146484375 -25.7257080078125
-2.619384765625 -6.17138671875 -13.3387451171875
-95.400634765625 -36.290771484375 13.72802734375
2.802490234375 -37.06298828125 -19.4635009765625
12.847412109375 -21.6639404296875 -17.1181640625
3.8212890625 -19.2574462890625 -15.2679443359375
-54.97607421875 -43.99853515625 -19.83544921875
77.73095703125 -98.39208984375 -29.2685546875
-42.356201171875 -49.053955078125 -19.3287353515625
-14.3984375 25.016357421875 -14.213623046875
50.25146484375 -20.7257080078125 -18.321533203125
-59.98828125 -69.0460205078125 -10.692626953125
18.089111328125 -102.603271484375 -19.243408203125
47.09716796875 -121.032958984375 -10.5921630859375
10.863037109375 -86.6505126953125 -19.6993408203125
-62.344482421875 -88.4033203125 -27.301025390625
-22.6484375 -40.450439453125 -27.7608642578125
-60.03466796875 -142.41943359375 -3.048583984375
-54.649658203125 -31.2149658203125 -19.921142578125
-81.107666015625 -80.4151611328125 -3.884033203125
-94.879150390625 -33.2958984375 20.965576171875
-78.147705078125 -73.9022216796875 -4.391845703125
-54.34375 -114.8892822265625 -4.2664794921875
-50.285400390625 -147.1680908203125 -1.3067626953125
85.419189453125 -97.5797119140625 -28.889404296875
19.869140625 72.3665771484375 -6.413330078125
8.041015625 49.8031005859375 -14.1041259765625
46.4130859375 26.94677734375 -13.87255859375
37.176025390625 28.1571044921875 -14.123779296875
-72.5927734375 -14.279541015625 -18.37646484375
-36.64501953125 -146.0010986328125 -1.8245849609375
84.7265625 -67.94287109375 -29.7772216796875
-43.027587890625 -142.2802734375 -4.2713623046875
-10.549072265625 72.50244140625 2.46337890625
-54.122802734375 -88.1064453125 -27.85498046875
-23.431884765625 44.9532470703125 -14.283203125
-59.018310546875 -75.9500732421875 -28.501953125
-17.78759765625 50.1922607421875 -14.0528564453125
2.909912109375 -102.328125 -3.6353759765625
-19.851318359375 -90.1611328125 -3.462890625
-14.689697265625 -35.353515625 -23.5628662109375
12.803466796875 72.4752197265625 -1.2733154296875
-73.435302734375 -97.3514404296875 -5.44775390625
1.99365234375 -24.10791015625 -18.1353759765625
9.1201171875 -108.3577880859375 -3.7703857421875
17.79248046875 30.0845947265625 -13.814453125
19.448974609375 -75.7047119140625 -19.03955078125
54.437255859375 22.6317138671875 -14.4879150390625
-21.8515625 -19.307861328125 19.509033203125
-65.982177734375 -70.54345703125 -4.765625
-92.73486328125 -27.62255859375 17.8294677734375
-22.943359375 -43.297607421875 -4.3880615234375
5.8310546875 -87.32421875 -20.0269775390625
25.25830078125 -13.3001708984375 -13.477783203125
-4.418701171875 -31.1549072265625 -19.51806640625
-52.567626953125 -141.9512939453125 -3.0223388671875
35.85400390625 -36.6162109375 -19.44677734375
-36.451171875 -76.6534423828125 -14.255126953125
36.378173828125 -42.1461181640625 -19.3636474609375
-7.884033203125 61.137451171875 -8.6597900390625
-80.049072265625 36.6634521484375 -17.1932373046875
37.6728515625 -73.2266845703125 -19.5902099609375
-9.163330078125 69.9605712890625 -0.4693603515625
42.095458984375 66.3409423828125 -7.5133056640625
-38.8662109375 -82.0234375 -18.55712890625
-25.981689453125 -52.1138916015625 -23.080810546875
-68.59619140625 6.194580078125 24.8441162109375
-4.19921875 15.427978515625 -13.972900390625
61.0400390625 -66.191162109375 -20.297607421875
-92.154296875 -37.2611083984375 7.078125
42.9716796875 -92.2457275390625 -27.79541015625
-58.1416015625 -116.424560546875 -4.9595947265625
-67.427978515625 -81.79638671875 -14.6009521484375
-12.89208984375 -102.1590576171875 -3.7855224609375
2.818115234375 -11.49072265625 -13.162841796875
-6.595703125 -101.7110595703125 -4.050537109375
32.224609375 54.5897216796875 -13.75244140625
13.920166015625 -14.8720703125 -14.087890625
-69.813720703125 -83.5836181640625 -8.799072265625
-22.115234375 20.324462890625 -13.5015869140625
-3.28662109375 -114.046142578125 -4.066162109375
38.055908203125 -18.344970703125 -15.371337890625
-93.8203125 -24.7593994140625 22.00439453125
44.7353515625 -64.5438232421875 -19.6715087890625
-87.98974609375 39.4345703125 -20.1495361328125
3.8212890625 -4.2847900390625 -13.3172607421875
-43.945068359375 -28.536865234375 -19.9600830078125
35.969482421875 -2.5623779296875 -13.7528076171875
90.382080078125 -99.96630859375 -23.278564453125
-32.308349609375 -62.136962890625 -20.1466064453125
24.89892578125 33.8360595703125 -13.8758544921875
87.436279296875 -90.8006591796875 -30.6414794921875
92.860107421875 -99.4779052734375 -37.4058837890625
-63.19482421875 -93.25390625 -15.06884765625
-30.80322265625 -39.452392578125 -19.8162841796875
-0.42529296875 -132.4813232421875 -4.101318359375
-0.821044921875 -118.25634765625 -3.938720703125
25.5 -81.7479248046875 -20.2501220703125
59.763427734375 -94.4151611328125 -38.227783203125
-85.379638671875 -16.606689453125 14.7452392578125
45.259033203125 -25.3599853515625 -18.1375732421875
25.05126953125 56.887939453125 -13.2205810546875
-68.831298828125 -92.10888671875 -8.9210205078125
-69.422607421875 13.0526123046875 -19.8021240234375
-63.47607421875 -86.5203857421875 -18.2572021484375
15.892333984375 75.7899169921875 -0.7955322265625
25.234130859375 -65.559814453125 -19.509033203125
8.32568359375 -111.930419921875 -19.9879150390625
91.747314453125 -68.302978515625 -28.94873046875
25.793212890625 9.4749755859375 -14.096923828125
-76.720458984375 31.290283203125 -20.6317138671875
1.425048828125 -41.279052734375 -19.7943115234375
-57.298095703125 -68.3974609375 -14.034912109375
10.409423828125 29.6951904296875 -14.072021484375
-4.41845703125 -107.73681640625 -3.771484375
19.23388671875 18.8089599609375 -13.8192138671875
-1.625 60.502197265625 -9.943603515625
-73.18408203125 -20.1307373046875 14.2310791015625
-81.571044921875 -16.0484619140625 18.733642578125
94.28173828125 -79.749755859375 -33.8529052734375
-62.09765625 -78.0174560546875 -15.653076171875
-67.76318359375 -25.71240234375 12.9649658203125
30.724609375 -21.8167724609375 -16.8505859375
0.1748046875 26.247314453125 -13.91162109375
-21.10498046875 -136.9725341796875 -3.8011474609375
6.298583984375 -95.292724609375 -3.5706787109375
4.3662109375 33.578857421875 -13.9864501953125
-18.30419921875 -4.715576171875 -13.4781494140625
-55.05908203125 -76.460205078125 -20.235107421875
36.696044921875 -88.3719482421875 -19.567626953125
55.24365234375 32.5838623046875 -14.45166015625
-16.877197265625 71.11279296875 -0.9366455078125
48.533447265625 34.9537353515625 -14.1527099609375
-94.923828125 -40.8798828125 9.3157958984375
-41.229248046875 -86.5203857421875 -27.42578125
-63.744873046875 -26.4974365234375 12.7979736328125
-74.807861328125 -6.55078125 -17.3389892578125
0.79296875 55.8990478515625 -13.3228759765625
45.4716796875 -94.3253173828125 -18.8829345703125
-55.32421875 -132.8377685546875 -4.2642822265625
-1.447509765625 33.8250732421875 -13.793701171875
-22.3994140625 -36.47119140625 -19.8262939453125
-4.141357421875 -129.260009765625 -3.6444091796875
-77.69775390625 -82.6558837890625 -3.6822509765625
45.41064453125 -91.93115234375 -37.756591796875
0.955078125 -48.6846923828125 -19.637451171875
38.5107421875 38.385009765625 -11.811767578125
-12.62451171875 -29.2486572265625 -19.5958251953125
-94.5810546875 -44.7396240234375 16.073974609375
13.76953125 54.0408935546875 -13.5477294921875
15.213623046875 -74.1805419921875 -18.07763671875
-76.420166015625 -104.8173828125 -4.21044921875
-15.575439453125 -137.09423828125 -3.7340087890625
19.2705078125 -93.3348388671875 -20.3900146484375
87.6181640625 -64.4073486328125 -30.6558837890625
45.30419921875 -85.93798828125 -37.242919921875
-50.392333984375 -45.0718994140625 -19.5128173828125
26.657958984375 5.3431396484375 -11.5242919921875
85.65185546875 -84.7286376953125 -34.8353271484375
-34.517333984375 -141.9730224609375 -3.19189453125
29.062255859375 -0.963623046875 -13.2818603515625
-83.8212890625 -46.384765625 1.529541015625
-47.537353515625 -92.27001953125 -24.981689453125
-28.38525390625 -146.9749755859375 -1.3404541015625
38.027587890625 -58.10107421875 -22.1153564453125
13.68994140625 -89.5203857421875 -20.4417724609375
-57.16455078125 -74.134033203125 -15.1424560546875
-45.117431640625 -22.434814453125 -19.970703125
-34.284912109375 -46.301025390625 -20.3587646484375
56.517333984375 -69.841064453125 -19.7728271484375
-4.75146484375 54.6429443359375 -13.262939453125
51.783203125 -68.128173828125 -19.67041015625
-80.015625 16.0059814453125 -19.5845947265625
43.568115234375 -68.662109375 -19.092529296875
-74.277587890625 0.785888671875 -18.5064697265625
-62.92529296875 -82.96875 -26.0947265625
-55.81103515625 1.1629638671875 -19.509765625
3.98876953125 -126.5291748046875 -3.876708984375
-10.338134765625 -126.4649658203125 -4.0673828125
-91.37060546875 -46.1370849609375 1.504638671875
-55.361083984375 -75.1046142578125 -27.86962890625
12.589599609375 -125.643798828125 -5.371826171875
-17.816162109375 78.0972900390625 14.4273681640625
-1.7099609375 76.633544921875 6.1458740234375
40.43994140625 17.2706298828125 -17.8302001953125
-56.059326171875 -47.4224853515625 -16.9603271484375
16.47900390625 -27.452880859375 -19.2845458984375
-0.88818359375 -10.69921875 -13.40283203125
-83.359619140625 -36.2392578125 8.2891845703125
36.873779296875 -28.114013671875 -19.205322265625
-18.522705078125 34.43359375 -13.8319091796875
37.386474609375 -106.645263671875 -33.1907958984375
-46.068603515625 -39.0982666015625 -20.0010986328125
-73.031005859375 19.852783203125 -20.6531982421875
45.35546875 -57.13525390625 -19.476318359375
46.6923828125 -113.567626953125 -9.6053466796875
-101.294189453125 39.080078125 -16.887939453125
-17.659912109375 -59.0584716796875 -22.267578125
29.64697265625 -38.334228515625 -19.3172607421875
40.348388671875 54.3062744140625 -14.1644287109375
11.191162109375 15.580322265625 -14.0042724609375
-13.388671875 -131.9991455078125 -4.0946044921875
-48.047607421875 -60.35791015625 -14.3944091796875
-11.212158203125 14.451416015625 -14.108154296875
-103.396484375 35.27783203125 -18.7772216796875
46.76416015625 43.13427734375 -14.1553955078125
49.897705078125 16.0494384765625 -18.6900634765625
23.09912109375 43.0152587890625 -13.9583740234375
1.436767578125 -105.919189453125 -3.7623291015625
12.860595703125 -49.0633544921875 -19.4832763671875
27.974609375 -47.9893798828125 -24.89013671875
-68.755615234375 -44.14990234375 3.3990478515625
22.971435546875 22.9521484375 -13.864013671875
-61.32470703125 -85.4361572265625 -15.3919677734375
48.78955078125 17.675048828125 -14.65283203125
-38.900146484375 -84.0513916015625 -15.4281005859375
-44.946533203125 -127.327880859375 -5.154541015625
-11.313720703125 0.0018310546875 -13.4512939453125
-69.215087890625 -31.4901123046875 10.60498046875
64.772705078125 45.7158203125 -24.183349609375
37.70263671875 -101.712158203125 -38.5145263671875
-29.526611328125 -47.829345703125 -25.3221435546875
-22.124755859375 -37.826416015625 -0.0015869140625
-46.545166015625 -138.247314453125 -6.1004638671875
-74.51318359375 -79.88623046875 -4.170654296875
-82.011962890625 31.3511962890625 -17.1810302734375
7.173583984375 -72.493408203125 -19.3638916015625
-90.10107421875 31.2861328125 -19.9571533203125
-69.877685546875 26.8043212890625 -20.8001708984375
-70.287353515625 -50.501220703125 -0.508056640625
-61.184326171875 -42.34521484375 3.9278564453125
30.1962890625 -84.687255859375 -19.760986328125
-33.7080078125 -132.16064453125 -3.2982177734375
9.53076171875 -27.9921875 -19.357666015625
14.516845703125 -108.3670654296875 -20.76416015625
87.10498046875 -71.53271484375 -31.575927734375
-67.41357421875 -22.541259765625 -20.233154296875
-18.185546875 -143.4119873046875 -2.5369873046875
85.006591796875 -101.116455078125 -30.7808837890625
-54.768310546875 -123.275146484375 -4.871337890625
-67.946044921875 -37.8250732421875 6.3355712890625
-27.096923828125 -39.0648193359375 -4.162353515625
-0.728271484375 22.4849853515625 -13.755859375
-73.67578125 14.88525390625 -19.5072021484375
9.159423828125 71.4390869140625 0.3846435546875
19.862548828125 0.5233154296875 -13.5419921875
23.62548828125 -57.4468994140625 -20.375244140625
-16.956298828125 18.37255859375 -13.9412841796875
82.015380859375 -106.6954345703125 -34.9869384765625
-9.235107421875 -25.34375 15.8203125
12.23876953125 -109.490966796875 -5.3458251953125
-4.18359375 55.9091796875 0.576904296875
-58.7158203125 -50.5771484375 -1.12646484375
-8.17626953125 63.2908935546875 -5.708251953125
28.762451171875 -10.413818359375 -13.571533203125
-52.587158203125 -94.4815673828125 -27.3802490234375
-77.241455078125 -59.72314453125 -2.8798828125
-10.76708984375 -36.6893310546875 -19.93994140625
-60.623291015625 -74.76220703125 -14.1297607421875
-80.153564453125 19.854248046875 -20.0394287109375
14.406982421875 -99.2955322265625 -20.678466796875
-20.31005859375 -45.4010009765625 -20.0167236328125
34.677978515625 -22.779541015625 -17.2828369140625
-94.852294921875 -34.991455078125 17.393798828125
-58.11328125 -90.1707763671875 -28.9853515625
22.52490234375 -50.3172607421875 -22.802001953125
-53.6337890625 -137.589599609375 -3.997802734375
8.79638671875 -53.4091796875 -19.529052734375
-8.68798828125 76.5655517578125 6.4173583984375
9.649169921875 8.8602294921875 -13.8526611328125
1.934814453125 73.0302734375 2.0128173828125
-11.63330078125 -108.6365966796875 -3.88525390625
2.9853515625 -28.40673828125 -19.0426025390625
-5.97021484375 50.46044921875 -11.82666015625
-65.283935546875 19.1766357421875 -20.671142578125
-19.326416015625 -56.533203125 -25.76708984375
32.714111328125 -76.811279296875 -19.5771484375
-74.985595703125 5.156982421875 20.7388916015625
-85.128173828125 -15.6414794921875 22.7908935546875
36.9580078125 17.810302734375 -23.0594482421875
4.50146484375 -109.305908203125 -20.397705078125
18.467041015625 -107.0662841796875 -19.6123046875
87.771240234375 -91.437255859375 -35.06591796875
-22.4169921875 -29.8050537109375 9.410888671875
62.64013671875 -92.2119140625 -38.1448974609375
-17.076904296875 -18.9876708984375 -15.4862060546875
14.528564453125 0.8199462890625 -13.689697265625
-56.786865234375 -18.1265869140625 -19.160888671875
-83.361083984375 -19.7335205078125 13.9757080078125
-14.48583984375 -120.1434326171875 -3.8282470703125
21.81494140625 16.281982421875 -13.9674072265625
29.373291015625 74.832763671875 -15.316162109375
-14.430908203125 -39.0635986328125 -18.0738525390625
-17.742431640625 -130.0845947265625 -3.9739990234375
51.884033203125 20.0736083984375 -14.615478515625
-9.1904296875 -22.1483154296875 17.65185546875
-68.410400390625 22.56201171875 -20.59765625
-18.89013671875 14.0186767578125 -13.7841796875
25.311279296875 60.230712890625 -11.7001953125
86.565185546875 -90.5657958984375 -26.1412353515625
-15.56103515625 73.8839111328125 3.9566650390625
-0.65283203125 18.390625 -13.7708740234375
-34.104248046875 -48.6326904296875 -26.9581298828125
33.68798828125 78.3531494140625 -16.886962890625
-58.508544921875 -94.03857421875 -26.5037841796875
40.39013671875 -34.4820556640625 -20.6336669921875
-23.599853515625 39.618896484375 -14.1064453125
38.27490234375 14.70361328125 -13.96435546875
21.446533203125 10.0281982421875 -13.7322998046875
-12.642822265625 -51.544189453125 -27.03759765625
-92.85302734375 38.320556640625 -20.07080078125
-42.289306640625 -59.627197265625 -19.2528076171875
