-57.317138671875 -16.8487548828125 13.6865234375
8.020263671875 10.2503662109375 -14.152587890625
-2.32421875 -17.45166015625 18.8480224609375
-85.4130859375 15.736572265625 12.1611328125
-15.330078125 15.2330322265625 17.01318359375
-5.95166015625 7.4127197265625 17.3626708984375
-9.79638671875 53.343505859375 5.47607421875
-53.24609375 -32.703857421875 12.8326416015625
9.25 -34.946044921875 13.3177490234375
25.435302734375 -42.912841796875 13.7076416015625
83.904296875 -76.69775390625 13.854248046875
4.666259765625 51.03369140625 -0.4708251953125
84.630126953125 -54.9608154296875 0.8701171875
-5.814208984375 50.0748291015625 21.2537841796875
6.894775390625 4.399169921875 -12.7320556640625
18.04296875 -40.6163330078125 13.516845703125
-5.177490234375 37.4766845703125 -3.67236328125
-76.215576171875 22.7469482421875 11.1761474609375
-79.90771484375 3.6163330078125 13.1651611328125
-31.398681640625 -65.37158203125 7.4716796875
-67.93701171875 -17.62646484375 14.5380859375
14.115966796875 -11.963134765625 -10.9132080078125
82.5048828125 -84.145751953125 6.9283447265625
-33.255615234375 -45.530517578125 13.6534423828125
45.552490234375 -81.8287353515625 -8.0439453125
28.012451171875 -22.873046875 -9.8111572265625
82.5234375 -100.44482421875 -1.6092529296875
35.910400390625 -67.5970458984375 -4.845703125
-40.202880859375 -63.5794677734375 14.218505859375
-29.06591796875 -39.7542724609375 13.4146728515625
23.840576171875 7.894775390625 -15.125732421875
94.577392578125 -86.906005859375 1.805908203125
6.4619140625 27.363037109375 -8.479248046875
29.832275390625 16.022216796875 -16.157958984375
-16.874267578125 68.4444580078125 16.0234375
1.50341796875 62.776611328125 7.539306640625
-56.652099609375 -104.2130126953125 8.863525390625
-44.467529296875 -59.9522705078125 13.7550048828125
62.307861328125 34.882080078125 16.6109619140625
-70.068115234375 -28.4913330078125 13.84375
-22.103515625 -64.6444091796875 11.6951904296875
26.91259765625 -39.73876953125 -11.321533203125
45.975341796875 34.2459716796875 16.1964111328125
-73.641357421875 -14.63232421875 14.7733154296875
8.1806640625 -20.9967041015625 19.12158203125
-6.3017578125 26.063232421875 16.603271484375
40.8671875 -100.417724609375 4.038818359375
-57.673095703125 -83.85986328125 9.3768310546875
-8.2978515625 62.7437744140625 7.8543701171875
34.031982421875 -57.0206298828125 -9.6734619140625
51.06640625 -72.8226318359375 -7.82958984375
-11.150390625 76.2158203125 4.501220703125
-7.876953125 45.305908203125 3.1336669921875
-52.866943359375 -26.728515625 13.0399169921875
50.219970703125 -87.1959228515625 -4.647705078125
-1.69189453125 67.69482421875 10.3671875
3.620361328125 4.5159912109375 17.58837890625
38.002197265625 -113.6973876953125 -1.2342529296875
-94.533203125 17.90625 12.0029296875
46.04638671875 16.553466796875 16.97705078125
24.510498046875 -71.831787109375 13.240478515625
85.4951171875 -73.04931640625 2.7501220703125
77.557861328125 -23.7816162109375 2.5009765625
42.246826171875 -109.9910888671875 -9.032958984375
-1.068603515625 -38.4515380859375 13.250244140625
43.314208984375 -46.5784912109375 -8.1593017578125
-57.354736328125 -95.6533203125 7.7022705078125
5.3837890625 -69.8448486328125 14.444091796875
83.75048828125 -110.675537109375 10.1099853515625
58.681884765625 -101.0147705078125 -7.520263671875
6.095947265625 20.22705078125 16.19775390625
-10.039794921875 -30.369140625 15.2958984375
15.323486328125 -18.765625 19.2587890625
81.379150390625 -69.51171875 9.22412109375
45.75634765625 -64.7518310546875 -4.862060546875
6.213134765625 17.7322998046875 -13.2021484375
-10.630126953125 -17.3465576171875 19.2926025390625
3.23681640625 13.831787109375 -11.189697265625
-83.744140625 20.089111328125 15.2840576171875
-56.74560546875 -0.998046875 12.0965576171875
6.23828125 -9.2149658203125 18.3121337890625
37.3046875 -75.12939453125 14.2890625
-11.35302734375 -54.8701171875 1.6273193359375
-67.9267578125 23.357421875 9.90087890625
-16.605224609375 -28.9747314453125 16.01123046875
-47.543212890625 -99.50244140625 4.80224609375
77.905517578125 -62.7557373046875 7.5850830078125
-59.157958984375 -51.4039306640625 17.5096435546875
48.561279296875 27.759521484375 16.64697265625
47.314208984375 -99.4398193359375 -30.329345703125
-35.092041015625 -57.6796875 10.277099609375
-101.198486328125 22.6806640625 11.93603515625
77.487548828125 -14.4927978515625 2.397705078125
-1.9306640625 -9.4708251953125 18.2933349609375
52.91064453125 -100.3077392578125 -12.8046875
85.51806640625 -102.947021484375 7.8345947265625
4.396728515625 38.837890625 -4.933349609375
66.924560546875 17.8525390625 17.6796875
51.435302734375 -102.1710205078125 -5.9542236328125
32.12744140625 53.595703125 18.7835693359375
-1.869873046875 -23.35791015625 18.7098388671875
-61.493896484375 -40.8997802734375 12.7994384765625
-5.36962890625 -47.236328125 13.733154296875
16.1015625 13.5006103515625 -11.872314453125
-22.529052734375 7.0008544921875 17.4764404296875
24.856201171875 51.303466796875 16.947021484375
70.034912109375 22.551513671875 -2.4888916015625
-73.74853515625 -0.139892578125 12.4871826171875
25.448974609375 -22.5714111328125 18.623779296875
39.08349609375 -76.30908203125 -5.476806640625
79.638427734375 1.9931640625 1.7117919921875
-39.4375 -53.7342529296875 13.2049560546875
1.4609375 23.6634521484375 -11.10693359375
-27.67724609375 -72.9251708984375 13.5782470703125
-2.736572265625 32.63720703125 -7.45947265625
45.41796875 -100.71240234375 -5.395263671875
72.126220703125 13.095947265625 6.1444091796875
-65.65087890625 0.645263671875 12.5472412109375
61.21923828125 18.330810546875 16.740234375
36.174072265625 -36.221923828125 -8.91162109375
83.438720703125 -79.050048828125 9.5377197265625
7.50146484375 -53.1341552734375 13.5914306640625
20.8984375 54.062255859375 19.5267333984375
-17.23876953125 -64.24755859375 10.932861328125
16.93505859375 23.9130859375 -12.7786865234375
-53.02392578125 -98.10546875 6.2027587890625
-59.8828125 -89.2069091796875 12.5035400390625
39.846435546875 -22.809326171875 -16.283203125
69.230224609375 24.167724609375 17.54931640625
25.369873046875 -35.1490478515625 -12.23779296875
27.698486328125 -75.4083251953125 13.6446533203125
13.5234375 26.610107421875 -10.195556640625
-55.36572265625 -12.2957763671875 13.9178466796875
73.877197265625 8.5458984375 3.9674072265625
72.58935546875 11.5908203125 18.051025390625
74.71044921875 -15.5345458984375 8.788818359375
-53.084228515625 -82.6014404296875 13.478271484375
-43.505126953125 -93.2406005859375 9.8255615234375
76.158447265625 -112.0137939453125 -5.605712890625
88.453125 -98.06982421875 4.22998046875
47.978271484375 -91.978271484375 -6.5384521484375
-48.649169921875 -18.34228515625 13.844482421875
26.448974609375 38.9451904296875 16.2318115234375
-9.638916015625 35.259765625 16.7696533203125
38.622314453125 -107.26171875 -0.218505859375
-42.281494140625 -97.5576171875 6.133056640625
80.460693359375 -109.683349609375 4.7845458984375
-42.35302734375 -87.8173828125 8.901611328125
77.50244140625 -7.3306884765625 1.9852294921875
-55.618408203125 -87.755126953125 6.9510498046875
-16.536865234375 -7.9954833984375 18.242919921875
-17.527587890625 -13.8367919921875 18.3873291015625
-46.21484375 -49.5345458984375 13.562744140625
65.028564453125 30.443359375 16.802978515625
45.29833984375 -98.7681884765625 -0.4373779296875
-13.522216796875 67.5318603515625 8.72509765625
15.791259765625 -70.2481689453125 13.62890625
48.2373046875 -104.9307861328125 -9.1788330078125
-43.42236328125 -30.7716064453125 12.4808349609375
90.1083984375 -104.4609375 0.5633544921875
36.898681640625 -11.517822265625 -15.4910888671875
-52.057373046875 -39.4609375 13.315673828125
47.794189453125 -99.208251953125 7.7215576171875
0.640625 52.2598876953125 1.5572509765625
-22.853759765625 -43.596435546875 10.7869873046875
8.990966796875 -46.49853515625 13.5089111328125
53.87890625 37.01416015625 16.01123046875
20.297119140625 -10.7440185546875 18.296875
21.424072265625 -85.112060546875 14.04443359375
-66.293212890625 -7.4442138671875 13.2574462890625
25.58984375 -47.557861328125 13.8790283203125
85.4619140625 -93.571533203125 3.408203125
35.26904296875 49.2498779296875 16.13916015625
76.6875 -39.233642578125 7.5394287109375
-55.600830078125 -49.7310791015625 12.7376708984375
12.43115234375 10.6015625 -12.7994384765625
94.870361328125 -84.4010009765625 -2.072998046875
88.3447265625 -105.748291015625 5.376953125
1.788818359375 -51.685791015625 13.729736328125
89.107666015625 -79.4871826171875 1.8050537109375
20.638916015625 -32.4290771484375 14.3438720703125
-13.599853515625 -22.234619140625 19.091552734375
39.13427734375 30.0494384765625 18.4715576171875
-6.287841796875 39.2601318359375 21.8961181640625
-6.29248046875 19.5067138671875 17.095458984375
73.006591796875 21.483154296875 6.8743896484375
36.43017578125 43.80810546875 15.919677734375
6.05126953125 -16.91259765625 19.082275390625
11.837646484375 35.917236328125 -8.793212890625
88.705078125 -99.7960205078125 11.0322265625
33.168701171875 -54.09619140625 13.4803466796875
-35.608642578125 -61.843505859375 7.8973388671875
-17.12890625 38.798583984375 16.0926513671875
-23.014404296875 20.5660400390625 16.2977294921875
-88.49609375 31.005615234375 11.2462158203125
75.906494140625 -0.619140625 2.34423828125
42.048095703125 16.71630859375 -3.149658203125
-42.925537109375 -89.9278564453125 4.4854736328125
-80.70703125 14.01904296875 11.67333984375
22.787109375 47.4351806640625 15.8450927734375
0.384033203125 42.6756591796875 -4.2138671875
84.984375 -62.4791259765625 2.341064453125
-10.166259765625 28.45703125 16.59228515625
-57.969482421875 -21.300048828125 13.8900146484375
34.654052734375 38.1414794921875 16.0797119140625
-59.543212890625 -7.4388427734375 13.203369140625
13.337158203125 -78.4610595703125 14.497802734375
46.229248046875 10.7060546875 15.5699462890625
-15.36376953125 74.419677734375 9.1173095703125
-0.970458984375 -48.053955078125 13.55712890625
51.748046875 20.0755615234375 16.8939208984375
43.24609375 20.0400390625 17.00048828125
25.537109375 -82.53466796875 14.294677734375
-4.82421875 51.431396484375 17.1143798828125
-28.170654296875 -57.0765380859375 6.1959228515625
16.51025390625 32.2403564453125 -9.5194091796875
14.00341796875 -29.3177490234375 15.65625
-20.00927734375 27.9710693359375 16.375
78.034423828125 4.54638671875 19.84130859375
18.223876953125 -5.3214111328125 -14.4559326171875
86.76416015625 -88.7794189453125 0.9398193359375
59.0546875 -99.5750732421875 -2.1298828125
-3.240966796875 50.5089111328125 -1.9671630859375
-28.90673828125 -51.2042236328125 13.265869140625
8.501708984375 -63.627685546875 14.1241455078125
-86.36181640625 7.90625 13.9188232421875
42.885009765625 -32.0906982421875 -14.800537109375
66.380859375 -99.1580810546875 -1.7955322265625
-66.230224609375 12.03955078125 11.0179443359375
-32.75390625 -41.853515625 16.6387939453125
3.13427734375 -60.586181640625 14.2572021484375
-19.731689453125 -45.637451171875 8.43017578125
24.647216796875 -56.19775390625 12.2318115234375
-43.4453125 -69.8402099609375 16.5008544921875
48.8359375 -67.5684814453125 -7.9482421875
13.548828125 -56.887939453125 14.136474609375
-8.643310546875 -9.4815673828125 18.640869140625
-57.911865234375 -99.9012451171875 6.7071533203125
95.234130859375 -101.3489990234375 -1.1329345703125
-19.552734375 -75.052734375 13.1771240234375
66.893798828125 -100.0999755859375 -6.84326171875
-37.49267578125 -46.6845703125 13.544677734375
56.5556640625 33.048583984375 16.313232421875
10.244140625 1.80029296875 -14.8271484375
-43.770263671875 -45.4039306640625 12.968505859375
-71.520751953125 -9.0147705078125 13.9285888671875
-44.60400390625 -83.5355224609375 14.0362548828125
-48.636474609375 -93.1197509765625 8.779541015625
67.44287109375 12.9580078125 17.9404296875
27.426025390625 45.3994140625 15.8935546875
32.23681640625 46.14111328125 15.91259765625
-76.14892578125 -5.1878662109375 13.575927734375
-6.1005859375 -38.8199462890625 13.1458740234375
8.234375 41.7625732421875 -6.034423828125
-2.091796875 -31.461669921875 14.8472900390625
-18.1494140625 -59.6195068359375 13.0093994140625
-53.422607421875 -88.87548828125 10.5184326171875
41.2265625 -83.536376953125 -1.00830078125
-83.01025390625 29.183837890625 12.02734375
46.572021484375 -52.83740234375 -10.28759765625
85.5205078125 -83.3262939453125 2.7615966796875
3.52392578125 -26.029052734375 17.5858154296875
40.661865234375 52.167236328125 17.1055908203125
-7.05859375 43.3367919921875 16.5137939453125
-2.566650390625 4.2784423828125 17.8662109375
39.611572265625 -111.527587890625 -6.0086669921875
-63.82666015625 -28.2733154296875 12.970703125
2.433837890625 -43.4884033203125 13.4852294921875
28.70556640625 -44.3636474609375 -11.4072265625
3.576416015625 46.3167724609375 0.5286865234375
20.243408203125 -89.52001953125 13.469482421875
48.970703125 -115.15869140625 -13.5689697265625
62.326904296875 -100.66162109375 -9.687744140625
-62.09716796875 -91.9093017578125 10.07470703125
14.985107421875 18.8914794921875 -8.6552734375
-51.848388671875 -54.2113037109375 14.04345703125
-19.51318359375 -40.6708984375 14.56494140625
32.4814453125 -16.5771484375 -11.94140625
-10.250244140625 49.99853515625 2.7393798828125
-63.725830078125 -14.4869384765625 13.7802734375
-48.1689453125 -82.3043212890625 5.9254150390625
71.19970703125 20.4256591796875 17.65380859375
-12.30908203125 -59.784912109375 5.2489013671875
68.9833984375 33.8072509765625 17.2733154296875
75.0068359375 -25.2078857421875 6.5909423828125
73.9755859375 -107.041259765625 4.7301025390625
44.6962890625 -102.125244140625 4.537109375
-21.90576171875 -60.9871826171875 14.353759765625
91.89990234375 -107.5631103515625 -1.6539306640625
21.2265625 6.235107421875 -12.270263671875
42.185546875 -77.214111328125 13.9515380859375
39.33056640625 16.1771240234375 0.4881591796875
-24.232421875 -48.1513671875 11.9842529296875
-10.246337890625 16.20849609375 16.9879150390625
32.649169921875 -53.0872802734375 -11.1468505859375
52.87158203125 11.3067626953125 12.84423828125
-43.2080078125 -55.5023193359375 13.6536865234375
-7.987548828125 54.65087890625 0.126953125
7.211181640625 32.6798095703125 -9.1702880859375
-53.17529296875 -16.3548583984375 13.9453125
-31.22509765625 -68.57373046875 10.150634765625
94.86474609375 -78.0994873046875 1.2073974609375
85.494384765625 -76.745849609375 4.6910400390625
-36.133056640625 -62.68017578125 14.0240478515625
-4.22998046875 45.6875 25.12060546875
34.107666015625 -14.596435546875 -15.3536376953125
82.572998046875 -71.6671142578125 5.362060546875
79.108154296875 -54.92041015625 6.3607177734375
0.9208984375 59.12060546875 4.6038818359375
28.817138671875 -49.20751953125 -7.6240234375
-69.627197265625 7.6094970703125 11.974853515625
-1.95751953125 -5.2376708984375 18.11181640625
-4.578857421875 -2.019287109375 17.922119140625
7.4365234375 -86.0020751953125 14.215087890625
53.1318359375 -83.42431640625 -6.878662109375
-13.190673828125 -44.45458984375 12.5806884765625
79.0810546875 -39.2747802734375 4.1744384765625
-93.336181640625 28.0137939453125 11.244140625
92.264404296875 -82.1451416015625 1.7825927734375
52.309814453125 -108.72216796875 -13.6114501953125
-7.24609375 -25.3125 17.932373046875
92.49658203125 -94.8179931640625 -0.5335693359375
-62.563232421875 -35.197998046875 12.996337890625
-99.708984375 26.3619384765625 10.897705078125
74.4404296875 -6.1600341796875 8.4400634765625
-7.47021484375 53.2235107421875 23.2987060546875
42.18896484375 -100.955078125 -2.8245849609375
32.690185546875 -74.383056640625 14.673583984375
76.93505859375 -46.9903564453125 8.9154052734375
28.302490234375 -3.7325439453125 -14.7657470703125
-33.96630859375 -56.0091552734375 6.421875
41.24365234375 -83.385986328125 14.0118408203125
6.516357421875 -57.4097900390625 13.9154052734375
31.7822265625 -10.4073486328125 -14.6483154296875
48.4892578125 -83.6434326171875 -5.8802490234375
-29.096923828125 -62.0762939453125 5.233154296875
-6.053466796875 62.62939453125 4.0308837890625
21.1337890625 -62.130615234375 14.1121826171875
62.78173828125 -101.369140625 -0.542724609375
54.7578125 -96.4498291015625 -3.4373779296875
20.803466796875 -73.1126708984375 14.269775390625
-6.959228515625 67.373046875 8.2669677734375
32.36328125 -57.4730224609375 11.396728515625
-12.577392578125 -51.9495849609375 7.8165283203125
-41.35546875 -83.2213134765625 9.8428955078125
9.6708984375 -11.9302978515625 18.7626953125
45.163330078125 40.9456787109375 15.8594970703125
19.33349609375 -77.97314453125 14.659912109375
89.48486328125 -71.124755859375 2.5269775390625
11.281982421875 -2.7955322265625 17.9619140625
6.16943359375 48.061279296875 -2.7188720703125
70.350830078125 -102.550048828125 4.4952392578125
88.303466796875 -97.0462646484375 0.196533203125
41.31640625 -105.91064453125 -7.9984130859375
-61.550537109375 -48.36572265625 16.4749755859375
25.25244140625 4.1595458984375 -14.85498046875
21.485595703125 -26.628662109375 17.4447021484375
-50.699462890625 -82.0284423828125 10.3251953125
27.296875 -55.9805908203125 9.2510986328125
-60.61181640625 -92.1248779296875 6.3739013671875
-12.97900390625 -47.0767822265625 1.908203125
-11.75244140625 -39.235107421875 13.56689453125
14.21923828125 2.0208740234375 -14.6163330078125
13.636474609375 -83.716796875 14.17236328125
8.55322265625 51.0570068359375 -1.336669921875
-61.161865234375 6.8162841796875 10.51953125
26.25634765625 -37.5677490234375 13.4334716796875
45.535400390625 -111.934326171875 -11.2540283203125
45.131591796875 -101.076416015625 12.1375732421875
-2.303955078125 31.8228759765625 16.4788818359375
20.984619140625 19.6187744140625 -15.5732421875
-89.607421875 14.8529052734375 11.968994140625
8.2353515625 57.6102294921875 2.787841796875
59.84521484375 -103.0018310546875 -3.9417724609375
74.133056640625 5.418212890625 8.51904296875
40.828125 -36.204833984375 -12.1097412109375
19.3251953125 -25.0880126953125 -10.341552734375
85.904296875 -58.7606201171875 1.3935546875
30.744873046875 37.6324462890625 15.9404296875
34.175537109375 -81.69091796875 13.9053955078125
-32.74853515625 -70.3349609375 13.593017578125
-1.09912109375 12.4366455078125 17.41650390625
-1.40869140625 40.4814453125 15.54345703125
-80.35400390625 23.5552978515625 11.1583251953125
-21.657958984375 -30.66015625 15.551513671875
-51.96142578125 -90.7344970703125 7.3807373046875
-17.142822265625 6.212158203125 17.6617431640625
-62.335693359375 -22.89453125 13.9217529296875
27.128173828125 10.251953125 -17.1160888671875
56.536376953125 -104.570556640625 -13.78125
-36.638671875 -68.3017578125 14.3134765625
86.154052734375 -107.5955810546875 10.392333984375
10.353271484375 6.955078125 17.530029296875
71.725830078125 7.9749755859375 21.50048828125
55.647705078125 18.139404296875 17.0030517578125
15.229248046875 -66.3973388671875 13.484375
30.333251953125 20.9725341796875 -2.923828125
-56.023681640625 -91.57421875 7.5924072265625
-18.03125 70.5811767578125 12.490234375
80.410400390625 -32.5706787109375 2.37109375
71.7451171875 12.3824462890625 10.514892578125
72.703369140625 -113.3707275390625 -7.3822021484375
21.37451171875 -49.809326171875 16.7635498046875
73.023193359375 18.078125 12.3116455078125
15.173095703125 -38.037109375 13.2000732421875
31.01318359375 -60.6837158203125 6.05615234375
-67.122314453125 -2.92578125 12.9869384765625
-13.926025390625 -41.95849609375 4.649169921875
-76.10400390625 3.2689208984375 12.5997314453125
-41.213623046875 -67.9705810546875 13.96533203125
76.454833984375 9.734619140625 0.1158447265625
3.017333984375 28.63037109375 16.1697998046875
10.3408203125 -25.35693359375 17.81982421875
81.484130859375 -36.5390625 2.6646728515625
-21.468994140625 10.7684326171875 17.8858642578125
50.38134765625 24.1165771484375 16.74462890625
74.717041015625 17.09521484375 -0.11474609375
6.8134765625 6.1182861328125 -6.5228271484375
42.0693359375 -120.5665283203125 -3.410400390625
-46.98388671875 -85.7301025390625 7.2313232421875
75.974609375 -34.0623779296875 7.7989501953125
-17.518798828125 71.730712890625 18.57958984375
71.310791015625 19.666259765625 23.845947265625
29.390380859375 -47.8773193359375 13.483154296875
61.362060546875 39.18017578125 16.4139404296875
73.752685546875 -1.60791015625 5.5179443359375
28.553955078125 -36.8734130859375 -13.4586181640625
-17.017333984375 70.4263916015625 7.826171875
81.03076171875 -80.086181640625 13.637451171875
-17.832763671875 -25.674560546875 17.4815673828125
99.00634765625 -93.1761474609375 -1.10107421875
-0.298828125 56.004638671875 2.765625
-98.674072265625 19.8431396484375 11.781005859375
18.3369140625 -17.9486083984375 -13.363037109375
-14.747802734375 18.98388671875 16.8643798828125
-37.354736328125 -88.4931640625 14.639404296875
-17.385498046875 -22.141845703125 19.0546875
81.706787109375 -62.8248291015625 4.2030029296875
24.811279296875 -68.0277099609375 13.439453125
75.53955078125 -54.8154296875 8.619384765625
78.09814453125 -50.2088623046875 6.8834228515625
76.743896484375 -42.674560546875 12.1514892578125
-19.803955078125 18.4862060546875 16.910888671875
26.18115234375 13.7630615234375 -15.7344970703125
-6.59375 46.686279296875 -1.0936279296875
79.97802734375 -107.4271240234375 8.169677734375
39.013916015625 35.7960205078125 16.825439453125
73.93896484375 16.6051025390625 5.0303955078125
42.761474609375 49.2877197265625 15.8974609375
-29.8857421875 -43.6763916015625 13.3720703125
23.822509765625 -62.033935546875 7.09765625
-6.078857421875 -17.47021484375 18.9058837890625
-27.900146484375 -57.0322265625 10.6065673828125
7.893798828125 45.3101806640625 -4.7005615234375
12.76318359375 -91.24267578125 13.573974609375
13.60498046875 2.304443359375 18.14306640625
90.364501953125 -64.5445556640625 2.7542724609375
80.270263671875 -110.07568359375 1.0611572265625
2.21826171875 10.7059326171875 17.3406982421875
-92.43505859375 23.0655517578125 11.2174072265625
24.081298828125 -29.06689453125 16.1331787109375
-14.002197265625 10.505126953125 17.49755859375
80.84326171875 -65.9794921875 6.014892578125
-86.13916015625 12.0985107421875 11.6990966796875
-2.417724609375 27.7884521484375 -6.612060546875
-56.6748046875 -30.2117919921875 13.11181640625
45.89794921875 -56.599609375 -8.46826171875
45.78466796875 -73.1181640625 -6.28369140625
-9.92041015625 72.75439453125 3.7637939453125
20.354736328125 -43.5936279296875 13.1099853515625
17.219970703125 -48.4459228515625 14.156982421875
-6.07958984375 -74.8062744140625 13.8587646484375
-68.302490234375 -34.7332763671875 13.3125
42.649658203125 35.1138916015625 17.6236572265625
-69.943603515625 15.3826904296875 11.2357177734375
83.28662109375 -50.975830078125 0.96044921875
-10.973876953125 -5.0804443359375 18.8812255859375
29.554443359375 2.6767578125 -15.2958984375
47.80615234375 -106.4705810546875 -12.6070556640625
35.09716796875 -48.863037109375 -11.6134033203125
37.459716796875 -26.9647216796875 -14.020263671875
31.1318359375 -6.7734375 -15.9007568359375
61.01611328125 22.458740234375 16.6561279296875
-61.97705078125 0.652587890625 12.3204345703125
-8.5791015625 -52.692138671875 0.5738525390625
-13.55517578125 -15.1229248046875 18.566162109375
1.46484375 22.647705078125 16.6898193359375
-0.310302734375 21.5025634765625 -8.689453125
12.266845703125 -62.9544677734375 13.8763427734375
81.405517578125 -48.1761474609375 4.1455078125
22.38330078125 56.6925048828125 21.595458984375
72.942138671875 20.7889404296875 -1.1318359375
21.60693359375 -55.6627197265625 16.903564453125
-97.1298828125 28.9468994140625 10.8402099609375
6.81640625 -32.6134033203125 14.72119140625
47.4541015625 -79.2958984375 -6.2308349609375
5.828369140625 63.677490234375 7.36181640625
-12.228271484375 37.7987060546875 16.399658203125
-22.25537109375 -53.40625 12.596435546875
42.089111328125 -85.25732421875 -5.0462646484375
32.911865234375 -22.593017578125 -11.9149169921875
10.16650390625 -55.59130859375 13.718505859375
6.9482421875 -5.3922119140625 18.3397216796875
76.287353515625 -105.010009765625 8.2197265625
85.981201171875 -65.8204345703125 1.370849609375
41.7353515625 -78.889892578125 -7.010986328125
-1.933349609375 17.861572265625 17.082275390625
20.334716796875 22.1966552734375 -12.90380859375
-58.74169921875 -48.576904296875 14.07080078125
46.3173828125 -84.1517333984375 13.3328857421875
31.889404296875 33.10986328125 16.496826171875
-6.188720703125 -30.49072265625 15.320556640625
27.131591796875 -58.7080078125 6.65966796875
71.5498046875 15.8173828125 2.4619140625
25.013671875 22.3460693359375 -7.8309326171875
75.320068359375 -21.6890869140625 5.0574951171875
56.82568359375 27.599365234375 16.2332763671875
-9.523681640625 59.954345703125 5.4671630859375
-1.3076171875 -34.6544189453125 13.420166015625
25.445556640625 -30.8197021484375 -13.9281005859375
76.180419921875 -31.5089111328125 5.2952880859375
-0.018798828125 -26.4312744140625 17.268798828125
-12.623046875 31.0244140625 17.017578125
-8.032470703125 39.2657470703125 16.0888671875
14.1240234375 -6.158447265625 18.2491455078125
17.3037109375 -58.2701416015625 13.5938720703125
3.044921875 18.677490234375 -11.858154296875
10.134033203125 10.763671875 17.1468505859375
16.983154296875 -25.900146484375 17.6044921875
-3.3076171875 43.4906005859375 15.5045166015625
5.311767578125 12.4532470703125 17.4139404296875
11.425048828125 -2.9378662109375 -13.676025390625
1.698974609375 66.62255859375 11.225830078125
-94.341064453125 14.3819580078125 12.2607421875
45.730224609375 30.73876953125 16.5567626953125
3.0830078125 -39.3565673828125 13.4337158203125
6.678466796875 -24.5762939453125 18.2122802734375
101.744140625 -89.2977294921875 0.4024658203125
48.052001953125 -59.3592529296875 -9.2545166015625
-63.125244140625 -10.029541015625 13.4925537109375
52.6416015625 -92.741455078125 -3.69677734375
8.06201171875 -38.334228515625 13.46923828125
14.281005859375 -5.7275390625 -15.2088623046875
21.373779296875 -20.11865234375 -15.316650390625
-17.129638671875 -4.260009765625 19.193115234375
-38.114013671875 -37.669189453125 13.4615478515625
76.69091796875 -43.344482421875 8.70458984375
-17.01416015625 29.6494140625 18.9910888671875
10.911865234375 -86.47216796875 14.0911865234375
-23.079345703125 2.074462890625 16.953369140625
86.0546875 -99.349609375 -1.1859130859375
-20.748779296875 -37.635498046875 13.3292236328125
78.240966796875 -61.492431640625 10.8297119140625
42.22216796875 -115.7369384765625 -7.28515625
2.69189453125 26.9320068359375 -10.9962158203125
42.03564453125 43.37939453125 15.9154052734375
-86.015625 28.7451171875 10.291748046875
-10.3701171875 -23.545166015625 18.9482421875
86.408447265625 -100.7791748046875 5.034912109375
-4.56689453125 47.4207763671875 19.37255859375
-68.998779296875 1.608642578125 12.5780029296875
-51.982666015625 -10.4237060546875 12.6083984375
35.79541015625 -78.4658203125 14.148193359375
-24.043212890625 -42.0772705078125 14.1492919921875
16.374267578125 8.29150390625 -12.4288330078125
-1.139892578125 -14.190673828125 18.6875
76.53271484375 3.521484375 1.9698486328125
28.52978515625 41.7081298828125 15.94189453125
-46.994873046875 -39.18408203125 13.2532958984375
-12.151123046875 2.2510986328125 17.5889892578125
65.407470703125 21.2540283203125 17.9586181640625
72.89990234375 14.5235595703125 13.343994140625
50.81591796875 10.27294921875 16.071044921875
-67.84521484375 19.2408447265625 10.4483642578125
59.0126953125 36.076171875 16.410400390625
-8.685546875 5.3289794921875 17.6553955078125
93.68310546875 -90.73193359375 0.80810546875
37.153564453125 -56.23291015625 -11.3140869140625
62.233642578125 27.6336669921875 16.4208984375
-9.914794921875 -14.060302734375 18.5499267578125
-3.692626953125 -73.00146484375 12.1246337890625
-71.218994140625 22.525146484375 10.4349365234375
18.37890625 -15.810791015625 19.2833251953125
26.77197265625 0.2955322265625 -14.4976806640625
29.616455078125 -9.6134033203125 -11.96484375
-14.697998046875 42.33642578125 18.216064453125
-2.9375 40.263916015625 -6.0015869140625
53.0341796875 -64.57470703125 -10.119873046875
18.6416015625 -19.99169921875 19.0166015625
-82.50439453125 5.164794921875 14.780517578125
29.547607421875 22.7388916015625 -14.0814208984375
-17.611328125 25.5316162109375 16.5689697265625
28.419677734375 -40.2215576171875 13.5152587890625
16.719970703125 -9.2774658203125 18.2545166015625
44.71923828125 -48.2657470703125 -10.7864990234375
-42.545654296875 -85.6790771484375 12.3375244140625
55.263427734375 -100.2850341796875 -10.3192138671875
-89.689453125 29.8812255859375 14.6329345703125
36.337890625 29.5986328125 16.55615234375
-86.539794921875 23.8348388671875 12.6453857421875
-35.527099609375 -54.69091796875 13.385009765625
76.8125 -108.8629150390625 5.2906494140625
-69.98193359375 -23.0743408203125 14.17724609375
-13.6875 22.2205810546875 17.2520751953125
41.53662109375 17.0877685546875 17.135498046875
93.09033203125 -103.801513671875 -2.423095703125
79.4794921875 -4.29345703125 21.56689453125
-39.870849609375 -74.1593017578125 15.9649658203125
25.811767578125 15.8935546875 -21.5819091796875
-74.7265625 27.1051025390625 12.1318359375
-59.366455078125 -44.6068115234375 12.7535400390625
53.626220703125 15.4140625 16.85400390625
32.220703125 -68.838623046875 9.5228271484375
34.63330078125 24.7498779296875 17.601806640625
-19.45654296875 -59.5391845703125 16.1856689453125
-4.877197265625 10.610595703125 17.118896484375
17.171875 -13.21240234375 -15.0855712890625
1.28564453125 -2.7657470703125 17.7645263671875
-5.96923828125 51.140380859375 25.49560546875
-17.2626953125 -47.676513671875 11.2626953125
77.804931640625 1.750244140625 22.241943359375
19.18212890625 13.5860595703125 -13.2496337890625
-44.60400390625 -27.678466796875 11.839111328125
38.3076171875 -110.6099853515625 0.285400390625
44.301025390625 37.706298828125 16.195068359375
82.683837890625 -80.8275146484375 6.39501953125
-10.003173828125 -45.940673828125 6.9490966796875
1.037109375 -17.3614501953125 18.9560546875
-51.14990234375 -87.5230712890625 7.9593505859375
81.156494140625 -28.273193359375 2.0799560546875
32.132568359375 -45.3494873046875 -12.29833984375
-1.18798828125 61.3389892578125 5.9921875
22.8154296875 -27.4871826171875 -13.1248779296875
78.9150390625 -111.441162109375 -7.433837890625
34.34033203125 -37.9947509765625 -12.44091796875
12.284912109375 -43.7020263671875 13.7275390625
96.906494140625 -89.9522705078125 0.158203125
100.145263671875 -81.7861328125 0.37744140625
54.298828125 -102.371826171875 -7.6744384765625
-19.497802734375 36.4398193359375 16.0228271484375
43.4541015625 -92.217529296875 -4.7374267578125
2.295654296875 -10.415283203125 18.6826171875
-39.157470703125 -42.3055419921875 13.0965576171875
71.954345703125 24.2080078125 9.9747314453125
74.8583984375 -14.798828125 4.6759033203125
-14.24267578125 25.4913330078125 16.9312744140625
82.8173828125 -12.3076171875 20.28955078125
42.4130859375 -100.455322265625 -8.6004638671875
-60.918212890625 -98.4228515625 7.753173828125
-9.24169921875 -46.1651611328125 13.18896484375
26.66845703125 17.05224609375 -15.8079833984375
-70.77294921875 -1.491455078125 13.27783203125
-50.178955078125 -100.9476318359375 6.214599609375
-7.86767578125 -2.028564453125 18.4647216796875
32.623046875 -59.7008056640625 -6.4776611328125
23.4521484375 -61.93359375 11.3922119140625
-73.8212890625 12.5543212890625 11.5606689453125
48.08447265625 -98.96044921875 -6.2835693359375
35.5849609375 -30.24169921875 -11.0107421875
58.69921875 11.2322998046875 16.533935546875
78.544189453125 -50.1546630859375 11.95068359375
38.692138671875 16.0352783203125 -3.225830078125
18.2568359375 -36.92529296875 13.6124267578125
-53.024658203125 -44.156005859375 13.7777099609375
-5.821533203125 34.5926513671875 16.3326416015625
40.845703125 23.927734375 16.880126953125
72.83251953125 -43.525390625 12.5113525390625
28.00634765625 -29.645751953125 15.26416015625
-55.13134765625 -95.8946533203125 4.9683837890625
11.4326171875 -71.759521484375 13.80908203125
40.699951171875 -80.3690185546875 -1.731201171875
44.650634765625 -94.409912109375 12.642333984375
86.91796875 -94.0272216796875 7.540283203125
-74.98974609375 18.328369140625 11.442138671875
-7.670654296875 -48.92236328125 12.1002197265625
44.13818359375 -100.680908203125 -31.264892578125
27.81396484375 -78.6717529296875 13.99853515625
-2.9345703125 24.74462890625 16.7261962890625
-36.43212890625 -60.3206787109375 11.761962890625
47.592529296875 -63.41162109375 -7.229248046875
5.4169921875 55.2818603515625 0.4254150390625
24.21337890625 -22.9222412109375 -14.55126953125
-5.047607421875 57.5029296875 0.4251708984375
11.454345703125 -32.6944580078125 14.2122802734375
16.423095703125 -93.5655517578125 13.369384765625
-11.08935546875 8.758056640625 17.67431640625
-79.097900390625 7.1048583984375 12.442138671875
-9.875 65.47998046875 8.69140625
29.51220703125 -22.7176513671875 -6.9144287109375
9.046875 -42.5845947265625 13.4127197265625
-10.67236328125 -60.3004150390625 2.473388671875
-32.4267578125 -55.3948974609375 14.5645751953125
74.257080078125 -110.5618896484375 -7.966064453125
-45.480224609375 -36.3447265625 12.7408447265625
32.76171875 -85.1724853515625 13.8651123046875
-48.60009765625 -51.7354736328125 13.695556640625
-4.287109375 43.1251220703125 18.577392578125
79.685546875 -59.1016845703125 6.1492919921875
-10.31005859375 24.2249755859375 16.5601806640625
16.517578125 27.0526123046875 -12.1236572265625
7.01220703125 13.2728271484375 -13.60595703125
-41.3984375 -46.9354248046875 11.1885986328125
65.455078125 27.267333984375 17.884033203125
84.423583984375 -37.84716796875 2.8077392578125
13.702392578125 30.9761962890625 -10.460693359375
-37.310302734375 -50.5589599609375 13.4713134765625
3.4892578125 61.226318359375 4.924560546875
37.138671875 22.281982421875 16.8779296875
71.778076171875 25.5333251953125 16.144287109375
-44.939208984375 -101.337158203125 5.22802734375
77.08740234375 -20.4400634765625 2.6876220703125
-50.30126953125 -31.4345703125 12.787353515625
54.157470703125 -87.1259765625 -5.7861328125
2.72802734375 12.356689453125 -8.391357421875
-22.402099609375 -12.751220703125 18.3294677734375
-12.55908203125 -2.45947265625 19.8172607421875
13.475830078125 -74.4073486328125 14.493896484375
-55.572021484375 -9.1893310546875 13.1697998046875
83.02392578125 -73.8038330078125 12.806640625
35.18798828125 -17.5458984375 -14.738525390625
37.3447265625 -71.614501953125 -5.9224853515625
4.870849609375 17.355712890625 16.895263671875
2.48779296875 -78.5772705078125 14.7669677734375
36.7353515625 -65.0177001953125 -7.444580078125
-50.13232421875 -46.384521484375 13.386962890625
-3.1796875 37.0615234375 -6.738525390625
-44.220458984375 -95.0714111328125 6.63232421875
4.73974609375 10.31005859375 -11.2337646484375
-10.033203125 61.721435546875 10.983154296875
0.010498046875 32.5113525390625 -9.0634765625
28.233154296875 52.509033203125 17.8968505859375
81.928955078125 -54.811767578125 3.37353515625
31.945068359375 -56.506103515625 -7.3388671875
-81.613525390625 26.6397705078125 10.748779296875
-12.98681640625 -31.4620361328125 14.891845703125
-52.215576171875 -96.4857177734375 8.8035888671875
-5.31787109375 -43.8052978515625 13.5181884765625
-79.311279296875 11.082763671875 11.609375
-99.45849609375 16.88427734375 12.5809326171875
35.209716796875 -59.843505859375 -8.8748779296875
11.977294921875 26.88818359375 -7.1431884765625
12.7548828125 -20.502685546875 18.6522216796875
31.647216796875 -51.181396484375 13.541015625
41.86767578125 -73.679931640625 -8.6112060546875
48.650146484375 18.5994873046875 17.0302734375
-56.03271484375 -102.3876953125 6.21142578125
38.065673828125 -83.0123291015625 13.9561767578125
21.925537109375 -33.888916015625 -10.1497802734375
51.2158203125 -76.5447998046875 -7.6802978515625
-3.196533203125 -20.5882568359375 19.409423828125
-22.61865234375 -35.1041259765625 13.251708984375
0.613525390625 3.5966796875 17.741943359375
-20.27734375 41.703125 16.232666015625
22.846923828125 -40.16650390625 13.7987060546875
-55.004150390625 -23.0389404296875 14.42822265625
7.28173828125 2.6553955078125 -10.1571044921875
40.89208984375 32.5904541015625 18.9661865234375
37.3837890625 -68.8502197265625 -7.3863525390625
-23.731201171875 -57.9505615234375 13.72119140625
-47.609375 -33.2840576171875 12.853515625
15.8173828125 17.0220947265625 -11.0126953125
48.189453125 -101.874755859375 -28.58349609375
74.780029296875 -11.4093017578125 9.025634765625
12.813720703125 38.479736328125 -7.306884765625
12.3720703125 -35.921875 13.5343017578125
49.908203125 -108.10595703125 -8.6202392578125
-97.870849609375 32.2962646484375 11.0430908203125
75.821044921875 -25.6954345703125 10.5274658203125
16.379638671875 -14.990966796875 -12.5777587890625
41.27880859375 -100.8433837890625 0.9844970703125
65.381591796875 10.980712890625 19.1685791015625
94.49853515625 -97.0230712890625 0.35888671875
76.60546875 -31.7147216796875 10.83154296875
9.763916015625 33.9730224609375 -7.3038330078125
-63.283935546875 3.790771484375 11.36865234375
45.8505859375 -98.1290283203125 -34.1705322265625
-19.805908203125 -0.1527099609375 17.582275390625
-90.293701171875 9.4703369140625 14.1800537109375
4.650390625 29.8779296875 -8.3533935546875
14.968017578125 -50.5264892578125 14.61328125
78.92041015625 -105.2230224609375 10.2493896484375
-43.427490234375 -91.242431640625 7.2457275390625
-62.593017578125 -6.4923095703125 13.0758056640625
9.037841796875 17.7462158203125 -11.8419189453125
1.015625 -32.08544921875 14.51953125
-14.0810546875 -47.399658203125 15.8924560546875
-19.357177734375 -6.7471923828125 18.13232421875
14.65234375 -9.0013427734375 -13.512939453125
-5.625732421875 -10.029052734375 18.331298828125
-12.21630859375 -53.317138671875 4.758544921875
17.4150390625 -3.64990234375 17.896728515625
32.9013671875 -46.84130859375 12.9398193359375
-22.917724609375 30.262939453125 16.7568359375
-10.04150390625 -45.97265625 10.2286376953125
3.55517578125 41.1121826171875 -2.609130859375
-9.071533203125 -27.500732421875 16.7918701171875
49.290283203125 -50.4757080078125 -11.458740234375
-11.3818359375 -50.8919677734375 0.7401123046875
39.122314453125 -35.56396484375 -9.4190673828125
73.548583984375 2.6370849609375 7.37939453125
-18.6865234375 -66.080322265625 8.9547119140625
-58.872314453125 -86.3206787109375 12.594482421875
-1.564453125 64.695556640625 8.3548583984375
-4.16796875 1.6947021484375 18.2052001953125
9.143798828125 5.8626708984375 -14.199951171875
-10.193359375 -34.7911376953125 13.957275390625
37.26416015625 -19.4046630859375 -16.541259765625
-102.09814453125 28.9935302734375 11.2156982421875
37.45361328125 -23.8494873046875 -14.6993408203125
-13.865478515625 70.1654052734375 6.30712890625
-59.370849609375 -2.5146484375 12.400146484375
50.365478515625 -100.7425537109375 8.907958984375
30.51123046875 -51.1026611328125 -9.29296875
-70.97216796875 -17.620361328125 14.36083984375
38.552978515625 -104.3006591796875 0.8641357421875
14.568359375 -41.087890625 14.074462890625
-84.0126953125 28.65625 15.070068359375
-50.44970703125 -99.2794189453125 9.5380859375
87.638916015625 -76.2767333984375 1.625732421875
87.490234375 -96.9566650390625 6.8807373046875
61.12158203125 35.9036865234375 19.20556640625
38.660400390625 -30.2296142578125 -13.9539794921875
7.570556640625 -80.249755859375 14.386474609375
-37.892333984375 -65.4390869140625 13.6097412109375
-62.02880859375 -101.1683349609375 10.4195556640625
41.993896484375 28.81689453125 18.93701171875
95.7578125 -81.4278564453125 -2.5711669921875
40.516357421875 26.9232177734375 17.011474609375
86.985595703125 -99.89990234375 7.85888671875
3.2607421875 0.413818359375 17.930419921875
24.7294921875 -40.5635986328125 -9.416259765625
39.53125 -103.0654296875 3.5228271484375
77.099853515625 -40.0482177734375 10.4044189453125
-95.496337890625 20.6533203125 11.260498046875
-34.826416015625 -75.8111572265625 14.66357421875
34.696533203125 -59.3349609375 11.7213134765625
80.44873046875 -14.0150146484375 2.3560791015625
-15.651611328125 -11.4971923828125 18.324462890625
54.56005859375 23.16552734375 16.7294921875
-1.361328125 37.499267578125 15.8369140625
-81.110595703125 28.0859375 14.0552978515625
64.947509765625 33.4852294921875 16.6748046875
-43.308349609375 -38.3797607421875 13.4088134765625
1.3154296875 -24.054443359375 18.4896240234375
-62.64697265625 -31.01318359375 13.091796875
-74.68798828125 7.31591796875 12.1058349609375
46.360595703125 -100.8115234375 2.43994140625
78.5 -11.5283203125 2.1441650390625
-50.107421875 -25.671142578125 13.424560546875
-67.124755859375 9.181396484375 11.5927734375
73.179931640625 19.0604248046875 15.1195068359375
38.964599609375 -73.8643798828125 -7.1746826171875
-86.464111328125 18.280517578125 13.2998046875
5.67626953125 59.0894775390625 2.4443359375
-54.377197265625 -41.1007080078125 14.2000732421875
-15.763671875 3.5799560546875 17.802978515625
-55.76953125 -26.457763671875 13.8721923828125
1.59130859375 18.55908203125 16.9512939453125
50.279296875 -101.310546875 -13.76025390625
47.746826171875 -100.30078125 10.9683837890625
-26.896484375 -37.7763671875 12.9803466796875
22.99072265625 3.70556640625 -12.5849609375
78.29736328125 -54.3179931640625 9.589111328125
1.563720703125 39.9295654296875 -5.036865234375
-30.8955078125 -47.314453125 13.79931640625
46.6904296875 -108.5184326171875 -10.78125
-54.187744140625 -36.39697265625 12.699462890625
45.0830078125 -101.016357421875 -10.5338134765625
83.53759765625 -84.64208984375 -0.1856689453125
76.107177734375 -9.628173828125 3.218505859375
41.055908203125 18.449951171875 -0.2880859375
33.028076171875 51.3966064453125 17.025634765625
-3.72509765625 43.8671875 27.3914794921875
58.988037109375 24.6026611328125 16.753173828125
21.906494140625 10.6900634765625 -14.3514404296875
77.23095703125 -4.4141845703125 1.6826171875
-57.4130859375 -33.6544189453125 13.2720947265625
64.059814453125 -104.260986328125 -8.5465087890625
90.296142578125 -88.080322265625 1.965576171875
-34.446533203125 -42.8221435546875 13.709716796875
45.594970703125 13.095458984375 17.156982421875
27.016357421875 -87.31298828125 13.2423095703125
24.043212890625 -32.540283203125 -11.999267578125
53.938232421875 -104.629638671875 -4.3865966796875
38.537109375 -101.62451171875 -3.522216796875
-20.15380859375 -19.0479736328125 18.5584716796875
5.73486328125 34.986083984375 -8.1182861328125
-9.91552734375 32.1048583984375 16.6917724609375
-15.078369140625 -43.95556640625 16.366943359375
32.133544921875 -19.7794189453125 -11.642333984375
23.872314453125 -34.066162109375 13.8631591796875
-82.680419921875 17.2960205078125 11.555908203125
87.10009765625 -68.49169921875 1.96875
29.011474609375 -72.848388671875 14.1395263671875
-8.56005859375 55.234375 3.6356201171875
32.271240234375 -4.0968017578125 -16.017822265625
31.0615234375 -36.8048095703125 -11.994873046875
73.828369140625 10.5594482421875 1.2828369140625
44.601806640625 33.339111328125 18.8363037109375
0.54833984375 30.1373291015625 15.9320068359375
39.46142578125 -71.081787109375 -8.135986328125
45.31884765625 23.4256591796875 16.7218017578125
-77.983642578125 25.1627197265625 10.7047119140625
-68.94970703125 4.79541015625 12.1331787109375
73.833984375 -8.153564453125 4.936279296875
-74.47705078125 -2.833251953125 13.3492431640625
-41.302734375 -87.47021484375 14.5440673828125
-20.942626953125 23.4129638671875 16.6348876953125
-28.369140625 -68.9947509765625 10.2864990234375
88.68701171875 -63.5804443359375 0.6077880859375
-22.828369140625 17.7427978515625 16.8822021484375
79.3330078125 -42.526123046875 3.79345703125
38.256591796875 -110.9112548828125 -2.5836181640625
-5.218505859375 41.6790771484375 -3.722412109375
46.706298828125 -101.7164306640625 6.81396484375
56.016357421875 -110.91552734375 -14.1435546875
48.860595703125 -71.4140625 -6.6429443359375
33.887451171875 -69.4835205078125 -4.0767822265625
-25.34521484375 -59.00439453125 11.59375
72.256591796875 17.89208984375 -1.8116455078125
89.525146484375 -95.041259765625 1.83203125
19.194580078125 -64.2257080078125 14.300048828125
14.451171875 -59.60009765625 14.1561279296875
47.188720703125 -102.7977294921875 -11.2777099609375
-31.908935546875 -39.8572998046875 13.157470703125
-45.004150390625 -25.0347900390625 12.842529296875
-18.072021484375 73.3218994140625 15.7027587890625
41.724365234375 -44.303955078125 -8.814453125
88.287109375 -102.2698974609375 0.5101318359375
4.8408203125 -22.1424560546875 18.9696044921875
-42.6171875 -52.744140625 13.2540283203125
60.25048828125 -97.1983642578125 -1.1181640625
51.3193359375 -111.7772216796875 -13.8580322265625
-10.5693359375 -46.028564453125 0.32177734375
52.434814453125 -100.87255859375 -10.0592041015625
25.801513671875 -53.74951171875 14.5718994140625
46.451171875 -44.0538330078125 -13.256591796875
11.465087890625 16.1846923828125 -9.9967041015625
53.475830078125 -71.9500732421875 -9.0543212890625
-9.197509765625 -19.7479248046875 18.80859375
-17.651123046875 13.6090087890625 17.163330078125
67.12890625 25.4677734375 19.2999267578125
49.620849609375 -89.746826171875 -5.7322998046875
-48.149658203125 -82.1971435546875 8.7579345703125
43.823486328125 -84.1268310546875 -6.980224609375
31.39453125 -81.2979736328125 13.56787109375
8.78955078125 38.565185546875 -6.4976806640625
-10.48974609375 -65.1524658203125 7.5235595703125
41.28759765625 -45.5045166015625 -5.02685546875
-12.589599609375 73.6785888671875 3.6324462890625
-64.35888671875 -40.181884765625 13.0274658203125
41.392333984375 -86.6202392578125 -2.6805419921875
24.19580078125 -20.0594482421875 18.8570556640625
-90.478515625 17.5247802734375 12.04638671875
7.64892578125 1.69921875 -12.9127197265625
46.359619140625 -96.7493896484375 -6.4095458984375
4.43994140625 36.0875244140625 -5.88525390625
27.66748046875 -69.276123046875 12.44091796875
45.00048828125 -107.5809326171875 -8.368408203125
28.185302734375 -43.40185546875 13.4432373046875
-44.2822265625 -86.0025634765625 7.9322509765625
-14.486328125 31.018798828125 19.1107177734375
0.570556640625 49.9486083984375 -0.0235595703125
37.677978515625 -60.7427978515625 13.4979248046875
-62.35595703125 -94.3028564453125 11.75439453125
-58.390380859375 -85.0240478515625 6.9356689453125
-16.6708984375 -38.623291015625 13.603271484375
-16.548095703125 -75.03955078125 13.4459228515625
-49.57373046875 -90.5103759765625 9.1370849609375
-76.903076171875 0.213134765625 13.350341796875
99.78857421875 -78.7646484375 0.6512451171875
28.63818359375 -61.5439453125 7.263427734375
6.22607421875 5.5025634765625 17.5977783203125
5.445068359375 -14.20703125 19.353759765625
92.3505859375 -76.8909912109375 2.9263916015625
-6.532958984375 43.1270751953125 2.0400390625
25.83154296875 -1.247314453125 -12.16845703125
87.548583984375 -95.47265625 3.8121337890625
70.91552734375 14.197509765625 0.2923583984375
-57.41552734375 -5.677490234375 12.881103515625
-7.968505859375 40.4005126953125 19.9970703125
28.309326171875 -56.207275390625 6.3668212890625
30.338134765625 43.9647216796875 15.882080078125
55.40234375 29.9796142578125 16.37451171875
-5.269775390625 48.67919921875 23.591552734375
-58.083251953125 -83.6673583984375 12.3787841796875
50.056640625 -100.776123046875 -8.53515625
64.1455078125 -100.4061279296875 -7.06982421875
48.07763671875 -101.69189453125 -6.760986328125
10.23974609375 12.323974609375 -12.558837890625
-1.46484375 54.2506103515625 0.0146484375
-3.75634765625 68.3431396484375 8.6346435546875
5.1142578125 25.4462890625 -10.867919921875
-1.370361328125 -1.796875 17.932861328125
72.359375 10.7442626953125 4.697509765625
-74.141357421875 -17.306640625 15.326904296875
16.103515625 -22.271484375 18.3863525390625
30.458251953125 55.2755126953125 20.2020263671875
74.53515625 -20.718994140625 7.609375
81.4921875 -80.6883544921875 10.6025390625
-13.98291015625 -6.90966796875 18.8988037109375
5.835693359375 39.37890625 -2.6446533203125
-65.862060546875 -21.7135009765625 13.8594970703125
-13.838134765625 40.90087890625 16.0272216796875
76.8310546875 -26.4383544921875 3.7672119140625
6.642333984375 20.4154052734375 -12.3056640625
-26.380126953125 -75.77783203125 14.97119140625
1.190673828125 -46.3516845703125 13.6619873046875
12.384521484375 -11.4677734375 18.7525634765625
