37.883056640625 -16.3592529296875 -18.830322265625
34.376220703125 103.5694580078125 -17.18408203125
-69.971435546875 -74.4178466796875 -9.9552001953125
-6.146728515625 93.4378662109375 11.491455078125
-49.628173828125 -66.94091796875 -16.8104248046875
11.694580078125 63.9984130859375 -15.0565185546875
86.22705078125 -65.5899658203125 -21.2027587890625
-13.523681640625 80.2265625 -0.7864990234375
78.548583984375 -21.37109375 -31.115478515625
-61.50390625 -4.4114990234375 -18.719482421875
-61.01220703125 -32.9254150390625 4.03271484375
17.61474609375 6.063232421875 -14.00048828125
24.280029296875 -118.838623046875 -2.7420654296875
-17.169677734375 38.4193115234375 -14.68994140625
-85.49951171875 45.8773193359375 -19.811767578125
-50.188232421875 -84.09228515625 -22.9539794921875
-23.122802734375 82.2471923828125 1.466552734375
-54.744873046875 -57.1710205078125 -8.7742919921875
-4.47802734375 54.1011962890625 -14.777099609375
69.412109375 -86.8094482421875 -26.0643310546875
25.82666015625 -18.0352783203125 -18.991943359375
77.286865234375 -88.5028076171875 -23.70361328125
-4.49560546875 40.8883056640625 -14.6209716796875
-2.71875 -37.7147216796875 2.6851806640625
-62.663330078125 -73.3109130859375 -23.048828125
28.05810546875 77.027587890625 -12.89697265625
-9.9970703125 86.0635986328125 4.5548095703125
28.810546875 -55.06396484375 -18.7132568359375
-11.854248046875 27.3736572265625 -14.6256103515625
-44.768310546875 -8.5733642578125 -18.6474609375
-55.426513671875 -7.8280029296875 14.255126953125
-100.65673828125 40.158203125 -22.046630859375
-22.73046875 45.009765625 -13.9921875
-84.37158203125 -53.16015625 -2.465087890625
10.754150390625 71.374267578125 -10.3868408203125
90.543212890625 -104.0408935546875 -36.4605712890625
-62.7177734375 -59.9176025390625 -11.1490478515625
15.103515625 84.6834716796875 -3.883056640625
27.93359375 22.70458984375 -14.3677978515625
-42.599365234375 -52.351318359375 -18.5955810546875
82.321044921875 -58.175537109375 -17.8585205078125
15.388916015625 -116.6214599609375 -2.9859619140625
61.110107421875 -82.70166015625 -18.8543701171875
-76.277099609375 3.348876953125 -18.3828125
-18.6865234375 -7.0545654296875 -14.585693359375
77.594482421875 -63.9329833984375 -27.564697265625
71.79345703125 20.790283203125 -24.779052734375
-47.13330078125 18.9976806640625 -7.53857421875
37.92578125 25.7269287109375 -15.8304443359375
-44.38818359375 -47.617431640625 -4.71875
-37.8720703125 -3.929443359375 21.735595703125
27.77685546875 -34.3990478515625 -15.2225341796875
17.34423828125 -6.2847900390625 -14.342041015625
39.37744140625 -38.6373291015625 -18.9390869140625
0.715087890625 31.81884765625 -14.5755615234375
12.996337890625 49.3470458984375 -14.9390869140625
27.09130859375 86.3087158203125 -16.3759765625
81.09912109375 -42.1959228515625 -29.5687255859375
30.1943359375 -37.4276123046875 -22.2584228515625
43.227294921875 49.36279296875 -13.12841796875
-48.660400390625 -117.890625 -3.4315185546875
-64.954345703125 -89.749267578125 -5.77490234375
3.678466796875 67.080078125 -13.88671875
-5.65869140625 -18.8638916015625 -19.5145263671875
9.24267578125 -10.60400390625 17.892333984375
39.146240234375 86.4581298828125 2.485107421875
43.228759765625 -13.2713623046875 -17.9075927734375
-70.742919921875 -78.9991455078125 -0.186279296875
-53.949462890625 -39.419677734375 0.97021484375
-46.809326171875 -33.0645751953125 4.0228271484375
45.488037109375 -115.1881103515625 -12.600830078125
-3.068115234375 68.3311767578125 -12.795654296875
31.59326171875 63.7596435546875 -15.2938232421875
81.458251953125 -58.2181396484375 -24.072998046875
-44.857177734375 -54.5054931640625 -10.094482421875
-71.912841796875 -46.2490234375 -3.431884765625
16.095947265625 57.665771484375 -15.2999267578125
17.0859375 85.0191650390625 8.7315673828125
13.80712890625 -123.8331298828125 -2.236572265625
84.259765625 -74.443115234375 -18.3209228515625
2.84765625 23.0609130859375 -14.276611328125
78.73291015625 -26.3792724609375 -31.169189453125
32.5322265625 98.0057373046875 -2.35986328125
29.138916015625 48.2540283203125 -15.3609619140625
-12.3212890625 57.2388916015625 -10.630615234375
-68.174072265625 -83.5706787109375 -12.1553955078125
-6.261474609375 74.6748046875 -6.4886474609375
39.309814453125 109.6932373046875 -2.3157958984375
0.906494140625 2.6546630859375 -14.287841796875
84.285888671875 -65.3232421875 -32.6561279296875
15.197509765625 -3.1881103515625 22.6383056640625
-11.530029296875 -37.9598388671875 -30.32421875
-52.670166015625 -108.5374755859375 -3.8221435546875
16.250244140625 80.6226806640625 -6.33251953125
30.6591796875 100.9124755859375 -13.5484619140625
45.59033203125 -85.3486328125 -22.8603515625
20.296630859375 31.870849609375 -14.86865234375
87.733642578125 -82.38037109375 -18.727294921875
-35.451416015625 -46.144775390625 -22.2598876953125
-17.4228515625 10.89013671875 -13.4375
15.662109375 39.784912109375 -15.001220703125
42.909423828125 -69.4725341796875 -18.8729248046875
32.6416015625 10.76025390625 -15.1773681640625
-54.358642578125 -33.65771484375 3.774658203125
32.310302734375 103.6260986328125 3.8480224609375
29.34033203125 59.1575927734375 -15.0423583984375
-17.659912109375 -30.166748046875 -21.95263671875
72.479248046875 12.1917724609375 -27.5137939453125
-2.82373046875 14.4404296875 -14.2515869140625
-12.952880859375 -23.74951171875 -19.4510498046875
60.276611328125 30.79052734375 -14.764404296875
-66.40576171875 -49.4061279296875 -3.9859619140625
53.546875 -115.5313720703125 -10.2640380859375
31.958251953125 38.847412109375 -14.9779052734375
70.640625 30.33056640625 -15.371826171875
-23.10595703125 -39.7857666015625 -14.251220703125
21.2236328125 54.830078125 -14.87890625
-60.881591796875 -87.9345703125 -13.8800048828125
-65.82470703125 -30.792724609375 5.371826171875
-57.671142578125 -65.4862060546875 -25.847900390625
5.543701171875 83.0396728515625 1.2125244140625
39.364501953125 -96.6627197265625 -28.603759765625
-68.037109375 -75.758056640625 2.5086669921875
-21.916259765625 -45.28955078125 -13.061279296875
-67.8720703125 -11.74267578125 -21.399169921875
5.513427734375 71.230224609375 -9.943603515625
-8.3642578125 75.4559326171875 -0.5626220703125
3.0908203125 -45.65625 -1.152587890625
-89.955078125 39.2376708984375 -21.492919921875
-45.84326171875 -9.59423828125 15.353271484375
-16.023193359375 18.7060546875 -9.3690185546875
-15.220947265625 57.4061279296875 -15.17138671875
85.533203125 -48.6668701171875 -32.5943603515625
20.426025390625 73.8851318359375 -8.4488525390625
73.526123046875 -59.4835205078125 -17.8515625
84.23046875 -54.17919921875 -31.2626953125
-53.303955078125 -117.5621337890625 -3.6099853515625
-81.839599609375 -49.25341796875 -2.6322021484375
-65.388671875 -59.3873291015625 -3.333984375
-48.03857421875 -40.122802734375 0.633056640625
-42.468017578125 -55.836669921875 -14.5150146484375
-66.566650390625 -42.002685546875 -0.546630859375
72.4638671875 -8.6180419921875 -18.6435546875
-68.05224609375 -64.3016357421875 -4.6407470703125
-63.814697265625 -108.399658203125 -3.4459228515625
-22.587890625 -25.8717041015625 -18.5694580078125
-51.36083984375 -57.5015869140625 -13.448974609375
21.317138671875 -40.99169921875 -12.1251220703125
28.51611328125 -127.880126953125 -6.1175537109375
-62.44873046875 -24.1890869140625 9.47119140625
-3.179443359375 58.5113525390625 -15.045166015625
21.583984375 64.2791748046875 -15.099853515625
-44.891357421875 -71.119384765625 -27.2578125
30.145751953125 -7.962890625 20.0782470703125
81.6611328125 -88.405517578125 -21.6793212890625
28.243896484375 70.7972412109375 -11.65380859375
-57.277587890625 -75.3148193359375 -15.9095458984375
-43.910888671875 -3.435546875 21.8406982421875
-26.024658203125 83.6505126953125 7.6488037109375
-49.006103515625 -65.460205078125 -23.43994140625
6.567626953125 -6.236083984375 21.0794677734375
19.1865234375 18.720947265625 -14.3677978515625
28.331787109375 -121.4375 -6.2176513671875
-12.4140625 19.4891357421875 -14.2138671875
24.210693359375 -46.6307373046875 -21.64306640625
-18.779541015625 27.813232421875 -12.3775634765625
13.095947265625 23.7779541015625 -14.5858154296875
-38.69580078125 -11.2730712890625 17.691162109375
13.064453125 84.8680419921875 2.6151123046875
-18.873779296875 87.6956787109375 6.723876953125
-5.8369140625 62.7130126953125 -13.3902587890625
20.933837890625 -46.8917236328125 -17.3319091796875
-74.963134765625 -92.5579833984375 -3.197509765625
39.367919921875 -15.1566162109375 20.9892578125
9.01513671875 52.9234619140625 -14.7724609375
12.148193359375 3.9925537109375 -14.096923828125
74.392578125 -85.2816162109375 -18.2171630859375
-73.53173828125 -57.400146484375 -1.5755615234375
1.060546875 39.1419677734375 -14.6473388671875
21.5576171875 46.751220703125 -14.6158447265625
-4.54052734375 -13.9598388671875 -18.046875
5.32373046875 -106.3590087890625 -2.852294921875
20.7841796875 87.6671142578125 3.7093505859375
-59.90380859375 -99.3138427734375 -3.69970703125
-18.698974609375 49.23828125 -13.72900390625
-62.9052734375 -83.337158203125 -14.3243408203125
25.52734375 84.7801513671875 -7.5474853515625
-21.61376953125 -36.983642578125 -20.8074951171875
-4.190185546875 21.4359130859375 -14.3497314453125
86.291259765625 -59.321533203125 -31.5341796875
-19.108642578125 83.9239501953125 2.9139404296875
19.35302734375 1.9681396484375 -13.519287109375
14.59521484375 -22.73388671875 6.187255859375
17.94482421875 23.1351318359375 -14.0926513671875
85.679443359375 -82.4549560546875 -24.5465087890625
51.61181640625 -88.260986328125 -28.1702880859375
-19.19384765625 22.0302734375 -13.9447021484375
-36.40380859375 -46.2601318359375 -14.3345947265625
13.794677734375 15.1676025390625 -14.5811767578125
80.0869140625 -54.2628173828125 -26.3134765625
46.1796875 -77.0504150390625 -19.625244140625
-19.769775390625 35.0880126953125 -11.888427734375
-53.955810546875 -5.645263671875 -19.0213623046875
39.1396484375 -102.169189453125 -30.867431640625
29.621826171875 -27.555419921875 -19.069091796875
75.802734375 -11.825439453125 -28.087646484375
-9.190673828125 12.59375 -14.4776611328125
-27.416259765625 -25.9615478515625 -19.7298583984375
1.36083984375 -38.60986328125 1.3905029296875
-22.3564453125 -4.8046875 -13.59423828125
6.032958984375 -36.2022705078125 3.090087890625
30.0068359375 74.369384765625 -9.533447265625
-50.80615234375 -44.063720703125 -1.62744140625
0.78125 -5.9932861328125 -13.6923828125
-63.394775390625 -69.1220703125 -13.4046630859375
-7.265625 79.673583984375 -1.8348388671875
24.662109375 86.0836181640625 -3.3968505859375
15.55712890625 -110.6351318359375 -2.9713134765625
-76.826171875 -40.29052734375 0.2386474609375
42.659912109375 -23.42138671875 -19.751953125
38.07958984375 101.5023193359375 -14.370849609375
14.260009765625 -19.7135009765625 12.6500244140625
-6.914306640625 67.884765625 -6.0726318359375
-59.146484375 -8.33056640625 -19.8485107421875
-19.339599609375 -42.65087890625 -19.592529296875
-1.461669921875 73.85693359375 -7.563720703125
21.394775390625 -11.2506103515625 -16.6380615234375
-13.79345703125 -34.10986328125 -25.9404296875
8.571044921875 77.72265625 -3.844970703125
-5.5283203125 26.94091796875 -14.561767578125
-9.0703125 -9.6630859375 -15.802001953125
-3.8056640625 45.6365966796875 -14.743408203125
46.30712890625 -115.354736328125 -30.4716796875
13.992431640625 -93.5283203125 -13.380859375
-55.81982421875 -48.8780517578125 -4.292236328125
-60.2041015625 -80.796142578125 -26.359619140625
-79.40673828125 -79.0916748046875 -3.049072265625
37.111328125 -80.5948486328125 -18.16015625
-68.597412109375 -95.136962890625 -3.8116455078125
-63.6259765625 -74.8409423828125 -14.7711181640625
19.03125 -2.376220703125 -13.611328125
-104.62109375 38.6580810546875 -20.8583984375
77.191650390625 -36.4967041015625 -26.989013671875
66.129638671875 -53.0462646484375 -17.447509765625
2.186767578125 77.053955078125 -4.53857421875
42.194580078125 -85.46728515625 -36.9273681640625
8.60791015625 -109.9051513671875 -2.9234619140625
-7.78369140625 35.09130859375 -14.5682373046875
20.4296875 -130.7623291015625 -1.9273681640625
-42.653076171875 -61.2418212890625 -17.8011474609375
-72.48974609375 -101.4871826171875 -2.9896240234375
42.425048828125 102.9515380859375 -6.4033203125
-62.705322265625 -29.4827880859375 -19.1046142578125
-22.176025390625 1.8829345703125 -12.0819091796875
23.79541015625 -4.459716796875 22.35009765625
-88.593017578125 -51.0360107421875 -3.6141357421875
76.93798828125 -42.834716796875 -20.111572265625
-16.077392578125 -3.072509765625 -13.3624267578125
5.592041015625 55.412841796875 -14.9036865234375
-1.408447265625 -6.999267578125 22.3900146484375
9.170654296875 81.0240478515625 0.2808837890625
-3.978515625 71.3175048828125 -9.9461669921875
45.84765625 106.7332763671875 -5.7044677734375
5.560302734375 11.5374755859375 -14.395751953125
-21.886474609375 42.5570068359375 -10.66748046875
-63.191650390625 -23.313720703125 -19.9078369140625
79.2431640625 -49.825439453125 -26.15087890625
72.31591796875 22.5125732421875 -19.9400634765625
-51.33642578125 -2.0982666015625 -18.6795654296875
81.7724609375 -63.6021728515625 -27.2244873046875
-3.5556640625 51.4976806640625 -1.166015625
-3.343017578125 30.52001953125 -14.4908447265625
-20.626953125 14.9808349609375 -9.3768310546875
-82.609375 -42.4228515625 -0.6129150390625
-19.67529296875 -42.3817138671875 -27.3121337890625
-57.929443359375 -30.5074462890625 5.4993896484375
2.428955078125 -28.9102783203125 7.5577392578125
41.511962890625 -45.520751953125 -18.6201171875
3.2744140625 48.313232421875 -14.9395751953125
-22.255859375 -42.4383544921875 -31.92138671875
20.29736328125 59.4725341796875 -15.31396484375
-58.9658203125 -72.8521728515625 -26.572265625
-13.052490234375 -16.2479248046875 -18.8779296875
18.46875 -125.265869140625 -2.546142578125
76.877197265625 1.7030029296875 -28.88720703125
73.126220703125 4.294677734375 -18.8111572265625
18.56298828125 68.621337890625 -13.4522705078125
-79.60986328125 39.148193359375 -22.1072998046875
-47.6923828125 -51.490966796875 -3.9725341796875
-1.677001953125 -0.83447265625 -13.1104736328125
11.08837890625 -24.8480224609375 10.08056640625
-6.55078125 56.21923828125 -4.6092529296875
-50.70703125 -79.8887939453125 -23.9146728515625
-30.631591796875 -38.48681640625 -21.9251708984375
-67.677490234375 -62.4814453125 1.291259765625
10.526123046875 -20.584716796875 -19.565673828125
33.31640625 14.8228759765625 -14.91259765625
32.53076171875 -11.16796875 -16.4896240234375
-57.746826171875 -56.46533203125 -4.3603515625
34.33447265625 99.6512451171875 -10.615966796875
55.4912109375 -51.4564208984375 -20.215576171875
-6.742431640625 63.9813232421875 -3.6578369140625
-61.88916015625 -37.8734130859375 1.469482421875
-56.34912109375 -113.23779296875 -3.7003173828125
22.8642578125 -41.5721435546875 -21.309326171875
-33.474365234375 -57.900634765625 -19.225341796875
-57.0458984375 -68.408203125 -13.5069580078125
5.63427734375 18.7186279296875 -14.1756591796875
-69.841064453125 -37.9925537109375 1.32666015625
-43.495361328125 -123.6575927734375 -2.7454833984375
6.22119140625 25.318115234375 -14.6617431640625
51.9443359375 -83.9903564453125 -21.772705078125
-13.5126953125 83.1763916015625 2.0223388671875
-69.5791015625 -73.893310546875 -5.93505859375
20.080322265625 87.6202392578125 7.814697265625
85.85546875 -70.7457275390625 -24.1285400390625
-21.898681640625 57.8616943359375 -15.1328125
22.023193359375 -16.774169921875 11.586669921875
-18.65478515625 54.6895751953125 -14.1346435546875
-74.89892578125 -44.1697998046875 -1.0135498046875
39.183349609375 29.8287353515625 -15.26708984375
-66.5966796875 -24.392578125 9.2398681640625
-46.734619140625 -15.1402587890625 13.220458984375
37.923828125 -90.591552734375 -34.85791015625
48.912841796875 -84.914306640625 -19.1185302734375
40.95361328125 41.1654052734375 -15.5595703125
73.025390625 -1.3856201171875 -23.5281982421875
14.3828125 -97.392333984375 -11.95361328125
-79.497314453125 -66.2177734375 -2.6826171875
-4.224853515625 -22.9168701171875 -20.552978515625
26.145263671875 55.5181884765625 -15.1416015625
38.848876953125 -32.124755859375 -19.5167236328125
-7.065185546875 68.7010498046875 2.7017822265625
62.37744140625 -51.4312744140625 -17.4776611328125
23.419921875 14.214599609375 -13.177490234375
54.251220703125 -118.842041015625 -12.421630859375
24.195068359375 -39.3746337890625 -16.484619140625
70.658935546875 19.014892578125 -16.2109375
4.706298828125 -84.07373046875 -18.8739013671875
23.48779296875 -1.6690673828125 -13.719482421875
38.578857421875 -98.4278564453125 -38.532470703125
58.0146484375 -84.0350341796875 -20.9979248046875
73.8115234375 13.1876220703125 -16.9420166015625
-7.302490234375 71.2633056640625 -3.8189697265625
39.78955078125 67.47265625 -14.636962890625
-30.98486328125 -42.0416259765625 -26.5859375
16.6015625 10.1151123046875 -14.124267578125
0.40478515625 -10.417236328125 -16.1519775390625
29.48486328125 94.0963134765625 -16.595947265625
29.433349609375 97.1334228515625 -13.66162109375
-63.687255859375 -77.0665283203125 -23.844970703125
-13.932861328125 -29.291748046875 -20.890625
-8.022705078125 50.1419677734375 -3.186279296875
-2.497802734375 7.7489013671875 -13.735107421875
82.29541015625 -63.15966796875 -20.0457763671875
61.0146484375 35.73974609375 -14.337890625
-20.2392578125 -47.1669921875 -21.373779296875
11.51953125 39.3323974609375 -14.81787109375
-25.855224609375 -42.5638427734375 -23.4739990234375
38.7138671875 -73.7987060546875 -18.7703857421875
-78.65771484375 -75.0517578125 -2.4635009765625
36.739013671875 71.5325927734375 -12.009765625
84.990478515625 -87.097900390625 -27.0390625
24.71240234375 85.9512939453125 1.531494140625
-78.60205078125 -35.4765625 2.4942626953125
-17.718505859375 -26.8470458984375 -19.835693359375
28.051513671875 88.9471435546875 -7.2310791015625
35.13427734375 103.1751708984375 -8.9783935546875
-67.881591796875 -86.6068115234375 -4.0145263671875
-76.403564453125 -101.1484375 -2.91796875
-24.589111328125 -30.6502685546875 -17.6590576171875
5.606201171875 88.7249755859375 6.5364990234375
31.528076171875 -127.374267578125 -2.3397216796875
18.647705078125 -19.4464111328125 -19.7529296875
-32.6640625 -22.7996826171875 -18.1265869140625
87.4453125 -84.0850830078125 -27.7261962890625
-66.817626953125 -64.4661865234375 -8.604736328125
1.775390625 27.4639892578125 -14.4268798828125
-51.891845703125 -6.36962890625 15.0638427734375
-68.021484375 -45.30126953125 -2.463134765625
32.763427734375 95.8148193359375 -5.5755615234375
10.697021484375 -93.8289794921875 -18.180908203125
1.659912109375 83.2318115234375 1.393798828125
18.64013671875 86.5950927734375 -3.2532958984375
27.256103515625 83.9613037109375 -13.0079345703125
-65.75830078125 -75.974853515625 -4.23681640625
-28.7373046875 -1.7215576171875 23.04345703125
-60.333251953125 -60.8878173828125 -14.03173828125
-35.88916015625 -38.6715087890625 -14.48486328125
2.406494140625 73.615234375 -7.79248046875
47.290283203125 -118.8819580078125 -32.52685546875
80.581298828125 -45.9979248046875 -29.2401123046875
-15.681396484375 7.302490234375 -14.1741943359375
9.498291015625 -14.358154296875 -18.0665283203125
-69.378662109375 -69.220703125 -2.3306884765625
2.905029296875 -7.4176025390625 19.932861328125
7.5166015625 -23.577392578125 10.6923828125
16.659912109375 33.07763671875 -14.6986083984375
66.00830078125 -83.598388671875 -19.8258056640625
27.21435546875 14.7716064453125 -13.1456298828125
-14.580810546875 -8.6573486328125 -15.33203125
72.355224609375 6.5364990234375 -24.341064453125
25.62890625 -24.6669921875 -19.26220703125
88.05859375 -77.2684326171875 -26.0750732421875
40.89453125 -92.647705078125 -26.4024658203125
77.42724609375 -4.1925048828125 -29.402587890625
25.869140625 -128.1510009765625 -2.6458740234375
73.744384765625 -11.3330078125 -21.9090576171875
-84.78173828125 -61.4278564453125 -2.042724609375
-11.638427734375 91.7684326171875 10.1060791015625
10.5654296875 11.7864990234375 -14.1776123046875
27.84912109375 46.0531005859375 -12.5313720703125
23.170654296875 -122.4766845703125 -2.53662109375
34.0732421875 -18.7794189453125 -19.4473876953125
92.671875 -82.87060546875 -21.970458984375
-44.71728515625 0.1737060546875 23.7850341796875
-58.6875 -10.1458740234375 14.03369140625
-57.07470703125 -106.1541748046875 -3.8115234375
-3.45166015625 -6.0155029296875 -13.9945068359375
-23.414794921875 -30.1053466796875 -25.8597412109375
75.494140625 -17.275390625 -18.278076171875
-39.55029296875 -7.8856201171875 19.1824951171875
-47.123779296875 -76.74462890625 -24.59814453125
-7.5673828125 45.209716796875 -14.92138671875
73.964111328125 -4.8582763671875 -25.5308837890625
54.050537109375 -87.9942626953125 -31.1962890625
-64.029052734375 -99.4422607421875 -3.6976318359375
92.660400390625 -64.3785400390625 -32.5655517578125
-1.764892578125 87.8768310546875 6.0615234375
83.1416015625 -74.1175537109375 -22.01806640625
16.863037109375 -97.763427734375 -16.4124755859375
-20.4765625 -37.8287353515625 -26.864501953125
-0.24658203125 79.4627685546875 -2.09521484375
5.24853515625 -2.5025634765625 22.5087890625
-51.762451171875 -51.8458251953125 -3.96923828125
36.350830078125 2.150390625 -14.736083984375
-11.1064453125 15.95361328125 -14.2796630859375
-42.107421875 -67.919189453125 -23.1658935546875
13.220947265625 54.234130859375 -14.805419921875
6.42626953125 44.44482421875 -14.6148681640625
43.08251953125 30.761962890625 -14.7269287109375
28.576171875 85.6517333984375 -5.517822265625
29.37109375 0.899169921875 -13.927978515625
27.384521484375 -13.3138427734375 17.2093505859375
-23.2412109375 -30.0938720703125 -21.1116943359375
-21.904052734375 10.307861328125 -10.40283203125
26.049072265625 -33.7496337890625 -18.48193359375
43.063232421875 -84.9163818359375 -25.589599609375
19.722900390625 26.3555908203125 -14.7630615234375
-69.494140625 -70.216552734375 -10.4266357421875
-15.5498046875 45.913330078125 -12.3544921875
49.64697265625 -45.803955078125 -17.2735595703125
-80.32958984375 34.447265625 -22.3663330078125
-9.733642578125 -1.95458984375 -12.7242431640625
24.8818359375 32.5587158203125 -14.870849609375
-18.564453125 -14.6763916015625 -18.3614501953125
-84.725830078125 -78.101318359375 -2.0281982421875
-17.69677734375 -23.1082763671875 -17.65087890625
7.33251953125 -114.4620361328125 -2.8865966796875
37.7509765625 42.758056640625 -14.57958984375
-6.0791015625 65.5999755859375 -11.0784912109375
26.01220703125 -114.7293701171875 -3.6514892578125
-45.367431640625 -67.123291015625 -19.675048828125
-81.806640625 -86.6312255859375 -2.85693359375
-52.61474609375 -83.168701171875 -25.650390625
-20.545166015625 8.447509765625 -13.9095458984375
88.40576171875 -80.874755859375 -22.0380859375
25.656494140625 -7.93017578125 -15.1756591796875
-68.834716796875 -16.66064453125 -20.909912109375
28.30712890625 -44.503662109375 -26.375244140625
-13.71533203125 -27.2265625 -27.6343994140625
8.66357421875 33.702392578125 -14.949462890625
-43.509765625 -39.7271728515625 -0.0294189453125
-47.56640625 -56.2764892578125 -12.6602783203125
93.3173828125 -58.51513671875 -30.4573974609375
-56.37060546875 -18.615966796875 11.948486328125
7.338623046875 -2.2132568359375 -13.3134765625
-67.833740234375 -1.134521484375 -18.1485595703125
22.52490234375 -10.6033935546875 18.2607421875
85.107666015625 -82.6610107421875 -13.9952392578125
-66.293212890625 -53.8331298828125 -3.6387939453125
22.55517578125 77.599609375 -7.484130859375
-15.7001953125 -42.1451416015625 -29.034423828125
29.672119140625 27.407470703125 -14.925048828125
-61.3037109375 -18.580322265625 12.1826171875
-36.238037109375 -40.873779296875 -22.2904052734375
8.464599609375 -44.266845703125 -0.667236328125
83.556396484375 -45.67626953125 -31.5172119140625
35.6826171875 32.277099609375 -14.8037109375
43.679931640625 36.010498046875 -15.2947998046875
20.010498046875 51.2469482421875 -14.9237060546875
45.101806640625 46.9683837890625 -11.0889892578125
29.511962890625 85.9276123046875 -0.0980224609375
75.977294921875 -24.3905029296875 -20.4305419921875
-18.97412109375 -44.9569091796875 -24.80712890625
77.578125 -41.066162109375 -25.8299560546875
16.448486328125 85.2535400390625 1.281005859375
-51.233154296875 -32.02880859375 4.751953125
51.384033203125 -118.625732421875 -24.1112060546875
-52.119384765625 -26.589111328125 7.713134765625
-34.665771484375 -5.4014892578125 20.7861328125
-90.551025390625 48.235107421875 -18.5843505859375
17.045654296875 -9.455078125 18.8170166015625
-79.5732421875 -83.240234375 -3.2855224609375
37.109619140625 87.4969482421875 6.11669921875
0.626220703125 92.4840087890625 10.302001953125
-7.087890625 -5.96044921875 -14.0009765625
8.036376953125 61.646728515625 -15.3177490234375
-14.64697265625 -30.6295166015625 -24.193359375
-15.765625 28.3472900390625 -14.33447265625
32.59619140625 106.6485595703125 -4.5631103515625
27.02783203125 84.1387939453125 -19.285400390625
43.477783203125 -106.41650390625 -30.8426513671875
17.4912109375 -15.1217041015625 15.21533203125
-66.741943359375 -78.9332275390625 3.661376953125
-49.322509765625 -122.3372802734375 -3.019287109375
-47.0673828125 -54.89697265625 -5.68701171875
73.385498046875 10.6051025390625 -19.4249267578125
68.031494140625 -86.447021484375 -21.8607177734375
38.968994140625 -42.2166748046875 -19.0040283203125
23.176513671875 67.32177734375 -14.01708984375
33.58837890625 -3.9169921875 -13.788330078125
-9.909912109375 -35.638671875 -26.935302734375
47.318115234375 42.53662109375 -15.2171630859375
31.82421875 7.254150390625 -14.0157470703125
-58.91796875 -44.215576171875 -1.6844482421875
28.86962890625 33.645751953125 -15.1456298828125
32.811279296875 86.9864501953125 5.7198486328125
92.11279296875 -78.67626953125 -17.9156494140625
-74.2431640625 -3.5670166015625 -18.44775390625
12.084716796875 -16.97119140625 14.1219482421875
-45.9267578125 -63.4854736328125 -13.59228515625
-18.73779296875 18.4932861328125 -13.98388671875
40.599609375 -20.7738037109375 -20.9459228515625
27.636474609375 39.001708984375 -15.1962890625
20.61962890625 85.4759521484375 -9.4473876953125
8.5205078125 37.4349365234375 -14.6724853515625
-53.40478515625 -61.4029541015625 -13.4129638671875
4.3203125 -5.436767578125 -13.7181396484375
-42.82373046875 -64.7685546875 -18.1260986328125
80.422607421875 -65.35986328125 -31.2103271484375
-73.75439453125 -88.993896484375 -3.3023681640625
28.87939453125 91.8814697265625 -3.4228515625
-5.25341796875 88.5750732421875 6.8560791015625
-51.154296875 -66.7747802734375 -26.57177734375
42.168212890625 87.9830322265625 4.129638671875
23.829833984375 81.8353271484375 -8.6712646484375
50.626220703125 44.333984375 -14.877197265625
32.33935546875 67.6129150390625 -14.0758056640625
-61.2099609375 -72.3394775390625 -19.3709716796875
-64.723876953125 -83.19873046875 4.736572265625
76.435791015625 -87.910888671875 -28.3221435546875
-40.3408203125 -55.04443359375 -18.4852294921875
-22.212890625 50.7625732421875 -14.5709228515625
82.34423828125 -62.3905029296875 -23.6458740234375
-56.97509765625 -5.3895263671875 16.5941162109375
33.238037109375 -37.1156005859375 -19.2623291015625
-40.947509765625 -65.8665771484375 -13.8304443359375
-57.250244140625 -72.02734375 -17.125244140625
-61.63671875 -115.8157958984375 -3.94287109375
11.9228515625 84.6236572265625 -2.4136962890625
83.005126953125 -86.8253173828125 -17.077392578125
-67.091552734375 -72.6239013671875 1.2803955078125
-82.181396484375 46.4940185546875 -20.71826171875
79.05322265625 -65.3388671875 -18.6019287109375
7.195556640625 65.01953125 -14.9700927734375
10.29443359375 -31.7235107421875 5.701904296875
46.039794921875 -111.857666015625 -32.3427734375
34.59521484375 -24.2525634765625 -19.760986328125
1.13671875 89.3653564453125 7.2838134765625
-59.531982421875 -78.0980224609375 -16.8658447265625
-55.848876953125 -66.3079833984375 -18.8255615234375
-18.29833984375 16.2513427734375 -7.1292724609375
13.22412109375 30.4942626953125 -14.8094482421875
55.994140625 31.89794921875 -13.7515869140625
-78.31787109375 -93.372802734375 -2.857177734375
17.287109375 -14.6448974609375 -18.036865234375
36.40625 -16.194091796875 19.3280029296875
32.4150390625 19.22509765625 -14.89990234375
70.086181640625 16.544921875 -18.72998046875
-43.474609375 -31.5438232421875 1.3411865234375
-6.42919921875 60.1766357421875 -15.6644287109375
-52.911865234375 -113.6904296875 -3.7034912109375
13.324462890625 59.722900390625 -15.115966796875
-66.710205078125 -110.4996337890625 -3.7744140625
-1.443115234375 84.4337158203125 2.9158935546875
78.671630859375 -47.1182861328125 -20.3433837890625
12.6884765625 -8.5943603515625 -14.9801025390625
-22.506103515625 88.3284912109375 9.46533203125
3.046142578125 42.3748779296875 -14.7022705078125
40.5009765625 -9.915283203125 -15.9185791015625
74.609375 -19.825927734375 -22.034423828125
25.041259765625 44.3837890625 -13.6085205078125
-23.327392578125 -27.3477783203125 -30.2078857421875
-65.99267578125 -92.5567626953125 -4.0947265625
-44.537841796875 -29.699462890625 5.9696044921875
-9.90869140625 -21.316162109375 -23.7738037109375
27.397705078125 -37.7662353515625 -15.734130859375
46.0703125 -43.7020263671875 -18.7664794921875
-6.4091796875 60.0841064453125 -11.2816162109375
-45.3525390625 -65.9033203125 -24.7777099609375
31.898193359375 79.3524169921875 -18.4036865234375
-26.742919921875 86.8863525390625 6.159423828125
-69.02587890625 -81.687255859375 -5.4508056640625
39.302734375 -101.50244140625 -35.419677734375
80.67431640625 -54.7611083984375 -19.8013916015625
95.243896484375 -81.5072021484375 -20.095947265625
26.357177734375 -7.217041015625 20.5755615234375
-13.242919921875 49.2454833984375 -14.84130859375
-6.310791015625 60.1011962890625 -5.9453125
-69.04736328125 -79.2237548828125 -10.572021484375
-36.98291015625 -68.748046875 -13.74365234375
72.449462890625 19.4840087890625 -21.71826171875
-85.337890625 34.8778076171875 -22.728515625
39.49658203125 -90.264404296875 -28.3814697265625
83.04736328125 -68.15087890625 -23.4873046875
4.205322265625 -48.4237060546875 -2.746826171875
64.11328125 -85.3450927734375 -27.2821044921875
-78.2626953125 -57.6531982421875 -2.579833984375
-12.76513671875 -23.50146484375 -26.81884765625
7.375732421875 -26.8397216796875 8.422607421875
75.016845703125 -23.9256591796875 -24.887939453125
24.35986328125 -40.9974365234375 -26.4324951171875
76.683349609375 -61.03369140625 -17.08642578125
-12.2080078125 -42.1072998046875 -28.20654296875
28.584716796875 -19.9901123046875 -19.301513671875
-62.26318359375 -78.15087890625 -14.63623046875
-70.877197265625 -55.4598388671875 -0.843505859375
-55.795654296875 -11.8612060546875 13.901123046875
35.476318359375 63.9534912109375 -15.239990234375
-0.014892578125 -44.4375 -0.751708984375
-14.809814453125 29.348876953125 -10.6160888671875
28.33740234375 7.770751953125 -14.7127685546875
-87.98095703125 48.022216796875 -20.726318359375
-20.017333984375 15.366943359375 -12.6451416015625
76.973388671875 -18.2586669921875 -28.3798828125
27.724365234375 88.9805908203125 -14.4664306640625
-77.007080078125 -89.9276123046875 -2.905517578125
-14.407958984375 11.70068359375 -12.244384765625
38.862060546875 -5.9730224609375 -14.348388671875
-14.793701171875 42.33251953125 -14.9013671875
76.004638671875 -30.0328369140625 -23.1417236328125
7.967041015625 -8.0264892578125 -14.9327392578125
12.361328125 87.0015869140625 5.0870361328125
17.1396484375 71.4947509765625 -10.7515869140625
-20.057861328125 36.775390625 -15.0040283203125
-55.268310546875 -23.5589599609375 10.127685546875
-21.27197265625 -34.08251953125 -28.353271484375
43.347412109375 -93.6279296875 -23.756103515625
18.659423828125 -115.99755859375 -2.8040771484375
25.31640625 69.633544921875 -12.742919921875
10.535400390625 75.143310546875 -6.611083984375
0.245361328125 68.6661376953125 -12.835693359375
47.010498046875 -81.10546875 -35.228271484375
50.798583984375 -119.989013671875 -11.508056640625
-23.6337890625 85.4276123046875 15.1201171875
-20.446533203125 -39.8948974609375 -30.7762451171875
-13.712890625 2.8824462890625 -14.4144287109375
-28.158447265625 82.0643310546875 2.09765625
37.456787109375 -24.1859130859375 -22.808349609375
77.306884765625 -30.918701171875 -19.5728759765625
-103.26806640625 45.8897705078125 -20.9578857421875
-73.08154296875 -29.73046875 6.036865234375
-23.069091796875 -41.6038818359375 -8.6473388671875
9.250244140625 -36.924560546875 2.7813720703125
22.95166015625 -115.4630126953125 -2.636962890625
39.925048828125 -35.178955078125 -18.817138671875
-65.86474609375 -62.0565185546875 -6.06884765625
19.19091796875 41.4007568359375 -14.9345703125
-2.87744140625 93.1600341796875 11.0762939453125
-81.589599609375 -61.3526611328125 -2.865966796875
60.3828125 27.559814453125 -14.11669921875
2.4482421875 -16.6436767578125 -18.974365234375
76.8525390625 -23.91455078125 -27.623046875
-83.68408203125 -73.3294677734375 -1.2529296875
49.395751953125 -85.144775390625 -33.55224609375
-70.92236328125 -8.9334716796875 -19.8955078125
29.07275390625 68.4013671875 -13.75390625
-65.93798828125 -88.3223876953125 -10.6011962890625
-35.529541015625 -38.802490234375 -11.015869140625
-64.42431640625 -57.5089111328125 -0.811767578125
-40.10986328125 18.86865234375 -8.938232421875
10.21875 18.955078125 -14.621826171875
-15.93603515625 -33.8265380859375 -28.4144287109375
-50.837890625 -2.27978515625 20.4364013671875
31.944580078125 104.2039794921875 0.6134033203125
39.62548828125 105.7156982421875 -5.231689453125
42.1552734375 -37.990966796875 -20.542724609375
45.64794921875 -73.823974609375 -19.5484619140625
62.1318359375 -84.247802734375 -31.235595703125
-21.40283203125 -12.855712890625 -17.3922119140625
74.43212890625 -16.0738525390625 -21.6634521484375
13.093017578125 82.2432861328125 -4.6778564453125
11.515625 -21.9453125 11.500732421875
16.257080078125 -91.331787109375 -12.545166015625
72.70849609375 -26.4285888671875 -19.099365234375
18.929931640625 -95.64208984375 -17.761962890625
100.37890625 -86.100341796875 -17.7689208984375
-4.030029296875 17.450927734375 -14.1529541015625
-10.965087890625 88.3057861328125 6.7835693359375
-65.452392578125 -72.4739990234375 -13.347900390625
-61.961669921875 -26.349609375 -19.4005126953125
-78.686279296875 -49.72412109375 -2.11083984375
69.791259765625 -87.584716796875 -29.1773681640625
47.642822265625 101.1976318359375 -11.2655029296875
-21.35498046875 56.2591552734375 -12.3834228515625
31.734375 103.1773681640625 -3.1279296875
-10.8505859375 -24.6412353515625 -21.7315673828125
32.19677734375 -12.411376953125 17.853759765625
-82.72509765625 40.051025390625 -20.9647216796875
72.755615234375 6.8265380859375 -21.1572265625
54.547607421875 38.213134765625 -14.67626953125
52.94970703125 -98.975830078125 -19.1571044921875
31.2421875 97.2452392578125 0.4893798828125
-63.12109375 -50.7039794921875 -3.966552734375
73.3466796875 3.57763671875 -26.2452392578125
-37.35205078125 -43.353515625 -18.4056396484375
-84.751708984375 36.43896484375 -18.6314697265625
58.633056640625 -52.1158447265625 -20.350341796875
-63.810791015625 -40.134765625 0.23974609375
-20.3330078125 -19.5303955078125 -18.7471923828125
25.476318359375 72.0545654296875 -10.6246337890625
91.98974609375 -98.7769775390625 -37.871826171875
-35.482177734375 -22.9327392578125 -19.6448974609375
38.761962890625 21.103515625 -14.9676513671875
-42.28955078125 -69.2918701171875 -16.2215576171875
-8.47705078125 73.1239013671875 -8.201171875
-44.335205078125 22.3468017578125 -5.7744140625
25.105224609375 -46.8204345703125 -26.6744384765625
16.771728515625 77.5008544921875 -6.805908203125
-54.458251953125 -36.51171875 2.1981201171875
32.1591796875 101.2635498046875 -16.73388671875
4.544677734375 0.4058837890625 -13.5631103515625
-13.8984375 -12.8671875 -17.1748046875
54.66552734375 -87.4644775390625 -27.69970703125
-7.04248046875 84.5089111328125 2.992919921875
44.79833984375 44.6053466796875 -15.2379150390625
40.858154296875 26.455078125 -14.82470703125
24.960693359375 -125.115234375 -2.342041015625
-70.0322265625 -81.3365478515625 -2.2261962890625
-64.451171875 -33.8782958984375 3.3270263671875
2.3427734375 -108.557861328125 -2.5244140625
17.550048828125 88.0240478515625 -6.7550048828125
55.558837890625 -97.123779296875 -16.10107421875
74.239990234375 -7.919677734375 -26.288330078125
-50.510009765625 -6.8345947265625 -18.9822998046875
89.06201171875 -75.95458984375 -23.309326171875
-42.484130859375 -59.68408203125 -14.2928466796875
52.814453125 -92.4796142578125 -18.54833984375
-12.56787109375 55.6219482421875 -14.828125
61.344482421875 -85.5413818359375 -25.415771484375
-70.98583984375 -77.832275390625 -4.5625
-67.51416015625 -77.2303466796875 -1.045654296875
-16.2490234375 82.1026611328125 0.90185546875
73.572265625 -5.7537841796875 -19.3065185546875
-53.67919921875 -9.005859375 -19.5296630859375
42.102294921875 18.380126953125 -14.6082763671875
84.71337890625 -86.9688720703125 -23.9039306640625
16.90185546875 83.4483642578125 -7.95166015625
81.4814453125 -39.9261474609375 -31.6939697265625
-20.04150390625 -43.2730712890625 -15.729248046875
-57.38818359375 -77.2296142578125 5.00048828125
-20.212158203125 30.1571044921875 -14.2841796875
-20.55029296875 -39.90771484375 -20.4830322265625
-59.8271484375 -75.883056640625 -14.0731201171875
42.582763671875 -105.9945068359375 -35.9520263671875
41.981201171875 -6.063232421875 -14.3157958984375
-55.253173828125 -69.6363525390625 -17.2794189453125
27.973388671875 91.8724365234375 -8.3056640625
68.260009765625 32.0430908203125 -14.3175048828125
-22.103271484375 47.0814208984375 -11.7518310546875
71.84130859375 15.567138671875 -24.4332275390625
80.927490234375 -66.766357421875 -25.3446044921875
-64.8271484375 -75.126220703125 0.6375732421875
-21.38818359375 42.228515625 -14.3837890625
-48.02197265625 -7.5096435546875 14.587158203125
31.667724609375 45.5701904296875 -14.88232421875
77.981689453125 -33.64501953125 -28.335693359375
-42.810302734375 -62.9481201171875 -13.7269287109375
-47.44189453125 -10.074951171875 -19.3079833984375
-65.679931640625 -102.0672607421875 -3.8070068359375
22.10498046875 -48.249267578125 -19.8597412109375
-86.45751953125 -58.871826171875 -2.5333251953125
16.219970703125 36.7088623046875 -15.0240478515625
-81.9345703125 -68.8642578125 -3.314697265625
-52.6884765625 -56.80859375 -5.6925048828125
-57.26318359375 -41.361083984375 -0.1239013671875
4.642578125 -33.6014404296875 4.00732421875
-67.119873046875 -62.1851806640625 -2.59619140625
78.045654296875 -12.243896484375 -30.1646728515625
48.666259765625 -87.566162109375 -29.4766845703125
40.4677734375 -98.323974609375 -25.1063232421875
15.657958984375 -11.8187255859375 17.406494140625
-3.03662109375 -46.5587158203125 -1.5433349609375
-2.838623046875 -9.75048828125 20.9420166015625
-60.0546875 -67.8724365234375 -22.665283203125
42.189453125 -85.5865478515625 -33.849609375
-9.938232421875 47.154296875 -14.640380859375
31.47705078125 88.2935791015625 -0.2437744140625
-65.779296875 -96.9097900390625 -3.65966796875
28.723876953125 30.330810546875 -15.087890625
32.423828125 50.54345703125 -15.3804931640625
27.130126953125 -120.53125 -3.537109375
-38.19384765625 -44.3148193359375 -12.366943359375
-46.773681640625 -52.27978515625 -7.270751953125
79.110107421875 -51.6365966796875 -19.6259765625
2.149658203125 5.4642333984375 -14.3404541015625
28.415283203125 52.2706298828125 -15.293212890625
-48.166748046875 -2.7796630859375 -16.9866943359375
-1.224609375 41.189453125 -14.7218017578125
-76.0400390625 -82.317626953125 -3.014404296875
13.435302734375 -19.1961669921875 -19.4234619140625
-62.508544921875 -63.049072265625 -13.987060546875
96.783203125 -86.1444091796875 -19.9556884765625
46.89404296875 -87.907958984375 -32.949951171875
21.83837890625 34.906005859375 -14.73681640625
29.471435546875 -11.059326171875 -16.5137939453125
-71.375732421875 2.3638916015625 -17.7939453125
-21.54931640625 5.563232421875 -13.752685546875
-65.023681640625 -28.1221923828125 7.323974609375
26.639892578125 -5.30712890625 -13.9530029296875
-74.81201171875 -47.4034423828125 -1.991943359375
86.464111328125 -82.432373046875 -8.9677734375
9.417724609375 44.9820556640625 -14.8748779296875
-61.959228515625 -79.999755859375 -23.995361328125
-69.196533203125 -30.1666259765625 5.6468505859375
-3.93798828125 33.634765625 -14.5225830078125
-83.047119140625 24.128662109375 -21.1646728515625
13.9365234375 -119.2960205078125 -2.8953857421875
-57.474609375 -33.9556884765625 3.315673828125
26.72265625 78.3277587890625 -8.0445556640625
-52.01904296875 -12.59130859375 -19.296142578125
-48.155517578125 -79.065673828125 -26.26708984375
26.499267578125 61.3485107421875 -15.2750244140625
-88.32763671875 36.5777587890625 -21.499755859375
-71.322998046875 -5.4903564453125 -19.4947509765625
82.57470703125 -56.0726318359375 -22.254150390625
0.455078125 -5.6571044921875 20.1148681640625
86.22021484375 -83.3114013671875 -21.6995849609375
56.5673828125 -86.1851806640625 -30.87158203125
77.516845703125 -26.804443359375 -28.19775390625
6.145751953125 52.0064697265625 -14.946533203125
-7.2236328125 55.3521728515625 -14.7430419921875
-17.131591796875 89.7530517578125 8.67529296875
18.16455078125 -3.580078125 22.282958984375
36.52880859375 28.483154296875 -14.7935791015625
2.09375 -41.42333984375 0.597900390625
13.375244140625 -30.0465087890625 4.995849609375
-63.04833984375 -60.737060546875 -5.298095703125
-12.917724609375 -28.5872802734375 -30.6240234375
8.735107421875 -117.5660400390625 -2.3602294921875
37.923828125 -19.2633056640625 -19.605712890625
27.8408203125 -38.7911376953125 -23.53759765625
-71.869384765625 -93.092041015625 -3.759521484375
44.805419921875 101.4886474609375 -10.3323974609375
21.650390625 -14.8638916015625 15.5018310546875
-68.734375 -102.175048828125 -3.194091796875
22.684814453125 26.809326171875 -14.6572265625
25.650390625 8.901123046875 -14.015380859375
43.699462890625 108.6060791015625 -2.0811767578125
47.669677734375 -113.33740234375 -34.395751953125
6.45263671875 59.113525390625 -15.01513671875
74.082275390625 -89.3179931640625 -24.1988525390625
-21.385009765625 85.2601318359375 4.32763671875
-47.0341796875 -72.776611328125 -28.527587890625
12.50830078125 -0.302490234375 -13.8363037109375
-57.0419921875 -68.30712890625 -26.617919921875
-58.384765625 -63.0946044921875 -13.5096435546875
32.702392578125 -30.812255859375 -19.3780517578125
-26.936279296875 -4.66650390625 21.62744140625
18.484130859375 -98.0245361328125 -19.7545166015625
-30.5673828125 -45.1431884765625 -26.1480712890625
-67.90087890625 -66.530517578125 -11.6661376953125
-6.785400390625 47.5830078125 -5.4129638671875
79.11572265625 -18.4447021484375 -30.99609375
86.677978515625 -62.1890869140625 -32.257568359375
38.226806640625 -90.7108154296875 -37.8226318359375
39.635986328125 70.847412109375 -12.0655517578125
84.54931640625 -62.18017578125 -18.365234375
-0.886474609375 18.73779296875 -14.265380859375
-5.655517578125 91.3355712890625 9.4423828125
-64.068359375 -65.8143310546875 -13.6221923828125
-2.583740234375 -18.5177001953125 -19.8017578125
-50.060302734375 -20.3836669921875 11.503662109375
47.80810546875 -119.4530029296875 -26.4495849609375
19.400634765625 -22.7005615234375 -19.2142333984375
29.861328125 -10.291259765625 18.257568359375
25.110107421875 -21.5682373046875 -19.694580078125
-11.398681640625 -45.040771484375 -31.38525390625
-8.02099609375 87.7506103515625 6.174072265625
-43.905517578125 -54.7484130859375 -17.1220703125
-22.02734375 -26.6541748046875 -27.6346435546875
-41.776611328125 -14.9014892578125 13.844970703125
85.890380859375 -79.80615234375 -20.8955078125
-42.84619140625 -61.405517578125 -20.7520751953125
1.58837890625 58.1015625 -14.8841552734375
-21.583251953125 -41.130859375 -12.1055908203125
-31.897216796875 -7.983154296875 19.504638671875
46.131103515625 -109.2947998046875 -29.897705078125
-6.461181640625 -16.13037109375 -18.7486572265625
-29.63623046875 -23.025390625 -19.756591796875
-40.509033203125 20.9095458984375 -5.045654296875
0.14697265625 47.4447021484375 -14.8070068359375
-8.901611328125 92.6004638671875 10.7965087890625
52.286865234375 -81.893798828125 -18.757568359375
85.82470703125 -67.7332763671875 -33.3426513671875
75.031494140625 -18.027587890625 -26.1837158203125
14.729248046875 -26.306396484375 8.4742431640625
-44.634521484375 -56.3016357421875 -12.439208984375
-14.93359375 35.4544677734375 -14.6578369140625
-61.122802734375 -75.267822265625 -26.0482177734375
-14.5205078125 31.8828125 -14.291748046875
80.041015625 -66.7646484375 -20.970703125
-1.746826171875 -13.245849609375 -17.4974365234375
82.890380859375 -62.6864013671875 -29.7774658203125
79.3046875 -66.276123046875 -28.6611328125
23.2939453125 74.7633056640625 -7.8408203125
-69.1162109375 -83.511474609375 -0.3232421875
-41.333984375 -5.887451171875 20.5201416015625
35.675537109375 21.6075439453125 -14.9744873046875
-67.50244140625 -76.3746337890625 -13.31201171875
0.50146484375 -18.835205078125 -19.682861328125
21.22607421875 -25.0601806640625 -18.5416259765625
74.414794921875 -22.1357421875 -16.79248046875
-54.286376953125 -82.451416015625 -27.9349365234375
-35.299560546875 -38.5184326171875 -24.399658203125
4.804443359375 -91.3193359375 -18.4312744140625
2.478515625 14.5806884765625 -14.297607421875
26.044677734375 79.35986328125 -13.6256103515625
17.0458984375 -130.680419921875 -2.09716796875
10.731201171875 25.4683837890625 -14.684326171875
31.741455078125 -24.607421875 -20.1947021484375
-46.398681640625 -123.60693359375 -2.899658203125
37.96630859375 61.3729248046875 -16.1649169921875
65.954345703125 30.334716796875 -15.0919189453125
77.57568359375 -34.47216796875 -20.9031982421875
-55.4169921875 -109.409912109375 -3.480712890625
45.366943359375 -71.0152587890625 -18.8758544921875
57.95947265625 -90.4354248046875 -28.603759765625
15.2333984375 -113.51416015625 -2.83251953125
-60.360107421875 -57.7052001953125 -4.5301513671875
40.037353515625 -87.5166015625 -27.3115234375
2.9482421875 52.922119140625 -14.6785888671875
-67.52587890625 -7.68994140625 -20.0933837890625
58.998779296875 -84.143310546875 -23.716064453125
-6.211181640625 -11.9248046875 -16.8533935546875
30.203369140625 -13.5631103515625 -17.8646240234375
-9.921630859375 50.355224609375 -14.7978515625
-84.345458984375 43.80712890625 -21.6885986328125
-61.134765625 -70.918701171875 -22.51904296875
41.9580078125 86.0064697265625 2.0091552734375
-45.587646484375 -35.8912353515625 2.724609375
-71.412109375 -49.0777587890625 -3.702880859375
14.11328125 79.461181640625 -3.969482421875
-9.511962890625 -41.8455810546875 -29.1943359375
-21.189453125 -40.383544921875 -17.0694580078125
-54.811767578125 -57.438232421875 -11.642333984375
21.04345703125 -3.56884765625 22.3861083984375
-21.07373046875 -46.529052734375 -8.8594970703125
25.885009765625 -0.1851806640625 -14.3087158203125
-52.092529296875 -46.2752685546875 -2.9471435546875
-45.174072265625 -4.786376953125 19.63720703125
-17.9794921875 20.5516357421875 -11.62060546875
-37.6748046875 20.2181396484375 -4.84130859375
8.359375 9.945556640625 -14.0556640625
23.370849609375 61.8040771484375 -15.385498046875
53.227294921875 -95.71484375 -18.68505859375
-86.218994140625 -55.5989990234375 -3.2078857421875
-16.00732421875 87.8450927734375 6.58935546875
22.824462890625 -46.1021728515625 -15.3192138671875
-66.054931640625 -23.4471435546875 -19.73974609375
15.103759765625 7.4423828125 -14.1807861328125
10.7431640625 83.1805419921875 2.6029052734375
-19.543701171875 -4.3372802734375 -13.90673828125
14.568359375 64.9468994140625 -14.8834228515625
-20.62255859375 -38.01220703125 -23.66796875
-10.777587890625 83.9815673828125 2.687255859375
33.75244140625 -13.5115966796875 -17.595703125
-21.29443359375 19.6654052734375 -13.4398193359375
44.85791015625 104.5069580078125 -7.3052978515625
38.172119140625 -95.8621826171875 -32.73095703125
88.787841796875 -58.1239013671875 -30.8089599609375
47.359375 -116.8125 -27.456787109375
-15.8828125 48.7474365234375 -13.6158447265625
30.827880859375 24.80810546875 -14.62841796875
76.318115234375 -86.9832763671875 -16.9647216796875
-41.171142578125 -10.1669921875 18.5968017578125
