-66.60400390625 -25.6707763671875 5.704833984375
-5.246337890625 62.3544921875 29.5247802734375
41.070068359375 -107.0091552734375 1.6778564453125
22.092041015625 -92.499267578125 1.325927734375
49.419677734375 -85.812744140625 -17.894287109375
-83.578857421875 27.3831787109375 7.6239013671875
41.551025390625 50.767822265625 14.870849609375
-0.71875 6.686767578125 8.5791015625
48.401123046875 18.0848388671875 -4.319580078125
53.959228515625 -87.4449462890625 0.41455078125
40.720703125 -122.7216796875 -13.6336669921875
54.382080078125 -106.9288330078125 -12.4866943359375
46.467041015625 -64.3531494140625 0.4974365234375
31.01416015625 -76.0482177734375 -0.0408935546875
44.385498046875 70.677734375 -1.8665771484375
-64.428955078125 -0.837158203125 4.24169921875
17.287841796875 -54.7586669921875 1.2901611328125
15.396484375 56.685302734375 22.4638671875
57.3544921875 48.6798095703125 -6.4559326171875
55.95556640625 -74.54248046875 -12.606201171875
-14.057373046875 -1.6695556640625 12.262939453125
18.260498046875 -36.23486328125 3.6123046875
49.54736328125 -46.0263671875 -23.2283935546875
20.00390625 -69.9534912109375 1.03369140625
46.837646484375 -12.51708984375 6.6102294921875
43.9501953125 22.752685546875 8.3614501953125
-15.013916015625 -13.3497314453125 9.9833984375
15.57177734375 -26.054443359375 7.7198486328125
-59.559326171875 18.9056396484375 3.1878662109375
-16.032958984375 -34.1639404296875 5.025634765625
43.939453125 -8.2269287109375 -13.306640625
18.368896484375 -107.8662109375 0.552734375
56.513916015625 27.6103515625 -13.29638671875
32.505126953125 64.63916015625 29.193115234375
71.909912109375 -102.4000244140625 2.74267578125
-61.265380859375 -85.483642578125 8.5706787109375
-11.111572265625 -49.5633544921875 1.7484130859375
-40.55615234375 -89.8685302734375 3.9859619140625
47.43115234375 12.4007568359375 -16.9169921875
12.506103515625 -86.574951171875 1.7333984375
-5.187744140625 -30.7158203125 6.475341796875
40.461669921875 -71.1141357421875 -4.0570068359375
-58.336669921875 -99.683349609375 6.221923828125
37.032470703125 67.9527587890625 15.569580078125
45.093505859375 33.5435791015625 7.8292236328125
48.75634765625 -64.6292724609375 -19.508544921875
-13.34912109375 -64.775390625 -6.7264404296875
20.956298828125 43.403076171875 9.3701171875
48.7451171875 85.4952392578125 26.6273193359375
-36.459716796875 -58.8973388671875 3.0086669921875
-61.748291015625 -99.5826416015625 -6.09130859375
53.7548828125 -106.2598876953125 -2.2039794921875
37.017578125 -98.5860595703125 0.267822265625
-25.428466796875 -53.7464599609375 3.8446044921875
-49.474365234375 -94.28955078125 -3.4326171875
9.044921875 -107.7071533203125 1.69140625
-54.08544921875 -13.4405517578125 4.5157470703125
-48.768310546875 -43.4771728515625 3.1119384765625
54.150634765625 68.8331298828125 -2.908203125
-71.595703125 -8.504638671875 6.0625
-4.28271484375 36.5888671875 9.0499267578125
51.178466796875 60.6639404296875 3.18212890625
3.03173828125 -37.7926025390625 2.9176025390625
-46.4365234375 -55.605712890625 2.812255859375
49.480224609375 82.1468505859375 8.1043701171875
36.523681640625 -62.9715576171875 -4.8692626953125
49.626220703125 75.35302734375 16.7362060546875
-7.005615234375 -57.795166015625 -4.1290283203125
-47.92578125 -84.8116455078125 6.225830078125
32.4658203125 -11.6231689453125 9.5064697265625
7.42333984375 27.510986328125 8.505126953125
37.39111328125 -47.2735595703125 1.157958984375
37.92333984375 -27.7823486328125 7.580078125
-7.2607421875 -44.656005859375 -9.130615234375
-40.23779296875 -28.4627685546875 4.1287841796875
-7.53564453125 17.897216796875 8.489013671875
-15.68603515625 -54.965576171875 -5.5701904296875
79.9931640625 -48.7471923828125 -5.62353515625
2.63330078125 -12.198486328125 8.3763427734375
47.205078125 -11.79541015625 -20.62451171875
-24.99853515625 -79.0682373046875 2.23876953125
42.16748046875 56.700439453125 6.60205078125
24.217529296875 18.44482421875 8.0164794921875
28.55517578125 1.3392333984375 7.88134765625
3.00146484375 14.55859375 8.3087158203125
79.715576171875 -31.446533203125 -4.66455078125
-42.667724609375 -106.317138671875 -5.9407958984375
-40.087158203125 -71.5955810546875 3.09375
35.255859375 44.9315185546875 10.1756591796875
-32.25439453125 -44.880126953125 2.6739501953125
13.354248046875 -75.44189453125 1.4029541015625
46.66552734375 -52.692626953125 0.513671875
47.433349609375 -26.8189697265625 -22.0126953125
-15.37841796875 -68.10009765625 1.79736328125
-32.910888671875 -82.32958984375 5.205078125
9.048583984375 -52.679443359375 1.4736328125
49.470947265625 46.8419189453125 -3.7503662109375
17.59228515625 -10.3192138671875 7.6519775390625
21.300048828125 52.1923828125 17.4205322265625
58.484375 -34.905517578125 -19.099365234375
27.396728515625 -37.38330078125 2.9342041015625
-0.646240234375 -46.1895751953125 2.2625732421875
30.897705078125 -111.0113525390625 -0.6695556640625
-92.89697265625 19.6260986328125 5.6551513671875
54.30517578125 -18.8179931640625 -19.0445556640625
45.689208984375 -86.3262939453125 0.107177734375
49.05419921875 20.560791015625 -14.2855224609375
33.58984375 13.0985107421875 7.7506103515625
2.060302734375 44.00048828125 17.485595703125
21.58349609375 -61.7945556640625 2.0003662109375
46.269775390625 -106.133544921875 -9.1646728515625
-57.8828125 -5.8262939453125 4.5081787109375
13.286865234375 1.9144287109375 8.1591796875
-76.14208984375 16.0687255859375 5.03857421875
46.529541015625 -109.8807373046875 -24.4425048828125
49.385986328125 33.619140625 -9.8275146484375
-46.793701171875 -79.0220947265625 14.96875
52.638427734375 19.4808349609375 7.2705078125
53.15869140625 -106.124755859375 -20.4974365234375
36.7958984375 58.852294921875 12.8929443359375
37.209228515625 28.1424560546875 7.960693359375
59.946533203125 4.974365234375 7.31591796875
30.248291015625 -52.8199462890625 2.747802734375
7.98291015625 44.9429931640625 10.8896484375
-6.8486328125 27.0517578125 9.8428955078125
80.718017578125 -1.31201171875 -5.396728515625
-6.173095703125 0.1016845703125 8.526123046875
33.82568359375 52.1522216796875 17.78857421875
-57.8505859375 -31.4091796875 3.9649658203125
42.68017578125 -113.472900390625 -17.8228759765625
-11.841552734375 58.07763671875 25.784423828125
18.2646484375 -122.5223388671875 -0.16455078125
42.828125 67.549560546875 26.794677734375
25.068115234375 26.393798828125 7.8807373046875
27.396484375 -86.7188720703125 1.0665283203125
70.313232421875 -91.344482421875 -1.48876953125
46.437744140625 -22.1326904296875 7.5081787109375
44.093017578125 -35.3914794921875 3.6861572265625
30.619873046875 -94.10498046875 0.3250732421875
31.471923828125 -23.078369140625 7.68017578125
44.61669921875 80.55224609375 21.435546875
37.0712890625 3.8736572265625 7.754638671875
51.059814453125 5.9373779296875 7.1220703125
-57.472900390625 -42.2659912109375 2.7899169921875
-64.91357421875 -101.412109375 11.0504150390625
28.3447265625 62.29248046875 23.14794921875
73.108642578125 -81.333984375 -0.1123046875
-33.468505859375 -51.5166015625 6.31640625
31.3544921875 -60.57177734375 0.2449951171875
7.619873046875 -22.453125 8.208740234375
51.34814453125 -4.5828857421875 -18.8028564453125
28.85400390625 -123.3428955078125 -0.0770263671875
43.09716796875 18.4322509765625 -10.1646728515625
-64.105224609375 6.7083740234375 3.7225341796875
-3.5205078125 56.9456787109375 23.853759765625
19.08251953125 -100.3792724609375 0.476806640625
10.776611328125 -35.7750244140625 3.7908935546875
16.419189453125 -47.366455078125 1.715087890625
39.24267578125 71.0875244140625 6.382568359375
-30.771484375 -97.5914306640625 6.9102783203125
8.364990234375 19.6859130859375 8.4996337890625
-73.815673828125 -15.8465576171875 18.80908203125
20.055908203125 4.8074951171875 7.9393310546875
2.7373046875 38.69873046875 8.8951416015625
-14.5595703125 -43.195556640625 2.8870849609375
71.884521484375 -108.2769775390625 -1.6298828125
-18.332763671875 -50.716552734375 2.1365966796875
-47.55908203125 -26.9495849609375 4.7349853515625
35.66064453125 66.656982421875 22.9150390625
28.33349609375 -6.00390625 7.3221435546875
-34.6884765625 -65.8992919921875 1.947998046875
42.467529296875 -92.8599853515625 0.078125
50.5048828125 -57.9959716796875 -23.36572265625
-53.63134765625 -88.528564453125 -4.9486083984375
39.11474609375 75.3721923828125 15.814697265625
4.33740234375 -60.3756103515625 1.1092529296875
22.9169921875 -23.647216796875 7.760986328125
-46.897216796875 -13.4498291015625 4.783447265625
6.127685546875 49.884765625 15.768310546875
28.105712890625 42.80126953125 8.9498291015625
55.92138671875 -99.910888671875 -12.32861328125
44.200927734375 44.1605224609375 1.6368408203125
26.747314453125 56.6502685546875 15.8807373046875
-20.14404296875 -62.400390625 -2.6170654296875
46.1240234375 76.9334716796875 3.4869384765625
-41.4453125 -88.714111328125 -5.4637451171875
39.161865234375 -11.067138671875 7.1771240234375
47.727294921875 37.918212890625 2.8878173828125
14.23681640625 63.7576904296875 29.472900390625
48.3251953125 13.8802490234375 7.849609375
43.966552734375 6.1871337890625 -13.439208984375
-8.518310546875 -50.470947265625 -5.303466796875
-54.609130859375 -98.697509765625 -5.4461669921875
52.716796875 53.4267578125 -2.0386962890625
-40.6953125 -41.0001220703125 2.9053955078125
-59.52880859375 -92.233642578125 7.5721435546875
61.87353515625 -90.270263671875 -0.62060546875
-69.17822265625 -16.9276123046875 6.344970703125
81.102294921875 -13.5599365234375 -6.37646484375
17.780517578125 14.154541015625 8.039306640625
17.66796875 -17.3165283203125 7.8240966796875
26.672607421875 -66.5521240234375 1.37744140625
22.535888671875 58.9910888671875 20.9168701171875
50.3076171875 40.0023193359375 -6.677978515625
-26.6650390625 -66.843505859375 -5.0660400390625
-45.865478515625 -100.1728515625 -5.6102294921875
43.899169921875 -5.308837890625 7.29931640625
-16.2392578125 14.6529541015625 9.1409912109375
53.55517578125 8.3033447265625 -15.8994140625
30.71142578125 30.458984375 8.3651123046875
-74.729736328125 9.339599609375 4.444580078125
-0.29052734375 29.6226806640625 8.7774658203125
-51.415771484375 -79.2613525390625 8.3558349609375
-9.76513671875 -21.1046142578125 8.4384765625
41.369384765625 39.342529296875 7.8812255859375
-17.254150390625 -58.510009765625 16.6253662109375
6.437255859375 3.7999267578125 8.3194580078125
31.59130859375 62.6800537109375 16.67333984375
-53.367431640625 -0.31884765625 3.536865234375
-65.877685546875 22.3704833984375 2.6429443359375
-51.913818359375 -88.5574951171875 1.6826171875
56.2412109375 -95.34814453125 -0.0078125
14.890869140625 29.9024658203125 8.4976806640625
42.02392578125 77.2318115234375 28.6041259765625
43.52001953125 90.3328857421875 31.0799560546875
50.408203125 -102.265869140625 -15.6527099609375
31.991943359375 -43.036376953125 1.60693359375
49.40185546875 -78.57470703125 -18.1361083984375
15.637451171875 -115.2674560546875 0.42919921875
11.01708984375 -8.27978515625 8.109375
53.462890625 -80.1378173828125 0.8505859375
8.97900390625 57.740966796875 24.0654296875
44.007568359375 64.92041015625 1.535400390625
-30.001708984375 -60.2501220703125 1.9228515625
62.99169921875 -105.331298828125 -0.424560546875
50.94873046875 -32.982666015625 -23.7447509765625
-62.300537109375 -86.4859619140625 15.072265625
-77.25390625 25.331298828125 7.7220458984375
-5.614501953125 -60.1473388671875 -10.351318359375
36.77099609375 -77.762939453125 -2.7786865234375
20.83740234375 -42.1029052734375 1.5911865234375
-6.04052734375 -65.79443359375 -4.3392333984375
-88.859619140625 24.668701171875 4.48486328125
24.011474609375 -53.6556396484375 4.593994140625
-3.401123046875 12.84130859375 8.5115966796875
50.14599609375 -72.2607421875 -16.2716064453125
47.484130859375 -42.96533203125 -17.8677978515625
1.093505859375 0.1495361328125 8.540771484375
11.2978515625 52.7569580078125 18.5894775390625
34.60498046875 -69.6671142578125 -6.2593994140625
-7.54296875 -14.061767578125 8.6761474609375
47.25927734375 -103.624755859375 -1.910400390625
44.40625 50.6978759765625 6.609130859375
-60.73583984375 -20.1748046875 5.662353515625
-0.925048828125 50.7666015625 16.915771484375
39.521728515625 18.2789306640625 7.2723388671875
48.462158203125 -112.5545654296875 -2.9791259765625
14.666259765625 42.4989013671875 9.02001953125
54.03173828125 79.501708984375 12.710205078125
48.515625 48.3876953125 11.9154052734375
50.1171875 -69.49658203125 0.9271240234375
43.263427734375 32.4693603515625 -5.9608154296875
49.91259765625 -37.826416015625 3.3499755859375
-1.104736328125 -26.00341796875 8.2794189453125
-35.39453125 -93.18603515625 5.3193359375
43.32421875 3.4381103515625 7.839111328125
-14.472900390625 -7.1875 9.1051025390625
-53.1328125 -37.8201904296875 3.2574462890625
33.547119140625 -61.0321044921875 7.12353515625
51.112548828125 34.915771484375 7.2454833984375
55.920654296875 63.5211181640625 0.3936767578125
52.75048828125 1.1944580078125 -16.6441650390625
-54.884521484375 -87.3502197265625 6.9805908203125
-36.027587890625 -87.425048828125 7.449462890625
-11.9736328125 -28.69482421875 7.760986328125
0.417236328125 -5.9210205078125 8.7269287109375
33.05810546875 -31.910888671875 5.73291015625
0.409423828125 -32.837646484375 5.3438720703125
-49.29736328125 -19.0396728515625 4.85205078125
51.765625 -90.579833984375 -21.750732421875
30.59814453125 -117.5601806640625 -0.45556640625
-34.671142578125 -77.07666015625 2.781005859375
24.62939453125 -111.49755859375 0.3887939453125
47.33984375 27.679443359375 9.2364501953125
25.23779296875 -74.62451171875 1.0093994140625
42.671630859375 -109.212646484375 -13.5252685546875
-22.461669921875 -58.990478515625 1.7626953125
1.874267578125 58.9708251953125 25.55712890625
39.580810546875 -62.07421875 0.817626953125
50.97021484375 -40.2080078125 -23.5439453125
47.97119140625 -48.903076171875 -17.359130859375
46.18408203125 78.4437255859375 12.7564697265625
13.48779296875 -69.4730224609375 1.553466796875
48.37548828125 -92.1026611328125 -0.661865234375
50.097412109375 73.1781005859375 -2.500732421875
16.192626953125 -92.0323486328125 0.7347412109375
-10.170654296875 -35.000244140625 4.5233154296875
-27.8701171875 -47.0345458984375 6.0511474609375
-40.33740234375 -54.4041748046875 2.8309326171875
42.80810546875 84.4383544921875 25.510498046875
-62.472412109375 13.766357421875 3.29345703125
-10.463134765625 -55.202392578125 0.1304931640625
37.144775390625 65.528564453125 10.15673828125
38.21484375 63.1982421875 28.9444580078125
28.41015625 36.9637451171875 8.21484375
-16.497314453125 -47.8355712890625 -2.661376953125
-64.989990234375 -94.2900390625 8.248779296875
-13.300048828125 28.0662841796875 9.045654296875
-11.443359375 62.3798828125 29.7523193359375
-83.371826171875 22.73779296875 3.9300537109375
50.3779296875 -51.7943115234375 -23.604248046875
-65.988037109375 -7.229248046875 5.1207275390625
57.798828125 -104.1995849609375 1.9534912109375
-5.9462890625 -47.7159423828125 -0.1514892578125
58.08935546875 -110.6788330078125 -10.0701904296875
15.164306640625 -40.958740234375 1.9359130859375
47.95263671875 6.3411865234375 -18.3201904296875
-58.26025390625 -97.9986572265625 0.5562744140625
18.2548828125 -86.41455078125 1.6708984375
-50.9814453125 -50.4202880859375 2.997314453125
45.699951171875 -6.4178466796875 -19.2564697265625
-9.9716796875 37.7408447265625 9.7110595703125
-60.351806640625 -25.8448486328125 4.818603515625
25.06103515625 -98.290771484375 0.8924560546875
5.319091796875 -47.683349609375 1.700927734375
-12.60693359375 3.114013671875 8.6702880859375
49.802490234375 28.2279052734375 -11.7257080078125
-69.228515625 2.2799072265625 4.5130615234375
42.420166015625 -120.3487548828125 -20.54345703125
32.904296875 -83.0213623046875 1.091064453125
47.759765625 -18.532958984375 -21.5654296875
49.305908203125 67.3365478515625 -0.3336181640625
42.437744140625 46.770751953125 10.93115234375
23.19873046875 -9.6092529296875 7.7767333984375
54.677490234375 32.7130126953125 -11.748291015625
74.738037109375 -111.60546875 1.9718017578125
14.140380859375 -103.0345458984375 0.21435546875
44.056640625 -58.0943603515625 0.76220703125
-6.189697265625 7.9822998046875 8.6103515625
-57.25244140625 -81.047607421875 10.3157958984375
16.18408203125 37.03857421875 8.67333984375
5.552001953125 32.738037109375 9.0894775390625
48.817626953125 -107.5404052734375 -14.7889404296875
31.005859375 7.208984375 8.0184326171875
2.398681640625 -18.08837890625 8.3154296875
-51.947265625 -56.240966796875 3.1126708984375
51.978271484375 -107.8995361328125 -7.203369140625
18.81689453125 60.005859375 25.4508056640625
41.783203125 -67.29736328125 0.3787841796875
51.208984375 87.1712646484375 21.9736328125
39.50390625 -40.469970703125 1.5631103515625
-41.12255859375 -85.31103515625 7.368896484375
20.913330078125 48.138671875 13.706787109375
55.368896484375 43.9400634765625 -8.443359375
-13.891845703125 -60.1226806640625 -3.8419189453125
56.595703125 -3.1024169921875 -18.103515625
15.153564453125 -59.817138671875 1.3443603515625
45.750732421875 59.8607177734375 3.020263671875
-40.029052734375 -101.0928955078125 -6.3262939453125
-24.41552734375 -50.9727783203125 8.4588623046875
-15.908935546875 -54.280029296875 -10.998046875
39.690185546875 -32.4737548828125 5.3828125
-71.682861328125 18.9017333984375 3.6202392578125
39.814697265625 68.3465576171875 0.889892578125
49.732421875 -93.6641845703125 -17.4510498046875
68.862548828125 -104.20849609375 -3.6336669921875
18.829345703125 -31.483642578125 6.213623046875
36.11181640625 49.2705078125 13.7725830078125
-46.136962890625 -78.413818359375 9.360107421875
-2.497314453125 -37.3848876953125 3.2845458984375
-54.8359375 -107.2835693359375 5.95361328125
-60.969482421875 -104.18701171875 7.7127685546875
23.414794921875 -34.197509765625 4.78173828125
-64.087158203125 -89.4759521484375 10.9195556640625
-31.25634765625 -64.6427001953125 -3.2108154296875
44.1025390625 -29.04541015625 6.9747314453125
15.62109375 -4.295166015625 7.8033447265625
42.36328125 13.7998046875 -12.8416748046875
-63.613037109375 -31.8564453125 3.846923828125
-41.823486328125 -59.5726318359375 2.9659423828125
44.31103515625 75.104248046875 17.46044921875
42.0234375 -100.5230712890625 0.2235107421875
33.304931640625 -102.7227783203125 -0.1910400390625
11.4462890625 -31.1903076171875 6.4427490234375
-21.045166015625 -55.7171630859375 14.1142578125
50.95654296875 -81.2073974609375 -22.4874267578125
-37.48779296875 -90.413330078125 -0.3214111328125
41.057373046875 -51.3040771484375 1.1136474609375
29.677490234375 16.6124267578125 8.3546142578125
49.021728515625 20.9482421875 10.8272705078125
6.48974609375 9.650390625 8.25048828125
20.016845703125 28.70849609375 8.1859130859375
3.39453125 39.217041015625 14.147705078125
42.16455078125 -15.6297607421875 7.4029541015625
44.473876953125 -13.2327880859375 -14.761474609375
9.7197265625 -57.869873046875 1.302001953125
-9.0751953125 -44.5120849609375 3.678466796875
47.824462890625 -81.328369140625 0.646240234375
27.274169921875 63.5804443359375 28.0771484375
37.23583984375 -92.6331787109375 1.72705078125
-89.83056640625 29.769775390625 4.5841064453125
27.98193359375 -70.41015625 -1.8385009765625
-69.80126953125 -3.7178955078125 5.1099853515625
13.38818359375 -20.205810546875 7.7783203125
18.4462890625 -76.2618408203125 1.572265625
43.49560546875 -2.9501953125 -15.80712890625
32.320556640625 -16.460693359375 7.723876953125
-7.267578125 32.396240234375 8.9000244140625
44.86767578125 48.3797607421875 -2.033203125
-40.607666015625 -34.5833740234375 3.1473388671875
-44.65234375 -86.2982177734375 1.70654296875
-11.05517578125 22.68017578125 9.8499755859375
-29.60009765625 -76.7706298828125 2.0010986328125
42.425537109375 -116.1527099609375 -11.71044921875
-45.2900390625 -47.2464599609375 3.031005859375
45.9794921875 -30.09033203125 -17.7183837890625
53.537353515625 23.5047607421875 -14.0267333984375
-78.881591796875 20.872314453125 5.8685302734375
40.2216796875 55.302978515625 11.655029296875
40.454833984375 -23.3790283203125 7.3514404296875
22.926513671875 -105.694091796875 0.00830078125
-87.203857421875 19.5582275390625 4.895751953125
51.991455078125 15.8052978515625 -14.2088623046875
14.6640625 -80.3287353515625 1.570556640625
36.77783203125 63.8714599609375 18.6611328125
-79.24755859375 12.0926513671875 4.8255615234375
-6.098388671875 -25.284912109375 8.3681640625
-58.12744140625 1.34228515625 3.68408203125
-13.051025390625 -64.79296875 -1.2159423828125
-14.551513671875 -18.35009765625 10.407958984375
5.982177734375 -8.3065185546875 8.2362060546875
52.819580078125 59.224365234375 -1.35107421875
-26.513427734375 -58.8858642578125 5.280517578125
45.39111328125 -47.232177734375 0.9901123046875
13.212158203125 59.7562255859375 25.86328125
-59.6572265625 -46.741943359375 3.402587890625
-46.331787109375 -90.68603515625 -4.8935546875
49.5498046875 81.3531494140625 21.3843994140625
-16.047607421875 -54.517578125 -0.6129150390625
60.2353515625 44.6734619140625 -5.8948974609375
31.634521484375 -62.26513671875 -5.3721923828125
16.22412109375 53.3701171875 18.59326171875
80.962646484375 -8.02978515625 -6.601806640625
-55.09765625 -93.160888671875 -5.9468994140625
-17.84130859375 -39.509521484375 3.326904296875
-9.62353515625 -3.451904296875 8.53515625
-52.200927734375 -28.56396484375 4.1241455078125
-35.091552734375 -72.1558837890625 2.4241943359375
-57.5546875 14.268310546875 3.5098876953125
-48.9453125 -99.0401611328125 -1.9237060546875
56.652099609375 73.053955078125 -2.4683837890625
45.416748046875 -70.912841796875 0.7359619140625
36.235595703125 71.386474609375 18.987548828125
42.774169921875 28.53857421875 7.6568603515625
47.700439453125 -105.15673828125 -23.85107421875
-48.26123046875 -90.0394287109375 5.05224609375
8.995849609375 -101.8056640625 1.7401123046875
13.030517578125 -110.31591796875 0.5980224609375
25.121826171875 4.8848876953125 7.81201171875
35.4365234375 -51.7440185546875 1.2452392578125
3.095703125 39.57763671875 19.2684326171875
27.1083984375 -79.1285400390625 0.9073486328125
11.20654296875 23.6536865234375 8.5653076171875
-18.639404296875 -63.8968505859375 1.7694091796875
56.985107421875 17.30224609375 7.209716796875
-69.92041015625 8.4266357421875 3.9029541015625
48.26953125 -7.34423828125 6.68505859375
3.84033203125 46.8206787109375 12.5927734375
41.20703125 -0.92626953125 7.7835693359375
-56.330810546875 -92.747802734375 3.9609375
66.555419921875 -102.8255615234375 1.700439453125
59.9599609375 -106.61181640625 -3.96875
11.814697265625 16.308349609375 8.2403564453125
76.223876953125 1.7052001953125 -3.1641845703125
36.80078125 55.9508056640625 17.50634765625
45.085693359375 21.60205078125 -7.112060546875
-44.3359375 -37.829345703125 2.9571533203125
45.583984375 7.8525390625 7.484375
79.544921875 -26.6356201171875 -4.3787841796875
50.200439453125 90.0921630859375 26.6900634765625
-39.22509765625 -64.5096435546875 2.808349609375
53.091552734375 -24.7542724609375 -20.6278076171875
70.812255859375 -86.0875244140625 -0.8076171875
37.849609375 75.2227783203125 26.406982421875
45.478271484375 -24.3167724609375 -17.22705078125
-12.915283203125 -38.6419677734375 3.01318359375
40.53466796875 -85.4010009765625 0.6361083984375
18.37548828125 18.983154296875 8.484619140625
36.757568359375 60.5806884765625 8.4168701171875
33.019287109375 61.6805419921875 24.03857421875
1.883544921875 62.6033935546875 29.4053955078125
-53.164794921875 -6.5704345703125 4.1475830078125
-61.494384765625 -96.33154296875 -2.5467529296875
46.902099609375 38.8834228515625 8.1400146484375
45.15234375 36.171875 -8.3216552734375
-54.595703125 -46.723388671875 3.479736328125
8.693359375 -112.465576171875 1.8427734375
30.467529296875 -47.7882080078125 1.4700927734375
43.489013671875 -109.7086181640625 -20.7841796875
-48.820068359375 -59.826416015625 3.244873046875
-33.925537109375 -57.447998046875 6.7509765625
27.7197265625 -11.0360107421875 7.84130859375
50.9931640625 -67.1678466796875 -22.8297119140625
-11.54052734375 14.45703125 8.545654296875
38.34716796875 72.425048828125 10.841064453125
22.504150390625 13.993408203125 7.7576904296875
-4.8466796875 21.7542724609375 8.9412841796875
47.66455078125 -17.6112060546875 6.9627685546875
15.359375 -64.621826171875 1.328369140625
79.107666015625 -17.0283203125 -3.8824462890625
45.315673828125 80.30126953125 6.8897705078125
-2.898193359375 -11.66064453125 8.5787353515625
42.894775390625 73.639892578125 2.5325927734375
4.5126953125 22.3712158203125 8.513671875
19.311279296875 -117.7730712890625 1.8939208984375
2.926025390625 -22.7310791015625 8.1253662109375
48.02587890625 -105.7347412109375 -19.22412109375
-68.423095703125 -11.9339599609375 6.0677490234375
70.950927734375 -107.9189453125 2.931884765625
-34.691162109375 -40.9007568359375 2.5235595703125
5.978759765625 -34.0538330078125 5.090087890625
0.280517578125 -41.5247802734375 2.447509765625
15.713623046875 6.4351806640625 8.3690185546875
36.06689453125 8.3875732421875 7.2491455078125
79.449462890625 2.466552734375 -7.7900390625
46.14599609375 25.063232421875 -12.9195556640625
-57.440673828125 -36.0047607421875 3.4249267578125
48.141845703125 89.2825927734375 31.0679931640625
-67.2177734375 17.5087890625 3.4193115234375
38.111083984375 33.5306396484375 7.6422119140625
79.762939453125 -3.2755126953125 -1.328125
31.0439453125 -98.701171875 0.337646484375
-58.374755859375 -10.4010009765625 4.8651123046875
-8.76025390625 -54.391845703125 -7.72265625
55.19482421875 23.3135986328125 7.1832275390625
60.449462890625 -106.6390380859375 -9.3116455078125
46.219970703125 17.135009765625 -15.4320068359375
-16.4091796875 58.2100830078125 26.2294921875
57.39111328125 -15.43359375 -18.76318359375
27.69921875 21.85107421875 8.072509765625
24.5888671875 -121.7027587890625 -0.6622314453125
11.04296875 -26.7247314453125 7.838623046875
3.920654296875 43.0465087890625 9.7135009765625
43.0205078125 49.732177734375 1.9305419921875
32.35693359375 -56.7137451171875 3.8675537109375
-2.3642578125 36.6983642578125 13.7913818359375
55.946044921875 -100.259521484375 0.5989990234375
4.600341796875 -53.580322265625 1.7457275390625
-45.315185546875 -96.4971923828125 -2.9364013671875
-76.29296875 24.8631591796875 3.3043212890625
58.25634765625 54.0765380859375 -2.8182373046875
51.5625 -101.3199462890625 -19.94482421875
-66.780517578125 -21.133056640625 5.8360595703125
32.79052734375 -0.2982177734375 7.78564453125
9.9404296875 31.8602294921875 8.3192138671875
36.217529296875 23.8682861328125 9.6278076171875
-52.3681640625 -83.6949462890625 8.29345703125
26.2861328125 -41.638427734375 1.463623046875
50.347412109375 56.25537109375 1.0224609375
48.484619140625 -57.125732421875 0.8475341796875
28.90185546875 52.147216796875 16.364501953125
-45.17626953125 -22.8055419921875 4.861083984375
-10.83935546875 -11.3199462890625 10.132568359375
48.98388671875 50.7060546875 -1.4246826171875
-16.460693359375 -28.75927734375 8.2469482421875
25.984619140625 -63.3685302734375 4.486083984375
-1.76416015625 18.4765625 9.01513671875
-56.386474609375 -102.8310546875 3.6663818359375
-80.9873046875 26.5399169921875 3.6322021484375
-48.693115234375 -38.984130859375 3.05419921875
55.468017578125 4.9647216796875 6.9830322265625
51.505615234375 -86.110107421875 -22.0252685546875
-46.90966796875 -104.9610595703125 -6.330322265625
25.09521484375 -1.651123046875 7.8514404296875
-17.017333984375 -50.7337646484375 -6.89208984375
47.03125 -39.072021484375 -20.8568115234375
43.79296875 17.068603515625 7.6722412109375
-62.692138671875 -99.1595458984375 7.9217529296875
50.613037109375 -8.9820556640625 -20.1087646484375
33.231689453125 40.7818603515625 8.1995849609375
41.8515625 79.638427734375 24.8724365234375
49.94873046875 -40.26220703125 -0.73095703125
-52.824462890625 5.0538330078125 4.5865478515625
13.87890625 -52.0157470703125 1.993896484375
7.958984375 -39.00927734375 2.703369140625
13.271484375 -120.275146484375 -0.189697265625
40.9384765625 -44.6527099609375 1.1622314453125
23.951904296875 46.0889892578125 11.1534423828125
21.03515625 39.117919921875 8.3809814453125
-0.352783203125 34.0196533203125 8.71875
17.878662109375 -21.695556640625 7.8431396484375
-4.828369140625 -43.4267578125 2.2894287109375
51.435546875 -101.8853759765625 0.086181640625
46.96826171875 -106.942626953125 -4.754150390625
27.626953125 -108.1502685546875 -0.1446533203125
-51.184326171875 -85.8646240234375 -2.4674072265625
35.837158203125 -23.0391845703125 7.952392578125
43.126953125 73.544921875 26.380859375
54.3291015625 79.829345703125 4.4617919921875
35.213134765625 18.3455810546875 7.909423828125
40.67822265625 -75.8770751953125 -3.1141357421875
-7.322509765625 -61.63134765625 -6.6348876953125
-52.6513671875 -91.279541015625 5.8778076171875
6.162109375 -15.918212890625 8.107177734375
-69.983642578125 -17.4833984375 20.0548095703125
-38.390380859375 -92.0535888671875 -5.6488037109375
51.616455078125 79.297607421875 16.3138427734375
-60.53759765625 9.179443359375 3.5584716796875
57.971435546875 -21.1351318359375 -19.263671875
-3.288330078125 -3.6834716796875 8.4427490234375
80.44873046875 -35.427978515625 -6.219482421875
48.0078125 -33.7283935546875 4.528076171875
12.601806640625 45.67626953125 11.125
7.007080078125 53.8331298828125 19.769775390625
-51.0537109375 -78.8978271484375 14.0108642578125
-1.544921875 -15.8280029296875 8.4354248046875
-24.16943359375 -62.8040771484375 -5.3505859375
40.2685546875 43.419677734375 8.7838134765625
-6.96484375 -49.554931640625 -10.0606689453125
26.251953125 30.514404296875 8.3114013671875
-22.644287109375 -48.231201171875 2.0023193359375
-40.494384765625 -24.889892578125 6.5205078125
-71.394775390625 24.0242919921875 7.7154541015625
0.5380859375 -50.30517578125 1.874755859375
-36.66455078125 -80.4476318359375 6.1142578125
7.254150390625 14.98828125 8.719482421875
-12.564453125 30.999267578125 13.095703125
33.805419921875 -7.0318603515625 8.4827880859375
28.865478515625 -19.6700439453125 7.760498046875
-2.70751953125 2.891357421875 8.6190185546875
-27.489990234375 -49.2149658203125 2.384765625
-80.678955078125 16.896728515625 6.1895751953125
44.669921875 43.9130859375 -4.2772216796875
17.353271484375 46.611328125 11.8956298828125
48.996337890625 -68.884765625 -19.2276611328125
23.600341796875 -88.4161376953125 2.0220947265625
30.048095703125 26.250244140625 8.2799072265625
-59.04833984375 -16.289306640625 5.294677734375
66.22900390625 -92.47216796875 -1.1763916015625
19.9306640625 10.5091552734375 8.337646484375
28.61083984375 -26.2098388671875 7.596923828125
21.5078125 -27.645751953125 7.680908203125
36.912109375 63.0089111328125 14.5130615234375
-45.372314453125 -30.44482421875 3.7559814453125
-7.19091796875 58.500732421875 25.28857421875
-8.560302734375 4.4945068359375 8.85302734375
53.93994140625 -110.8321533203125 -10.94091796875
27.51123046875 61.1356201171875 13.554931640625
60.29736328125 -94.2283935546875 -0.3175048828125
31.930908203125 47.9117431640625 12.526611328125
5.7353515625 -42.5201416015625 2.0428466796875
19.16845703125 -96.1822509765625 0.227783203125
48.386962890625 18.3514404296875 7.5838623046875
-44.949951171875 -82.2147216796875 8.0213623046875
15.052490234375 -33.111572265625 5.3885498046875
48.456787109375 2.65185546875 7.172607421875
40.618408203125 6.7451171875 7.8507080078125
79.037109375 -13.0826416015625 -2.4920654296875
-85.98291015625 27.7847900390625 4.22900390625
-32.344970703125 -93.914794921875 8.1209716796875
-51.15185546875 -10.191162109375 4.6856689453125
43.74169921875 -109.419677734375 -9.4869384765625
39.5849609375 68.6539306640625 24.4468994140625
-20.664306640625 -54.13427734375 2.4730224609375
79.785400390625 -44.10302734375 -5.870849609375
-57.55615234375 -101.540283203125 -6.1002197265625
50.716552734375 -28.378662109375 -24.005859375
-31.51513671875 -63.2813720703125 8.1488037109375
51.611083984375 24.0126953125 9.8021240234375
29.07470703125 -32.9444580078125 5.284912109375
-61.99755859375 -5.8355712890625 4.9110107421875
36.275146484375 -105.43408203125 0.763916015625
10.768310546875 -3.9359130859375 8.02392578125
60.3154296875 9.0853271484375 7.3148193359375
-49.708251953125 -101.656005859375 -5.4173583984375
43.393310546875 22.4241943359375 -11.148681640625
27.1962890625 -91.84765625 0.730712890625
17.81982421875 33.288330078125 8.2108154296875
37.42333984375 40.49755859375 8.0992431640625
-50.17578125 -88.586669921875 8.393310546875
-30.696044921875 -60.69091796875 -2.211181640625
-42.785888671875 -101.590576171875 -3.2801513671875
-54.728271484375 -111.221923828125 7.1326904296875
-59.517822265625 -83.39501953125 12.8175048828125
44.422119140625 -104.6964111328125 0.86083984375
22.234375 -19.603515625 7.9952392578125
42.945556640625 55.0169677734375 2.9461669921875
9.42578125 0.01904296875 8.2340087890625
39.156494140625 14.199951171875 7.3385009765625
46.866943359375 78.25341796875 18.90234375
16.78515625 -72.4691162109375 1.2694091796875
-5.71630859375 -35.18212890625 4.4986572265625
-13.193359375 -70.9376220703125 -0.1654052734375
-19.30810546875 -45.6300048828125 2.9913330078125
-7.677978515625 21.635009765625 11.88427734375
-53.47802734375 -33.7618408203125 3.4398193359375
-61.991943359375 3.229736328125 3.92822265625
22.013671875 -38.335205078125 2.60302734375
-6.85546875 -46.74169921875 -4.0003662109375
22.061279296875 23.6748046875 8.0699462890625
41.406982421875 74.8092041015625 6.1226806640625
-14.2646484375 24.2366943359375 11.7828369140625
49.5263671875 -108.3551025390625 -10.4029541015625
52.043701171875 43.902587890625 -4.8170166015625
48.33203125 -58.9344482421875 -18.3685302734375
-55.607421875 -89.53759765625 0.2392578125
50.879150390625 -83.97021484375 0.512939453125
40.57275390625 -96.7364501953125 0.7630615234375
-43.522216796875 -50.85546875 2.70166015625
69.18212890625 -81.4627685546875 0.7952880859375
45.9638671875 -99.7066650390625 0.445068359375
80.69677734375 -52.6785888671875 -5.0924072265625
41.72900390625 -120.068359375 -16.492919921875
18.367919921875 -112.341796875 0.878173828125
-60.111572265625 -2.117919921875 4.2349853515625
48.853759765625 75.9561767578125 0.693603515625
31.81201171875 -90.29638671875 0.852783203125
13.9794921875 19.69873046875 8.3929443359375
28.167724609375 -65.1031494140625 -2.0677490234375
47.4013671875 -1.8963623046875 -19.8455810546875
36.1396484375 -59.1212158203125 1.105712890625
43.877197265625 9.8253173828125 -15.128662109375
22.7578125 61.93115234375 23.6368408203125
-37.36376953125 -31.2574462890625 4.00927734375
39.2900390625 -6.701416015625 7.4573974609375
-7.40966796875 -58.01708984375 -0.1514892578125
45.42578125 -15.9542236328125 -19.58349609375
-43.040771484375 -68.912353515625 2.7777099609375
-25.797119140625 -59.4541015625 -1.0396728515625
-62.0927734375 -41.0479736328125 3.326904296875
19.1083984375 55.3311767578125 21.8448486328125
10.23193359375 5.049072265625 8.2828369140625
37.21533203125 72.0054931640625 14.8397216796875
39.728515625 22.2459716796875 7.607421875
12.932373046875 -11.767333984375 8.216064453125
4.80224609375 57.26220703125 22.5841064453125
53.43359375 82.5108642578125 8.3486328125
-33.419677734375 -61.6512451171875 3.39013671875
12.450439453125 -47.1727294921875 1.6951904296875
-64.21044921875 -90.291015625 14.8056640625
-54.092529296875 -19.1077880859375 5.37548828125
50.93896484375 -16.329345703125 -20.6817626953125
-14.932861328125 -48.5208740234375 1.629150390625
23.3583984375 56.381103515625 17.911376953125
8.34912109375 41.4298095703125 9.1170654296875
53.211181640625 -11.70849609375 -18.925537109375
57.353759765625 -89.3812255859375 -0.141845703125
36.8759765625 -14.2652587890625 7.458984375
2.45068359375 -56.97607421875 1.6644287109375
-93.570068359375 31.2515869140625 4.614013671875
0.684326171875 10.34912109375 8.6517333984375
40.98583984375 77.792724609375 13.087646484375
44.192626953125 -9.1904296875 7.7618408203125
44.361083984375 -105.7586669921875 -14.27978515625
29.60888671875 -61.9600830078125 4.0594482421875
-37.27392578125 -68.930419921875 2.087158203125
-3.839599609375 -56.870361328125 -11.528564453125
14.33984375 -37.2509765625 3.17236328125
45.634765625 87.3314208984375 28.1102294921875
50.008056640625 80.0013427734375 4.8863525390625
43.966796875 -113.9703369140625 -21.466064453125
47.709228515625 -25.8924560546875 7.0068359375
-2.917724609375 60.2899169921875 27.194580078125
-45.8173828125 -17.1678466796875 5.10498046875
22.676513671875 -57.302978515625 4.5311279296875
-0.96630859375 53.8238525390625 19.859130859375
-8.09375 -52.229736328125 -0.652587890625
33.41259765625 -28.3685302734375 7.2783203125
56.1474609375 -108.646240234375 -7.395263671875
-54.46728515625 -103.854736328125 -5.7921142578125
-73.695068359375 13.0455322265625 4.088134765625
49.5126953125 1.7569580078125 -18.665283203125
44.721923828125 -10.0084228515625 -18.2396240234375
-40.787353515625 -88.4285888671875 -0.16796875
43.90283203125 1.8795166015625 -14.768310546875
52.13525390625 13.68359375 7.319091796875
34.717529296875 -95.4027099609375 0.82958984375
27.445556640625 64.1566162109375 19.90625
8.9208984375 60.8017578125 27.01171875
3.75146484375 28.5926513671875 8.7801513671875
29.83154296875 12.341552734375 7.815673828125
46.261962890625 -114.5345458984375 -24.484619140625
48.6103515625 -49.312744140625 1.0343017578125
58.300048828125 -31.08251953125 -19.3111572265625
-12.0537109375 -15.9285888671875 8.80029296875
11.749267578125 -90.3260498046875 1.53125
46.916748046875 30.7017822265625 -11.2491455078125
-43.073974609375 -92.6715087890625 -5.068115234375
42.771484375 15.1495361328125 -8.2449951171875
22.996826171875 -101.89453125 0.3524169921875
39.57421875 -36.4398193359375 2.9345703125
53.002685546875 47.7215576171875 -4.8812255859375
8.45263671875 47.8568115234375 13.2996826171875
54.71435546875 -6.4122314453125 -18.164306640625
43.7060546875 40.98779296875 -0.404052734375
60.33642578125 -101.3233642578125 0.5809326171875
19.935302734375 -6.2088623046875 7.8394775390625
-49.349365234375 -87.711181640625 -5.232666015625
36.4306640625 -42.683837890625 1.29931640625
49.446044921875 -21.814208984375 -22.440185546875
-57.746826171875 -95.7720947265625 -2.6375732421875
36.2001953125 63.456787109375 25.0792236328125
3.478759765625 6.148681640625 8.5430908203125
-42.20849609375 -45.0621337890625 2.875732421875
23.045654296875 -67.546875 1.2335205078125
-95.26513671875 23.99169921875 5.7286376953125
49.23583984375 -61.2437744140625 -21.9542236328125
3.419921875 51.849365234375 17.948974609375
48.196533203125 -53.4857177734375 -20.724365234375
-17.278564453125 -47.008544921875 -6.398681640625
41.87353515625 -119.9901123046875 -11.328857421875
50.733154296875 11.0174560546875 -15.7869873046875
19.804443359375 -14.2332763671875 7.9566650390625
45.7314453125 -22.0238037109375 -20.187744140625
24.9658203125 38.4547119140625 8.193115234375
15.771728515625 -98.6171875 0.39892578125
31.10546875 34.361328125 8.2958984375
44.013427734375 43.5135498046875 8.823486328125
12.42236328125 -106.0712890625 1.5556640625
36.154052734375 -62.3101806640625 -0.8409423828125
-58.82763671875 -88.602783203125 8.0999755859375
-43.59033203125 -87.142822265625 -2.8443603515625
7.6357421875 -12.5089111328125 7.7489013671875
-11.173095703125 -25.1141357421875 8.4288330078125
43.033935546875 76.24609375 20.7713623046875
52.97216796875 -93.6202392578125 -0.4698486328125
33.837646484375 26.6068115234375 8.80712890625
21.91357421875 -120.42333984375 2.0792236328125
-13.521484375 -3.675537109375 8.3406982421875
-63.964599609375 -28.2276611328125 4.5379638671875
-73.324462890625 -1.1300048828125 4.93798828125
47.998291015625 -42.82666015625 -22.2044677734375
44.999755859375 20.57763671875 -13.9224853515625
46.1787109375 83.9417724609375 24.072265625
46.796875 42.7042236328125 4.3931884765625
25.271240234375 53.31787109375 17.141357421875
10.59765625 63.1492919921875 29.3594970703125
-49.935302734375 -103.978515625 -2.5611572265625
51.43994140625 36.1949462890625 -8.171875
-5.946533203125 -17.96240234375 8.6922607421875
67.034423828125 -88.8973388671875 -0.8126220703125
-14.7294921875 -63.41455078125 1.7548828125
-31.707275390625 -68.029541015625 1.6429443359375
22.630126953125 2.182861328125 7.8905029296875
43.955078125 -19.431396484375 7.275634765625
-60.078125 -95.8641357421875 7.7015380859375
49.17041015625 79.5107421875 10.90185546875
50.42431640625 9.535888671875 7.4888916015625
-0.07177734375 56.081787109375 22.6126708984375
50.304443359375 31.3427734375 7.45263671875
31.98828125 3.67578125 7.9493408203125
-38.590087890625 -43.9190673828125 2.202392578125
30.30126953125 62.295654296875 26.455810546875
44.748291015625 -0.008056640625 7.9967041015625
-1.58837890625 -30.122802734375 6.818359375
-40.1953125 -74.702880859375 5.0257568359375
2.5810546875 -27.815673828125 7.8895263671875
39.0302734375 47.55029296875 11.9962158203125
-6.9775390625 12.1065673828125 8.5732421875
36.263916015625 -10.7626953125 9.375244140625
40.168701171875 89.0516357421875 31.742431640625
-50.21923828125 -24.4674072265625 4.9747314453125
13.239990234375 33.3734130859375 8.4832763671875
20.1962890625 -89.529052734375 2.6353759765625
37.609130859375 -83.283447265625 0.2862548828125
67.44677734375 -105.5792236328125 -0.4835205078125
54.287353515625 8.3453369140625 7.53662109375
41.167724609375 73.5272216796875 18.330810546875
-12.013671875 18.0391845703125 8.759765625
77.448974609375 8.9990234375 -4.6636962890625
-82.97900390625 19.180419921875 4.4420166015625
1.788330078125 49.103515625 15.203369140625
-64.6328125 -18.2374267578125 5.9637451171875
-26.089111328125 -59.6441650390625 10.4814453125
47.2236328125 -30.3836669921875 -21.5240478515625
56.578369140625 10.15087890625 -16.5478515625
50.41064453125 -87.6873779296875 -0.151611328125
38.132080078125 66.071044921875 26.6236572265625
37.38232421875 52.6219482421875 16.270751953125
-8.483642578125 60.9315185546875 28.3145751953125
27.0263671875 -114.123291015625 -0.1446533203125
73.83056640625 -111.318603515625 5.4376220703125
15.894287109375 -29.595947265625 7.2137451171875
49.4130859375 -75.040771484375 -18.7784423828125
-9.9501953125 30.034423828125 9.2332763671875
-32.16015625 -74.18115234375 2.0523681640625
43.12158203125 -63.1878662109375 0.998779296875
-54.051513671875 -79.8858642578125 11.4085693359375
23.677734375 -71.4852294921875 0.3070068359375
28.286865234375 -83.273681640625 1.412353515625
11.724609375 -94.17138671875 1.2685546875
57.829833984375 19.8289794921875 -13.656005859375
-33.5166015625 -89.9649658203125 7.3546142578125
44.262451171875 -95.94189453125 0.2784423828125
29.44677734375 -2.1151123046875 7.7452392578125
55.840576171875 13.78857421875 -16.142578125
-37.802978515625 -38.91650390625 3.1536865234375
34.831298828125 32.186279296875 8.0247802734375
24.941162109375 -81.955322265625 0.7847900390625
53.869873046875 19.4825439453125 -15.125
-18.14697265625 -57.307861328125 2.45947265625
35.043212890625 -55.742919921875 1.2510986328125
15.50634765625 -14.5169677734375 8.16796875
-14.234375 60.6278076171875 28.4315185546875
21.4384765625 -114.9820556640625 1.381591796875
32.243896484375 -37.0076904296875 2.934326171875
44.91796875 47.7215576171875 4.751220703125
44.88134765625 4.940673828125 -17.23681640625
18.681640625 -59.564208984375 1.5216064453125
-43.7607421875 -88.61328125 4.8170166015625
27.78173828125 -119.9857177734375 -0.4140625
46.9892578125 39.52783203125 -7.805908203125
42.83740234375 -39.4024658203125 2.0657958984375
40.51416015625 -89.92333984375 0.33056640625
-27.09423828125 -55.2821044921875 6.559326171875
-47.447998046875 -50.4781494140625 2.9559326171875
-14.077392578125 -57.4114990234375 -1.070068359375
8.789306640625 -48.2650146484375 1.9769287109375
20.494140625 -65.125732421875 0.9937744140625
10.16650390625 50.5147705078125 16.1246337890625
-9.5732421875 -6.8411865234375 9.47509765625
-53.505126953125 -41.302734375 3.4906005859375
-4.170166015625 -50.5845947265625 0.8106689453125
12.939697265625 38.993896484375 8.67529296875
63.896728515625 -105.6202392578125 -3.824462890625
34.489013671875 -19.8663330078125 7.3438720703125
27.40673828125 46.097412109375 10.59814453125
59.0947265625 42.0699462890625 -7.9334716796875
12.230224609375 55.3399658203125 21.8404541015625
12.40478515625 27.4456787109375 8.5107421875
-60.4697265625 -34.2701416015625 3.4884033203125
16.67236328125 1.0838623046875 8.012939453125
45.0869140625 12.5855712890625 7.8369140625
-68.274169921875 24.826416015625 3.2635498046875
-8.635986328125 -27.703369140625 7.9058837890625
-65.33154296875 -98.0556640625 11.883056640625
-56.673583984375 -90.2119140625 -4.75439453125
-45.199462890625 -60.379638671875 2.762451171875
63.44677734375 -87.5185546875 0.808349609375
-31.96630859375 -63.970947265625 0.97998046875
-13.987060546875 -21.235107421875 8.57958984375
36.24169921875 -0.3673095703125 7.53076171875
-2.319091796875 26.8209228515625 8.6551513671875
-38.38134765625 -51.5504150390625 2.8116455078125
54.256103515625 4.3001708984375 -16.80615234375
-14.055908203125 -67.3984375 -3.243896484375
37.99853515625 -102.4508056640625 0.567138671875
-4.10791015625 31.0147705078125 8.862548828125
-16.41845703125 -50.9287109375 -0.717529296875
43.571533203125 36.6165771484375 8.073974609375
24.732666015625 -26.5831298828125 8.181396484375
30.036865234375 -30.0006103515625 6.7459716796875
-44.4970703125 -41.2451171875 2.7889404296875
-73.901611328125 5.2359619140625 4.8394775390625
43.839599609375 -25.7060546875 7.6297607421875
32.62548828125 -65.521484375 -5.6141357421875
24.0126953125 42.0740966796875 8.6705322265625
12.59814453125 -23.7127685546875 8.09033203125
-56.40234375 -84.567626953125 8.1954345703125
17.060791015625 50.77978515625 16.5657958984375
39.340087890625 -65.2410888671875 -0.771240234375
36.799072265625 60.039794921875 16.152587890625
59.054443359375 13.0926513671875 6.7777099609375
-44.30078125 -78.1646728515625 12.837890625
32.107666015625 -86.19921875 0.2261962890625
23.580322265625 -78.7203369140625 0.7608642578125
-1.131103515625 36.9346923828125 10.2596435546875
21.51513671875 -110.17431640625 0.5250244140625
31.021728515625 -68.37939453125 -6.4781494140625
32.1328125 -4.1551513671875 7.6561279296875
-14.360107421875 11.111328125 9.43798828125
-27.27685546875 -63.533203125 -4.25927734375
47.830322265625 -47.30126953125 -20.620849609375
-36.316162109375 -83.5823974609375 7.3043212890625
44.35888671875 49.56982421875 13.4437255859375
4.452392578125 -0.039306640625 8.3590087890625
51.912353515625 -77.2069091796875 0.2716064453125
-22.886474609375 -59.8975830078125 -4.2423095703125
30.705322265625 45.453369140625 10.4661865234375
-89.952392578125 17.6322021484375 5.0341796875
46.935546875 -36.2027587890625 -16.3856201171875
25.570068359375 50.5928955078125 15.2049560546875
50.208984375 -99.009521484375 -16.435546875
-5.595703125 -63.4854736328125 -10.06201171875
50.32568359375 24.955810546875 -12.22119140625
44.53076171875 13.103759765625 -15.347900390625
4.04345703125 19.0550537109375 8.546142578125
42.943359375 -12.23828125 7.15673828125
57.073974609375 -106.3809814453125 -1.8138427734375
10.99365234375 -67.0543212890625 1.3133544921875
55.766845703125 -33.363037109375 -20.2845458984375
51.19384765625 30.8170166015625 -10.002197265625
80.21875 -4.60595703125 -5.6123046875
-47.846923828125 -85.399658203125 2.017578125
55.49853515625 75.055908203125 -0.06689453125
-15.466796875 -0.304931640625 9.5748291015625
40.30517578125 30.761962890625 7.83447265625
17.7900390625 41.3690185546875 8.85791015625
35.40869140625 20.8758544921875 10.831298828125
-11.434814453125 -42.171630859375 3.373291015625
56.550048828125 51.9735107421875 -4.7449951171875
40.677734375 62.5950927734375 4.224853515625
16.760986328125 -44.065185546875 1.6754150390625
25.4580078125 -21.5125732421875 7.71923828125
37.416748046875 69.41943359375 11.8951416015625
-10.50927734375 -32.074951171875 6.04833984375
-0.88671875 15.3250732421875 8.4984130859375
29.134033203125 -39.8759765625 1.625732421875
-71.990478515625 22.177490234375 3.2808837890625
17.533447265625 63.6478271484375 29.423095703125
-11.5810546875 -0.81884765625 8.8631591796875
38.00537109375 70.7664794921875 21.69921875
