42.552734375 36.8277587890625 7.178466796875
37.786865234375 -62.1597900390625 2.4573974609375
35.478271484375 56.3189697265625 6.839599609375
21.51953125 -27.15625 2.971435546875
56.45947265625 -93.262451171875 -26.701904296875
40.398681640625 -22.02880859375 2.3914794921875
16.328125 -80.470703125 2.2745361328125
-3.286865234375 -7.8568115234375 9.1343994140625
-17.009521484375 12.5311279296875 9.2913818359375
52.850341796875 7.5115966796875 -23.3328857421875
-38.877197265625 -25.398681640625 4.09619140625
62.857421875 -83.73486328125 0.2626953125
31.056396484375 31.907470703125 7.7672119140625
60.284423828125 -51.1214599609375 -21.0123291015625
17.1591796875 16.023193359375 8.228515625
45.60400390625 1.5606689453125 -23.82763671875
89.88818359375 -59.0010986328125 -5.9449462890625
11.08349609375 -13.094970703125 6.408935546875
-53.809326171875 -6.7530517578125 5.7249755859375
53.119873046875 22.5308837890625 7.5386962890625
34.663818359375 -84.2506103515625 2.4114990234375
20.939697265625 -64.134765625 3.0926513671875
-46.125732421875 -68.7867431640625 9.780517578125
55.04345703125 -114.937744140625 -11.1925048828125
51.609619140625 57.4173583984375 -15.15576171875
-15.69384765625 -44.410888671875 3.2080078125
30.82177734375 54.56640625 7.6556396484375
50.93408203125 -101.1376953125 -25.11572265625
-66.01123046875 21.6014404296875 2.6875
97.169189453125 -69.304443359375 -12.5966796875
31.908935546875 -56.3328857421875 2.4677734375
8.406982421875 28.89208984375 8.4656982421875
24.265625 -57.9251708984375 2.74755859375
95.519287109375 -76.9039306640625 -4.3013916015625
94.107666015625 -68.680908203125 -3.454833984375
55.237548828125 -59.469970703125 -20.7081298828125
45.389404296875 84.9068603515625 3.65771484375
39.655029296875 2.701171875 8.009765625
-5.364990234375 -46.0260009765625 -5.183349609375
71.168212890625 -54.3275146484375 0.9188232421875
21.319580078125 81.7313232421875 12.8487548828125
-86.421875 38.9185791015625 2.2645263671875
-8.37158203125 -15.4195556640625 6.2332763671875
44.63330078125 -57.6978759765625 2.1942138671875
14.012451171875 71.609375 16.27783203125
55.322998046875 -110.8804931640625 -9.0733642578125
22.115234375 61.94921875 7.750732421875
59.0224609375 -30.033203125 -22.2890625
17.049560546875 65.6661376953125 9.6031494140625
47.6962890625 -98.0767822265625 -15.9368896484375
19.964111328125 56.4271240234375 7.3690185546875
37.517333984375 -70.99267578125 1.61669921875
-5.842041015625 18.9735107421875 9.0352783203125
53.60888671875 -67.220703125 -14.44482421875
46.74462890625 -88.967041015625 -13.2294921875
29.548583984375 83.3253173828125 10.443115234375
-44.59130859375 -75.8836669921875 -0.4390869140625
36.88427734375 50.7154541015625 -9.919921875
52.880126953125 -33.3807373046875 -16.5802001953125
-75.42333984375 11.5806884765625 4.8929443359375
28.542236328125 28.50927734375 7.84716796875
48.5634765625 50.0255126953125 6.436767578125
-55.5693359375 -85.639404296875 10.52734375
-58.259521484375 -78.04736328125 -0.773193359375
32.293212890625 65.3414306640625 8.4332275390625
-10.6337890625 40.0665283203125 8.8870849609375
54.635986328125 -90.4351806640625 7.9207763671875
57.27294921875 -93.9530029296875 8.960693359375
-48.968017578125 -82.5650634765625 -1.4468994140625
49.282470703125 -14.9412841796875 3.1787109375
-12.791259765625 -54.3458251953125 4.27880859375
58.514404296875 -10.35400390625 -25.2371826171875
67.9931640625 -84.1260986328125 -15.3934326171875
66.716796875 -110.08642578125 -16.593505859375
28.811279296875 -68.8597412109375 2.5626220703125
-89.943603515625 30.063232421875 2.983154296875
18.68408203125 -98.376708984375 2.74169921875
-9.377197265625 -6.133056640625 9.8082275390625
-10.838623046875 -58.8330078125 3.90966796875
46.379150390625 25.8040771484375 -23.510498046875
-12.80810546875 -50.6917724609375 -5.984375
43.551025390625 -65.6695556640625 1.932861328125
60.74169921875 -115.717529296875 10.3599853515625
-32.666015625 -55.104736328125 4.5904541015625
24.309814453125 -90.9281005859375 2.5543212890625
6.330810546875 71.532470703125 16.3055419921875
30.572998046875 -46.0538330078125 -1.5042724609375
32.013671875 -31.853515625 2.7147216796875
38.77587890625 35.1995849609375 7.0821533203125
50.258544921875 52.6688232421875 -15.364013671875
52.642333984375 -44.18701171875 -21.22314453125
55.869873046875 -86.3853759765625 -26.5516357421875
-2.668701171875 49.897216796875 8.4027099609375
95.464111328125 -78.6041259765625 -0.567138671875
42.004150390625 20.6922607421875 -22.1451416015625
56.83642578125 -106.8968505859375 -17.4530029296875
60.355224609375 -95.3214111328125 -26.99072265625
-22.193359375 -45.9927978515625 -3.601806640625
-8.37841796875 -46.4207763671875 -0.704345703125
62.19189453125 -107.0701904296875 -15.5517578125
33.43994140625 -21.73681640625 2.325439453125
17.228759765625 77.1009521484375 18.0218505859375
56.470703125 -114.1947021484375 9.7061767578125
48.5009765625 -87.78271484375 -7.655517578125
-6.056640625 1.6190185546875 9.768798828125
46.92822265625 13.81103515625 -25.0977783203125
54.78466796875 -101.5216064453125 -26.8416748046875
40.396240234375 -58.4747314453125 2.40966796875
90.320556640625 -70.2012939453125 -14.733154296875
41.945556640625 28.884765625 -22.0665283203125
95.947265625 -54.72705078125 -10.5789794921875
-53.8857421875 -65.7821044921875 11.71728515625
-28.00634765625 -45.1697998046875 -3.4832763671875
-62.92333984375 -14.8062744140625 5.03271484375
-6.689208984375 -58.11962890625 3.4832763671875
64.385986328125 -61.957275390625 -19.7440185546875
43.415283203125 -84.9642333984375 4.7967529296875
52.96533203125 -49.7159423828125 -15.6607666015625
97.87841796875 -78.814697265625 -13.44677734375
43.595947265625 17.653076171875 7.572998046875
98.60791015625 -64.50634765625 -11.3338623046875
-20.65869140625 79.189697265625 28.4627685546875
-50.525634765625 -89.72021484375 7.77197265625
-39.392822265625 -17.5546875 3.681640625
-20.853759765625 -43.431884765625 1.814697265625
32.138916015625 86.8541259765625 0.949462890625
63.248291015625 6.98681640625 11.173095703125
90.954833984375 -65.12744140625 -9.5833740234375
44.456787109375 42.7529296875 -19.37548828125
103.6865234375 -98.2369384765625 -17.43115234375
49.306640625 19.658935546875 6.8494873046875
46.880615234375 17.059326171875 3.35595703125
-9.079345703125 78.3323974609375 25.5347900390625
-25.99072265625 -42.734130859375 1.9462890625
-5.132080078125 60.5404052734375 28.5865478515625
38.958984375 -107.219482421875 9.3614501953125
27.125244140625 -67.543212890625 6.3173828125
53.229736328125 -55.6737060546875 -20.14990234375
-44.858154296875 -69.3033447265625 -2.2955322265625
-40.0048828125 -44.498291015625 4.4739990234375
37.659423828125 77.6915283203125 5.704345703125
43.190185546875 43.7469482421875 8.6756591796875
43.959228515625 13.81103515625 2.1622314453125
37.70263671875 61.943359375 7.2271728515625
49.939453125 -25.1097412109375 1.2520751953125
50.7021484375 -14.012451171875 -25.3336181640625
46.3291015625 -10.7529296875 -20.701416015625
53.528076171875 -100.3619384765625 -2.9727783203125
-16.668212890625 -19.9361572265625 5.724365234375
34.023681640625 10.15625 8.3104248046875
-0.3515625 12.7193603515625 9.1351318359375
52.4833984375 32.5142822265625 6.7603759765625
-29.979248046875 -61.810302734375 4.7591552734375
4.907958984375 5.1463623046875 8.9056396484375
-85.601318359375 24.103271484375 4.0762939453125
44.673583984375 -0.74462890625 7.515869140625
17.3037109375 -92.292724609375 2.6925048828125
-98.2861328125 32.58203125 3.88818359375
0.113037109375 25.0042724609375 8.7718505859375
55.5380859375 -46.7332763671875 1.3192138671875
9.599853515625 37.3677978515625 8.3790283203125
22.324462890625 73.448974609375 15.6622314453125
-9.5771484375 -52.6466064453125 -0.4918212890625
-28.8818359375 -31.128173828125 4.0750732421875
91.253662109375 -42.7781982421875 -10.3919677734375
36.551513671875 77.0347900390625 1.718994140625
50.943359375 27.96826171875 -21.4390869140625
58.077392578125 -81.76416015625 5.96826171875
-6.781494140625 -28.512451171875 2.3199462890625
-46.68017578125 -70.783447265625 2.3218994140625
23.103271484375 30.055419921875 7.7470703125
52.426513671875 -21.331298828125 -24.7940673828125
-23.0888671875 -32.6611328125 3.9261474609375
-27.234619140625 -39.255126953125 4.3294677734375
-51.535888671875 -72.8253173828125 6.4276123046875
-9.660888671875 7.0726318359375 12.1019287109375
64.62939453125 -44.6663818359375 -22.4686279296875
52.7080078125 -93.8287353515625 -24.97607421875
47.103759765625 88.4451904296875 3.50830078125
53.7001953125 -81.99365234375 6.218994140625
18.936767578125 34.1153564453125 7.650634765625
29.964111328125 -96.95654296875 2.444580078125
37.51123046875 -101.6859130859375 2.6390380859375
55.4384765625 41.0322265625 5.6453857421875
28.856201171875 -10.450439453125 6.84716796875
66.07421875 27.4346923828125 11.3343505859375
44.8466796875 7.3485107421875 -24.3836669921875
-26.2314453125 -51.7059326171875 -0.958984375
51.8388671875 -54.1431884765625 2.035400390625
23.38427734375 3.0096435546875 8.133544921875
-39.453125 -83.1937255859375 0.2164306640625
-3.058837890625 65.1571044921875 16.5714111328125
-20.063720703125 -53.2884521484375 0.181884765625
50.87646484375 68.3348388671875 -9.6292724609375
31.0830078125 -1.9652099609375 8.00146484375
16.093505859375 56.862060546875 7.7332763671875
-36.6982421875 -68.0899658203125 10.4202880859375
47.378662109375 -18.1214599609375 -22.12890625
16.334716796875 41.95068359375 7.362060546875
52.69384765625 52.72705078125 5.184326171875
62.314208984375 -84.12744140625 7.06640625
98.724853515625 -88.07421875 -4.2449951171875
-8.5322265625 73.7734375 25.124267578125
44.81591796875 73.15087890625 10.37841796875
-35.438720703125 -54.5311279296875 14.538818359375
-71.605224609375 27.2813720703125 2.7158203125
15.55908203125 -23.463134765625 3.1282958984375
-21.160400390625 -56.2451171875 3.31396484375
34.5693359375 92.9964599609375 -1.076904296875
-5.6591796875 -39.0799560546875 -5.9522705078125
50.61865234375 -86.602294921875 -23.164306640625
21.96240234375 10.9554443359375 8.2001953125
-36.05615234375 -89.0198974609375 -2.609619140625
-47.89697265625 -63.0384521484375 11.286865234375
44.271728515625 -69.472412109375 2.160400390625
8.356689453125 25.0350341796875 8.6827392578125
65.470703125 -59.2557373046875 1.6707763671875
-4.35546875 74.071044921875 20.972900390625
48.85400390625 -81.1507568359375 3.9786376953125
46.1005859375 -33.3492431640625 1.7659912109375
-8.75439453125 -32.312744140625 -6.2548828125
-18.18505859375 48.102294921875 8.73388671875
71.078857421875 6.0233154296875 14.8087158203125
41.781494140625 77.3870849609375 12.316650390625
49.413818359375 -103.8599853515625 -8.233154296875
-33.551025390625 -42.8740234375 6.2730712890625
90.333740234375 -60.2884521484375 -9.599609375
-10.64404296875 52.4932861328125 8.704345703125
46.197265625 62.28466796875 -10.0618896484375
-35.808349609375 -50.8570556640625 4.3873291015625
42.752197265625 -12.756103515625 4.7332763671875
-35.5361328125 -57.2646484375 7.3427734375
32.525634765625 1.8697509765625 8.2445068359375
47.2529296875 -90.5543212890625 -16.72900390625
-62.643798828125 -25.185302734375 5.6287841796875
20.990966796875 -7.318115234375 8.311279296875
6.5791015625 -6.981689453125 8.783203125
50.080810546875 37.4815673828125 7.090576171875
23.663330078125 -46.8250732421875 3.1124267578125
41.422607421875 -78.1318359375 2.2364501953125
36.041259765625 24.25048828125 7.556884765625
26.593505859375 -5.597900390625 8.246826171875
-35.985595703125 -31.4512939453125 3.9903564453125
7.322509765625 85.2686767578125 29.3619384765625
13.812255859375 30.8583984375 7.876220703125
-68.91064453125 14.2723388671875 4.240478515625
18.49951171875 6.796875 8.557861328125
38.036865234375 66.11083984375 -2.7855224609375
-56.2900390625 7.919921875 4.0595703125
8.243408203125 0.1669921875 8.9534912109375
42.32080078125 73.22314453125 -5.59619140625
66.190185546875 -67.7264404296875 1.52099609375
65.145751953125 2.9840087890625 12.731689453125
44.676513671875 56.2275390625 6.882080078125
42.928466796875 67.57177734375 8.10888671875
14.065185546875 -4.1697998046875 8.751220703125
22.780517578125 -66.9864501953125 4.786376953125
9.5390625 55.6290283203125 8.058837890625
54.237060546875 -7.1019287109375 -23.573974609375
47.294677734375 51.0892333984375 9.940185546875
39.446533203125 -34.02734375 2.4539794921875
30.7568359375 -101.699462890625 2.677001953125
32.911376953125 -45.3740234375 -4.60400390625
13.09130859375 -82.6795654296875 2.9332275390625
16.480712890625 -59.41064453125 2.826416015625
-14.655517578125 -36.587158203125 8.289306640625
38.252197265625 61.748291015625 -8.166259765625
13.63671875 -62.015869140625 2.6700439453125
94.777587890625 -84.3375244140625 -0.3291015625
34.235107421875 -39.9322509765625 -1.13037109375
100.576904296875 -88.2491455078125 -14.164794921875
41.29248046875 65.2777099609375 -9.477294921875
-42.406982421875 -62.3341064453125 13.4136962890625
44.557861328125 -81.261474609375 3.6832275390625
-58.220458984375 19.2550048828125 2.1416015625
3.92578125 36.7210693359375 8.283935546875
-35.481201171875 -61.7999267578125 9.2049560546875
-13.167236328125 19.38134765625 9.12890625
42.14501953125 43.216064453125 -9.534912109375
38.41015625 -87.713623046875 2.6639404296875
26.07763671875 22.961669921875 7.79638671875
28.546630859375 -21.7855224609375 3.107421875
40.186279296875 54.52197265625 6.825439453125
57.251708984375 -86.7490234375 -11.362060546875
-81.993408203125 18.120849609375 4.9647216796875
31.66259765625 17.425048828125 7.6810302734375
63.986083984375 -81.97900390625 -17.821044921875
38.51318359375 44.310302734375 -6.1798095703125
48.011962890625 -119.5711669921875 8.3233642578125
-69.673583984375 22.1578369140625 3.068603515625
3.818603515625 -18.0784912109375 4.2965087890625
65.082275390625 -49.888916015625 1.56298828125
-2.40576171875 66.5465087890625 20.9188232421875
6.57177734375 -60.705810546875 3.882568359375
-84.321044921875 33.3411865234375 4.8282470703125
-46.591552734375 -3.961181640625 3.7750244140625
-60.65283203125 -81.4835205078125 11.0604248046875
-30.279541015625 -37.1474609375 4.09619140625
-58.104248046875 -19.1729736328125 4.2982177734375
-30.80859375 -69.8455810546875 9.9052734375
-54.02978515625 -84.8846435546875 2.4232177734375
-53.724853515625 -78.9453125 4.6531982421875
-19.515625 51.0379638671875 13.111083984375
55.3818359375 11.9949951171875 -25.4822998046875
29.15283203125 82.2347412109375 6.37451171875
-58.472412109375 -91.085205078125 11.8551025390625
-15.375244140625 55.0145263671875 8.8287353515625
-16.27001953125 -9.4595947265625 11.0054931640625
-10.0576171875 84.2659912109375 31.6337890625
-82.482421875 30.785888671875 6.85107421875
-12.1767578125 81.4122314453125 29.1566162109375
68.15234375 3.687255859375 16.5255126953125
3.76123046875 8.6566162109375 8.8123779296875
-19.869873046875 21.874755859375 8.707763671875
-4.756591796875 22.748291015625 8.5587158203125
-51.053466796875 6.038818359375 3.2615966796875
51.733642578125 -97.529541015625 -23.7943115234375
-3.26513671875 56.44921875 9.98388671875
45.55419921875 -7.355224609375 -22.491455078125
16.63330078125 -9.8798828125 7.578857421875
14.0146484375 17.878173828125 8.6905517578125
30.741455078125 76.0008544921875 10.7652587890625
57.007080078125 35.5384521484375 6.30419921875
58.179443359375 18.7032470703125 -24.2275390625
22.7451171875 -97.922607421875 3.0704345703125
3.79931640625 80.237548828125 26.232177734375
36.2265625 -35.9259033203125 2.7305908203125
-9.937744140625 33.8038330078125 8.9920654296875
32.961181640625 49.7886962890625 7.2354736328125
-49.81005859375 -76.291015625 -3.2894287109375
55.052734375 -85.952880859375 -2.489501953125
3.90576171875 22.68603515625 8.8572998046875
1.739501953125 29.1575927734375 8.724365234375
-56.5400390625 -77.7266845703125 10.7169189453125
-43.8837890625 -31.2960205078125 4.2054443359375
-21.315673828125 -26.6766357421875 4.18505859375
10.2236328125 -17.03369140625 4.4150390625
11.84228515625 -25.187744140625 2.9091796875
-60.6845703125 -76.11474609375 16.1812744140625
-15.492431640625 27.8240966796875 8.93115234375
-5.7880859375 -3.4608154296875 9.6224365234375
-4.32177734375 56.764404296875 22.4788818359375
45.0615234375 -1.05615234375 -20.2738037109375
19.727294921875 -78.520751953125 2.77880859375
51.317138671875 44.2557373046875 -18.923095703125
101.629150390625 -78.3916015625 -13.845703125
-60.702392578125 -11.9820556640625 5.61279296875
-30.093017578125 -48.5487060546875 2.9417724609375
25.7861328125 52.9019775390625 7.633056640625
3.907470703125 -27.34619140625 3.17236328125
24.195556640625 36.1116943359375 7.38427734375
45.50927734375 53.5621337890625 -14.7901611328125
-43.862548828125 -48.1387939453125 7.2786865234375
-50.9052734375 -10.1748046875 5.393798828125
50.099853515625 -63.454345703125 1.774169921875
57.0 -14.0325927734375 -23.3818359375
11.089111328125 6.8443603515625 8.9090576171875
-11.20703125 25.949951171875 9.0250244140625
18.600341796875 -73.0186767578125 2.8804931640625
41.786376953125 -26.1448974609375 1.984130859375
29.204833984375 -72.4063720703125 2.048095703125
61.06201171875 -92.53515625 10.0462646484375
3.733642578125 -11.320556640625 7.90576171875
-44.5830078125 -39.794677734375 4.608642578125
-77.770751953125 36.3802490234375 1.8739013671875
-4.07861328125 78.4432373046875 25.2548828125
30.126708984375 -84.000732421875 2.9600830078125
-50.0859375 -72.4058837890625 1.41064453125
101.572998046875 -97.922607421875 -10.446044921875
28.046875 -29.6192626953125 2.711669921875
0.188720703125 -55.7703857421875 3.638427734375
1.405029296875 3.2255859375 9.283447265625
-2.140380859375 63.915283203125 10.326416015625
-36.646484375 -76.98095703125 -2.2698974609375
-47.096923828125 -91.499755859375 5.3150634765625
43.174560546875 14.4061279296875 -20.8404541015625
-1.930419921875 63.4820556640625 22.693115234375
-72.1845703125 -1.364013671875 7.4755859375
-36.30517578125 -55.69384765625 10.519287109375
38.74365234375 90.1099853515625 -0.507568359375
16.98828125 82.7454833984375 24.720458984375
68.348876953125 -56.39697265625 1.6259765625
41.460693359375 -4.986328125 7.6441650390625
-15.8076171875 6.62060546875 9.31103515625
-11.39599609375 -47.910400390625 0.5355224609375
22.18310546875 -55.01220703125 3.0499267578125
34.86083984375 -103.72021484375 3.869140625
8.5576171875 4.0147705078125 8.9317626953125
22.388671875 41.3394775390625 7.512451171875
37.23583984375 -91.0220947265625 2.1268310546875
9.5986328125 76.7904052734375 21.330078125
62.94775390625 -83.597900390625 -26.53857421875
-38.640869140625 -60.29541015625 14.641845703125
38.0927734375 83.5325927734375 1.694580078125
0.469482421875 -19.7801513671875 3.74853515625
67.365234375 -85.4189453125 -19.6397705078125
58.814208984375 -114.9898681640625 -16.227294921875
57.029541015625 -87.2562255859375 -6.6865234375
-49.408935546875 -30.598876953125 4.2642822265625
46.392822265625 39.2879638671875 -19.9178466796875
43.620849609375 49.378173828125 9.933349609375
30.38916015625 -87.64306640625 2.8858642578125
95.819091796875 -75.985595703125 -13.9517822265625
53.923583984375 -50.948974609375 -21.9542236328125
25.60986328125 18.580078125 8.2083740234375
32.61572265625 -48.9757080078125 0.8140869140625
-55.447509765625 -15.1826171875 4.7900390625
-4.142578125 -18.5616455078125 4.5316162109375
-92.25830078125 35.7098388671875 3.20751953125
66.944580078125 -52.9163818359375 1.492919921875
-51.766357421875 -14.00439453125 4.921142578125
0.441162109375 -0.542236328125 9.3402099609375
62.088623046875 -37.0274658203125 -22.96484375
8.919677734375 17.3292236328125 8.556640625
46.84130859375 -84.8240966796875 5.5919189453125
55.653076171875 -43.403076171875 -22.8685302734375
62.701171875 -2.526123046875 13.9571533203125
16.586181640625 -30.5030517578125 2.845703125
36.666748046875 12.7161865234375 7.695068359375
41.20458984375 26.077880859375 -19.7039794921875
90.303955078125 -55.8055419921875 -8.1778564453125
-2.2900390625 68.187744140625 28.1439208984375
102.36279296875 -93.7696533203125 -12.3968505859375
47.3623046875 67.302978515625 -7.3511962890625
-2.2109375 58.855712890625 16.79248046875
44.255126953125 33.9749755859375 -22.216064453125
-76.901611328125 26.818359375 2.5311279296875
13.098876953125 9.7735595703125 8.491455078125
24.41162109375 -79.2652587890625 2.3885498046875
103.126953125 -86.4345703125 -15.7513427734375
57.86376953125 -74.9373779296875 -20.18701171875
28.428955078125 59.800048828125 7.3863525390625
51.13720703125 -10.53857421875 -25.3017578125
39.899658203125 50.4881591796875 7.9307861328125
-5.492431640625 67.6622314453125 16.43310546875
53.723876953125 42.1671142578125 -20.6202392578125
8.377685546875 -22.2581787109375 3.1885986328125
48.83544921875 -20.98388671875 -1.3572998046875
41.3212890625 48.5950927734375 -16.3795166015625
-77.689697265625 31.392578125 6.1673583984375
13.222412109375 66.4447021484375 10.5274658203125
59.41748046875 28.6268310546875 6.88818359375
-20.6064453125 54.545654296875 10.3843994140625
47.09765625 5.4310302734375 6.9620361328125
0.77490234375 49.4185791015625 8.3739013671875
60.197998046875 -85.7672119140625 3.25927734375
-49.062744140625 -38.4468994140625 5.0748291015625
-10.364501953125 12.7996826171875 10.3525390625
21.650634765625 -60.74365234375 3.3221435546875
39.359375 -51.8563232421875 1.6197509765625
97.09765625 -76.2647705078125 -8.790283203125
51.799560546875 -48.318603515625 -19.9974365234375
30.47021484375 40.6829833984375 7.4532470703125
97.391845703125 -81.9969482421875 -6.8394775390625
48.595458984375 -29.010986328125 1.1148681640625
15.425048828125 -97.2332763671875 2.55908203125
-2.979736328125 38.2047119140625 8.3865966796875
45.03466796875 14.482666015625 7.268798828125
35.599609375 -47.7919921875 -5.5609130859375
48.704345703125 73.7119140625 -5.4520263671875
-11.860595703125 -30.3017578125 4.0450439453125
90.114013671875 -52.105224609375 -10.1953125
101.287109375 -84.76171875 -1.2469482421875
-76.677734375 22.90087890625 3.487060546875
56.999755859375 -82.7257080078125 -19.22900390625
-17.3740234375 -35.5057373046875 -7.9012451171875
-25.71630859375 -60.290771484375 4.114990234375
17.91015625 74.6783447265625 15.6800537109375
38.100341796875 -19.1448974609375 2.598876953125
-4.813720703125 -43.1087646484375 -7.681884765625
18.61083984375 -36.9542236328125 3.3389892578125
-6.439453125 -37.8255615234375 -10.0736083984375
101.530517578125 -100.28564453125 -15.068359375
87.458984375 -37.09521484375 -10.6978759765625
40.7998046875 34.52783203125 -17.7919921875
4.166259765625 73.0655517578125 18.4832763671875
29.103515625 46.1416015625 10.0743408203125
9.9638671875 73.18701171875 17.5982666015625
47.1826171875 -93.93505859375 -11.7022705078125
-39.568359375 -76.822021484375 -0.49267578125
-63.297119140625 9.6007080078125 4.26025390625
3.78125 52.735107421875 8.262451171875
39.128662109375 49.6036376953125 -7.4483642578125
35.118896484375 -67.689697265625 2.86083984375
34.956298828125 -29.0162353515625 2.3336181640625
16.7470703125 47.90869140625 7.5670166015625
19.2822265625 -2.8231201171875 8.4451904296875
19.51904296875 -50.6005859375 5.1776123046875
18.830810546875 68.91455078125 12.2149658203125
42.728515625 -41.115478515625 2.080322265625
-23.399169921875 -36.3721923828125 3.9459228515625
19.7578125 84.7913818359375 19.397705078125
30.03662109375 -35.1629638671875 2.6666259765625
7.623779296875 42.9471435546875 8.352294921875
18.978759765625 -14.5538330078125 5.229248046875
98.895263671875 -81.6876220703125 -11.945556640625
-8.812744140625 -29.0968017578125 -0.3392333984375
-54.0859375 -37.40576171875 7.6121826171875
23.29345703125 -33.474853515625 2.737060546875
50.49609375 -85.58251953125 -17.370361328125
37.3603515625 -97.7916259765625 1.720458984375
51.703125 63.7484130859375 -12.546875
91.01708984375 -65.15869140625 -14.450927734375
-39.698486328125 -88.3912353515625 -0.340087890625
61.3212890625 -63.7642822265625 -19.7369384765625
60.522216796875 -78.8741455078125 1.236572265625
48.8154296875 -25.995849609375 -20.7608642578125
1.134033203125 56.9273681640625 8.6558837890625
98.066650390625 -88.73095703125 -7.4906005859375
-76.86767578125 32.884033203125 2.45166015625
-15.69921875 81.7264404296875 29.51904296875
27.7822265625 66.1602783203125 8.9796142578125
29.146240234375 75.738525390625 14.9404296875
52.145751953125 46.489990234375 5.41650390625
29.037109375 89.2833251953125 21.2342529296875
-63.57763671875 -9.947265625 -27.96337890625
12.0810546875 -28.755615234375 3.36328125
-42.337158203125 -26.232421875 4.281982421875
-7.97265625 9.4044189453125 9.34619140625
50.1103515625 -101.559326171875 -4.8701171875
-59.6181640625 -13.89208984375 -25.06689453125
-101.090576171875 30.4892578125 4.1083984375
-18.167724609375 -58.53076171875 3.9625244140625
-16.923583984375 -37.8848876953125 5.3292236328125
54.973876953125 50.9886474609375 -17.08935546875
-14.9638671875 -24.3961181640625 3.6009521484375
-17.435546875 36.1492919921875 9.0189208984375
-38.618408203125 -47.55224609375 4.3759765625
98.423095703125 -78.97265625 1.3018798828125
-56.156005859375 -72.5318603515625 10.8651123046875
27.771728515625 81.2249755859375 17.019775390625
41.02734375 -70.2796630859375 1.98828125
-22.953857421875 82.2730712890625 31.600830078125
0.325439453125 -5.6630859375 9.422607421875
39.02880859375 43.9637451171875 7.370849609375
42.248779296875 40.24267578125 -19.4736328125
56.146728515625 -80.25537109375 2.5283203125
37.590087890625 -15.233154296875 3.6029052734375
-13.669189453125 1.8216552734375 9.6199951171875
52.515380859375 85.1387939453125 -15.0152587890625
19.6728515625 -40.5064697265625 2.792236328125
104.4677734375 -82.9202880859375 -15.2078857421875
-51.830078125 -2.8009033203125 4.58251953125
14.849853515625 24.34375 8.1790771484375
62.84521484375 -52.3565673828125 1.5087890625
-17.33984375 -30.8050537109375 6.0184326171875
-2.445556640625 17.5267333984375 8.9202880859375
-1.73095703125 59.0089111328125 20.388427734375
-70.3115234375 18.7149658203125 3.2958984375
40.31298828125 70.3209228515625 -7.6849365234375
-21.056884765625 -62.7205810546875 6.1307373046875
43.9736328125 93.4183349609375 -3.48291015625
57.851806640625 -70.6968994140625 -20.925048828125
55.620849609375 -37.1241455078125 -22.927490234375
49.495849609375 -91.395751953125 8.104248046875
50.7158203125 -24.3697509765625 -18.3564453125
14.42626953125 61.1136474609375 7.8663330078125
-18.8896484375 42.9547119140625 11.477783203125
44.131103515625 -27.3363037109375 -3.457763671875
39.333740234375 68.7825927734375 9.4166259765625
61.673583984375 -85.6585693359375 10.4224853515625
-4.185302734375 52.8304443359375 8.49462890625
31.662353515625 80.165283203125 5.8939208984375
-71.42529296875 7.017578125 5.1099853515625
54.482421875 -105.5703125 -15.16748046875
-6.112060546875 -22.390869140625 3.2691650390625
12.746337890625 -99.0457763671875 3.125
-14.323974609375 -11.82373046875 8.679931640625
22.458251953125 -104.00341796875 2.41943359375
52.883544921875 -17.411376953125 -24.7156982421875
34.154541015625 84.6534423828125 3.24072265625
30.71630859375 -17.1923828125 3.3944091796875
52.936279296875 -97.09375 -2.589599609375
87.69384765625 -44.74267578125 -10.057373046875
38.8154296875 40.2216796875 -13.5411376953125
102.046875 -73.147216796875 -11.5330810546875
30.84423828125 -51.7276611328125 2.57763671875
-68.286865234375 -3.095703125 6.2164306640625
23.080322265625 69.732666015625 13.275634765625
37.790771484375 -3.8157958984375 7.8262939453125
65.083740234375 -109.46826171875 -13.8363037109375
69.302978515625 -63.050048828125 -0.9857177734375
52.41455078125 -28.9300537109375 -24.3538818359375
5.08154296875 17.095703125 8.823486328125
-36.3115234375 -80.535888671875 -3.28076171875
45.01171875 11.258056640625 -24.4873046875
-12.86865234375 -31.36376953125 1.07666015625
54.45361328125 -91.8043212890625 -0.6011962890625
20.468994140625 -47.3255615234375 3.4219970703125
61.041748046875 -55.83642578125 1.6668701171875
-44.72900390625 -72.3409423828125 -3.4296875
11.85009765625 -53.9183349609375 2.98779296875
28.128173828125 16.3067626953125 7.7294921875
49.23486328125 -101.138671875 -17.795654296875
45.205322265625 -27.4403076171875 2.1207275390625
-2.02880859375 41.94873046875 8.330078125
43.611083984375 -47.2684326171875 -2.0802001953125
-100.52685546875 39.2926025390625 3.6910400390625
-6.681396484375 74.3302001953125 30.4527587890625
-59.685302734375 13.778564453125 3.06787109375
-10.764892578125 -62.115478515625 5.33642578125
44.20947265625 8.716064453125 7.344970703125
1.37255859375 81.8031005859375 27.6717529296875
101.953857421875 -66.7186279296875 -14.92138671875
-20.233154296875 74.718994140625 27.4381103515625
27.99560546875 7.0716552734375 8.035400390625
-16.597900390625 -61.9488525390625 4.9786376953125
-78.589599609375 29.47998046875 3.210205078125
-84.20654296875 36.1375732421875 3.0982666015625
-6.729248046875 79.973388671875 27.00732421875
-5.955322265625 -54.0352783203125 1.68505859375
-24.61572265625 -55.784912109375 3.7322998046875
-56.309326171875 -25.3583984375 4.4056396484375
-93.34765625 24.382080078125 5.50048828125
47.63916015625 85.9361572265625 1.5726318359375
58.544677734375 -85.82275390625 9.3370361328125
39.631103515625 18.762451171875 7.552490234375
52.44287109375 -1.1240234375 -24.2574462890625
17.973388671875 -101.7540283203125 2.5120849609375
53.143310546875 -102.0718994140625 -21.109619140625
40.386962890625 37.0181884765625 -12.2166748046875
31.8759765625 -60.4027099609375 2.6881103515625
53.079833984375 -104.8306884765625 -11.2154541015625
-50.178955078125 -71.1292724609375 8.771728515625
-35.56689453125 -63.2879638671875 6.3802490234375
-46.187744140625 -80.4139404296875 1.0452880859375
50.752685546875 -69.066650390625 1.8118896484375
-17.80419921875 -28.6829833984375 3.6873779296875
21.31103515625 -0.376953125 8.51123046875
56.12158203125 -63.2723388671875 -20.4254150390625
62.742431640625 -70.0322265625 1.76220703125
39.218994140625 5.860595703125 7.931396484375
28.601806640625 -42.7235107421875 3.77294921875
-31.252197265625 -46.2371826171875 4.779296875
-52.4443359375 -75.703369140625 5.450927734375
44.890625 59.847412109375 -12.144287109375
40.294677734375 45.84375 -14.18896484375
57.058837890625 -79.1268310546875 -12.5242919921875
14.496337890625 -17.3817138671875 3.845947265625
-51.5947265625 -80.981689453125 -2.5238037109375
14.964111328125 3.539306640625 8.905517578125
50.76318359375 -30.17724609375 -18.24609375
16.661865234375 -67.3951416015625 2.924560546875
94.552001953125 -77.7939453125 -11.0496826171875
47.92578125 11.21826171875 6.8856201171875
-1.46337890625 -48.39013671875 -9.18994140625
-44.221435546875 -85.6697998046875 0.7784423828125
-61.59765625 -17.6182861328125 4.460205078125
-10.84130859375 -10.1641845703125 9.4339599609375
-18.495361328125 4.8310546875 8.6246337890625
-3.810791015625 5.3375244140625 9.124267578125
15.600830078125 79.576416015625 19.1187744140625
52.715087890625 15.0391845703125 -23.8643798828125
-42.51318359375 -91.861572265625 -2.392578125
61.04296875 -112.8265380859375 -15.6688232421875
33.506591796875 52.863525390625 6.7840576171875
23.375732421875 -71.6787109375 3.2601318359375
44.174072265625 7.7332763671875 -20.18359375
46.320068359375 -16.0145263671875 3.204833984375
-4.575439453125 -48.92236328125 -8.4385986328125
-64.632568359375 -21.7103271484375 5.1409912109375
-12.68408203125 45.28564453125 11.3187255859375
53.16650390625 -24.5467529296875 -24.5682373046875
-41.85498046875 -70.2210693359375 -2.4573974609375
44.277587890625 30.5948486328125 6.8507080078125
4.34716796875 61.9222412109375 8.8203125
-16.974853515625 -6.676025390625 9.5716552734375
22.58837890625 -36.9501953125 -29.704833984375
33.248046875 62.3843994140625 7.300048828125
42.056640625 -117.1011962890625 9.22900390625
-19.232666015625 46.2066650390625 11.953369140625
26.025390625 48.9776611328125 8.0517578125
-62.545654296875 -28.2523193359375 4.9962158203125
38.343994140625 38.3016357421875 7.00537109375
40.48828125 37.6524658203125 -18.78173828125
10.05322265625 10.35595703125 8.913330078125
25.186279296875 -83.9298095703125 2.61865234375
64.16650390625 -92.7305908203125 10.517333984375
-27.678955078125 -64.03173828125 9.6917724609375
44.779541015625 -54.5997314453125 2.52587890625
-15.37646484375 -32.8021240234375 -8.235595703125
-54.065673828125 5.747314453125 4.277587890625
16.272216796875 -46.343017578125 3.6126708984375
-40.388427734375 -69.633056640625 5.08251953125
101.6787109375 -64.8988037109375 -11.664794921875
30.852783203125 -41.721435546875 -3.6571044921875
42.106689453125 -62.3267822265625 2.2490234375
32.984619140625 5.8055419921875 8.3232421875
-6.5322265625 12.7005615234375 9.11474609375
-63.589599609375 18.7015380859375 3.0771484375
-41.402099609375 -49.912841796875 8.1917724609375
54.051513671875 -95.9000244140625 9.8968505859375
-72.40087890625 32.746826171875 1.8681640625
16.707763671875 -39.7786865234375 3.336181640625
58.1865234375 -47.5709228515625 -21.561767578125
-5.572021484375 34.91015625 8.784912109375
-42.85595703125 -98.6575927734375 10.6146240234375
32.85546875 38.002197265625 7.3631591796875
-82.78466796875 22.815185546875 4.039306640625
43.06591796875 -33.537109375 2.3359375
-73.34130859375 13.7987060546875 4.3541259765625
46.5 -86.3133544921875 -14.7919921875
30.19970703125 88.3961181640625 3.3653564453125
56.92919921875 -78.3309326171875 -18.41015625
47.037109375 -97.0196533203125 -12.032470703125
-48.07958984375 -25.1220703125 4.2017822265625
47.505615234375 -14.5133056640625 -22.8016357421875
50.21337890625 -90.147705078125 -6.66064453125
-10.8603515625 56.79443359375 17.2679443359375
46.873291015625 -9.2984619140625 6.2576904296875
36.1396484375 48.8541259765625 7.2919921875
47.76611328125 -2.888916015625 -18.1282958984375
98.609619140625 -59.8692626953125 -13.15771484375
55.688720703125 5.35693359375 -25.2900390625
36.867919921875 46.7777099609375 -9.1920166015625
58.75927734375 -85.5380859375 -1.0172119140625
53.907958984375 -118.9190673828125 8.1016845703125
37.49658203125 -55.84814453125 2.7138671875
39.781494140625 59.7137451171875 -9.8756103515625
16.84765625 26.879150390625 7.7144775390625
33.194091796875 -5.2655029296875 8.20654296875
2.94775390625 68.7000732421875 14.0430908203125
-2.79052734375 -11.1749267578125 8.22119140625
-30.428955078125 -58.787109375 4.596923828125
29.5625 -45.7635498046875 2.6278076171875
-10.80126953125 36.7381591796875 9.047607421875
-6.30712890625 -34.4813232421875 -7.6683349609375
55.9716796875 -33.099609375 1.545654296875
63.621337890625 -71.71484375 -18.33447265625
-5.805419921875 71.048095703125 22.2880859375
57.7841796875 26.1571044921875 -23.898681640625
55.423095703125 -67.9691162109375 1.843505859375
7.528564453125 13.1064453125 8.8006591796875
93.833740234375 -71.9033203125 -8.8466796875
62.193603515625 -84.907470703125 -2.4736328125
-62.10498046875 -4.8013916015625 5.8917236328125
-37.5859375 -41.1822509765625 4.618896484375
45.14013671875 76.932373046875 -1.8477783203125
22.62939453125 -12.8155517578125 5.8961181640625
54.27099609375 25.044677734375 -24.152099609375
-41.213134765625 -80.7288818359375 -0.033447265625
63.4287109375 -58.4561767578125 -20.615234375
47.435302734375 49.6800537109375 -15.36962890625
-14.2919921875 40.0548095703125 10.208740234375
19.38330078125 64.0345458984375 8.55419921875
22.66162109375 44.359375 7.3995361328125
12.155517578125 -1.8199462890625 8.556884765625
56.101806640625 40.31689453125 -20.27734375
-2.6279296875 -43.376708984375 -10.2127685546875
33.567626953125 15.4124755859375 8.9058837890625
19.94970703125 -19.5396728515625 2.9093017578125
45.887939453125 81.9984130859375 1.1414794921875
-81.541259765625 33.8116455078125 6.382080078125
49.049560546875 -22.2264404296875 -22.3917236328125
-14.4306640625 -14.5526123046875 7.3463134765625
91.105712890625 -73.0059814453125 -15.548828125
-31.834716796875 -29.5775146484375 4.391845703125
-58.02392578125 -5.566650390625 5.784912109375
41.860595703125 72.5487060546875 12.5540771484375
-66.60302734375 29.0596923828125 1.652587890625
36.28125 80.0166015625 2.2779541015625
41.62255859375 81.9522705078125 0.3306884765625
26.967041015625 2.7528076171875 8.04833984375
8.850830078125 32.6982421875 8.541748046875
14.906494140625 14.0264892578125 8.0118408203125
18.505126953125 -27.240234375 2.893310546875
97.67919921875 -81.6866455078125 -3.856689453125
90.73779296875 -66.25830078125 -5.96435546875
-54.850341796875 -82.0413818359375 1.3818359375
57.970947265625 -88.5062255859375 -26.9384765625
56.74072265625 -31.995361328125 -22.3359375
-12.855224609375 33.111328125 8.7567138671875
53.01318359375 -57.9744873046875 2.0174560546875
57.473876953125 -97.0587158203125 -26.8673095703125
-77.6416015625 18.292724609375 4.3502197265625
-17.311279296875 -0.8189697265625 9.708251953125
37.207275390625 -82.6192626953125 3.2679443359375
-56.77197265625 12.743896484375 3.4564208984375
9.83349609375 -65.37841796875 2.79736328125
-43.10107421875 -36.635009765625 3.981201171875
3.152587890625 -23.862548828125 3.3792724609375
23.810546875 76.0380859375 15.8758544921875
0.7958984375 63.5252685546875 9.918701171875
-55.73974609375 -92.6815185546875 10.9820556640625
50.08056640625 93.1544189453125 -2.542236328125
22.7841796875 59.0042724609375 6.9639892578125
54.063720703125 -71.40283203125 -16.584228515625
19.0556640625 -84.22119140625 2.9522705078125
50.179443359375 -96.7845458984375 -7.7213134765625
-9.733642578125 -23.301025390625 3.560791015625
20.137939453125 15.8404541015625 8.280517578125
3.475830078125 -14.08251953125 6.446533203125
61.8916015625 -115.5457763671875 -14.7779541015625
53.754638671875 82.2984619140625 -9.7955322265625
-66.6923828125 3.0950927734375 5.4647216796875
49.6083984375 -26.4088134765625 -1.7703857421875
41.850830078125 79.0455322265625 -1.8265380859375
-24.008056640625 78.7176513671875 28.3170166015625
-62.318359375 3.9976806640625 4.7432861328125
-59.647216796875 -74.2056884765625 14.0306396484375
64.1064453125 -73.427978515625 1.333740234375
62.01171875 -29.5687255859375 -24.5198974609375
-30.728515625 -63.8643798828125 9.30908203125
1.23583984375 32.151611328125 8.55224609375
-11.405029296875 49.6392822265625 8.4327392578125
-33.552978515625 -39.64453125 4.3892822265625
43.300537109375 -21.422119140625 2.3157958984375
-45.241455078125 -12.27294921875 4.86669921875
62.20751953125 -24.1336669921875 -25.0140380859375
-4.94580078125 83.2322998046875 29.75634765625
13.651123046875 -73.51025390625 2.9317626953125
-10.529052734375 -18.362060546875 4.8692626953125
-46.9775390625 -95.6541748046875 10.46240234375
49.635009765625 -50.7032470703125 2.39697265625
-10.74658203125 2.0517578125 9.30029296875
56.955078125 -85.0648193359375 -21.0230712890625
58.313232421875 -37.21630859375 -21.73046875
45.00390625 90.1815185546875 2.20556640625
-45.245361328125 -70.0560302734375 7.2723388671875
40.415283203125 43.40380859375 -15.8343505859375
48.960205078125 80.5203857421875 -2.6749267578125
29.677490234375 92.3651123046875 10.1357421875
-81.126220703125 28.60986328125 5.4127197265625
-7.1328125 56.273193359375 12.7623291015625
-24.92041015625 -48.9547119140625 -3.3670654296875
-39.181884765625 -37.678955078125 4.57568359375
52.003173828125 -46.868896484375 2.144775390625
46.583251953125 17.11376953125 6.9259033203125
-16.7646484375 51.777587890625 8.5498046875
93.157470703125 -75.3433837890625 -15.0030517578125
-49.421142578125 -89.416748046875 0.31591796875
92.834228515625 -68.8104248046875 -14.1510009765625
-15.39208984375 47.2176513671875 8.7926025390625
33.5556640625 -14.101318359375 4.5816650390625
39.696533203125 -38.077392578125 2.332275390625
53.206787109375 -85.3160400390625 -25.048583984375
-4.556884765625 -61.8433837890625 5.4169921875
24.729248046875 65.303466796875 8.8336181640625
24.009521484375 -7.58984375 8.364013671875
51.051513671875 -36.7625732421875 -21.6873779296875
62.441650390625 -49.1517333984375 -21.056396484375
57.909912109375 -20.88720703125 -22.813232421875
34.889892578125 -78.7469482421875 1.88720703125
68.032470703125 -65.3160400390625 -17.1348876953125
60.904296875 -62.7508544921875 1.6041259765625
25.339599609375 -34.8421630859375 -24.1517333984375
38.407958984375 74.284912109375 -2.4423828125
-14.15234375 -46.4219970703125 -9.8128662109375
88.640380859375 -49.611572265625 -9.838623046875
-47.916015625 -44.0787353515625 6.1990966796875
-59.593017578125 -29.406982421875 4.9139404296875
-89.162109375 37.86279296875 2.6949462890625
37.489013671875 -9.8651123046875 6.62548828125
18.019775390625 82.0914306640625 21.1279296875
-23.985107421875 -43.0528564453125 -0.130126953125
24.96240234375 -40.168212890625 4.5455322265625
62.8154296875 -92.9801025390625 -27.3465576171875
-94.219482421875 40.63330078125 2.6993408203125
51.345703125 -86.686767578125 -4.541748046875
31.651123046875 92.6573486328125 4.701904296875
50.04443359375 -97.81201171875 -19.126220703125
59.93359375 -84.656494140625 -10.495361328125
32.028564453125 77.8685302734375 8.6322021484375
32.50439453125 -91.12744140625 2.5316162109375
16.176025390625 -89.7047119140625 2.037353515625
35.377685546875 60.2220458984375 7.0557861328125
96.763916015625 -73.4429931640625 -8.2291259765625
24.965576171875 -99.174072265625 4.6224365234375
20.0029296875 18.93017578125 7.869873046875
40.703125 -10.89990234375 5.5877685546875
2.2958984375 19.0023193359375 8.4281005859375
-18.33544921875 45.2205810546875 8.9359130859375
51.85302734375 -99.125 -16.9632568359375
26.863525390625 -49.919921875 3.0660400390625
40.84765625 -86.15869140625 3.9744873046875
53.06689453125 48.096435546875 -18.532470703125
55.09130859375 -108.373291015625 -15.51025390625
-16.995849609375 15.4105224609375 9.50244140625
-14.68115234375 -33.3009033203125 -0.99560546875
-52.72509765625 -86.895751953125 8.1639404296875
-44.384765625 -62.7423095703125 17.039794921875
-19.563232421875 28.375 9.4036865234375
102.7236328125 -102.443115234375 -17.2509765625
47.415283203125 -71.328369140625 2.048095703125
-11.47412109375 -45.0030517578125 -1.421875
92.22998046875 -61.6793212890625 -11.2491455078125
63.807373046875 -86.4495849609375 7.9285888671875
-29.26953125 -33.9730224609375 4.08837890625
45.893310546875 18.5626220703125 -24.3782958984375
-19.6513671875 31.300048828125 9.0120849609375
49.16943359375 -95.07177734375 -18.440673828125
69.54052734375 -74.039794921875 -0.0057373046875
24.7685546875 -37.663330078125 2.970947265625
-50.5009765625 -92.912841796875 10.778076171875
52.69189453125 -103.623779296875 -14.0728759765625
-29.782470703125 -42.7242431640625 2.546142578125
50.178466796875 -79.0762939453125 1.7647705078125
-34.850341796875 -48.19921875 4.8358154296875
-4.377197265625 -0.9932861328125 9.3009033203125
50.45654296875 26.8548583984375 6.0198974609375
-49.6494140625 -73.4427490234375 -3.47900390625
49.291015625 -115.462890625 9.54248046875
100.974609375 -93.4674072265625 -14.876708984375
50.020263671875 18.090576171875 4.5263671875
36.455810546875 1.1202392578125 8.3150634765625
-64.28271484375 25.009521484375 2.3857421875
47.430419921875 -57.162353515625 2.015625
53.61962890625 -86.666015625 8.5955810546875
16.530029296875 -103.7255859375 4.553466796875
22.2314453125 -41.7506103515625 2.97021484375
7.6259765625 -58.134033203125 3.2572021484375
56.7158203125 -110.719970703125 -16.7532958984375
50.683837890625 19.837158203125 -22.7423095703125
51.91943359375 -41.546142578125 -20.447509765625
-12.953125 -39.84033203125 -3.2467041015625
98.57470703125 -91.6224365234375 -7.949951171875
-6.3154296875 -12.0892333984375 8.072998046875
-60.961669921875 7.8792724609375 4.1292724609375
-38.095458984375 -34.9693603515625 4.6173095703125
36.763916015625 -65.5291748046875 2.0234375
39.758544921875 -40.650146484375 -1.050048828125
37.86962890625 69.190185546875 -3.7130126953125
51.47802734375 50.429931640625 6.3270263671875
50.932373046875 40.6019287109375 6.8330078125
45.631103515625 -37.882080078125 2.18603515625
-0.51025390625 83.7767333984375 29.5638427734375
35.66650390625 -50.1834716796875 0.205078125
54.478759765625 -76.1060791015625 -16.13720703125
108.2294921875 -94.5462646484375 -18.2305908203125
20.965087890625 -34.7093505859375 -29.11376953125
2.068359375 -30.1328125 3.1700439453125
-54.28173828125 -82.575439453125 4.980712890625
7.267578125 -3.6317138671875 9.0108642578125
53.170166015625 34.046875 -22.1099853515625
-46.517333984375 -86.30859375 -3.275634765625
101.743896484375 -96.6610107421875 -7.4664306640625
59.46826171875 -53.2457275390625 1.3360595703125
-64.01123046875 15.5738525390625 3.5223388671875
45.57763671875 -120.9998779296875 8.702880859375
21.959228515625 -87.3824462890625 2.706787109375
43.419921875 60.1988525390625 6.836181640625
-53.736328125 -0.263916015625 4.671875
47.541015625 -64.947021484375 2.06201171875
34.03955078125 69.1181640625 10.4915771484375
50.0556640625 85.4107666015625 -12.9920654296875
-16.128173828125 75.746826171875 24.99072265625
-8.07177734375 43.349365234375 8.491943359375
-64.5087890625 -2.24365234375 6.0107421875
37.623046875 76.96142578125 10.947509765625
37.1279296875 -73.7669677734375 2.22314453125
-46.004638671875 -16.154541015625 4.4815673828125
-11.540771484375 77.0634765625 25.066162109375
45.69287109375 46.8472900390625 -17.2353515625
24.17041015625 -1.0289306640625 8.4185791015625
51.858642578125 -15.496337890625 2.208984375
49.52001953125 -101.06689453125 -8.4923095703125
-35.811279296875 -85.086181640625 -3.7049560546875
-54.922119140625 -79.656494140625 8.835205078125
7.13671875 81.1329345703125 26.7503662109375
28.6845703125 56.347412109375 7.317138671875
-54.177490234375 -77.727294921875 -0.355712890625
55.252197265625 -85.9940185546875 -13.1739501953125
-67.85546875 8.711181640625 4.806884765625
-6.15478515625 28.228515625 8.9158935546875
60.39501953125 -84.6966552734375 -23.5206298828125
-92.949951171875 30.8138427734375 4.2623291015625
4.566650390625 -58.0643310546875 3.0821533203125
-9.494140625 30.03076171875 9.07421875
8.818603515625 68.3681640625 13.1885986328125
40.415283203125 -31.4158935546875 2.2498779296875
29.11669921875 89.9490966796875 15.951416015625
-43.922119140625 -68.86669921875 0.5953369140625
51.808349609375 -40.202392578125 -17.802001953125
-41.7216796875 -88.5711669921875 -3.0751953125
-33.704345703125 -74.55712890625 -0.7406005859375
44.71728515625 92.4752197265625 -0.9658203125
-2.921630859375 -55.2545166015625 3.412353515625
13.936767578125 80.947265625 24.96533203125
29.333251953125 85.6451416015625 15.7967529296875
87.05126953125 -64.048583984375 -14.6668701171875
96.27880859375 -57.5272216796875 -11.1376953125
105.808349609375 -87.0013427734375 -15.261962890625
-13.75341796875 -38.3251953125 3.0523681640625
48.750244140625 -39.5147705078125 1.52490234375
44.026611328125 64.004638671875 -9.8187255859375
9.492919921875 -29.6866455078125 2.960205078125
-52.17578125 -30.6851806640625 4.4945068359375
-53.850341796875 -19.66015625 4.3131103515625
26.844970703125 36.852783203125 7.761474609375
-6.388427734375 -48.53369140625 -4.572265625
51.017578125 -30.6307373046875 1.0428466796875
71.166748046875 -56.9949951171875 0.1661376953125
49.054443359375 -8.493408203125 -25.962646484375
-17.148681640625 24.239501953125 8.417724609375
41.575439453125 44.7420654296875 -11.8736572265625
17.276611328125 72.442138671875 17.1876220703125
26.2314453125 77.7550048828125 16.7113037109375
26.895263671875 -73.8875732421875 2.427978515625
27.955810546875 42.83349609375 8.4678955078125
47.06396484375 33.355224609375 -21.47119140625
60.169921875 -1.4102783203125 13.942626953125
102.895751953125 -93.836669921875 -17.0194091796875
36.154541015625 17.173583984375 7.6563720703125
14.48974609375 -12.1895751953125 6.8858642578125
-29.433837890625 -47.55712890625 -0.637939453125
0.640869140625 43.966064453125 8.4102783203125
53.088134765625 17.7103271484375 -24.4447021484375
62.257080078125 -81.0172119140625 1.1595458984375
-74.221435546875 26.259033203125 2.861328125
23.788330078125 -28.7210693359375 2.906982421875
