-21.124755859375 18.516357421875 -55.665283203125
13.0712890625 -17.41943359375 52.898681640625
0.885986328125 44.648681640625 -37.83154296875
0.993896484375 46.761962890625 -55.435791015625
2.60009765625 32.96484375 -4.701416015625
-14.674560546875 -29.08984375 64.541748046875
7.94482421875 10.65869140625 -7.812744140625
-20.966796875 22.260986328125 -42.52294921875
-2.587646484375 -27.53125 77.74951171875
2.216064453125 35.95361328125 -13.687255859375
8.13623046875 12.508544921875 -22.780029296875
-16.60400390625 14.3408203125 -58.761474609375
-20.113037109375 10.521728515625 -62.814208984375
-5.965087890625 -18.131591796875 56.716796875
8.29931640625 11.015625 -15.203125
12.617919921875 -10.940673828125 25.02490234375
-4.606201171875 54.490234375 -42.168212890625
4.08642578125 34.96630859375 -56.7421875
6.989990234375 18.07763671875 -26.76318359375
10.873046875 -11.305419921875 62.331298828125
11.44873046875 -6.348876953125 -1.738525390625
12.42919921875 -15.445068359375 56.195556640625
11.424072265625 -9.543212890625 42.09228515625
12.8759765625 -34.0166015625 11.079833984375
10.75048828125 -3.43212890625 -7.304443359375
2.714111328125 39.2177734375 -48.0771484375
12.598876953125 -17.263427734375 59.8671875
-5.01220703125 57.35205078125 -51.226806640625
-6.14794921875 8.586669921875 -59.261962890625
2.365478515625 36.91357421875 -29.617431640625
-1.10400390625 57.625 -56.961181640625
1.843505859375 43.80859375 -52.273193359375
-4.79736328125 58.75732421875 -62.259521484375
-1.0634765625 41.605712890625 -72.1650390625
6.686279296875 16.95458984375 -11.413330078125
12.33544921875 -19.421875 81.473876953125
3.719970703125 27.625732421875 0.162353515625
5.237060546875 18.69677734375 8.554443359375
3.67041015625 29.213623046875 -4.330322265625
0.4423828125 52.423095703125 -68.22509765625
-4.701904296875 54.219482421875 -67.739990234375
-0.109375 50.78515625 -50.77490234375
9.84716796875 3.361328125 -5.40478515625
13.03466796875 -16.005126953125 45.352783203125
11.0986328125 -5.456787109375 20.05078125
4.28173828125 33.156982421875 -49.885986328125
6.733154296875 18.10302734375 -19.839111328125
-1.353515625 55.869873046875 -47.388916015625
12.572021484375 -13.86865234375 36.73779296875
-20.5302734375 16.033935546875 -58.39208984375
4.63623046875 34.067626953125 -63.841552734375
3.0595703125 37.505615234375 -61.370849609375
12.30419921875 -12.853515625 40.560546875
7.28466796875 14.1435546875 -5.255615234375
12.12744140625 -11.14306640625 16.922119140625
11.061767578125 -7.314208984375 35.677001953125
4.001708984375 37.770751953125 -69.71923828125
-15.63037109375 12.128173828125 -61.404296875
-10.57275390625 13.166259765625 -55.772216796875
-5.4921875 -22.713134765625 45.30126953125
3.102783203125 37.1689453125 -44.408203125
10.774658203125 -10.405029296875 58.937744140625
10.2333984375 -5.28125 45.226806640625
9.21875 1.39599609375 21.75390625
6.962890625 11.88037109375 13.36328125
0.255615234375 47.851318359375 -72.2060546875
2.822265625 32.678955078125 -10.23681640625
7.89013671875 12.445068359375 -11.693359375
8.625244140625 8.015869140625 -3.798583984375
9.933837890625 -2.9697265625 40.18994140625
8.806884765625 6.367431640625 8.38525390625
-0.8525390625 55.427978515625 -54.4443359375
8.80322265625 -6.330810546875 57.046142578125
10.3759765625 -1.491455078125 13.1416015625
6.965576171875 12.904296875 9.4755859375
9.3154296875 0.3701171875 32.306640625
-2.946044921875 -20.889892578125 58.072021484375
9.941162109375 5.038330078125 -17.69677734375
1.465576171875 42.368896484375 -35.52978515625
10.615966796875 1.2822265625 -12.72216796875
5.1552734375 24.85302734375 -15.704833984375
0.276123046875 47.640869140625 -39.025146484375
-0.410400390625 54.761962890625 -63.0224609375
-0.88232421875 41.889404296875 -57.8330078125
2.27490234375 38.137939453125 -37.36328125
2.106201171875 36.4052734375 -16.9306640625
3.9775390625 27.465576171875 -7.559326171875
-22.20361328125 21.345947265625 -51.1865234375
-10.19677734375 -24.36572265625 49.477294921875
-10.580078125 -30.7734375 68.832275390625
9.93310546875 1.13232421875 10.711181640625
11.418212890625 -5.591064453125 1.599853515625
-14.8837890625 15.374267578125 -56.247314453125
5.531005859375 26.824462890625 -47.514892578125
7.042236328125 16.308837890625 -17.0732421875
8.6396484375 10.34765625 -20.173583984375
-0.518798828125 52.238525390625 -44.00048828125
5.206298828125 30.065673828125 -53.416748046875
4.489013671875 28.059326171875 -22.296875
5.265625 31.02197265625 -62.7890625
-2.11669921875 -24.959228515625 80.09326171875
5.421630859375 20.23193359375 2.243408203125
8.95849609375 6.0791015625 1.2294921875
11.7685546875 -15.077880859375 68.18798828125
9.3857421875 -0.29541015625 28.74267578125
-0.8701171875 -19.438720703125 60.7978515625
7.82470703125 8.87255859375 13.892333984375
10.193603515625 -33.416015625 8.7041015625
-22.40966796875 23.5302734375 -45.85107421875
-13.139404296875 -25.432373046875 52.46630859375
6.0458984375 24.09130859375 -37.448974609375
11.424072265625 -4.8330078125 7.763916015625
10.319580078125 -0.448974609375 7.130126953125
4.981201171875 28.587890625 -41.6171875
9.31494140625 -0.814697265625 37.244140625
10.7314453125 -6.477783203125 38.865966796875
11.37109375 -12.57275390625 56.584228515625
-8.566162109375 -22.2705078125 43.380859375
4.96435546875 27.712646484375 -34.42138671875
2.28857421875 40.89111328125 -59.9384765625
-13.14794921875 -27.455322265625 58.635009765625
-11.262939453125 -31.89501953125 72.648681640625
12.791748046875 -19.1220703125 65.161865234375
13.288818359375 -20.376953125 59.338623046875
13.027587890625 -15.84521484375 42.20556640625
9.80859375 -2.131591796875 34.02734375
-0.28955078125 50.91943359375 -70.98583984375
8.699951171875 4.76611328125 18.390869140625
2.248046875 34.453369140625 -7.3427734375
12.86669921875 -14.59912109375 29.760009765625
11.230712890625 -2.953369140625 -3.928955078125
0.599365234375 47.641357421875 -43.1162109375
1.00341796875 49.532470703125 -66.029052734375
7.916748046875 10.348876953125 3.3837890625
-1.218017578125 44.92431640625 -56.29345703125
-2.064453125 57.4912109375 -50.400390625
3.98583984375 33.2470703125 -38.366455078125
-0.345458984375 51.411376953125 -38.563232421875
-4.77685546875 58.586669921875 -54.154052734375
5.916748046875 19.235595703125 -37.2744140625
2.951904296875 39.77099609375 -55.174072265625
10.1728515625 5.050048828125 -24.072509765625
-2.50146484375 -20.408447265625 52.56005859375
13.32080078125 -19.49658203125 47.093994140625
11.8681640625 -16.248046875 75.841796875
-19.022216796875 19.0185546875 -53.5400390625
9.21533203125 7.517333984375 -20.802490234375
2.850341796875 36.62548828125 -33.3486328125
9.32275390625 6.6142578125 -9.832275390625
1.707275390625 40.728759765625 -31.665771484375
12.70263671875 -20.044677734375 75.4345703125
-3.951416015625 55.429931640625 -45.0556640625
-0.924072265625 53.529296875 -41.374755859375
5.236083984375 23.31494140625 -10.691650390625
1.708740234375 43.59765625 -46.004150390625
0.8154296875 43.086181640625 -29.224853515625
1.95751953125 37.96435546875 -71.81005859375
12.01708984375 -16.575439453125 70.882568359375
0.436279296875 -22.39306640625 53.73388671875
4.920166015625 30.812744140625 -59.89111328125
2.70703125 34.69091796875 -23.071044921875
3.6884765625 33.96484375 -42.5205078125
-12.3212890625 -28.967041015625 62.71533203125
0.349853515625 49.572021484375 -55.83642578125
5.760986328125 20.4189453125 -7.15625
0.654541015625 48.384521484375 -48.80908203125
10.928466796875 -5.167724609375 23.870361328125
11.4443359375 -10.7451171875 46.380615234375
13.0234375 -20.872802734375 70.416259765625
5.062255859375 27.0283203125 -58.00634765625
-15.553466796875 -22.901611328125 48.087890625
10.93310546875 -8.1494140625 44.565185546875
-0.138671875 51.117919921875 -59.080322265625
-2.327392578125 57.39501953125 -65.714599609375
-20.862548828125 22.109619140625 -48.755126953125
1.136962890625 -18.0234375 55.754638671875
3.891357421875 31.310546875 -33.31396484375
2.41015625 39.2783203125 -41.55859375
11.98779296875 -11.5205078125 35.172607421875
5.93994140625 22.86083984375 -31.8603515625
10.596435546875 -10.264892578125 66.283203125
4.773681640625 22.783447265625 3.687744140625
-0.719482421875 53.025634765625 -48.12744140625
10.255126953125 0.524169921875 1.934326171875
3.134765625 34.19091796875 -28.6328125
-3.201171875 -23.671142578125 49.316650390625
3.3251953125 36.9013671875 -50.145263671875
9.970458984375 1.4580078125 4.852294921875
-22.360595703125 11.46533203125 -61.397216796875
3.616455078125 36.061279296875 -53.968505859375
4.710693359375 29.489990234375 -38.9794921875
2.424560546875 40.724609375 -51.094970703125
6.763671875 17.23046875 -14.291748046875
10.139404296875 1.91845703125 -20.43115234375
9.469482421875 -2.55517578125 42.984619140625
1.7109375 42.09521484375 -41.963623046875
10.046142578125 2.834716796875 -27.94482421875
0.309814453125 46.370361328125 -32.56396484375
10.248046875 -1.12939453125 18.995849609375
5.711669921875 22.109130859375 -16.310791015625
1.333251953125 45.583740234375 -49.62451171875
9.961669921875 0.037353515625 16.08837890625
-3.099365234375 59.466552734375 -56.52978515625
11.54541015625 -8.560302734375 30.177978515625
7.7939453125 11.9326171875 -0.439453125
-10.977294921875 11.8115234375 -59.89306640625
5.751708984375 26.646728515625 -50.23974609375
9.138671875 3.30224609375 16.1162109375
13.0419921875 -16.530029296875 36.3056640625
10.7138671875 -5.6552734375 -5.159423828125
12.587890625 -12.462646484375 31.630615234375
-23.8056640625 18.88916015625 -56.01220703125
3.37109375 32.397216796875 -25.249755859375
11.941650390625 -8.804931640625 20.03857421875
-2.030029296875 -31.073486328125 75.08251953125
6.591552734375 17.552001953125 -8.765625
8.09912109375 8.92578125 7.812744140625
9.662353515625 8.1923828125 -26.274658203125
11.108642578125 -2.602783203125 1.76416015625
10.574462890625 0.80126953125 -3.514404296875
10.558837890625 -4.769287109375 33.935546875
6.84423828125 -3.048095703125 43.216796875
9.123291015625 4.562744140625 5.0107421875
0.1572265625 52.471923828125 -65.568603515625
4.91650390625 30.066162109375 -46.885986328125
10.24755859375 -6.4580078125 49.521240234375
-20.56640625 20.435546875 -38.951416015625
8.6806640625 3.47412109375 26.896240234375
6.73291015625 14.12060546875 4.495361328125
7.842041015625 13.3115234375 -16.608154296875
-6.492919921875 -20.762939453125 41.45849609375
10.350341796875 1.234619140625 -8.897216796875
5.68359375 18.26416015625 5.98291015625
3.16796875 32.70751953125 -20.54248046875
1.828125 47.2509765625 -67.182861328125
-4.38623046875 -22.333984375 52.08740234375
4.46240234375 26.283447265625 -9.868408203125
6.27587890625 16.381103515625 9.269287109375
2.693359375 42.650634765625 -69.64501953125
4.879150390625 32.388427734375 -57.7841796875
8.99072265625 8.526123046875 -14.72802734375
6.62890625 19.68115234375 -31.92041015625
10.611328125 -4.400390625 29.235595703125
-2.169921875 54.704833984375 -68.21435546875
2.9580078125 33.8330078125 -17.98681640625
11.622314453125 -5.306396484375 10.522705078125
2.4296875 38.869384765625 -26.439697265625
0.474853515625 44.7099609375 -24.17041015625
13.052978515625 -21.33642578125 79.587646484375
11.634521484375 -7.52685546875 14.8974609375
6.100830078125 24.2685546875 -40.736572265625
11.410888671875 -13.82421875 62.587646484375
-7.031982421875 43.916015625 -65.04638671875
-1.123779296875 -19.129638671875 56.33251953125
5.65966796875 27.289306640625 -29.487060546875
-4.888671875 -28.56103515625 78.2900390625
2.192138671875 37.407958984375 -21.8642578125
0.156494140625 49.891357421875 -53.2900390625
-5.436279296875 -23.59228515625 47.841064453125
11.302978515625 -8.897216796875 -1.42626953125
12.311767578125 -14.443603515625 50.464599609375
-0.228271484375 49.220947265625 -60.883056640625
3.96533203125 29.902099609375 -25.3505859375
-23.7353515625 24.24462890625 -40.015380859375
-1.046630859375 57.604248046875 -60.512939453125
-12.6484375 -31.0166015625 70.30126953125
5.244140625 25.1064453125 -26.377197265625
8.87060546875 11.3232421875 -30.0400390625
5.403076171875 26.45849609375 -36.58056640625
6.46875 17.107421875 -3.0107421875
5.322509765625 26.220458984375 -31.946044921875
11.635009765625 -11.39404296875 51.013427734375
6.87158203125 6.56591796875 22.53564453125
-0.8974609375 -32.678466796875 70.797119140625
9.91943359375 -1.423828125 24.6982421875
-4.998291015625 59.0908203125 -59.77392578125
-10.6044921875 -27.703369140625 59.01904296875
3.59716796875 31.29931640625 -30.3720703125
10.537841796875 -5.067626953125 -9.2880859375
10.7177734375 -2.333984375 -12.448974609375
-7.45166015625 -24.915283203125 52.73779296875
11.718994140625 -7.849609375 6.2080078125
12.02880859375 -16.2626953125 65.89306640625
3.628662109375 34.582275390625 -45.072021484375
1.497802734375 40.37109375 -21.77294921875
8.883544921875 4.505126953125 13.903076171875
0.84765625 44.641357421875 -34.68505859375
-22.427734375 20.993896484375 -36.6904296875
4.506103515625 30.53173828125 -43.35546875
5.688232421875 22.943115234375 -21.799560546875
-0.845947265625 53.8115234375 -56.427490234375
3.918212890625 36.06640625 -59.17822265625
2.55419921875 40.95458984375 -57.322998046875
-14.109619140625 -23.496826171875 43.966552734375
7.397705078125 9.360595703125 17.188720703125
0.580322265625 41.2802734375 -63.1337890625
-4.72021484375 -18.253662109375 54.1884765625
11.7578125 -8.654052734375 25.427734375
4.850830078125 23.01611328125 -2.646728515625
-7.017822265625 -32.15234375 73.05078125
13.301513671875 -22.432373046875 74.758544921875
8.314697265625 9.910888671875 -5.34765625
7.885986328125 15.508544921875 -29.217529296875
8.142578125 12.578857421875 -25.457275390625
-8.736572265625 -25.91455078125 54.928466796875
5.0234375 23.55712890625 -5.09228515625
2.671142578125 33.91748046875 -12.385009765625
6.170654296875 18.999755859375 -12.6708984375
-21.61669921875 19.667236328125 -53.43896484375
0.2392578125 49.71484375 -44.372314453125
0.013427734375 49.337646484375 -37.27783203125
8.581298828125 3.219970703125 24.201416015625
6.56591796875 16.45263671875 0.499267578125
-17.9658203125 11.860107421875 -62.077392578125
-13.95751953125 9.504638671875 -63.638916015625
3.576904296875 30.5869140625 -13.2802734375
1.31494140625 43.419677734375 -39.932373046875
9.91064453125 3.825927734375 -13.2099609375
6.897216796875 18.66748046875 -24.183349609375
3.525390625 33.59521484375 -34.06982421875
11.200439453125 -4.97021484375 16.807861328125
-0.921630859375 54.10791015625 -45.73486328125
9.5107421875 3.736572265625 9.705322265625
-7.776611328125 -24.93994140625 57.116943359375
-12.66259765625 14.45166015625 -56.434814453125
-8.320068359375 9.66650390625 -59.78759765625
-11.827392578125 -26.413330078125 54.82861328125
3.87353515625 28.125732421875 2.50439453125
11.129150390625 -11.115966796875 53.991455078125
2.076416015625 42.52734375 -64.7421875
2.020263671875 41.262939453125 -46.4462890625
10.33349609375 -7.396240234375 53.65234375
1.041748046875 43.173828125 -71.692626953125
-15.520263671875 16.884033203125 -54.50830078125
10.51708984375 -9.232421875 61.199951171875
4.26611328125 33.141845703125 -47.405517578125
12.099365234375 -9.68994140625 27.55126953125
-0.42138671875 53.67626953125 -52.830810546875
4.124755859375 28.70068359375 -20.03125
3.816650390625 35.05322265625 -51.56396484375
4.346923828125 25.072021484375 -0.56591796875
6.4580078125 21.851806640625 -36.770751953125
-0.275146484375 52.94873046875 -61.060791015625
9.570068359375 4.478515625 -8.13671875
-0.331787109375 49.267333984375 -33.719970703125
3.513427734375 36.39306640625 -63.49462890625
12.440673828125 -14.912353515625 47.345703125
3.738037109375 27.656494140625 -2.580810546875
5.643798828125 27.152099609375 -55.7470703125
2.35205078125 38.501708984375 -31.927734375
7.671875 2.000732421875 32.590087890625
10.363525390625 2.7578125 -23.001953125
13.4013671875 -19.656494140625 54.10986328125
-11.0107421875 9.08837890625 -63.003173828125
4.878662109375 31.572021484375 -55.171142578125
11.02587890625 -3.072265625 6.3017578125
0.510009765625 -28.236328125 78.35791015625
10.552001953125 -3.19970703125 20.028076171875
1.212158203125 41.9619140625 -23.755126953125
-2.662353515625 -29.934326171875 77.19189453125
7.243408203125 18.052734375 -33.59619140625
9.494384765625 3.96435546875 0.46923828125
4.124267578125 37.37353515625 -67.44677734375
2.402099609375 41.404052734375 -53.63671875
5.63916015625 26.3125 -41.908447265625
9.31298828125 5.46728515625 -4.63671875
-12.49169921875 -24.447265625 49.6689453125
-10.101806640625 -23.05712890625 45.052734375
11.18212890625 -7.852294921875 33.443359375
8.517333984375 -8.541015625 62.31494140625
-14.579833984375 -32.875 74.57470703125
11.00390625 -3.485595703125 14.387451171875
5.36083984375 25.427001953125 -45.69873046875
12.21337890625 -10.08251953125 22.3232421875
8.405029296875 11.42138671875 -18.159423828125
9.572265625 7.046630859375 -29.80224609375
2.6357421875 40.194580078125 -64.959716796875
-22.6552734375 15.555419921875 -59.2900390625
7.8701171875 15.50537109375 -32.451904296875
13.39892578125 -18.331298828125 50.42626953125
8.2021484375 7.0791015625 18.28271484375
1.398193359375 43.548095703125 -43.753173828125
1.05908203125 41.62646484375 -19.615966796875
1.27783203125 46.093017578125 -53.269287109375
11.28173828125 -8.857421875 39.741943359375
-1.30126953125 56.533203125 -52.35205078125
2.55908203125 34.37841796875 -15.646240234375
10.803955078125 -1.227783203125 -8.066162109375
-3.780029296875 52.30908203125 -68.531982421875
-9.596923828125 47.33935546875 -63.61962890625
4.81591796875 29.901123046875 -29.073486328125
-3.144775390625 58.161865234375 -63.6826171875
-7.82373046875 -24.018310546875 49.07470703125
10.251708984375 -7.84912109375 57.86865234375
13.35888671875 -13.819091796875 27.25634765625
4.744873046875 31.195068359375 -51.24560546875
2.119140625 40.18408203125 -36.447998046875
13.02880859375 -17.974853515625 41.489501953125
3.54052734375 30.434326171875 -16.471923828125
13.4208984375 -21.35205078125 64.3603515625
10.43701171875 2.84228515625 -18.40234375
-4.30517578125 53.934814453125 -40.0185546875
4.719482421875 27.005126953125 -24.257568359375
8.63916015625 7.910400390625 2.47509765625
6.9384765625 18.8408203125 -28.8642578125
-12.386962890625 -30.200439453125 67.2265625
4.968505859375 25.143798828125 -20.801025390625
5.994873046875 19.30419921875 -3.05322265625
8.66748046875 -5.6474609375 54.6298828125
-10.502197265625 -22.305908203125 41.5517578125
-9.40625 44.79736328125 -64.528564453125
11.896484375 -7.50732421875 11.61181640625
-6.52001953125 -31.6494140625 75.37841796875
0.432373046875 45.20166015625 -29.91650390625
-0.705810546875 -18.7548828125 53.242431640625
7.97314453125 11.22314453125 -32.07568359375
10.872802734375 -1.21533203125 -2.583984375
12.368896484375 -6.017578125 -6.642333984375
7.531494140625 10.91845703125 8.645751953125
12.14013671875 -15.63623046875 61.463134765625
7.24609375 16.084716796875 -20.613037109375
4.2978515625 25.79052734375 -6.13720703125
-2.74267578125 -31.146240234375 71.279052734375
6.877685546875 13.603759765625 7.257080078125
1.20166015625 40.43798828125 -17.53173828125
-9.17529296875 -27.33935546875 63.152587890625
8.826171875 3.143798828125 20.235107421875
-5.430908203125 -24.8134765625 65.53271484375
3.316162109375 35.41796875 -38.66552734375
0.27734375 40.10888671875 -71.26123046875
2.239013671875 40.835205078125 -25.465087890625
2.588134765625 36.796142578125 -27.34521484375
12.08251953125 -12.844970703125 46.275390625
6.221923828125 20.11328125 -19.068359375
-18.65966796875 14.880126953125 -59.314697265625
5.2509765625 24.253173828125 -18.298583984375
8.7421875 7.36572265625 -0.979248046875
3.78466796875 32.65869140625 -36.058837890625
3.36181640625 37.724853515625 -55.833984375
-3.908935546875 -18.768310546875 56.323486328125
-17.502197265625 13.28271484375 -60.481201171875
-6.182861328125 -22.931884765625 53.32568359375
12.344970703125 -15.615234375 54.026123046875
8.397216796875 6.861328125 13.062255859375
7.834716796875 14.34228515625 -24.220703125
0.376708984375 48.440673828125 -46.65234375
7.597412109375 12.347412109375 -6.491943359375
6.197021484375 22.793701171875 -34.754638671875
0.188232421875 44.081298828125 -63.230224609375
9.53857421875 6.428955078125 -12.125244140625
10.714599609375 -0.8642578125 0.334716796875
7.7421875 0.0517578125 38.4521484375
8.726806640625 8.471923828125 -8.899169921875
4.25537109375 28.25 -17.45947265625
13.36962890625 -23.623046875 79.30029296875
7.216552734375 14.937255859375 -10.851318359375
8.263427734375 10.800048828125 -10.3447265625
-3.955078125 -19.77490234375 40.56396484375
4.2841796875 35.438232421875 -65.466796875
6.98193359375 15.99755859375 -6.78466796875
8.101806640625 6.693115234375 20.729248046875
1.0732421875 47.24072265625 -70.255615234375
11.35986328125 -34.872314453125 9.767578125
0.1220703125 47.55126953125 -29.51806640625
1.722412109375 37.8955078125 -12.94140625
2.577880859375 38.853271484375 -45.975341796875
5.16796875 23.9990234375 -13.474853515625
8.13916015625 9.2685546875 -2.138427734375
1.82275390625 45.6142578125 -68.568359375
6.525634765625 20.219970703125 -26.737548828125
-13.37255859375 12.18310546875 -60.600830078125
-10.665283203125 12.807861328125 -58.033935546875
10.070068359375 4.435791015625 -15.658447265625
-10.07666015625 10.255615234375 -61.34716796875
9.37158203125 6.950927734375 -16.13232421875
5.232666015625 28.455078125 -51.227294921875
4.952880859375 28.533447265625 -36.528076171875
-21.70458984375 13.3623046875 -60.7080078125
1.047119140625 36.02099609375 -71.42529296875
5.3994140625 22.016357421875 -8.502685546875
3.357177734375 39.8466796875 -69.91064453125
-0.89453125 -19.47265625 58.4833984375
7.406494140625 13.5654296875 -3.18408203125
9.327392578125 9.04248046875 -28.70703125
8.095703125 8.959228515625 5.695068359375
5.4541015625 29.913818359375 -64.583740234375
4.42578125 24.421142578125 1.5810546875
12.66357421875 -13.408447265625 34.1474609375
-3.4140625 55.71142578125 -66.830810546875
5.538330078125 19.670654296875 4.33349609375
7.827392578125 14.276611328125 -21.54345703125
10.00146484375 -2.312744140625 28.599853515625
-0.414306640625 51.179443359375 -56.976806640625
8.69677734375 10.626953125 -24.329833984375
2.914306640625 31.316650390625 -3.27587890625
-23.756103515625 22.829833984375 -37.234130859375
9.9013671875 2.461669921875 -2.409912109375
2.446044921875 38.605712890625 -39.578125
10.268310546875 1.873046875 -6.90673828125
7.758056640625 10.8291015625 1.357666015625
8.280517578125 13.08349609375 -28.419921875
-19.453125 20.8935546875 -42.94140625
3.62548828125 29.0244140625 -8.891845703125
10.27490234375 -6.266357421875 47.091796875
11.349609375 -10.144287109375 49.3759765625
11.21044921875 -3.36181640625 4.00048828125
-12.692138671875 -28.072998046875 60.559814453125
10.676513671875 -11.16015625 68.14599609375
-0.130859375 45.170654296875 -71.75146484375
6.765380859375 18.22509765625 -21.90234375
4.134033203125 27.912109375 -12.574951171875
6.638916015625 -3.78515625 45.32373046875
-1.173583984375 -26.15966796875 78.367919921875
12.892822265625 -17.229736328125 57.826416015625
-2.444580078125 58.77783203125 -61.846435546875
-0.29052734375 57.269775390625 -65.44482421875
-22.73046875 23.73583984375 -41.80615234375
0.748046875 45.79150390625 -39.789306640625
5.552734375 23.41162109375 -24.365234375
-6.54052734375 -21.947265625 43.458740234375
9.049560546875 1.65478515625 27.76953125
5.363525390625 20.977783203125 -1.344970703125
-8.385498046875 -24.784423828125 50.91650390625
0.490966796875 47.396484375 -41.0830078125
-4.228759765625 -31.746826171875 74.50341796875
10.489013671875 0.00830078125 -16.2705078125
10.960205078125 -3.5458984375 12.300048828125
11.100341796875 -6.734375 25.673095703125
11.9189453125 -6.683837890625 -3.697998046875
-7.1162109375 8.1689453125 -61.0234375
6.748779296875 15.145263671875 2.052001953125
-3.7216796875 -25.85546875 78.7490234375
7.88720703125 12.470947265625 -13.72607421875
3.89208984375 27.223388671875 -4.68017578125
2.103759765625 37.202392578125 -19.10595703125
-14.645751953125 14.332763671875 -58.179443359375
-19.748046875 16.7744140625 -56.47412109375
3.530029296875 38.896728515625 -63.472900390625
1.504150390625 44.54638671875 -47.787109375
4.073974609375 35.676513671875 -61.682861328125
7.343017578125 11.228759765625 10.923828125
11.69384765625 -9.265380859375 -8.194580078125
-20.96142578125 21.61865234375 -40.548583984375
2.6865234375 32.321044921875 -6.61962890625
5.872314453125 22.6396484375 -27.83251953125
-2.066650390625 43.101318359375 -58.9365234375
-10.609375 -23.632080078125 47.499267578125
2.4345703125 36.38916015625 -24.468505859375
3.618408203125 33.780517578125 -40.5146484375
2.89306640625 38.891357421875 -50.057861328125
1.53173828125 41.8017578125 -33.59814453125
9.345703125 3.109375 12.296875
0.37890625 46.411376953125 -36.999267578125
-10.437744140625 -32.458251953125 74.899658203125
4.555419921875 31.482666015625 -48.610107421875
-9.287353515625 -31.96630859375 73.04296875
1.875732421875 37.458251953125 -14.97705078125
8.3896484375 10.321044921875 -13.089111328125
-0.65185546875 54.9208984375 -61.009033203125
2.798583984375 42.248291015625 -66.78271484375
12.79248046875 -18.873779296875 61.048583984375
-21.959716796875 9.30224609375 -62.7509765625
11.628173828125 -9.560546875 34.951171875
7.126220703125 18.599609375 -35.5185546875
10.220458984375 4.309326171875 -25.93017578125
13.148681640625 -17.681396484375 43.51953125
9.155029296875 5.698974609375 3.181640625
11.734619140625 -10.72412109375 44.403564453125
8.2275390625 -33.744384765625 8.591552734375
13.0380859375 -20.97412109375 72.882080078125
9.285888671875 -0.990966796875 39.614013671875
-17.40234375 17.97314453125 -54.16796875
-2.54150390625 -21.43408203125 43.716796875
-12.80322265625 -29.435791015625 65.15966796875
-13.00048828125 -32.1171875 73.629638671875
6.21044921875 20.052001953125 -14.38232421875
2.95556640625 37.59326171875 -42.470458984375
12.29638671875 -18.028564453125 74.345947265625
10.376220703125 -4.536376953125 38.6357421875
8.368896484375 6.8349609375 10.26416015625
-2.676025390625 54.65771484375 -41.750732421875
-10.30810546875 -28.850341796875 63.74755859375
-20.876708984375 22.372314453125 -44.5048828125
0.518798828125 44.7724609375 -26.14404296875
-3.567626953125 -22.705810546875 44.862548828125
-0.9453125 -23.67041015625 49.95947265625
0.2314453125 43.650634765625 -56.70166015625
12.878662109375 -15.827392578125 51.75146484375
9.837890625 -0.54296875 20.83203125
4.481689453125 26.31640625 -14.556884765625
11.089599609375 -12.985595703125 67.507080078125
12.63232421875 -11.8427734375 23.098876953125
-4.8896484375 7.25537109375 -59.98291015625
4.338623046875 29.244384765625 -33.357421875
0.97216796875 45.514892578125 -43.68310546875
-7.47998046875 -22.90576171875 45.121337890625
9.7265625 -2.55224609375 38.063720703125
10.276611328125 -3.26611328125 24.117431640625
-12.610107421875 -26.808349609375 56.860107421875
8.733642578125 6.17626953125 6.431884765625
5.781005859375 21.41015625 -11.528564453125
7.436279296875 15.8388671875 -25.423828125
1.62109375 44.67626953125 -54.580078125
4.1875 31.31201171875 -38.129150390625
-2.46240234375 46.86865234375 -70.846435546875
8.02685546875 -3.382568359375 47.718017578125
3.684814453125 30.828369140625 -20.70166015625
10.31591796875 -4.470947265625 31.927490234375
10.15673828125 -4.4248046875 43.47265625
10.551025390625 -10.315673828125 63.983642578125
4.755126953125 32.794677734375 -61.923095703125
0.652099609375 48.171875 -54.12939453125
10.92919921875 -6.447265625 29.53564453125
-1.91650390625 55.883056640625 -45.45751953125
13.226806640625 -17.58935546875 46.47509765625
1.34765625 42.761962890625 -37.955322265625
12.915283203125 -14.557373046875 31.941162109375
11.27978515625 -4.822265625 -3.4013671875
0.43017578125 40.954345703125 -59.32470703125
-21.802490234375 17.3125 -57.028564453125
3.641357421875 29.102294921875 -6.266845703125
-0.242431640625 54.235595703125 -68.298583984375
3.03466796875 30.776611328125 -5.2822265625
11.306396484375 -5.875732421875 22.10888671875
-20.506103515625 20.510009765625 -51.949462890625
-1.6318359375 58.468017578125 -55.30126953125
-14.06689453125 -23.337646484375 46.1435546875
-3.23779296875 -18.639892578125 52.970458984375
9.648681640625 -0.244873046875 23.190673828125
-2.386962890625 -31.10986328125 73.17822265625
2.0087890625 38.387451171875 -28.275634765625
1.197509765625 41.804931640625 -27.49560546875
-3.456298828125 57.9501953125 -52.2177734375
-3.37060546875 56.85888671875 -49.130126953125
6.377197265625 20.637939453125 -24.69482421875
-0.459228515625 51.710205078125 -42.134765625
10.97021484375 -10.697509765625 56.407470703125
-1.24267578125 56.089599609375 -49.369873046875
12.710205078125 -14.868896484375 43.83251953125
-17.630859375 19.081787109375 -51.650634765625
-14.868896484375 10.99951171875 -62.76220703125
3.156005859375 29.45361328125 0.357421875
-17.06591796875 15.53173828125 -57.183349609375
1.7099609375 38.5908203125 -17.6826171875
-14.706298828125 -30.203125 66.571533203125
-22.183349609375 23.217529296875 -47.907470703125
12.569091796875 -20.9384765625 82.62841796875
-0.865478515625 53.004150390625 -39.500244140625
12.00048828125 -14.843994140625 58.16552734375
11.98828125 -11.881103515625 42.17919921875
12.30419921875 -11.7001953125 19.074951171875
9.4892578125 -3.650146484375 46.440185546875
12.878662109375 -17.13818359375 55.4345703125
0.806640625 50.435791015625 -67.7001953125
8.239990234375 5.089599609375 24.013671875
-14.668212890625 -27.09130859375 57.53857421875
-12.081787109375 -23.197265625 45.597412109375
9.49560546875 6.4794921875 -18.8642578125
-23.652587890625 24.8466796875 -45.141845703125
-19.231689453125 21.130615234375 -48.797119140625
4.80078125 26.41357421875 -17.00439453125
11.302734375 -11.909912109375 60.35791015625
-18.32275390625 9.961669921875 -63.128173828125
6.010009765625 18.400146484375 1.330810546875
6.573486328125 21.307861328125 -32.933837890625
-23.802978515625 24.26220703125 -47.28076171875
9.59130859375 6.93798828125 -23.823486328125
-23.742919921875 22.598876953125 -50.6953125
6.741943359375 13.104736328125 11.8388671875
-0.197509765625 49.423828125 -39.466796875
-15.03173828125 13.124267578125 -59.9052734375
12.36181640625 -12.520751953125 38.05322265625
-11.402587890625 -25.0927734375 51.437744140625
11.60986328125 -35.240478515625 11.769287109375
-0.852783203125 -21.32470703125 52.855712890625
9.576416015625 -0.594970703125 26.362060546875
12.676025390625 -14.768798828125 39.99267578125
11.7041015625 -10.638671875 40.57861328125
12.040283203125 -9.327392578125 16.41015625
-0.991455078125 55.67919921875 -56.6640625
11.92822265625 -16.987060546875 72.818115234375
-20.657470703125 14.782470703125 -59.8310546875
-19.187255859375 17.663818359375 -54.909423828125
13.237060546875 -20.9873046875 48.592041015625
-23.792236328125 21.56005859375 -52.26513671875
-1.2939453125 58.502197265625 -58.65625
10.335693359375 -0.554443359375 11.436279296875
11.54345703125 -14.846923828125 70.0390625
4.6259765625 33.3046875 -55.8525390625
-22.241943359375 23.3798828125 -43.5849609375
1.08056640625 42.16064453125 -57.4677734375
4.15478515625 24.495361328125 4.677978515625
-4.073974609375 -23.3310546875 46.576171875
-0.662109375 -32.052490234375 75.908935546875
10.15771484375 -6.836181640625 51.354248046875
12.13818359375 -10.743896484375 30.13330078125
-10.764404296875 -31.365234375 70.924560546875
2.2421875 36.07421875 -11.7939453125
-1.3310546875 56.420654296875 -67.359619140625
10.65771484375 1.348876953125 -10.73779296875
10.96728515625 -7.88916015625 41.351318359375
10.01416015625 6.485107421875 -25.602294921875
5.97216796875 22.9599609375 -29.99755859375
-9.02294921875 -26.8369140625 58.017822265625
-0.851318359375 49.242431640625 -71.64697265625
8.291748046875 12.044189453125 -20.86181640625
11.271484375 -8.78515625 37.44775390625
1.841552734375 41.102783203125 -61.774658203125
12.573486328125 -19.06884765625 70.313720703125
11.575439453125 -5.673583984375 15.0634765625
9.25146484375 0.077392578125 34.748046875
-4.74609375 -18.3681640625 58.1669921875
10.6884765625 -2.25634765625 7.932373046875
10.859130859375 -4.1455078125 18.463134765625
10.270263671875 0.31591796875 9.082275390625
12.216064453125 -9.87841796875 18.555419921875
3.8291015625 36.403564453125 -70.967529296875
5.509033203125 31.767822265625 -64.46435546875
-6.34912109375 -19.348876953125 55.37939453125
13.073974609375 -20.584228515625 68.592529296875
7.233154296875 13.897216796875 0.39794921875
10.5126953125 -6.374267578125 43.716552734375
6.700439453125 17.98046875 -17.76708984375
-1.04296875 52.587158203125 -37.3291015625
-1.24560546875 52.7998046875 -69.00537109375
12.665771484375 -11.930908203125 26.811767578125
12.89208984375 -20.661376953125 77.8828125
7.38671875 12.439453125 4.134033203125
10.657470703125 -3.6083984375 -10.594970703125
-3.102294921875 56.2255859375 -46.95947265625
2.982177734375 39.720458984375 -61.16943359375
11.502197265625 -7.3642578125 2.061767578125
-20.1689453125 12.036865234375 -61.7880859375
-14.52587890625 -28.644287109375 62.590576171875
4.20849609375 35.14208984375 -69.43359375
-0.0166015625 50.348388671875 -49.001220703125
5.737548828125 26.61767578125 -43.99755859375
7.613037109375 13.76171875 -32.931640625
7.475341796875 3.456787109375 28.6396484375
3.184814453125 35.7890625 -42.316162109375
12.842529296875 -18.838623046875 63.35986328125
-0.291015625 52.589111328125 -50.966796875
11.154052734375 -3.776611328125 9.2236328125
2.53857421875 37.321533203125 -35.001220703125
2.113037109375 43.051513671875 -50.64111328125
6.406982421875 15.905029296875 4.361572265625
5.499267578125 22.3310546875 -6.717529296875
9.87158203125 -6.9189453125 55.701904296875
2.822021484375 35.7373046875 -31.17626953125
11.180419921875 -5.299560546875 -0.28857421875
-3.902099609375 59.3125 -58.351806640625
11.49267578125 -7.18603515625 19.36865234375
-14.71826171875 -24.314697265625 48.9169921875
5.25732421875 28.513916015625 -54.339111328125
9.7197265625 -2.493896484375 35.7939453125
-8.319580078125 47.262451171875 -62.330078125
7.628662109375 12.484619140625 -8.626220703125
10.806396484375 -5.238525390625 -7.5166015625
-0.095458984375 51.165283203125 -60.8994140625
0.48876953125 49.899169921875 -57.860107421875
6.0283203125 9.748291015625 18.286865234375
3.207275390625 32.79638671875 -22.563232421875
9.831787109375 2.129638671875 0.594970703125
12.95068359375 -19.785400390625 66.81787109375
-0.910888671875 -28.532958984375 77.31005859375
3.40185546875 39.242919921875 -66.916748046875
-0.992431640625 43.387939453125 -72.028564453125
0.10791015625 53.169677734375 -63.9228515625
10.630615234375 0.417724609375 -14.53662109375
0.70703125 49.243408203125 -70.772705078125
5.533935546875 28.557861328125 -47.94677734375
9.97802734375 4.56103515625 -28.998291015625
-0.969482421875 56.37841796875 -59.1806640625
-0.3701171875 51.513671875 -52.388916015625
3.076171875 37.050537109375 -46.186767578125
9.221923828125 4.814697265625 7.615966796875
7.87109375 -1.68603515625 42.707275390625
7.028076171875 11.10400390625 14.961669921875
-2.056640625 51.1005859375 -71.054443359375
10.2060546875 2.9150390625 -14.706298828125
2.849609375 32.794921875 -8.3232421875
11.92529296875 -13.871826171875 55.508544921875
9.6279296875 6.059814453125 -22.28271484375
10.677978515625 -8.17724609375 49.576904296875
11.169677734375 -7.364990234375 -0.31494140625
3.178955078125 37.3232421875 -48.22607421875
3.844482421875 35.16796875 -49.798583984375
10.38427734375 -1.546630859375 15.317138671875
7.532958984375 16.180419921875 -27.619873046875
9.147216796875 0.894775390625 30.126953125
7.37451171875 10.338134765625 12.601806640625
5.7392578125 24.889404296875 -30.859619140625
8.54296875 8.77392578125 -6.68115234375
4.6923828125 26.939453125 -20.946044921875
1.005859375 45.17724609375 -56.274169921875
4.1103515625 26.152587890625 1.45654296875
7.667724609375 12.543701171875 -4.595703125
-0.0244140625 49.731201171875 -63.007080078125
5.72216796875 24.828369140625 -39.11279296875
4.015869140625 29.168701171875 -27.145263671875
-2.067626953125 54.177001953125 -40.02099609375
8.591552734375 10.113037109375 -16.682373046875
12.7958984375 -15.303955078125 37.724609375
12.490966796875 -34.09326171875 8.673828125
4.2392578125 32.26171875 -43.439697265625
2.352783203125 40.558837890625 -49.144287109375
0.43701171875 43.6552734375 -27.613037109375
5.0458984375 21.80615234375 1.567626953125
0.149169921875 47.365234375 -56.84326171875
-0.539306640625 52.099365234375 -45.74365234375
10.988037109375 -6.51416015625 -10.1611328125
-5.087890625 57.823486328125 -63.982421875
8.688232421875 9.60546875 -22.028076171875
4.19873046875 34.452392578125 -58.575927734375
6.3330078125 18.563232421875 -7.368408203125
12.176025390625 -18.75146484375 79.76611328125
-3.28173828125 55.13623046875 -43.472900390625
10.59228515625 -5.80517578125 36.5400390625
7.1298828125 15.615966796875 -12.963623046875
3.342041015625 38.959228515625 -71.4541015625
3.379638671875 29.228271484375 -1.909912109375
-13.8486328125 16.00732421875 -54.62158203125
6.19482421875 20.941650390625 -20.59423828125
-0.37646484375 56.3359375 -63.984375
10.150146484375 1.418212890625 -5.2109375
-13.632080078125 -25.93798828125 54.113525390625
8.956298828125 8.530029296875 -19.403076171875
5.972900390625 19.248779296875 -5.7275390625
-4.599609375 -21.88720703125 43.74267578125
9.579833984375 -3.28173828125 44.63232421875
11.122802734375 -1.271728515625 -5.013671875
4.842041015625 33.849365234375 -65.841796875
10.670166015625 -5.118408203125 26.443359375
5.423095703125 23.0009765625 -14.85400390625
7.440185546875 14.823974609375 -17.845703125
3.2900390625 31.47314453125 -11.834716796875
9.35986328125 -1.83203125 41.3447265625
10.148681640625 -4.3623046875 41.17578125
5.974853515625 22.057373046875 -23.2451171875
12.239501953125 -11.623291015625 33.3310546875
10.985595703125 -3.717529296875 -5.446533203125
-16.050537109375 16.27587890625 -52.5048828125
2.0068359375 39.16748046875 -30.384521484375
6.35546875 18.65869140625 -10.805908203125
10.066162109375 0.499755859375 12.892822265625
0.923828125 46.81689453125 -48.180908203125
10.21240234375 5.031005859375 -19.417724609375
12.502685546875 -17.99169921875 66.7236328125
2.441162109375 41.4716796875 -55.502197265625
5.731201171875 24.859619140625 -35.959228515625
7.734619140625 8.543701171875 15.563232421875
6.705810546875 16.0234375 -5.046142578125
9.730712890625 3.88720703125 -3.326171875
0.451171875 49.250732421875 -51.740478515625
-10.128662109375 -30.38623046875 67.237548828125
3.250244140625 32.816650390625 -29.68359375
11.84033203125 -6.482666015625 7.733154296875
4.84912109375 29.872802734375 -44.88818359375
9.261474609375 -4.578125 50.992919921875
0.43896484375 47.90087890625 -44.78857421875
11.546875 -7.31103515625 4.1220703125
5.666015625 20.090087890625 0.5732421875
2.9931640625 38.278076171875 -54.27734375
-20.573486328125 21.236328125 -50.174560546875
4.866943359375 24.85546875 -11.32275390625
8.953857421875 9.621826171875 -25.718994140625
8.340576171875 8.831298828125 3.989990234375
-18.986572265625 15.64599609375 -57.831787109375
1.5087890625 42.220458984375 -44.788330078125
3.87890625 30.428466796875 -31.787841796875
6.436279296875 14.9951171875 10.215576171875
6.947021484375 15.906982421875 -8.74609375
2.457763671875 35.666015625 -21.723876953125
-0.45654296875 36.328857421875 -70.73974609375
3.835693359375 29.537109375 -21.833251953125
9.554931640625 5.345458984375 -6.317626953125
5.9208984375 12.33447265625 14.685302734375
4.743896484375 28.58251953125 -58.552734375
13.3017578125 -19.13720703125 58.008056640625
2.389892578125 35.52783203125 -18.3583984375
4.42724609375 32.7392578125 -51.810791015625
9.02587890625 7.646484375 -13.152587890625
-2.442138671875 -19.272705078125 59.08642578125
3.182861328125 31.173095703125 -9.608642578125
0.3720703125 50.624267578125 -69.4814453125
5.23828125 28.50146484375 -46.302490234375
-0.98193359375 54.56201171875 -48.75048828125
-16.517333984375 11.131591796875 -62.5458984375
10.584716796875 -4.21533203125 22.545654296875
10.694580078125 -9.3779296875 53.926025390625
3.4033203125 32.62109375 -16.933837890625
9.706787109375 5.0263671875 -11.2431640625
1.193115234375 42.51806640625 -30.833740234375
3.056396484375 32.480712890625 -13.137451171875
5.967529296875 17.291015625 7.300537109375
2.10498046875 40.848876953125 -40.938232421875
-10.378173828125 -25.95703125 54.1650390625
4.6982421875 33.3779296875 -67.923095703125
11.48974609375 -12.270263671875 58.64794921875
3.50341796875 36.578125 -52.125
12.5615234375 -14.387451171875 45.407958984375
-0.5234375 -18.196044921875 55.107421875
7.4189453125 13.749267578125 -12.7939453125
2.537841796875 34.426513671875 -9.721435546875
9.440185546875 -1.2431640625 31.987060546875
9.259521484375 1.465087890625 23.86328125
1.2451171875 45.265625 -51.235107421875
5.225341796875 30.06591796875 -61.3232421875
-4.412353515625 58.7666015625 -55.83154296875
4.67919921875 30.2294921875 -41.636962890625
-23.895263671875 11.10693359375 -61.857666015625
-0.399169921875 51.17919921875 -40.2587890625
8.201416015625 8.257568359375 9.3076171875
11.387939453125 -12.433349609375 54.93017578125
4.9619140625 27.716064453125 -32.507568359375
5.066650390625 17.213623046875 9.994873046875
2.09814453125 42.14990234375 -52.212646484375
7.3173828125 13.252685546875 -1.58251953125
5.183349609375 21.31982421875 4.285400390625
-1.111572265625 56.942138671875 -55.04296875
7.799560546875 0.2880859375 36.778076171875
-9.5517578125 11.03857421875 -59.715087890625
4.199462890625 28.896240234375 -24.090087890625
-14.2646484375 -30.870849609375 70.16943359375
7.751708984375 15.09814453125 -30.880126953125
3.114990234375 39.350341796875 -59.4755859375
-14.76513671875 -25.42236328125 52.439697265625
10.713134765625 -6.344482421875 34.3076171875
4.89306640625 32.405517578125 -60.2158203125
11.160400390625 -12.574462890625 64.02783203125
4.6064453125 29.1982421875 -34.97412109375
8.22705078125 9.59033203125 -3.746337890625
3.570068359375 36.6884765625 -57.06787109375
12.316650390625 -13.9921875 42.522705078125
8.922119140625 7.100830078125 -5.302490234375
11.6015625 -14.34130859375 64.115478515625
12.42724609375 -10.30908203125 20.61865234375
-7.3212890625 42.321533203125 -64.94970703125
6.172119140625 20.85498046875 -17.23193359375
12.734130859375 -12.938720703125 30.08837890625
-22.29931640625 19.845703125 -35.37060546875
2.363525390625 43.2900390625 -68.193603515625
5.090576171875 28.0771484375 -39.74755859375
9.74267578125 7.564697265625 -28.194580078125
11.3291015625 -8.330078125 31.90576171875
6.43603515625 15.0166015625 8.1044921875
-22.3662109375 22.598876953125 -49.388427734375
8.705078125 4.861083984375 15.468505859375
9.524169921875 1.61083984375 15.438232421875
3.140380859375 33.38818359375 -26.5
-0.693603515625 -25.705810546875 79.924560546875
-3.68359375 -24.67578125 79.84765625
0.33544921875 -18.579345703125 57.13525390625
5.374267578125 28.04931640625 -49.46630859375
4.19580078125 26.39990234375 -1.46240234375
12.326904296875 -14.301513671875 48.825439453125
6.01416015625 17.46044921875 4.39794921875
8.003173828125 8.514892578125 12.33837890625
-3.0478515625 58.968994140625 -54.73876953125
9.598388671875 2.052001953125 9.44189453125
-10.16845703125 -22.259033203125 43.349609375
1.780029296875 38.7177734375 -21.03857421875
10.330078125 -8.72900390625 59.6904296875
-21.612548828125 11.08251953125 -62.859619140625
3.11474609375 34.8994140625 -33.238525390625
-16.293212890625 16.2080078125 -55.845947265625
5.575927734375 24.372314453125 -32.4248046875
-5.04736328125 56.584228515625 -49.826904296875
-11.335693359375 14.297119140625 -54.411865234375
-6.015625 -23.418212890625 51.705322265625
-9.037353515625 -27.93212890625 60.00732421875
10.229248046875 2.780029296875 -8.52001953125
11.996826171875 -16.55810546875 69.288330078125
13.412353515625 -18.1826171875 48.77978515625
2.63671875 42.434326171875 -71.2666015625
3.67431640625 34.009521484375 -36.89697265625
11.563232421875 -14.86181640625 71.63232421875
-3.28515625 -22.92138671875 50.718994140625
-0.00439453125 54.315673828125 -65.178955078125
2.11474609375 42.968994140625 -53.629150390625
10.370849609375 -0.21826171875 5.55712890625
-1.590576171875 59.233642578125 -57.27587890625
-0.253662109375 49.414306640625 -35.71240234375
2.90869140625 36.711181640625 -37.8359375
8.986572265625 -6.827392578125 58.543701171875
10.819580078125 -7.54150390625 46.02783203125
5.841064453125 23.44677734375 -42.072265625
-21.377685546875 22.425537109375 -46.33349609375
5.047607421875 24.529052734375 -9.466796875
-13.879638671875 -24.71240234375 50.948486328125
-0.018310546875 49.024169921875 -42.646240234375
-22.349853515625 19.09619140625 -54.843017578125
6.468994140625 17.090576171875 -0.94873046875
2.923095703125 33.61474609375 -24.343994140625
11.548828125 -14.614990234375 65.91064453125
12.708251953125 -6.950927734375 -5.415283203125
10.714111328125 -6.60498046875 40.460205078125
4.22314453125 34.5810546875 -55.01953125
5.292724609375 27.825927734375 -43.088623046875
3.44580078125 32.52099609375 -32.408447265625
-4.22705078125 -20.791015625 52.852783203125
12.97265625 -21.42236328125 76.453369140625
10.6640625 -1.09521484375 1.892333984375
13.34033203125 -18.199462890625 44.994140625
-21.263427734375 20.1923828125 -37.38916015625
-23.7666015625 22.117431640625 -35.833740234375
-19.933349609375 19.001708984375 -38.8447265625
10.1044921875 -0.544677734375 17.539306640625
-0.84619140625 56.606201171875 -61.707763671875
4.130126953125 27.916015625 -10.57861328125
-4.75537109375 54.734130859375 -43.83056640625
5.176025390625 28.410400390625 -28.5029296875
5.217041015625 29.203369140625 -59.912841796875
-7.020263671875 -23.501953125 46.980712890625
9.953857421875 6.136474609375 -20.736083984375
-19.842529296875 20.7158203125 -41.172607421875
8.1806640625 9.316650390625 1.95751953125
-1.580322265625 58.109130859375 -64.537353515625
1.038818359375 43.51904296875 -36.50390625
11.6318359375 -11.24755859375 47.8515625
7.52978515625 13.12890625 -10.04931640625
8.55517578125 5.240478515625 19.87548828125
3.892578125 34.528564453125 -46.639892578125
8.83349609375 11.037841796875 -22.640869140625
9.89794921875 -34.55712890625 10.22412109375
9.0693359375 5.232177734375 9.819580078125
3.852783203125 31.27978515625 -26.230712890625
1.80908203125 40.94384765625 -34.988525390625
9.988037109375 -8.940673828125 62.65869140625
7.2099609375 12.796630859375 5.66015625
9.083251953125 6.612060546875 -3.295654296875
9.56298828125 3.0712890625 4.888427734375
0.712158203125 51.026123046875 -65.395751953125
5.144287109375 29.859130859375 -55.1171875
8.560546875 5.334228515625 16.94677734375
1.310302734375 44.859619140625 -45.183349609375
-12.113037109375 13.5361328125 -57.565673828125
8.87353515625 1.965087890625 31.605712890625
13.19677734375 -17.169921875 37.85546875
-12.8427734375 -30.58740234375 68.822021484375
-22.738525390625 23.030029296875 -40.425048828125
12.1025390625 -9.486083984375 23.749267578125
-20.3916015625 19.0869140625 -54.26220703125
-0.795166015625 -31.34375 74.18701171875
2.380126953125 37.91162109375 -24.826904296875
7.095703125 14.498291015625 -7.1533203125
7.254150390625 17.125732421875 -28.813720703125
0.293212890625 48.843505859375 -50.2421875
-19.452880859375 21.60400390625 -44.315673828125
0.178466796875 53.2412109375 -66.910400390625
8.712646484375 1.374755859375 33.54736328125
-22.346923828125 20.8330078125 -52.732666015625
0.746826171875 45.939453125 -35.5146484375
11.476806640625 -7.312255859375 20.906982421875
11.80517578125 -11.167236328125 36.822021484375
7.257080078125 15.1318359375 -15.67919921875
5.0400390625 25.355224609375 -24.872802734375
-7.70751953125 -21.57763671875 41.931884765625
-0.9111328125 53.480224609375 -43.18994140625
-3.638427734375 59.156005859375 -60.964111328125
