17.07275390625 5.38134765625 2.05859375
-0.789794921875 1.8077392578125 -27.84326171875
-7.110107421875 7.213623046875 28.024658203125
-11.71240234375 4.515380859375 -1.45361328125
-9.2109375 7.869140625 12.796630859375
-12.00634765625 1.2193603515625 59.177490234375
48.507080078125 5.759765625 3.219482421875
-26.742431640625 5.00927734375 54.19970703125
4.0390625 5.27978515625 53.592529296875
15.806640625 9.26708984375 42.718017578125
-27.302490234375 3.01416015625 61.247802734375
18.5869140625 7.76513671875 18.68359375
21.72314453125 2.1112060546875 -9.468505859375
1.86474609375 9.20947265625 25.42529296875
-18.184814453125 0.3206787109375 53.519287109375
-10.113525390625 3.8292236328125 -6.645263671875
-17.224853515625 1.7327880859375 46.53955078125
28.1416015625 3.6187744140625 -1.29443359375
11.69921875 9.1983642578125 31.038330078125
-14.83447265625 3.9412841796875 -10.76220703125
-8.451416015625 3.39111328125 -14.42724609375
27.4560546875 6.568603515625 10.275634765625
-15.59326171875 7.1983642578125 9.76708984375
-8.14794921875 0.8580322265625 -24.457763671875
5.375 5.6767578125 8.303466796875
6.873779296875 7.3433837890625 41.990234375
12.164306640625 7.48779296875 18.41064453125
-4.048583984375 8.220947265625 15.927978515625
27.6337890625 8.0640869140625 25.88232421875
-4.1767578125 8.0498046875 22.918212890625
-16.171142578125 8.6180419921875 0.295166015625
-11.974365234375 3.446044921875 72.007568359375
29.951904296875 1.8426513671875 -17.435791015625
14.141357421875 9.9967041015625 33.26806640625
48.060302734375 4.9964599609375 -10.321044921875
31.802978515625 5.83154296875 8.779296875
18.33740234375 7.3052978515625 10.1767578125
4.27490234375 3.42431640625 -10.0439453125
-18.048828125 4.5467529296875 -3.444580078125
1.61279296875 2.0010986328125 -26.267333984375
-6.962646484375 4.419921875 -0.248779296875
-8.118896484375 5.2822265625 2.81396484375
0.2314453125 6.145263671875 9.05517578125
34.560302734375 5.12646484375 6.879638671875
42.72119140625 1.682861328125 -13.81005859375
-2.00390625 3.68701171875 54.33447265625
-24.482421875 3.765625 51.680419921875
44.815673828125 4.3226318359375 -2.551513671875
9.06494140625 4.933837890625 -0.6064453125
-11.491943359375 1.932861328125 54.338134765625
22.60546875 4.4520263671875 0.189208984375
15.551513671875 7.240966796875 8.98876953125
7.47900390625 4.0338134765625 -6.535888671875
0.59912109375 5.101318359375 4.406494140625
-31.07470703125 4.705322265625 65.6318359375
-20.450439453125 3.8758544921875 -6.93017578125
-14.269287109375 2.3341064453125 62.88037109375
18.344482421875 1.036865234375 -24.53564453125
23.192626953125 2.5823974609375 -16.734375
19.190673828125 2.3245849609375 -19.102294921875
3.9765625 6.5355224609375 44.18603515625
0.31103515625 4.3341064453125 -6.528564453125
-13.242431640625 5.58935546875 1.139892578125
35.435546875 7.2747802734375 15.765380859375
37.11962890625 7.4957275390625 -10.10009765625
27.65869140625 8.7347412109375 28.573486328125
33.524658203125 4.8311767578125 -0.061279296875
-6.443115234375 6.5931396484375 32.207763671875
39.25048828125 4.9659423828125 -1.8369140625
-12.637451171875 4.120849609375 37.644287109375
-7.298095703125 3.4371337890625 68.50048828125
-9.60009765625 8.4862060546875 16.32568359375
3.814208984375 7.56396484375 38.347900390625
46.46435546875 2.7607421875 -11.277099609375
10.528564453125 5.0582275390625 6.3583984375
-25.024658203125 2.072265625 57.12060546875
5.304931640625 8.824951171875 30.3681640625
-20.447998046875 1.4354248046875 57.22216796875
28.782958984375 2.6151123046875 -14.736328125
29.898193359375 0.39404296875 -23.248046875
27.36328125 7.765869140625 19.82568359375
23.75927734375 7.3388671875 17.51220703125
48.68115234375 7.259521484375 -4.730712890625
-26.3681640625 4.1920166015625 -9.429931640625
13.12109375 2.3642578125 -17.34619140625
2.93896484375 8.5809326171875 28.0107421875
15.39404296875 3.0084228515625 -7.993408203125
10.6650390625 4.162353515625 -4.95751953125
32.628173828125 6.63330078125 12.261474609375
28.595458984375 5.1258544921875 4.88525390625
-0.472900390625 8.5086669921875 18.2734375
-3.685791015625 7.32666015625 12.472412109375
-14.515869140625 3.6846923828125 -5.712646484375
7.979736328125 8.7811279296875 35.217529296875
-6.66552734375 3.218505859375 50.903564453125
22.81298828125 10.0311279296875 22.57470703125
-0.052978515625 9.1474609375 20.96875
-5.746337890625 3.95751953125 -4.67333984375
39.323974609375 6.8173828125 -6.56640625
-23.595703125 2.9990234375 -18.6552734375
5.638916015625 8.770751953125 33.21533203125
19.51220703125 8.042724609375 15.31787109375
40.525146484375 5.126953125 8.8740234375
-9.634765625 2.6004638671875 64.373046875
2.326416015625 5.3818359375 -1.0654296875
10.29296875 7.1973876953125 47.20263671875
14.80859375 9.6849365234375 36.982421875
35.027587890625 1.2484130859375 -27.8349609375
-15.189453125 5.7740478515625 67.340087890625
-24.0224609375 1.9603271484375 -24.15087890625
-3.0859375 7.8587646484375 27.83251953125
27.620361328125 4.0216064453125 -8.89404296875
8.361572265625 1.3165283203125 -26.146484375
-1.82373046875 8.156005859375 25.311767578125
-3.382568359375 2.6390380859375 60.43505859375
24.82666015625 7.1375732421875 21.239013671875
47.476318359375 4.8836669921875 -6.091796875
-2.950927734375 1.595947265625 -19.770263671875
-10.710205078125 4.8834228515625 73.706298828125
25.164794921875 1.9388427734375 -18.650146484375
38.332275390625 1.746826171875 -15.02001953125
41.158203125 5.3662109375 3.422119140625
23.748291015625 3.1053466796875 -4.8154296875
16.226318359375 4.0025634765625 -3.7392578125
-0.557861328125 1.78857421875 -18.20068359375
31.91748046875 8.90966796875 21.1298828125
-21.34033203125 -1.353515625 48.00634765625
19.4296875 11.12939453125 35.403564453125
30.302978515625 -0.4254150390625 -27.601318359375
24.168701171875 10.74658203125 35.455078125
-14.010498046875 6.623046875 6.209716796875
7.3505859375 5.8585205078125 10.28564453125
-26.7119140625 5.9193115234375 -0.84765625
-9.6806640625 5.888916015625 4.718994140625
-22.84130859375 3.4923095703125 -9.2626953125
31.2646484375 4.93310546875 -4.6357421875
1.291259765625 8.4525146484375 30.490478515625
40.759765625 2.6162109375 -10.731689453125
44.90185546875 6.640380859375 6.748046875
41.20458984375 3.8394775390625 -5.690185546875
32.38330078125 2.80859375 -12.760009765625
29.9267578125 1.1666259765625 -20.148193359375
-15.69873046875 0.985595703125 -26.469482421875
36.827392578125 5.80419921875 2.520263671875
5.140380859375 5.6265869140625 -0.345458984375
22.422119140625 3.763671875 -11.661865234375
12.2861328125 1.712158203125 -19.630615234375
-13.302001953125 1.2744140625 -24.513916015625
-12.45166015625 2.7493896484375 -18.329833984375
9.357421875 1.0841064453125 -17.70703125
30.6923828125 8.0439453125 17.257568359375
-2.577392578125 0.1474609375 -27.241455078125
-10.016845703125 4.493408203125 -9.341064453125
32.7685546875 0.429931640625 -24.56787109375
-2.1845703125 5.091064453125 4.031494140625
18.148681640625 8.6380615234375 25.010498046875
9.4248046875 8.3818359375 21.07177734375
-23.983154296875 4.73779296875 -4.662109375
5.90625 9.6270751953125 24.877685546875
-11.778564453125 4.18896484375 62.138916015625
23.3359375 9.66064453125 30.8330078125
-2.1201171875 6.81494140625 34.538818359375
-10.04150390625 3.999755859375 47.20166015625
6.607421875 6.265625 48.61474609375
0.569091796875 4.8798828125 48.540283203125
-17.0419921875 6.9749755859375 68.7001953125
-12.184814453125 2.2626953125 50.34228515625
-19.77783203125 6.799560546875 69.909423828125
-12.31103515625 3.8031005859375 40.50537109375
-20.10302734375 0.2362060546875 51.98046875
42.249267578125 1.4429931640625 -24.644775390625
-0.05126953125 5.814697265625 45.16455078125
42.22412109375 0.7642822265625 -27.36767578125
-28.267578125 4.5166015625 -20.752685546875
42.926513671875 4.976806640625 8.475341796875
29.404541015625 3.5933837890625 -3.37744140625
-20.44189453125 1.7547607421875 -24.977294921875
37.17041015625 2.7125244140625 -11.545654296875
24.7451171875 1.3914794921875 -20.979248046875
19.88037109375 6.0228271484375 5.5625
20.187255859375 3.5860595703125 -4.082275390625
29.420654296875 5.927490234375 8.367431640625
-21.276123046875 2.8311767578125 -11.980224609375
2.972900390625 5.0057373046875 4.81689453125
-21.186767578125 5.3768310546875 -1.172119140625
17.40869140625 10.0433349609375 30.38427734375
14.921630859375 7.0728759765625 17.671630859375
-17.3125 3.045654296875 -9.20263671875
20.197998046875 10.49072265625 33.10546875
-23.911865234375 6.6541748046875 3.02685546875
-7.915771484375 2.724853515625 26.7099609375
47.954345703125 3.3599853515625 -15.681396484375
47.48388671875 2.08984375 -20.30908203125
39.3251953125 4.399169921875 4.9619140625
34.70947265625 0.435546875 -22.079833984375
35.951171875 2.1329345703125 -14.27099609375
27.510009765625 0.5870361328125 -23.27392578125
37.42529296875 1.0546875 -27.808837890625
-6.849365234375 4.30517578125 44.337646484375
17.494384765625 6.022705078125 4.7646484375
-4.8115234375 5.0267333984375 -6.669189453125
-27.07666015625 7.069580078125 5.4169921875
-8.27001953125 11.1932373046875 24.61962890625
-28.18359375 7.34375 -5.8076171875
21.724365234375 8.9259033203125 27.35595703125
8.2900390625 9.8189697265625 26.441162109375
45.755615234375 2.259521484375 -16.554443359375
-17.31298828125 2.462890625 60.13720703125
47.6162109375 4.48388671875 -0.97119140625
-19.570068359375 1.572509765625 47.377197265625
-21.58837890625 3.005126953125 -20.358642578125
-6.506591796875 2.2078857421875 59.35595703125
12.66552734375 5.94921875 5.256591796875
-20.339599609375 7.2935791015625 8.56298828125
47.0302734375 0.667724609375 -26.148681640625
35.104736328125 0.84521484375 -19.704345703125
23.90966796875 0.3935546875 -25.250244140625
26.294189453125 0.10400390625 -25.61181640625
-9.622314453125 3.3564453125 68.521728515625
4.632080078125 2.3341064453125 -14.28515625
-11.333984375 0.7294921875 -26.0361328125
24.919921875 2.5283203125 -6.732177734375
2.303466796875 3.873046875 -8.907470703125
13.88671875 5.2528076171875 0.48046875
12.268798828125 4.51513671875 -3.010498046875
-5.674560546875 7.1029052734375 10.9130859375
10.054931640625 9.2071533203125 33.48388671875
38.998046875 1.3275146484375 -24.973876953125
17.81884765625 6.8472900390625 12.365966796875
3.841796875 0.6240234375 -24.995849609375
7.39794921875 7.9757080078125 39.43701171875
-15.949951171875 2.6302490234375 43.17333984375
-1.44482421875 4.60205078125 50.195556640625
-5.5751953125 5.0516357421875 42.57470703125
-5.501953125 5.3406982421875 39.715087890625
35.9296875 5.5162353515625 -8.634765625
-2.19287109375 7.78466796875 21.336181640625
12.61474609375 9.6693115234375 28.477783203125
15.771240234375 10.529541015625 34.75634765625
-11.986572265625 6.794921875 35.82666015625
-3.277099609375 2.948486328125 56.060546875
12.75537109375 9.343505859375 37.883056640625
32.84228515625 4.418212890625 -6.16845703125
20.356201171875 1.45556640625 -22.189208984375
32.813720703125 3.6456298828125 -9.268310546875
3.125732421875 7.774658203125 34.275146484375
8.269775390625 1.2205810546875 -22.335205078125
-24.2568359375 1.4658203125 52.145751953125
36.657470703125 -0.345703125 -23.949462890625
6.725341796875 5.156005859375 -2.298828125
19.03369140625 4.64404296875 -0.235595703125
19.908935546875 6.79248046875 8.650146484375
17.826416015625 4.2591552734375 -2.17822265625
12.23291015625 3.55322265625 -6.8701171875
18.34033203125 2.952880859375 -13.852294921875
-19.96630859375 6.2392578125 2.685302734375
4.6181640625 6.9442138671875 13.7158203125
-13.498046875 6.6932373046875 -2.904541015625
16.3759765625 2.56298828125 -17.879638671875
1.7470703125 6.763916015625 38.542724609375
-33.643310546875 7.1712646484375 66.765380859375
-26.59716796875 1.426025390625 55.690673828125
-0.056884765625 7.6160888671875 34.3369140625
25.0947265625 2.7510986328125 -11.800048828125
-2.5498046875 4.0732421875 -4.33740234375
3.845458984375 6.025146484375 47.885009765625
-15.527587890625 6.8721923828125 71.05517578125
-23.911376953125 1.249267578125 55.32080078125
-7.215087890625 2.2711181640625 55.42724609375
-24.29638671875 7.3251953125 7.36767578125
-16.525390625 1.4573974609375 51.31884765625
14.737060546875 6.727783203125 6.664306640625
-25.968017578125 3.0819091796875 -20.314697265625
45.500244140625 2.6390380859375 -18.774658203125
45.15966796875 2.8419189453125 -8.359375
20.453369140625 12.717529296875 19.862060546875
4.19384765625 0.6204833984375 -22.487060546875
-2.816162109375 5.3858642578125 43.679931640625
45.98828125 3.646728515625 -4.86328125
27.868408203125 -0.5074462890625 -27.531982421875
42.369873046875 2.970458984375 -8.777099609375
27.552978515625 1.745849609375 -18.6240234375
22.747802734375 1.359130859375 -21.77587890625
7.875732421875 8.293212890625 37.348388671875
35.71044921875 3.97216796875 2.64697265625
13.7998046875 9.2335205078125 26.53515625
-17.435791015625 7.237548828125 -3.844482421875
-10.212158203125 4.8270263671875 36.6650390625
-3.693603515625 3.0067138671875 -14.37548828125
25.377197265625 4.131591796875 -0.166748046875
34.142333984375 4.581298828125 4.5595703125
24.648681640625 5.9271240234375 6.77197265625
5.503662109375 4.3863525390625 -5.785400390625
37.4287109375 7.4031982421875 16.94482421875
40.171630859375 6.313232421875 13.501220703125
-6.15478515625 0.9864501953125 -23.2783203125
10.703857421875 5.56298828125 1.25830078125
4.26611328125 8.1258544921875 18.32470703125
1.490966796875 8.061767578125 17.141357421875
9.332275390625 5.890625 11.076171875
1.433837890625 6.5286865234375 10.990234375
-5.361572265625 4.8673095703125 2.074951171875
-8.272705078125 4.96484375 39.01953125
-21.9560546875 6.6663818359375 6.702880859375
18.360595703125 9.685302734375 38.170166015625
-11.602294921875 7.8795166015625 13.22998046875
-4.548828125 4.423583984375 47.872314453125
-10.426513671875 3.74365234375 -13.6767578125
28.79345703125 7.297607421875 23.2041015625
16.227783203125 2.8765869140625 -10.044189453125
43.356689453125 1.1802978515625 -22.888671875
40.706298828125 5.2803955078125 -7.373779296875
-1.00927734375 4.4622802734375 1.31298828125
10.31787109375 1.6661376953125 -21.6787109375
-26.845947265625 3.547119140625 55.667236328125
23.011962890625 2.950927734375 -8.08251953125
-28.242919921875 5.654052734375 -13.1865234375
-12.240966796875 1.9285888671875 52.378662109375
-7.604736328125 4.7698974609375 -8.629150390625
10.734375 1.0823974609375 -25.685791015625
24.453125 7.744384765625 23.54150390625
8.520751953125 5.0380859375 6.799560546875
-8.94970703125 3.80029296875 -4.58251953125
-12.45556640625 3.845458984375 -10.35107421875
-6.53271484375 6.0693359375 34.74609375
-27.899658203125 4.38330078125 -16.9541015625
44.218505859375 0.5059814453125 -27.735107421875
48.063232421875 5.169921875 1.3173828125
33.55224609375 2.0361328125 -15.45947265625
28.403076171875 3.130126953125 -12.80322265625
18.775634765625 12.62548828125 21.9619140625
11.78515625 8.3673095703125 40.1240234375
-27.516357421875 3.296142578125 -25.383544921875
-9.63720703125 6.16259765625 32.33544921875
1.531982421875 9.4559326171875 23.327392578125
-18.066650390625 1.4664306640625 -25.33740234375
31.056640625 7.1461181640625 13.7880859375
-4.504638671875 2.58984375 -16.31396484375
12.204345703125 2.78369140625 -9.957763671875
23.909423828125 7.43408203125 12.552734375
36.978515625 5.9923095703125 11.151123046875
35.4140625 6.6976318359375 13.449462890625
25.47021484375 6.632568359375 9.8681640625
7.8251953125 2.655029296875 -11.934814453125
10.218505859375 2.84765625 -10.365234375
-8.497802734375 2.140625 -19.444580078125
-33.165283203125 8.998291015625 68.01025390625
22.197509765625 11.001953125 35.818115234375
3.106201171875 8.8922119140625 21.003173828125
-12.548583984375 3.33349609375 -6.4599609375
-23.15771484375 5.6322021484375 -0.80908203125
-14.103271484375 4.1318359375 -3.7861328125
-24.8291015625 2.708740234375 -16.042236328125
-16.783935546875 10.67431640625 -1.961181640625
-25.22509765625 3.300537109375 -10.826171875
14.771484375 1.9608154296875 -21.4287109375
-19.627685546875 2.5697021484375 -20.245849609375
-11.59130859375 1.2545166015625 57.214599609375
-27.026123046875 6.58544921875 -7.25390625
-2.270751953125 6.177001953125 39.50537109375
15.425048828125 2.308349609375 -13.186767578125
33.26904296875 5.1585693359375 -3.064208984375
21.191650390625 2.4534912109375 -17.918212890625
39.881103515625 0.4593505859375 -19.652587890625
31.605224609375 3.3558349609375 -10.831298828125
39.91357421875 1.3284912109375 -16.165283203125
19.92578125 0.6185302734375 -25.680908203125
36.058837890625 5.030029296875 -2.646484375
25.8984375 7.9044189453125 15.69873046875
-22.02685546875 2.1849365234375 -22.586181640625
-24.69482421875 6.2606201171875 50.77978515625
-7.276123046875 2.9102783203125 -15.958251953125
-0.92919921875 2.4940185546875 -15.503173828125
15.015380859375 3.521484375 -6.068115234375
6.97509765625 1.1800537109375 -18.118896484375
22.976806640625 3.74658203125 -2.50830078125
21.119873046875 7.2734375 10.978759765625
22.77734375 9.0692138671875 18.715087890625
-8.829833984375 3.904052734375 -12.501708984375
-5.6259765625 4.5135498046875 -8.99365234375
4.58544921875 1.0836181640625 -19.302490234375
38.5537109375 5.57568359375 10.01025390625
8.19677734375 1.94970703125 -14.63232421875
-0.1005859375 3.391845703125 -11.635009765625
24.187744140625 4.6666259765625 2.17626953125
1.06396484375 2.6224365234375 -14.323974609375
22.251953125 5.6383056640625 4.81640625
-6.51904296875 1.88427734375 -19.80908203125
-2.061279296875 4.129150390625 -9.3408203125
-16.01123046875 3.6275634765625 -14.806396484375
13.1591796875 1.1651611328125 -25.75439453125
12.8720703125 5.22021484375 9.576904296875
18.977783203125 9.6282958984375 29.248046875
25.30712890625 9.4052734375 30.469970703125
-9.64501953125 6.8470458984375 8.5634765625
-16.372802734375 7.006103515625 6.952880859375
14.099609375 6.2742919921875 14.203125
14.181640625 8.47802734375 23.04541015625
-10.54541015625 3.9405517578125 -3.363037109375
-26.694091796875 6.3984375 1.074462890625
-16.87841796875 4.0677490234375 -4.969482421875
-14.2587890625 7.623046875 0.560546875
-14.845947265625 6.9228515625 11.884521484375
-7.369873046875 1.9630126953125 63.70068359375
-3.72705078125 2.73779296875 58.458984375
1.17919921875 7.7322998046875 32.28076171875
-22.410888671875 0.2894287109375 51.982421875
5.50830078125 6.0985107421875 4.062255859375
-17.022216796875 0.599609375 55.02294921875
-22.776611328125 0.784912109375 53.84228515625
-18.548095703125 1.3472900390625 59.1826171875
38.37890625 3.0023193359375 -9.982666015625
2.980224609375 3.2333984375 -27.5537109375
-1.111328125 7.986083984375 29.001220703125
48.8486328125 6.452880859375 -2.4013671875
-17.86767578125 7.3023681640625 -0.1279296875
37.184814453125 6.4310302734375 -5.16552734375
7.724609375 8.900390625 29.111328125
-25.2861328125 3.9295654296875 57.154052734375
-28.124267578125 2.040283203125 59.8740234375
0.577880859375 0.2496337890625 -23.97705078125
43.59912109375 0.95556640625 -19.45458984375
-3.303466796875 7.986572265625 17.619384765625
39.1142578125 0.219482421875 -22.07861328125
0.372314453125 4.037353515625 54.253173828125
36.410400390625 8.4688720703125 -8.287109375
-7.175048828125 -5.638671875 27.183837890625
41.166015625 5.0225830078125 1.446533203125
28.362548828125 3.927978515625 -7.207763671875
42.045654296875 6.1044921875 4.85986328125
-7.490234375 2.9849853515625 52.533203125
-7.92333984375 -1.630615234375 25.388427734375
11.5869140625 7.628173828125 44.70361328125
14.545166015625 8.9588623046875 43.9990234375
-15.632080078125 2.3297119140625 47.19287109375
31.120849609375 0.08984375 -25.2666015625
13.679931640625 5.635498046875 11.5078125
1.949951171875 5.059326171875 -4.2802734375
23.645263671875 6.892333984375 19.26806640625
-4.033447265625 5.0709228515625 -5.032958984375
-26.776611328125 2.6104736328125 -23.070068359375
-15.252197265625 2.30029296875 -21.061767578125
-20.85986328125 1.2095947265625 -27.29736328125
-18.499267578125 8.2308349609375 69.271728515625
-17.15576171875 6.4188232421875 1.36083984375
-10.81689453125 6.4580078125 34.28759765625
4.94189453125 4.9959716796875 6.031005859375
45.849365234375 1.2493896484375 -24.216552734375
-21.249267578125 2.8463134765625 -14.89306640625
20.816650390625 3.9468994140625 -10.86083984375
-11.67724609375 2.9429931640625 45.851318359375
22.950927734375 8.234375 22.615234375
-12.391357421875 5.97021484375 -0.634765625
-8.001220703125 8.444091796875 15.500732421875
-5.67236328125 3.7567138671875 -10.836669921875
13.3974609375 8.7059326171875 40.843505859375
-12.798095703125 4.128173828125 -12.9306640625
46.216552734375 0.344482421875 -27.71337890625
-15.27001953125 1.8193359375 -22.991455078125
39.8935546875 4.95751953125 -8.93701171875
18.077392578125 6.7218017578125 17.321533203125
-2.008544921875 5.352783203125 42.08544921875
-22.854248046875 2.7540283203125 -14.008056640625
42.3447265625 2.29443359375 -11.489501953125
40.426513671875 4.38671875 -3.761474609375
16.791748046875 2.227783203125 -20.290771484375
20.772216796875 1.90625 -20.24755859375
22.308349609375 11.8619384765625 21.29736328125
-28.275634765625 4.583251953125 -18.683349609375
5.99560546875 7.0181884765625 44.469482421875
26.995361328125 4.8692626953125 3.32421875
14.6474609375 4.322998046875 -2.984619140625
28.2705078125 7.081787109375 12.60009765625
35.36767578125 5.4471435546875 8.43212890625
19.447998046875 5.093017578125 1.698486328125
-26.806884765625 1.6900634765625 -27.362060546875
35.060546875 7.8839111328125 18.07666015625
26.537841796875 3.2659912109375 -3.241455078125
3.4677734375 3.103515625 -11.596435546875
8.2529296875 6.57861328125 46.945556640625
17.447998046875 11.0972900390625 34.61328125
-15.7138671875 3.2469482421875 -8.459228515625
2.450927734375 4.9468994140625 52.875732421875
-4.161865234375 7.6995849609375 19.745361328125
-3.005859375 4.0467529296875 -1.015625
-0.935546875 6.7200927734375 10.964599609375
5.3759765625 6.0179443359375 10.26416015625
24.14013671875 9.9801025390625 32.37939453125
-10.01513671875 7.5496826171875 11.250244140625
-21.524658203125 6.9417724609375 4.974853515625
-15.597412109375 6.55908203125 5.423583984375
10.933349609375 6.337890625 13.39990234375
23.314697265625 9.085693359375 28.5263671875
-6.5107421875 5.921142578125 5.90673828125
24.944091796875 10.299560546875 33.92578125
12.609130859375 8.79736328125 23.797119140625
-22.81640625 4.1630859375 -6.571533203125
6.681884765625 9.1800537109375 23.348388671875
-2.9599609375 5.5382080078125 5.560791015625
11.285400390625 5.15625 8.790771484375
16.547607421875 8.1907958984375 22.686767578125
7.001953125 7.135986328125 15.279296875
24.075927734375 8.25537109375 25.459228515625
12.58056640625 8.03076171875 20.7216796875
-2.812744140625 7.21435546875 31.2236328125
12.50146484375 9.51708984375 32.5810546875
5.403076171875 7.7645263671875 39.095947265625
-5.617431640625 8.635986328125 17.064208984375
18.5478515625 6.7098388671875 14.449462890625
34.503173828125 3.5872802734375 0.704345703125
-13.844482421875 4.0101318359375 39.67333984375
7.966552734375 7.091796875 44.841064453125
4.516357421875 5.537109375 50.763916015625
43.95751953125 1.572509765625 -15.048828125
-12.33203125 2.2064208984375 61.335693359375
17.19677734375 3.17431640625 -15.159912109375
42.009521484375 0.64208984375 -21.845947265625
-5.05908203125 3.57763671875 50.03076171875
-2.889892578125 4.949951171875 45.3671875
3.476318359375 5.1595458984375 0.2265625
-9.516357421875 4.48828125 40.73193359375
-16.063232421875 3.28173828125 -12.614501953125
31.84130859375 4.4058837890625 0.084716796875
-6.218017578125 1.4853515625 61.053955078125
12.900146484375 8.4405517578125 43.71923828125
37.94189453125 4.6585693359375 -0.482421875
4.29833984375 6.201416015625 45.8525390625
-7.7041015625 5.9215087890625 33.181396484375
-14.767822265625 6.4613037109375 1.731201171875
-13.647705078125 3.0509033203125 -16.323486328125
-18.037109375 3.2366943359375 -14.650634765625
-30.26171875 5.195556640625 62.8095703125
-10.077880859375 1.4364013671875 60.689453125
-14.693603515625 1.2501220703125 58.40283203125
-18.116455078125 2.7261962890625 -10.7490234375
16.077880859375 6.2105712890625 14.609130859375
-25.472412109375 7.409912109375 6.124267578125
-1.130126953125 4.2315673828125 52.24755859375
-26.690185546875 6.087890625 -2.55029296875
-17.521484375 2.6871337890625 45.15185546875
11.86669921875 5.478759765625 2.509033203125
13.8125 1.7625732421875 -15.908447265625
-2.983154296875 0.730224609375 -23.243896484375
-20.06982421875 2.859619140625 -13.25244140625
-9.993408203125 3.815673828125 42.4765625
7.74072265625 4.7064208984375 4.02001953125
44.4638671875 1.5540771484375 -17.98486328125
-22.68798828125 2.2724609375 55.896240234375
20.4208984375 3.19384765625 -15.214599609375
41.8857421875 0.6849365234375 -18.0810546875
41.118408203125 1.521728515625 -14.98974609375
35.603515625 3.51708984375 -8.8505859375
16.336181640625 0.7147216796875 -26.494873046875
32.347412109375 1.8428955078125 -16.634765625
21.3125 6.8275146484375 16.44091796875
-24.85498046875 2.597900390625 -13.512939453125
-8.517333984375 1.4320068359375 59.511962890625
9.46484375 3.9698486328125 -6.12841796875
0.99951171875 0.890869140625 -21.271240234375
27.899169921875 7.787109375 15.297607421875
38.528564453125 4.90234375 7.30859375
18.972900390625 3.0087890625 -6.796875
-27.0458984375 5.95458984375 -10.384033203125
7.01806640625 2.3343505859375 -13.4873046875
-10.0908203125 2.0762939453125 -20.23388671875
16.315673828125 6.4073486328125 5.90966796875
30.956298828125 4.4527587890625 2.981201171875
38.593017578125 6.6337890625 14.255859375
9.4970703125 4.8355712890625 -2.65478515625
20.551513671875 2.688232421875 -7.551513671875
-7.297607421875 2.3331298828125 -18.27392578125
5.878662109375 3.777099609375 -8.096923828125
30.27783203125 7.594970703125 15.3232421875
-10.39453125 8.2095947265625 14.358642578125
-2.238525390625 7.614990234375 23.00927734375
4.720947265625 8.0709228515625 35.405517578125
5.792236328125 6.56103515625 12.5751953125
-9.73779296875 4.3558349609375 -1.43212890625
-7.277099609375 4.1728515625 45.9580078125
20.52880859375 8.734130859375 26.189697265625
16.974609375 9.021240234375 26.151123046875
7.115966796875 10.2021484375 27.58154296875
4.732177734375 10.01025390625 26.01806640625
-18.763671875 6.6226806640625 4.620361328125
21.002197265625 10.8101806640625 34.65185546875
1.857421875 7.2633056640625 14.070068359375
-25.498779296875 6.590087890625 2.24072265625
-18.885009765625 3.3648681640625 -8.450927734375
-19.646240234375 4.1953125 -5.3837890625
2.001708984375 6.2730712890625 43.056640625
37.935791015625 7.820068359375 -8.5302734375
-7.77392578125 5.6304931640625 36.0615234375
27.881103515625 4.039794921875 -3.90625
-4.04638671875 7.0040283203125 32.89794921875
-4.739501953125 7.255859375 28.398681640625
30.70849609375 0.716064453125 -21.689453125
7.96044921875 1.596923828125 -24.55419921875
21.428466796875 13.6329345703125 18.379150390625
3.45751953125 7.6270751953125 36.72607421875
-1.291259765625 4.81689453125 -3.335205078125
-1.663330078125 3.49365234375 55.9462890625
25.374267578125 3.15673828125 -5.26806640625
-18.02099609375 3.0185546875 -17.9140625
6.748779296875 1.2108154296875 -26.503662109375
18.654541015625 2.712646484375 -11.6943359375
-4.96435546875 2.2701416015625 60.119873046875
0.559814453125 8.294189453125 26.0693359375
14.32080078125 1.3309326171875 -22.889404296875
48.891845703125 7.6163330078125 2.266845703125
-9.87939453125 2.3692626953125 52.670166015625
-5.707275390625 4.3704833984375 46.7001953125
-14.35791015625 3.0423583984375 43.072509765625
45.669189453125 5.803466796875 3.656982421875
31.22509765625 3.870849609375 -8.898193359375
34.362548828125 2.358154296875 -13.90087890625
43.697021484375 6.4471435546875 5.57275390625
41.986328125 3.388916015625 -7.2314453125
20.305908203125 0.103515625 -27.614013671875
34.333984375 1.5855712890625 -17.000732421875
11.95068359375 0.8753662109375 -27.3173828125
43.668212890625 5.674560546875 2.472900390625
17.1611328125 1.423095703125 -23.38623046875
21.60400390625 2.8076171875 -16.364013671875
38.353759765625 2.3262939453125 -12.695068359375
45.285400390625 6.221923828125 5.202392578125
41.501953125 1.103271484375 -16.535400390625
40.297119140625 0.9100341796875 -17.710693359375
25.97119140625 2.60546875 -15.109375
5.583251953125 1.734619140625 -25.40185546875
-14.05859375 2.51318359375 46.7490234375
-8.025634765625 -2.359375 27.5693359375
-18.584716796875 6.8604736328125 67.16162109375
10.10205078125 9.091796875 30.670654296875
-3.241943359375 9.125244140625 21.00537109375
-24.017333984375 1.8505859375 -25.7880859375
-3.725830078125 2.1409912109375 -17.84912109375
25.816650390625 5.25390625 4.46923828125
6.646728515625 3.0396728515625 -10.7900390625
-3.361572265625 1.2432861328125 -21.318603515625
28.713623046875 8.3001708984375 17.621826171875
29.53857421875 9.1019287109375 21.104248046875
10.186279296875 1.98193359375 -13.8388671875
21.4912109375 6.568115234375 8.28125
15.490478515625 5.605712890625 2.427490234375
-10.458740234375 2.8779296875 -17.150390625
2.624755859375 1.8209228515625 -17.00830078125
28.552490234375 3.9715576171875 0.253662109375
22.223388671875 4.8687744140625 1.728759765625
-9.258544921875 3.0703125 -15.979736328125
-11.291015625 1.8837890625 -21.404541015625
-7.329833984375 1.46728515625 -21.74755859375
30.177734375 4.901611328125 4.5166015625
1.931884765625 4.578369140625 -6.210205078125
28.220458984375 5.735107421875 7.19677734375
8.236083984375 3.0078125 -10.38671875
15.905029296875 6.0545654296875 4.361572265625
36.939208984375 4.9342041015625 6.905517578125
-25.5859375 2.665283203125 -21.853515625
35.06884765625 -0.1204833984375 -23.579345703125
8.68310546875 5.350341796875 0.931884765625
37.62255859375 4.6661376953125 -2.97509765625
26.826904296875 7.212158203125 21.609619140625
11.15380859375 1.62939453125 -23.35791015625
-26.333984375 5.0009765625 -6.779052734375
-28.24609375 5.7620849609375 -11.554931640625
17.308837890625 7.3604736328125 19.61962890625
-21.656982421875 3.2464599609375 -10.4462890625
6.951416015625 5.4532470703125 7.93603515625
21.36865234375 10.01171875 31.58056640625
9.8447265625 9.0206298828125 23.76708984375
17.778564453125 9.3406982421875 27.697509765625
8.955078125 6.401611328125 12.993896484375
0.28125 7.4866943359375 14.4375
29.23486328125 8.5113525390625 28.206298828125
10.951171875 6.8170166015625 15.322265625
-19.610595703125 5.1534423828125 -1.539306640625
4.635986328125 7.4232177734375 15.637939453125
-22.32861328125 6.622314453125 3.428466796875
-2.1416015625 6.2408447265625 8.64501953125
7.759765625 6.2098388671875 11.827880859375
-6.58203125 4.0047607421875 -1.7822265625
-18.383056640625 6.20751953125 3.0869140625
-7.73828125 4.8670654296875 1.280517578125
-12.516357421875 4.1959228515625 -3.0
-13.601318359375 6.9744873046875 7.751708984375
-12.02880859375 6.6551513671875 7.0
20.55029296875 9.30908203125 28.496337890625
15.391357421875 9.0531005859375 25.74951171875
-0.177734375 5.7939453125 7.51318359375
26.463134765625 8.5430908203125 27.4072265625
-3.3408203125 5.953369140625 7.09423828125
-18.47216796875 3.8121337890625 -6.5244140625
10.189697265625 7.6473388671875 18.38916015625
7.848876953125 8.605224609375 21.43896484375
-17.1806640625 6.5908203125 5.02197265625
-1.43115234375 8.3680419921875 26.882080078125
-16.207275390625 1.6923828125 59.1064453125
-6.367431640625 6.9818115234375 29.6923828125
-6.210693359375 2.14892578125 64.83154296875
46.6533203125 3.0950927734375 -14.7373046875
-6.994873046875 3.5576171875 -3.708740234375
2.111083984375 6.890869140625 40.919189453125
-4.848876953125 2.7120361328125 55.7216796875
-4.193603515625 0.00146484375 -27.163818359375
14.158203125 8.747802734375 42.43896484375
1.513671875 7.58447265625 34.7353515625
48.918701171875 7.1204833984375 -0.927734375
-13.80615234375 1.69287109375 52.041748046875
40.296875 7.5394287109375 -7.637451171875
8.364990234375 1.068115234375 -27.74365234375
-11.75927734375 4.9940185546875 36.23828125
7.869873046875 5.5223388671875 2.546142578125
-8.505126953125 3.9766845703125 -6.712646484375
27.62841796875 3.77392578125 -10.487060546875
-5.972412109375 2.9263916015625 54.505615234375
-16.35302734375 10.817138671875 -3.677001953125
46.3681640625 3.1317138671875 -6.79638671875
8.00439453125 7.122802734375 43.23291015625
14.65869140625 10.64990234375 31.89208984375
-16.013671875 3.3807373046875 -16.39404296875
-17.25537109375 6.4136962890625 10.8212890625
-26.726806640625 4.3663330078125 -13.633056640625
47.4970703125 1.840576171875 -21.91162109375
2.9208984375 8.6866455078125 29.609619140625
-1.831298828125 4.392578125 48.65576171875
-15.36767578125 8.4471435546875 -1.32470703125
-13.064697265625 1.657470703125 54.40087890625
-28.809326171875 3.5374755859375 61.15673828125
23.489990234375 -0.1536865234375 -27.579345703125
38.31787109375 1.360595703125 -16.570068359375
18.330078125 0.650634765625 -26.085693359375
33.2548828125 4.7723388671875 -4.6142578125
10.881591796875 7.9970703125 43.025146484375
30.791259765625 2.937255859375 -12.77734375
36.442626953125 4.6116943359375 -4.192138671875
20.341796875 1.0692138671875 -23.7392578125
21.91943359375 0.5543212890625 -25.271728515625
34.836181640625 4.35400390625 -5.75927734375
46.027587890625 4.7091064453125 -0.60107421875
-19.195556640625 3.4991455078125 -16.3837890625
-15.537109375 6.4468994140625 68.786376953125
-18.438232421875 2.1717529296875 -22.64013671875
26.190185546875 2.790771484375 -7.66162109375
-2.128662109375 2.05419921875 -18.26318359375
-14.303466796875 0.87353515625 55.34619140625
2.22119140625 0.4776611328125 -24.919189453125
33.499755859375 8.6854248046875 20.76123046875
35.074951171875 8.2686767578125 19.62060546875
3.528564453125 4.7388916015625 -5.034912109375
4.289306640625 3.80908203125 -8.5
-15.684326171875 1.370361328125 -24.925537109375
-26.967041015625 8.07080078125 -1.89306640625
38.56787109375 5.96044921875 11.55419921875
2.2138671875 1.4681396484375 -18.556396484375
29.8564453125 6.95361328125 12.617431640625
-4.536865234375 1.72412109375 -19.78759765625
9.046875 3.4246826171875 -8.448486328125
11.389892578125 2.2706298828125 -12.2822265625
32.61376953125 6.2484130859375 10.7177734375
6.73974609375 5.540771484375 -0.755126953125
17.80859375 3.7781982421875 -4.108154296875
20.173095703125 3.2012939453125 -5.6259765625
19.89453125 6.4075927734375 7.106201171875
21.530517578125 7.626220703125 12.52685546875
5.4072265625 1.7890625 -16.206298828125
13.8046875 8.989013671875 24.96337890625
-21.5029296875 1.7412109375 48.53564453125
3.797607421875 8.9217529296875 26.7001953125
2.597900390625 4.683837890625 1.61572265625
15.814697265625 9.7877197265625 28.829345703125
-7.987060546875 8.827392578125 17.03857421875
-4.902587890625 6.56005859375 8.99951171875
-23.171875 5.2489013671875 -2.346923828125
-8.104736328125 5.66552734375 4.351806640625
11.040283203125 9.21240234375 24.933349609375
11.299560546875 5.5394287109375 10.32861328125
5.0986328125 9.2117919921875 22.94677734375
-14.0283203125 6.14404296875 4.287353515625
16.497802734375 6.849365234375 17.304443359375
-6.421630859375 8.3165283203125 15.517822265625
-25.13232421875 5.791748046875 -0.83056640625
4.500244140625 8.4111328125 28.444580078125
2.600830078125 5.953857421875 9.080810546875
-12.462890625 5.6331787109375 2.766845703125
-21.251708984375 0.475341796875 53.11328125
-5.841552734375 1.7464599609375 63.344482421875
10.98828125 9.5721435546875 29.329345703125
32.093017578125 5.7379150390625 -1.139892578125
7.736572265625 6.14111328125 50.2255859375
40.65576171875 -0.184326171875 -21.96875
6.358154296875 6.2999267578125 2.75439453125
26.253662109375 8.128662109375 18.5126953125
1.08154296875 5.1173095703125 -0.14404296875
-4.1982421875 6.1756591796875 37.11376953125
-19.633056640625 1.06689453125 49.844970703125
-24.99267578125 2.3653564453125 55.497802734375
5.364501953125 5.8695068359375 49.49951171875
47.017333984375 3.9053955078125 -9.549560546875
13.83251953125 6.3988037109375 9.24072265625
-12.8046875 3.10498046875 43.842041015625
-8.494384765625 3.874755859375 47.218505859375
-27.391845703125 7.9422607421875 1.04736328125
-16.232177734375 1.18798828125 57.640625
-15.223876953125 5.9522705078125 3.12109375
10.772705078125 9.025390625 35.948974609375
1.002197265625 8.4327392578125 24.4033203125
30.127685546875 3.5548095703125 -0.886962890625
-13.237548828125 2.8399658203125 45.4873046875
29.1337890625 4.1656494140625 -4.79248046875
-19.3232421875 0.6922607421875 54.625244140625
-8.880615234375 2.644287109375 65.920654296875
34.517333984375 0.8800048828125 -26.434326171875
14.58447265625 2.2481689453125 -11.9052734375
17.772705078125 2.8162841796875 -7.9677734375
-17.120361328125 6.17919921875 70.007080078125
-12.87841796875 7.0615234375 14.2822265625
5.6416015625 7.0806884765625 42.857177734375
-0.030029296875 1.619140625 -26.52978515625
43.579345703125 6.1380615234375 7.318115234375
11.568115234375 7.8282470703125 46.6630859375
19.28173828125 10.400390625 37.193115234375
8.45263671875 8.570556640625 30.40234375
-12.07958984375 3.88037109375 -8.291748046875
12.7666015625 2.080078125 -21.016845703125
-10.925048828125 2.946533203125 47.824462890625
39.2646484375 5.352294921875 -0.287109375
-24.00146484375 -0.326904296875 52.89892578125
30.38671875 4.732177734375 -3.315185546875
-5.495849609375 7.3505859375 26.761474609375
39.84912109375 5.411376953125 -5.312255859375
-16.358642578125 7.389404296875 8.490478515625
-24.719482421875 6.591064453125 4.2900390625
-27.04443359375 7.7291259765625 6.875732421875
36.094970703125 5.995849609375 1.228271484375
0.6845703125 8.8165283203125 22.271240234375
17.15869140625 7.68994140625 11.32177734375
-7.652587890625 -6.766845703125 25.884521484375
37.455810546875 4.962158203125 3.5830078125
11.015380859375 5.374267578125 4.20166015625
46.80224609375 4.0653076171875 -2.917236328125
-13.726806640625 5.12158203125 37.824951171875
35.93017578125 6.054931640625 -5.871337890625
23.912841796875 7.9683837890625 15.29150390625
-11.04443359375 2.182373046875 51.53369140625
40.114501953125 4.774169921875 7.325927734375
37.8623046875 -0.1524658203125 -22.77392578125
-23.63525390625 1.433837890625 -27.327392578125
-28.265625 3.9969482421875 -26.44921875
21.838134765625 2.648681640625 -10.88671875
-12.739501953125 1.201171875 56.056884765625
16.599365234375 6.8583984375 13.198486328125
-21.644775390625 1.768310546875 -24.125
46.4228515625 2.235595703125 -12.784912109375
-27.519287109375 3.81591796875 -19.697021484375
-1.659423828125 4.7825927734375 -5.392822265625
-28.41015625 3.5748291015625 59.1943359375
-14.511962890625 3.234130859375 -9.301025390625
16.71728515625 9.8841552734375 41.369140625
-30.69775390625 4.43603515625 64.1201171875
1.567626953125 5.4761962890625 -2.74072265625
13.428955078125 10.2760009765625 31.176025390625
-0.4326171875 5.1552734375 -4.692138671875
13.228515625 9.2821044921875 34.251953125
-25.571044921875 3.4056396484375 -17.08935546875
35.249267578125 5.2452392578125 -1.451416015625
-20.019287109375 6.4451904296875 10.024658203125
-0.268798828125 7.7955322265625 24.980224609375
-11.04296875 4.495361328125 37.94677734375
36.237060546875 1.4425048828125 -26.65478515625
23.24658203125 6.3914794921875 16.535400390625
-2.16650390625 4.2457275390625 -2.3251953125
-27.0888671875 4.8001708984375 -15.015625
34.748046875 5.066162109375 0.6845703125
-18.893798828125 0.845947265625 51.457275390625
41.703857421875 4.7423095703125 7.72900390625
23.844970703125 6.1412353515625 7.9599609375
40.6328125 1.08740234375 -26.607177734375
-26.790771484375 2.225830078125 -24.613525390625
14.753173828125 2.6082763671875 -17.0322265625
-3.408203125 7.9967041015625 24.1455078125
-11.285888671875 2.2271728515625 -19.429443359375
9.884033203125 10.0745849609375 27.99609375
8.1923828125 0.822265625 -20.9453125
-2.360595703125 7.4886474609375 29.53662109375
-22.830810546875 1.8094482421875 -24.956298828125
-16.869140625 9.74609375 -0.85546875
-26.270751953125 7.133056640625 4.154296875
45.4677734375 1.7664794921875 -22.27587890625
46.27783203125 1.9927978515625 -21.10009765625
35.141845703125 5.871337890625 -7.477294921875
21.193115234375 3.3355712890625 -13.18017578125
-23.632080078125 3.406005859375 -10.4677734375
3.7685546875 4.7921142578125 3.632080078125
-4.603759765625 3.9410400390625 -1.37646484375
4.180419921875 5.8262939453125 9.09814453125
19.27099609375 12.7615966796875 19.036865234375
24.361328125 2.6923828125 -14.69482421875
-20.0947265625 2.7899169921875 -11.15478515625
41.251220703125 5.094970703125 -0.653076171875
33.522216796875 0.7252197265625 -21.31787109375
27.216064453125 3.4197998046875 -12.041259765625
4.153564453125 2.804443359375 -28.269775390625
42.011474609375 4.06494140625 -4.51904296875
23.533203125 1.005126953125 -22.9296875
37.546875 2.100830078125 -13.8662109375
34.402099609375 3.42041015625 -9.638427734375
19.57080078125 1.8095703125 -21.035400390625
44.916259765625 7.0267333984375 8.298095703125
28.33837890625 1.391845703125 -19.77783203125
30.7587890625 2.068115234375 -16.2646484375
26.74609375 1.5205078125 -19.795166015625
31.526123046875 1.231201171875 -19.35595703125
45.2568359375 5.4493408203125 2.1025390625
44.37451171875 3.1959228515625 -7.20556640625
35.119140625 1.2315673828125 -18.154541015625
28.316650390625 0.8123779296875 -22.102783203125
42.4814453125 5.9642333984375 3.23486328125
43.65380859375 5.288330078125 0.9228515625
32.766845703125 2.39013671875 -14.3056640625
22.0166015625 3.1617431640625 -14.809814453125
39.580078125 3.0989990234375 -9.19482421875
29.604248046875 3.226806640625 -12.015380859375
35.58544921875 3.0341796875 -10.7880859375
43.212646484375 4.16162109375 -3.731201171875
31.54052734375 1.617431640625 -17.805908203125
29.58984375 2.840576171875 -13.565185546875
15.0078125 8.94970703125 41.181884765625
-7.79052734375 3.2869873046875 48.525146484375
42.98486328125 0.81103515625 -25.708251953125
12.7783203125 9.2381591796875 36.289794921875
-2.052490234375 8.6363525390625 18.256103515625
17.174560546875 10.0240478515625 39.72021484375
4.654296875 5.11767578125 1.050537109375
-9.538330078125 2.230712890625 55.05419921875
-8.423828125 7.954345703125 13.995849609375
-0.6083984375 4.86767578125 3.664306640625
1.139404296875 5.8033447265625 44.36181640625
-9.351806640625 3.183837890625 48.16064453125
19.185302734375 10.237548828125 40.063232421875
28.57177734375 8.2459716796875 22.149658203125
19.398193359375 2.52392578125 -10.39599609375
-0.585205078125 0.771484375 -22.878662109375
38.631103515625 1.15185546875 -27.017822265625
-13.6484375 2.6531982421875 -19.11474609375
-16.90673828125 0.7520751953125 -27.206787109375
-2.87939453125 3.5198974609375 -12.05126953125
37.810791015625 6.9864501953125 15.4052734375
27.770263671875 4.32421875 1.403076171875
-4.029296875 4.674072265625 -7.818603515625
2.685546875 3.4561767578125 -10.447021484375
19.072998046875 5.7021484375 4.010009765625
8.314697265625 5.1240234375 -1.895751953125
14.72265625 6.343017578125 5.12060546875
24.19482421875 4.4200439453125 0.59228515625
0.62451171875 1.5001220703125 -18.959716796875
-6.09765625 2.5255126953125 -17.10302734375
13.50830078125 5.7657470703125 2.40576171875
5.921630859375 4.931396484375 -3.46533203125
8.5537109375 0.8594970703125 -18.87353515625
36.2177734375 6.922119140625 14.615966796875
31.78857421875 5.44677734375 7.2353515625
16.990478515625 3.1689453125 -6.818359375
15.02978515625 3.90625 -4.524169921875
33.79248046875 5.86376953125 9.57275390625
18.269287109375 5.4776611328125 2.843505859375
21.408935546875 4.355712890625 -0.595703125
22.72705078125 7.7225341796875 13.311767578125
21.7802734375 3.6502685546875 -3.293212890625
3.435546875 2.23779296875 -15.070068359375
-4.472412109375 3.45556640625 -12.84033203125
-6.822509765625 4.417236328125 -9.778564453125
4.964111328125 0.5706787109375 -21.22802734375
8.607421875 2.302490234375 -13.084228515625
16.33349609375 6.8883056640625 7.83935546875
-9.68017578125 2.4290771484375 -18.685791015625
36.1962890625 6.344970703125 12.30029296875
25.40576171875 4.901123046875 2.9208984375
31.76708984375 4.86962890625 4.919677734375
24.691650390625 7.0814208984375 11.403564453125
5.05712890625 3.0716552734375 -11.193115234375
-19.65966796875 1.402099609375 -26.12646484375
-1.650634765625 4.4818115234375 -7.792724609375
42.12890625 5.479736328125 10.821044921875
18.71240234375 6.6961669921875 7.865234375
35.742431640625 4.837890625 6.12060546875
33.521240234375 9.2625732421875 23.076904296875
28.573974609375 4.5487060546875 2.569580078125
-26.985107421875 7.58984375 -3.82275390625
19.005126953125 3.87451171875 -3.3232421875
25.830810546875 5.638671875 6.012939453125
26.559326171875 3.8431396484375 -0.92578125
34.23193359375 6.986083984375 14.20849609375
3.3818359375 0.794921875 -20.859375
-5.686767578125 2.8782958984375 -15.554931640625
-7.647705078125 3.6156005859375 -13.2607421875
21.902099609375 6.9208984375 9.82958984375
33.4638671875 7.7235107421875 16.901611328125
36.171142578125 5.671630859375 9.5986328125
19.533935546875 7.401611328125 10.96142578125
21.36962890625 3.297607421875 -4.84130859375
16.748046875 7.3372802734375 9.7734375
18.99072265625 3.48974609375 -4.8671875
3.146484375 5.1556396484375 -3.49560546875
34.217529296875 6.601318359375 12.664794921875
-6.865478515625 3.262939453125 -14.409912109375
31.888916015625 8.14013671875 18.042236328125
7.357177734375 0.76318359375 -19.658447265625
5.38916015625 1.30810546875 -18.135986328125
-25.217529296875 1.6580810546875 -26.958740234375
18.697998046875 6.3114013671875 6.321533203125
-0.514892578125 2.94287109375 -13.569091796875
29.49560546875 7.9476318359375 16.47265625
21.65185546875 10.459228515625 23.298828125
23.587158203125 3.3358154296875 -12.379638671875
3.9443359375 5.5303955078125 -1.130126953125
-25.2041015625 2.2486572265625 -23.39208984375
-27.1640625 2.985595703125 -21.09912109375
11.4521484375 8.5687255859375 38.469970703125
25.058349609375 8.032470703125 17.728515625
-4.625244140625 3.3662109375 -3.68310546875
-30.601318359375 6.18798828125 64.975830078125
6.16259765625 7.7119140625 40.308349609375
9.357177734375 4.5123291015625 1.9931640625
-3.4365234375 6.1239013671875 38.3232421875
-19.2900390625 2.5079345703125 -14.398193359375
1.777099609375 4.81396484375 3.650390625
1.794921875 5.2930908203125 5.572998046875
4.689453125 8.8604736328125 21.40478515625
19.78173828125 9.94775390625 30.79443359375
-21.998046875 4.86572265625 -3.4873046875
-12.79736328125 7.2939453125 9.298095703125
-0.195556640625 5.3148193359375 5.5908203125
25.723388671875 9.9482421875 32.781005859375
-9.23583984375 7.1983642578125 10.10546875
2.73974609375 9.690673828125 24.074462890625
-10.4599609375 6.2401123046875 5.86376953125
-19.585693359375 5.8240966796875 1.151611328125
-2.11328125 7.0074462890625 11.720458984375
-25.160888671875 5.025146484375 -3.90625
-6.094482421875 6.464111328125 8.217529296875
12.232177734375 9.308349609375 25.715087890625
16.633056640625 10.4903564453125 31.91357421875
-2.493896484375 7.422607421875 13.254150390625
-0.91064453125 7.3907470703125 13.65576171875
2.625732421875 6.6246337890625 11.77197265625
-5.243896484375 8.0291748046875 14.76171875
-9.310791015625 5.186279296875 2.0322265625
-21.6494140625 3.5882568359375 -8.48095703125
-6.927001953125 5.378173828125 3.595703125
16.116943359375 7.2645263671875 18.837890625
-1.2734375 8.2850341796875 17.111328125
2.3271484375 9.2435302734375 22.14794921875
22.50341796875 8.5745849609375 26.211181640625
-23.1328125 6.3028564453125 1.882080078125
-6.45361328125 7.4542236328125 12.057861328125
11.004638671875 8.254150390625 21.0888671875
1.081787109375 7.7103271484375 15.599365234375
7.489501953125 9.5953369140625 25.279296875
11.36376953125 7.26416015625 17.248779296875
25.253662109375 7.968017578125 24.703369140625
17.34814453125 8.4144287109375 23.8486328125
10.225341796875 8.60546875 22.233642578125
