-9.411865234375 3.99951171875 -33.9912109375
2.021240234375 -3.684326171875 -29.867919921875
19.2685546875 -1.4400634765625 -13.56201171875
-9.226806640625 15.3385009765625 -13.592529296875
-12.665283203125 3.0941162109375 75.05517578125
2.33349609375 2.1129150390625 6.8515625
18.1943359375 3.158203125 14.74072265625
28.17138671875 0.527587890625 0.097900390625
24.86572265625 -3.3560791015625 -23.9873046875
13.10107421875 0.5048828125 -2.79931640625
18.854248046875 -5.2042236328125 -37.14453125
39.818359375 5.0770263671875 18.98291015625
-9.17724609375 6.2576904296875 -17.766357421875
13.00146484375 1.223876953125 2.007080078125
3.892333984375 1.6763916015625 4.9365234375
-3.8525390625 -2.48779296875 -24.648193359375
36.14794921875 -1.609619140625 -12.045166015625
-8.432373046875 31.3331298828125 -19.336181640625
1.95947265625 -3.0189208984375 -41.05126953125
23.70361328125 0.1483154296875 -3.731201171875
-8.95947265625 21.95556640625 -7.9638671875
-8.9521484375 9.9935302734375 -34.120361328125
14.97900390625 -3.7388916015625 -28.675048828125
-8.910888671875 19.9146728515625 -12.184326171875
15.752197265625 1.6697998046875 5.75634765625
11.727294921875 -4.4088134765625 -32.630126953125
-1.451904296875 -3.672607421875 -32.10888671875
40.192626953125 7.025390625 21.23095703125
-15.863525390625 0.3218994140625 68.367431640625
31.600341796875 7.69091796875 39.459716796875
12.18505859375 3.54931640625 15.61572265625
30.74365234375 11.2718505859375 38.98876953125
39.33154296875 0.2108154296875 -0.41943359375
33.10302734375 8.98095703125 35.89599609375
32.869384765625 4.6737060546875 45.01123046875
6.0615234375 -1.665771484375 64.19140625
13.077392578125 2.405029296875 9.52197265625
1.577880859375 -1.092041015625 65.5595703125
9.132568359375 -0.108642578125 -7.41162109375
1.4150390625 -1.6517333984375 -18.14453125
-8.75244140625 20.9661865234375 -25.36376953125
7.1796875 -1.75341796875 -17.681396484375
-2.7236328125 1.009765625 -2.913330078125
-5.955322265625 -1.8231201171875 54.110595703125
-5.496337890625 43.5201416015625 -24.509765625
12.982177734375 6.0673828125 19.216796875
-8.93017578125 4.961181640625 -28.16650390625
21.272216796875 -0.9481201171875 -10.009765625
-7.48046875 1.235107421875 78.80126953125
-8.806396484375 13.743408203125 0.4609375
-9.203857421875 1.868408203125 -17.232666015625
13.3583984375 -4.177734375 60.216552734375
3.09912109375 0.6373291015625 -4.7470703125
0.851806640625 -3.7994384765625 -31.962646484375
-3.461181640625 1.762939453125 2.737060546875
37.31787109375 5.7803955078125 34.53125
18.31689453125 -2.2705078125 -18.171630859375
-8.0908203125 10.7823486328125 -16.996826171875
13.589111328125 6.7264404296875 23.0146484375
-8.2900390625 -0.3570556640625 -13.2314453125
-4.62646484375 15.025390625 -20.083251953125
18.94921875 0.764404296875 0.6298828125
-8.869140625 19.4683837890625 -35.00390625
-9.021484375 20.5849609375 -19.527099609375
-8.606689453125 2.922607421875 1.914306640625
-8.195556640625 2.0462646484375 -4.797607421875
33.7998046875 1.4549560546875 4.484375
7.760009765625 -4.2135009765625 -32.31396484375
-5.741943359375 15.38818359375 -22.669677734375
41.137451171875 5.6551513671875 23.2041015625
-9.462158203125 7.19873046875 2.475830078125
9.56982421875 4.4610595703125 29.12939453125
16.573486328125 -4.6767578125 -30.68115234375
-9.03466796875 12.1856689453125 -8.873046875
-10.600830078125 0.5203857421875 74.152587890625
-9.4013671875 2.207763671875 -2.92626953125
14.558349609375 4.152587890625 23.41455078125
-9.0341796875 12.27978515625 -37.278564453125
19.620361328125 -4.864990234375 -34.8935546875
-11.442626953125 0.06591796875 60.43017578125
31.714599609375 -4.423583984375 -27.861083984375
-6.651611328125 10.0706787109375 -25.012451171875
3.471923828125 -4.9622802734375 -37.53125
40.87255859375 4.9683837890625 29.045166015625
18.4462890625 -2.989990234375 -23.5107421875
37.428955078125 5.065673828125 28.060791015625
14.46630859375 -5.5767822265625 -38.71484375
14.751953125 -3.0655517578125 -23.71875
6.10888671875 -4.90576171875 -39.1748046875
-8.601318359375 10.341064453125 -38.7919921875
22.669677734375 3.22314453125 15.37939453125
40.53515625 0.770263671875 1.340087890625
11.160400390625 -1.1285400390625 -13.5185546875
27.548583984375 1.442626953125 5.910400390625
-8.962890625 16.486572265625 -16.622802734375
16.768310546875 -1.9830322265625 58.07568359375
-3.21142578125 -4.0228271484375 -37.250732421875
-7.086181640625 28.068115234375 -31.28466796875
42.39501953125 3.2384033203125 16.532470703125
31.619384765625 1.26708984375 4.586181640625
28.6748046875 1.956787109375 8.477294921875
-9.73095703125 3.0521240234375 -37.433837890625
8.641357421875 -0.7108154296875 -11.2744140625
27.404541015625 -5.4921875 -36.25341796875
29.548583984375 -2.8917236328125 -21.11767578125
38.440185546875 6.1256103515625 22.47119140625
31.021728515625 -1.023681640625 -9.144775390625
0.452392578125 0.177490234375 42.7333984375
-8.92333984375 18.7960205078125 -29.95849609375
-7.705322265625 16.7772216796875 -42.035400390625
40.416748046875 5.57861328125 32.353271484375
-8.6513671875 26.9091796875 -14.673095703125
-5.04345703125 0.871337890625 79.23681640625
15.41943359375 -4.3236083984375 -32.892578125
30.458984375 -4.98828125 -30.83154296875
2.932861328125 -0.84521484375 67.21533203125
16.78662109375 8.866455078125 22.188232421875
-1.156005859375 2.41748046875 7.643798828125
-9.00830078125 3.3968505859375 -6.71337890625
20.22119140625 4.053955078125 21.058837890625
21.73046875 -1.9482421875 -15.390625
-8.373779296875 12.719970703125 -26.4775390625
-8.3486328125 26.767578125 -28.678955078125
6.2490234375 3.4920654296875 16.125244140625
11.45068359375 -1.7808837890625 -17.2021484375
12.244384765625 1.634521484375 5.369140625
21.06494140625 0.173828125 -4.7294921875
-1.011962890625 -1.9158935546875 61.146240234375
-1.9931640625 -2.7188720703125 56.125244140625
23.829345703125 -4.5958251953125 -33.63232421875
31.531494140625 6.415771484375 35.139404296875
-8.58935546875 24.6607666015625 -25.051025390625
7.821533203125 -0.3062744140625 -9.078125
47.048583984375 2.8109130859375 16.019287109375
15.9267578125 1.3731689453125 3.318359375
7.2548828125 -1.330322265625 -15.3076171875
9.357177734375 -5.460205078125 -39.680419921875
-8.538818359375 17.4730224609375 -36.900634765625
-0.78271484375 0.6490478515625 79.083984375
43.669677734375 3.7799072265625 21.605224609375
-9.333984375 8.6260986328125 -12.390625
20.67626953125 -3.1927490234375 -24.52099609375
-5.7021484375 39.026611328125 -20.999755859375
5.068115234375 -0.053466796875 -5.977294921875
-7.738525390625 19.8458251953125 -39.9580078125
-5.265625 2.3853759765625 7.83056640625
-0.7861328125 12.3359375 -23.28662109375
42.048583984375 4.6925048828125 26.79345703125
13.805419921875 3.1201171875 31.93115234375
41.697265625 0.462890625 -0.575927734375
-3.078125 -4.0316162109375 -34.020263671875
-0.92041015625 -1.1070556640625 64.06640625
-8.791259765625 25.599853515625 -17.742431640625
12.370361328125 2.865966796875 11.642333984375
25.845458984375 -0.0897216796875 -5.055419921875
-7.831787109375 1.3936767578125 81.01171875
0.685791015625 -3.1051025390625 -27.9169921875
-9.06884765625 1.692626953125 -23.669189453125
-8.401123046875 5.9969482421875 -38.253662109375
-1.210693359375 45.345458984375 -27.61767578125
12.5107421875 -2.0836181640625 -19.09521484375
8.104736328125 -2.116455078125 -19.5244140625
-8.1328125 22.6944580078125 -37.31787109375
19.55126953125 2.616455078125 10.86279296875
-9.083984375 1.3017578125 -10.42529296875
24.740478515625 -3.3238525390625 -29.416015625
24.06298828125 -3.2508544921875 -27.1318359375
35.926513671875 -2.537109375 -17.3671875
-0.076171875 1.833251953125 2.300537109375
35.9404296875 5.5706787109375 32.77294921875
4.477294921875 -3.7335205078125 -30.173583984375
33.943359375 10.7686767578125 35.22509765625
-8.681884765625 1.3997802734375 -36.71484375
16.868896484375 2.1937255859375 7.87255859375
41.52490234375 6.36181640625 19.775390625
27.08837890625 -1.555419921875 -13.090087890625
11.007568359375 -0.811767578125 -11.474853515625
31.310546875 3.867431640625 46.111328125
-6.22705078125 -0.689208984375 68.132080078125
9.611328125 -4.9715576171875 -35.66455078125
20.742431640625 4.6925048828125 24.10498046875
-8.665283203125 14.8250732421875 -40.218994140625
-9.084228515625 10.296630859375 -32.07568359375
38.318359375 0.98291015625 4.74560546875
37.896484375 2.019287109375 10.96728515625
13.683837890625 -1.1514892578125 -14.182861328125
-7.63623046875 13.705078125 -17.468017578125
33.850341796875 4.688232421875 24.306640625
0.355712890625 -4.4027099609375 -35.832763671875
31.662109375 9.5419921875 37.728759765625
0.1640625 -3.9776611328125 -39.53369140625
4.419921875 -5.2998046875 -40.2578125
34.589111328125 8.8760986328125 34.421630859375
15.9423828125 6.359375 16.562744140625
-0.644775390625 1.8880615234375 67.234619140625
43.87255859375 0.9993896484375 3.90771484375
-1.14892578125 1.95458984375 70.262939453125
-8.500732421875 9.2783203125 -18.316650390625
9.393798828125 -2.2945556640625 -21.4970703125
46.118408203125 2.4254150390625 11.658447265625
33.912841796875 5.87353515625 33.53076171875
-7.112060546875 34.7655029296875 -27.14404296875
40.3037109375 -0.602294921875 -4.762451171875
-7.86669921875 30.64306640625 -27.2412109375
23.561279296875 4.772216796875 25.936279296875
28.906494140625 5.2425537109375 27.665283203125
31.790283203125 -3.537109375 -24.60107421875
25.54833984375 -4.6669921875 -32.431884765625
34.2919921875 9.9788818359375 38.443115234375
8.6201171875 3.460693359375 14.814453125
26.342041015625 -4.30810546875 -30.592529296875
-7.725341796875 -2.3006591796875 52.57080078125
-9.3427734375 0.8199462890625 -28.720947265625
14.326171875 4.303955078125 30.171875
6.84765625 2.2774658203125 7.767578125
-9.491943359375 -2.204833984375 -32.320068359375
31.09423828125 5.697265625 37.671142578125
19.1376953125 -0.725830078125 -8.2578125
27.821533203125 -2.0550537109375 -14.892333984375
-8.649658203125 26.697509765625 -20.363037109375
2.464599609375 -2.32666015625 -22.007080078125
2.64697265625 -2.444091796875 57.99755859375
3.386962890625 -1.5301513671875 -17.079345703125
-9.144287109375 8.052978515625 -32.16845703125
-8.798583984375 12.27197265625 -33.2421875
16.5380859375 -0.3641357421875 56.884033203125
-8.942138671875 24.620849609375 -29.05712890625
32.89453125 -3.0528564453125 -21.153564453125
6.02001953125 1.51318359375 3.64794921875
-8.394775390625 34.9853515625 -18.544189453125
2.68408203125 -1.694580078125 62.44482421875
34.843505859375 -0.9539794921875 -8.430419921875
18.55615234375 4.1083984375 19.799072265625
-7.19775390625 0.4776611328125 -6.864501953125
23.42626953125 3.5599365234375 17.613037109375
-5.188232421875 -4.1708984375 -37.43701171875
4.009765625 -1.261474609375 -14.8486328125
-0.918701171875 -1.582763671875 -17.106201171875
45.11181640625 2.7850341796875 15.174560546875
26.265869140625 2.1048583984375 7.369140625
-6.74755859375 32.4107666015625 -31.52783203125
-9.03515625 7.9693603515625 -27.712158203125
-9.010986328125 11.7745361328125 -35.162109375
-6.439697265625 -1.4227294921875 -17.607177734375
-1.550048828125 -0.347900390625 -10.248046875
7.880859375 -1.060302734375 -13.06591796875
14.134521484375 -3.322265625 -26.41162109375
37.5224609375 3.087646484375 16.319580078125
-9.359619140625 1.4642333984375 -21.145751953125
4.903564453125 -0.0909423828125 -7.944091796875
-1.09423828125 0.5985107421875 -4.078369140625
-8.401611328125 2.22802734375 -0.031005859375
-9.425537109375 5.832275390625 -22.47265625
32.40478515625 2.6361083984375 47.1884765625
-8.952392578125 7.44287109375 -23.616455078125
16.913330078125 4.5262451171875 22.10498046875
32.616943359375 0.900390625 2.739013671875
15.548583984375 5.6502685546875 19.106689453125
-9.511474609375 5.42041015625 -24.817626953125
-9.01123046875 -0.5269775390625 68.51904296875
21.463134765625 -0.455078125 -7.639404296875
23.006103515625 -2.94482421875 -23.5244140625
16.28369140625 -2.3758544921875 -19.676025390625
-5.2353515625 -2.7247314453125 -26.642822265625
-0.783447265625 -4.1593017578125 -33.88037109375
-1.421875 -3.317138671875 -28.08837890625
-8.974853515625 11.8590087890625 1.487548828125
38.2861328125 5.7750244140625 36.785888671875
-6.794189453125 29.7152099609375 -33.6640625
-2.342529296875 3.4351806640625 10.579345703125
-7.601318359375 29.0689697265625 -29.603515625
-7.7998046875 5.3515625 7.361328125
35.19580078125 4.535888671875 20.7861328125
41.802001953125 1.341064453125 4.34375
1.85302734375 -2.989501953125 -25.822998046875
13.466064453125 -4.5853271484375 62.112548828125
9.419921875 3.0484619140625 13.083740234375
14.533203125 2.687255859375 10.772216796875
-9.095458984375 8.241455078125 -10.013427734375
-8.3896484375 9.4388427734375 5.139404296875
-5.750244140625 -0.356201171875 -11.526611328125
-4.944091796875 -2.230712890625 58.05517578125
8.95654296875 -1.738525390625 -16.94189453125
38.222900390625 -1.106689453125 -8.4091796875
-8.0029296875 27.1483154296875 -32.96875
27.8095703125 -0.024658203125 -3.888916015625
34.437255859375 -0.3377685546875 -3.382080078125
3.77294921875 -0.91748046875 70.816162109375
-8.728515625 27.6859130859375 -23.3310546875
27.68505859375 3.89794921875 19.930908203125
2.550537109375 1.42822265625 69.034912109375
27.046875 4.4097900390625 22.4482421875
21.1279296875 3.296630859375 16.510498046875
6.1142578125 3.08740234375 12.23291015625
2.321044921875 0.81396484375 39.680419921875
-9.356689453125 2.926025390625 -11.730224609375
4.806640625 2.464599609375 9.8115234375
41.283447265625 5.5267333984375 34.234619140625
-9.34130859375 3.8779296875 0.03271484375
29.171142578125 -1.4468994140625 -11.552001953125
-9.165771484375 4.3111572265625 3.088623046875
-1.7900390625 -2.7159423828125 -24.808837890625
25.50439453125 -5.0892333984375 -35.3251953125
-0.591552734375 -4.411376953125 -37.5947265625
7.302734375 -1.7471923828125 59.125732421875
-3.419189453125 1.027099609375 -1.1533203125
-5.41015625 -1.734375 61.43408203125
-9.0625 10.270263671875 -4.66943359375
41.8046875 5.3975830078125 30.884765625
4.85546875 -1.08740234375 66.581787109375
2.878662109375 -1.0091552734375 -13.36083984375
-9.30224609375 4.724365234375 -12.748779296875
39.89111328125 0.060791015625 -2.2109375
-8.752197265625 -1.1011962890625 64.481689453125
7.517822265625 -1.715576171875 62.480224609375
-8.87158203125 24.8131103515625 -21.710693359375
-3.447509765625 2.07421875 81.55224609375
-0.54052734375 3.0845947265625 10.98291015625
-6.471435546875 13.728759765625 -25.114501953125
-9.26171875 7.5687255859375 -19.1064453125
16.743896484375 -2.9395751953125 -24.289306640625
17.739013671875 -0.14453125 -6.328125
5.12060546875 -2.1025390625 62.101806640625
9.671875 -1.4783935546875 63.659912109375
37.89453125 4.8974609375 25.535400390625
29.896728515625 -0.716552734375 -7.23193359375
-6.216552734375 0.365234375 75.03515625
-7.614990234375 -1.091552734375 56.19677734375
-8.986083984375 19.20458984375 -6.4521484375
15.06884765625 -1.733642578125 -16.12646484375
-13.41015625 1.93603515625 72.66455078125
-8.52587890625 30.72607421875 -17.189697265625
9.016357421875 1.9390869140625 31.76806640625
31.26708984375 1.9090576171875 8.723876953125
-2.31494140625 0.318115234375 76.7255859375
-8.125244140625 34.4176025390625 -22.67236328125
11.089111328125 0.3773193359375 -3.907958984375
9.3818359375 -3.4837646484375 -27.927490234375
24.704345703125 0.9720458984375 2.514892578125
-4.060791015625 12.3758544921875 -24.819091796875
8.16259765625 2.49462890625 9.03759765625
1.16015625 0.1802978515625 72.604736328125
7.312255859375 -2.840576171875 -24.9482421875
36.92626953125 1.600830078125 7.492431640625
-1.064697265625 -2.2860107421875 58.19384765625
27.003173828125 -1.2027587890625 -10.1962890625
5.11865234375 -3.4464111328125 -28.34521484375
7.357666015625 -2.44921875 -21.731201171875
1.34326171875 2.71142578125 -2.520751953125
25.652099609375 -3.3829345703125 -25.879150390625
6.51806640625 -3.56591796875 -30.38232421875
-8.6572265625 14.780029296875 -26.24853515625
11.535400390625 -1.370361328125 63.7626953125
17.31396484375 0.445068359375 -2.60888671875
22.81103515625 2.1036376953125 8.963134765625
-6.331787109375 33.805419921875 -16.08935546875
-6.271240234375 14.0631103515625 -18.6982421875
22.824951171875 1.3326416015625 3.737060546875
-1.632080078125 1.8466796875 3.469482421875
4.340576171875 -2.2513427734375 -21.3212890625
25.67578125 -2.173583984375 -17.653564453125
-9.1611328125 8.162353515625 -35.85693359375
-8.677490234375 27.3995361328125 -26.601318359375
-8.82568359375 23.764892578125 -17.516845703125
-9.22021484375 1.1402587890625 78.2978515625
0.837158203125 -0.4188232421875 -9.665771484375
24.82958984375 5.79833984375 28.818115234375
-9.186767578125 11.9954833984375 -31.451416015625
44.1171875 1.9156494140625 10.8779296875
-4.1728515625 44.3724365234375 -25.40283203125
0.294677734375 -2.725341796875 53.88671875
5.879150390625 -3.0975341796875 -26.557861328125
17.68994140625 2.5374755859375 11.284912109375
2.856689453125 -4.0621337890625 -32.9365234375
31.828369140625 4.9447021484375 27.523681640625
-8.85888671875 16.84716796875 -24.818603515625
-15.423828125 0.4490966796875 71.91357421875
-8.24853515625 32.1455078125 -24.83837890625
-11.197509765625 -1.5172119140625 62.302978515625
1.439697265625 -1.88134765625 60.7734375
27.400634765625 0.9849853515625 2.704345703125
-4.078857421875 0.611328125 77.30419921875
23.911865234375 4.1651611328125 21.493896484375
46.416259765625 3.347900390625 19.84716796875
1.83837890625 0.072021484375 74.364501953125
15.156982421875 -0.515869140625 -8.906494140625
35.6044921875 2.2247314453125 11.44677734375
30.410888671875 -2.5196533203125 -18.029052734375
20.890625 1.26513671875 2.56494140625
38.069580078125 4.657958984375 18.961181640625
8.104248046875 0.2047119140625 -5.969970703125
32.665771484375 -2.3311767578125 -16.961181640625
-5.177978515625 -1.7862548828125 52.490234375
-2.04736328125 -2.61279296875 50.891845703125
4.774169921875 2.3609619140625 -3.744873046875
-3.57763671875 0.1712646484375 72.8671875
13.45751953125 1.78955078125 6.680419921875
6.2978515625 0.8741455078125 0.043701171875
27.26611328125 -3.4984130859375 -25.051025390625
45.319091796875 4.1031494140625 23.733154296875
26.375 2.5234375 11.38818359375
4.61962890625 -0.60009765625 -11.041748046875
29.06982421875 -2.30126953125 -16.862548828125
32.067626953125 4.685791015625 24.25390625
-6.721923828125 -2.333984375 57.97021484375
-8.22900390625 15.6268310546875 -18.342529296875
15.454833984375 -1.9453125 -17.851806640625
-8.53564453125 0.4208984375 73.154541015625
-8.76220703125 20.7161865234375 -30.665771484375
0.318603515625 -2.7784423828125 56.5078125
14.70654296875 4.727783203125 20.95361328125
35.409423828125 6.8505859375 44.462646484375
29.875 6.089111328125 31.849609375
1.10791015625 2.4886474609375 1.15087890625
20.809814453125 -2.326904296875 -19.665283203125
16.552734375 -3.8533935546875 -27.863037109375
-12.193359375 -0.215087890625 70.04541015625
9.712646484375 -0.70751953125 67.75732421875
22.253662109375 -2.0987548828125 -17.1708984375
23.960205078125 -1.484130859375 -28.57861328125
34.07958984375 -2.111083984375 -15.669921875
6.61767578125 -0.45849609375 -10.367919921875
-8.68115234375 26.4129638671875 -24.831298828125
32.33056640625 2.79150390625 13.748291015625
-8.976318359375 15.5823974609375 -28.708740234375
41.893310546875 3.39208984375 19.515869140625
23.0546875 4.5640869140625 23.647216796875
-2.826416015625 -3.5704345703125 -29.675537109375
39.165771484375 5.82421875 33.78662109375
12.663818359375 -2.8687744140625 61.774658203125
3.0107421875 -2.62890625 56.073486328125
-1.7373046875 20.5260009765625 -3.602294921875
19.420654296875 3.31591796875 16.070068359375
35.1005859375 -0.8675537109375 -5.9931640625
21.072265625 5.25927734375 25.99462890625
-14.238037109375 2.248779296875 74.571044921875
-9.41064453125 9.989990234375 -28.2685546875
2.569580078125 -4.577392578125 -36.071533203125
5.530517578125 -4.436767578125 -33.685791015625
31.30615234375 -1.302734375 -10.85595703125
-8.74462890625 29.822509765625 -20.301025390625
37.01025390625 5.2716064453125 29.753662109375
44.885498046875 4.312744140625 25.4521484375
-14.49462890625 -0.4215087890625 63.115966796875
-10.7099609375 -1.306884765625 64.04931640625
10.94189453125 -2.4052734375 -20.68115234375
-7.93310546875 25.91650390625 -35.318359375
12.79296875 -1.566162109375 -15.9482421875
17.427978515625 -1.47314453125 -13.900634765625
25.17236328125 5.1251220703125 27.1962890625
20.616943359375 -1.2403564453125 -11.871826171875
-3.489013671875 -2.3765869140625 -21.53515625
-8.686767578125 22.1805419921875 -9.672119140625
34.4482421875 4.6036376953125 43.95263671875
-8.95166015625 18.809814453125 -18.927490234375
-1.5859375 22.947021484375 -5.919921875
32.712158203125 -1.0819091796875 -9.560791015625
-3.3076171875 -0.0120849609375 -8.623779296875
-2.894775390625 2.35888671875 7.66552734375
-9.164794921875 -0.9642333984375 -23.708984375
-2.500244140625 -0.7811279296875 -12.75
-6.09619140625 1.3282470703125 -0.9091796875
13.429443359375 -4.4451904296875 -32.294189453125
-1.492431640625 0.438720703125 -5.953125
-6.820068359375 1.0035400390625 -3.0615234375
27.919677734375 -4.848388671875 -32.667724609375
-8.35205078125 32.7056884765625 -18.28857421875
35.98779296875 -1.2637939453125 -10.35986328125
30.58740234375 3.203857421875 16.53662109375
27.356201171875 -4.2822265625 -29.19482421875
20.61083984375 3.8505859375 19.389404296875
-8.76513671875 -3.079345703125 -34.043701171875
-5.2705078125 -1.27392578125 -16.346435546875
17.39111328125 -1.0904541015625 -11.87744140625
-9.319091796875 5.090087890625 -10.793212890625
24.4072265625 1.6451416015625 5.791748046875
-13.82763671875 2.83056640625 76.300048828125
-4.822265625 -4.0577392578125 -34.302001953125
42.117431640625 4.3553466796875 22.283447265625
-8.96337890625 11.923095703125 -12.868896484375
38.635009765625 0.7227783203125 2.6162109375
-7.808349609375 0.0272216796875 71.6142578125
-9.270263671875 4.5137939453125 -19.53759765625
-7.01123046875 -1.0274658203125 65.323486328125
-8.773681640625 -1.8948974609375 -29.7470703125
5.85498046875 3.2708740234375 -0.089599609375
-1.921142578125 0.385498046875 66.73876953125
-9.10107421875 10.5931396484375 -1.91455078125
11.734375 -3.211669921875 -26.158203125
-6.177001953125 -3.5477294921875 -30.710693359375
-9.31982421875 8.0977783203125 3.923828125
43.647705078125 1.737060546875 7.657958984375
32.1650390625 2.31494140625 10.9541015625
-9.2294921875 5.90087890625 -7.328369140625
32.030517578125 4.2772216796875 21.44775390625
1.118896484375 -1.0426025390625 -13.692138671875
6.787353515625 -2.0509033203125 60.724609375
-9.260498046875 8.0660400390625 5.877197265625
18.5673828125 2.5860595703125 9.47021484375
33.453369140625 0.051025390625 -1.936767578125
35.23779296875 5.2867431640625 29.276123046875
-4.44384765625 2.0660400390625 4.128662109375
-8.75 15.61962890625 -38.64892578125
-8.998291015625 22.38818359375 -19.34228515625
9.8759765625 -2.8753662109375 -24.025634765625
6.1767578125 0.480712890625 -4.302978515625
5.666015625 -1.2904052734375 -14.479736328125
11.1748046875 -5.8558349609375 -40.601318359375
29.567138671875 -4.9501953125 -32.279296875
-7.136962890625 23.771240234375 -38.600341796875
4.4033203125 -1.845947265625 -18.53857421875
5.657958984375 -2.1629638671875 58.64453125
27.7275390625 -0.4749755859375 -5.89208984375
22.88916015625 -2.047119140625 -26.94873046875
-8.68017578125 13.842529296875 -38.013427734375
29.981201171875 -5.1712646484375 -34.0693359375
-7.9609375 11.1558837890625 -25.991943359375
29.4833984375 4.723876953125 23.955322265625
-7.723388671875 27.2904052734375 -10.897216796875
26.548095703125 0.6171875 -0.349365234375
38.382080078125 2.6392822265625 14.940185546875
40.246826171875 3.4959716796875 18.606201171875
-1.427490234375 -2.8013916015625 54.544921875
4.52880859375 -1.03759765625 -12.989501953125
14.2734375 2.9539794921875 12.41064453125
21.247314453125 -4.1016845703125 -32.52490234375
36.070556640625 0.8035888671875 3.1962890625
11.8408203125 4.45458984375 24.73876953125
28.48779296875 4.2742919921875 21.356689453125
12.967041015625 -5.026611328125 -37.08154296875
-4.0185546875 -4.040283203125 -35.773681640625
19.339599609375 0.5560302734375 -1.07373046875
37.62451171875 -1.7813720703125 -12.821044921875
16.687744140625 -1.79248046875 -16.5517578125
30.764404296875 5.29541015625 48.8955078125
26.978759765625 -0.7979736328125 -8.5732421875
-8.724365234375 13.7593994140625 -36.34033203125
11.29736328125 -1.4630126953125 -15.1513671875
41.697265625 2.9205322265625 15.047119140625
30.669677734375 5.5643310546875 33.74658203125
-2.61279296875 14.4542236328125 -23.030029296875
13.684326171875 8.0673828125 24.082275390625
-6.367431640625 9.62646484375 -20.166259765625
23.725341796875 -5.0675048828125 -35.230224609375
-11.049072265625 2.625 78.478759765625
41.568603515625 0.80029296875 2.7734375
-9.379638671875 3.4088134765625 -13.771728515625
16.12109375 -0.08984375 -5.9287109375
-9.361572265625 5.279541015625 -3.66015625
39.739501953125 2.0338134765625 10.56640625
34.89306640625 3.131591796875 16.04541015625
-11.873779296875 -0.7918701171875 67.480224609375
40.5458984375 1.5718994140625 7.9384765625
4.83251953125 4.5589599609375 -2.781494140625
-8.11669921875 35.2332763671875 -20.297119140625
20.708984375 1.56396484375 5.021728515625
20.12548828125 -1.85400390625 -15.805908203125
-9.044677734375 16.4072265625 -3.736328125
-10.00830078125 -1.9146728515625 -37.0673828125
-3.78076171875 -4.00439453125 -32.181396484375
-8.87060546875 19.3690185546875 -20.6435546875
12.593994140625 -3.7999267578125 64.09326171875
22.590087890625 -5.15576171875 -36.57421875
0.511962890625 -1.2930908203125 -16.322021484375
30.7939453125 0.0697021484375 -1.30615234375
17.53271484375 -4.99853515625 -35.519287109375
20.9345703125 -5.51171875 -37.302734375
30.80615234375 0.88916015625 3.158203125
-7.981201171875 26.6153564453125 -30.833984375
15.52490234375 3.4937744140625 16.892822265625
28.5732421875 4.669921875 25.756103515625
-4.692138671875 -3.267333984375 -28.351806640625
-8.987548828125 20.0908203125 -17.851806640625
21.28662109375 -2.4150390625 -26.037109375
-9.35107421875 12.23583984375 -28.168212890625
-4.35791015625 -3.0455322265625 53.17041015625
18.437255859375 -4.15869140625 -32.540771484375
12.381591796875 1.3038330078125 3.759033203125
29.728271484375 3.6278076171875 18.31103515625
-9.027099609375 9.0128173828125 -5.735107421875
-0.161865234375 0.2977294921875 -7.079833984375
-1.4345703125 -1.8052978515625 -18.95361328125
24.074951171875 -2.2872314453125 -30.61865234375
22.316650390625 -2.8900146484375 -20.839599609375
-9.09130859375 6.412353515625 -35.2314453125
-6.760498046875 -3.76513671875 -34.157470703125
16.455810546875 -0.7081298828125 -10.446533203125
29.68896484375 0.8134765625 1.36279296875
18.58837890625 -1.03857421875 56.986083984375
1.680908203125 -0.265380859375 68.10986328125
-4.80517578125 -1.0748291015625 64.265869140625
-8.414794921875 -1.6676025390625 61.51953125
32.6201171875 4.034912109375 48.66259765625
39.445556640625 2.310546875 12.262939453125
-9.05810546875 -0.26318359375 58.601806640625
23.806640625 -0.6029052734375 -8.212158203125
23.529052734375 -1.1260986328125 -11.39306640625
5.73193359375 -2.77978515625 -24.5068359375
-4.69580078125 -0.2677001953125 -10.22314453125
-8.62060546875 16.356201171875 -32.1943359375
-8.8857421875 -0.478759765625 -20.2392578125
-8.860107421875 13.94091796875 -5.91455078125
34.018798828125 3.5106201171875 20.28759765625
32.55419921875 8.2076416015625 38.0556640625
7.0537109375 -4.3572998046875 -42.453125
42.98388671875 5.12255859375 28.6357421875
15.472412109375 -4.694091796875 -35.36669921875
21.47021484375 3.1014404296875 13.225341796875
10.915283203125 -1.6478271484375 61.976806640625
41.248291015625 2.2884521484375 12.707763671875
-9.299072265625 9.1109619140625 -26.56298828125
-9.3525390625 2.519287109375 -27.322021484375
1.601806640625 -1.45166015625 63.7119140625
33.28759765625 -0.430908203125 -4.761962890625
33.27294921875 7.289794921875 35.571044921875
35.101318359375 3.6461181640625 18.01025390625
-8.808837890625 11.70703125 -29.8916015625
19.79736328125 -4.80615234375 -33.273681640625
-4.23681640625 0.6744384765625 -4.081298828125
34.580078125 0.126708984375 -0.132568359375
34.6875 -3.0870361328125 -20.782958984375
31.068115234375 6.0938720703125 39.25146484375
27.111083984375 -2.3443603515625 -18.4326171875
5.73583984375 1.4935302734375 -1.485107421875
25.589599609375 4.9410400390625 25.118896484375
-9.072021484375 7.4931640625 -13.531005859375
36.379150390625 2.5677490234375 13.72265625
15.845703125 -0.769775390625 59.303955078125
31.1962890625 -2.9893798828125 -20.706787109375
-16.110595703125 2.4991455078125 73.36962890625
17.3876953125 3.593505859375 16.0830078125
40.625244140625 1.199951171875 5.455810546875
27.0205078125 5.589599609375 28.810546875
8.861083984375 1.2962646484375 1.38427734375
-9.3544921875 2.76953125 -35.87939453125
18.08154296875 1.5670166015625 4.41455078125
10.884521484375 -2.399658203125 -22.309326171875
8.13232421875 3.5987548828125 16.495361328125
13.203125 4.238525390625 26.84912109375
38.572509765625 -0.1165771484375 -3.13818359375
33.32763671875 -2.865966796875 -19.602294921875
29.358642578125 -3.393798828125 -23.53271484375
-8.717529296875 21.3275146484375 -11.18359375
-9.0322265625 18.34326171875 -31.510498046875
36.683349609375 -0.9476318359375 -8.885986328125
-8.96923828125 16.86962890625 -15.04931640625
-7.65283203125 4.1688232421875 6.265869140625
33.777587890625 2.632080078125 13.040771484375
31.617919921875 -1.9906005859375 -14.20849609375
23.33837890625 -1.62158203125 -13.775146484375
-9.2255859375 8.796142578125 -2.486328125
16.2890625 3.845458984375 18.698486328125
-8.093994140625 -3.240966796875 -30.98583984375
-7.53076171875 18.1629638671875 -40.20556640625
-9.1552734375 1.8248291015625 -14.844482421875
-3.01904296875 -2.5228271484375 -23.265869140625
33.359375 5.6248779296875 32.03515625
-8.697265625 25.049072265625 -14.041015625
29.7568359375 -1.988037109375 -15.40234375
-6.441162109375 21.98779296875 -41.072509765625
1.833251953125 1.9090576171875 4.6103515625
-8.875732421875 26.3897705078125 -16.181396484375
27.994140625 -2.7652587890625 -20.714599609375
-8.968505859375 14.0367431640625 -10.298828125
30.2548828125 4.2757568359375 21.402099609375
3.471435546875 -2.0675048828125 60.100341796875
-9.08056640625 0.496826171875 74.677978515625
35.37890625 0.4881591796875 1.72412109375
8.004638671875 -1.515625 64.654296875
16.270751953125 4.58203125 24.22265625
-5.427490234375 -0.9979248046875 -13.535400390625
2.915771484375 3.00830078125 1.055419921875
24.3583984375 -0.35546875 -6.724609375
27.562255859375 3.04541015625 15.156005859375
32.648193359375 1.738037109375 6.7841796875
22.2900390625 0.3118896484375 -2.9921875
-5.251220703125 -0.937255859375 65.798828125
10.69970703125 2.8858642578125 11.217041015625
-9.345703125 -0.3795166015625 -32.609375
-9.228515625 2.8701171875 -22.160888671875
-8.98193359375 19.936279296875 -13.78369140625
10.38037109375 -3.7860107421875 -31.485595703125
-9.001708984375 19.1053466796875 -15.705078125
-3.136962890625 1.124755859375 0.745849609375
25.315673828125 -1.54248046875 -13.05078125
31.998779296875 3.44775390625 17.444580078125
29.45263671875 1.080322265625 4.6875
24.2001953125 3.1309814453125 14.653076171875
33.207275390625 3.1790771484375 16.395751953125
-8.260498046875 30.355712890625 -15.58251953125
-8.838134765625 15.4498291015625 -35.298828125
27.826904296875 1.1688232421875 4.231201171875
11.619384765625 -0.1448974609375 -7.636474609375
6.402099609375 1.3271484375 1.574951171875
35.19921875 6.0562744140625 34.494384765625
12.636962890625 -3.5595703125 -30.098876953125
30.595947265625 2.4102783203125 11.698486328125
22.75244140625 -1.1629638671875 -29.959716796875
21.90087890625 3.6510009765625 18.33056640625
10.0263671875 -5.0849609375 -41.606201171875
23.752197265625 0.1407470703125 -2.0986328125
33.89111328125 -2.614990234375 -18.092529296875
-5.39013671875 0.7686767578125 76.371826171875
-8.927490234375 12.6324462890625 -7.351806640625
20.068115234375 3.6058349609375 17.917236328125
3.90869140625 -2.8592529296875 -23.571533203125
6.752685546875 2.484130859375 31.77978515625
17.538330078125 1.322265625 2.943115234375
28.8271484375 1.619140625 6.833984375
25.466064453125 -1.0810546875 -9.820556640625
10.71923828125 -5.2333984375 -38.876953125
24.66357421875 2.1455078125 9.357421875
17.26806640625 -5.509033203125 -39.1513671875
-8.423583984375 4.6715087890625 4.441162109375
17.653076171875 2.9139404296875 13.272216796875
11.686767578125 -4.8065185546875 -35.892822265625
-9.1337890625 8.567138671875 -7.25
0.934814453125 -2.2340087890625 -22.399658203125
13.305908203125 -0.171630859375 -7.248779296875
-9.1357421875 4.8779296875 -14.80908203125
26.318359375 -1.8963623046875 -15.35205078125
9.9228515625 -3.2403564453125 -26.464111328125
29.307861328125 3.025390625 15.599365234375
-8.65966796875 23.542724609375 -20.798828125
35.490478515625 4.6065673828125 24.803466796875
2.763427734375 -3.3533935546875 -27.67333984375
6.817626953125 -3.447021484375 -28.838623046875
-8.771484375 -0.6962890625 -25.868896484375
-6.691162109375 16.1632080078125 -21.680908203125
19.9716796875 2.7978515625 12.368896484375
31.2421875 3.9178466796875 19.60205078125
10.230224609375 -1.66455078125 65.845947265625
11.234130859375 0.808837890625 -0.3505859375
37.579345703125 4.8431396484375 43.8125
3.156005859375 -3.943603515625 -31.398681640625
-5.8330078125 0.9029541015625 77.879638671875
12.345703125 -0.5963134765625 -10.216064453125
9.44873046875 -1.1341552734375 -13.06591796875
-1.618408203125 -2.2686767578125 -21.673828125
2.93505859375 -5.2041015625 -38.984619140625
15.2890625 7.7843017578125 16.58349609375
32.2421875 5.9139404296875 33.835693359375
-9.135498046875 7.1109619140625 -2.7265625
-9.183349609375 2.712890625 -1.45947265625
-4.5234375 0.4659423828125 74.079833984375
10.419677734375 2.3782958984375 8.129638671875
-2.759765625 -1.287841796875 50.185546875
-2.795166015625 0.2091064453125 -6.7880859375
-8.96923828125 5.5562744140625 -33.927978515625
32.1103515625 2.518310546875 45.657470703125
-5.91845703125 -2.68359375 -25.2373046875
-8.01904296875 9.318359375 -24.930419921875
-5.9658203125 14.86962890625 -24.17578125
1.25927734375 3.2999267578125 68.022705078125
-9.45556640625 14.7265625 -24.7890625
32.851806640625 10.12109375 39.09033203125
27.8359375 3.5634765625 18.3046875
-9.17041015625 6.1312255859375 0.14990234375
2.55029296875 2.9302978515625 13.050537109375
22.74072265625 -4.26416015625 -32.094970703125
7.8515625 0.4730224609375 -4.3203125
-8.91796875 -0.0576171875 -36.0341796875
10.17578125 3.3973388671875 14.874755859375
13.5302734375 3.78759765625 16.49951171875
-4.679443359375 2.326904296875 5.733642578125
-8.730224609375 5.3204345703125 6.01953125
2.670654296875 0.033935546875 -6.980224609375
36.154541015625 4.9024658203125 26.688720703125
2.762939453125 -4.3477783203125 -41.9453125
9.781005859375 1.6820068359375 5.14013671875
11.12109375 0.0001220703125 -5.90185546875
29.110107421875 -1.882568359375 -13.992431640625
36.726318359375 5.8809814453125 37.05712890625
-9.4541015625 6.2955322265625 3.744384765625
13.322998046875 3.2880859375 14.591552734375
14.482421875 7.2315673828125 21.596435546875
-8.700927734375 18.6614990234375 -11.291748046875
-7.0224609375 11.828125 -17.4150390625
4.5400390625 4.3590087890625 -1.0810546875
-10.1513671875 -1.7398681640625 60.68701171875
21.081787109375 -5.8568115234375 -38.989013671875
-7.614990234375 35.5992431640625 -21.718017578125
12.29833984375 -5.333740234375 -38.5087890625
0.103271484375 1.8865966796875 3.837890625
36.177978515625 4.1568603515625 19.38720703125
20.452392578125 0.6483154296875 0.28173828125
29.732177734375 3.8734130859375 49.927978515625
14.04345703125 -4.5528564453125 -33.709716796875
0.424560546875 -0.5968017578125 -11.1435546875
-7.31689453125 36.0911865234375 -18.556884765625
17.84033203125 0.6722412109375 -0.72314453125
39.9873046875 5.393310546875 30.815185546875
14.688232421875 1.2000732421875 2.4150390625
-7.896240234375 -3.4556884765625 -35.47705078125
-2.4169921875 1.4212646484375 79.990234375
32.4296875 0.40234375 0.345947265625
18.2919921875 4.3743896484375 21.432861328125
0.4033203125 -2.474365234375 -23.84375
-3.2890625 -1.4913330078125 -18.072998046875
6.248046875 -0.2518310546875 -8.67724609375
-9.037109375 15.48046875 -2.4443359375
-4.759521484375 0.436767578125 -5.50927734375
14.894775390625 -0.243896484375 -7.23583984375
30.89501953125 2.530029296875 13.26025390625
41.91796875 2.1885986328125 11.327880859375
19.234375 1.053955078125 54.857666015625
7.232666015625 -1.1090087890625 66.24658203125
-9.296875 6.83935546875 -10.599365234375
40.9150390625 4.6134033203125 24.96728515625
1.7080078125 1.2100830078125 -4.455078125
-9.525146484375 5.7872314453125 -8.82763671875
-14.1650390625 0.6259765625 74.981689453125
38.147216796875 0.098388671875 -1.385009765625
9.08154296875 2.1427001953125 7.26123046875
36.35009765625 2.9725341796875 15.341064453125
15.192626953125 1.0565185546875 0.689208984375
43.486328125 3.279052734375 19.201416015625
6.29296875 -4.0875244140625 -31.896728515625
30.797607421875 -0.310546875 -5.001220703125
-9.280517578125 8.72216796875 -14.41845703125
3.473876953125 -0.3665771484375 -9.154541015625
-11.436279296875 0.8365478515625 76.060302734375
37.21728515625 1.32373046875 5.7939453125
-7.211669921875 38.3310546875 -25.478515625
-8.8115234375 24.410888671875 -11.10009765625
11.80712890625 -2.7835693359375 -23.755615234375
8.23681640625 1.7669677734375 4.6953125
40.34912109375 3.1463623046875 15.724609375
-8.0458984375 23.103271484375 -34.91015625
-11.2763671875 0.6103515625 72.789306640625
-1.130126953125 0.156982421875 75.11376953125
-3.003173828125 -1.7154541015625 61.438232421875
28.578369140625 0.316162109375 -1.628662109375
8.23876953125 1.48193359375 33.896484375
-6.37158203125 1.9208984375 3.431396484375
32.990478515625 5.8170166015625 35.31494140625
-8.41748046875 6.7705078125 6.586669921875
25.421630859375 -3.107666015625 -22.493408203125
8.236328125 2.9110107421875 11.372314453125
24.335205078125 0.0469970703125 -5.110595703125
-2.216064453125 25.3807373046875 -8.052001953125
-8.436767578125 7.2716064453125 -37.1875
6.81982421875 -2.691650390625 -23.188232421875
32.42578125 -0.802734375 -7.848388671875
-9.09521484375 10.461181640625 2.054443359375
31.453125 0.7882080078125 1.779052734375
9.623046875 0.49267578125 -3.5546875
6.207763671875 -0.4619140625 69.724853515625
23.842529296875 -2.593017578125 -20.035888671875
-8.745361328125 20.0186767578125 -24.02099609375
5.418212890625 1.591796875 5.37890625
6.021240234375 -0.9256591796875 67.53076171875
-8.620361328125 23.7991943359375 -26.577392578125
17.00048828125 -0.463134765625 -8.973388671875
-8.970703125 22.273681640625 -16.0830078125
3.69287109375 -1.2486572265625 65.63525390625
-3.071533203125 -3.17333984375 51.84423828125
43.081298828125 1.8848876953125 9.437744140625
-7.925048828125 -1.456298828125 63.27392578125
-9.241943359375 6.6661376953125 -4.235595703125
25.9501953125 3.1295166015625 14.681884765625
10.946044921875 1.45263671875 3.280517578125
-8.704833984375 17.7041015625 -9.5732421875
-7.0400390625 2.353515625 5.905029296875
-6.947509765625 36.14501953125 -24.869873046875
-11.84326171875 1.384521484375 77.8984375
17.749755859375 4.4755859375 23.93017578125
27.818603515625 2.3829345703125 10.26611328125
-8.79150390625 18.7322998046875 -26.300048828125
29.786376953125 -4.8944091796875 -28.958984375
-8.9052734375 20.760986328125 -33.926513671875
36.294189453125 -0.311767578125 -4.24755859375
25.170654296875 3.5596923828125 17.64892578125
-7.088134765625 33.4263916015625 -27.814208984375
24.237060546875 -5.2408447265625 -36.62646484375
-8.63525390625 20.767333984375 -7.11376953125
8.99755859375 -1.749267578125 60.37841796875
-7.028564453125 30.779052734375 -29.5732421875
-0.9931640625 2.146728515625 4.86767578125
4.51025390625 0.4884033203125 -4.285888671875
-8.921875 8.568359375 -30.671875
2.140380859375 2.75341796875 11.581787109375
20.59375 2.2864990234375 9.850341796875
-4.400634765625 -2.71826171875 55.76611328125
23.101318359375 1.8507080078125 6.88671875
-8.37744140625 25.1087646484375 -33.00439453125
28.517333984375 -0.49609375 -7.743408203125
-8.6357421875 30.860595703125 -21.68798828125
-7.615966796875 34.39990234375 -25.7099609375
14.9638671875 -5.095947265625 61.916015625
-12.826171875 0.5682373046875 73.723388671875
16.997314453125 -4.4393310546875 -32.0859375
30.013427734375 -3.92919921875 -26.179443359375
-8.716552734375 23.646728515625 -13.064453125
10.834716796875 -4.82275390625 -34.388671875
-8.812744140625 18.1304931640625 -22.544677734375
29.979736328125 -2.7056884765625 -19.573486328125
19.55615234375 -2.7474365234375 -30.52880859375
22.46435546875 0.3677978515625 -1.400146484375
13.487548828125 -2.833251953125 -22.9814453125
19.58740234375 -2.3482666015625 -27.239990234375
-8.723876953125 1.366455078125 79.67529296875
-3.270263671875 -2.5762939453125 57.06591796875
34.68212890625 5.0374755859375 27.776611328125
41.35302734375 3.1590576171875 17.58056640625
34.134521484375 0.7462158203125 3.231201171875
1.796875 2.6654052734375 8.113037109375
25.7822265625 0.2774658203125 -2.6025390625
45.353515625 3.2969970703125 18.821533203125
-4.797119140625 -1.4473876953125 62.805419921875
-6.7685546875 -1.6373291015625 62.00439453125
14.2666015625 0.253173828125 -4.280029296875
-0.6376953125 0.3695068359375 76.877685546875
-6.35791015625 1.3963623046875 79.7451171875
-7.012939453125 -3.81689453125 -37.327880859375
-8.959228515625 20.0841064453125 -28.882080078125
16.251708984375 -3.973876953125 -29.4267578125
-4.60595703125 14.6595458984375 -22.084716796875
-9.0751953125 -0.18798828125 -34.341064453125
36.857666015625 -0.0604248046875 -2.735595703125
14.69970703125 4.168701171875 25.762939453125
43.171142578125 4.406982421875 23.30712890625
14.0595703125 4.9158935546875 17.48779296875
-9.0703125 15.7984619140625 -23.8125
31.259765625 4.4356689453125 38.52099609375
-8.929931640625 -0.1322021484375 70.680419921875
-6.619140625 -0.8583984375 66.727783203125
-6.256591796875 34.9384765625 -29.90966796875
35.1201171875 8.0557861328125 43.641357421875
-8.66015625 2.60009765625 81.0751953125
42.703857421875 1.3060302734375 5.81591796875
-7.82861328125 15.9300537109375 -20.519287109375
-9.240966796875 8.630126953125 2.276123046875
-9.2412109375 4.175048828125 -7.92822265625
43.108154296875 2.3037109375 12.31005859375
-8.7255859375 19.9598388671875 -10.624755859375
-9.2060546875 9.61669921875 -0.597900390625
22.77001953125 2.4835205078125 10.96826171875
-8.986083984375 12.423095703125 -14.93017578125
-9.149658203125 3.6539306640625 -32.396240234375
20.73388671875 -0.3590087890625 55.85302734375
0.247802734375 0.4532470703125 75.660888671875
43.3759765625 2.8341064453125 15.5322265625
-9.247314453125 10.7552490234375 -9.057373046875
14.037109375 -0.6241455078125 -9.833251953125
-9.052978515625 6.343994140625 -32.376708984375
31.31298828125 -0.0968017578125 -2.65673828125
-8.939453125 17.9537353515625 -7.9326171875
7.50439453125 -4.699462890625 -36.31103515625
11.89208984375 1.1142578125 1.073486328125
10.812744140625 3.6837158203125 16.698486328125
-7.259765625 29.843017578125 -32.2939453125
-8.407470703125 31.182373046875 -25.9130859375
-9.044677734375 14.134521484375 -1.9033203125
8.661376953125 -3.7845458984375 -30.982177734375
19.119873046875 -2.6807861328125 -22.071533203125
-9.281494140625 7.0015869140625 -15.4189453125
4.083984375 -2.3316650390625 -42.640625
-9.0537109375 13.3314208984375 -4.203857421875
12.91650390625 -4.656982421875 -34.613037109375
-8.77490234375 31.3280029296875 -23.763671875
11.466552734375 -3.297607421875 -28.55078125
30.41748046875 5.1168212890625 27.78466796875
34.100341796875 1.5758056640625 6.05908203125
-7.390625 2.265869140625 2.467041015625
-9.015625 4.289306640625 -21.995361328125
24.439208984375 2.018798828125 52.438232421875
-9.254638671875 9.417236328125 -8.50732421875
-8.7578125 8.0455322265625 -25.367919921875
-10.667724609375 -0.223876953125 70.196533203125
34.11376953125 1.971923828125 9.322021484375
12.998291015625 -2.249755859375 -20.442626953125
1.616455078125 -0.4517822265625 41.4208984375
-9.17626953125 12.7078857421875 -0.927001953125
20.656494140625 -1.6248779296875 -13.904052734375
28.763916015625 -5.2733154296875 -36.6796875
7.985107421875 2.0328369140625 6.32861328125
-6.886474609375 0.47216796875 73.296875
24.154052734375 0.72509765625 1.029541015625
-9.45068359375 7.1136474609375 -21.817626953125
37.078857421875 5.9566650390625 42.226806640625
8.04736328125 -1.1424560546875 67.631103515625
-1.9296875 13.0693359375 -23.873291015625
-9.20263671875 10.0479736328125 -13.390625
-8.81396484375 23.219970703125 -15.017333984375
-8.640380859375 22.960693359375 -28.521484375
-8.30517578125 30.25634765625 -13.92578125
-7.5185546875 31.036376953125 -31.540283203125
0.35498046875 0.92578125 -4.08203125
-8.97705078125 20.7833251953125 -35.560546875
18.867919921875 -0.0352783203125 -5.3935546875
-8.94775390625 17.55078125 -33.076416015625
28.093994140625 -5.1790771484375 -34.796630859375
17.245361328125 0.019287109375 -4.995849609375
-9.142822265625 5.7862548828125 -2.188720703125
-3.302490234375 2.1829833984375 6.205322265625
-9.51171875 2.79345703125 -10.083251953125
6.271240234375 -1.81640625 57.402587890625
-8.7705078125 0.7752685546875 -16.423095703125
-9.431640625 5.2904052734375 -5.22607421875
35.12109375 -1.6376953125 -13.464111328125
-9.18896484375 15.0855712890625 -30.6279296875
4.631591796875 -2.8843994140625 -25.407958984375
-8.695068359375 20.811767578125 -9.115478515625
36.356689453125 5.36572265625 31.08837890625
-8.97900390625 14.3814697265625 -32.647705078125
-9.068115234375 3.6905517578125 -3.169921875
45.814453125 3.1043701171875 16.666748046875
-7.675537109375 29.891357421875 -28.443603515625
-5.869384765625 41.4461669921875 -24.98876953125
-7.5078125 0.9241943359375 74.819580078125
11.658447265625 2.1595458984375 7.463623046875
33.309326171875 4.8289794921875 26.0283203125
3.75732421875 -1.95458984375 61.54931640625
8.255859375 -4.3653564453125 -34.095458984375
8.030517578125 -5.236328125 -40.135986328125
30.613525390625 2.802734375 14.93212890625
32.589111328125 -1.5303955078125 -13.24951171875
6.24267578125 -5.2437744140625 -40.830078125
20.5546875 -5.276123046875 -35.95703125
12.682373046875 0.32421875 -4.29931640625
45.18603515625 3.6396484375 20.486328125
-7.925537109375 31.915771484375 -15.443359375
4.631591796875 3.486572265625 0.588623046875
-8.707275390625 17.94140625 -27.86181640625
-8.951171875 21.1251220703125 -20.833251953125
-8.861328125 20.5140380859375 -26.914306640625
-8.653564453125 21.736328125 -32.067138671875
4.559326171875 -4.8760986328125 -36.22314453125
26.878173828125 -3.263671875 -23.71142578125
-8.250244140625 27.7784423828125 -29.6630859375
22.07421875 5.310302734375 26.9912109375
29.5869140625 0.34521484375 -0.219482421875
36.830322265625 10.0443115234375 33.124267578125
24.88818359375 -1.726806640625 -14.581787109375
-8.79541015625 18.65185546875 -36.155517578125
-9.40185546875 6.54150390625 -30.669677734375
26.8173828125 3.513671875 17.3056640625
31.987548828125 5.734130859375 36.3056640625
0.09619140625 -1.8798828125 -18.966064453125
-2.08447265625 1.3096923828125 -1.516845703125
-8.971435546875 17.9771728515625 -20.853271484375
4.981689453125 -1.405517578125 65.083984375
38.14599609375 -0.73193359375 -5.908935546875
32.84912109375 5.4146728515625 29.72119140625
23.5673828125 -2.3145751953125 -18.327392578125
-7.4755859375 31.93212890625 -30.4208984375
3.681640625 2.0731201171875 2.159912109375
-9.0107421875 20.5003662109375 -5.783203125
-7.825439453125 22.0106201171875 -38.5654296875
-5.3251953125 15.568115234375 -21.1767578125
36.693603515625 -0.544921875 -5.57568359375
