-29.793212890625 3.86865234375 -6.362060546875
-0.420654296875 5.2010498046875 34.522216796875
-18.781982421875 3.63232421875 -48.208984375
3.513671875 -1.4583740234375 -42.71728515625
-17.095703125 -1.8311767578125 56.201171875
-23.254638671875 3.974609375 67.560302734375
17.684814453125 13.5146484375 17.20751953125
-1.979248046875 2.971923828125 -5.57861328125
24.291748046875 -0.589111328125 -27.4345703125
-8.77978515625 14.1387939453125 14.20263671875
13.265625 7.2547607421875 32.02197265625
-22.01416015625 0.3447265625 45.6025390625
-13.10107421875 3.351806640625 32.537109375
12.511474609375 5.139404296875 11.303955078125
22.453857421875 2.894287109375 -4.204833984375
-19.724853515625 12.5897216796875 -4.803955078125
-15.952880859375 0.739990234375 74.12255859375
-5.127197265625 -0.508544921875 -27.340087890625
-21.1455078125 2.0142822265625 -15.088134765625
-1.498291015625 5.0313720703125 15.852294921875
5.39599609375 -0.7333984375 -32.677001953125
24.32373046875 5.203369140625 16.60009765625
-0.982666015625 3.513427734375 44.4609375
-11.5966796875 1.5860595703125 -15.744384765625
-19.375244140625 3.4434814453125 2.1630859375
8.04931640625 1.6536865234375 -16.462890625
13.6865234375 3.1851806640625 1.4833984375
-23.916015625 0.13525390625 -28.582763671875
-9.314453125 4.07470703125 -0.052978515625
-16.94580078125 -0.749267578125 -34.216552734375
-8.49755859375 -0.6959228515625 57.88232421875
3.456298828125 0.412353515625 -24.567626953125
-19.0419921875 6.4554443359375 12.65087890625
24.16015625 -1.40771484375 -36.481201171875
0.367431640625 5.94580078125 26.269287109375
-2.5380859375 -0.6815185546875 -35.772705078125
-18.79931640625 2.786376953125 38.32470703125
15.89404296875 1.251708984375 -14.61669921875
16.209228515625 7.5643310546875 24.24365234375
-31.831298828125 1.6312255859375 77.751220703125
21.50537109375 9.0509033203125 33.639404296875
-16.59423828125 -0.408203125 64.18994140625
-26.985107421875 4.14501953125 1.131591796875
5.3662109375 4.8079833984375 48.94775390625
-31.435302734375 0.4014892578125 65.440673828125
-11.831787109375 6.0594482421875 16.453369140625
5.8212890625 3.8770751953125 -0.372314453125
17.72314453125 -0.8714599609375 -31.218994140625
7.110595703125 6.313232421875 36.27392578125
-17.2080078125 -1.463134765625 -43.012451171875
-6.38720703125 1.3153076171875 50.053955078125
-24.742431640625 -2.2816162109375 52.817138671875
-4.582763671875 4.274169921875 6.552490234375
-6.250732421875 5.2554931640625 30.0947265625
-23.598388671875 -1.5859375 62.503662109375
-8.537109375 2.128173828125 -9.1494140625
4.0712890625 2.3485107421875 -10.395263671875
5.652587890625 5.52734375 13.6796875
-6.412841796875 3.3382568359375 38.13720703125
15.79638671875 7.8236083984375 38.741455078125
19.90673828125 0.274658203125 -20.587646484375
6.698486328125 7.509765625 29.1689453125
-22.55419921875 2.5582275390625 -7.66015625
-15.3515625 -0.185791015625 48.81396484375
-28.336181640625 0.51611328125 71.6259765625
-27.75439453125 2.464599609375 -12.7216796875
-10.262451171875 -0.7283935546875 -32.861572265625
16.7109375 5.0760498046875 16.638916015625
9.054931640625 -1.8057861328125 -38.250732421875
-21.658447265625 0.7364501953125 -22.3515625
-2.8046875 -1.106689453125 -44.645263671875
-1.37451171875 3.293212890625 1.000732421875
-22.654296875 0.6964111328125 74.62060546875
-7.959716796875 0.5413818359375 -21.74951171875
8.88916015625 3.8399658203125 6.263916015625
-11.35400390625 0.0418701171875 -46.020263671875
16.811767578125 5.1363525390625 6.3701171875
4.2783203125 5.0557861328125 41.744384765625
11.62841796875 -1.0565185546875 -31.230712890625
16.74560546875 2.45849609375 -7.8525390625
-21.8095703125 6.4853515625 -2.38623046875
-6.2265625 5.7490234375 12.398193359375
21.0185546875 4.931396484375 11.76318359375
0.937744140625 2.165771484375 -30.220947265625
-16.717529296875 1.779296875 -18.79638671875
-2.82470703125 1.8192138671875 -11.1279296875
20.670654296875 6.483642578125 20.8017578125
11.023193359375 5.4981689453125 16.959716796875
-11.587646484375 -0.095703125 53.1064453125
2.07568359375 6.529296875 20.018798828125
-29.3662109375 0.677978515625 -27.094482421875
-16.6201171875 1.0164794921875 43.44482421875
-6.89892578125 8.5804443359375 17.527099609375
23.260009765625 1.703369140625 -9.6923828125
19.271728515625 3.7293701171875 1.360595703125
-12.63427734375 0.89111328125 69.399658203125
-16.96728515625 5.0052490234375 7.18896484375
-1.90771484375 0.9510498046875 -23.085693359375
-12.30859375 2.4893798828125 37.93701171875
-10.14306640625 -1.32373046875 63.073486328125
-16.87353515625 2.1019287109375 -11.71044921875
-11.275634765625 5.68310546875 27.997802734375
14.25634765625 9.0770263671875 19.4306640625
11.43359375 7.67919921875 26.6767578125
18.00439453125 7.281982421875 29.56787109375
-14.527587890625 3.2135009765625 -0.682373046875
-21.0068359375 8.5584716796875 66.093017578125
-18.179443359375 0.799072265625 69.103759765625
-3.5283203125 6.32763671875 21.30419921875
-15.7646484375 5.686279296875 72.304443359375
12.50634765625 1.22265625 -19.24560546875
-20.15625 -1.9544677734375 49.955322265625
-10.233154296875 0.4591064453125 -27.26123046875
3.74365234375 -1.784912109375 -37.47412109375
-21.093994140625 0.2791748046875 -38.89306640625
5.4248046875 2.6180419921875 -5.45166015625
-6.322021484375 1.732666015625 -17.0126953125
-1.033203125 5.8359375 9.900634765625
18.966064453125 0.201416015625 -25.620849609375
-12.86474609375 4.2550048828125 4.05517578125
-21.971435546875 -0.3797607421875 -33.5361328125
-26.3671875 -0.5240478515625 67.068115234375
3.610595703125 0.737548828125 -18.75634765625
-0.94482421875 4.60546875 39.46435546875
-19.447021484375 1.4365234375 78.343017578125
14.3828125 2.9306640625 -3.417724609375
7.52880859375 -0.0791015625 -27.340576171875
-27.787841796875 -0.389892578125 -33.17236328125
-13.766845703125 -0.8797607421875 -37.993408203125
-22.63671875 4.25634765625 6.117431640625
-4.127685546875 1.3955078125 57.10888671875
24.1494140625 3.3331298828125 1.061767578125
-1.428466796875 2.399658203125 49.029541015625
-24.96728515625 3.206787109375 -3.645263671875
11.50341796875 1.0552978515625 -12.919189453125
24.315673828125 0.3294677734375 -22.24365234375
-26.60986328125 0.47314453125 -22.7431640625
-3.532470703125 1.4449462890625 -31.327392578125
-30.315185546875 5.0184326171875 4.25
-17.6513671875 -0.3131103515625 -29.659423828125
-5.298583984375 3.9830322265625 -2.518310546875
7.662841796875 0.0452880859375 -22.73046875
23.410888671875 -0.9752197265625 -31.967529296875
-17.57275390625 8.04736328125 -3.196044921875
-22.42578125 -0.9617919921875 56.5126953125
-6.13232421875 2.755126953125 42.64599609375
-11.3818359375 3.2020263671875 -4.00830078125
-14.708984375 -0.9263916015625 59.947998046875
-24.923095703125 1.6424560546875 -17.549560546875
-2.95068359375 -1.7265625 -40.1474609375
-7.00927734375 -1.28759765625 -36.490234375
13.1220703125 -0.971435546875 -35.4853515625
17.691650390625 11.1551513671875 21.427734375
-28.6357421875 -0.46875 62.006591796875
11.3798828125 7.4652099609375 36.830078125
2.396240234375 1.67724609375 -14.410400390625
-12.86474609375 0.5968017578125 -20.538818359375
-10.326416015625 0.5941162109375 48.236572265625
19.453857421875 2.470947265625 -12.426513671875
-19.780029296875 -1.2901611328125 60.456298828125
2.8515625 6.6641845703125 30.98095703125
-4.98046875 6.3443603515625 25.798095703125
-14.477294921875 6.0203857421875 11.923095703125
-7.044189453125 -0.677490234375 -45.28271484375
1.39306640625 3.080078125 -2.259521484375
-8.31640625 3.9720458984375 33.599365234375
-32.27099609375 0.7685546875 73.596923828125
-15.66162109375 0.7366943359375 -46.31787109375
10.298583984375 3.3900146484375 -2.3076171875
18.900390625 -1.41357421875 -35.2724609375
-12.845458984375 2.9024658203125 -10.644287109375
6.2529296875 5.1591796875 17.86083984375
-5.8408203125 3.5240478515625 2.59130859375
-35.31982421875 0.2681884765625 67.07861328125
-27.818359375 1.1876220703125 76.577880859375
-19.584228515625 -0.1463623046875 -25.8955078125
16.425048828125 8.2301025390625 34.63671875
4.3251953125 6.195068359375 24.98193359375
-20.926025390625 -0.298095703125 65.401611328125
12.244140625 6.580322265625 22.024169921875
-30.1142578125 2.96728515625 -16.267822265625
-13.51220703125 -0.2847900390625 -29.623291015625
-7.266357421875 0.4595947265625 54.150634765625
9.674560546875 3.1046142578125 2.320068359375
16.20361328125 0.274658203125 -22.30029296875
-24.421142578125 -0.9403076171875 48.6318359375
-2.468505859375 5.331298828125 -30.802734375
-22.275390625 5.57763671875 10.369384765625
16.99169921875 5.022216796875 12.15185546875
14.89892578125 -0.371826171875 -28.020751953125
8.2568359375 1.549072265625 -10.56982421875
8.4580078125 4.9178466796875 10.122314453125
19.89013671875 1.274658203125 -16.686279296875
2.36181640625 3.116455078125 46.88818359375
3.249755859375 5.4176025390625 36.873046875
-2.32861328125 5.8721923828125 29.545166015625
-21.91552734375 2.0721435546875 70.930419921875
-32.29736328125 1.245361328125 60.21728515625
1.67724609375 4.7369384765625 12.63232421875
-35.3388671875 2.6571044921875 76.12548828125
1.603515625 3.1925048828125 -7.29150390625
-9.0478515625 3.734130859375 5.021240234375
-10.208984375 5.26953125 12.923583984375
-22.9814453125 4.9736328125 1.76904296875
2.772705078125 4.20703125 51.84814453125
-20.888671875 1.6185302734375 -11.180419921875
-4.266357421875 2.045654296875 46.34130859375
-20.28662109375 1.81640625 -42.407958984375
-29.08544921875 3.499267578125 -2.0595703125
9.4208984375 -0.59521484375 -34.3740234375
-17.6611328125 3.9805908203125 76.060302734375
1.796875 -1.6171875 -33.717529296875
-7.024658203125 2.6239013671875 59.306396484375
22.750732421875 7.9281005859375 30.222412109375
13.25537109375 4.2630615234375 5.342041015625
-15.425537109375 -1.0328369140625 52.513916015625
-4.71728515625 4.41552734375 34.701416015625
18.061767578125 2.8402099609375 -2.551025390625
-1.85546875 2.15087890625 -27.689208984375
-13.439453125 -1.2891845703125 -41.72412109375
-26.406982421875 3.1673583984375 -7.84326171875
-15.216552734375 2.3851318359375 35.563232421875
-7.946044921875 5.5355224609375 19.4404296875
5.604736328125 3.6494140625 4.241455078125
6.77001953125 5.06884765625 44.515869140625
3.79833984375 0.0076904296875 -28.253173828125
2.222900390625 3.91357421875 1.683349609375
-13.26708984375 -0.874267578125 65.771728515625
-3.138427734375 1.47802734375 52.363525390625
7.68017578125 6.087158203125 40.32763671875
-6.6787109375 2.2786865234375 -13.37841796875
-6.587646484375 -0.4737548828125 -32.8984375
-15.665771484375 1.388671875 -15.295654296875
-17.9736328125 0.8748779296875 -22.7841796875
-0.907470703125 4.23828125 6.56591796875
-8.239013671875 4.8243408203125 9.311767578125
-32.477783203125 0.6497802734375 69.330078125
-18.597900390625 4.2218017578125 -4.724853515625
-11.257080078125 0.0577392578125 -23.75341796875
24.284423828125 1.35693359375 -18.769775390625
9.64404296875 7.293212890625 32.03369140625
20.2998046875 5.20947265625 16.196044921875
20.527587890625 -2.092529296875 -38.43115234375
-27.47265625 -2.0196533203125 55.16552734375
24.354248046875 6.3028564453125 22.86279296875
20.394775390625 6.61865234375 26.05224609375
6.85595703125 -1.488037109375 -41.374755859375
-19.8662109375 0.7977294921875 41.912841796875
7.874267578125 6.83837890625 25.239990234375
19.44873046875 3.93115234375 8.720947265625
-17.92236328125 -0.7928466796875 -37.645751953125
-19.534423828125 3.1627197265625 66.83935546875
-18.29150390625 5.8367919921875 -0.529541015625
-28.501220703125 1.517822265625 80.03173828125
1.545166015625 0.20556640625 -21.567626953125
-13.647705078125 0.7064208984375 45.865234375
-5.680908203125 2.69091796875 -7.19287109375
-12.798583984375 -1.4715576171875 56.095703125
4.035400390625 4.5799560546875 9.789306640625
-25.4912109375 -0.8104248046875 59.6669921875
-4.888916015625 5.8397216796875 15.671875
-3.289794921875 1.2977294921875 -14.7626953125
-24.5224609375 2.5987548828125 -14.006591796875
11.441162109375 -1.8529052734375 -40.763427734375
17.103515625 0.4298095703125 -18.5595703125
-18.580322265625 -0.4049072265625 47.296142578125
15.172607421875 7.014892578125 27.611083984375
0.140625 6.601806640625 22.8701171875
-18.942626953125 -1.193115234375 53.364501953125
-15.63623046875 1.408203125 40.168701171875
14.67236328125 1.98681640625 -11.487060546875
19.80517578125 3.4222412109375 4.73681640625
-20.456787109375 1.9287109375 -18.445068359375
-7.975830078125 5.10546875 26.884033203125
24.197265625 4.72314453125 9.354736328125
4.62353515625 6.27392578125 33.87890625
-9.852294921875 2.8143310546875 40.26416015625
-9.968505859375 2.4595947265625 -12.6083984375
21.333740234375 0.0684814453125 -28.932373046875
-30.20361328125 1.485595703125 -23.927490234375
-13.50390625 -1.2972412109375 -33.574951171875
0.263916015625 -1.0147705078125 -39.479248046875
-20.70751953125 8.9974365234375 -4.2978515625
-25.66357421875 4.6412353515625 4.768798828125
-18.91845703125 0.367919921875 -45.809326171875
-11.42919921875 2.5980224609375 -7.615234375
2.46484375 5.622802734375 15.71337890625
-19.28369140625 2.6353759765625 -8.08447265625
-16.136962890625 4.0928955078125 3.673095703125
-3.46337890625 1.0885009765625 -20.180419921875
-18.7060546875 0.19775390625 72.300048828125
15.31884765625 4.843017578125 9.32080078125
0.10009765625 4.386474609375 -32.627197265625
8.361083984375 -0.9932861328125 -30.863525390625
-9.16552734375 1.1396484375 -18.552490234375
-7.7919921875 1.6619873046875 46.43994140625
-10.283203125 -1.4825439453125 -36.469482421875
-1.91943359375 -1.2413330078125 -32.603271484375
-23.623046875 -1.1458740234375 -36.316650390625
0.244873046875 -1.6534423828125 -42.699462890625
10.859130859375 -0.5693359375 -27.580078125
-5.105712890625 0.1270751953125 -24.140380859375
11.942626953125 7.1239013671875 40.50439453125
-24.839599609375 1.00732421875 71.896240234375
-24.68701171875 1.5936279296875 77.25048828125
-8.676513671875 11.500732421875 16.04736328125
23.767822265625 5.7967529296875 13.197998046875
8.865234375 5.7156982421875 13.63427734375
21.874267578125 -0.0316162109375 -24.259765625
-21.714111328125 5.6871337890625 64.93603515625
4.70703125 5.51806640625 21.459716796875
8.6484375 2.9228515625 -5.101806640625
-19.3466796875 4.074462890625 5.33544921875
20.038330078125 2.3955078125 -6.1572265625
-8.240478515625 6.2513427734375 15.169677734375
-11.1337890625 -1.066650390625 59.535888671875
-1.526123046875 5.9410400390625 18.927978515625
16.877685546875 3.9429931640625 3.365478515625
11.366943359375 1.2764892578125 -16.3310546875
13.4111328125 5.28515625 14.9599609375
-10.809326171875 0.9803466796875 66.24951171875
-1.962890625 3.7166748046875 -2.020263671875
-2.65966796875 3.33447265625 41.71435546875
-14.195556640625 3.33544921875 71.0341796875
0.02880859375 1.6077880859375 -12.309326171875
8.858154296875 0.884033203125 -20.018310546875
-8.488525390625 2.617431640625 -5.931884765625
6.826904296875 2.27685546875 -13.70947265625
22.029541015625 3.7447509765625 -1.115234375
19.12890625 9.262939453125 35.62939453125
-20.96630859375 -0.2489013671875 -29.2880859375
6.1044921875 3.7672119140625 7.5146484375
16.470947265625 3.2579345703125 0.232666015625
-13.368896484375 -1.0743408203125 62.6875
3.11669921875 6.8111572265625 27.703857421875
-1.68701171875 5.5162353515625 12.86328125
0.38037109375 -1.0635986328125 -36.46826171875
-6.341552734375 -1.4383544921875 -41.146240234375
-24.7705078125 2.484375 -11.02001953125
-13.76806640625 5.367431640625 6.689208984375
-10.06884765625 2.9781494140625 35.8193359375
22.764404296875 1.838134765625 -12.647216796875
-28.56005859375 0.0142822265625 -30.30615234375
-23.872802734375 1.06201171875 67.588623046875
-27.823974609375 1.3057861328125 -18.74755859375
0.227294921875 0.8060302734375 -32.793212890625
-27.11376953125 -0.618896484375 52.1669921875
-29.448486328125 3.20556640625 -10.400146484375
-16.22802734375 -1.5343017578125 -39.961669921875
0.997802734375 0.021484375 -26.1669921875
15.094482421875 11.84619140625 18.819091796875
2.14697265625 -0.494384765625 -30.663330078125
16.094970703125 -1.601806640625 -34.398681640625
-8.490966796875 3.3916015625 -2.793701171875
-33.929931640625 0.437255859375 63.89990234375
-14.610107421875 5.41552734375 15.779052734375
-14.066650390625 1.080322265625 -17.72900390625
7.028564453125 -1.4146728515625 -35.845947265625
-24.255126953125 0.454833984375 -25.696044921875
-20.173583984375 4.8721923828125 8.463623046875
-21.71337890625 6.441162109375 67.978271484375
-12.11767578125 3.88671875 0.8203125
-20.755615234375 5.4736328125 -47.108642578125
20.389892578125 2.110595703125 -9.403564453125
13.06005859375 2.434326171875 -9.115234375
-24.83447265625 -0.5423583984375 -33.090087890625
-21.768798828125 1.6436767578125 80.287109375
-12.854736328125 1.761962890625 40.882568359375
-7.371337890625 0.47216796875 61.207763671875
14.23876953125 6.1951904296875 19.6572265625
-7.322509765625 -0.126953125 -29.17919921875
-13.623046875 1.977294921875 -13.339599609375
-10.83056640625 3.815673828125 30.814208984375
12.03857421875 4.9952392578125 8.459228515625
9.896484375 7.6962890625 29.1162109375
-22.953125 4.052978515625 -1.343505859375
-27.357421875 1.859619140625 -15.510986328125
-8.33642578125 -0.32421875 -24.459716796875
-28.26806640625 5.720458984375 6.5859375
14.890869140625 -1.1197509765625 -31.597412109375
-0.142333984375 5.316650390625 31.671875
11.86865234375 3.227294921875 -4.752197265625
-18.3232421875 2.2034912109375 -15.96728515625
-15.80126953125 0.427490234375 67.5654296875
-22.03955078125 -1.6552734375 53.47314453125
23.871337890625 6.2183837890625 19.224609375
-4.20947265625 5.1326904296875 9.240478515625
-1.879638671875 7.016845703125 24.829345703125
1.109375 4.75732421875 41.42333984375
-14.06787109375 -0.7532958984375 -44.49755859375
18.4443359375 7.67626953125 32.717529296875
0.05126953125 2.1246337890625 -9.52001953125
24.45263671875 2.621337890625 -6.196533203125
10.66552734375 5.806884765625 19.750732421875
12.449462890625 0.98974609375 -22.123779296875
5.2802734375 5.709228515625 38.811767578125
22.1455078125 -1.1326904296875 -34.473388671875
-22.63916015625 -1.2037353515625 59.30224609375
-3.68212890625 4.084228515625 39.1806640625
2.916748046875 4.0953369140625 44.323974609375
-16.50146484375 4.6365966796875 -2.3095703125
-6.073974609375 1.7420654296875 -10.706787109375
-29.60498046875 -0.188232421875 67.455322265625
1.10693359375 2.0299072265625 51.439453125
-8.982177734375 0.3310546875 50.64208984375
-17.3974609375 -1.602294921875 50.658203125
-18.084716796875 10.794189453125 -3.4853515625
-19.143310546875 3.85986328125 69.47509765625
-19.039306640625 0.7222900390625 75.720947265625
12.66455078125 -1.2672119140625 -38.37744140625
1.216552734375 4.336181640625 9.433837890625
15.878662109375 -0.470703125 -36.8876953125
-9.816162109375 -0.95068359375 -43.076416015625
-2.201416015625 1.2672119140625 55.14404296875
-15.66357421875 2.8287353515625 -9.37841796875
4.8408203125 -0.1153564453125 -22.287109375
-15.735107421875 5.5848388671875 9.54052734375
14.66552734375 0.699462890625 -17.39892578125
4.209716796875 3.1251220703125 -3.0927734375
-3.3681640625 3.767333984375 4.194580078125
-30.2685546875 1.197509765625 75.452392578125
22.186767578125 3.4359130859375 3.50341796875
-5.531494140625 5.4068603515625 18.234619140625
14.037109375 8.3582763671875 35.8359375
-21.609130859375 -1.1712646484375 47.854248046875
1.218994140625 0.810791015625 -16.693359375
8.6064453125 4.292724609375 -0.469970703125
16.156982421875 9.6348876953125 17.662353515625
-13.381591796875 1.8546142578125 -47.09326171875
-26.855224609375 0.8399658203125 -26.26416015625
-20.159423828125 -2.3179931640625 56.70556640625
18.21240234375 5.45361328125 14.508056640625
-24.766357421875 -1.5042724609375 55.44580078125
9.70263671875 7.5164794921875 34.816162109375
19.41748046875 6.3372802734375 18.3916015625
-15.3486328125 0.4356689453125 -21.359375
-3.852783203125 3.2779541015625 0.166748046875
-16.049072265625 -0.507568359375 -31.716064453125
-2.4892578125 5.1619873046875 32.927490234375
-23.2578125 0.930419921875 -20.29931640625
7.19970703125 5.4903564453125 47.223876953125
-16.979248046875 -1.21337890625 61.1923828125
-2.44677734375 7.495849609375 -32.328125
-21.416259765625 3.7470703125 3.74853515625
-19.19580078125 0.1121826171875 44.824951171875
-26.95703125 -0.9659423828125 -35.556640625
-35.389404296875 0.4453125 73.687744140625
11.63720703125 3.00146484375 -0.130126953125
-25.958984375 1.2236328125 74.21630859375
-2.672607421875 4.5960693359375 36.2646484375
21.499267578125 0.9412841796875 -18.672119140625
-15.946044921875 -0.067626953125 -27.585205078125
-12.127197265625 -0.078369140625 49.9521484375
0.63720703125 4.1043701171875 3.70458984375
9.69189453125 2.037353515625 -14.461669921875
-6.327392578125 6.05615234375 21.37060546875
24.455810546875 3.3612060546875 -2.66259765625
-13.81494140625 3.2164306640625 -3.185791015625
7.220458984375 6.3323974609375 15.54638671875
13.4404296875 7.378662109375 25.106201171875
4.0478515625 6.5126953125 18.380615234375
1.852783203125 5.891845703125 33.56640625
12.399658203125 7.16845703125 29.617431640625
9.865234375 6.566650390625 23.256103515625
20.1455078125 -0.8848876953125 -32.03369140625
6.263671875 1.9095458984375 -7.75830078125
22.015869140625 11.2239990234375 32.400146484375
16.017822265625 7.6654052734375 31.925537109375
-16.024658203125 0.1844482421875 70.32275390625
-19.889404296875 6.672119140625 -4.953125
16.47216796875 0.6689453125 -25.364013671875
-23.61767578125 -2.5006103515625 50.476806640625
-19.456787109375 -0.5645751953125 -33.876708984375
-10.148193359375 -0.7945556640625 55.957275390625
-24.656494140625 4.646240234375 8.514404296875
7.148681640625 3.629150390625 1.767822265625
0.95849609375 4.86962890625 37.79638671875
-9.1162109375 1.631103515625 -15.318115234375
6.967529296875 6.541748046875 33.005615234375
-18.738037109375 -1.466064453125 -40.017822265625
-1.48193359375 0.2054443359375 -25.8232421875
-25.76416015625 1.000244140625 -20.340576171875
-30.556640625 -1.2015380859375 60.5732421875
17.08740234375 2.4013671875 -10.334716796875
-3.811767578125 1.2901611328125 -17.710205078125
-21.1708984375 -0.8114013671875 -35.96337890625
18.53173828125 -0.119384765625 -28.059814453125
-6.274169921875 -0.023681640625 56.966796875
-12.72802734375 0.528564453125 -27.3076171875
-16.76416015625 4.6346435546875 1.03515625
-16.829833984375 5.8343505859375 13.62158203125
-16.703857421875 -0.146484375 45.64599609375
-16.12353515625 3.6845703125 73.741943359375
-22.115966796875 3.02197265625 -5.262451171875
-11.2978515625 3.3182373046875 -1.532958984375
-28.362548828125 0.2640380859375 54.8017578125
-3.6708984375 1.7205810546875 49.958740234375
5.60595703125 1.6956787109375 -16.072509765625
-0.863525390625 1.3984375 -15.1943359375
1.147216796875 0.6920166015625 -19.18408203125
-21.77294921875 1.009033203125 77.661865234375
-28.062744140625 -0.7069091796875 64.38427734375
17.145751953125 9.5335693359375 37.605712890625
-26.024169921875 -1.4947509765625 62.12939453125
-19.00146484375 -0.6478271484375 62.695068359375
-6.29296875 3.2061767578125 0.177734375
-6.608154296875 3.8055419921875 5.008056640625
6.06982421875 4.9041748046875 11.359130859375
19.457275390625 9.75732421875 20.49755859375
-31.7412109375 -0.59765625 63.2412109375
3.63623046875 3.237060546875 49.62939453125
10.686767578125 1.6214599609375 -10.575439453125
21.392333984375 5.669921875 14.046875
9.10400390625 5.6419677734375 45.1904296875
16.79443359375 2.802490234375 -4.619140625
-2.845947265625 2.5069580078125 -8.802734375
14.59130859375 0.608642578125 -20.310546875
-4.490478515625 -0.9486083984375 -34.004150390625
-33.9794921875 0.6983642578125 71.296142578125
-13.859619140625 1.1729736328125 42.995849609375
13.44775390625 7.360107421875 38.44384765625
-0.0087890625 6.509033203125 29.404296875
-12.810302734375 2.4561767578125 35.53515625
6.41650390625 -0.2806396484375 -24.75439453125
-12.60888671875 4.599365234375 11.429931640625
-1.712158203125 -1.2542724609375 -38.1435546875
-8.591064453125 4.7611083984375 30.206298828125
-9.830322265625 6.204833984375 25.845458984375
-3.8359375 5.9910888671875 11.92822265625
-16.077392578125 2.800048828125 -47.451904296875
16.43017578125 14.2001953125 19.123779296875
20.392822265625 7.576171875 30.30517578125
4.975830078125 4.21923828125 46.67138671875
4.857421875 -1.58447265625 -40.087158203125
-18.89697265625 1.6004638671875 -12.847412109375
-26.962646484375 2.5621337890625 -4.742431640625
-26.188232421875 3.6026611328125 -1.6572265625
-28.14453125 4.25341796875 3.191162109375
3.812744140625 -1.6632080078125 -34.955078125
-18.746826171875 1.2763671875 -19.9384765625
5.64111328125 0.549560546875 -19.94775390625
10.052734375 0.632080078125 -22.03955078125
7.480224609375 3.031005859375 -3.0556640625
-18.99267578125 5.6240234375 10.359130859375
-17.421630859375 -1.635009765625 58.525146484375
-11.1875 4.722412109375 6.849365234375
8.2822265625 5.36865234375 19.036376953125
21.869140625 1.9139404296875 -15.59814453125
20.47998046875 2.798095703125 -2.94482421875
-4.38330078125 5.6920166015625 27.967041015625
-14.688720703125 -1.5902099609375 57.703369140625
15.4677734375 9.5367431640625 21.374755859375
1.641357421875 7.7203369140625 24.259765625
-10.04150390625 3.4365234375 -10.353759765625
0.9267578125 2.7901611328125 -5.1005859375
-26.3583984375 0.002685546875 69.331787109375
-4.341796875 6.8916015625 23.638916015625
9.10400390625 6.661376953125 37.400634765625
-26.4228515625 -0.0272216796875 -29.41455078125
14.816650390625 7.2086181640625 30.00244140625
-13.868408203125 -0.3841552734375 54.359130859375
-8.237548828125 -0.1090087890625 -31.32470703125
-28.75634765625 0.9781494140625 -22.06005859375
-4.134033203125 -1.3836669921875 -37.278076171875
-9.683349609375 0.763916015625 63.9267578125
-25.164306640625 -1.0416259765625 65.17626953125
-11.177001953125 -1.6092529296875 -38.581787109375
-13.42578125 5.1656494140625 13.7744140625
-24.164306640625 0.8062744140625 -22.394287109375
-26.72216796875 -1.1265869140625 57.76708984375
12.013671875 6.3309326171875 13.490234375
-20.257080078125 -0.1334228515625 -31.452392578125
3.823974609375 2.065673828125 -6.978759765625
-23.86474609375 1.58935546875 69.85595703125
-2.102783203125 6.38671875 27.000244140625
-30.65380859375 0.281494140625 72.081298828125
-20.539306640625 4.9586181640625 0.94287109375
15.005615234375 5.0675048828125 13.37109375
21.190673828125 5.974853515625 22.94287109375
-18.2626953125 0.4434814453125 40.368408203125
-35.30908203125 0.7967529296875 69.350341796875
6.969482421875 -1.7664794921875 -39.14453125
-5.798583984375 0.6864013671875 52.128662109375
-1.731201171875 3.5936279296875 -29.406494140625
-33.38427734375 0.8746337890625 75.543701171875
13.43359375 1.234375 -15.466064453125
-6.953125 3.47412109375 35.301513671875
-5.830078125 -1.514892578125 -38.969970703125
-3.7880859375 1.18896484375 -28.267822265625
-12.76611328125 3.81396484375 69.38818359375
-22.45751953125 2.8424072265625 -13.215576171875
-9.276611328125 2.3165283203125 42.3515625
22.278076171875 5.7012939453125 17.305908203125
-11.43798828125 3.4749755859375 34.118408203125
9.24658203125 -0.3492431640625 -25.972900390625
-9.583251953125 3.9591064453125 2.888916015625
18.260498046875 -0.08203125 -23.01708984375
-7.124267578125 0.9508056640625 -19.748291015625
13.6875 2.64453125 -0.85986328125
16.799072265625 6.514892578125 26.087646484375
-14.8349609375 -1.2252197265625 -35.324462890625
-9.581298828125 -0.531494140625 60.997314453125
-9.175537109375 2.9569091796875 37.826904296875
-6.510986328125 -0.3768310546875 59.373779296875
6.466064453125 0.9571533203125 -17.9560546875
18.41552734375 -1.5401611328125 -38.638671875
6.0546875 2.4453125 -11.665771484375
-5.26318359375 4.779296875 32.614501953125
-9.97265625 0.4722900390625 -20.90087890625
19.63330078125 3.53173828125 -1.068359375
-0.86865234375 0.3065185546875 -19.931396484375
3.177734375 2.3695068359375 -12.500732421875
-14.1220703125 3.81787109375 1.66552734375
-6.080078125 3.290771484375 -4.427734375
8.87646484375 2.4906005859375 -12.49853515625
-6.5791015625 4.2056884765625 7.394287109375
11.670654296875 3.486083984375 3.055419921875
3.381103515625 5.219970703125 39.71923828125
14.505615234375 4.4407958984375 7.3603515625
-3.566162109375 5.6175537109375 17.36376953125
-4.11572265625 2.8516845703125 43.410400390625
5.097412109375 6.879150390625 26.868896484375
13.466552734375 5.51123046875 17.770263671875
22.23388671875 4.0888671875 8.275146484375
-13.10498046875 1.1058349609375 -24.08251953125
4.71533203125 7.5550537109375 30.386474609375
19.033203125 4.5518798828125 11.032958984375
-22.146240234375 0.20947265625 -26.02783203125
-11.341552734375 -1.3018798828125 -41.260498046875
14.45751953125 0.9439697265625 -23.3564453125
17.681396484375 5.1121826171875 8.435546875
21.163818359375 7.300048828125 27.931884765625
3.845458984375 4.322509765625 3.24267578125
9.970703125 6.7479248046875 39.787109375
-12.2919921875 4.967041015625 29.77587890625
-0.726318359375 2.5133056640625 47.021484375
6.247314453125 5.4312744140625 42.45947265625
0.802001953125 0.84619140625 -28.11572265625
23.75048828125 9.7509765625 30.658935546875
-15.848876953125 -0.662353515625 -37.231689453125
9.37451171875 -1.8406982421875 -41.2236328125
-24.38818359375 -0.189453125 -31.053466796875
-27.37646484375 3.33349609375 -10.001220703125
24.2353515625 3.0521240234375 3.1923828125
-21.704833984375 -0.9400634765625 63.1640625
-11.442138671875 -0.3861083984375 -29.995849609375
-8.173583984375 0.5882568359375 -26.854248046875
-22.86083984375 -0.364501953125 66.217529296875
-19.0048828125 0.2108154296875 66.08203125
18.290283203125 7.1195068359375 24.737548828125
-23.234130859375 1.7984619140625 -16.310791015625
2.360595703125 -1.6048583984375 -40.970947265625
22.112548828125 -1.3951416015625 -36.93603515625
-1.80078125 -1.5799560546875 -41.894775390625
-11.861328125 -1.2249755859375 -43.44580078125
-4.433837890625 -0.8001708984375 -31.918701171875
-4.725830078125 3.5177001953125 40.896240234375
5.445068359375 -0.58544921875 -30.598388671875
14.3212890625 2.9287109375 -5.494140625
-20.004638671875 0.3712158203125 -23.92822265625
-5.54931640625 0.785400390625 -22.22314453125
7.802490234375 -0.3743896484375 -32.76123046875
-11.204345703125 1.2135009765625 -17.7451171875
-29.065185546875 0.6796875 73.55908203125
18.121337890625 -1.2431640625 -33.215576171875
-22.534423828125 3.5374755859375 -3.302978515625
12.870849609375 -0.1839599609375 -26.831298828125
22.101318359375 3.6041259765625 0.9873046875
-25.245361328125 4.1263427734375 2.811767578125
-24.033203125 0.6378173828125 -37.75341796875
2.06591796875 2.394287109375 -9.1640625
14.8544921875 4.0447998046875 3.74853515625
24.15673828125 -0.86181640625 -34.11083984375
10.4697265625 0.11865234375 -23.9912109375
19.092041015625 1.6988525390625 -14.302490234375
9.719970703125 1.12158203125 -17.55810546875
-24.33349609375 5.56640625 10.371337890625
-9.4072265625 -0.1134033203125 -29.631591796875
-29.92724609375 4.646484375 2.252685546875
-0.139892578125 2.75830078125 -0.934814453125
-4.406005859375 -1.1434326171875 -43.365234375
5.435546875 0.3067626953125 -27.0556640625
-19.120849609375 -0.6534423828125 -35.98828125
-7.82861328125 2.9112548828125 41.031982421875
-22.594970703125 2.2691650390625 -9.684814453125
-0.72509765625 3.1802978515625 -3.95947265625
-21.022705078125 0.1844482421875 73.499755859375
-28.365966796875 0.6031494140625 -24.074951171875
-19.831787109375 10.705078125 -5.586669921875
-24.199462890625 2.8074951171875 -6.474365234375
-11.878662109375 -1.5191650390625 -35.194580078125
-1.367431640625 3.044189453125 -33.083251953125
4.439453125 6.1458740234375 16.41259765625
-6.347412109375 2.25390625 45.129638671875
-15.179443359375 1.3233642578125 -23.31640625
-9.26171875 0.1397705078125 52.6494140625
13.8779296875 7.669677734375 40.78955078125
-16.970703125 2.190185546875 75.113037109375
-6.344970703125 -0.2276611328125 -25.74072265625
-19.294677734375 2.2032470703125 -10.0693359375
-11.6142578125 2.1614990234375 -13.799072265625
11.672119140625 7.697021484375 34.365966796875
24.305908203125 7.8822021484375 28.202880859375
-8.0283203125 4.1396484375 1.599853515625
-9.386474609375 3.818359375 7.0712890625
5.13037109375 6.048828125 35.93505859375
-20.844970703125 6.1990966796875 -0.629638671875
14.178466796875 7.1590576171875 21.8935546875
-17.349365234375 4.37255859375 5.265380859375
3.608642578125 1.3975830078125 -16.00244140625
-8.534423828125 6.9307861328125 20.775146484375
-11.199462890625 1.77392578125 42.06689453125
21.1328125 -0.1455078125 -22.132080078125
9.4580078125 2.0419921875 -9.0283203125
-10.637939453125 4.810546875 10.55419921875
10.480712890625 5.4688720703125 12.459228515625
3.4306640625 3.6351318359375 0.097412109375
-2.607421875 5.0277099609375 8.026611328125
-8.216064453125 5.4522705078125 12.4677734375
14.2919921875 1.356689453125 -13.403076171875
-6.19873046875 4.8358154296875 9.310302734375
-6.298583984375 6.453369140625 23.73876953125
10.071044921875 3.7044677734375 4.649169921875
0.869140625 5.727294921875 16.92236328125
22.8779296875 2.043701171875 -7.29443359375
10.863525390625 4.363037109375 6.963134765625
8.244873046875 7.6900634765625 27.90673828125
0.111572265625 6.318603515625 20.887939453125
-1.90966796875 6.7337646484375 22.84765625
-6.83154296875 1.1156005859375 48.11376953125
-9.810791015625 4.414794921875 28.660400390625
-11.513916015625 -0.597900390625 61.812255859375
-5.181396484375 0.9776611328125 58.755615234375
8.266357421875 8.0848388671875 30.26171875
-4.131103515625 0.8677978515625 54.8369140625
-26.497314453125 1.614013671875 80.75830078125
-29.78076171875 1.258544921875 77.3759765625
-29.146728515625 0.0113525390625 69.370849609375
-1.205078125 1.878173828125 52.67138671875
18.221435546875 12.87060546875 18.99853515625
-20.96728515625 4.90673828125 68.9658203125
-0.111083984375 5.5540771484375 11.617919921875
-21.216796875 1.7950439453125 42.939208984375
-12.25341796875 -0.3236083984375 64.12060546875
15.59619140625 7.798583984375 18.07275390625
-28.28076171875 -1.0245361328125 58.947998046875
-11.218017578125 -1.0723876953125 57.58154296875
-24.233642578125 1.791259765625 79.15283203125
-27.669921875 4.457275390625 5.227783203125
-9.097412109375 -0.7196044921875 -44.867431640625
-13.5029296875 -1.0509033203125 50.921142578125
5.379638671875 6.0343017578125 19.711669921875
-29.909423828125 2.421142578125 -14.416015625
17.61279296875 10.8792724609375 17.38232421875
-24.270751953125 2.6619873046875 -8.5380859375
-19.554931640625 0.0509033203125 -42.6826171875
-22.3125 -0.0594482421875 -30.642822265625
-17.396728515625 1.6173095703125 37.735595703125
-18.611083984375 -0.9866943359375 -44.486328125
-20.974609375 4.059814453125 -48.386474609375
-13.130126953125 2.701416015625 -8.490478515625
-12.91015625 5.743896484375 9.08935546875
-16.9013671875 2.93701171875 36.271484375
-36.4443359375 1.7828369140625 67.270263671875
19.492919921875 6.61767578125 22.40283203125
-0.1796875 4.036865234375 -30.380859375
-10.90478515625 1.197509765625 46.549072265625
-14.3759765625 -0.353271484375 69.5966796875
-1.173828125 -1.1549072265625 -34.325439453125
-28.204833984375 3.648681640625 -0.419189453125
5.748046875 2.245849609375 -9.521484375
-20.110595703125 3.3211669921875 -5.332763671875
-19.302734375 -0.0634765625 -28.4736328125
24.246826171875 -0.8233642578125 -30.315185546875
-11.499755859375 2.0211181640625 -11.655517578125
17.484375 0.087158203125 -20.973388671875
22.356201171875 5.75634765625 20.55029296875
-12.56787109375 -1.01904296875 -39.650146484375
24.453125 1.339599609375 -12.081298828125
-22.907958984375 0.2650146484375 -24.348876953125
-14.909912109375 0.7857666015625 -19.341552734375
3.460205078125 6.19189453125 23.356201171875
3.19677734375 -1.3084716796875 -39.34423828125
-2.6884765625 3.7899169921875 -32.044677734375
-3.631103515625 3.2481689453125 -4.823974609375
-0.17333984375 5.0982666015625 8.01171875
19.747802734375 4.3858642578125 6.96826171875
-23.275390625 1.508056640625 -18.34619140625
3.1064453125 0.49951171875 -22.484130859375
4.030517578125 4.153076171875 7.8310546875
-3.315185546875 2.9764404296875 -30.0888671875
-7.404052734375 -0.912841796875 -34.4775390625
-2.4560546875 1.5906982421875 -13.1591796875
18.15283203125 -2.27490234375 -36.7041015625
17.375 7.72021484375 37.545654296875
-22.62060546875 6.5784912109375 66.396728515625
-6.906982421875 4.0885009765625 -1.299560546875
-28.720947265625 3.0399169921875 -4.8759765625
-20.96728515625 2.595703125 -8.92333984375
-20.452880859375 -1.1435546875 55.340576171875
-5.101806640625 1.337158203125 -18.999267578125
-3.103515625 -0.1214599609375 -26.588623046875
-16.765380859375 0.2742919921875 -25.994384765625
1.347412109375 1.14404296875 -23.11328125
-0.527587890625 2.1295166015625 50.649169921875
-16.45458984375 1.5863037109375 -13.67041015625
-8.326171875 1.43359375 -16.9423828125
1.802490234375 6.070556640625 21.755126953125
-7.468505859375 2.475830078125 -11.75634765625
3.78466796875 -0.74267578125 -31.842529296875
10.652099609375 -1.3363037109375 -37.52880859375
-9.86474609375 6.38525390625 15.965087890625
-12.194091796875 2.7666015625 -5.570068359375
7.062744140625 -0.2587890625 -29.832763671875
-18.362060546875 9.6824951171875 -4.890380859375
-23.650146484375 4.59521484375 3.53271484375
-5.069580078125 2.287841796875 -14.2119140625
14.48193359375 0.1416015625 -26.069091796875
-20.8310546875 0.07177734375 44.048828125
17.473388671875 1.4027099609375 -15.48486328125
-21.764404296875 4.404541015625 7.74462890625
21.73583984375 -0.4173583984375 -31.31494140625
20.569091796875 0.2105712890625 -26.450927734375
9.2978515625 6.235595703125 41.489013671875
0.061279296875 4.8699951171875 13.424072265625
21.938232421875 2.3172607421875 -11.1171875
-22.63427734375 4.479736328125 65.909423828125
20.73095703125 1.7388916015625 -13.46728515625
-2.949462890625 3.141845703125 1.86474609375
-13.896484375 0.375732421875 47.91064453125
-14.101318359375 -0.2745361328125 67.252197265625
3.107666015625 5.953857421875 35.160400390625
-1.769775390625 3.7764892578125 3.366943359375
-24.979736328125 4.4442138671875 1.061279296875
1.907958984375 6.23876953125 25.38818359375
17.545166015625 2.8909912109375 -6.301025390625
-8.4013671875 10.134033203125 17.18212890625
15.1494140625 2.4493408203125 -7.026123046875
-9.9326171875 3.7933349609375 32.836181640625
-2.471435546875 5.7108154296875 14.465087890625
0.886474609375 5.1588134765625 15.0
4.4775390625 4.8951416015625 12.18359375
7.67919921875 4.3448486328125 8.6123046875
4.060546875 5.5181884765625 14.50439453125
2.469970703125 6.048828125 17.66748046875
-4.727783203125 5.8377685546875 19.77685546875
-14.14501953125 1.8355712890625 39.276611328125
1.53076171875 6.802001953125 28.525146484375
17.015625 6.154541015625 18.028564453125
7.638916015625 3.433837890625 3.47265625
-7.25146484375 4.513916015625 32.27392578125
-9.438720703125 1.6500244140625 45.263671875
10.89697265625 5.9251708984375 14.8154296875
14.85986328125 7.77001953125 33.929443359375
-19.231201171875 1.8472900390625 -46.744140625
-5.3955078125 6.0384521484375 13.97998046875
7.782470703125 6.8272705078125 34.558837890625
-36.206298828125 0.9105224609375 75.1953125
19.584228515625 7.291015625 28.749755859375
-18.4638671875 -1.129638671875 55.31689453125
16.110107421875 3.99560546875 5.000244140625
21.981201171875 6.402099609375 24.47119140625
6.832763671875 5.859130859375 37.97021484375
-9.948974609375 -0.08203125 54.267822265625
0.291015625 3.3262939453125 45.677490234375
2.615478515625 2.3443603515625 -5.3916015625
-17.00732421875 -0.904296875 53.296630859375
-21.1357421875 -1.142333984375 57.705810546875
11.43310546875 -0.526123046875 -35.222412109375
-19.4287109375 -1.623046875 58.154541015625
-8.454833984375 -1.3983154296875 -42.04833984375
2.0673828125 2.9212646484375 48.906982421875
-6.093505859375 -1.0703125 -43.84423828125
-19.323486328125 1.8321533203125 40.515869140625
1.4775390625 2.6435546875 53.305419921875
-29.96240234375 5.79833984375 6.1474609375
-19.703369140625 -1.7529296875 51.889404296875
-15.79638671875 1.4866943359375 36.947509765625
-27.46142578125 -0.7396240234375 60.464599609375
19.216064453125 8.2442626953125 34.214111328125
-18.2275390625 -0.1796875 -32.698486328125
4.509033203125 6.5584716796875 31.80322265625
-29.691162109375 0.6497802734375 -25.380859375
-29.074951171875 1.615966796875 -17.573486328125
7.17919921875 7.537109375 31.59326171875
-19.220458984375 1.1846923828125 -21.612548828125
-15.171142578125 0.413818359375 72.60498046875
11.98095703125 -1.0299072265625 -32.931396484375
-27.562744140625 3.0458984375 -6.5537109375
-17.07177734375 -0.4954833984375 -36.012939453125
16.01123046875 3.31103515625 -1.437744140625
-28.305419921875 1.984375 78.036376953125
-16.782958984375 0.8519287109375 -24.041259765625
20.147216796875 -1.8621826171875 -36.38671875
-11.19287109375 4.1788330078125 4.49267578125
-4.012939453125 2.61572265625 -6.74658203125
14.703857421875 -1.570556640625 -39.957275390625
-15.108154296875 -1.359619140625 -42.15478515625
16.08837890625 -0.394775390625 -29.269287109375
-8.210693359375 5.9580078125 24.66748046875
-12.397216796875 0.6885986328125 -18.870361328125
13.69091796875 -0.7525634765625 -29.18505859375
23.104248046875 -0.566162109375 -26.1904296875
-21.334716796875 5.7939453125 -3.88720703125
-17.77685546875 6.003173828125 11.513427734375
-11.022216796875 5.7215576171875 14.881591796875
-21.086669921875 6.1007080078125 11.49072265625
-4.433837890625 -0.135986328125 -29.1455078125
11.24072265625 1.15478515625 -20.919189453125
3.725830078125 2.319580078125 -8.717041015625
0.15771484375 1.166748046875 -21.8623046875
-0.771484375 2.8070068359375 -6.781982421875
-22.57177734375 -1.0609130859375 61.238037109375
0.851806640625 6.2958984375 18.844482421875
-25.131591796875 4.5577392578125 6.87255859375
-0.27587890625 4.7784423828125 36.616455078125
23.10107421875 0.8363037109375 -19.885986328125
13.087890625 1.5211181640625 -12.203125
-3.026123046875 5.6531982421875 10.3564453125
15.87646484375 1.822509765625 -12.686767578125
-5.01904296875 5.4705810546875 10.812255859375
-10.9296875 4.4093017578125 1.94091796875
-15.576416015625 -1.1962890625 -33.2041015625
-0.6943359375 3.8221435546875 42.8076171875
4.42578125 3.67138671875 5.47314453125
-13.76904296875 2.9827880859375 34.228759765625
-15.73681640625 3.3785400390625 0.5224609375
-21.06787109375 9.1090087890625 -2.638427734375
-15.859375 0.0010986328125 47.20068359375
16.4912109375 10.7794189453125 20.2822265625
3.4287109375 0.122802734375 -26.5966796875
8.865478515625 6.255126953125 15.97216796875
-15.72021484375 -0.73486328125 -44.095947265625
-25.274169921875 -1.127685546875 -35.91357421875
-15.501220703125 0.3702392578125 65.231689453125
-16.404296875 3.745849609375 -3.75244140625
-23.096435546875 2.20654296875 -11.777099609375
16.665771484375 9.9119873046875 22.517333984375
18.609130859375 3.58544921875 5.9287109375
-4.4296875 1.81005859375 -10.296875
1.33544921875 -0.9320068359375 -32.236572265625
-36.796142578125 1.2623291015625 73.21240234375
22.213134765625 4.7684326171875 10.57275390625
9.076416015625 -1.39990234375 -35.82470703125
6.700439453125 6.3218994140625 24.1328125
18.777099609375 7.8504638671875 31.06591796875
5.903076171875 5.8929443359375 22.59814453125
-2.04931640625 3.08935546875 46.137451171875
-20.67431640625 -0.125732421875 -40.48095703125
2.057861328125 -1.251708984375 -36.386962890625
5.23681640625 1.8094482421875 -14.427978515625
-7.470703125 -1.496826171875 -38.569091796875
20.018798828125 5.9959716796875 24.158935546875
-29.904296875 0.4512939453125 56.763427734375
23.9072265625 1.470458984375 -17.130615234375
11.27587890625 7.2158203125 32.4443359375
-10.265869140625 4.800048828125 66.86962890625
-5.026611328125 4.2447509765625 36.34716796875
-8.065673828125 2.5484619140625 43.4970703125
-29.883544921875 2.1131591796875 78.822021484375
17.461181640625 2.288330078125 -11.970703125
1.754638671875 -0.236328125 -29.048583984375
-20.976806640625 4.09375 5.743896484375
-11.896240234375 -0.9412841796875 -33.240966796875
-13.115234375 -0.77490234375 -32.026123046875
-9.845703125 -1.1304931640625 -34.438232421875
-28.521728515625 -0.046630859375 65.857666015625
13.083251953125 -1.78271484375 -40.3369140625
8.221923828125 2.691162109375 -6.7080078125
-18.711181640625 1.6820068359375 -17.513916015625
-11.041259765625 2.4422607421875 39.140625
11.235107421875 -0.7991943359375 -29.62060546875
-6.719482421875 3.1690673828125 39.77490234375
-15.439453125 0.8553466796875 42.268310546875
-26.151123046875 1.259033203125 -18.720947265625
-0.2998046875 1.075439453125 -23.531005859375
-20.49755859375 2.8011474609375 -6.875
-13.2080078125 1.576904296875 -14.909912109375
-17.68310546875 2.9898681640625 -7.751708984375
-15.127197265625 -0.980712890625 50.5302734375
1.599365234375 2.1031494140625 -12.017578125
2.1806640625 2.88427734375 -3.8701171875
-37.053955078125 1.615966796875 70.044677734375
-3.048583984375 0.6883544921875 -21.749755859375
-6.091552734375 2.3154296875 -8.76806640625
-13.95263671875 0.545166015625 -46.22802734375
18.441650390625 2.5001220703125 -4.947265625
0.708984375 4.2191162109375 6.159423828125
8.875244140625 -0.234375 -24.32275390625
16.493408203125 -0.018798828125 -27.689208984375
-8.791259765625 0.7413330078125 47.404541015625
-18.572265625 4.9959716796875 8.02001953125
-19.76025390625 4.473388671875 6.8994140625
19.739990234375 -0.2843017578125 -29.263671875
1.8837890625 4.967041015625 8.045166015625
-1.251708984375 2.794677734375 55.280029296875
-13.329345703125 0.3895263671875 -22.599365234375
-24.906005859375 3.69677734375 -0.42138671875
-30.753662109375 0.166259765625 69.76220703125
18.35693359375 2.439697265625 -8.25537109375
23.48828125 -0.0498046875 -24.659423828125
-35.0751953125 0.5706787109375 65.46484375
3.046630859375 3.119140625 -1.4326171875
-7.80419921875 5.054931640625 10.909912109375
22.720703125 0.2061767578125 -21.8017578125
4.257080078125 3.9254150390625 1.685546875
-13.144775390625 0.9305419921875 -25.73095703125
3.355712890625 4.293701171875 46.275146484375
15.0224609375 6.0018310546875 18.066162109375
-10.195068359375 0.6343994140625 -25.61328125
-4.5732421875 1.87890625 47.960205078125
1.4482421875 3.10986328125 -0.604736328125
-17.0 0.1976318359375 66.446533203125
-29.693603515625 4.100341796875 -3.477294921875
-17.681884765625 2.41064453125 -47.34521484375
-27.013671875 1.80126953125 79.19873046875
-11.97509765625 1.1395263671875 67.4111328125
-3.442626953125 6.751708984375 25.298828125
5.687255859375 4.3902587890625 9.835205078125
15.26806640625 3.535400390625 1.812255859375
-24.01025390625 1.594970703125 74.913818359375
16.610595703125 5.4730224609375 14.9140625
-21.289306640625 1.2235107421875 72.202392578125
21.238525390625 2.231689453125 -7.35302734375
14.09814453125 5.2620849609375 10.864501953125
-22.809326171875 1.077392578125 73.021728515625
8.95654296875 5.998046875 17.66845703125
1.40771484375 0.3985595703125 -24.5830078125
-12.7294921875 -0.91259765625 59.922119140625
12.261474609375 6.0140380859375 20.109619140625
-20.201904296875 0.8809814453125 76.879150390625
-25.860595703125 1.2271728515625 76.153564453125
6.311767578125 5.4986572265625 21.05224609375
3.49755859375 7.3231201171875 29.221923828125
23.78173828125 0.0 -28.88525390625
9.827392578125 7.8125 27.468505859375
9.456787109375 6.9608154296875 24.8017578125
23.78857421875 5.1171875 10.900146484375
-13.58740234375 -1.5347900390625 -36.49462890625
-13.819091796875 1.86376953125 37.665283203125
-9.73095703125 0.283935546875 -46.0771484375
-7.036376953125 6.0869140625 13.969970703125
18.38818359375 6.7210693359375 26.443603515625
-14.851806640625 -1.2962646484375 55.304931640625
23.947265625 6.6954345703125 24.40234375
23.974853515625 5.79296875 21.350830078125
14.456298828125 -1.556884765625 -34.43310546875
