-15.0302734375 4.8211669921875 -31.090576171875
2.66796875 5.1219482421875 -26.32763671875
12.9951171875 12.3262939453125 17.8056640625
51.14892578125 9.070556640625 2.42529296875
19.07470703125 3.283447265625 -33.254638671875
-6.530029296875 9.4844970703125 67.712646484375
20.742431640625 7.5316162109375 -9.60302734375
17.049072265625 9.509033203125 2.31884765625
-2.695556640625 3.5057373046875 -37.297119140625
35.014404296875 11.610595703125 15.925048828125
-10.668701171875 9.2518310546875 74.992431640625
-19.4873046875 14.3648681640625 -23.99853515625
5.486083984375 -5.7576904296875 61.3349609375
42.627197265625 9.82958984375 5.2509765625
7.980712890625 9.261962890625 42.627685546875
8.57080078125 10.2598876953125 4.844482421875
12.485595703125 7.885009765625 -35.069580078125
52.930908203125 5.6865234375 -17.77734375
47.350830078125 9.673583984375 -11.35107421875
-8.06298828125 11.53515625 -7.803466796875
-9.8955078125 3.5062255859375 -37.23095703125
-20.369384765625 6.1572265625 -34.39306640625
-0.458251953125 7.786865234375 63.46484375
52.610107421875 8.1058349609375 -3.68896484375
-12.5419921875 7.202392578125 61.306884765625
-4.03759765625 10.4908447265625 4.785400390625
27.290771484375 5.5029296875 -21.7275390625
28.98681640625 10.052490234375 5.744384765625
8.319091796875 7.06201171875 -13.619873046875
28.648681640625 4.0155029296875 -27.675048828125
14.084228515625 10.4508056640625 39.28466796875
24.65087890625 12.86865234375 21.894287109375
46.137939453125 13.1351318359375 14.013427734375
30.17578125 15.8970947265625 14.84228515625
25.263916015625 15.81396484375 38.208984375
-19.1982421875 9.8135986328125 -40.308349609375
38.25830078125 8.67919921875 -2.49951171875
15.647216796875 13.423095703125 29.449462890625
-3.34423828125 5.0146484375 -27.016845703125
-19.41162109375 10.358642578125 -9.04296875
26.688232421875 7.3641357421875 -9.539794921875
8.89794921875 5.45947265625 -23.1650390625
-0.577392578125 6.677978515625 -15.77880859375
-11.144287109375 15.0380859375 77.8173828125
-10.6689453125 6.0452880859375 55.437744140625
17.36181640625 6.702880859375 -15.265869140625
8.944580078125 11.3642578125 10.7294921875
32.361328125 14.03125 28.76513671875
-17.88134765625 7.768310546875 63.480712890625
-11.488037109375 5.258544921875 -26.573486328125
-11.158935546875 3.345947265625 -42.828125
52.55078125 2.9959716796875 -27.762939453125
34.818359375 10.4637451171875 8.31787109375
9.06103515625 7.939453125 -7.677734375
15.94091796875 5.0150146484375 -25.87109375
-19.285888671875 18.261962890625 -34.642333984375
19.930908203125 5.7587890625 -20.4619140625
9.349853515625 3.55810546875 -36.40380859375
30.476318359375 6.791748046875 -14.465087890625
-17.85498046875 7.062744140625 -20.61865234375
-15.6728515625 20.546142578125 -24.18603515625
-8.514404296875 7.0673828125 -15.63623046875
25.3935546875 14.0390625 32.9931640625
36.814453125 12.858154296875 22.147705078125
-1.944580078125 8.6400146484375 -5.634521484375
-15.87158203125 9.3160400390625 74.523681640625
-1.94384765625 6.2398681640625 55.997802734375
16.745849609375 9.005859375 -2.96533203125
38.981201171875 16.5137939453125 46.036865234375
8.830078125 12.7652587890625 20.6728515625
24.514892578125 3.8636474609375 -31.235595703125
-18.466796875 18.4227294921875 -3.417724609375
-19.218505859375 11.7271728515625 -4.24169921875
0.9287109375 2.4296875 -42.70751953125
31.863037109375 3.5478515625 -31.420166015625
-21.263427734375 6.7589111328125 59.556640625
37.593994140625 5.3885498046875 -20.29541015625
7.46044921875 11.442138671875 29.337158203125
19.994873046875 11.213623046875 10.2607421875
5.826416015625 9.4036865234375 0.05712890625
-10.036376953125 8.1090087890625 -10.6455078125
4.327392578125 14.3416748046875 19.713623046875
0.447509765625 5.6614990234375 -21.617919921875
50.068115234375 6.55615234375 -13.987548828125
-19.931884765625 17.212158203125 -29.445556640625
21.42578125 13.74755859375 27.0517578125
-19.453125 15.135498046875 -14.531982421875
-16.56640625 11.540771484375 3.97021484375
-15.450439453125 4.389404296875 51.450927734375
-6.6943359375 8.674072265625 77.5537109375
-20.138916015625 10.7689208984375 -35.43505859375
22.369384765625 2.9627685546875 -36.629150390625
14.0498046875 3.6357421875 -33.779052734375
3.092529296875 11.8878173828125 10.97216796875
3.7060546875 6.682861328125 52.7861328125
-21.235595703125 8.53369140625 68.267578125
45.4150390625 5.2747802734375 -21.199462890625
26.40234375 9.344970703125 0.6591796875
-18.81884765625 8.57568359375 -14.113037109375
-7.982666015625 5.501953125 48.38623046875
-1.814697265625 4.47900390625 -31.36376953125
28.287353515625 14.0152587890625 18.625244140625
3.086669921875 8.392333984375 43.846923828125
39.9375 6.5047607421875 -14.02392578125
11.472412109375 6.20751953125 -17.047119140625
31.068359375 9.278076171875 1.417236328125
51.417236328125 1.4986572265625 -20.95947265625
47.35888671875 7.713134765625 -7.234619140625
-10.6806640625 10.484375 65.947265625
42.42236328125 11.445556640625 16.015380859375
-3.025146484375 6.5457763671875 47.491455078125
17.481201171875 12.2742919921875 18.619384765625
7.142578125 4.9322509765625 -27.21826171875
-2.329833984375 7.90087890625 40.424560546875
10.5380859375 9.474853515625 47.09228515625
13.78662109375 8.0723876953125 -6.134521484375
-18.97607421875 19.4617919921875 -12.872314453125
-11.4599609375 9.8939208984375 -1.03466796875
-14.78857421875 7.1156005859375 -16.205322265625
-7.45166015625 5.4664306640625 -24.8447265625
4.664794921875 8.804443359375 -4.1669921875
0.43896484375 7.6939697265625 -11.649169921875
23.894775390625 8.0513916015625 -6.286865234375
41.01953125 3.4249267578125 -31.549560546875
24.5283203125 12.5225830078125 17.0654296875
-17.076171875 9.9146728515625 0.02099609375
35.432373046875 4.37451171875 -27.28369140625
6.417724609375 9.8450927734375 37.34130859375
4.517578125 3.4229736328125 -37.258056640625
6.265380859375 8.105712890625 48.668701171875
45.123779296875 10.4619140625 10.50341796875
16.818115234375 11.47705078125 13.2607421875
16.27587890625 12.08154296875 35.620849609375
47.07666015625 9.302734375 3.283935546875
34.06298828125 8.74169921875 -1.43115234375
9.226806640625 6.4039306640625 -32.94580078125
32.451171875 11.00244140625 12.3310546875
37.410888671875 6.948974609375 -10.77001953125
-11.439208984375 4.53662109375 -33.107177734375
-7.37158203125 10.676025390625 63.498046875
12.473876953125 11.6746826171875 12.8310546875
32.640380859375 6.0526123046875 -18.478271484375
-2.5068359375 8.79248046875 67.6083984375
17.424072265625 4.36474609375 -29.612548828125
-6.295654296875 7.6539306640625 39.575439453125
-9.26318359375 6.3272705078125 43.9443359375
10.05322265625 10.30419921875 39.29296875
-19.99560546875 7.68115234375 -30.67724609375
0.728515625 10.5418701171875 28.1337890625
-18.12255859375 17.29150390625 -21.60595703125
-0.652099609375 6.1337890625 52.19482421875
13.636962890625 10.076904296875 4.336669921875
42.38427734375 4.173828125 -27.73974609375
6.037109375 10.422119140625 33.398193359375
-15.32861328125 5.8253173828125 -25.644287109375
-5.472412109375 2.7242431640625 -40.046630859375
-19.530517578125 5.106689453125 -39.134033203125
22.007080078125 12.5928955078125 37.629638671875
4.488525390625 7.21337890625 -12.61865234375
-2.1298828125 6.760498046875 60.0263671875
48.9814453125 5.45947265625 -17.761474609375
34.521728515625 13.4052734375 25.51611328125
-15.64794921875 8.784423828125 -7.82275390625
11.085205078125 11.851806640625 30.840576171875
-4.177734375 11.6241455078125 9.853271484375
54.238037109375 4.1663818359375 -21.55517578125
38.145263671875 10.226806640625 6.2548828125
41.164794921875 8.9129638671875 0.1201171875
-19.614501953125 11.4273681640625 -26.577880859375
-0.37841796875 10.29931640625 3.437255859375
-3.544677734375 9.6903076171875 0.8544921875
18.676513671875 10.5054931640625 6.65966796875
-2.3583984375 9.163818359375 32.687744140625
41.302001953125 5.57080078125 -19.14013671875
9.372314453125 2.2874755859375 -40.096923828125
23.4443359375 11.3839111328125 12.020263671875
-18.55615234375 8.9244384765625 71.392578125
-11.614013671875 10.076171875 78.6279296875
31.586181640625 12.2584228515625 17.806396484375
-19.52197265625 15.55322265625 -18.332763671875
13.88232421875 12.6932373046875 21.700927734375
48.169189453125 4.158203125 -27.60205078125
-10.367919921875 10.7332763671875 -4.59326171875
-1.395751953125 7.2601318359375 44.060546875
5.99462890625 10.9727783203125 8.386962890625
28.2568359375 13.186279296875 24.04638671875
-7.76953125 10.526611328125 4.239013671875
17.636962890625 11.2847900390625 40.1943359375
-10.128662109375 5.349609375 51.7841796875
-3.9345703125 6.5213623046875 -17.450927734375
-5.474365234375 8.2786865234375 -8.1357421875
-8.50830078125 8.9652099609375 71.940185546875
-7.038818359375 3.807373046875 -34.8388671875
43.42041015625 8.141845703125 -4.88818359375
6.32568359375 4.6243896484375 -31.40576171875
0.769287109375 3.025634765625 -38.5888671875
21.170166015625 13.3585205078125 23.355712890625
-5.725830078125 7.4931640625 64.530029296875
17.996337890625 8.2137451171875 -6.370361328125
-1.173828125 8.730712890625 36.638427734375
-11.7998046875 7.577880859375 -14.02001953125
47.0556640625 8.6427001953125 -15.016845703125
6.8857421875 12.3424072265625 23.80615234375
38.489013671875 8.0264892578125 -7.063720703125
3.2666015625 10.0836181640625 2.623291015625
-19.640380859375 10.9404296875 -22.638916015625
50.94921875 7.6480712890625 -7.971435546875
20.804443359375 6.8011474609375 -14.02294921875
38.577880859375 11.7469482421875 16.701904296875
22.514404296875 14.2794189453125 30.771728515625
9.632568359375 12.12060546875 15.067626953125
20.68212890625 9.7425537109375 2.38818359375
8.51904296875 8.7611083984375 -3.642578125
24.117919921875 5.085693359375 -23.523193359375
49.05615234375 8.127685546875 -4.033935546875
17.739990234375 7.1988525390625 -11.5
30.90869140625 10.6844482421875 9.130615234375
-8.91162109375 6.623046875 58.533447265625
33.48828125 8.0740966796875 -5.021728515625
-12.18017578125 8.8531494140625 71.325927734375
-12.0986328125 8.60205078125 -7.680419921875
26.792236328125 10.6368408203125 8.640380859375
-14.096435546875 8.00732421875 64.3984375
21.709716796875 6.248779296875 -17.42626953125
-17.643310546875 5.3782958984375 -28.755859375
4.209716796875 5.4820556640625 -22.095458984375
-16.34765625 6.9656982421875 60.3984375
14.095458984375 13.05712890625 25.906982421875
-8.332763671875 6.5584716796875 -19.1259765625
-5.69775390625 12.0081787109375 -5.2333984375
-10.86669921875 11.7322998046875 7.323974609375
-0.63037109375 11.3936767578125 9.614501953125
17.9501953125 13.5838623046875 26.79541015625
19.142578125 13.64404296875 30.161865234375
42.924072265625 7.858642578125 -11.951904296875
33.777099609375 6.722412109375 -12.99951171875
-18.836669921875 15.2965087890625 -6.239501953125
-11.470458984375 6.6641845703125 -17.3701171875
29.2236328125 7.9127197265625 -6.40234375
29.84375 4.60400390625 -24.306640625
-19.138916015625 10.0579833984375 76.07763671875
14.08935546875 9.176025390625 0.419189453125
-1.84619140625 8.0533447265625 -9.005126953125
0.915771484375 4.6392822265625 -29.318115234375
-14.08154296875 6.2086181640625 55.5615234375
8.07958984375 6.1529541015625 -17.234619140625
1.320068359375 7.101318359375 60.659423828125
36.593505859375 10.9527587890625 11.34716796875
-18.66015625 12.046875 -11.864990234375
-6.235107421875 6.2183837890625 55.6416015625
-17.811279296875 20.619873046875 -5.886474609375
-17.794677734375 3.989990234375 -34.265625
30.64990234375 7.1885986328125 -9.97265625
37.175537109375 4.8543701171875 -23.591552734375
-19.0126953125 8.3214111328125 -17.48291015625
1.9638671875 9.73193359375 35.171630859375
27.69482421875 13.8372802734375 13.909912109375
18.002197265625 2.73583984375 -37.79443359375
5.97607421875 11.66943359375 12.60986328125
9.31103515625 9.6500244140625 1.68017578125
13.189697265625 10.400146484375 42.615234375
-14.724853515625 21.905517578125 -27.0263671875
34.010009765625 12.683837890625 20.008056640625
39.03662109375 3.7313232421875 -28.95849609375
-24.116943359375 10.0682373046875 68.47216796875
24.69091796875 7.2763671875 -12.125244140625
4.25537109375 10.8873291015625 29.18310546875
3.417724609375 6.7291259765625 -15.9609375
-17.06005859375 8.0596923828125 66.602783203125
-20.5244140625 14.89794921875 -35.293212890625
-16.56005859375 17.4547119140625 -27.338134765625
-13.19140625 2.8206787109375 -39.666259765625
29.87060546875 14.306640625 30.80224609375
-20.018310546875 8.041015625 -37.76318359375
10.70703125 10.5477294921875 8.178955078125
16.371826171875 12.546875 32.438232421875
17.344482421875 5.1920166015625 -23.005859375
47.75341796875 10.060302734375 6.798583984375
12.024169921875 6.8055419921875 -13.96435546875
28.814453125 5.7655029296875 -18.939208984375
-1.19287109375 5.2630615234375 -24.6923828125
25.552978515625 4.3033447265625 -28.24853515625
-14.1474609375 11.00390625 5.928466796875
12.048583984375 5.2838134765625 -23.267578125
38.7880859375 5.97900390625 -16.915771484375
36.192138671875 12.84423828125 48.7265625
46.268310546875 4.5491943359375 -25.119384765625
-14.919921875 6.754150390625 -43.982666015625
-10.456787109375 4.939697265625 -29.66162109375
6.91455078125 12.6795654296875 18.1796875
-8.4443359375 2.94482421875 -41.04443359375
21.291259765625 12.1253662109375 18.322998046875
25.755615234375 8.66259765625 -2.327880859375
12.448486328125 11.0936279296875 36.37841796875
50.887939453125 5.0726318359375 -20.213134765625
44.857666015625 8.4444580078125 -8.955810546875
14.202880859375 -4.46484375 59.698486328125
-8.4775390625 9.8135986328125 0.924560546875
6.81298828125 4.3232421875 -34.76708984375
27.83642578125 15.0408935546875 34.89892578125
-20.86376953125 7.766357421875 65.27783203125
-3.399658203125 9.1907958984375 71.01025390625
-19.349365234375 14.9832763671875 -27.031982421875
27.727294921875 6.895751953125 -13.041259765625
29.456787109375 13.8077392578125 27.718505859375
31.026611328125 12.738037109375 14.810791015625
24.63330078125 9.740966796875 3.97021484375
17.806884765625 12.0992431640625 43.16015625
-3.511962890625 4.0592041015625 -33.877685546875
-9.353271484375 6.1390380859375 -21.98046875
-1.43212890625 10.5970458984375 6.38330078125
-22.8125 8.74169921875 71.112548828125
7.911865234375 8.8160400390625 45.71484375
43.61328125 9.2806396484375 1.870361328125
-0.01025390625 3.6024169921875 -35.729248046875
-10.03857421875 9.4010009765625 62.921875
-13.31396484375 3.958984375 -35.390380859375
-19.59423828125 15.7860107421875 -32.072021484375
5.796630859375 7.4678955078125 54.794921875
-14.196044921875 10.2816162109375 0.779296875
40.05859375 12.13916015625 21.942138671875
11.70703125 4.845703125 -26.587890625
-6.160400390625 9.5360107421875 74.752197265625
-8.9501953125 11.35595703125 78.784912109375
-7.72216796875 5.1187744140625 -28.20263671875
32.529541015625 10.1834716796875 6.486083984375
-18.451171875 11.9969482421875 1.763671875
-4.730712890625 4.2410888671875 -31.109375
41.415771484375 10.204833984375 8.799560546875
-8.81982421875 2.5072021484375 -44.36181640625
-17.43603515625 20.132080078125 -21.8994140625
-3.302734375 9.2125244140625 -3.12255859375
21.810302734375 3.317626953125 -32.1298828125
-5.2646484375 5.767333984375 49.33837890625
34.120849609375 2.9595947265625 -33.490966796875
-11.360107421875 5.915283203125 -44.1103515625
-18.0908203125 8.7457275390625 -11.022216796875
17.077392578125 6.3294677734375 -18.100830078125
-21.041259765625 -2.4862060546875 49.750244140625
0.891357421875 8.8690185546875 -5.240234375
-7.498046875 7.484619140625 -12.796142578125
9.607177734375 -4.5826416015625 59.470458984375
5.714111328125 7.7999267578125 -9.939697265625
-20.35546875 11.6279296875 -38.4384765625
32.62890625 3.7576904296875 -28.68408203125
-0.067626953125 6.4493408203125 -18.5693359375
6.3759765625 9.9873046875 3.0654296875
14.594482421875 4.2886962890625 -29.56884765625
25.224609375 13.5052490234375 35.7626953125
3.84130859375 13.691650390625 13.266357421875
-5.85693359375 6.2000732421875 46.6171875
12.90380859375 3.116455078125 -36.637451171875
-18.89501953125 18.380859375 -15.472412109375
-16.6435546875 6.405517578125 -23.074462890625
53.806640625 5.9832763671875 -15.121826171875
27.734375 13.161865234375 21.28857421875
5.568115234375 5.385986328125 -24.94580078125
-18.78857421875 13.6495361328125 -8.50341796875
52.97509765625 4.966796875 -12.594970703125
43.669677734375 4.9005126953125 -23.34033203125
-15.30419921875 0.6473388671875 43.2607421875
22.982177734375 9.339599609375 0.87109375
-13.03515625 6.675537109375 58.09521484375
2.005615234375 5.8763427734375 54.827880859375
12.23681640625 2.421142578125 -39.69140625
22.95263671875 5.9443359375 -21.159423828125
27.251708984375 3.7908935546875 -31.66455078125
9.6650390625 5.6611328125 -20.51806640625
38.869873046875 9.4105224609375 1.573486328125
-4.76318359375 5.58544921875 -23.8408203125
-13.0615234375 9.7694091796875 76.252685546875
-5.140869140625 11.1212158203125 65.990234375
5.612060546875 9.2818603515625 39.890869140625
35.750244140625 13.995361328125 28.2080078125
19.310302734375 8.9681396484375 -1.704833984375
-9.277099609375 7.427490234375 61.113525390625
-19.612548828125 11.1494140625 -14.462646484375
11.62744140625 8.598876953125 -3.677734375
-2.23193359375 2.6845703125 -39.8369140625
-1.5625 1.97900390625 -43.662841796875
4.651123046875 8.23876953125 46.51171875
12.6826171875 12.5513916015625 28.78564453125
5.59814453125 10.5343017578125 5.759033203125
23.90087890625 3.2271728515625 -33.825927734375
17.130126953125 7.9315185546875 -8.90478515625
41.25537109375 8.21533203125 -3.288330078125
-3.938720703125 8.0333251953125 38.27490234375
37.965087890625 4.177001953125 -26.40625
-8.57958984375 8.9068603515625 -7.7490234375
4.323486328125 12.8026123046875 21.900146484375
40.345703125 9.609375 3.876953125
49.923583984375 8.522705078125 0.1162109375
-19.638427734375 9.1632080078125 -27.993408203125
34.04248046875 12.8763427734375 22.945556640625
-18.614501953125 14.478515625 -2.39892578125
3.123291015625 14.3167724609375 17.34326171875
27.225341796875 14.3441162109375 31.021240234375
-18.771728515625 9.90283203125 -6.116455078125
15.175537109375 10.352783203125 6.480224609375
39.1708984375 12.3665771484375 19.2109375
-20.646484375 17.0072021484375 -36.88818359375
-16.83203125 17.82275390625 -24.73291015625
37.1533203125 6.5689697265625 -13.651123046875
49.624755859375 9.69580078125 4.472900390625
-20.4658203125 8.8553466796875 -33.67041015625
36.57373046875 11.788818359375 25.7529296875
10.342529296875 13.037353515625 22.785888671875
-13.41455078125 5.174072265625 -29.07568359375
-5.260986328125 3.577392578125 -36.862548828125
10.360107421875 6.650634765625 -35.902099609375
25.64599609375 11.6016845703125 13.375
11.260009765625 9.9588623046875 44.648193359375
19.912841796875 5.041015625 -23.2998046875
42.62353515625 10.7447509765625 11.0751953125
11.623046875 7.78076171875 -9.511962890625
-11.48046875 9.3531494140625 68.117431640625
24.292236328125 13.2476806640625 24.40673828125
44.564208984375 9.7943115234375 6.9169921875
-3.247802734375 6.0009765625 51.5751953125
3.5029296875 4.61328125 -28.681396484375
27.25390625 6.3089599609375 -16.75390625
31.269775390625 4.4813232421875 -26.658935546875
-7.66455078125 3.1475830078125 -38.398193359375
-14.376953125 6.8314208984375 -19.411865234375
-8.37841796875 6.476806640625 41.568115234375
43.2177734375 11.3702392578125 13.60888671875
19.701904296875 3.1021728515625 -35.700439453125
19.52978515625 12.168212890625 37.487060546875
0.45849609375 6.21923828125 56.7783203125
35.48291015625 3.7041015625 -29.70361328125
47.90283203125 4.9478759765625 -21.285400390625
3.377685546875 2.341796875 -40.337890625
-2.212158203125 6.2413330078125 -19.86376953125
53.4453125 7.32763671875 -8.0244140625
20.74365234375 11.4073486328125 12.8486328125
12.50390625 5.2147216796875 -32.615234375
51.021240234375 6.97900390625 -10.3759765625
46.993408203125 9.074462890625 0.800537109375
36.134521484375 7.786376953125 -7.84521484375
51.670166015625 3.7322998046875 -23.804931640625
25.902587890625 8.098876953125 -4.749267578125
24.289306640625 13.4071044921875 38.195556640625
35.203125 5.7745361328125 -19.729248046875
3.787109375 9.2740478515625 -1.35302734375
48.119384765625 6.0736083984375 -15.43798828125
1.52099609375 6.839111328125 50.4326171875
-22.09326171875 10.738037109375 64.144287109375
-13.916015625 13.1636962890625 78.82666015625
-19.38037109375 8.4345703125 -22.000732421875
45.41064453125 9.1878662109375 -12.801513671875
-8.089111328125 11.620361328125 -4.24267578125
49.35595703125 8.90673828125 -12.566162109375
34.87109375 11.3297119140625 13.04931640625
-3.419921875 2.1534423828125 -42.07568359375
-18.986572265625 19.4947509765625 -10.3076171875
32.234130859375 13.159912109375 24.685791015625
51.0859375 5.505859375 -16.183349609375
38.265869140625 12.42333984375 49.941162109375
46.011474609375 5.334228515625 -18.8359375
-19.418212890625 13.9495849609375 -20.165283203125
-20.144287109375 6.146240234375 57.480224609375
-6.103515625 6.9266357421875 -15.8994140625
54.962646484375 6.6114501953125 -18.735107421875
51.89306640625 8.277587890625 -1.2841796875
1.93994140625 5.710205078125 -24.08642578125
30.275146484375 13.50439453125 19.91796875
-19.0068359375 18.4332275390625 -6.6904296875
15.227783203125 10.962158203125 41.439453125
7.471923828125 8.2657470703125 53.2431640625
2.08837890625 6.0185546875 -19.57666015625
0.540283203125 7.8936767578125 -8.69482421875
9.1875 12.277587890625 27.640380859375
-17.644775390625 5.1563720703125 54.45263671875
-17.632568359375 8.6434326171875 68.864013671875
21.949462890625 8.207275390625 -4.811767578125
29.618408203125 3.39990234375 -32.26220703125
-0.518310546875 7.0545654296875 46.575439453125
40.00830078125 7.3582763671875 -10.1943359375
6.307373046875 2.6016845703125 -38.976318359375
21.306884765625 12.814208984375 21.025634765625
5.01318359375 11.94677734375 26.38134765625
-16.23583984375 8.8948974609375 70.835693359375
31.702392578125 14.77685546875 32.243408203125
31.715087890625 5.1209716796875 -21.818115234375
-0.50634765625 10.6376953125 30.157470703125
36.865478515625 12.218505859375 19.8642578125
18.287841796875 4.6966552734375 -25.9658203125
33.67529296875 9.13916015625 1.195068359375
-12.426025390625 5.467529296875 52.342041015625
33.71484375 9.9114990234375 4.46142578125
8.3994140625 10.7835693359375 7.737548828125
48.469482421875 8.3846435546875 -1.73583984375
1.9130859375 8.364990234375 41.5498046875
24.454833984375 10.937255859375 8.652099609375
-15.335693359375 19.6796875 -26.57275390625
-3.55078125 7.2486572265625 63.670654296875
-18.428955078125 -0.3480224609375 47.080810546875
16.6533203125 11.967041015625 37.930419921875
9.327392578125 8.561767578125 48.9765625
22.37548828125 7.0816650390625 -11.841552734375
15.553955078125 12.15185546875 15.101806640625
-9.4052734375 10.5386962890625 -2.478271484375
23.72314453125 14.0152587890625 27.337890625
38.09130859375 15.3734130859375 47.85888671875
23.669921875 6.08544921875 -18.95361328125
7.7958984375 11.3067626953125 32.166748046875
35.78271484375 8.2510986328125 -4.712890625
30.049072265625 3.048095703125 -34.51611328125
22.377685546875 12.47705078125 39.948486328125
37.819091796875 9.8326416015625 3.99658203125
50.44775390625 4.24462890625 -27.232177734375
21.083251953125 7.9241943359375 -7.35302734375
38.33935546875 13.078369140625 23.8662109375
26.222900390625 5.873291015625 -19.7158203125
43.55078125 8.4344482421875 -1.918701171875
27.766357421875 14.5567626953125 16.1005859375
-17.68505859375 4.00537109375 -37.003173828125
-5.65869140625 8.80078125 70.77978515625
47.198486328125 11.6649169921875 12.597900390625
15.262939453125 12.5894775390625 18.066650390625
4.418212890625 8.904052734375 42.051025390625
-4.273193359375 6.4696044921875 59.263671875
27.147705078125 4.587158203125 -26.0400390625
-16.607666015625 7.7547607421875 -14.966796875
10.67529296875 12.628173828125 19.3212890625
12.758544921875 12.0306396484375 15.5478515625
19.674072265625 3.9600830078125 -29.611328125
-11.92041015625 5.5084228515625 -24.344482421875
20.711669921875 9.10205078125 0.08984375
13.041259765625 13.17236328125 23.88818359375
37.856201171875 10.1343994140625 8.5126953125
2.63671875 7.369140625 -11.14892578125
-19.3369140625 14.197509765625 -11.545166015625
5.52880859375 6.87744140625 -15.12109375
6.065185546875 8.1859130859375 -7.7255859375
49.98193359375 10.157470703125 7.234619140625
-4.6259765625 4.96435546875 -28.890869140625
11.80615234375 10.28369140625 6.20947265625
-10.16455078125 3.19580078125 -39.58447265625
-15.25390625 3.982177734375 -34.2197265625
-6.5654296875 11.1341552734375 7.832275390625
3.759765625 10.7149658203125 8.151611328125
10.448974609375 8.072021484375 -5.898193359375
4.14501953125 3.7652587890625 -35.055908203125
53.23681640625 7.3253173828125 -5.779052734375
-13.751220703125 4.7711181640625 50.021484375
12.52294921875 11.5889892578125 34.181884765625
21.063232421875 12.7900390625 35.5341796875
8.05908203125 11.8243408203125 13.488037109375
30.248291015625 9.055908203125 -0.664306640625
28.72021484375 14.5615234375 32.71630859375
-19.476806640625 12.8828125 -15.94775390625
16.3681640625 13.2861328125 25.20458984375
20.047607421875 13.6146240234375 25.27978515625
-0.372314453125 3.9422607421875 -33.54296875
-19.241943359375 6.7554931640625 -28.001708984375
29.535400390625 6.481689453125 -16.473388671875
37.4091796875 11.1737060546875 13.420654296875
43.411865234375 5.4659423828125 -20.21923828125
-19.14599609375 17.1282958984375 -11.081787109375
-4.26220703125 7.89111328125 41.82421875
-0.15283203125 9.4320068359375 32.4609375
26.781982421875 9.7967529296875 3.364013671875
-18.800537109375 9.2764892578125 73.583740234375
-14.423095703125 7.4951171875 -14.02587890625
-20.02734375 10.3858642578125 -32.108642578125
33.667236328125 4.2003173828125 -25.678955078125
-20.5634765625 13.2139892578125 -33.832275390625
44.392822265625 12.422119140625 15.674072265625
29.462158203125 3.9833984375 -29.74365234375
-1.940673828125 9.3433837890625 -1.37109375
5.41796875 7.534423828125 51.6533203125
-1.654541015625 6.0726318359375 -22.20166015625
25.267822265625 11.1556396484375 10.703857421875
8.469482421875 10.4609375 36.5869140625
17.49658203125 9.97802734375 4.436279296875
22.6328125 11.1661376953125 9.97509765625
7.435546875 8.1331787109375 50.9599609375
17.738037109375 5.6517333984375 -20.255859375
37.7021484375 8.9317626953125 -0.233154296875
-0.091796875 8.2210693359375 40.6513671875
-18.27587890625 4.7310791015625 -32.250732421875
-6.86865234375 2.54833984375 -42.881103515625
19.106689453125 13.2235107421875 21.912353515625
-23.031982421875 7.3338623046875 62.83935546875
-2.6591796875 7.8370361328125 -11.031494140625
-18.6259765625 16.07177734375 -4.197998046875
16.372802734375 11.0123291015625 11.1640625
34.318115234375 10.77099609375 11.0029296875
46.935302734375 8.1199951171875 -4.548095703125
-21.340576171875 12.4676513671875 -36.685546875
-14.68310546875 5.9613037109375 -21.3857421875
6.800537109375 11.1868896484375 10.397216796875
-16.82666015625 3.5399169921875 -40.490966796875
9.546875 4.7415771484375 -26.366943359375
-7.385498046875 6.20361328125 -21.060546875
15.90478515625 7.2974853515625 -12.6533203125
9.87255859375 12.415283203125 17.31884765625
14.491943359375 12.5550537109375 31.361328125
43.75830078125 7.7142333984375 -6.98486328125
21.605224609375 10.0450439453125 4.34814453125
15.173095703125 5.044189453125 -23.84619140625
46.072998046875 9.7513427734375 5.1494140625
8.964111328125 9.2664794921875 -0.5185546875
-9.31396484375 4.1439208984375 -33.11328125
-3.375 7.0692138671875 -15.43798828125
-18.80078125 11.245849609375 -41.875244140625
8.15869140625 5.6129150390625 -30.8369140625
14.30859375 4.71435546875 -27.471923828125
-0.9931640625 2.5400390625 -41.596435546875
2.378173828125 3.3226318359375 -37.009033203125
-10.65576171875 10.1055908203125 0.95361328125
-20.25048828125 9.790771484375 -25.334228515625
14.92236328125 8.540283203125 -4.36962890625
-18.75830078125 12.1787109375 -2.1904296875
0.4921875 8.618408203125 38.28759765625
-15.4912109375 5.439453125 53.32421875
-7.83837890625 7.809814453125 -10.70166015625
9.4521484375 7.5291748046875 -11.858642578125
35.997802734375 8.5633544921875 -2.33984375
35.883056640625 10.0072021484375 4.88671875
15.879638671875 13.5186767578125 27.3203125
-6.099365234375 11.0562744140625 -7.1103515625
-10.445068359375 4.9276123046875 47.459716796875
21.806396484375 4.8531494140625 -24.265380859375
11.45849609375 11.2947998046875 10.99462890625
26.383056640625 7.7850341796875 -7.474365234375
-15.721923828125 3.5137939453125 -36.343505859375
14.6171875 4.2020263671875 -31.6953125
23.0869140625 13.381591796875 35.817626953125
2.204833984375 9.6455078125 0.33837890625
-16.403564453125 8.7235107421875 -5.83740234375
-19.562255859375 11.6209716796875 -19.9130859375
15.52197265625 6.236328125 -16.665771484375
-22.223876953125 10.7357177734375 69.142822265625
-15.249267578125 5.27392578125 -28.030029296875
-1.228759765625 9.1328125 34.56396484375
-4.440673828125 8.20654296875 68.228271484375
-11.973388671875 3.3643798828125 -38.0283203125
-5.9892578125 6.50390625 57.71923828125
22.034423828125 13.4971923828125 33.798828125
47.480224609375 3.487060546875 -29.645263671875
-1.92919921875 11.4296875 11.276611328125
-1.03173828125 6.579345703125 58.224853515625
-14.303466796875 8.913818359375 -6.091064453125
20.874755859375 13.5303955078125 31.863037109375
-11.3837890625 13.33349609375 79.029541015625
18.54345703125 12.85498046875 35.208251953125
-5.03955078125 10.115966796875 2.97314453125
-19.931884765625 14.40673828125 -30.075927734375
9.907470703125 11.4814453125 32.543701171875
6.7978515625 12.7027587890625 21.211669921875
28.835205078125 10.6112060546875 8.141845703125
43.4951171875 13.5543212890625 18.687744140625
39.654296875 11.2955322265625 13.304443359375
30.888427734375 9.8795166015625 4.864013671875
35.3447265625 7.048095703125 -9.732177734375
-19.996826171875 12.2376708984375 -24.678466796875
-13.3701171875 9.403564453125 72.96337890625
49.12451171875 7.251220703125 -9.52783203125
-12.563720703125 9.40283203125 -3.738525390625
-8.105712890625 10.8426513671875 6.279296875
-17.26123046875 7.135009765625 -16.852783203125
19.603515625 12.4317626953125 19.51611328125
39.323486328125 4.9202880859375 -22.625732421875
10.225830078125 9.94873046875 3.616455078125
-8.924072265625 5.25439453125 -26.505615234375
-0.2158203125 6.090087890625 54.812744140625
-22.66064453125 8.2637939453125 66.77734375
22.761962890625 7.5380859375 -9.11083984375
30.859130859375 5.6627197265625 -20.003173828125
-16.093505859375 7.2459716796875 62.43798828125
-8.024169921875 11.208251953125 65.393310546875
23.2744140625 4.13525390625 -28.50146484375
-19.931884765625 6.05078125 -31.95361328125
14.41455078125 11.16455078125 37.37060546875
-4.9697265625 9.9373779296875 -4.10205078125
32.138916015625 3.0462646484375 -34.05859375
41.487548828125 6.5155029296875 -15.384521484375
19.7861328125 8.6197509765625 -5.429443359375
-19.80859375 8.8038330078125 69.759765625
-19.454833984375 9.6146240234375 -15.827392578125
-3.935791015625 6.8310546875 61.262451171875
4.3994140625 10.556884765625 31.210205078125
23.77880859375 11.768310546875 14.2236328125
-19.894775390625 7.537109375 63.132080078125
29.4287109375 9.682861328125 2.58544921875
-2.742919921875 13.43994140625 11.256591796875
11.51611328125 -4.1072998046875 58.886962890625
0.70654296875 5.161865234375 -25.7421875
18.580810546875 11.8824462890625 14.218994140625
28.03125 8.9403076171875 -0.51123046875
9.923583984375 9.8306884765625 42.922607421875
-6.341064453125 9.4609375 0.445068359375
-0.17626953125 6.9315185546875 49.295166015625
25.872314453125 3.0968017578125 -34.343505859375
30.8681640625 14.8944091796875 16.48046875
47.069580078125 7.055419921875 -13.73681640625
0.54541015625 7.8363037109375 43.848876953125
-19.093017578125 15.547607421875 -9.800537109375
-8.69873046875 6.1627197265625 54.94384765625
-13.49072265625 5.1756591796875 -26.920654296875
15.34423828125 6.7388916015625 -14.704345703125
31.700927734375 7.581787109375 -8.072021484375
1.466064453125 6.7645263671875 -15.406005859375
30.878173828125 13.7777099609375 26.062255859375
26.1162109375 13.1597900390625 14.988037109375
12.4541015625 10.9501953125 9.125732421875
41.78076171875 7.8968505859375 -6.05322265625
-19.349853515625 8.5111083984375 -19.97705078125
-18.378662109375 18.7613525390625 -20.125244140625
35.8759765625 4.285400390625 -25.31103515625
-7.41455078125 6.8372802734375 43.311279296875
47.71875 10.3017578125 10.87353515625
9.464599609375 -6.2781982421875 58.38330078125
-6.177978515625 11.1202392578125 -2.99951171875
-12.805419921875 7.20166015625 -15.839111328125
26.958740234375 13.8609619140625 25.87255859375
52.72119140625 3.8505859375 -25.521240234375
6.465087890625 8.6317138671875 -5.0556640625
13.22412109375 5.0625 -24.88916015625
17.365966796875 2.9625244140625 -34.27294921875
-4.282958984375 10.88916015625 6.741943359375
-14.85546875 9.63037109375 -2.075439453125
-16.379150390625 20.979248046875 -27.697265625
30.330078125 13.2271728515625 24.048583984375
-10.175048828125 9.103515625 73.050537109375
44.27197265625 3.892822265625 -28.636474609375
40.487548828125 12.185791015625 17.12939453125
-18.297607421875 10.392333984375 -3.075439453125
8.19775390625 9.8487548828125 39.875
-1.289794921875 7.2965087890625 -12.56396484375
-1.70947265625 4.645263671875 -29.37890625
24.643798828125 10.442626953125 6.73095703125
9.42578125 12.0233154296875 29.601806640625
-0.479736328125 9.4425048828125 -2.721435546875
52.042236328125 5.822998046875 -14.130126953125
11.3837890625 6.042236328125 -19.028076171875
-13.91943359375 10.60986328125 3.991455078125
0.59423828125 7.201904296875 -13.57080078125
-6.970703125 5.396240234375 50.29248046875
-8.9375 8.534423828125 70.04736328125
7.2197265625 11.69482421875 27.38037109375
41.2158203125 4.489990234375 -26.163330078125
16.833984375 10.6744384765625 7.52294921875
13.192626953125 6.5892333984375 -15.553955078125
20.271240234375 4.6346435546875 -25.979736328125
-9.9609375 9.9412841796875 77.539794921875
23.82373046875 8.777099609375 -1.896484375
-17.411865234375 10.57470703125 76.901611328125
-11.33203125 9.3641357421875 64.423095703125
16.48583984375 3.2440185546875 -36.62646484375
19.73046875 6.3072509765625 -17.4306640625
49.836669921875 7.0765380859375 -11.95849609375
13.903076171875 12.62255859375 19.725341796875
-7.386962890625 8.1002197265625 63.6474609375
1.17578125 11.909423828125 11.44873046875
-3.406494140625 7.974365234375 66.05224609375
17.55908203125 3.78955078125 -32.0986328125
34.303955078125 3.80126953125 -31.279052734375
-14.979736328125 9.64404296875 76.67626953125
52.92333984375 4.98828125 -19.616455078125
-9.523681640625 5.6513671875 45.772216796875
5.8642578125 5.79931640625 -21.08349609375
37.736328125 3.74365234375 -30.431396484375
28.0966796875 11.9515380859375 13.537109375
-20.32861328125 7.108642578125 61.247314453125
23.0556640625 9.50048828125 2.825927734375
27.205322265625 10.3084716796875 6.5263671875
16.8271484375 9.16650390625 -1.013671875
-1.586669921875 9.722412109375 0.80322265625
36.187255859375 5.3154296875 -21.65625
3.75927734375 7.155029296875 50.685546875
33.753173828125 12.321533203125 17.240966796875
18.95703125 4.5831298828125 -27.901123046875
32.224609375 9.7530517578125 3.209716796875
3.031982421875 8.487060546875 -5.188720703125
18.223388671875 9.3001708984375 0.775634765625
43.541259765625 7.6639404296875 -13.79052734375
39.65283203125 8.75341796875 -1.1416015625
8.360595703125 12.44921875 22.53662109375
-14.802978515625 5.800048828125 -23.321044921875
-12.974609375 7.705322265625 -12.382568359375
20.23291015625 8.5286865234375 -3.5390625
32.389892578125 10.8428955078125 10.38037109375
3.17333984375 2.0882568359375 -42.25439453125
7.46240234375 9.7220458984375 1.085205078125
10.478515625 5.0472412109375 -24.387451171875
16.64990234375 4.3955078125 -27.5703125
33.60205078125 6.4696044921875 -14.9169921875
35.74267578125 13.2047119140625 24.020751953125
39.010009765625 8.059814453125 -4.17724609375
54.707763671875 5.756103515625 -12.240966796875
21.245361328125 3.3211669921875 -33.981689453125
17.325439453125 13.251220703125 30.69873046875
-19.986083984375 7.46875 -39.6103515625
15.85595703125 3.468505859375 -33.115966796875
1.4482421875 2.408203125 -40.2939453125
2.032958984375 6.596923828125 -17.736083984375
21.8427734375 3.999755859375 -30.326416015625
7.95166015625 -5.3662109375 60.071044921875
43.448486328125 9.0301513671875 -0.03369140625
-4.48388671875 7.280517578125 -13.87744140625
7.788818359375 5.7406005859375 -21.0869140625
32.31298828125 7.348388671875 -10.928466796875
40.7001953125 11.686767578125 15.196044921875
25.6884765625 13.085693359375 20.29150390625
20.818359375 13.8973388671875 29.260009765625
24.87353515625 7.5255126953125 -10.23193359375
2.603515625 9.3038330078125 37.461669921875
16.685791015625 12.7811279296875 20.28759765625
27.9794921875 4.814453125 -23.91845703125
-18.7802734375 16.738037109375 -19.893798828125
23.19921875 12.711181640625 20.6552734375
22.2705078125 11.7208251953125 16.003662109375
8.14892578125 3.021240234375 -38.6669921875
11.5732421875 4.2933349609375 -35.927001953125
2.839111328125 7.758056640625 46.132568359375
0.793701171875 6.583740234375 58.794677734375
7.62451171875 7.745849609375 -9.919921875
4.962646484375 4.1177978515625 -29.810302734375
13.481689453125 6.9599609375 -12.740234375
-19.28466796875 7.381103515625 -23.590576171875
41.249755859375 9.9571533203125 6.916259765625
-12.82470703125 3.614501953125 -41.941650390625
13.075439453125 7.935546875 -8.2880859375
28.75439453125 7.329345703125 -10.0927734375
-8.521484375 5.71923828125 52.735107421875
-15.509033203125 6.5628662109375 56.98779296875
13.4541015625 10.60400390625 7.248046875
13.836669921875 5.6868896484375 -22.349609375
28.103759765625 3.2437744140625 -33.507568359375
28.524169921875 14.2318115234375 29.469482421875
24.998291015625 14.065185546875 29.201904296875
-14.304931640625 19.9996337890625 -28.402587890625
7.395263671875 6.759765625 -15.57861328125
-3.71630859375 8.59326171875 34.08544921875
13.852783203125 5.87451171875 -18.73486328125
-6.835205078125 10.1861572265625 2.386474609375
20.426025390625 11.9136962890625 39.1318359375
10.6748046875 6.73388671875 -15.285888671875
0.31396484375 13.423828125 13.69140625
24.381103515625 14.214599609375 31.410888671875
-3.964111328125 8.5120849609375 -7.030517578125
41.77294921875 6.8560791015625 -13.5517578125
-4.072509765625 11.776611328125 11.727783203125
25.761962890625 4.66552734375 -24.76708984375
-18.506591796875 15.8162841796875 -22.711181640625
36.569091796875 9.23095703125 1.25
12.09814453125 12.7835693359375 20.543212890625
7.517578125 6.1585693359375 -19.0302734375
7.217529296875 9.4215087890625 -1.205322265625
-10.388916015625 3.7000732421875 -35.4287109375
23.05908203125 13.2569580078125 22.991455078125
-9.886474609375 10.9112548828125 5.690673828125
4.137451171875 9.655517578125 0.835205078125
-14.881591796875 8.3004150390625 -10.05859375
54.91748046875 5.846435546875 -21.076171875
29.632568359375 13.094482421875 21.9208984375
23.82177734375 4.7481689453125 -25.340576171875
32.182373046875 8.98095703125 -0.056396484375
3.76513671875 10.641357421875 6.159912109375
7.606689453125 8.4222412109375 -6.605712890625
-10.82080078125 9.7283935546875 -6.91015625
50.804931640625 5.1605224609375 -18.03857421875
-9.482177734375 9.985107421875 -0.639892578125
-20.1552734375 10.8709716796875 -30.17431640625
12.447021484375 5.74072265625 -20.53271484375
38.464111328125 12.4627685546875 21.03125
27.538818359375 8.2598876953125 -5.683349609375
-6.4697265625 6.5023193359375 -19.125244140625
-18.724609375 16.6055908203125 -0.35302734375
46.41357421875 3.8924560546875 -28.162353515625
32.474853515625 11.6673583984375 14.069580078125
19.171630859375 13.57470703125 28.199462890625
1.5908203125 10.3328857421875 3.39208984375
-13.372802734375 10.57470703125 78.286376953125
12.266357421875 7.6756591796875 -11.378662109375
49.1708984375 4.54248046875 -25.042724609375
-3.815673828125 8.02490234375 -8.930908203125
43.89453125 9.615966796875 3.673583984375
2.46484375 10.919677734375 27.600341796875
-4.471923828125 6.202880859375 56.695556640625
18.6904296875 12.83203125 32.205078125
-5.68408203125 8.1044921875 37.65283203125
31.9140625 12.6439208984375 20.015380859375
-7.76806640625 6.5526123046875 -17.361328125
11.08740234375 7.968017578125 -7.75
-19.168212890625 16.5150146484375 -13.333251953125
-17.479248046875 6.8958740234375 -18.673828125
11.576416015625 12.6424560546875 27.3076171875
-7.6591796875 9.2413330078125 73.712158203125
3.094482421875 4.1568603515625 -31.414794921875
-15.6962890625 6.8204345703125 -18.1181640625
-19.449951171875 17.291015625 -17.70947265625
-19.52294921875 13.9114990234375 -17.486083984375
19.144775390625 7.149169921875 -13.290771484375
36.9677734375 6.208984375 -17.127197265625
5.03076171875 9.6954345703125 36.13427734375
7.447021484375 5.2640380859375 -25.4296875
44.84423828125 10.12841796875 8.711669921875
40.51025390625 5.405517578125 -20.79638671875
-9.27880859375 10.9605712890625 7.850341796875
-16.872802734375 4.8807373046875 -31.066650390625
26.044189453125 13.561767578125 23.933349609375
36.59375 12.4495849609375 27.471923828125
-11.8212890625 8.220947265625 -10.209716796875
2.1142578125 3.746337890625 -34.91796875
-4.948974609375 3.9078369140625 -35.079345703125
-23.03564453125 8.4869384765625 68.642333984375
-18.5615234375 19.91845703125 -7.67919921875
45.025146484375 11.1514892578125 13.866943359375
-13.844970703125 8.2864990234375 66.433837890625
-6.471435546875 12.340087890625 9.214599609375
38.91796875 4.4921875 -24.365234375
-19.93359375 12.8828125 -22.96044921875
37.454345703125 12.0372314453125 18.134765625
-17.16357421875 5.882568359375 -25.631591796875
13.05224609375 5.0189208984375 -34.456787109375
33.9814453125 5.2283935546875 -22.031494140625
-16.234375 7.58740234375 -13.0341796875
7.792236328125 2.6209716796875 -40.964111328125
52.172119140625 6.6036376953125 -12.406494140625
-19.077392578125 9.20947265625 -23.630859375
45.111328125 4.1251220703125 -26.470947265625
48.065673828125 5.207275390625 -19.32421875
23.531494140625 8.447265625 -3.671142578125
-19.340087890625 4.779052734375 -36.936767578125
41.46923828125 3.921630859375 -29.3017578125
-6.62451171875 2.686279296875 -44.735595703125
-5.4951171875 7.1103515625 62.7578125
2.883544921875 7.39892578125 49.10009765625
9.7314453125 5.2835693359375 -29.96630859375
-18.664794921875 13.3785400390625 -0.815185546875
-2.580810546875 5.976318359375 49.874755859375
7.37744140625 10.5509033203125 35.1279296875
12.14501953125 9.7098388671875 46.26123046875
-17.574951171875 19.8953857421875 -28.547119140625
31.678466796875 14.1226806640625 30.541015625
15.661376953125 10.8724365234375 43.207763671875
-19.79736328125 13.4949951171875 -25.98291015625
29.436767578125 4.1796875 -26.031005859375
-18.91015625 16.947998046875 -2.4443359375
7.61181640625 3.2200927734375 -36.82421875
34.56103515625 6.88525390625 -11.365478515625
15.716064453125 10.1707763671875 4.75244140625
9.75244140625 7.8565673828125 -10.09521484375
15.85693359375 10.866943359375 39.738525390625
6.63134765625 8.7469482421875 44.428955078125
29.122802734375 10.9388427734375 9.904296875
30.8623046875 4.0556640625 -28.390380859375
8.0478515625 8.492919921875 47.690673828125
42.17431640625 12.455810546875 17.7431640625
-17.125732421875 9.1951904296875 72.888671875
13.26220703125 11.1656494140625 11.14892578125
-7.18310546875 8.433349609375 -8.80517578125
-10.095703125 10.6773681640625 3.904296875
50.114990234375 7.7352294921875 -5.453125
-14.35302734375 7.177734375 61.224609375
-18.46484375 10.8450927734375 -0.68115234375
-1.095703125 3.1529541015625 -38.073486328125
-19.28369140625 12.6270751953125 -10.265625
10.591796875 5.9071044921875 -31.86328125
45.409912109375 6.8092041015625 -14.903564453125
-4.041748046875 6.3592529296875 -19.39990234375
-16.385009765625 9.3408203125 -3.616455078125
3.322021484375 12.9749755859375 20.34033203125
26.556884765625 3.907470703125 -29.69921875
8.240478515625 4.8963623046875 -35.90869140625
42.329345703125 5.9066162109375 -17.692138671875
-0.0634765625 4.2734375 -31.7568359375
19.05517578125 12.530029296875 41.927490234375
-9.664306640625 5.8148193359375 -23.7294921875
30.88037109375 7.212158203125 -12.75634765625
26.05712890625 5.003662109375 -22.947509765625
30.935791015625 8.381103515625 -2.7939453125
45.91015625 7.78466796875 -5.994873046875
-2.08447265625 11.181640625 7.9609375
12.162841796875 8.413330078125 -5.428466796875
-13.979736328125 8.8250732421875 71.22265625
30.001708984375 8.0738525390625 -4.78466796875
43.1455078125 4.384765625 -24.98291015625
0.7783203125 10.926513671875 8.596923828125
-1.552490234375 4.8729248046875 -26.9306640625
11.9853515625 9.756591796875 3.2998046875
-5.202392578125 8.3829345703125 76.59375
-3.285888671875 6.0970458984375 54.810791015625
31.625244140625 6.4443359375 -17.049072265625
16.043212890625 12.8741455078125 22.0595703125
14.2685546875 11.5826416015625 13.9873046875
-5.129150390625 5.15576171875 -27.102783203125
44.88818359375 8.6748046875 -14.436767578125
28.821044921875 7.4951171875 -8.09716796875
36.1279296875 6.9603271484375 -12.228759765625
-2.578125 12.0107421875 12.8408203125
-0.624267578125 7.8465576171875 42.49462890625
41.655517578125 8.636962890625 -1.578369140625
32.73095703125 5.453857421875 -20.38330078125
15.0234375 3.2420654296875 -35.227294921875
-6.046142578125 7.9420166015625 41.70361328125
-10.197509765625 7.341796875 -13.261962890625
18.513916015625 7.358642578125 -9.89599609375
-6.075439453125 9.2431640625 64.425537109375
17.2705078125 12.2918701171875 34.086669921875
-13.723876953125 5.58642578125 -24.895263671875
29.4501953125 13.625732421875 14.16455078125
6.341796875 5.5455322265625 -23.345458984375
-1.694580078125 7.3109130859375 64.6591796875
27.49560546875 8.3397216796875 -3.60400390625
32.7080078125 7.912353515625 -6.645751953125
21.32177734375 4.26220703125 -28.001220703125
20.8203125 6.0037841796875 -18.944091796875
42.949462890625 10.225341796875 7.517578125
5.7958984375 6.4625244140625 -17.161865234375
48.47119140625 8.1318359375 -13.8974609375
9.798583984375 11.6375732421875 13.194091796875
-7.62451171875 6.25390625 46.488037109375
-13.0400390625 9.5814208984375 -2.0400390625
29.14013671875 9.3525390625 0.808349609375
-12.454345703125 6.0418701171875 54.8798828125
39.859375 9.882568359375 5.55859375
-8.770263671875 5.4326171875 50.650390625
22.320068359375 9.26416015625 -0.8232421875
38.410400390625 11.5028076171875 14.842041015625
16.65673828125 11.1641845703125 9.42578125
-2.0869140625 10.5245361328125 4.743408203125
18.8232421875 5.3470458984375 -21.774658203125
4.353759765625 12.45166015625 12.072509765625
-10.08984375 6.6953125 -19.225341796875
10.59130859375 10.295654296875 40.9736328125
30.96484375 8.1986083984375 -6.39697265625
7.43115234375 12.5047607421875 16.501708984375
-2.93408203125 5.4239501953125 -25.3505859375
16.260986328125 8.43359375 -6.59228515625
-19.531982421875 6.7265625 59.2275390625
6.876953125 11.866943359375 25.50341796875
39.814208984375 10.63330078125 9.39404296875
30.173583984375 14.7200927734375 33.96240234375
20.7275390625 6.63525390625 -16.016845703125
-19.0205078125 12.96337890625 -5.478759765625
6.26171875 4.6895751953125 -28.7216796875
-12.610107421875 8.424072265625 69.4404296875
16.249755859375 7.6890869140625 -10.406982421875
28.695068359375 13.651611328125 26.143310546875
-19.529052734375 11.9088134765625 -8.22900390625
14.469482421875 12.077880859375 33.0498046875
-4.684326171875 10.658935546875 -6.15234375
-18.623046875 17.705078125 -5.010986328125
5.2216796875 12.038330078125 24.269287109375
-20.26025390625 16.8243408203125 -34.886962890625
11.778076171875 10.0235595703125 48.203857421875
