35.726318359375 9.110107421875 46.75732421875
29.019287109375 0.6590576171875 -16.014892578125
-19.74560546875 2.60888671875 -2.363525390625
29.183349609375 -2.437255859375 -33.5908203125
-9.685546875 0.9483642578125 -12.757568359375
14.98193359375 -0.0147705078125 -17.931640625
-5.624755859375 2.6566162109375 -3.138916015625
4.99365234375 3.51025390625 33.77099609375
8.0625 2.4647216796875 -3.876708984375
-19.909912109375 -2.2056884765625 -35.16455078125
10.23974609375 2.8204345703125 -0.583740234375
-18.9228515625 0.2064208984375 -19.071044921875
8.5078125 -0.6993408203125 -21.998291015625
28.671875 6.1234130859375 18.79833984375
29.56689453125 4.957275390625 13.9189453125
-21.673095703125 1.092529296875 -41.080322265625
34.001953125 3.6202392578125 3.394775390625
10.99560546875 -0.949462890625 -25.259765625
18.00341796875 5.2442626953125 16.072509765625
-20.5478515625 4.92236328125 -14.5
-17.12744140625 3.4010009765625 -0.142822265625
0.379638671875 2.2691650390625 36.32080078125
-18.892822265625 -2.0914306640625 54.748779296875
-24.07421875 -0.2757568359375 66.82275390625
48.08544921875 -1.6611328125 -30.340576171875
2.751220703125 -0.7109375 -23.6044921875
6.93017578125 4.9080810546875 26.5869140625
0.272705078125 0.1300048828125 -18.084228515625
-12.81591796875 2.888427734375 -1.10205078125
38.0 -0.971435546875 -25.55029296875
-0.8525390625 -0.474609375 -22.833984375
16.268310546875 1.425537109375 -10.52197265625
0.083251953125 4.268798828125 9.14111328125
-6.483642578125 1.7447509765625 -7.766357421875
-6.8203125 -0.8399658203125 -26.64501953125
16.750244140625 6.869140625 27.191650390625
-20.93212890625 9.1131591796875 -9.33935546875
-12.37646484375 -2.1124267578125 -34.297119140625
9.928955078125 -0.156005859375 -37.6875
2.894775390625 4.5374755859375 23.758056640625
22.711669921875 0.455322265625 -15.8740234375
-8.047607421875 0.6773681640625 35.10693359375
2.899658203125 3.9169921875 6.960205078125
31.984375 4.5406494140625 9.992919921875
1.202880859375 -0.6925048828125 50.666748046875
36.78955078125 1.15234375 -11.224609375
-15.897705078125 0.9036865234375 -12.483154296875
-22.32666015625 0.948486328125 73.051513671875
48.875732421875 -0.592041015625 -23.736083984375
20.921630859375 7.235595703125 29.09619140625
-21.897216796875 6.0718994140625 -35.766357421875
8.856201171875 4.2083740234375 8.431884765625
49.226318359375 2.89013671875 -0.778076171875
23.96728515625 -0.510498046875 -22.3017578125
23.453125 -2.8028564453125 -36.235107421875
-13.08935546875 -2.7930908203125 49.384033203125
38.875244140625 0.1929931640625 -18.081298828125
41.378662109375 3.2703857421875 -0.91259765625
32.634765625 6.4932861328125 25.793701171875
23.36376953125 1.4364013671875 -7.383056640625
50.529052734375 -1.1947021484375 -26.955078125
25.655029296875 7.4434814453125 18.59375
-3.5908203125 4.2725830078125 7.96484375
-15.344970703125 0.1365966796875 -18.440185546875
-1.234130859375 3.270751953125 29.046875
-14.66162109375 0.59619140625 70.130859375
48.900146484375 1.43798828125 -10.39599609375
-9.22802734375 -0.479248046875 63.045166015625
-2.466796875 -1.701904296875 52.612060546875
32.400146484375 0.637451171875 -16.1240234375
16.759033203125 5.61474609375 35.414306640625
-0.715576171875 -3.318115234375 -41.806396484375
44.316650390625 0.826904296875 -15.260986328125
14.22802734375 5.517333984375 33.19384765625
-7.265625 4.313232421875 8.750244140625
-21.5419921875 4.4385986328125 -20.782958984375
36.31640625 4.981201171875 13.372314453125
-15.055419921875 -0.95654296875 -27.21142578125
41.00537109375 3.979248046875 6.62548828125
-20.595703125 1.5494384765625 -14.814208984375
47.638427734375 3.653076171875 4.768798828125
14.808349609375 5.0899658203125 12.176513671875
-21.630126953125 -1.34619140625 58.7333984375
51.46630859375 -0.591552734375 -12.28515625
40.622314453125 6.4991455078125 16.842529296875
18.8515625 -1.0640869140625 -26.19482421875
-4.666748046875 -0.4635009765625 -22.3427734375
7.668212890625 -1.211181640625 -30.14208984375
18.478271484375 -2.4246826171875 -35.881103515625
-9.093505859375 3.591796875 2.61962890625
-2.383544921875 3.5047607421875 2.302001953125
-9.129638671875 -1.98095703125 -33.067138671875
38.35302734375 1.5595703125 -6.976318359375
35.476318359375 0.2720947265625 -17.482421875
50.57861328125 0.05224609375 -17.42626953125
29.042236328125 2.5609130859375 -1.948486328125
26.968505859375 4.083740234375 6.9677734375
-20.01025390625 -0.3548583984375 -24.2744140625
5.0673828125 -1.405029296875 -34.927001953125
15.34375 2.81298828125 0.4599609375
-7.32275390625 -2.369384765625 50.375244140625
-13.1826171875 -2.2432861328125 52.8232421875
-9.76416015625 -1.2449951171875 -27.407470703125
3.30517578125 1.773681640625 40.41552734375
29.618896484375 1.515380859375 -9.45068359375
-6.7822265625 -3.62548828125 -43.481201171875
-15.43701171875 -1.9808349609375 -31.614501953125
25.131591796875 7.963623046875 15.631591796875
14.115966796875 3.6143798828125 4.701171875
-11.80615234375 -2.88330078125 -39.426513671875
47.486083984375 2.9613037109375 -13.029052734375
-4.20751953125 0.5157470703125 40.0048828125
25.986083984375 6.94091796875 25.06103515625
31.066650390625 5.7852783203125 16.382568359375
-21.50537109375 0.4207763671875 -27.919677734375
-17.42236328125 -0.5537109375 62.43017578125
-16.49365234375 -2.6944580078125 49.457275390625
1.0068359375 0.462890625 44.275634765625
-12.50927734375 2.809814453125 62.198974609375
-2.36767578125 -2.2001953125 -33.5810546875
15.538818359375 -2.6400146484375 -35.779296875
23.549560546875 1.404541015625 -11.053955078125
15.5517578125 -1.7562255859375 -29.36572265625
-13.364990234375 -1.6705322265625 43.10009765625
8.442138671875 1.5048828125 -8.167724609375
9.277587890625 4.8865966796875 29.393310546875
27.140869140625 3.4461669921875 2.625
-16.651611328125 2.0128173828125 -7.138427734375
-9.393310546875 0.56298828125 -15.751953125
-26.301513671875 -0.849609375 63.148193359375
25.294921875 -2.2410888671875 -33.232177734375
45.283203125 -1.6741943359375 -31.06005859375
56.2490234375 1.4879150390625 -20.837158203125
2.83251953125 -1.43505859375 -29.510498046875
50.63525390625 -2.4888916015625 -22.129638671875
41.93408203125 2.388427734375 -4.3935546875
8.189208984375 3.7423095703125 37.4931640625
5.504150390625 3.2479248046875 2.031982421875
34.826904296875 3.033447265625 0.719970703125
13.97216796875 -0.543212890625 -22.8564453125
-2.370849609375 6.5740966796875 11.729736328125
3.67822265625 3.8319091796875 29.9365234375
-16.156005859375 1.5050048828125 76.923583984375
-18.73486328125 1.0894775390625 -12.574462890625
19.31884765625 1.942626953125 -7.16357421875
4.949462890625 -1.1856689453125 -27.132080078125
43.05224609375 2.9635009765625 -9.85693359375
-21.55712890625 2.6561279296875 -25.46142578125
5.52099609375 -0.5250244140625 -23.0966796875
33.556396484375 6.49755859375 21.93603515625
28.175537109375 0.710693359375 -12.50537109375
35.276123046875 1.9185791015625 -5.664794921875
40.759033203125 2.0947265625 -12.01513671875
12.2724609375 4.07177734375 38.443359375
-4.84521484375 0.0880126953125 -17.921630859375
42.439453125 4.2923583984375 10.91845703125
-11.33056640625 -3.7445068359375 -44.493896484375
17.777587890625 0.120361328125 -17.874755859375
-8.36962890625 6.1495361328125 -7.8974609375
-18.496337890625 -2.7142333984375 -39.336181640625
51.13623046875 1.8331298828125 -5.877197265625
20.2958984375 3.94189453125 5.630615234375
8.856689453125 3.42724609375 2.81640625
-0.721435546875 2.59619140625 -2.578857421875
-12.681640625 1.709228515625 65.371337890625
22.20166015625 6.0206298828125 15.308837890625
-20.284912109375 1.972412109375 -8.698974609375
6.01904296875 3.927001953125 7.93017578125
36.4775390625 -1.986328125 -31.210205078125
31.4365234375 -1.4150390625 -28.346435546875
8.837646484375 -2.8197021484375 -38.39013671875
10.98876953125 4.828369140625 31.539794921875
39.302978515625 -0.217041015625 -21.265380859375
33.81103515625 -0.091552734375 -19.62890625
18.505126953125 6.5888671875 24.102294921875
-21.04345703125 4.7362060546875 -1.238037109375
7.01220703125 -0.3548583984375 -36.521484375
4.2021484375 0.2291259765625 -17.625732421875
-6.982421875 1.5306396484375 32.386962890625
29.796875 4.2315673828125 7.103271484375
-1.946533203125 0.46533203125 -16.57421875
12.492431640625 -1.4744873046875 -27.881103515625
-2.888427734375 3.71337890625 5.418701171875
2.144775390625 0.8541259765625 -12.7802734375
-19.15087890625 5.42919921875 1.3974609375
11.92724609375 6.41650390625 24.1884765625
0.2666015625 -3.6888427734375 -44.2880859375
-22.388671875 3.8421630859375 -40.035888671875
-9.328857421875 1.347412109375 -10.120361328125
28.510986328125 7.007080078125 27.853515625
13.429443359375 1.958984375 -6.8076171875
18.111328125 2.1783447265625 -4.13427734375
-15.41552734375 4.75 77.1552734375
-14.57470703125 1.63818359375 -9.0341796875
-21.71240234375 4.9151611328125 -16.889892578125
-2.04443359375 1.739013671875 -9.535400390625
11.568603515625 4.353515625 8.569091796875
48.11572265625 2.340576171875 -4.167236328125
10.705810546875 0.2921142578125 -16.913818359375
19.967529296875 -0.4437255859375 -21.32421875
-10.738037109375 5.1728515625 -6.22216796875
21.605224609375 4.786865234375 11.645263671875
-11.812255859375 -2.298828125 45.889404296875
1.931640625 7.68408203125 13.114013671875
5.452880859375 2.4102783203125 -4.066650390625
0.65771484375 6.20361328125 18.748046875
13.410888671875 5.912353515625 20.816162109375
-21.845458984375 -0.6314697265625 -35.918701171875
31.08154296875 5.97900390625 19.772705078125
35.5439453125 -0.6165771484375 -23.943115234375
-4.97998046875 3.4156494140625 2.635009765625
-9.451904296875 -2.0311279296875 53.8671875
-19.690673828125 2.4267578125 77.51708984375
-23.032470703125 -0.4381103515625 63.3818359375
-1.1689453125 2.1119384765625 -5.129638671875
10.82470703125 3.8126220703125 36.3251953125
-22.028076171875 5.564453125 -26.1708984375
-22.326171875 2.4034423828125 -30.529541015625
-0.869384765625 -1.30322265625 -29.649169921875
23.458740234375 7.217041015625 29.461181640625
27.240234375 7.72265625 30.545166015625
5.228271484375 5.070556640625 12.72119140625
-3.633544921875 -2.9776611328125 -39.81103515625
13.455322265625 -2.7808837890625 -37.228759765625
7.0361328125 2.354736328125 40.916748046875
30.70361328125 -0.5625 -22.56787109375
2.11328125 2.9454345703125 -0.654296875
-10.802490234375 3.7957763671875 5.82763671875
-25.64599609375 0.9814453125 72.6318359375
46.3759765625 3.556884765625 10.48193359375
-22.323974609375 3.4637451171875 -33.652587890625
14.298095703125 6.3956298828125 27.0185546875
-5.754638671875 -3.200439453125 -41.127197265625
-15.3349609375 -0.5672607421875 -24.187744140625
22.140625 -1.1474609375 -26.821044921875
1.521484375 1.609619140625 -7.760498046875
36.856689453125 2.9442138671875 -0.704833984375
33.787109375 4.135009765625 5.80712890625
19.070556640625 6.0157470703125 36.656494140625
11.609375 3.6072998046875 40.8076171875
18.449951171875 1.0987548828125 -9.409912109375
-13.099853515625 3.115966796875 -3.539794921875
-27.029541015625 0.635009765625 67.67626953125
-7.172607421875 -2.1439208984375 52.9501953125
7.556396484375 2.398193359375 43.95849609375
-0.6201171875 4.158447265625 23.606201171875
-12.152099609375 0.985107421875 76.872314453125
-18.368896484375 2.1715087890625 -4.343017578125
-24.227294921875 -1.1378173828125 57.97216796875
26.708984375 6.9649658203125 13.353759765625
-3.272216796875 -1.7774658203125 55.2548828125
-11.7158203125 -1.9189453125 54.77783203125
46.828125 2.5609130859375 -2.10888671875
12.860595703125 -1.341552734375 -31.8154296875
14.152099609375 5.2808837890625 16.83349609375
7.6591796875 4.1478271484375 32.3310546875
23.071044921875 6.57958984375 23.062255859375
45.37255859375 3.4130859375 3.342041015625
20.25 5.6343994140625 18.827392578125
13.9619140625 -3.048828125 -40.02783203125
-6.645751953125 -0.8907470703125 45.814697265625
-10.229736328125 3.0462646484375 -0.01123046875
1.842041015625 -2.543212890625 -35.72998046875
-0.904541015625 -2.1148681640625 -35.478759765625
8.6728515625 5.40966796875 14.886962890625
17.921630859375 -2.21337890625 -33.56640625
29.583251953125 3.14794921875 0.589599609375
-14.32958984375 -3.494384765625 -40.798828125
20.840576171875 -1.811279296875 -29.5029296875
-5.914794921875 -0.718994140625 61.79052734375
-8.177001953125 -1.27099609375 43.41455078125
37.933349609375 4.3267822265625 7.8759765625
-6.26220703125 -0.144287109375 -20.624755859375
18.589111328125 6.8966064453125 29.281982421875
4.51513671875 0.5303955078125 49.247802734375
-19.429443359375 -1.4761962890625 56.9638671875
30.29541015625 6.7408447265625 25.72119140625
45.23876953125 2.228759765625 -4.84423828125
42.629638671875 4.2880859375 8.298095703125
-3.445556640625 2.3328857421875 -4.58544921875
36.152587890625 4.7138671875 11.044921875
39.516845703125 3.6851806640625 3.35791015625
-19.50439453125 -2.7022705078125 52.568603515625
-11.780029296875 -0.8348388671875 41.588623046875
-3.5576171875 -0.7630615234375 47.194580078125
-10.943115234375 0.1954345703125 -18.802001953125
29.052978515625 -0.1424560546875 -20.879150390625
31.87744140625 -2.5650634765625 -34.947265625
-10.272705078125 0.2720947265625 66.734130859375
-13.6875 -0.3502197265625 61.252197265625
-9.76708984375 -2.9971923828125 -46.851318359375
33.239501953125 1.02880859375 -11.514892578125
-10.6943359375 0.545654296875 70.774658203125
-23.751708984375 0.7484130859375 76.290771484375
4.893310546875 3.3546142578125 4.270751953125
-20.9267578125 5.72998046875 -12.190673828125
47.421875 0.4805908203125 -15.5595703125
11.779296875 3.9508056640625 45.30126953125
27.981689453125 4.6534423828125 12.271728515625
-4.00830078125 -1.1978759765625 -27.99462890625
18.413330078125 -3.1846923828125 -38.6591796875
-21.079833984375 9.0369873046875 -5.744384765625
-4.492431640625 -1.7698974609375 -32.107177734375
-4.35009765625 0.629150390625 -14.88818359375
-0.42236328125 2.55859375 34.197265625
-16.7958984375 0.8345947265625 73.5126953125
36.193359375 -2.359130859375 -33.55859375
24.343505859375 6.74169921875 26.8388671875
44.263671875 -1.0660400390625 -26.544189453125
1.9580078125 1.20556640625 42.165771484375
1.80126953125 4.733154296875 10.566650390625
-1.676025390625 -1.3543701171875 -27.11279296875
25.08203125 7.6885986328125 33.420654296875
21.29345703125 -2.109130859375 -31.709228515625
-9.6259765625 -2.35107421875 49.074462890625
3.305908203125 -3.1767578125 -40.963623046875
-20.819580078125 -0.66845703125 -29.789306640625
19.4638671875 3.0103759765625 0.907958984375
24.122314453125 3.8836669921875 6.370849609375
11.52734375 1.2510986328125 -11.126953125
13.3359375 4.3560791015625 36.445556640625
6.9150390625 -0.2633056640625 -32.303955078125
-3.759033203125 -2.38134765625 -35.8515625
-0.854248046875 -0.4359130859375 49.131591796875
16.765869140625 5.202880859375 14.189208984375
-8.12646484375 -2.9658203125 -38.85595703125
2.954833984375 -2.0068359375 -32.420654296875
-16.563232421875 -1.2716064453125 -29.805908203125
13.032958984375 0.639404296875 -16.214599609375
-8.744384765625 4.252685546875 -4.306884765625
19.68994140625 7.194580078125 27.221923828125
-0.814453125 1.7801513671875 -7.66357421875
20.279052734375 2.4844970703125 -1.268798828125
18.40478515625 0.8927001953125 -12.8818359375
-20.51171875 0.9398193359375 -20.597412109375
-21.866943359375 4.096435546875 -22.96923828125
7.72900390625 -0.8992919921875 -24.07958984375
44.373046875 4.6864013671875 9.88330078125
-20.241943359375 0.7711181640625 72.28857421875
11.319580078125 5.59326171875 17.016357421875
22.9560546875 3.171875 0.681640625
2.47705078125 3.415771484375 3.43115234375
45.826904296875 5.0174560546875 -13.15966796875
-4.422119140625 1.8768310546875 -8.88623046875
-4.487548828125 -1.96240234375 50.829833984375
39.765380859375 -0.5726318359375 -23.977294921875
-21.59423828125 5.281005859375 -3.67724609375
-12.785888671875 -2.5748291015625 -37.465087890625
45.81005859375 -0.843505859375 -24.757568359375
17.353271484375 5.1463623046875 37.739990234375
-9.229736328125 -0.1856689453125 40.6513671875
44.31640625 3.896728515625 -11.4052734375
36.283447265625 2.29736328125 -3.740478515625
4.4453125 1.1771240234375 -13.0986328125
43.22021484375 -0.5189208984375 -22.551025390625
32.092041015625 6.47265625 23.57421875
15.95556640625 5.212646484375 41.630126953125
4.203125 4.661865234375 25.51611328125
8.4501953125 5.56884765625 23.69091796875
9.0126953125 -3.3453369140625 -40.87158203125
-1.302734375 0.918212890625 39.498046875
22.86181640625 2.378662109375 -2.466796875
-21.169189453125 7.8116455078125 -7.5908203125
50.9677734375 -2.116943359375 -28.89208984375
-21.459228515625 7.9697265625 -15.014404296875
-11.359375 -1.6927490234375 -31.973388671875
6.987060546875 3.7021484375 35.66357421875
-15.92578125 3.4410400390625 1.686279296875
-21.710693359375 7.407958984375 -33.974365234375
-21.541015625 7.7735595703125 -21.94873046875
5.940185546875 -3.1123046875 -39.81689453125
1.70849609375 2.51318359375 -2.752197265625
36.877197265625 -1.525634765625 -28.96875
32.45263671875 4.258056640625 7.885498046875
34.105712890625 5.5009765625 15.64404296875
24.955078125 -0.9111328125 -24.18994140625
-5.23828125 -1.2835693359375 58.587646484375
12.521728515625 0.109375 -18.27587890625
-7.97314453125 0.772216796875 -14.073486328125
-0.2578125 -2.816650390625 -39.15625
5.7080078125 2.6923828125 38.05615234375
20.698974609375 4.665771484375 13.60546875
39.711181640625 2.2056884765625 -5.32763671875
-16.864013671875 -3.612060546875 47.279052734375
41.48583984375 -1.7967529296875 -29.598388671875
3.532470703125 1.0660400390625 44.34423828125
37.32470703125 0.8358154296875 -14.46875
10.660400390625 2.5396728515625 -2.67333984375
-21.663818359375 -2.5616455078125 52.994384765625
-3.8408203125 1.1478271484375 -12.87158203125
24.32421875 7.4962158203125 31.401123046875
37.445556640625 10.0380859375 47.63232421875
5.9365234375 -0.8143310546875 -25.24609375
-8.96240234375 -1.427001953125 58.831787109375
6.2275390625 0.3707275390625 -16.182861328125
12.54736328125 5.63427734375 18.884765625
11.88232421875 -0.662353515625 -23.265869140625
15.521484375 6.4365234375 28.88037109375
9.050048828125 -1.64111328125 -28.578857421875
52.03857421875 0.5509033203125 -18.89453125
6.756591796875 5.609619140625 20.564453125
-11.12744140625 -0.6375732421875 62.09765625
16.802001953125 3.027099609375 2.176513671875
4.620849609375 1.0240478515625 46.224365234375
16.810546875 6.0826416015625 20.676025390625
-14.835205078125 0.6502685546875 -16.442138671875
18.186767578125 5.5047607421875 18.33935546875
-11.052978515625 3.69580078125 -9.35498046875
29.325927734375 2.0772705078125 -4.935546875
7.41552734375 3.21484375 1.114990234375
-7.020751953125 0.2296142578125 72.09423828125
-13.249267578125 1.0679931640625 -12.956787109375
-7.71923828125 0.332275390625 -17.538330078125
20.480712890625 6.497802734375 32.9755859375
-21.8779296875 4.4716796875 -31.84814453125
36.5048828125 6.0574951171875 19.83544921875
-7.53173828125 2.65869140625 -1.681884765625
4.966796875 -3.5123291015625 -42.781494140625
14.201171875 4.4844970703125 10.248779296875
-9.187255859375 -1.0311279296875 61.01025390625
-7.146240234375 -2.5972900390625 -36.983642578125
7.087890625 4.375732421875 9.690673828125
14.654541015625 1.0703125 -12.61865234375
-6.024169921875 0.8521728515625 34.59375
-23.138671875 -1.128173828125 60.16845703125
-1.033935546875 2.9775390625 0.389892578125
-14.2880859375 2.5384521484375 -5.632568359375
-20.875732421875 3.1844482421875 -4.027587890625
2.20556640625 5.8564453125 16.722900390625
-0.6025390625 -0.1522216796875 -20.044921875
1.074951171875 -3.4058837890625 -40.654052734375
21.34814453125 1.9591064453125 -7.657958984375
25.247314453125 2.0225830078125 -4.987548828125
22.69482421875 5.242919921875 13.434326171875
-8.21240234375 0.0308837890625 66.88916015625
35.67822265625 5.9140625 48.484375
-18.73779296875 -0.74755859375 60.833984375
-13.196533203125 1.0252685546875 75.082275390625
4.850830078125 4.24951171875 28.279052734375
-7.1923828125 2.7767333984375 75.600830078125
-16.103271484375 -1.640625 55.62109375
-20.75439453125 0.2071533203125 68.344482421875
9.679443359375 -0.1334228515625 -19.268798828125
-14.557373046875 -2.48876953125 50.799072265625
28.00732421875 6.97021484375 24.656494140625
6.19580078125 1.74169921875 -9.176025390625
3.767333984375 2.6885986328125 -1.853759765625
33.8251953125 -0.957275390625 -25.02392578125
-17.2333984375 2.694091796875 -2.708251953125
-7.354248046875 2.735595703125 -4.294677734375
-15.032958984375 -2.9989013671875 48.04052734375
51.034423828125 2.7720947265625 1.0263671875
-16.369873046875 -3.6343994140625 -40.595703125
-10.794677734375 -0.330078125 -22.183349609375
-4.06396484375 1.9189453125 30.903076171875
-1.7724609375 1.50048828125 37.58935546875
25.26220703125 -2.3785400390625 -35.277099609375
14.005615234375 3.994873046875 39.63134765625
9.43603515625 4.829345703125 11.342041015625
52.72900390625 0.996826171875 -12.0224609375
-23.967041015625 0.4283447265625 70.867919921875
28.642822265625 -1.380126953125 -26.920166015625
45.004638671875 0.0179443359375 -18.91748046875
-7.703369140625 -1.9368896484375 57.162109375
26.68408203125 0.415771484375 -15.7744140625
-18.486328125 -0.603515625 -22.952880859375
-15.87158203125 4.1136474609375 4.77197265625
-2.6728515625 -3.4512939453125 -44.8623046875
40.14501953125 -0.96240234375 -26.110595703125
-21.862060546875 4.905517578125 -10.295654296875
30.00634765625 7.2747802734375 30.032958984375
-22.69970703125 4.17041015625 -37.43017578125
-6.284423828125 -1.6376953125 -31.186767578125
-5.191162109375 -0.5350341796875 63.66552734375
26.9130859375 -1.8543701171875 -30.025146484375
8.84619140625 1.942626953125 -6.04248046875
23.948486328125 0.288330078125 -17.456787109375
-8.80029296875 -1.7557373046875 45.26806640625
-2.626953125 0.356201171875 41.241943359375
6.77685546875 1.841064453125 -5.468505859375
38.127685546875 4.6494140625 10.684326171875
-21.199951171875 3.1876220703125 -15.804443359375
-13.435546875 0.712158203125 71.794677734375
50.09619140625 3.3900146484375 4.79296875
-4.580810546875 2.4544677734375 28.539306640625
16.4970703125 2.5274658203125 -2.9990234375
-18.060791015625 0.0396728515625 67.3173828125
-19.907470703125 4.298583984375 78.193603515625
-8.261962890625 0.0775146484375 38.720703125
5.61328125 -1.25048828125 -29.017822265625
-14.568603515625 -1.1966552734375 59.27587890625
50.59423828125 -1.523681640625 -24.156982421875
36.18896484375 3.803466796875 4.33447265625
-21.564697265625 4.1260986328125 -35.460205078125
0.075927734375 -0.8875732421875 -25.7041015625
-7.589111328125 1.3291015625 73.661376953125
10.2294921875 3.38134765625 38.181640625
19.105712890625 0.0400390625 -19.552490234375
9.244140625 5.8106689453125 26.130615234375
25.96240234375 -0.5323486328125 -22.265625
22.92236328125 6.989501953125 34.14111328125
2.263916015625 0.1951904296875 -18.135009765625
-6.7548828125 0.275146484375 36.569091796875
25.289794921875 4.4483642578125 9.0927734375
-19.580810546875 1.46435546875 -10.8125
2.03515625 8.4605712890625 17.12060546875
-11.240478515625 1.3292236328125 61.81591796875
-17.904541015625 3.28759765625 1.777099609375
-12.029052734375 0.9847412109375 73.329345703125
-19.34423828125 -2.4202880859375 -41.60791015625
26.88232421875 -1.9912109375 -32.065185546875
27.798095703125 2.721923828125 -0.408935546875
16.816162109375 0.5142822265625 -16.021728515625
-12.577880859375 0.3865966796875 69.821044921875
13.6611328125 -1.70068359375 -29.963134765625
-8.80517578125 -0.2132568359375 -21.781982421875
42.1513671875 -1.09912109375 -27.062255859375
49.721923828125 0.8541259765625 -12.1005859375
41.94482421875 2.1806640625 -7.9345703125
-10.262939453125 -2.4578857421875 47.110595703125
-16.57275390625 -0.8828125 60.43115234375
3.158447265625 3.010009765625 34.314697265625
-21.590576171875 4.1448974609375 -5.6015625
21.689453125 4.1953125 9.37158203125
-15.20068359375 -1.30126953125 57.34521484375
9.792236328125 6.13330078125 22.35791015625
33.553466796875 -2.2000732421875 -32.7939453125
-17.41064453125 0.040771484375 64.84716796875
-27.016845703125 -1.029052734375 61.320556640625
-21.886474609375 -0.7747802734375 -40.488037109375
40.66015625 -2.0626220703125 -32.2626953125
-18.17578125 -2.3375244140625 -36.08349609375
35.284423828125 4.730224609375 23.895263671875
48.715087890625 3.1820068359375 1.395751953125
30.840576171875 6.430908203125 21.669677734375
-15.075439453125 3.0716552734375 -0.0439453125
4.259521484375 5.49462890625 17.3876953125
1.979248046875 2.1092529296875 37.5673828125
31.762451171875 2.48779296875 -3.726318359375
-9.11572265625 3.6297607421875 4.580810546875
40.35400390625 4.8883056640625 12.105224609375
11.369873046875 4.732666015625 34.28076171875
-6.661376953125 -0.6029052734375 -23.765869140625
20.921875 -2.66943359375 -36.5419921875
38.11962890625 0.2567138671875 -16.1630859375
-10.513916015625 -0.69775390625 -24.1953125
-20.168212890625 0.7677001953125 -17.669677734375
-14.71240234375 1.4588623046875 65.84716796875
23.6572265625 4.8634033203125 11.6640625
-1.156494140625 -1.153076171875 50.926025390625
-14.052490234375 -2.5196533203125 -35.217041015625
37.2724609375 6.2547607421875 21.904296875
39.53076171875 2.9134521484375 -0.40576171875
-15.74560546875 2.432861328125 78.5849609375
33.58642578125 -1.350830078125 -28.424560546875
-3.636962890625 2.77880859375 -2.701416015625
13.316162109375 2.741455078125 0.467529296875
-11.203369140625 -1.3603515625 57.93896484375
18.950439453125 5.4749755859375 38.83740234375
-21.203857421875 3.22607421875 -13.8154296875
8.65234375 0.248291015625 -15.836669921875
-18.762939453125 -3.6956787109375 49.0517578125
3.51220703125 -2.900146484375 -38.577392578125
18.39501953125 4.0068359375 5.9970703125
12.718994140625 1.0885009765625 -12.67431640625
-4.645263671875 3.82861328125 6.22412109375
25.12158203125 6.521484375 20.2099609375
8.234130859375 2.749267578125 -0.573974609375
17.01953125 -2.58544921875 -37.138671875
-0.767822265625 5.2137451171875 10.595703125
9.918212890625 -0.516357421875 -32.74853515625
-24.63671875 0.2784423828125 68.583251953125
-20.098876953125 -0.482421875 -26.197021484375
-20.9912109375 1.2274169921875 76.749755859375
44.352294921875 2.90185546875 -0.5908203125
-3.073974609375 -1.5240478515625 57.3388671875
27.7763671875 0.6715087890625 -17.482421875
30.80712890625 -2.048828125 -30.369873046875
-2.676513671875 -0.4222412109375 -23.4287109375
28.6630859375 7.8865966796875 31.817626953125
33.05810546875 1.6068115234375 -8.583740234375
42.2333984375 5.4278564453125 14.06591796875
0.14111328125 -0.172607421875 47.22021484375
47.2646484375 1.758544921875 -11.331298828125
33.441650390625 2.132568359375 -4.883056640625
-6.4697265625 -1.6778564453125 48.81494140625
-18.328125 0.146484375 -20.880859375
18.259521484375 -0.9119873046875 -24.3896484375
-19.985595703125 -1.6700439453125 -33.337158203125
11.37890625 -1.55712890625 -33.5439453125
-1.781494140625 -0.2845458984375 46.700439453125
31.404052734375 0.4686279296875 -14.509765625
46.289794921875 1.9285888671875 -14.089599609375
29.07958984375 -0.869140625 -24.224853515625
29.738525390625 4.3956298828125 11.0810546875
-15.48828125 1.02783203125 75.1044921875
20.47314453125 0.9608154296875 -12.921142578125
-22.012451171875 6.244384765625 -20.420166015625
-13.971435546875 -0.3896484375 -21.962890625
18.79248046875 6.1094970703125 20.263427734375
12.745849609375 4.2000732421875 7.086181640625
32.400146484375 5.862060546875 17.747314453125
20.648193359375 2.017578125 -5.809326171875
19.97216796875 -1.3221435546875 -27.705810546875
1.762939453125 -0.59375 54.060791015625
12.89599609375 -2.00732421875 -34.66650390625
11.842529296875 2.381103515625 -4.19140625
-1.74951171875 1.373779296875 -11.531982421875
-5.2392578125 2.380126953125 -5.199462890625
-0.4501953125 0.7080078125 -15.43603515625
39.517333984375 0.9609375 -14.031005859375
10.46533203125 -0.92333984375 -27.07666015625
-17.885498046875 2.5389404296875 78.072265625
24.55224609375 0.1380615234375 -19.2529296875
-8.833984375 0.6358642578125 70.4462890625
33.86279296875 4.441650390625 10.185791015625
45.17041015625 1.9859619140625 -7.822265625
18.06982421875 4.4437255859375 9.4521484375
-14.360595703125 2.565673828125 -2.140380859375
19.598388671875 -1.87841796875 -32.510009765625
5.802978515625 -0.1461181640625 -19.8193359375
2.445556640625 -0.3377685546875 -21.56396484375
-3.667236328125 -0.438720703125 44.341064453125
4.74609375 5.0469970703125 23.17724609375
22.841796875 1.4644775390625 -9.18994140625
-10.607177734375 0.133544921875 39.27392578125
29.0087890625 3.3453369140625 2.80419921875
36.521728515625 8.802734375 48.94873046875
27.085205078125 6.843505859375 26.58154296875
-7.35302734375 4.2666015625 -8.524169921875
11.878662109375 6.296875 22.31787109375
-19.8310546875 -2.766357421875 -38.021484375
10.34130859375 1.4129638671875 -9.586669921875
32.119384765625 4.75390625 11.84912109375
13.582275390625 2.1728515625 -4.952880859375
-12.158935546875 -1.174072265625 -28.184814453125
22.684326171875 -2.1402587890625 -32.9609375
11.912353515625 3.4122314453125 42.643798828125
24.675537109375 1.1527099609375 -12.527099609375
12.111572265625 2.7530517578125 -0.9638671875
27.145263671875 6.5496826171875 19.7919921875
34.251220703125 5.6148681640625 25.457275390625
34.919677734375 7.9669189453125 47.99658203125
11.1796875 -3.200439453125 -41.081298828125
3.511474609375 -2.1591796875 -34.21923828125
5.52685546875 5.4132080078125 14.880615234375
50.43359375 2.50390625 -4.28173828125
3.099609375 1.958740234375 -5.69873046875
38.406494140625 5.890380859375 18.57177734375
-10.815185546875 -0.953125 59.8583984375
-5.73486328125 -3.8843994140625 -45.001953125
-9.3818359375 2.4501953125 -8.617919921875
10.155029296875 5.7423095703125 18.464599609375
-0.02685546875 1.4532470703125 38.2490234375
-20.454345703125 0.5281982421875 70.2861328125
-21.947021484375 -0.4288330078125 65.570556640625
25.17919921875 1.8388671875 -7.430419921875
-12.6015625 3.7890625 4.762939453125
42.17724609375 2.697265625 -2.578857421875
26.1328125 2.3096923828125 -2.99267578125
47.878173828125 -0.6480712890625 -21.08642578125
-9.360107421875 -0.00732421875 65.142578125
13.61572265625 -0.1431884765625 -19.752197265625
25.94970703125 4.5582275390625 11.2431640625
26.631103515625 5.2767333984375 14.1142578125
48.451904296875 0.0169677734375 -17.962158203125
-7.781494140625 -3.312744140625 -41.494384765625
2.78662109375 6.2130126953125 12.383544921875
46.63623046875 1.96435546875 -9.03076171875
36.86328125 1.964111328125 -7.99658203125
1.89892578125 4.205810546875 8.7900390625
-6.050537109375 -0.0894775390625 38.7421875
-17.4697265625 0.4447021484375 -17.95556640625
4.831787109375 3.9381103515625 6.515380859375
0.93701171875 3.84423828125 6.95263671875
20.6162109375 5.2545166015625 15.86474609375
16.490966796875 0.9654541015625 -12.46826171875
43.503662109375 3.624755859375 4.1064453125
-1.1982421875 -1.4884033203125 56.551025390625
-1.74853515625 4.261474609375 8.060791015625
-16.39990234375 0.5645751953125 69.520263671875
28.437255859375 0.0091552734375 -19.069580078125
29.681884765625 -0.00341796875 -17.6005859375
16.294921875 -0.889404296875 -24.421142578125
15.2763671875 -2.9501953125 -37.60400390625
5.2509765625 0.7181396484375 51.173828125
45.5439453125 -0.225830078125 -20.6591796875
51.0361328125 2.6405029296875 -0.986572265625
30.303955078125 6.3402099609375 17.980224609375
-18.470458984375 1.4578857421875 76.541748046875
17.335205078125 4.9949951171875 11.044189453125
-6.815185546875 3.4285888671875 2.550048828125
4.296630859375 -2.6982421875 -36.47900390625
14.283447265625 -1.07861328125 -27.9775390625
5.57763671875 5.6201171875 19.156982421875
41.638427734375 2.124267578125 -14.024658203125
2.541259765625 5.203857421875 20.735595703125
-7.6728515625 1.1409912109375 -10.880126953125
47.08740234375 -0.8565673828125 -23.25732421875
5.262939453125 1.89111328125 40.929443359375
-10.4384765625 0.94873046875 76.223388671875
14.077880859375 1.216552734375 -10.861572265625
-16.70849609375 -0.0184326171875 -19.6513671875
18.88037109375 3.1527099609375 2.635009765625
43.77587890625 3.9857177734375 6.380859375
-3.544189453125 6.5843505859375 10.328125
43.56689453125 -0.3878173828125 -24.912353515625
8.426025390625 0.8309326171875 -37.3642578125
50.321533203125 1.5711669921875 -8.511962890625
49.091552734375 -1.32861328125 -28.855224609375
20.018798828125 6.8372802734375 25.279541015625
38.075927734375 0.98486328125 -12.816162109375
0.6416015625 3.71533203125 25.619140625
-5.3720703125 2.9686279296875 -0.428955078125
-6.002197265625 4.3863525390625 10.059326171875
-21.68408203125 6.264892578125 -5.5859375
20.84716796875 0.56201171875 -16.01953125
28.67578125 -2.1923828125 -31.845458984375
23.832763671875 6.7733154296875 25.094482421875
24.33447265625 -1.6988525390625 -29.281005859375
16.340087890625 4.8916015625 39.225830078125
-21.14404296875 3.940185546875 -8.709716796875
-1.361328125 2.2054443359375 32.4033203125
27.390869140625 3.747802734375 4.3974609375
6.731689453125 -0.5374755859375 -21.661865234375
-20.445068359375 6.42236328125 0.60302734375
26.630859375 2.0015869140625 -6.160888671875
22.22412109375 7.17578125 27.582275390625
-1.31298828125 1.8387451171875 35.836669921875
43.44287109375 0.5872802734375 -16.829345703125
38.9052734375 5.5382080078125 14.99365234375
8.1103515625 5.6314697265625 18.9619140625
35.564453125 3.9466552734375 6.083740234375
52.053466796875 -0.7508544921875 -21.498779296875
40.175048828125 0.0220947265625 -19.699951171875
-14.58984375 -1.8245849609375 -33.202880859375
-10.56396484375 3.742919921875 -3.639404296875
30.069091796875 -2.3621826171875 -35.1630859375
39.322509765625 1.5440673828125 -11.070068359375
-11.178955078125 -2.0303955078125 52.787841796875
38.197998046875 -0.6336669921875 -22.630615234375
-22.179443359375 2.4400634765625 -35.267578125
9.385009765625 4.8658447265625 13.320556640625
51.81591796875 -1.2080078125 -25.44580078125
36.413818359375 -0.3779296875 -22.38134765625
49.1064453125 2.6690673828125 -2.69775390625
-4.397216796875 -0.1646728515625 -20.58642578125
-1.053466796875 -1.4747314453125 53.755126953125
18.110595703125 -1.934814453125 -31.162841796875
32.136962890625 -0.3758544921875 -20.22900390625
-17.59423828125 -1.3914794921875 56.599853515625
16.297607421875 -1.6087646484375 -27.733642578125
-21.644287109375 5.8359375 -30.62255859375
-24.465087890625 -0.736083984375 62.334716796875
-12.585205078125 -1.584228515625 56.809814453125
14.2412109375 2.9107666015625 -1.065185546875
32.693115234375 -1.42822265625 -26.8671875
40.283447265625 2.85595703125 -2.275634765625
27.3505859375 7.698974609375 17.232177734375
48.504638671875 3.8905029296875 6.32373046875
8.5751953125 -0.4893798828125 -31.512939453125
25.4189453125 1.2994384765625 -10.8994140625
-11.094482421875 3.4178466796875 1.728515625
2.9013671875 -0.293212890625 50.25439453125
22.58837890625 -3.0400390625 -37.78759765625
27.77783203125 -1.6171875 -28.47265625
36.039794921875 1.003662109375 -12.872802734375
25.0048828125 -2.6917724609375 -37.12060546875
-16.01123046875 0.7578125 63.992431640625
-7.858642578125 1.5880126953125 -8.98974609375
25.937744140625 0.2681884765625 -17.410400390625
36.62939453125 -1.6217041015625 -27.199462890625
33.26318359375 0.8741455078125 -14.574951171875
4.364013671875 0.4439697265625 -15.766357421875
17.81591796875 4.146728515625 7.707763671875
41.893798828125 3.2403564453125 0.916259765625
12.874755859375 -0.2891845703125 -21.369873046875
37.76904296875 1.4779052734375 -9.768798828125
35.104736328125 6.0687255859375 20.94140625
17.763427734375 6.4154052734375 34.176025390625
33.93701171875 2.744384765625 -1.288818359375
25.983154296875 -1.2579345703125 -25.60498046875
15.6533203125 6.115234375 31.366943359375
29.654296875 0.7191162109375 -14.27880859375
6.688720703125 2.4515380859375 -2.185546875
9.48095703125 3.4837646484375 4.48486328125
36.1806640625 3.1099853515625 2.094970703125
28.330078125 6.0018310546875 21.966552734375
46.4443359375 3.73291015625 -14.455322265625
12.20361328125 3.6270751953125 4.610107421875
14.867431640625 0.53369140625 -16.070556640625
23.657958984375 6.4447021484375 21.3857421875
-6.831787109375 2.5960693359375 -5.99169921875
7.442626953125 4.8785400390625 28.292236328125
13.620849609375 6.7662353515625 23.767822265625
4.063720703125 -0.738037109375 -24.805908203125
0.3447265625 3.0443115234375 -0.822265625
19.1123046875 0.194580078125 -16.519775390625
34.9892578125 1.347412109375 -11.476806640625
44.5078125 3.1759033203125 1.78955078125
6.83349609375 1.0784912109375 -11.725830078125
32.5498046875 1.8426513671875 -6.897216796875
-10.77783203125 -3.1385498046875 -40.926513671875
27.0458984375 -0.121337890625 -20.91845703125
28.078369140625 -0.4666748046875 -22.328125
0.404296875 1.0106201171875 -12.46728515625
-3.41943359375 -1.182373046875 60.50634765625
29.4375 5.4986572265625 15.740234375
16.246826171875 -1.8232421875 -31.280517578125
-7.45458984375 -0.4490966796875 63.65283203125
-21.083740234375 9.0665283203125 -3.775390625
-4.073974609375 -2.7396240234375 -38.110595703125
10.244873046875 0.7467041015625 -36.1953125
9.135009765625 3.9407958984375 35.579345703125
18.21728515625 6.244384765625 21.93359375
35.43212890625 5.6490478515625 18.486328125
23.47412109375 -0.2716064453125 -20.595947265625
-4.689208984375 -0.7513427734375 45.833984375
23.5654296875 0.689453125 -14.341796875
27.2373046875 1.8551025390625 -7.928955078125
20.04248046875 3.6429443359375 3.874755859375
-4.077392578125 -0.3333740234375 42.6240234375
27.54150390625 0.6507568359375 -14.235595703125
9.152587890625 -1.919677734375 -36.90234375
24.95068359375 0.665283203125 -15.542236328125
22.697265625 1.1710205078125 -12.58349609375
23.10888671875 -0.7457275390625 -23.84228515625
-0.629150390625 3.4072265625 2.474853515625
17.37353515625 -0.3265380859375 -20.04638671875
8.151611328125 1.0555419921875 -12.89599609375
-1.76123046875 3.5606689453125 3.9501953125
13.3427734375 -1.2413330078125 -26.35498046875
41.52783203125 3.74658203125 4.958740234375
-0.197021484375 1.1229248046875 -10.187255859375
-21.37255859375 8.117431640625 -11.1220703125
-22.001220703125 7.2149658203125 -29.58837890625
-21.166748046875 -0.4979248046875 -32.763427734375
12.70361328125 5.222412109375 31.5830078125
29.480224609375 1.29638671875 -11.348876953125
30.645263671875 4.4642333984375 8.62646484375
28.9482421875 3.9989013671875 5.580322265625
19.17138671875 6.9677734375 31.8994140625
31.490478515625 3.9371337890625 6.44873046875
-4.806396484375 -1.2845458984375 48.401123046875
-9.468994140625 0.4356689453125 -17.676025390625
17.556640625 0.66015625 -14.404052734375
-21.961669921875 -0.216796875 -37.623046875
43.35595703125 2.91455078125 -14.694091796875
9.928955078125 2.396484375 -4.26416015625
15.26708984375 4.101806640625 5.934326171875
23.708740234375 2.61083984375 -0.94677734375
-21.958740234375 7.315185546875 -26.075927734375
32.1826171875 3.8287353515625 4.14990234375
8.047607421875 -0.4642333984375 -20.322265625
-16.930908203125 -1.67578125 -32.480712890625
8.792724609375 2.6075439453125 -2.289794921875
23.801513671875 3.4036865234375 2.198974609375
-9.581298828125 0.4068603515625 35.909912109375
4.02978515625 2.98388671875 -0.119140625
-14.03369140625 -3.208740234375 46.32568359375
-1.931396484375 2.7110595703125 30.550048828125
21.122802734375 2.7158203125 0.245361328125
21.65185546875 3.9256591796875 4.49609375
21.699462890625 0.795654296875 -14.489990234375
14.9208984375 1.4476318359375 -9.348388671875
32.134521484375 -0.6695556640625 -25.355224609375
51.276611328125 0.22705078125 -14.6708984375
15.525146484375 -0.21875 -20.18359375
6.27783203125 4.8349609375 11.348388671875
46.583251953125 2.1185302734375 -5.94775390625
-2.314697265625 0.0821533203125 -18.233642578125
-1.29296875 0.0045166015625 43.13232421875
-18.25341796875 -3.6610107421875 -41.05908203125
20.1669921875 2.2491455078125 -4.152587890625
22.457763671875 4.17578125 7.020263671875
-11.51904296875 0.96630859375 -12.8115234375
7.609130859375 1.5736083984375 48.46240234375
45.85791015625 4.15625 8.933837890625
19.666748046875 4.72607421875 10.078857421875
0.48046875 1.4268798828125 39.911376953125
15.6572265625 1.5924072265625 -7.742431640625
30.068359375 2.2237548828125 -3.3095703125
24.664794921875 2.9300537109375 0.48193359375
43.289306640625 5.09423828125 12.727783203125
14.1904296875 3.023681640625 2.427978515625
-22.1552734375 0.7978515625 -34.424072265625
-16.26953125 1.9493408203125 -45.71044921875
1.370849609375 4.78173828125 22.42236328125
40.558349609375 -1.296630859375 -27.760498046875
-23.774169921875 1.186767578125 73.970458984375
-15.419921875 0.366455078125 67.883544921875
15.054931640625 6.2965087890625 22.35107421875
32.378173828125 0.792724609375 -13.060546875
23.3603515625 6.6500244140625 19.461669921875
25.003173828125 7.198486328125 13.529296875
-10.833251953125 -1.6943359375 -29.166259765625
3.403076171875 2.3077392578125 -3.5009765625
41.3525390625 -0.3748779296875 -23.276123046875
9.140869140625 2.2576904296875 46.150634765625
17.99609375 -1.2987060546875 -27.730224609375
1.31201171875 0.6258544921875 -14.27490234375
13.8779296875 0.8709716796875 -14.697998046875
-14.419189453125 1.518798828125 76.6787109375
-9.91943359375 5.2750244140625 -9.193603515625
26.780517578125 3.0567626953125 0.941162109375
-13.814208984375 -1.6279296875 -31.15576171875
-21.281494140625 -1.19921875 -34.393798828125
-1.81005859375 -1.6182861328125 -31.056640625
18.2158203125 -0.24853515625 -21.55712890625
-17.421630859375 0.7327880859375 71.6162109375
52.18505859375 -1.0770263671875 -27.8388671875
11.177978515625 3.1348876953125 0.823486328125
-8.934814453125 -1.017578125 -25.9189453125
-7.09130859375 -0.37158203125 -22.113037109375
8.703125 0.203857421875 -17.8955078125
7.369140625 -1.3907470703125 -28.32568359375
43.621337890625 -1.846923828125 -30.666259765625
-5.989013671875 -0.44482421875 42.114013671875
21.431396484375 7.203857421875 30.8271484375
-6.69189453125 0.0858154296875 -18.9794921875
-17.668701171875 -2.4873046875 -37.8505859375
3.74951171875 1.9013671875 -7.5107421875
2.737548828125 3.0020751953125 1.0068359375
-21.31201171875 -0.4083251953125 63.97998046875
17.598876953125 1.5753173828125 -7.676513671875
46.564453125 -1.6876220703125 -29.556396484375
1.08154296875 -0.343017578125 -19.814453125
-12.732666015625 1.5333251953125 61.00634765625
37.372314453125 2.7099609375 -2.38330078125
-6.643798828125 0.413818359375 67.892578125
-17.277587890625 1.2862548828125 -13.4443359375
-18.992919921875 -0.3658447265625 64.3310546875
20.672607421875 6.2098388671875 34.93603515625
0.214111328125 2.1767578125 -6.360107421875
-19.34716796875 -1.3555908203125 58.664306640625
-8.945556640625 4.458984375 9.012451171875
2.07666015625 3.6912841796875 5.482666015625
-2.584228515625 0.525634765625 -14.744873046875
20.767333984375 1.3951416015625 -9.159423828125
37.0458984375 4.23876953125 9.330078125
17.81884765625 1.0399169921875 -11.11669921875
9.123291015625 0.72119140625 -14.255126953125
6.286376953125 5.604736328125 16.887451171875
36.4580078125 0.59814453125 -16.024658203125
-11.694091796875 0.7562255859375 -14.63134765625
46.598876953125 4.0093994140625 -12.02490234375
25.636962890625 4.0078125 5.60791015625
22.8271484375 2.1754150390625 -5.9248046875
-15.38330078125 -2.0806884765625 54.145751953125
29.51318359375 6.3541259765625 20.30859375
9.0341796875 5.9420166015625 20.353271484375
43.85986328125 -0.4571533203125 -20.77783203125
-5.96435546875 0.4364013671875 66.27880859375
-16.444580078125 -1.0435791015625 -25.378662109375
-21.205322265625 -1.7574462890625 -37.245849609375
24.560302734375 2.6947021484375 -2.41015625
-5.09814453125 -1.8785400390625 53.33251953125
-18.533447265625 0.0665283203125 -16.691162109375
-22.231201171875 5.7974853515625 -33.882568359375
-11.93798828125 -2.06689453125 -45.559326171875
5.406494140625 0.84423828125 -14.452880859375
-1.981201171875 -3.229736328125 -40.083984375
14.15283203125 4.19970703125 41.379150390625
41.94091796875 0.4215087890625 -18.122314453125
14.535400390625 -2.29248046875 -34.3525390625
45.279296875 0.3885498046875 -16.5830078125
39.69091796875 4.0841064453125 7.687255859375
-21.483154296875 3.5164794921875 -41.428466796875
10.858642578125 5.6676025390625 28.3642578125
27.108154296875 4.2967529296875 8.8203125
-2.7216796875 2.982421875 27.465576171875
-18.806884765625 1.0704345703125 73.345703125
10.16943359375 -0.3909912109375 -21.98291015625
5.144287109375 3.2008056640625 36.202392578125
3.68212890625 4.792724609375 12.101806640625
-21.276611328125 0.70458984375 -24.623291015625
-3.77197265625 1.2745361328125 -10.947265625
33.52978515625 3.1400146484375 1.791015625
4.457275390625 -1.7391357421875 -30.237060546875
3.68115234375 0.26123046875 47.39404296875
47.068359375 2.8707275390625 -0.2890625
10.5107421875 3.18994140625 2.6240234375
14.3447265625 5.312744140625 13.776611328125
-21.366943359375 7.73681640625 -1.51708984375
35.250732421875 -1.6968994140625 -28.58349609375
-18.217041015625 2.9298095703125 -1.33154296875
-14.441650390625 -2.38134765625 -37.6669921875
45.9169921875 0.4498291015625 -14.815185546875
-4.668701171875 1.4677734375 33.254638671875
16.39599609375 -2.4049072265625 -34.240478515625
20.343994140625 -0.7689208984375 -22.927001953125
-14.98681640625 1.2108154296875 -11.10986328125
-11.054443359375 1.4276123046875 -11.268798828125
-22.79052734375 0.7403564453125 -36.098388671875
47.0078125 3.5941162109375 3.028564453125
50.833740234375 1.808837890625 -2.603759765625
-21.110107421875 6.3017578125 -2.442626953125
-11.907470703125 3.1949462890625 0.269287109375
17.274169921875 2.7984619140625 0.54296875
-21.83447265625 4.5604248046875 -29.348388671875
14.338623046875 -0.8668212890625 -24.452392578125
16.733642578125 6.01953125 32.861328125
1.627685546875 3.6075439453125 28.565673828125
45.878173828125 3.95361328125 5.439208984375
38.12109375 0.043212890625 -19.7421875
-15.97998046875 2.7662353515625 -1.410400390625
-5.128173828125 0.64794921875 36.62255859375
-4.619873046875 0.6224365234375 38.277099609375
-2.03173828125 -3.39013671875 -43.139892578125
39.921875 3.36328125 1.77734375
4.5625 1.4327392578125 -9.217529296875
-15.44677734375 -0.3597412109375 61.536865234375
16.40673828125 4.821533203125 12.542724609375
34.196044921875 0.4412841796875 -15.879638671875
-15.773193359375 0.6668701171875 71.42333984375
-11.492431640625 2.7196044921875 63.60546875
34.240234375 1.1990966796875 -13.122314453125
-21.03125 3.5264892578125 -7.07861328125
-5.995361328125 0.9122314453125 -12.64892578125
15.01025390625 6.1761474609375 20.468994140625
-2.267822265625 2.013916015625 34.30419921875
14.9208984375 2.1524658203125 -6.111083984375
-12.894775390625 -1.9627685546875 -32.530029296875
-8.174072265625 -0.7962646484375 41.830078125
-8.333251953125 -0.045166015625 36.9423828125
11.94189453125 1.7659912109375 -7.50244140625
40.970947265625 0.0137939453125 -21.148193359375
13.3896484375 6.221435546875 28.459228515625
-4.44580078125 1.19677734375 35.14990234375
-11.901123046875 2.3966064453125 -8.791259765625
31.310546875 0.2247314453125 -17.47802734375
32.3115234375 1.4591064453125 -10.22216796875
48.62548828125 1.9134521484375 -8.384765625
-13.95166015625 3.633056640625 3.548095703125
33.987060546875 1.1768798828125 -9.87353515625
51.95556640625 1.828125 -7.3037109375
-17.502685546875 1.2633056640625 74.93408203125
37.218017578125 1.8682861328125 -5.023193359375
-8.963134765625 -3.1953125 -40.358154296875
31.048828125 1.6241455078125 -8.649169921875
-26.953857421875 1.69873046875 65.9130859375
25.4755859375 -1.9603271484375 -30.810546875
-16.57421875 -1.225830078125 -27.77099609375
-21.357666015625 3.53271484375 -18.91259765625
-18.2626953125 2.19482421875 -7.381591796875
1.236572265625 2.43017578125 34.93310546875
17.36328125 -0.4822998046875 -23.08740234375
1.156005859375 -3.4010009765625 -42.2890625
23.822509765625 -2.40283203125 -34.499267578125
