38.7646484375 4.5614013671875 0.5673828125
-11.63525390625 3.8636474609375 -9.9609375
-14.289306640625 6.5191650390625 81.973388671875
-9.22802734375 6.1441650390625 27.774658203125
-25.14306640625 10.0133056640625 77.536865234375
-7.63232421875 3.0809326171875 -15.153564453125
-6.093505859375 1.730712890625 59.260009765625
11.554931640625 -0.498779296875 -31.21875
13.37744140625 8.513916015625 33.26171875
8.174560546875 -0.80322265625 -36.006103515625
13.504150390625 7.3331298828125 16.438232421875
13.0537109375 -21.2222900390625 98.083740234375
26.552001953125 7.893310546875 22.52880859375
14.74609375 2.039306640625 -16.610595703125
-23.271240234375 0.213623046875 -34.93701171875
-12.791259765625 6.997314453125 -3.463623046875
-24.198486328125 1.3758544921875 -28.929931640625
23.10546875 9.698486328125 18.905517578125
-27.04736328125 2.8577880859375 65.16650390625
0.287841796875 1.2000732421875 -26.531005859375
24.090087890625 3.95654296875 -2.3505859375
5.74951171875 5.2177734375 48.060791015625
-4.94091796875 6.944091796875 10.694091796875
-0.0546875 4.9710693359375 37.703857421875
27.981689453125 2.1314697265625 -14.600341796875
13.22705078125 -15.34375 99.7744140625
4.46875 27.6995849609375 71.282470703125
-9.5498046875 4.302734375 34.748291015625
-15.272705078125 4.0462646484375 63.396240234375
-24.56640625 3.6229248046875 -11.439453125
-14.672119140625 5.25927734375 67.06201171875
-14.07958984375 5.7589111328125 2.151123046875
11.851318359375 1.17041015625 -26.495849609375
44.0537109375 0.703369140625 -7.875244140625
36.83056640625 3.54150390625 -6.728759765625
36.92578125 6.535888671875 14.1025390625
25.08544921875 -0.0445556640625 -27.117919921875
-24.178955078125 1.16796875 54.606201171875
-26.57421875 1.12158203125 -36.06103515625
-17.327880859375 6.3519287109375 4.4638671875
-25.740478515625 5.1478271484375 -3.751708984375
6.202880859375 8.6619873046875 27.319580078125
39.33935546875 5.69287109375 8.388671875
35.52734375 5.415283203125 7.228515625
-13.478271484375 5.1612548828125 -7.15966796875
-17.90625 1.2767333984375 -28.85595703125
30.248779296875 4.888671875 3.873291015625
-27.70263671875 5.821044921875 -29.739990234375
43.415771484375 1.791015625 -14.2587890625
19.6328125 9.5977783203125 31.565673828125
37.0771484375 1.6490478515625 -17.845703125
3.05419921875 5.4910888671875 3.1171875
19.7001953125 6.643310546875 13.421630859375
-26.806640625 2.9921875 -27.28662109375
-26.103271484375 4.2994384765625 76.658447265625
44.841064453125 5.180419921875 5.113525390625
34.46630859375 0.827880859375 -23.454833984375
34.624267578125 0.620361328125 -27.104736328125
-26.18701171875 10.27099609375 1.784423828125
-23.214599609375 1.746826171875 59.23779296875
-9.309326171875 -0.2357177734375 -36.981201171875
-12.0263671875 1.0078125 52.634521484375
-3.633544921875 7.244873046875 22.864013671875
2.251953125 2.196533203125 -19.395263671875
32.399658203125 6.2135009765625 12.786376953125
0.814208984375 7.92626953125 18.61962890625
5.27001953125 2.0836181640625 -31.7060546875
4.2548828125 8.47265625 24.46337890625
-19.87109375 3.08203125 -15.652099609375
-2.937744140625 1.44921875 -24.414306640625
18.0478515625 3.8702392578125 -5.428466796875
12.986083984375 4.5626220703125 -0.780517578125
-6.849365234375 4.1390380859375 37.776611328125
-14.821044921875 1.306884765625 46.072998046875
19.530517578125 8.4703369140625 24.877685546875
30.939453125 1.4351806640625 -17.293212890625
28.9736328125 7.152099609375 16.88134765625
-27.05419921875 8.207275390625 -14.326416015625
23.29052734375 7.447998046875 15.37158203125
10.94384765625 7.2034912109375 40.937255859375
-3.4306640625 -0.21630859375 -35.109375
5.604248046875 7.2222900390625 13.817626953125
-21.056396484375 -0.8076171875 -38.229248046875
-2.15087890625 4.421875 -5.658935546875
4.7548828125 -0.7274169921875 -35.215576171875
1.227783203125 2.0157470703125 -33.103515625
9.1435546875 6.7987060546875 12.8427734375
40.034423828125 3.2886962890625 -6.091064453125
-3.624755859375 5.306640625 1.561279296875
30.91064453125 4.580078125 0.68505859375
1.223388671875 3.74365234375 -8.535400390625
25.02587890625 5.2489013671875 4.648193359375
-20.546875 3.2431640625 64.0986328125
24.076171875 4.780029296875 1.30419921875
-23.8818359375 6.21484375 78.05126953125
22.666015625 -1.11962890625 -37.39208984375
-18.714111328125 5.16943359375 79.020263671875
-24.982421875 3.2412109375 67.63134765625
-21.703125 4.114990234375 -7.794921875
-5.60302734375 6.4185791015625 26.478515625
40.79296875 -0.020751953125 -24.672607421875
0.126953125 4.83642578125 40.919921875
7.274169921875 7.973388671875 20.444091796875
45.509521484375 -0.9578857421875 -30.849365234375
23.815673828125 1.78271484375 -19.55517578125
-0.757080078125 6.921142578125 29.727294921875
20.82177734375 4.0015869140625 -3.81689453125
30.158203125 3.3077392578125 -7.507080078125
-20.572998046875 2.117431640625 -22.269287109375
11.942138671875 5.2012939453125 4.390625
11.821533203125 -0.8984375 -38.999755859375
-16.12646484375 6.4136962890625 -2.476318359375
-19.1494140625 4.020751953125 74.057373046875
-10.223388671875 2.0771484375 -22.838134765625
6.20068359375 5.349365234375 3.134033203125
7.31884765625 4.792236328125 -2.101318359375
-7.09765625 4.0189208984375 -7.419189453125
-14.3896484375 3.1900634765625 69.486328125
3.504150390625 7.3060302734375 30.971923828125
21.386474609375 0.2718505859375 -28.472412109375
16.60205078125 8.2186279296875 37.208740234375
-0.154541015625 7.1798095703125 26.52001953125
-9.849365234375 5.610107421875 3.031005859375
34.14794921875 2.7100830078125 -11.727783203125
17.338623046875 -0.554931640625 -33.7646484375
-5.16943359375 1.32763671875 -31.322998046875
30.96826171875 3.6427001953125 -4.487548828125
26.18359375 3.499267578125 -7.703857421875
12.29248046875 -18.0098876953125 98.494140625
17.07861328125 -5.9180908203125 104.975341796875
-17.386962890625 2.0565185546875 -22.975341796875
-18.112548828125 1.35498046875 57.26611328125
28.132568359375 0.00048828125 -28.194580078125
-8.49365234375 1.15478515625 -25.8486328125
27.825927734375 8.04345703125 25.313232421875
-17.54052734375 3.5709228515625 -13.165283203125
-11.38818359375 2.780517578125 41.703857421875
-12.76953125 1.2823486328125 58.17333984375
5.4892578125 -1.132568359375 -41.16064453125
40.495849609375 2.4010009765625 -13.638671875
-9.59130859375 4.9058837890625 -3.120849609375
-14.85009765625 9.589111328125 7.05810546875
-1.45654296875 -1.44970703125 -44.436279296875
-0.76025390625 2.05126953125 -17.75048828125
-26.94970703125 6.9954833984375 -8.87939453125
11.192138671875 2.6798095703125 -14.090087890625
33.95556640625 3.1883544921875 -4.6923828125
15.817138671875 8.0155029296875 22.366943359375
-11.34033203125 6.3175048828125 33.307861328125
-6.71435546875 5.7340087890625 29.6181640625
18.5546875 4.8438720703125 1.897216796875
35.551025390625 4.1875 -0.8115234375
-22.211181640625 5.955322265625 4.682373046875
18.533447265625 0.6500244140625 -23.538818359375
17.6806640625 2.1998291015625 -16.133056640625
-5.017333984375 -1.4144287109375 -41.910400390625
-23.923583984375 1.837158203125 -24.792724609375
-15.958984375 -0.4293212890625 -39.296142578125
0.05810546875 3.1285400390625 -11.650634765625
-30.388671875 5.44140625 74.079833984375
6.76708984375 3.9320068359375 -7.9130859375
-13.353515625 8.413818359375 -7.287109375
-16.955810546875 1.2220458984375 -42.68359375
13.958740234375 -0.4014892578125 -33.0751953125
15.89794921875 -21.44287109375 98.8544921875
-17.9189453125 0.4844970703125 -33.0185546875
9.4814453125 7.9512939453125 31.864013671875
4.859375 2.3519287109375 -16.26513671875
-0.349609375 3.8243408203125 46.128173828125
5.458740234375 0.8486328125 -28.615966796875
22.59228515625 -0.3958740234375 -34.54443359375
1.03125 -0.77392578125 -39.90478515625
-12.82958984375 2.41357421875 -17.587646484375
37.893310546875 1.4044189453125 -21.26318359375
1.999267578125 4.85498046875 -1.495361328125
-13.43505859375 1.5579833984375 -23.3671875
-10.4501953125 0.6595458984375 -33.712158203125
-29.850830078125 2.7254638671875 60.74658203125
8.446044921875 -17.7928466796875 100.578125
-7.307373046875 -1.2279052734375 -43.831298828125
16.19775390625 -16.0877685546875 99.01611328125
-17.897705078125 7.83544921875 79.855224609375
20.970947265625 10.3048095703125 34.048583984375
28.413330078125 -0.9844970703125 -35.76171875
-11.4423828125 1.1710205078125 55.447998046875
3.994140625 6.6851806640625 9.467041015625
-20.143310546875 5.25244140625 -1.344482421875
38.411376953125 4.6395263671875 -13.640869140625
37.984130859375 5.9747314453125 10.8798828125
13.2099609375 8.945068359375 26.970703125
1.214599609375 3.927001953125 51.359130859375
43.6201171875 3.2752685546875 -5.72705078125
-21.6806640625 0.615478515625 52.43896484375
1.595458984375 4.666748046875 43.58935546875
-18.110107421875 1.5743408203125 45.1396484375
7.5615234375 4.669921875 0.808837890625
8.96875 8.778564453125 27.474609375
9.684326171875 2.3704833984375 -16.72705078125
10.963134765625 3.6590576171875 -5.868408203125
27.04150390625 1.3699951171875 -21.512939453125
41.724365234375 5.510009765625 10.4033203125
27.1474609375 4.307861328125 -0.44140625
-26.755126953125 4.39794921875 -21.522216796875
-17.771728515625 0.9405517578125 54.192626953125
27.645751953125 5.1824951171875 5.453369140625
-0.234619140625 7.2041015625 12.689697265625
-19.45703125 6.0556640625 2.771484375
-25.030029296875 4.0240478515625 73.3603515625
-26.467041015625 2.2109375 62.584228515625
3.864013671875 1.716796875 -21.533447265625
12.526123046875 -10.240234375 104.55859375
16.3125 0.2501220703125 -27.3623046875
-27.628662109375 4.0970458984375 -33.44775390625
-11.740478515625 -0.1722412109375 -47.052490234375
6.565185546875 3.0242919921875 -10.8994140625
-0.99072265625 5.57177734375 35.07421875
-31.1875 2.8782958984375 65.994140625
43.006103515625 1.00732421875 -19.43359375
-5.0126953125 8.08544921875 13.110595703125
-14.31103515625 5.40966796875 -0.48681640625
-11.197265625 1.8182373046875 47.461181640625
35.9931640625 7.727783203125 17.481689453125
17.353515625 -1.5142822265625 -39.07861328125
14.478515625 5.782470703125 6.877685546875
23.25390625 5.703125 7.262939453125
28.02392578125 5.80908203125 9.486083984375
-27.036865234375 7.9541015625 -19.66064453125
15.058349609375 9.15576171875 31.326171875
16.15869140625 -9.564453125 103.550048828125
25.194580078125 7.72412109375 20.27392578125
-4.736572265625 4.411865234375 -6.329833984375
-13.73779296875 2.0108642578125 43.502685546875
26.032470703125 8.4239501953125 27.382080078125
22.177001953125 0.5479736328125 -25.89453125
-2.987060546875 1.1748046875 -27.823974609375
9.400390625 7.5963134765625 34.875
-0.5009765625 0.930908203125 -29.04833984375
18.725830078125 5.85693359375 6.332763671875
-5.906005859375 2.05908203125 -19.585693359375
-8.156005859375 6.11865234375 5.84912109375
3.628662109375 4.1400146484375 -7.437255859375
20.79052734375 1.387939453125 -22.47119140625
-6.62939453125 1.38330078125 53.362060546875
31.2548828125 5.316650390625 6.22509765625
40.86083984375 5.0833740234375 -10.884765625
-14.607666015625 3.3487548828125 -13.116943359375
11.230224609375 3.6658935546875 -8.51220703125
20.55712890625 9.8126220703125 18.527587890625
-13.17333984375 0.93212890625 -28.257080078125
25.176513671875 9.1015625 30.841796875
-26.026611328125 3.6673583984375 -17.086181640625
-5.45849609375 3.423828125 -12.45166015625
16.418701171875 4.6754150390625 0.502685546875
-1.302001953125 -0.3204345703125 -37.793212890625
0.707275390625 6.092041015625 8.375244140625
40.771484375 4.16455078125 -8.3701171875
-25.7197265625 1.5628662109375 57.73486328125
6.611572265625 0.8643798828125 -26.1513671875
-21.739501953125 1.36279296875 -27.77734375
7.35595703125 6.0628662109375 7.662109375
-25.50048828125 1.2216796875 -40.82373046875
12.22509765625 2.236083984375 -16.4375
-18.3623046875 -0.183349609375 -38.048828125
-29.306396484375 3.74267578125 70.894287109375
-3.777099609375 4.9693603515625 -1.643310546875
17.857177734375 1.5706787109375 -18.997314453125
-5.843505859375 3.661376953125 41.21435546875
-5.370849609375 6.343505859375 6.81640625
41.696044921875 -0.3218994140625 -29.208740234375
-3.2021484375 5.8126220703125 4.055908203125
-25.03466796875 5.906982421875 -0.60498046875
-4.398193359375 3.1195068359375 45.84521484375
33.239013671875 5.39111328125 8.28173828125
-11.54736328125 0.163330078125 -35.92724609375
-11.73779296875 1.8406982421875 61.508056640625
13.32421875 5.062255859375 2.308837890625
22.48974609375 6.5760498046875 12.177490234375
-27.1708984375 5.46044921875 -24.82568359375
21.77978515625 3.206787109375 -9.480224609375
13.966796875 2.9757080078125 -10.565185546875
21.97265625 2.3017578125 -15.785400390625
-23.2158203125 8.127685546875 2.73193359375
-4.120361328125 3.5906982421875 -10.228759765625
-14.94189453125 3.4951171875 73.482421875
29.965087890625 5.8226318359375 11.076904296875
0.4345703125 8.3070068359375 21.020263671875
32.25830078125 0.8985595703125 -22.373046875
-3.02392578125 2.5648193359375 50.9384765625
17.68212890625 2.4761962890625 -12.69677734375
-20.62548828125 0.1629638671875 47.271484375
21.509033203125 -0.495361328125 -32.345947265625
-23.0029296875 2.23193359375 -21.996337890625
2.004638671875 -0.29931640625 -36.51806640625
41.06787109375 3.95751953125 -1.25439453125
-7.20556640625 8.708251953125 26.224365234375
-10.001220703125 2.4495849609375 64.533935546875
6.076171875 1.4796142578125 -33.918212890625
-3.101806640625 8.313232421875 16.912353515625
44.811767578125 2.1417236328125 -9.90771484375
-8.154541015625 4.369873046875 -5.07177734375
6.53759765625 -0.6400146484375 -38.32373046875
-9.961669921875 3.5350341796875 -11.663818359375
20.864990234375 5.479248046875 7.479736328125
-15.860107421875 -0.19970703125 -36.900146484375
-7.739501953125 1.2874755859375 57.435302734375
16.02880859375 -1.2718505859375 -36.9013671875
-27.192626953125 5.9449462890625 -15.11279296875
7.21337890625 1.5909423828125 -22.719970703125
40.121826171875 -0.644775390625 -31.962158203125
-23.66796875 3.4638671875 69.60302734375
-11.816650390625 0.79638671875 -30.974853515625
-5.451904296875 7.23046875 21.3349609375
-26.08740234375 3.4267578125 69.725830078125
33.418701171875 5.26123046875 5.253662109375
28.919921875 7.3548583984375 19.7626953125
-17.803955078125 4.0775146484375 -9.8154296875
-6.999755859375 2.983154296875 44.7333984375
-2.79736328125 5.55908203125 33.545166015625
13.527587890625 1.900390625 -20.008544921875
-16.35302734375 6.1326904296875 63.457275390625
31.253662109375 7.242431640625 16.32275390625
-7.998046875 2.5845947265625 -18.230224609375
14.33203125 8.0516357421875 37.7626953125
-23.503173828125 4.103759765625 -9.293212890625
-13.021240234375 -0.8389892578125 -41.28173828125
7.83837890625 6.24609375 46.78759765625
46.4638671875 1.9107666015625 -8.008056640625
-14.365966796875 3.01318359375 66.49658203125
-24.346435546875 5.5635986328125 1.6171875
24.161865234375 2.6392822265625 -12.4306640625
2.325927734375 1.3472900390625 -24.623046875
29.712158203125 0.3819580078125 -25.007080078125
22.92431640625 8.118896484375 20.624755859375
-1.76171875 7.611328125 21.372802734375
-2.025634765625 6.912353515625 14.14404296875
-14.315185546875 0.673095703125 52.84130859375
-7.510498046875 6.9678955078125 10.94970703125
23.7685546875 8.8155517578125 27.71337890625
-2.84228515625 4.513671875 40.945556640625
14.3974609375 -18.9134521484375 97.65966796875
-15.279296875 -0.810302734375 -45.70263671875
-15.06396484375 6.1580810546875 4.87646484375
-26.565185546875 4.4715576171875 -13.24609375
24.863037109375 -0.66552734375 -32.460205078125
-8.1123046875 -0.95263671875 -46.125732421875
-14.35986328125 3.6090087890625 37.18310546875
2.11865234375 5.6484375 37.412353515625
10.993896484375 1.269775390625 -23.51953125
-8.44140625 4.5546875 32.757568359375
35.6484375 4.770751953125 4.943115234375
-19.71435546875 4.1474609375 67.758544921875
10.444580078125 -0.6741943359375 -36.263671875
9.625244140625 8.4140625 22.55712890625
2.59716796875 3.8646240234375 49.447265625
16.95751953125 0.3836669921875 -25.17626953125
29.104736328125 5.3717041015625 7.1904296875
24.16455078125 3.806640625 -4.83935546875
-15.6953125 0.9913330078125 -28.4169921875
-3.691650390625 1.7457275390625 53.79736328125
16.46337890625 6.8822021484375 14.7958984375
42.191162109375 4.6416015625 3.00732421875
19.14892578125 0.1544189453125 -28.8056640625
31.7626953125 7.613037109375 22.324462890625
21.6044921875 8.426025390625 23.987548828125
-3.60791015625 4.4254150390625 -3.939453125
-23.089111328125 2.9775390625 -16.84716796875
45.8857421875 -0.4708251953125 -28.612060546875
31.89990234375 2.6490478515625 -11.631591796875
-18.5478515625 6.57958984375 7.84814453125
43.248046875 2.799072265625 -7.909912109375
19.2783203125 5.9658203125 8.9921875
9.597900390625 6.9818115234375 38.325439453125
5.022705078125 3.5147705078125 -9.3466796875
17.480224609375 6.293701171875 10.66650390625
33.971435546875 7.362060546875 18.521240234375
10.73876953125 6.0780029296875 7.525390625
-16.674072265625 2.386474609375 62.860107421875
-5.49658203125 2.72216796875 -14.59521484375
44.44482421875 -0.5537109375 -24.149658203125
2.240234375 8.361572265625 23.513427734375
-21.63720703125 3.2752685546875 -14.307861328125
-28.1484375 5.4368896484375 75.3251953125
44.58056640625 3.99169921875 0.159423828125
-3.708251953125 0.269287109375 -32.62255859375
-0.656494140625 2.911865234375 50.7216796875
5.307373046875 5.8408203125 40.61328125
19.77294921875 3.3468017578125 -8.557373046875
0.806396484375 5.968505859375 5.458251953125
-3.33154296875 -0.904541015625 -38.440673828125
-15.60546875 -0.835693359375 -41.86865234375
-9.294189453125 2.1829833984375 45.13720703125
14.99853515625 6.374755859375 9.326171875
8.869873046875 6.42578125 10.69775390625
30.2724609375 2.6583251953125 -9.8193359375
37.573974609375 -0.85791015625 -31.609130859375
-23.83984375 7.7950439453125 79.568359375
34.833984375 1.65380859375 -17.257568359375
-1.807861328125 5.9957275390625 5.733642578125
13.147216796875 8.021240234375 35.923095703125
38.45849609375 1.7613525390625 -15.98193359375
-25.009521484375 1.8818359375 -26.720703125
-15.912841796875 0.5830078125 -32.15625
0.130615234375 1.2862548828125 -31.110107421875
-18.97998046875 1.7603759765625 59.226806640625
-11.521728515625 4.144775390625 33.385986328125
5.457763671875 7.383056640625 17.679443359375
-2.562255859375 7.19921875 24.7626953125
13.189697265625 7.897705078125 20.21337890625
-15.998291015625 2.238037109375 -21.309814453125
5.677001953125 2.68017578125 -13.305908203125
45.81787109375 0.9677734375 -12.970458984375
-13.1455078125 2.8677978515625 -14.64794921875
22.132568359375 5.0364990234375 3.107177734375
-2.4208984375 6.902099609375 10.9599609375
-7.488525390625 5.08740234375 -2.300537109375
12.050537109375 2.965087890625 -12.12646484375
4.787109375 6.6494140625 36.31396484375
-5.671142578125 -0.5150146484375 -36.812255859375
9.27783203125 3.8028564453125 -7.603515625
24.08154296875 8.707275390625 16.932861328125
12.665283203125 7.4185791015625 39.659423828125
25.380859375 2.1600341796875 -16.40087890625
43.01318359375 2.2286376953125 -12.18798828125
-31.514404296875 3.8433837890625 70.887939453125
28.930908203125 1.3629150390625 -19.35693359375
6.9345703125 4.3370361328125 -4.189697265625
-1.08251953125 1.6097412109375 -20.401611328125
-20.656005859375 3.52294921875 70.10498046875
-14.37744140625 7.5838623046875 10.6220703125
-12.599365234375 6.2530517578125 7.4775390625
13.446044921875 4.11962890625 -4.296875
5.58349609375 4.9298095703125 45.94775390625
11.861572265625 -0.438720703125 -33.493896484375
36.7900390625 4.3726806640625 -9.130615234375
3.00830078125 7.5987548828125 18.711181640625
-24.766845703125 2.808349609375 65.552490234375
33.303955078125 -1.0311279296875 -34.605712890625
17.779296875 8.591064453125 23.66796875
-10.187255859375 6.9556884765625 12.23876953125
1.89208984375 6.65771484375 10.474609375
37.706298828125 0.2120361328125 -26.904052734375
30.24267578125 2.253662109375 -14.23291015625
-11.800048828125 4.5487060546875 -5.269775390625
46.79150390625 1.22021484375 -23.501953125
36.2392578125 4.4425048828125 2.29541015625
-26.46044921875 1.345703125 -33.702392578125
-24.116455078125 -0.0650634765625 -36.855712890625
-8.970947265625 3.16455078125 -13.4951171875
-9.41455078125 1.1519775390625 53.270751953125
5.16845703125 5.7174072265625 4.93994140625
21.588623046875 9.478759765625 30.778564453125
-7.8798828125 3.48876953125 40.33642578125
8.515869140625 5.0279541015625 2.655517578125
19.44287109375 9.7520751953125 35.392333984375
2.274658203125 6.49658203125 33.2587890625
10.44921875 6.45263671875 42.84326171875
-13.22998046875 1.2291259765625 48.1220703125
28.520263671875 4.1456298828125 -2.028076171875
-21.6728515625 7.9737548828125 4.91650390625
16.493896484375 0.735595703125 -23.03955078125
-8.211669921875 1.9278564453125 50.658203125
-26.72802734375 5.790283203125 -5.48828125
-14.687744140625 7.4964599609375 -4.206298828125
-10.473388671875 5.7547607421875 29.441162109375
-14.87158203125 1.98193359375 41.7421875
-8.414794921875 1.0184326171875 -28.8779296875
23.084716796875 11.0302734375 15.904541015625
-11.250244140625 8.641845703125 11.512939453125
-6.50146484375 4.2777099609375 35.718505859375
-24.281982421875 0.9583740234375 52.5283203125
21.73779296875 8.2757568359375 14.247802734375
13.832275390625 0.5787353515625 -26.218505859375
-13.916748046875 0.5755615234375 -32.758544921875
-3.153564453125 6.07080078125 7.3232421875
-14.63671875 6.6553955078125 7.32958984375
-16.04052734375 1.5478515625 57.20947265625
-11.813720703125 6.6373291015625 -5.263916015625
-12.1884765625 -0.9288330078125 -44.829833984375
-4.3583984375 5.2314453125 32.044189453125
3.92529296875 2.807861328125 -14.486083984375
41.135498046875 5.2742919921875 6.750732421875
-2.134033203125 6.6429443359375 26.696044921875
-22.13330078125 0.7176513671875 -33.302001953125
23.30419921875 9.1436767578125 29.702392578125
-6.822509765625 5.277099609375 31.726806640625
-10.5009765625 6.3948974609375 7.352294921875
-11.67724609375 3.306396484375 37.953369140625
46.799072265625 3.633544921875 -3.779541015625
1.40966796875 1.4520263671875 -35.512451171875
16.466796875 -0.0029296875 -32.001953125
19.434326171875 6.265869140625 11.251953125
-5.679931640625 1.05078125 -29.36767578125
42.965576171875 0.1317138671875 -22.677978515625
-7.3984375 8.32763671875 22.703125
-16.841552734375 0.4031982421875 49.56103515625
5.790283203125 0.42236328125 -30.6484375
34.85888671875 2.4537353515625 -14.533447265625
11.781005859375 1.5411376953125 -20.98291015625
-1.4541015625 5.967529296875 31.37744140625
44.300048828125 4.5029296875 2.101806640625
8.111572265625 3.0772705078125 -12.2099609375
-5.5498046875 1.4466552734375 -25.044677734375
3.526611328125 -1.0908203125 -41.660400390625
1.67236328125 25.4532470703125 72.228515625
29.292724609375 3.3563232421875 -5.5869140625
9.66259765625 7.38427734375 15.2626953125
19.7744140625 -1.194091796875 -37.9111328125
28.554443359375 7.7679443359375 21.705322265625
4.300048828125 4.4300537109375 -3.427001953125
18.257080078125 1.651123046875 -21.81005859375
-5.8759765625 6.59326171875 8.885009765625
-27.279052734375 7.1712646484375 -31.175537109375
41.693359375 3.94580078125 -12.3251953125
0.953369140625 5.61865234375 35.602783203125
-27.13525390625 6.22998046875 -20.737548828125
-26.767822265625 8.231201171875 2.07421875
6.06591796875 6.2283935546875 37.804443359375
-23.30078125 4.0498046875 74.38134765625
-23.027587890625 4.660888671875 -6.388671875
-21.245849609375 6.0015869140625 78.822998046875
-24.1298828125 0.6646728515625 -33.15625
1.5751953125 3.181396484375 -12.954345703125
4.60595703125 7.9879150390625 28.310791015625
-0.768798828125 4.36767578125 44.253662109375
-15.484619140625 2.866455078125 -17.891845703125
2.544189453125 0.847412109375 -26.541748046875
17.2587890625 0.2725830078125 -29.42919921875
2.739501953125 5.0576171875 0.515380859375
47.9423828125 3.81982421875 0.72900390625
-18.32568359375 5.0380859375 63.804931640625
-16.580078125 0.7999267578125 52.41162109375
-25.931884765625 8.4267578125 78.43408203125
43.576171875 1.19140625 -16.144775390625
11.226318359375 8.9483642578125 26.885498046875
14.56689453125 5.6982421875 4.898681640625
18.21728515625 8.6171875 26.353515625
32.730712890625 4.2838134765625 -0.0380859375
40.041259765625 4.6553955078125 2.97509765625
-27.196044921875 8.2867431640625 -10.355224609375
32.46923828125 4.7880859375 1.879638671875
21.374267578125 0.09765625 -30.469482421875
13.163818359375 0.2733154296875 -30.378662109375
45.7734375 4.63330078125 3.404296875
11.898193359375 8.04541015625 21.694580078125
43.107421875 3.8616943359375 -1.141357421875
26.9248046875 2.81494140625 -9.789306640625
23.520263671875 -0.2493896484375 -28.292724609375
19.391357421875 2.88232421875 -10.689208984375
12.853759765625 1.154541015625 -22.8935546875
9.247802734375 7.9677734375 20.5146484375
-11.682373046875 3.94873046875 -8.00048828125
-27.16845703125 7.6231689453125 -3.2255859375
-23.6396484375 0.6490478515625 -40.5771484375
38.994140625 3.758056640625 -4.273681640625
-17.7109375 4.789306640625 67.579833984375
-21.3173828125 1.8543701171875 59.7197265625
-9.950927734375 2.515625 43.010498046875
24.208984375 3.0396728515625 -8.056884765625
-16.51806640625 3.610595703125 72.326171875
16.0810546875 1.8717041015625 -18.233154296875
-10.879150390625 2.951171875 67.757568359375
-27.469482421875 3.885986328125 -29.888427734375
29.16650390625 2.2550048828125 -17.3056640625
36.169921875 1.2906494140625 -20.351318359375
-14.296630859375 4.44873046875 65.0390625
38.93994140625 -0.81005859375 -30.217041015625
36.83447265625 4.09521484375 -12.6298828125
37.595703125 -0.0452880859375 -28.834228515625
14.961181640625 8.7945556640625 34.36279296875
22.22900390625 8.5498046875 26.07861328125
-10.91845703125 3.791748046875 36.033935546875
-10.51513671875 -1.074951171875 -43.11474609375
-3.70751953125 6.79541015625 9.203369140625
-13.4736328125 0.7086181640625 50.682861328125
-21.052001953125 2.2437744140625 62.517578125
-22.626953125 2.5377197265625 64.352783203125
4.826416015625 2.1849365234375 -18.194580078125
24.642822265625 8.037109375 22.818603515625
-19.517822265625 0.8389892578125 -31.79150390625
29.8271484375 0.1103515625 -29.123779296875
18.001220703125 -0.818603515625 -36.614013671875
26.776123046875 6.04443359375 10.9453125
26.4970703125 -0.332763671875 -30.32861328125
8.51416015625 -0.7919921875 -39.336181640625
-5.320556640625 3.1944580078125 43.012939453125
15.546142578125 -7.0025634765625 105.414306640625
-27.371337890625 1.610107421875 56.662109375
-17.904052734375 1.42626953125 -26.404296875
7.33837890625 6.90234375 12.178955078125
22.37451171875 1.65576171875 -20.826416015625
-12.11474609375 6.802001953125 -7.15869140625
37.928955078125 4.731201171875 3.408447265625
5.551025390625 6.1678466796875 7.005126953125
32.402099609375 6.0494384765625 10.869873046875
16.354248046875 9.01123046875 29.873291015625
0.40966796875 4.26953125 -6.87646484375
38.206298828125 7.57763671875 15.0849609375
5.993896484375 5.553955078125 43.218505859375
25.207763671875 0.208984375 -25.218994140625
12.673583984375 2.44091796875 -18.292724609375
-18.34765625 5.581787109375 80.857421875
-11.374267578125 6.828125 9.026611328125
40.24951171875 0.845947265625 -22.70361328125
-22.9091796875 -0.7677001953125 -38.718017578125
-12.292236328125 0.2177734375 -33.996826171875
-13.097900390625 0.772705078125 54.517333984375
23.263427734375 5.866455078125 9.1689453125
-13.909423828125 6.8463134765625 -8.231689453125
0.203125 4.961669921875 -2.13818359375
27.1201171875 2.7408447265625 -12.404296875
38.386962890625 1.3961181640625 -19.41796875
45.328369140625 0.975830078125 -14.81640625
-11.758544921875 5.620849609375 3.000732421875
27.96630859375 3.3076171875 -6.95703125
2.307861328125 8.283447265625 21.608642578125
14.384521484375 1.3577880859375 -21.73046875
17.513427734375 8.21875 21.52685546875
31.025390625 3.93505859375 -1.606689453125
-5.133056640625 0.0848388671875 -34.318359375
16.0126953125 -0.601806640625 -35.12548828125
19.07177734375 9.305419921875 33.353759765625
11.716552734375 0.9212646484375 -28.370849609375
9.370361328125 7.3104248046875 17.365478515625
20.35009765625 1.8013916015625 -19.86376953125
-1.846923828125 5.201171875 2.205078125
35.619873046875 3.973876953125 -3.7958984375
22.765625 4.73095703125 -0.055908203125
0.702392578125 3.7802734375 47.988525390625
1.30810546875 6.6173095703125 31.2880859375
-8.92431640625 3.9078369140625 36.48291015625
10.76416015625 6.2384033203125 9.40380859375
26.135986328125 2.3714599609375 -14.30859375
-3.33544921875 4.3262939453125 36.6201171875
16.650634765625 9.438232421875 32.42919921875
12.9345703125 2.868896484375 -8.48876953125
10.874755859375 -16.5411376953125 100.150146484375
16.48388671875 2.5064697265625 -14.1435546875
9.2431640625 8.611328125 29.3251953125
8.842529296875 6.2659912109375 8.826904296875
3.604736328125 2.0770263671875 -35.989990234375
13.61474609375 6.5093994140625 11.381591796875
-6.845458984375 0.5380859375 -31.031982421875
0.8388671875 5.0872802734375 -0.043701171875
27.72802734375 7.383544921875 18.318359375
-22.10791015625 5.189208984375 -1.280517578125
8.70751953125 4.9178466796875 -0.8515625
-2.63037109375 3.545654296875 46.290283203125
32.707763671875 0.0609130859375 -29.536865234375
42.8740234375 4.8973388671875 6.125
15.122802734375 4.6268310546875 -0.845703125
34.154296875 6.52001953125 13.358154296875
9.777099609375 1.6236572265625 -20.494873046875
-19.256591796875 2.9599609375 -17.411865234375
11.234375 6.9677734375 14.23388671875
11.30615234375 8.3443603515625 31.856689453125
-2.63232421875 2.1470947265625 -17.825439453125
-0.952880859375 4.4525146484375 -3.798583984375
29.012451171875 8.0150146484375 26.752685546875
7.581787109375 5.474853515625 4.3818359375
-28.841064453125 2.0155029296875 59.303466796875
-17.756103515625 4.353759765625 76.8232421875
41.52978515625 4.847412109375 4.738037109375
15.082763671875 7.8140869140625 20.365234375
25.169677734375 8.9443359375 28.985595703125
-1.71533203125 -0.40966796875 -34.41015625
12.720458984375 0.90576171875 -24.76171875
-6.294677734375 -1.070556640625 -45.5390625
-7.11376953125 2.1690673828125 48.743896484375
12.095703125 -0.94921875 -35.45556640625
-14.059814453125 -0.3612060546875 -37.32470703125
-29.51318359375 2.633056640625 62.811279296875
7.6083984375 -1.145263671875 -41.807373046875
36.10107421875 0.74853515625 -25.81591796875
21.24267578125 2.4310302734375 -13.9462890625
11.143798828125 6.690185546875 11.472900390625
0.15185546875 1.27587890625 -23.94189453125
28.223388671875 0.75439453125 -26.5087890625
-0.3662109375 9.16650390625 12.368408203125
20.295166015625 8.7305908203125 27.324951171875
-5.11181640625 6.69677734375 24.721923828125
16.201904296875 -14.2298583984375 98.801513671875
-10.818115234375 -0.65087890625 -41.084716796875
29.189697265625 1.238037109375 -23.060546875
39.627685546875 5.681396484375 -12.11181640625
20.97216796875 3.3167724609375 -7.10888671875
15.693603515625 8.576171875 24.113037109375
-13.85791015625 1.5367431640625 -26.662841796875
21.999755859375 10.294189453125 17.19140625
6.065673828125 6.9893798828125 34.215576171875
-16.369140625 4.275146484375 -8.688720703125
-17.044677734375 1.9659423828125 60.98388671875
8.94921875 2.5428466796875 -13.898681640625
17.0458984375 3.4449462890625 -7.765625
-9.65966796875 1.1846923828125 -27.261474609375
-8.27685546875 1.5206298828125 59.78515625
2.553466796875 6.3345947265625 35.07568359375
-10.068603515625 2.5704345703125 -17.127685546875
8.614501953125 6.0108642578125 42.39599609375
-26.96875 3.845703125 -18.64404296875
10.239501953125 3.1376953125 -12.304931640625
-20.333984375 0.8160400390625 -29.800048828125
27.371337890625 2.0611572265625 -16.320556640625
11.459716796875 3.1689453125 -10.41015625
-0.344482421875 6.1968994140625 6.8857421875
-24.56591796875 9.5753173828125 2.254150390625
24.47216796875 1.0760498046875 -21.10498046875
22.460205078125 7.9051513671875 22.37646484375
-8.26171875 -0.5595703125 -38.4384765625
-15.203857421875 0.339599609375 51.121826171875
-13.453369140625 3.9541015625 -10.05029296875
29.971923828125 -0.48779296875 -31.014892578125
-8.43994140625 5.51025390625 -0.060791015625
-11.48046875 2.283935546875 -20.24951171875
-20.766357421875 4.2794189453125 -9.34521484375
8.055419921875 -0.2174072265625 -34.149169921875
4.265380859375 1.09521484375 -27.070068359375
23.3994140625 1.7015380859375 -16.73486328125
16.426513671875 8.77685546875 26.109619140625
30.177001953125 -0.5701904296875 -33.718994140625
-24.101806640625 2.0927734375 60.780517578125
2.70361328125 4.69189453125 -4.244873046875
-27.404296875 7.9998779296875 -12.560302734375
-16.016357421875 5.138671875 82.271728515625
-15.68115234375 6.989013671875 -7.879638671875
34.508056640625 -0.20361328125 -29.28515625
41.12158203125 5.4415283203125 8.696533203125
-11.78857421875 3.62646484375 -11.75
0.898681640625 7.8997802734375 24.79150390625
-14.334716796875 2.83740234375 -16.49462890625
2.416259765625 4.4166259765625 45.1826171875
43.326171875 -0.864990234375 -30.31298828125
5.54443359375 7.8077392578125 29.864013671875
-17.4599609375 6.2901611328125 -3.69189453125
14.637939453125 3.16650390625 -7.9609375
-23.430908203125 0.0960693359375 51.18798828125
-12.778076171875 2.59130859375 40.567626953125
6.43798828125 2.464111328125 -17.132568359375
-18.419921875 5.35400390625 -6.177978515625
4.027587890625 6.843505859375 11.326416015625
14.841552734375 2.775634765625 -14.967529296875
-24.895751953125 2.96728515625 -18.343017578125
18.12255859375 9.2359619140625 28.53759765625
-19.5283203125 3.655029296875 -10.677001953125
-17.28564453125 2.4268798828125 -18.207763671875
-16.02783203125 -0.2120361328125 -43.5048828125
37.67724609375 5.4649658203125 7.7333984375
29.64501953125 4.8203125 2.177978515625
13.63330078125 7.5692138671875 18.218505859375
32.788330078125 0.6044921875 -24.068115234375
-5.08544921875 5.5572509765625 30.363525390625
-10.990966796875 1.2060546875 57.914306640625
40.541259765625 0.14697265625 -26.72998046875
31.963134765625 1.5242919921875 -18.879638671875
11.705078125 8.584716796875 23.955078125
33.9326171875 1.1220703125 -21.758056640625
-10.138427734375 6.8759765625 10.3310546875
36.699951171875 6.212158203125 12.35107421875
-16.15869140625 6.3818359375 6.279296875
9.5771484375 0.0947265625 -31.488037109375
-14.771728515625 2.5369873046875 64.220947265625
11.093505859375 -1.0482177734375 -40.628173828125
13.3955078125 8.854736328125 30.741455078125
21.52978515625 4.968994140625 1.426025390625
-18.4150390625 6.574951171875 5.864501953125
-1.49365234375 3.555419921875 -10.55908203125
34.885009765625 5.61767578125 8.93408203125
-5.23828125 2.6209716796875 48.221435546875
-3.567626953125 3.3912353515625 -11.9140625
26.36474609375 7.213623046875 16.053955078125
-11.559814453125 1.115478515625 -29.238037109375
-14.17138671875 3.522705078125 71.8759765625
9.3388671875 4.0279541015625 -5.235595703125
-7.404052734375 -0.2752685546875 -36.481689453125
33.072021484375 1.4136962890625 -17.3095703125
-28.7060546875 2.9830322265625 65.796142578125
19.44775390625 4.1019287109375 -2.6962890625
-28.441162109375 7.1087646484375 74.802978515625
29.26953125 4.3548583984375 0.045166015625
24.709716796875 6.0546875 10.895263671875
-23.491455078125 4.910888671875 -4.31884765625
-1.6435546875 4.78369140625 38.470458984375
-19.778564453125 0.5220947265625 -33.51708984375
27.103271484375 -0.613037109375 -32.6123046875
39.84033203125 3.9879150390625 -2.732421875
-26.893310546875 8.6485595703125 -8.241943359375
25.030029296875 1.7518310546875 -18.092529296875
34.312255859375 3.256591796875 -6.931396484375
33.421630859375 1.8253173828125 -15.604248046875
-8.296142578125 2.5936279296875 46.809814453125
22.1005859375 9.523193359375 32.93359375
36.912109375 5.5880126953125 9.528564453125
-20.656982421875 0.2484130859375 49.03662109375
-3.64013671875 2.956298828125 49.2275390625
-19.12841796875 0.7567138671875 53.06689453125
-20.121337890625 4.544677734375 -4.913330078125
-20.9453125 -0.0897216796875 -36.61962890625
26.109130859375 8.2845458984375 24.987548828125
45.08740234375 2.602783203125 -7.149169921875
31.289306640625 1.8458251953125 -15.59228515625
4.901611328125 4.496826171875 -1.771240234375
28.82275390625 2.3599853515625 -13.068115234375
36.514892578125 2.443603515625 -16.37646484375
44.8310546875 1.967529296875 -11.908203125
17.824462890625 8.2950439453125 19.417724609375
-3.77587890625 0.906494140625 -30.335205078125
-20.70654296875 4.268310546875 74.998046875
38.810791015625 2.7408447265625 -14.009521484375
-30.0849609375 3.739013671875 73.763671875
19.838623046875 9.0576171875 29.306884765625
24.79248046875 4.926513671875 2.902587890625
6.39013671875 4.698974609375 -0.612548828125
15.37109375 7.18896484375 16.13623046875
20.7470703125 -0.7095947265625 -34.460205078125
-20.045654296875 4.9849853515625 77.891845703125
19.022216796875 -0.384033203125 -34.224365234375
-12.687255859375 3.4071044921875 36.5234375
-27.436279296875 5.640380859375 -27.278564453125
6.858642578125 1.189208984375 -24.38720703125
-23.790771484375 6.7103271484375 4.64404296875
14.032470703125 0.5628662109375 -28.385986328125
-5.28466796875 4.323486328125 37.01318359375
-12.457763671875 5.351318359375 32.368408203125
18.5947265625 7.4964599609375 15.02685546875
-8.516845703125 1.844970703125 -23.136962890625
-16.31201171875 0.128173828125 -34.251708984375
-18.101318359375 0.135498046875 -36.31201171875
16.51318359375 -8.254638671875 104.6748046875
19.267333984375 4.9893798828125 3.48486328125
35.0224609375 4.47265625 0.827880859375
-17.409423828125 0.477294921875 -31.264404296875
-16.505615234375 1.053955078125 55.387939453125
-21.108642578125 3.035888671875 -16.950439453125
-10.266357421875 3.0579833984375 -15.259765625
-23.999267578125 1.4884033203125 57.478759765625
-5.530517578125 1.355224609375 54.7119140625
32.88623046875 6.7547607421875 14.81494140625
-20.511962890625 1.4361572265625 58.234619140625
26.20068359375 4.0028076171875 -1.869140625
-1.71728515625 0.24560546875 -32.673828125
27.435302734375 6.782470703125 13.788330078125
3.311279296875 4.01220703125 -5.72412109375
0.350830078125 5.401611328125 2.50927734375
41.503662109375 7.59033203125 11.62646484375
7.6943359375 7.283203125 34.798583984375
19.169677734375 2.449951171875 -13.938232421875
43.753173828125 4.789794921875 3.749755859375
-11.547607421875 4.8597412109375 -3.5810546875
-9.06982421875 3.9742431640625 -7.873046875
29.968017578125 6.701171875 15.15185546875
-2.052734375 7.6788330078125 18.137939453125
24.920166015625 5.334716796875 6.65087890625
-30.023193359375 2.8013916015625 64.68408203125
14.063232421875 8.23486328125 22.572998046875
15.1708984375 -23.2950439453125 99.323974609375
-19.410888671875 1.185546875 55.670166015625
10.307861328125 -0.92626953125 -38.15673828125
-2.413330078125 -0.8231201171875 -40.036865234375
18.110107421875 6.419677734375 12.775146484375
46.19873046875 4.03173828125 -0.603515625
15.9921875 2.7904052734375 -12.504638671875
28.034423828125 6.8489990234375 15.46142578125
6.546630859375 6.217041015625 39.468017578125
-24.777099609375 3.6488037109375 71.69189453125
-20.55859375 0.46044921875 51.133544921875
16.7099609375 2.9373779296875 -10.903564453125
19.275634765625 3.629638671875 -6.9267578125
5.02783203125 1.0977783203125 -35.237548828125
-22.927978515625 1.2806396484375 55.791748046875
17.525146484375 4.3599853515625 -0.885009765625
10.258056640625 5.4456787109375 4.0986328125
29.97216796875 7.89697265625 22.98486328125
1.720703125 0.6236572265625 -28.041748046875
13.08544921875 2.5223388671875 -14.46826171875
16.375 5.53125 5.107177734375
28.76123046875 8.5037841796875 28.595458984375
4.686279296875 1.940185546875 -20.035888671875
3.817138671875 -1.030029296875 -36.62890625
-18.5166015625 3.34423828125 62.7958984375
37.214599609375 4.4140625 -0.168212890625
-5.53515625 3.656494140625 -8.04541015625
-21.129150390625 0.4012451171875 -34.72705078125
4.883544921875 3.272705078125 -11.1689453125
1.967529296875 -0.471435546875 -38.49267578125
-24.749755859375 4.3656005859375 75.254638671875
-6.3134765625 7.4879150390625 12.070068359375
14.682373046875 9.2469482421875 29.545654296875
-12.609375 5.6363525390625 -2.427978515625
-27.293212890625 7.822509765625 -17.9658203125
7.12646484375 5.5260009765625 44.603515625
-0.627197265625 -1.2244873046875 -42.92578125
8.7509765625 2.06884765625 -18.137451171875
-13.17529296875 1.6090087890625 45.687744140625
28.943603515625 3.338134765625 -8.97119140625
-15.205810546875 1.3857421875 44.40185546875
7.73681640625 7.1456298828125 32.484130859375
32.79150390625 0.4290771484375 -26.0791015625
-15.658935546875 6.0938720703125 3.2685546875
3.106689453125 2.58544921875 -15.977294921875
25.79052734375 0.7774658203125 -23.708984375
-4.33984375 6.0404052734375 5.481201171875
25.765869140625 6.5982666015625 14.126708984375
14.8798828125 8.708740234375 27.29443359375
-0.6982421875 4.97021484375 0.765625
3.60302734375 2.3985595703125 -31.4794921875
-22.1416015625 1.5396728515625 57.555908203125
-22.443603515625 1.22021484375 -29.330322265625
25.6083984375 4.2679443359375 0.30517578125
6.2158203125 8.2735595703125 21.754150390625
15.48828125 6.3629150390625 11.067138671875
-7.504150390625 -1.2711181640625 -42.13330078125
-4.088134765625 -1.1138916015625 -40.50732421875
-26.527587890625 6.3836669921875 -7.340087890625
8.142333984375 1.999755859375 -19.82666015625
22.633056640625 3.7679443359375 -4.0830078125
-3.767578125 3.982666015625 -8.60400390625
9.987060546875 7.66015625 36.4775390625
-23.059326171875 2.8914794921875 -18.80615234375
-8.947265625 2.2283935546875 -20.06689453125
22.305419921875 4.2509765625 -1.6279296875
-17.876953125 3.140869140625 -15.7529296875
-1.818115234375 2.3681640625 -16.342529296875
-5.973388671875 -1.010498046875 -40.5361328125
8.548095703125 7.826171875 18.96630859375
-13.246337890625 -0.1402587890625 -35.8427734375
-15.177978515625 4.7938232421875 -7.58544921875
-30.11962890625 3.4344482421875 68.77392578125
23.53466796875 9.4569091796875 31.395263671875
-27.081787109375 8.87890625 -0.480712890625
7.008056640625 5.671142578125 6.0419921875
-6.08447265625 0.4842529296875 -32.964111328125
3.325927734375 6.999267578125 14.00927734375
35.58154296875 0.7166748046875 -21.875732421875
7.261962890625 6.9835205078125 14.12109375
-2.117431640625 -0.326171875 -36.299560546875
4.0673828125 6.2203369140625 38.19921875
-5.457763671875 1.7796630859375 -21.2021484375
-26.626953125 5.6455078125 -9.86181640625
-19.182373046875 4.0994873046875 75.755615234375
-9.6875 5.4625244140625 -1.37158203125
-16.881103515625 7.9559326171875 7.8369140625
-23.232177734375 3.2261962890625 67.795166015625
-5.998046875 1.1961669921875 57.649658203125
-12.092529296875 7.4896240234375 12.434814453125
-19.31884765625 2.798095703125 -19.291259765625
5.79345703125 6.4814453125 8.70556640625
17.046630859375 4.265869140625 -4.11572265625
-4.364990234375 4.947998046875 35.422119140625
5.5185546875 1.403076171875 -21.740478515625
2.984375 5.574462890625 5.07470703125
-25.849365234375 1.6055908203125 -28.623779296875
0.97607421875 3.42626953125 -10.258544921875
19.921142578125 4.74560546875 0.791748046875
-6.82421875 3.3004150390625 -13.681396484375
2.572265625 5.2537841796875 41.090087890625
-0.271728515625 4.6385498046875 42.5537109375
-3.839111328125 7.3895263671875 11.89990234375
9.92919921875 8.8406982421875 25.115234375
-27.4375 8.5894775390625 77.678466796875
42.44580078125 0.0745849609375 -25.020751953125
-20.613037109375 5.5013427734375 0.71533203125
-26.878662109375 7.538818359375 0.531494140625
43.972900390625 0.509765625 -20.72900390625
-3.403564453125 2.73681640625 -15.693359375
-18.7119140625 1.057861328125 -30.32373046875
-0.5830078125 -0.941162109375 -39.439453125
-11.80517578125 -0.1578369140625 -37.676513671875
-22.43017578125 2.0050048828125 60.99609375
12.297607421875 8.648681640625 25.58251953125
9.19091796875 0.67919921875 -26.914306640625
-19.25830078125 3.779296875 -12.35888671875
-26.494384765625 4.6292724609375 -11.396484375
5.732421875 7.7518310546875 19.799072265625
-3.06494140625 -1.615234375 -43.96044921875
-27.56884765625 4.7901611328125 -31.30712890625
-14.72265625 1.954833984375 62.23583984375
-12.23583984375 -0.8343505859375 -42.77197265625
5.1962890625 8.291748046875 26.022216796875
-18.18994140625 1.83837890625 -24.4384765625
5.112060546875 6.9954833984375 16.078857421875
-16.778564453125 1.562744140625 43.659912109375
-9.260498046875 1.956787109375 63.107421875
34.40673828125 3.103271484375 -9.465087890625
2.451904296875 6.46484375 8.83642578125
-0.58203125 6.8175048828125 11.091552734375
-20.12744140625 4.4029541015625 -7.28662109375
-1.01904296875 7.3795166015625 16.830322265625
12.39794921875 5.673583984375 5.936767578125
23.240234375 -0.2601318359375 -32.326416015625
-12.941650390625 7.790283203125 -5.724853515625
11.859619140625 7.6317138671875 16.57421875
-12.427001953125 1.9287109375 -22.0810546875
34.4755859375 3.800048828125 -2.162841796875
40.31494140625 4.147216796875 1.044189453125
24.090087890625 8.318603515625 18.560791015625
-17.3232421875 1.6153564453125 59.03857421875
3.95947265625 2.9735107421875 -12.56787109375
41.958984375 1.7255859375 -15.080078125
25.4853515625 2.6876220703125 -11.064697265625
6.908447265625 -1.0086669921875 -39.913330078125
-23.145263671875 3.63330078125 -13.67822265625
-16.403076171875 0.84765625 -29.981689453125
21.745849609375 -0.625732421875 -36.086669921875
-19.2177734375 3.282470703125 70.92236328125
28.048095703125 8.041259765625 23.274658203125
-5.8583984375 4.8465576171875 -2.022705078125
42.169921875 3.2086181640625 -6.55322265625
22.54052734375 5.5574951171875 5.6728515625
-3.7919921875 1.1661376953125 -26.363037109375
-26.44580078125 4.463134765625 -15.27685546875
46.32470703125 4.345458984375 1.751953125
0.544677734375 3.2735595703125 49.623779296875
-22.7900390625 5.8514404296875 2.136962890625
-9.889892578125 1.1593017578125 51.67431640625
26.639892578125 1.7396240234375 -19.93017578125
-20.495849609375 4.8704833984375 -2.9267578125
31.348876953125 0.89013671875 -20.87060546875
-5.859619140625 2.224365234375 -17.676513671875
39.906982421875 1.8265380859375 -15.164306640625
36.253173828125 0.148193359375 -27.713134765625
26.92919921875 5.0357666015625 3.85302734375
-13.28662109375 5.974365234375 3.595947265625
-1.82470703125 5.0166015625 36.599609375
-19.859619140625 2.0682373046875 -24.14013671875
38.38818359375 -0.9332275390625 -33.054443359375
-27.27685546875 4.9373779296875 -23.002685546875
-5.240966796875 4.479248046875 38.775390625
-13.390869140625 6.0379638671875 6.03564453125
-14.763916015625 3.1114501953125 -14.906494140625
-13.027099609375 2.8765869140625 70.37353515625
0.6279296875 5.1094970703125 39.205810546875
-12.990966796875 3.105712890625 -12.85595703125
-22.13427734375 4.0992431640625 -10.994873046875
15.215087890625 3.99267578125 -3.10107421875
11.503662109375 4.522705078125 -0.044921875
3.59912109375 5.1513671875 42.5439453125
-12.78955078125 5.1956787109375 1.281982421875
16.762451171875 7.316162109375 17.396728515625
-8.938232421875 -0.9095458984375 -43.58447265625
-14.154052734375 3.8125 -11.595947265625
-21.210205078125 3.2864990234375 65.656005859375
13.995849609375 6.4200439453125 13.19921875
-14.04150390625 1.490234375 -25.021728515625
22.07568359375 1.6536865234375 -18.099365234375
0.61767578125 1.9635009765625 -19.44091796875
0.0791015625 1.9110107421875 -21.668701171875
-13.34326171875 2.996826171875 38.363037109375
-10.04345703125 4.442626953125 -4.639404296875
-20.596435546875 3.6724853515625 71.74755859375
30.853271484375 6.7215576171875 13.759521484375
18.16943359375 9.449951171875 30.820556640625
-12.987060546875 6.5760498046875 9.444091796875
-25.36474609375 6.9241943359375 77.930419921875
14.769775390625 8.26123046875 36.0791015625
-4.20849609375 2.2071533203125 52.026123046875
