-25.415283203125 14.14208984375 -7.7783203125
-21.608642578125 -0.3851318359375 72.602783203125
39.461669921875 1.7421875 13.2109375
19.384521484375 -3.1181640625 -17.796875
17.968017578125 3.5926513671875 20.571044921875
12.88232421875 -0.8890380859375 -5.764404296875
-17.196533203125 -0.7152099609375 -9.693603515625
41.3212890625 1.0416259765625 8.8896484375
-2.657470703125 -2.8194580078125 -19.17236328125
17.744140625 4.7974853515625 32.587646484375
-26.016845703125 14.9034423828125 -25.2685546875
45.7626953125 -6.0780029296875 -32.057861328125
-4.664794921875 -1.5767822265625 49.4208984375
16.445068359375 4.6060791015625 39.6259765625
11.322265625 -3.610107421875 -22.953369140625
14.186767578125 4.3875732421875 34.9228515625
-20.29296875 -3.3450927734375 48.921630859375
14.5283203125 0.009033203125 0.028564453125
24.244140625 1.13525390625 8.86865234375
-26.338623046875 5.75048828125 -8.962158203125
-25.278564453125 10.21142578125 -3.6767578125
21.480712890625 -0.6181640625 -2.326171875
-22.2265625 -1.273681640625 66.45361328125
10.700439453125 3.292724609375 37.2001953125
45.432373046875 -4.08935546875 -20.408447265625
-7.34033203125 -2.795166015625 59.125244140625
8.39013671875 2.4908447265625 36.434326171875
-7.14599609375 43.14794921875 -31.453857421875
-7.1328125 -0.087158203125 37.86669921875
1.644287109375 3.5831298828125 19.41552734375
12.750244140625 -0.0506591796875 -1.49267578125
33.864013671875 2.432861328125 16.015380859375
12.041015625 0.8211669921875 3.444580078125
-17.7666015625 -3.382568359375 46.758544921875
-24.62646484375 8.9942626953125 -15.9794921875
12.255615234375 -1.93359375 -12.393310546875
19.029541015625 0.2977294921875 1.021484375
-2.349365234375 2.7625732421875 26.874755859375
25.768310546875 -0.940185546875 -5.129150390625
15.844482421875 1.4017333984375 9.75244140625
-20.83935546875 0.241455078125 -6.48291015625
20.8388671875 0.6712646484375 6.5771484375
-25.747314453125 17.10107421875 -20.4375
0.651123046875 0.875732421875 1.2763671875
38.734375 0.690673828125 7.819091796875
40.561767578125 -5.9759521484375 -32.018798828125
-17.0537109375 2.8399658203125 63.255126953125
15.23583984375 -3.239013671875 -20.7158203125
36.04248046875 -3.0347900390625 -16.34423828125
-14.903076171875 42.8092041015625 -32.0341796875
-12.11669921875 2.1234130859375 8.774658203125
43.185791015625 1.059814453125 7.223876953125
-11.19677734375 3.21826171875 -7.851806640625
2.1396484375 0.5223388671875 44.072998046875
-22.2509765625 0.32373046875 -14.195068359375
24.18603515625 4.2403564453125 26.998046875
-3.330322265625 3.17626953125 22.28955078125
18.77490234375 4.3404541015625 27.515625
-2.1337890625 45.8785400390625 -30.033935546875
42.4482421875 -3.680419921875 -19.70849609375
-17.25244140625 0.285888671875 69.620361328125
11.66650390625 3.9520263671875 24.810546875
-29.2646484375 -0.9100341796875 68.151123046875
-25.294189453125 3.769775390625 0.821044921875
-1.064208984375 -1.2098388671875 -9.471435546875
-22.97216796875 1.832275390625 -0.578857421875
31.566162109375 1.7950439453125 12.442138671875
-25.7265625 12.1707763671875 -11.01318359375
17.23828125 2.5301513671875 14.794677734375
14.51171875 -4.0849609375 -25.958984375
15.796630859375 5.0155029296875 33.512939453125
-1.03076171875 0.6827392578125 40.953369140625
27.672119140625 3.1900634765625 19.977294921875
-25.09375 -1.915771484375 61.63720703125
-10.353271484375 -1.0142822265625 -11.85302734375
-11.982666015625 1.1192626953125 -0.554931640625
-9.183837890625 0.52880859375 -2.6494140625
16.668701171875 0.3216552734375 3.383056640625
8.80810546875 1.20654296875 6.865966796875
-6.811279296875 1.37109375 4.966064453125
-16.236572265625 1.8192138671875 6.1630859375
27.00537109375 -4.8621826171875 -27.520751953125
33.779541015625 -5.437744140625 -30.037841796875
5.502197265625 3.13916015625 17.4990234375
-5.861328125 1.1485595703125 31.12353515625
7.05517578125 2.0628662109375 40.107177734375
-13.308349609375 -0.6044921875 -9.513427734375
-11.58154296875 1.7847900390625 6.754150390625
34.8505859375 -4.490966796875 -23.7783203125
-18.479736328125 -0.3182373046875 72.63623046875
-18.9619140625 -1.256103515625 -13.53515625
-24.55322265625 9.272705078125 -19.5419921875
12.71923828125 -3.1727294921875 -20.44140625
9.178466796875 4.008544921875 31.62451171875
-30.60400390625 -0.310791015625 71.330810546875
-2.266357421875 1.0609130859375 35.10498046875
17.770751953125 -4.2249755859375 -24.75
-2.210693359375 1.372314453125 32.868408203125
17.97705078125 2.720458984375 17.039306640625
-6.8603515625 -2.220458984375 49.04541015625
-25.184326171875 4.9617919921875 -19.126953125
21.227294921875 -2.7796630859375 -15.366455078125
6.42333984375 2.3218994140625 36.131591796875
5.54052734375 1.7120361328125 42.271484375
-6.32177734375 -0.7216796875 -8.043701171875
29.71337890625 -1.4749755859375 -6.5751953125
42.94873046875 0.88037109375 -13.8955078125
28.89501953125 -3.2978515625 -17.598876953125
-18.447021484375 1.017578125 65.300537109375
33.031005859375 -0.3333740234375 -0.904541015625
14.265869140625 -2.173828125 -13.44677734375
-2.891845703125 1.315185546875 4.243896484375
-6.625244140625 -2.822021484375 54.190673828125
-1.032958984375 1.246826171875 37.095947265625
10.2490234375 2.8057861328125 16.777587890625
14.431640625 -3.7220458984375 -23.9697265625
30.708251953125 2.6976318359375 17.83935546875
-16.68896484375 2.0069580078125 -4.471435546875
-5.347900390625 0.5831298828125 34.871826171875
-9.260009765625 -1.8858642578125 63.75634765625
46.034912109375 -2.487060546875 -12.33251953125
-13.165771484375 -1.2064208984375 -13.442138671875
-9.296875 0.7781982421875 -0.662353515625
-28.54833984375 -1.2315673828125 60.750732421875
-3.867431640625 -1.2672119140625 -10.6376953125
-25.324462890625 13.123046875 -14.094970703125
3.78857421875 2.1341552734375 37.03955078125
-12.969482421875 1.53857421875 5.293212890625
13.100341796875 4.3902587890625 32.720947265625
23.7470703125 6.072021484375 16.500732421875
21.72900390625 1.5003662109375 10.454833984375
34.005859375 -3.7120361328125 -19.0322265625
1.127197265625 47.1092529296875 -29.739501953125
35.72802734375 0.7100830078125 7.681884765625
8.546875 4.2786865234375 27.5654296875
-7.3740234375 -1.340576171875 43.73095703125
20.291015625 1.998291015625 12.125732421875
-19.11279296875 -0.7900390625 -10.046142578125
4.71923828125 -0.4573974609375 -5.51611328125
-7.845703125 -2.0107421875 47.251953125
-31.627685546875 -0.984375 65.629638671875
-5.0986328125 -1.2772216796875 47.404541015625
-24.5361328125 1.259765625 -10.330322265625
-18.73681640625 -0.1942138671875 -6.32763671875
3.64990234375 -1.0369873046875 -7.414306640625
12.696533203125 1.2269287109375 7.185302734375
-5.39501953125 0.2755126953125 37.091796875
-20.0078125 0.3953857421875 -4.74169921875
35.775390625 2.4154052734375 16.493896484375
-17.064453125 -3.6112060546875 50.559326171875
-20.250244140625 0.62646484375 -1.6279296875
-11.67919921875 1.4432373046875 2.2880859375
-20.789794921875 -1.634765625 63.97509765625
31.24951171875 4.6820068359375 25.103759765625
14.794921875 3.9234619140625 23.367431640625
34.9375 -0.6280517578125 -1.302001953125
41.828857421875 1.6173095703125 -10.750732421875
-21.36572265625 -0.214111328125 -16.26513671875
-24.773681640625 13.488037109375 -21.76708984375
38.90185546875 -4.2989501953125 -22.512451171875
-25.27880859375 6.995361328125 -11.956298828125
40.921142578125 -5.56201171875 -29.609619140625
11.072509765625 3.85791015625 34.193115234375
-14.490234375 -2.4427490234375 43.676513671875
30.0771484375 3.04052734375 19.874267578125
-9.523193359375 -0.857421875 -10.08740234375
-14.16650390625 -0.89501953125 -11.701416015625
7.537109375 -1.157470703125 -7.55615234375
-23.860595703125 -2.3795166015625 60.1982421875
28.033447265625 2.1197509765625 13.83154296875
3.54931640625 2.4215087890625 11.34228515625
8.687255859375 -3.1417236328125 -20.158935546875
5.514404296875 1.5867919921875 7.646728515625
-21.3173828125 -0.5806884765625 -10.52392578125
12.013916015625 -3.04541015625 -18.621826171875
17.594970703125 -2.531005859375 -13.75830078125
15.79638671875 -0.7347412109375 -4.6875
39.57373046875 1.0633544921875 -9.030517578125
45.546142578125 -0.4710693359375 2.759765625
-23.74365234375 -2.653076171875 58.002685546875
5.76171875 0.512939453125 1.46484375
-5.4423828125 1.7889404296875 7.36669921875
27.61279296875 -1.0572509765625 -4.56005859375
24.488525390625 -0.9537353515625 -3.60595703125
24.419677734375 7.9664306640625 17.033203125
20.0068359375 -1.2818603515625 -5.128662109375
-5.679931640625 2.279541015625 11.274658203125
-10.617431640625 -1.698974609375 -16.693603515625
41.038330078125 -0.258544921875 0.249755859375
-24.19482421875 19.2603759765625 -18.81201171875
5.56591796875 2.8004150390625 15.648193359375
-25.706787109375 -1.4468994140625 65.215576171875
-15.991455078125 -1.2237548828125 -14.06982421875
26.15771484375 4.452392578125 27.80224609375
-2.37744140625 0.398193359375 -0.019775390625
-25.31103515625 3.7840576171875 -7.212158203125
-9.221923828125 -2.912841796875 55.94189453125
14.13330078125 -2.1435546875 -15.637451171875
3.173583984375 1.63720703125 42.0234375
19.654052734375 5.1466064453125 31.27734375
10.798583984375 -1.55908203125 -11.0888671875
25.263671875 4.85986328125 17.43017578125
-8.718017578125 0.2532958984375 34.130126953125
38.12744140625 2.1668701171875 16.479736328125
7.596923828125 0.22509765625 1.078125
-27.673828125 -0.2232666015625 72.76025390625
-21.317138671875 -3.38916015625 53.075439453125
9.75634765625 -3.46435546875 -21.953857421875
42.73046875 -0.605224609375 -12.679443359375
-24.731689453125 8.47021484375 -22.156494140625
-17.66064453125 0.6669921875 0.654541015625
31.19677734375 0.69091796875 7.525634765625
21.522705078125 5.290771484375 35.186279296875
-25.67529296875 3.4891357421875 -13.90673828125
-8.99853515625 0.373291015625 -4.742431640625
23.348876953125 5.4151611328125 33.560546875
15.833984375 -2.3167724609375 -14.427001953125
48.0849609375 -2.2479248046875 -6.000244140625
10.575439453125 1.704833984375 10.153564453125
25.781982421875 -0.033203125 1.224365234375
-25.747314453125 2.74609375 -17.1142578125
24.662841796875 4.0828857421875 20.774169921875
25.09375 -5.0224609375 -28.985107421875
19.458984375 -2.5645751953125 -16.037109375
39.384521484375 -5.7816162109375 -30.607666015625
44.572021484375 -5.8829345703125 -30.64208984375
22.260498046875 7.140869140625 17.75830078125
-14.471435546875 -1.7127685546875 -16.959716796875
3.643798828125 -1.5740966796875 -13.002197265625
0.377685546875 0.3746337890625 42.72314453125
-27.164306640625 -1.55615234375 58.7041015625
13.121337890625 2.65771484375 16.509521484375
-11.041015625 -1.48193359375 42.95703125
-1.031005859375 0.991943359375 3.344482421875
10.423095703125 0.418212890625 2.67626953125
-13.255859375 3.752197265625 -8.10791015625
17.982177734375 -0.1478271484375 -0.45068359375
13.42724609375 2.16455078125 12.589599609375
-26.058837890625 3.2183837890625 -11.915771484375
-25.272216796875 13.980224609375 -5.537353515625
21.18115234375 4.0257568359375 26.506591796875
-4.91015625 -0.4107666015625 40.394287109375
3.992919921875 0.4537353515625 -0.046142578125
18.5859375 -1.586181640625 -9.880615234375
25.503173828125 -4.134765625 -21.92041015625
-10.077392578125 -2.6151123046875 47.35107421875
8.180908203125 1.2921142578125 44.75
29.9521484375 0.314697265625 1.768310546875
7.4638671875 3.048095703125 16.951416015625
17.125 1.2474365234375 7.338623046875
0.3701171875 -2.6124267578125 -18.75244140625
0.619384765625 3.14990234375 17.98583984375
42.8896484375 -0.5203857421875 -2.3271484375
-30.62353515625 -0.748779296875 69.336181640625
49.078125 0.4097900390625 3.696533203125
12.626953125 -1.6759033203125 -10.525390625
-2.74267578125 3.0440673828125 24.248291015625
-11.329345703125 -3.25830078125 50.088134765625
27.1826171875 0.66796875 4.545166015625
14.745849609375 -1.181640625 -6.16455078125
-13.396728515625 -2.8076171875 57.0537109375
-25.1796875 8.5556640625 -17.6337890625
-10.791259765625 -2.919189453125 57.339111328125
47.434326171875 -0.312744140625 4.2060546875
46.531005859375 -0.9925537109375 -1.511474609375
-16.8603515625 -0.263916015625 73.998291015625
24.90283203125 5.6212158203125 19.60498046875
43.179443359375 -3.4720458984375 -17.310791015625
-11.4306640625 -2.7659912109375 59.306884765625
-12.70263671875 -1.9637451171875 -16.83642578125
46.4970703125 -1.2611083984375 0.332763671875
38.65283203125 0.7266845703125 5.67578125
17.3466796875 4.693603515625 28.71435546875
1.00341796875 -0.765625 52.07861328125
-18.133056640625 -2.4266357421875 60.490478515625
-25.04931640625 10.7242431640625 -16.120849609375
35.984619140625 1.5850830078125 12.281005859375
2.826904296875 -3.13037109375 -20.87548828125
13.484130859375 -1.2432861328125 -7.87158203125
-10.33935546875 -1.323974609375 67.410400390625
6.973876953125 3.5552978515625 31.58984375
7.40625 3.8189697265625 20.552490234375
26.92041015625 -2.6234130859375 -12.45068359375
43.650146484375 -4.478515625 -23.448486328125
-8.07080078125 -0.470703125 64.84033203125
7.026611328125 -0.7091064453125 -5.55859375
-10.205322265625 1.4267578125 5.517822265625
17.20751953125 0.900390625 5.443359375
26.961181640625 2.559814453125 15.9462890625
26.257080078125 2.8067626953125 18.077392578125
-14.682861328125 1.7080078125 67.077880859375
2.669189453125 -0.2862548828125 49.3486328125
-12.491455078125 43.033935546875 -29.575439453125
34.52001953125 0.33740234375 4.591064453125
30.8759765625 -4.1201171875 -23.250732421875
13.505615234375 1.033203125 4.4091796875
6.818115234375 -1.8463134765625 -12.237060546875
1.169677734375 -2.2745361328125 -15.9853515625
-2.222412109375 1.2789306640625 6.17041015625
37.423583984375 -5.47265625 -30.1611328125
-15.89794921875 1.5167236328125 2.05419921875
38.869384765625 -0.85400390625 -4.046142578125
-2.3740234375 3.57373046875 20.676025390625
19.775390625 1.5570068359375 10.502685546875
-15.913818359375 -3.516357421875 49.19775390625
28.16650390625 1.46484375 10.5703125
27.23046875 -3.906005859375 -22.14599609375
-25.10205078125 8.9443359375 -11.93896484375
2.474853515625 0.589111328125 0.890625
-18.018310546875 0.380859375 -1.66455078125
15.4453125 -2.714599609375 -16.748291015625
-24.73681640625 2.751220703125 3.01513671875
8.21142578125 1.8555908203125 10.270751953125
-15.063232421875 -3.442626953125 53.20947265625
-14.373046875 3.19287109375 9.2265625
-9.281494140625 -0.65087890625 37.424072265625
0.072998046875 2.7449951171875 29.69384765625
-4.453857421875 -0.1241455078125 -4.824462890625
25.980224609375 -3.494384765625 -19.231201171875
-25.556640625 7.071044921875 -0.600341796875
-8.4287109375 1.919189453125 8.771240234375
-8.695068359375 -2.2491455078125 45.723388671875
-9.778564453125 1.1529541015625 -6.16845703125
3.60791015625 2.891845703125 16.197998046875
6.935302734375 2.1776123046875 13.587158203125
0.147216796875 -1.1087646484375 -7.2470703125
-14.995849609375 -0.26123046875 -9.741943359375
-25.947265625 14.8016357421875 -21.8564453125
37.832763671875 -0.431640625 0.326171875
6.69482421875 1.9876708984375 11.18359375
-25.50244140625 12.5726318359375 -6.521728515625
9.024169921875 2.4453125 13.7744140625
2.489990234375 1.4150390625 39.411865234375
22.2529296875 6.5723876953125 15.55078125
-23.976806640625 -1.5020751953125 65.235595703125
25.106201171875 5.44482421875 32.014404296875
24.36376953125 -0.286865234375 -0.27978515625
34.147216796875 -2.5816650390625 -12.71533203125
42.101318359375 -5.7559814453125 -31.01904296875
41.654052734375 -6.2694091796875 -33.322998046875
-25.89501953125 15.232666015625 -19.99755859375
10.11767578125 -2.8857421875 -18.640625
4.34912109375 -0.2298583984375 50.771240234375
-25.6396484375 10.58447265625 -7.078369140625
-3.6689453125 1.9794921875 9.275634765625
-25.8779296875 3.0452880859375 -10.2099609375
-17.65625 -0.2738037109375 -7.719482421875
14.50244140625 3.3505859375 40.543212890625
23.993896484375 -4.5513916015625 -26.701171875
1.15771484375 -1.6478271484375 -13.177734375
-1.27490234375 -0.0626220703125 42.525634765625
-25.799560546875 16.4625244140625 -18.7978515625
-5.718505859375 -0.780517578125 44.322021484375
9.63525390625 3.4237060546875 35.419921875
-15.54150390625 3.62060546875 65.600830078125
-25.25927734375 12.5928955078125 -17.546875
12.284912109375 3.01416015625 20.14501953125
16.00146484375 -0.224365234375 -0.81787109375
44.822265625 1.0595703125 6.711669921875
-15.7529296875 1.436279296875 -7.0380859375
46.418701171875 -3.5703125 -15.529296875
43.183837890625 1.0623779296875 9.895751953125
9.90283203125 4.392333984375 28.60400390625
11.798095703125 -0.7109375 -4.4521484375
-20.813232421875 0.3173828125 76.4921875
-4.106201171875 -2.581298828125 -18.295166015625
-21.217529296875 1.401611328125 2.34765625
-4.055908203125 -2.9366455078125 -20.243408203125
-11.625732421875 -0.2828369140625 -9.8134765625
42.750732421875 -4.7445068359375 -25.197265625
-3.3779296875 -1.258544921875 48.34912109375
40.231689453125 -3.670166015625 -18.95751953125
-0.12939453125 3.40380859375 24.20361328125
-25.892578125 19.1141357421875 -22.0
0.667724609375 -0.7952880859375 54.115966796875
-6.966064453125 2.861328125 12.820068359375
6.671142578125 2.9549560546875 34.114013671875
-18.804443359375 3.0389404296875 6.080078125
-0.225341796875 0.3997802734375 46.79443359375
6.697265625 3.8653564453125 25.359130859375
2.981201171875 -0.1619873046875 -2.457763671875
10.469482421875 4.257568359375 30.5595703125
18.06640625 -0.4993896484375 -2.370849609375
1.2763671875 3.03955078125 16.304931640625
10.866943359375 -3.96923828125 -24.747314453125
-23.044677734375 3.336181640625 3.576416015625
-25.662109375 19.938720703125 -24.421630859375
-25.521240234375 11.110595703125 -5.372314453125
33.306640625 3.311279296875 22.34814453125
-8.01806640625 -2.1922607421875 50.805908203125
-14.359130859375 0.407958984375 -7.785888671875
-22.671630859375 12.146728515625 -25.8994140625
-11.3251953125 3.1015625 10.91748046875
3.205322265625 3.61962890625 21.994384765625
-23.599365234375 -2.802978515625 56.177490234375
2.87353515625 3.708740234375 24.5947265625
18.3291015625 5.322509765625 34.07470703125
24.047607421875 0.494873046875 4.610595703125
30.79931640625 3.2308349609375 22.120361328125
-26.072021484375 6.9390869140625 -5.139892578125
28.774658203125 3.0205078125 18.720458984375
-18.89892578125 -3.640380859375 50.6357421875
-24.013671875 14.96435546875 -25.470703125
3.697021484375 0.8211669921875 3.51220703125
-25.63818359375 6.3779296875 -16.259521484375
10.222900390625 0.0482177734375 -0.730224609375
-19.608154296875 -3.245849609375 54.384521484375
7.402099609375 -3.66162109375 -23.757080078125
17.7685546875 -1.244873046875 -6.5869140625
-14.063232421875 -2.8656005859375 45.3037109375
-5.486572265625 2.1458740234375 26.25341796875
-7.45068359375 1.4425048828125 30.392822265625
3.48583984375 2.72900390625 32.206298828125
-25.341064453125 -0.2982177734375 71.265869140625
-24.70458984375 -0.17138671875 73.75048828125
-3.7177734375 -0.7398681640625 46.6357421875
-25.112548828125 0.230712890625 75.418212890625
10.14306640625 2.80712890625 38.6953125
-13.217529296875 -1.0762939453125 66.63818359375
-5.812255859375 0.0235595703125 38.878173828125
-1.61181640625 -0.98486328125 50.075439453125
-24.560791015625 1.2760009765625 -14.146728515625
17.947021484375 3.927001953125 24.9814453125
-14.812255859375 -3.0908203125 56.22607421875
-21.11669921875 -0.777587890625 -13.157470703125
-23.7705078125 11.8431396484375 -21.904541015625
-24.5654296875 1.5989990234375 -16.600341796875
33.2939453125 -3.639404296875 -20.529296875
-25.379150390625 12.0609130859375 -19.289306640625
35.57080078125 -2.4622802734375 -11.625
-25.814453125 8.6380615234375 -7.106689453125
-3.440673828125 -0.1756591796875 -1.897705078125
-17.994384765625 -0.63720703125 70.878662109375
20.32421875 1.24951171875 8.968017578125
14.893798828125 0.2620849609375 1.86474609375
4.075927734375 3.3626708984375 18.300048828125
18.29345703125 5.0894775390625 36.259765625
-17.00634765625 1.189453125 -5.86962890625
-12.69091796875 -3.455322265625 49.176513671875
24.938232421875 2.6529541015625 16.5029296875
-10.959228515625 0.947509765625 -1.837646484375
-22.569580078125 0.405517578125 76.899169921875
4.925048828125 3.2906494140625 31.37939453125
-3.718505859375 2.3193359375 11.134521484375
-21.43017578125 -3.4400634765625 50.2802734375
9.2255859375 1.769775390625 43.140380859375
-4.768310546875 -2.4566650390625 -16.502197265625
23.003173828125 -2.4005126953125 -12.3974609375
32.87060546875 -1.58056640625 -7.54296875
-0.771484375 3.5037841796875 19.196044921875
-25.23828125 7.883544921875 0.790771484375
-15.465087890625 -0.4251708984375 72.816162109375
44.998291015625 -1.6446533203125 -9.30615234375
4.824462890625 3.819091796875 27.998291015625
-5.261474609375 -2.2938232421875 53.445556640625
24.05517578125 3.58203125 22.351318359375
24.556884765625 -3.6136474609375 -20.321533203125
-4.335205078125 43.943603515625 -29.55078125
-25.42626953125 3.7373046875 -2.3037109375
33.749267578125 0.904296875 8.16259765625
21.092529296875 3.7657470703125 23.11669921875
30.286376953125 -4.8814697265625 -28.673828125
28.599609375 0.337890625 3.80029296875
35.72265625 -3.762451171875 -20.146240234375
29.77880859375 1.02001953125 8.2646484375
-7.974609375 44.63330078125 -30.0205078125
39.433837890625 -5.3353271484375 -26.410400390625
25.782958984375 -1.392822265625 -6.971435546875
14.65185546875 4.62646484375 30.0712890625
-2.446044921875 -2.2620849609375 -14.7236328125
-2.9609375 -1.9346923828125 54.94384765625
30.3095703125 -2.249267578125 -10.022216796875
26.807373046875 3.812744140625 24.459228515625
-28.29052734375 -1.9056396484375 62.530029296875
32.5869140625 1.3896484375 10.830810546875
-0.053955078125 2.4547119140625 12.993896484375
14.65478515625 -1.32666015625 -9.29736328125
26.041015625 -0.77978515625 -3.16455078125
5.8349609375 -3.198486328125 -21.333984375
14.764404296875 -0.1494140625 -2.085205078125
-0.49609375 3.2325439453125 25.96923828125
31.569091796875 -4.815185546875 -26.903564453125
42.90087890625 -0.3758544921875 0.824951171875
-1.6142578125 -0.1053466796875 -4.18505859375
6.716552734375 -2.308349609375 -16.79931640625
-11.970458984375 -2.113525390625 62.781982421875
-0.39990234375 -0.2501220703125 48.26025390625
25.78515625 -4.165771484375 -23.685546875
-15.52587890625 2.5574951171875 63.95751953125
41.849365234375 0.9019775390625 5.6123046875
45.520751953125 -2.9478759765625 -14.033447265625
46.22607421875 -4.06396484375 -19.00830078125
-1.195068359375 -1.6202392578125 53.755615234375
-25.0078125 9.4478759765625 -1.566650390625
24.171142578125 -0.1673583984375 1.310546875
-14.96630859375 0.9486083984375 -0.479248046875
-4.54736328125 1.831298828125 28.21728515625
-8.530029296875 -0.8043212890625 41.25
-14.216552734375 -3.4984130859375 50.131591796875
-26.079345703125 4.691162109375 -12.55126953125
46.579345703125 -2.4771728515625 -9.74609375
-8.806396484375 -3.129638671875 52.152099609375
-8.734130859375 -2.6639404296875 59.89892578125
-24.5439453125 1.60546875 -0.39599609375
11.651123046875 4.1513671875 28.758544921875
-7.571533203125 -1.8887939453125 -14.867919921875
5.438720703125 3.4769287109375 19.343994140625
12.576416015625 0.0677490234375 0.08984375
18.89208984375 4.60888671875 19.03955078125
-7.2880859375 -2.4451904296875 -19.48681640625
31.157470703125 -1.0811767578125 -4.62109375
-25.3232421875 17.5474853515625 -22.058349609375
-13.169189453125 0.9686279296875 0.49658203125
15.870361328125 -3.464111328125 -22.4404296875
31.499755859375 -0.234130859375 -0.48193359375
-13.555908203125 2.180419921875 -1.91943359375
25.355224609375 -4.9930419921875 -27.394775390625
-27.431396484375 -0.632568359375 68.843994140625
-25.15625 12.7098388671875 -4.58837890625
31.763427734375 -0.07470703125 1.4755859375
14.941650390625 1.898681640625 11.25439453125
8.95263671875 -0.9046630859375 -6.057373046875
33.637939453125 0.0823974609375 2.911376953125
-14.53759765625 -2.615478515625 59.60693359375
-11.7373046875 -2.17529296875 60.881591796875
44.431396484375 -3.703369140625 -19.241943359375
9.798828125 3.838623046875 33.072509765625
12.30029296875 2.37255859375 14.364501953125
-9.856201171875 1.5960693359375 3.6845703125
-28.927734375 -0.3284912109375 71.7998046875
41.810546875 -5.4371337890625 -28.306396484375
-25.0078125 10.155029296875 -10.754150390625
10.321044921875 -2.502197265625 -15.135009765625
-9.9228515625 -1.4205322265625 -13.318603515625
-5.581298828125 0.525390625 32.986572265625
8.562255859375 0.571533203125 2.635986328125
33.1474609375 -4.7813720703125 -26.920166015625
-24.609375 10.2786865234375 -13.7216796875
2.318115234375 0.70556640625 2.4560546875
37.17529296875 -0.075927734375 2.434814453125
-5.886474609375 -1.127197265625 -9.503173828125
-24.2265625 1.428466796875 77.5888671875
25.96533203125 -3.03466796875 -17.35498046875
-4.4775390625 -0.876220703125 -8.014404296875
45.9306640625 -1.6944580078125 -6.265380859375
8.955078125 2.7860107421875 15.634765625
21.87255859375 4.9432373046875 31.78271484375
19.2841796875 4.7734375 29.102783203125
-20.349609375 -2.81689453125 58.5595703125
16.973876953125 -1.2674560546875 -7.940185546875
-11.666015625 -1.0352783203125 -13.014892578125
-13.063232421875 -0.9451904296875 69.289306640625
11.02001953125 -2.6279296875 -16.9404296875
-26.507080078125 11.935791015625 -9.470947265625
8.46826171875 3.5540771484375 21.962890625
43.847900390625 -0.460693359375 -9.83056640625
14.0478515625 3.8038330078125 36.37109375
-26.614013671875 0.6640625 75.53955078125
34.515380859375 2.6632080078125 18.796630859375
28.46728515625 -1.3995361328125 -7.8623046875
-6.024658203125 0.530517578125 -1.03857421875
-26.207275390625 4.976806640625 -5.6943359375
20.68701171875 -4.490478515625 -25.007568359375
15.90673828125 4.4844970703125 27.76025390625
23.150634765625 1.885498046875 12.364501953125
28.232666015625 -4.955322265625 -29.022216796875
20.017822265625 -0.6954345703125 -2.866943359375
32.110107421875 2.947998046875 19.323486328125
37.41552734375 -3.4747314453125 -17.026611328125
35.1552734375 -0.1533203125 2.06103515625
32.9423828125 -3.4271240234375 -17.770751953125
-32.6298828125 -0.5576171875 68.844970703125
0.8251953125 1.279052734375 5.170654296875
30.440673828125 -3.4022216796875 -18.048828125
28.012939453125 -3.419677734375 -18.87548828125
15.556640625 4.631103515625 36.364501953125
10.853515625 2.250244140625 43.82421875
40.003173828125 -0.188720703125 -13.202880859375
8.273193359375 -1.7696533203125 -11.701416015625
33.268310546875 -2.7030029296875 -13.989013671875
30.841552734375 -2.720947265625 -14.817626953125
11.0146484375 0.069580078125 0.60400390625
21.67333984375 -4.1314697265625 -23.390625
41.29248046875 -5.007568359375 -26.755859375
-17.586181640625 -3.406494140625 52.005126953125
21.43603515625 -3.8221435546875 -20.745361328125
32.599609375 -2.4783935546875 -12.273193359375
40.598876953125 -4.7752685546875 -24.990966796875
21.4541015625 -1.9815673828125 -10.544921875
34.12158203125 -2.123046875 -10.847900390625
46.623291015625 -5.1748046875 -25.062744140625
-1.2080078125 -2.7432861328125 -18.640625
33.367431640625 -1.9971923828125 -9.037841796875
5.71533203125 2.2525634765625 12.34912109375
22.874755859375 -3.56396484375 -19.214599609375
27.903564453125 3.6451416015625 23.2158203125
-22.061279296875 -2.7972412109375 58.091552734375
-23.617431640625 -0.283203125 -13.7607421875
8.637939453125 -2.6456298828125 -17.757568359375
-16.444091796875 1.492919921875 62.5703125
39.733154296875 -3.10595703125 -16.98583984375
35.909423828125 -4.172119140625 -22.705078125
17.2275390625 -3.30322265625 -20.805419921875
29.32275390625 -4.0142822265625 -22.791748046875
35.076171875 -1.4388427734375 -5.0927734375
-14.58447265625 -2.12841796875 62.1123046875
1.625244140625 2.0406494140625 9.618408203125
-18.81884765625 0.360107421875 -2.978271484375
-25.612548828125 8.7529296875 -4.03466796875
0.37646484375 -1.1334228515625 -8.938232421875
23.274658203125 -4.2796630859375 -24.401123046875
35.07470703125 -3.2545166015625 -17.518798828125
22.18505859375 -1.9173583984375 -8.645263671875
5.248779296875 2.3018798828125 37.489013671875
43.996337890625 -5.12255859375 -27.611572265625
32.638671875 -1.00341796875 -4.076416015625
34.890625 -2.8486328125 -14.982177734375
32.2880859375 -3.061279296875 -15.600830078125
4.694580078125 -1.3509521484375 -9.1591796875
40.10302734375 -2.5615234375 -14.18408203125
9.510498046875 1.875732421875 11.419189453125
19.14306640625 2.2076416015625 13.91015625
-21.3125 -2.9375 55.138916015625
27.3701171875 -3.0545654296875 -16.707763671875
-3.61572265625 1.168212890625 31.933349609375
11.692138671875 2.580322265625 15.969970703125
-6.00341796875 1.66357421875 27.773681640625
7.875732421875 1.219970703125 46.35693359375
-0.30810546875 -2.173583984375 -15.546630859375
41.9921875 -4.3282470703125 -22.427734375
42.9267578125 -0.9764404296875 -4.18212890625
29.584228515625 -2.3143310546875 -11.935546875
0.11083984375 3.077392578125 14.56591796875
-10.139404296875 -2.1483154296875 -18.70751953125
22.864013671875 -0.63720703125 -1.6845703125
-24.68701171875 4.2962646484375 2.32666015625
-14.4521484375 -3.1055908203125 47.038330078125
18.029541015625 3.5888671875 23.138916015625
-12.2470703125 0.6356201171875 -8.156982421875
20.41455078125 -0.1680908203125 -0.156005859375
-8.330810546875 -1.9521484375 -16.750244140625
27.576171875 -2.847412109375 -14.160400390625
-15.800537109375 0.3720703125 69.173095703125
-0.760498046875 3.8648681640625 17.37744140625
-0.73486328125 -0.6063232421875 -5.7138671875
-17.58056640625 1.5357666015625 4.193115234375
-2.977294921875 0.7344970703125 38.527587890625
21.615966796875 -1.14892578125 -5.223388671875
43.606689453125 0.5511474609375 5.854248046875
0.158203125 1.697998046875 8.244384765625
34.4482421875 1.545654296875 12.2568359375
15.407470703125 3.2847900390625 20.0234375
-0.907470703125 -1.6419677734375 -12.462890625
-24.480712890625 14.5560302734375 -23.29296875
-3.877685546875 0.5330810546875 0.912841796875
16.32763671875 4.7198486328125 32.0458984375
-16.729736328125 -0.5311279296875 71.847412109375
-2.519287109375 -1.8564453125 52.370361328125
27.479736328125 -0.38818359375 -1.221923828125
1.30712890625 0.0086669921875 -3.643798828125
4.02001953125 -2.080810546875 -14.38037109375
40.843505859375 0.13720703125 2.724365234375
-2.486572265625 -0.2220458984375 -5.41796875
40.47607421875 -4.40576171875 -22.973388671875
7.115478515625 2.2481689453125 37.476318359375
-6.763427734375 -2.668701171875 52.69091796875
46.563232421875 -6.05078125 -30.635498046875
3.077392578125 3.791748046875 20.365234375
-2.734130859375 -2.6007080078125 -17.659912109375
1.326904296875 -2.3973388671875 -17.6015625
47.65380859375 -6.3226318359375 -29.0771484375
23.38037109375 1.0185546875 7.635498046875
-8.496337890625 1.1033935546875 2.01708984375
28.903564453125 -0.72119140625 -1.9775390625
-25.814697265625 13.57861328125 -11.550537109375
4.34033203125 -3.0955810546875 -20.88525390625
24.04541015625 2.2696533203125 14.435791015625
-9.857421875 -3.503662109375 54.618408203125
-17.44287109375 -1.434326171875 -15.026123046875
-26.5283203125 -1.998291015625 62.09619140625
15.7578125 1.2657470703125 6.70166015625
-6.13671875 -2.4373779296875 -17.136474609375
-22.663818359375 1.8515625 0.89599609375
-18.823974609375 -1.5501708984375 -16.083984375
16.8603515625 2.1485595703125 12.569091796875
41.475830078125 -3.90185546875 -20.8916015625
7.744140625 1.9896240234375 41.442626953125
-11.86767578125 -3.2171630859375 54.045166015625
-11.326904296875 1.6865234375 -6.598388671875
31.836669921875 0.339599609375 5.4443359375
36.6767578125 0.9246826171875 8.8271484375
1.093994140625 0.4732666015625 -0.167236328125
42.80126953125 -5.072021484375 -26.662353515625
2.33349609375 1.1456298828125 4.245849609375
-9.96240234375 1.3070068359375 -4.06884765625
28.57421875 -3.883544921875 -20.945068359375
34.697265625 1.118408203125 9.305908203125
3.276123046875 -0.5341796875 -6.05126953125
16.199462890625 -3.0213623046875 -19.552001953125
25.637451171875 0.49365234375 4.099853515625
9.622314453125 -1.162353515625 -8.26171875
-3.85595703125 0.7113037109375 34.8310546875
26.904052734375 0.689453125 6.222900390625
1.6396484375 2.840576171875 29.151123046875
2.477294921875 -1.62646484375 -12.006591796875
-16.716552734375 -1.858642578125 62.525634765625
4.160400390625 1.6048583984375 7.014404296875
-25.07958984375 12.208740234375 -12.3583984375
47.542236328125 -5.6630859375 -26.13330078125
-24.954345703125 11.9427490234375 -14.929931640625
24.97314453125 4.390380859375 28.707763671875
38.947998046875 -4.62451171875 -23.968017578125
-0.3056640625 -0.084716796875 -3.026611328125
-15.11376953125 -1.1068115234375 -12.834228515625
28.2822265625 1.251953125 9.098388671875
29.00146484375 -4.6043701171875 -26.16552734375
35.330078125 -1.8798828125 -8.13037109375
9.19873046875 -0.26025390625 -1.768310546875
-2.5966796875 -2.14013671875 -13.1201171875
-21.38134765625 -2.25341796875 62.221435546875
1.51611328125 2.4189453125 11.9951171875
-4.21728515625 -0.4808349609375 41.71435546875
22.892578125 -2.179931640625 -10.8779296875
11.946533203125 1.033447265625 4.91552734375
-25.92919921875 6.7952880859375 -2.929443359375
31.77685546875 -3.8570556640625 -21.5185546875
-2.379150390625 -1.23095703125 -10.636962890625
-0.462646484375 0.34033203125 -0.080322265625
18.572265625 1.324951171875 7.879638671875
12.755615234375 -3.8109130859375 -23.300537109375
8.127197265625 -0.0843505859375 -0.470458984375
4.832763671875 2.0052490234375 10.716064453125
-7.99609375 0.798583984375 0.486328125
43.669677734375 -2.4073486328125 -13.273681640625
37.425537109375 1.3922119140625 11.974365234375
27.364990234375 -4.59521484375 -25.59375
28.78857421875 4.025390625 25.2646484375
21.657470703125 1.980224609375 12.76318359375
-20.9833984375 0.7000732421875 -3.037841796875
-13.181640625 -3.4515380859375 52.67333984375
33.48193359375 2.93017578125 19.9638671875
39.655517578125 -0.83154296875 -2.681396484375
4.637939453125 1.0321044921875 4.639404296875
16.863525390625 1.7086181640625 10.785400390625
-4.29052734375 -0.6177978515625 44.76904296875
9.390625 -2.1280517578125 -14.005126953125
20.181640625 5.3077392578125 34.554931640625
-10.3876953125 -0.3570556640625 -8.5546875
2.91748046875 2.4114990234375 34.60693359375
12.5439453125 1.4764404296875 9.165771484375
16.262451171875 3.3985595703125 21.232177734375
-7.7900390625 0.1650390625 -3.9140625
-8.640380859375 -0.124267578125 -6.092529296875
-8.468505859375 -1.519775390625 -13.7509765625
-20.3740234375 -0.370361328125 -9.39794921875
-16.155517578125 -3.1236572265625 46.101806640625
18.401123046875 -1.464111328125 -8.268798828125
-14.430419921875 -0.818603515625 70.036865234375
2.6728515625 1.8704833984375 8.353759765625
6.357421875 3.9844970703125 21.787109375
10.385498046875 4.3634033203125 25.418212890625
4.404296875 -3.4544677734375 -22.85205078125
25.240234375 3.808837890625 24.93115234375
16.344482421875 -1.048828125 -6.260498046875
15.056884765625 3.940185546875 24.81787109375
-11.397705078125 3.53955078125 -4.7900390625
48.020751953125 -3.2396240234375 -11.85888671875
-4.45166015625 -2.295654296875 -14.540771484375
-7.14013671875 -2.82080078125 57.666259765625
27.43310546875 4.3394775390625 28.528564453125
6.21923828125 -1.1785888671875 -8.7255859375
-3.017333984375 -0.4234619140625 43.284912109375
17.95654296875 -4.3529052734375 -26.407958984375
-0.813720703125 2.265625 10.76171875
-11.25 -2.7127685546875 48.7265625
30.19921875 2.255859375 16.21728515625
4.6328125 2.5916748046875 14.533203125
-0.996826171875 1.4290771484375 34.46533203125
22.18994140625 4.32958984375 27.529052734375
12.53759765625 4.1961669921875 26.421142578125
18.651123046875 -3.6429443359375 -21.593505859375
8.396240234375 3.2567138671875 18.06591796875
10.849365234375 2.162109375 13.40625
24.24755859375 -3.2637939453125 -17.137939453125
40.921142578125 1.6849365234375 13.33251953125
-5.059814453125 0.8214111328125 3.746826171875
16.524169921875 4.27392578125 37.83251953125
45.736083984375 -5.299560546875 -26.364501953125
-10.019287109375 -2.7716064453125 58.914794921875
-2.495361328125 2.9061279296875 11.87158203125
-8.6025390625 1.9566650390625 6.695068359375
-0.063720703125 -3.1455078125 -21.503173828125
-13.15234375 1.5753173828125 3.209716796875
25.556396484375 3.0526123046875 20.198974609375
19.392333984375 3.067138671875 15.826416015625
20.4658203125 -4.701904296875 -27.58837890625
-17.499755859375 -1.2200927734375 -13.537353515625
-16.604248046875 -3.45068359375 47.91064453125
46.6787109375 -5.34130859375 -23.244140625
21.584228515625 4.6646728515625 29.517578125
-9.040283203125 3.123046875 11.727783203125
-0.22265625 1.52392578125 39.143310546875
39.24560546875 1.8585205078125 14.77880859375
2.864501953125 -0.3553466796875 50.79248046875
-19.114013671875 0.1424560546875 76.15576171875
-20.21630859375 1.7032470703125 3.36279296875
-15.635498046875 3.3045654296875 8.507568359375
-2.92333984375 2.314697265625 28.890625
11.855712890625 1.5914306640625 10.8828125
-8.6845703125 -2.289794921875 48.6552734375
2.861572265625 2.4012451171875 12.625
28.498779296875 0.688720703125 5.71435546875
7.28662109375 4.3902587890625 26.84765625
-21.505126953125 -1.0869140625 65.20458984375
-17.499267578125 -2.7408447265625 57.69921875
-17.190185546875 -2.5924072265625 59.396728515625
4.900390625 4.142822265625 25.707763671875
-10.541015625 -3.43798828125 53.33837890625
1.339599609375 -3.02783203125 -20.428466796875
-2.7060546875 0.1160888671875 40.361328125
20.0810546875 5.6463623046875 18.971923828125
28.5703125 -1.431396484375 -5.68212890625
33.303466796875 -4.24365234375 -22.8701171875
7.406982421875 4.2176513671875 28.460693359375
28.23095703125 4.326416015625 26.76318359375
21.009521484375 5.288330078125 17.902587890625
24.422607421875 -4.3282470703125 -25.333984375
27.717041015625 5.8604736328125 29.94580078125
14.89306640625 0.706298828125 3.67041015625
39.138671875 1.625244140625 11.80517578125
42.664794921875 -1.278076171875 -6.611572265625
-5.0107421875 -2.3568115234375 51.49755859375
29.298583984375 -2.6175537109375 -14.372802734375
14.3583984375 -0.67578125 -4.794921875
30.261962890625 -2.3992919921875 -13.206298828125
1.82763671875 -0.3011474609375 -5.199951171875
2.651611328125 -2.375732421875 -16.425048828125
44.30517578125 -1.421142578125 -7.591796875
8.356201171875 -2.4395751953125 -15.0537109375
-24.471923828125 11.014892578125 -19.873291015625
8.041748046875 3.9482421875 32.509033203125
17.96826171875 -3.23681640625 -18.881591796875
-14.487548828125 44.8427734375 -29.73095703125
41.1669921875 -2.98583984375 -15.8876953125
20.552001953125 -3.9439697265625 -22.020751953125
36.34326171875 -5.9359130859375 -31.69482421875
22.234130859375 4.2042236328125 15.16845703125
-6.286376953125 0.895751953125 2.50341796875
5.63818359375 2.15380859375 40.456787109375
36.875244140625 0.670166015625 6.81494140625
10.914306640625 1.474609375 7.044189453125
-16.495361328125 -3.5618896484375 53.227294921875
-2.77978515625 1.62060546875 8.205078125
3.5048828125 3.31103515625 28.25146484375
31.28515625 -1.8935546875 -8.42236328125
-21.49267578125 2.9425048828125 4.416259765625
39.015625 -1.549560546875 -12.933349609375
7.293701171875 -1.3575439453125 -10.04541015625
23.546875 4.876220703125 30.32080078125
28.36474609375 2.2352294921875 15.222900390625
-10.220947265625 1.481689453125 2.3017578125
11.756103515625 -3.39013671875 -21.603759765625
-3.16552734375 1.55517578125 30.515869140625
17.745361328125 -0.931396484375 -5.1875
-3.530517578125 -0.6640625 -6.879638671875
14.64013671875 4.5965576171875 27.0390625
11.909912109375 2.8272705078125 39.6611328125
5.865478515625 1.70166015625 9.031494140625
-8.750244140625 -2.2122802734375 61.95654296875
-7.39306640625 -3.009033203125 55.488525390625
-25.269775390625 4.38671875 -4.475830078125
17.883056640625 -2.87646484375 -16.91064453125
-10.02880859375 -1.8583984375 43.89697265625
-21.378173828125 0.4241943359375 77.930908203125
26.385009765625 5.736083984375 31.4404296875
6.0517578125 1.621337890625 44.645751953125
22.00439453125 -4.8084716796875 -28.052734375
28.249267578125 0.0831298828125 1.953369140625
47.102783203125 -1.87841796875 -7.611328125
-6.002685546875 1.3133544921875 29.53955078125
-6.664306640625 -0.604736328125 42.031005859375
-26.145751953125 16.37255859375 -25.294921875
33.318115234375 -1.0859375 -5.32958984375
-23.63818359375 0.7119140625 -8.58056640625
14.42333984375 1.45849609375 9.63525390625
-1.774169921875 -0.110107421875 45.640625
-25.473876953125 -2.149169921875 60.03125
10.8515625 -2.05126953125 -13.46875
19.542236328125 5.804443359375 37.41796875
31.544921875 -2.1971435546875 -11.02978515625
14.641845703125 3.9306640625 39.11083984375
22.509765625 3.711181640625 23.2431640625
-25.6640625 14.6357421875 -16.28125
-14.77783203125 -2.676513671875 57.829345703125
-0.421630859375 0.1767578125 44.0732421875
-16.0029296875 -1.5333251953125 -15.459228515625
-6.74755859375 0.7264404296875 32.19580078125
30.68603515625 -5.5478515625 -30.5595703125
7.144775390625 0.62890625 2.524169921875
-5.8876953125 -1.4373779296875 -10.89111328125
-0.068603515625 -2.829833984375 -20.08740234375
18.9853515625 0.515869140625 5.157470703125
-4.419189453125 0.5694580078125 38.0810546875
-11.1357421875 -1.8800048828125 64.267822265625
43.419189453125 -1.69140625 -12.072998046875
38.455322265625 -1.07275390625 -5.38671875
15.505615234375 3.0775146484375 18.58642578125
19.4169921875 3.8358154296875 24.60302734375
1.48486328125 2.0770263671875 33.265380859375
-10.023681640625 -1.0570068359375 40.888671875
32.2978515625 -5.2315673828125 -29.677001953125
-26.212890625 4.337890625 -8.961181640625
37.16845703125 2.5321044921875 17.560791015625
16.40673828125 -3.9261474609375 -24.50732421875
42.34326171875 0.35302734375 3.70703125
42.97998046875 -0.4356689453125 -7.906005859375
7.3525390625 -2.162109375 -13.822021484375
41.54541015625 -0.673095703125 -1.2333984375
-1.865234375 -1.4683837890625 55.755859375
-12.254638671875 2.2781982421875 -7.829833984375
-15.8828125 -2.810302734375 58.70361328125
-7.070556640625 -0.831298828125 -6.61474609375
11.910400390625 -1.239501953125 -7.341552734375
32.144775390625 -0.58984375 -2.594482421875
-19.583984375 -3.572998046875 52.69921875
13.599365234375 3.2640380859375 19.04052734375
-8.100341796875 -1.4007568359375 -12.332763671875
13.235595703125 3.331298828125 39.429443359375
-23.591796875 -2.6771240234375 53.245849609375
-1.791748046875 0.185791015625 -1.66015625
-20.70751953125 -2.316650390625 60.203125
37.297119140625 -2.3704833984375 -12.276123046875
-24.93310546875 -2.259521484375 55.244384765625
39.390625 -0.393798828125 0.33837890625
-22.286865234375 -0.3179931640625 71.369384765625
18.73779296875 -4.006103515625 -23.579833984375
1.099853515625 0.1656494140625 -1.541748046875
-27.208984375 -0.5400390625 71.0146484375
33.16015625 0.6290283203125 4.807861328125
44.16650390625 -0.176513671875 2.97998046875
33.013427734375 1.738037109375 12.5625
8.68701171875 3.40625 19.9384765625
-24.971435546875 -2.3492431640625 58.61669921875
23.059814453125 -1.7978515625 -7.388916015625
20.0078125 -3.4818115234375 -19.957763671875
36.848876953125 -0.92333984375 -1.700439453125
45.775390625 -4.713134765625 -21.72998046875
22.842529296875 1.4620361328125 9.6015625
-11.002685546875 -1.0098876953125 38.195068359375
0.261474609375 3.70654296875 22.841064453125
-5.252197265625 0.7235107421875 1.225341796875
27.754150390625 2.713134765625 17.68603515625
-22.728759765625 -0.0220947265625 -15.93359375
-0.15673828125 -1.5789794921875 -10.584228515625
2.85107421875 -1.0592041015625 -8.7568359375
-20.31201171875 -0.3154296875 73.124267578125
30.7373046875 0.3360595703125 3.114990234375
48.7626953125 -3.2003173828125 -15.4853515625
-19.135009765625 -3.8681640625 47.983154296875
14.13720703125 0.8624267578125 5.930908203125
47.397216796875 -4.2374267578125 -17.583251953125
-6.131103515625 43.3631591796875 -30.232421875
38.10595703125 1.3140869140625 10.75830078125
37.793701171875 -3.5469970703125 -19.342529296875
5.31640625 1.0003662109375 46.74755859375
-22.131591796875 0.1256103515625 75.60205078125
-10.04931640625 44.5032958984375 -30.378173828125
-13.005126953125 1.8780517578125 7.15283203125
-14.022216796875 1.246337890625 63.47119140625
9.865478515625 2.0467529296875 40.29345703125
26.012451171875 -3.815673828125 -20.66796875
-26.02734375 4.9632568359375 -7.362060546875
5.5830078125 -2.0859375 -14.921630859375
6.740234375 -2.9405517578125 -19.632568359375
7.86474609375 -0.4163818359375 -3.360595703125
-5.240234375 -2.8284912109375 57.1376953125
-16.91552734375 0.3692626953125 77.249267578125
30.62158203125 1.58203125 11.3046875
39.895263671875 0.783935546875 4.703369140625
4.624267578125 0.06640625 -2.647216796875
-12.13671875 -2.8255615234375 57.656005859375
1.701904296875 -2.906005859375 -18.9873046875
-1.142333984375 1.8155517578125 30.7236328125
46.749267578125 -4.4908447265625 -20.54345703125
-23.31005859375 1.6807861328125 -2.4775390625
24.66455078125 1.9249267578125 12.388671875
8.382568359375 0.995361328125 5.57080078125
36.718994140625 -1.0445556640625 -9.78515625
4.83447265625 -1.6080322265625 -11.19189453125
-5.98046875 -0.429931640625 -5.68310546875
-17.609375 1.8746337890625 6.050537109375
3.707275390625 0.5250244140625 46.066650390625
34.2734375 2.64453125 17.31298828125
37.97900390625 -0.381103515625 -3.021240234375
-6.458984375 -2.597412109375 60.164306640625
-1.345458984375 3.1204833984375 24.782470703125
-8.0078125 -0.502685546875 38.91455078125
-26.0048828125 4.939453125 0.68017578125
9.84619140625 -0.651123046875 -4.38525390625
6.212158203125 0.1090087890625 0.017333984375
33.65234375 -5.2086181640625 -28.46337890625
23.7578125 3.900390625 25.310546875
-18.568359375 -0.0877685546875 74.338623046875
-16.97998046875 -2.943359375 56.270263671875
10.102294921875 3.05029296875 18.72265625
33.964111328125 -4.614501953125 -25.069091796875
47.604736328125 -1.98779296875 -0.024169921875
45.22119140625 -0.7369384765625 -1.826416015625
4.255859375 2.7476806640625 33.47119140625
13.17626953125 3.2716064453125 42.465087890625
-2.36474609375 1.4302978515625 37.363037109375
-22.400146484375 -2.01171875 60.943359375
16.501953125 3.71728515625 24.025390625
-25.81884765625 -1.177978515625 67.379150390625
22.279052734375 3.99169921875 25.68896484375
-25.4326171875 3.8994140625 -18.169677734375
44.841064453125 -0.5338134765625 0.8642578125
5.49462890625 0.1832275390625 -1.412841796875
3.841064453125 1.6553955078125 40.82958984375
3.3193359375 0.23583984375 47.3505859375
-18.84765625 2.0050048828125 66.157470703125
-16.7236328125 2.18310546875 67.78466796875
-20.16259765625 2.925048828125 5.039794921875
-16.05078125 44.324462890625 -32.250244140625
-22.824951171875 -0.0872802734375 73.193115234375
-9.44189453125 -0.1456298828125 -7.423095703125
1.08837890625 -2.0565185546875 -14.47705078125
-2.889892578125 1.01025390625 2.882080078125
-11.410888671875 3.9068603515625 -6.69482421875
-20.139892578125 -0.4776611328125 64.425048828125
39.4365234375 -0.709716796875 -1.068603515625
35.717529296875 -5.1348876953125 -28.11328125
-25.37548828125 11.32763671875 -9.923095703125
-22.899169921875 -1.3673095703125 64.38330078125
16.404296875 2.585205078125 17.10400390625
44.339599609375 -2.9144287109375 -15.8974609375
-10.55126953125 -2.56884765625 60.3427734375
7.09912109375 1.1090087890625 4.840087890625
-25.609130859375 15.4847412109375 -7.6767578125
-30.644775390625 0.03955078125 73.390869140625
-23.392578125 -1.934814453125 62.10546875
20.66162109375 -1.3642578125 -6.3740234375
-20.63525390625 0.002197265625 67.029296875
13.8642578125 3.7152099609375 22.25439453125
19.866455078125 4.3070068359375 26.701416015625
30.716064453125 -3.5716552734375 -20.252197265625
21.5078125 -0.931396484375 -3.72265625
1.615234375 3.820068359375 23.8779296875
38.3193359375 -0.5975341796875 -11.215087890625
-23.647216796875 0.23486328125 -10.902587890625
