1.38525390625 1.6019287109375 17.499755859375
-4.529296875 -3.116455078125 45.16455078125
24.8720703125 3.4324951171875 16.81494140625
25.739501953125 -0.7467041015625 5.7392578125
0.572265625 0.1396484375 8.27001953125
43.1650390625 -4.7288818359375 -23.06494140625
9.130615234375 -3.3182373046875 -14.251708984375
21.465087890625 -0.848388671875 4.472412109375
-14.04833984375 -2.741455078125 38.750732421875
0.6298828125 -0.630859375 3.479248046875
45.224853515625 -2.49658203125 -6.86328125
-13.8095703125 -0.1114501953125 5.663818359375
3.145751953125 -2.3624267578125 49.341064453125
1.297119140625 -1.315673828125 -2.16845703125
8.051513671875 -0.4129638671875 48.080078125
32.982177734375 1.080078125 18.197998046875
3.46826171875 1.7276611328125 25.111572265625
-15.73046875 -5.505615234375 45.705810546875
-17.638427734375 -2.8349609375 -15.923828125
15.898193359375 -3.49658203125 -14.74560546875
-2.08349609375 -1.8321533203125 41.550537109375
12.124755859375 -0.343505859375 4.38037109375
30.73779296875 -2.9827880859375 -8.97412109375
-12.47216796875 -4.23779296875 69.839111328125
-19.9697265625 -2.25244140625 -12.26025390625
-22.445556640625 1.779296875 4.88916015625
-3.621826171875 -3.852294921875 49.85400390625
-6.185546875 -0.99658203125 32.597412109375
26.541015625 3.689697265625 31.310791015625
12.7490234375 2.2698974609375 32.756103515625
29.44140625 -4.6473388671875 -21.85107421875
7.69873046875 -2.5595703125 -10.478271484375
-4.095703125 0.2247314453125 27.490966796875
-9.589599609375 -4.6910400390625 64.64306640625
42.15625 0.06298828125 11.339599609375
-24.637939453125 14.388671875 -24.9609375
18.702392578125 0.1473388671875 12.119140625
-7.58251953125 44.703369140625 -29.234130859375
26.631103515625 -1.6278076171875 -1.5
-24.596435546875 0.4945068359375 0.189208984375
-4.414306640625 -1.3145751953125 -1.897705078125
26.355712890625 -1.1998291015625 2.6318359375
-3.75048828125 1.8363037109375 23.613525390625
37.866943359375 -0.8504638671875 -7.97705078125
20.966796875 2.2120361328125 23.106201171875
37.401611328125 -0.2440185546875 8.72314453125
19.786865234375 -3.1815185546875 -12.962646484375
8.528076171875 -0.1649169921875 7.553955078125
17.82666015625 3.1175537109375 33.73876953125
-0.859375 4.18017578125 16.792236328125
9.439453125 -2.5777587890625 -8.83642578125
-8.91015625 0.313720703125 30.427734375
-10.72998046875 43.5072021484375 -28.4296875
45.359619140625 -5.2318115234375 -26.286376953125
-19.9814453125 -3.5621337890625 65.79345703125
-8.6376953125 -4.3123779296875 48.188720703125
48.515625 -1.4656982421875 2.353271484375
48.045654296875 -4.551513671875 -20.85693359375
48.3271484375 -2.0345458984375 -5.439453125
-3.864990234375 -5.0594482421875 58.530029296875
23.60400390625 3.2337646484375 33.515380859375
1.337646484375 1.3270263671875 25.53759765625
-16.97607421875 -4.88916015625 63.024658203125
-0.685791015625 -2.916259765625 48.358154296875
40.4599609375 -1.445068359375 -0.60107421875
45.055908203125 -4.372802734375 -20.560791015625
-31.3798828125 -3.7972412109375 67.2255859375
-5.6396484375 -1.7010498046875 36.990966796875
4.905517578125 1.0555419921875 16.810791015625
6.498046875 -3.5823974609375 -18.17333984375
9.4951171875 -3.0545654296875 -11.80126953125
2.38330078125 -2.6656494140625 -10.80029296875
24.798828125 0.4329833984375 14.80517578125
-8.67724609375 -3.965087890625 45.986083984375
-7.92333984375 0.374755859375 10.294921875
23.557861328125 -2.939208984375 -10.517333984375
-7.1875 -5.406982421875 58.73583984375
38.6884765625 -1.104736328125 -11.404052734375
-21.693359375 -4.74169921875 63.291259765625
-14.006591796875 0.1231689453125 -6.910400390625
-20.28515625 -5.804931640625 55.514892578125
-3.878662109375 -0.8287353515625 33.30419921875
-7.926513671875 -2.0167236328125 35.3837890625
-13.68359375 1.626708984375 9.5966796875
-11.0791015625 -0.0618896484375 -3.927490234375
-14.8662109375 1.537353515625 -4.4765625
17.89208984375 -3.6607666015625 -15.855712890625
-16.842529296875 -5.4658203125 58.13818359375
11.99560546875 1.35302734375 38.71435546875
15.65234375 1.9334716796875 38.261474609375
32.137451171875 -3.5491943359375 -14.591796875
20.263427734375 -5.217529296875 -26.75830078125
36.92578125 -4.6534423828125 -21.564697265625
28.546875 1.3369140625 19.881591796875
42.857177734375 -0.1534423828125 -11.836181640625
17.036376953125 -0.7113037109375 5.78515625
22.324951171875 -2.7283935546875 -7.49462890625
7.658935546875 1.080322265625 34.5947265625
-10.75732421875 -2.534423828125 -11.92138671875
26.73974609375 -3.109375 -9.216552734375
19.93505859375 2.4334716796875 16.94140625
-24.781982421875 -4.0057373046875 68.821044921875
28.73388671875 -0.4222412109375 6.708984375
-27.016357421875 4.88818359375 1.265869140625
15.164306640625 -3.575439453125 -17.239013671875
39.59521484375 0.1990966796875 12.562744140625
8.851806640625 0.3961181640625 11.832763671875
11.660400390625 -3.7850341796875 -17.54736328125
-24.738525390625 13.0264892578125 -26.6396484375
16.108642578125 -1.9864501953125 -4.913330078125
48.20703125 -3.7733154296875 -18.678955078125
14.977294921875 -2.875732421875 -12.137451171875
22.70361328125 -1.914794921875 -2.74169921875
21.59326171875 3.552490234375 35.92041015625
29.510009765625 -1.7967529296875 -1.75390625
7.173583984375 1.1553955078125 18.134765625
34.890625 -3.2078857421875 -11.29150390625
11.940673828125 0.4888916015625 42.860107421875
-7.121826171875 -2.806640625 41.23193359375
-17.724365234375 -0.7047119140625 -1.1689453125
-15.48583984375 -3.7806396484375 72.21630859375
-13.6904296875 -5.0137939453125 45.7373046875
-21.402587890625 -2.02197265625 -10.2958984375
35.774169921875 0.271240234375 12.073974609375
20.969482421875 -2.1854248046875 -5.814208984375
11.072998046875 1.944091796875 21.070068359375
30.0556640625 3.3289794921875 28.468994140625
40.127197265625 -3.666259765625 -14.923095703125
-3.2978515625 -2.11474609375 -8.202392578125
8.656982421875 0.5010986328125 39.273681640625
22.566162109375 -1.4124755859375 0.74560546875
-5.779052734375 -0.42236328125 2.724609375
20.4833984375 2.188720703125 26.91650390625
-10.54052734375 0.1513671875 7.057861328125
-11.9296875 0.4281005859375 -7.31640625
25.685546875 -5.220458984375 -26.367431640625
12.596923828125 -1.5948486328125 -1.866943359375
-10.49560546875 -0.4876708984375 2.718994140625
5.850830078125 -4.2559814453125 -20.20947265625
19.36279296875 3.0281982421875 32.327880859375
-1.576416015625 1.9122314453125 20.80615234375
-7.0224609375 0.22998046875 4.7744140625
33.82275390625 2.1707763671875 24.01025390625
20.947509765625 0.556884765625 15.37158203125
6.85595703125 -0.408203125 42.4453125
27.785400390625 -5.4215087890625 -28.0888671875
4.960205078125 -0.2911376953125 39.399658203125
32.321533203125 0.0289306640625 11.1748046875
0.301025390625 -3.5850830078125 52.46630859375
1.81201171875 -1.8956298828125 -5.70947265625
15.917236328125 0.9998779296875 15.538818359375
11.302734375 -1.9466552734375 -4.999267578125
7.3994140625 -1.630126953125 -2.85546875
-1.51904296875 -0.9007568359375 36.70166015625
30.4287109375 -3.1170654296875 -10.997314453125
-3.851318359375 -1.19140625 35.5849609375
-3.255126953125 -1.79736328125 39.869140625
4.2431640625 1.020263671875 31.56982421875
13.46435546875 -3.24853515625 -13.555419921875
-2.079833984375 -4.6002197265625 56.75146484375
18.8984375 -0.243408203125 8.604736328125
-8.658203125 2.1217041015625 13.42626953125
18.64697265625 -4.807861328125 -23.669921875
-4.476806640625 -4.603759765625 54.036865234375
-5.952392578125 -2.8402099609375 42.903564453125
4.332763671875 0.228515625 35.169921875
-19.0712890625 -5.4481201171875 58.757568359375
40.42431640625 -4.38134765625 -20.124755859375
-18.319580078125 -0.1572265625 3.97998046875
22.37939453125 5.35498046875 18.810546875
34.893798828125 -0.6807861328125 7.130615234375
33.248046875 -3.0997314453125 -9.713623046875
39.570068359375 -5.1058349609375 -24.3955078125
11.7001953125 2.5091552734375 30.843017578125
5.30078125 -3.500732421875 -15.579833984375
-20.905029296875 -2.65625 -14.918212890625
-2.0263671875 -3.8414306640625 51.83837890625
25.196044921875 1.758056640625 21.638916015625
2.0263671875 -1.517822265625 43.124755859375
-27.2490234375 -4.9697265625 61.218505859375
14.976806640625 2.7730712890625 32.254638671875
39.92626953125 -0.64208984375 6.609619140625
42.90087890625 -4.1737060546875 -18.8515625
13.4326171875 2.210693359375 34.642333984375
49.690185546875 -0.7493896484375 0.892578125
-7.245849609375 -0.7659912109375 30.71435546875
25.23486328125 -2.3466796875 -5.43798828125
3.296875 0.4383544921875 10.902099609375
11.726318359375 0.18115234375 10.55322265625
-6.76806640625 1.1500244140625 27.111572265625
28.78076171875 -3.14111328125 -9.870849609375
-1.28955078125 -2.4874267578125 -11.35009765625
8.852783203125 1.7890625 31.691162109375
-2.503662109375 0.97314453125 24.90478515625
23.148193359375 -0.141357421875 9.871826171875
48.9345703125 -2.8443603515625 -16.246826171875
18.9091796875 -2.1273193359375 -4.62744140625
-23.840087890625 -1.6666259765625 -12.49267578125
1.404541015625 -2.4141845703125 48.39501953125
-21.03466796875 -0.4539794921875 1.3642578125
-13.0361328125 -4.0067138671875 67.95947265625
22.280029296875 3.0736083984375 31.957763671875
38.4033203125 -5.5382080078125 -28.825439453125
-15.06005859375 -0.2000732421875 3.4677734375
-16.19287109375 -5.8057861328125 48.9970703125
-6.65966796875 -1.5977783203125 -4.734130859375
-26.16796875 -3.5426025390625 73.075927734375
16.723388671875 -2.6036376953125 -9.050048828125
8.944580078125 2.115234375 28.34423828125
17.4091796875 2.7923583984375 35.623291015625
37.940673828125 -1.3319091796875 0.11767578125
-15.16357421875 -1.3212890625 69.09521484375
17.16162109375 -4.0338134765625 -19.8125
37.301513671875 0.616943359375 16.69677734375
-5.98583984375 -2.474609375 -11.960693359375
-24.95361328125 -4.5455322265625 56.93310546875
29.69287109375 -5.3658447265625 -27.07666015625
18.523681640625 2.48681640625 28.83837890625
43.396728515625 -5.5589599609375 -28.230712890625
8.403564453125 -2.1673583984375 -6.056396484375
6.83984375 1.0322265625 16.224365234375
45.4560546875 -5.5650634765625 -28.360595703125
35.211669921875 -2.515869140625 -6.920654296875
30.48828125 -5.1790771484375 -24.63623046875
-17.09326171875 1.0382080078125 7.975341796875
26.15576171875 -4.8751220703125 -24.523681640625
-17.751708984375 -2.408935546875 -11.8017578125
-21.02685546875 -1.0941162109375 -2.9873046875
11.400146484375 2.0657958984375 22.97119140625
9.896240234375 0.5616455078125 40.886474609375
-8.161865234375 -4.6148681640625 50.712646484375
15.730224609375 2.7933349609375 29.961181640625
-0.59033203125 1.2249755859375 25.683837890625
45.324951171875 -1.1834716796875 4.783203125
45.03955078125 -1.3145751953125 2.78564453125
33.239990234375 -5.5596923828125 -28.158447265625
29.702880859375 -2.46337890625 -6.263427734375
20.634521484375 -3.0301513671875 -11.13623046875
44.662353515625 -1.7335205078125 10.283447265625
-23.912841796875 3.2822265625 4.189453125
-21.122314453125 -5.154052734375 59.13525390625
-22.3349609375 -2.908935546875 77.171630859375
-26.247314453125 16.4892578125 -20.467529296875
23.8779296875 -0.5159912109375 6.155029296875
3.824951171875 1.925048828125 22.780517578125
-18.659912109375 -4.938720703125 62.10400390625
-9.249755859375 -3.7271728515625 44.00732421875
32.624755859375 0.5692138671875 14.9609375
24.257080078125 1.6683349609375 17.241943359375
32.892578125 -1.788818359375 -1.20556640625
-12.330322265625 -5.22802734375 48.927734375
43.972412109375 -3.28759765625 -11.992919921875
19.22265625 -1.1341552734375 1.612548828125
48.299072265625 -1.6260986328125 -0.20556640625
20.859375 -1.5513916015625 -1.873291015625
31.923095703125 1.3233642578125 19.927978515625
28.251953125 2.7113037109375 28.399169921875
5.28125 -2.892578125 -12.162841796875
-24.772705078125 -4.321044921875 66.68896484375
45.2822265625 0.07568359375 10.36962890625
-16.3349609375 -2.613037109375 -13.23486328125
16.10400390625 -0.23486328125 7.873046875
34.082763671875 0.2674560546875 13.668701171875
46.60205078125 -3.4359130859375 -13.30859375
27.787353515625 -3.5159912109375 -15.402587890625
38.57958984375 1.3753662109375 17.883544921875
9.346923828125 -1.7880859375 -3.925048828125
-4.62158203125 -2.3817138671875 41.189208984375
26.71875 -0.395751953125 7.324951171875
6.133056640625 -1.05322265625 45.5986328125
-4.28955078125 -1.7088623046875 -5.4462890625
2.810791015625 -3.4859619140625 -14.73046875
-7.791748046875 -3.478271484375 -18.867431640625
-10.15478515625 0.553466796875 10.3466796875
46.311279296875 -3.021484375 -9.602783203125
-26.44775390625 3.7109375 -8.851318359375
43.404296875 -1.873046875 -8.98876953125
-19.301513671875 -6.30322265625 51.231201171875
-0.6220703125 -1.15966796875 -1.10888671875
48.7763671875 -4.8885498046875 -27.163818359375
-11.92822265625 -5.1634521484375 58.93896484375
6.9208984375 0.267333984375 11.477294921875
30.70556640625 0.823974609375 15.892822265625
-16.26171875 43.109130859375 -30.356689453125
26.857666015625 0.792724609375 15.499755859375
-22.427734375 -1.8472900390625 -7.887939453125
-5.994384765625 0.6287841796875 11.071044921875
23.260498046875 2.5860595703125 29.4375
-25.37841796875 1.9403076171875 -10.52099609375
33.554931640625 -2.1180419921875 -3.919921875
-0.67431640625 -3.001708984375 -15.595458984375
35.867919921875 -1.4344482421875 0.310546875
32.019287109375 -0.0986328125 9.212646484375
30.497802734375 1.7489013671875 21.628662109375
-11.759033203125 0.7120361328125 -2.139404296875
-19.540771484375 -1.220947265625 -5.0234375
27.210693359375 -0.2152099609375 11.873046875
19.34228515625 3.3204345703125 37.74951171875
4.669189453125 -2.248779296875 -7.489990234375
25.3408203125 2.2366943359375 26.478759765625
-24.99853515625 3.4847412109375 -4.7890625
13.715576171875 2.417236328125 25.13916015625
26.194091796875 1.2620849609375 19.06591796875
3.60888671875 -1.3712158203125 -1.80224609375
27.509765625 1.9859619140625 23.402099609375
-5.97509765625 -5.179931640625 56.794677734375
13.5810546875 0.6448974609375 13.3486328125
15.1435546875 -2.4981689453125 -7.4970703125
41.630859375 -4.976318359375 -24.060791015625
38.40869140625 -5.9755859375 -30.784912109375
36.57568359375 -2.624267578125 -10.07177734375
18.68359375 2.1114501953125 21.774169921875
-27.366455078125 -4.5186767578125 65.663818359375
-8.7919921875 -0.199951171875 6.225830078125
43.532470703125 -3.4857177734375 -16.7724609375
36.151123046875 -0.3297119140625 10.254638671875
-4.74462890625 1.648193359375 13.5986328125
46.590087890625 -4.69482421875 -21.966064453125
-7.587158203125 43.5213623046875 -30.6376953125
1.343505859375 1.1986083984375 15.7109375
-26.408203125 2.6309814453125 2.319091796875
37.270263671875 -5.4058837890625 -27.3837890625
35.919189453125 -4.15234375 -19.34765625
36.599853515625 -1.0985107421875 3.64892578125
-13.885986328125 -3.6585693359375 65.12646484375
-5.878173828125 -4.48193359375 50.94091796875
-25.145263671875 4.2578125 2.755126953125
-23.665283203125 -0.0411376953125 2.455322265625
-16.498046875 -3.2755126953125 76.7900390625
40.531494140625 0.85595703125 -12.42578125
34.193359375 1.5784912109375 22.22509765625
-3.142822265625 -2.9881591796875 -14.748779296875
-21.01708984375 -0.786865234375 -1.07177734375
46.8291015625 -1.4931640625 3.4521484375
6.818603515625 0.349853515625 38.402587890625
32.954833984375 -4.540283203125 -21.436767578125
-16.461669921875 -0.0035400390625 4.84912109375
4.46630859375 -1.8759765625 48.134033203125
-23.97412109375 -2.17822265625 -14.232177734375
33.4150390625 -5.0589599609375 -23.45751953125
-14.558837890625 1.5594482421875 -2.41943359375
30.63623046875 1.9495849609375 25.114501953125
4.960205078125 -0.7664794921875 2.16796875
33.4951171875 -3.5111083984375 -13.390380859375
19.094970703125 3.1292724609375 19.326416015625
-20.33349609375 -5.6024169921875 57.308349609375
-1.16943359375 -3.406005859375 50.3125
-19.266845703125 -3.3192138671875 73.853759765625
15.04248046875 2.0240478515625 23.984375
25.390380859375 -3.14697265625 -10.407958984375
48.66943359375 -2.7265625 -13.98583984375
14.612548828125 1.6700439453125 41.774169921875
36.56005859375 -2.054443359375 -3.83984375
-15.810791015625 -2.7806396484375 -14.944580078125
-2.025390625 -2.2159423828125 43.301513671875
23.89013671875 -2.384033203125 -6.6240234375
12.572509765625 -2.7890625 -11.948486328125
24.02392578125 -2.60107421875 -8.71533203125
27.2119140625 -2.348388671875 -5.53466796875
30.774169921875 -4.0157470703125 -17.707763671875
34.95751953125 -4.678955078125 -22.01171875
-26.078369140625 1.8468017578125 -1.47509765625
17.032470703125 0.422607421875 11.36767578125
-15.944580078125 -3.6580810546875 63.798583984375
-8.19775390625 -1.28759765625 32.910400390625
-1.381103515625 0.341064453125 28.633544921875
8.386474609375 2.3743896484375 26.256591796875
-25.4736328125 -4.8824462890625 61.131103515625
25.241455078125 -3.66259765625 -15.54736328125
-0.936279296875 2.4857177734375 17.561279296875
0.202880859375 -2.5638427734375 -12.355712890625
22.955810546875 -1.180908203125 2.62060546875
49.1435546875 -0.8800048828125 -2.7001953125
17.817138671875 -1.2725830078125 0.54150390625
-12.4599609375 -5.700439453125 52.223876953125
23.2060546875 -0.4530029296875 7.938720703125
33.7060546875 -2.7596435546875 -7.9033203125
-0.49755859375 0.0870361328125 32.1328125
0.235107421875 1.5899658203125 24.12744140625
34.904541015625 0.825927734375 17.270751953125
33.70703125 -2.33544921875 -6.013916015625
8.39599609375 1.9478759765625 23.970458984375
42.793212890625 -2.4228515625 -10.598876953125
-28.589599609375 -4.0067138671875 62.826904296875
23.978759765625 0.0045166015625 11.645263671875
-14.724365234375 0.2554931640625 7.8115234375
5.95849609375 1.3482666015625 30.307861328125
27.361328125 2.4686279296875 26.755126953125
-25.567626953125 -4.77490234375 62.97900390625
39.540283203125 -2.2542724609375 -4.651123046875
2.822998046875 0.1126708984375 9.170166015625
-8.8994140625 -2.8487548828125 67.94970703125
18.311279296875 -0.080078125 10.275390625
-14.046142578125 -2.2000732421875 -9.95166015625
9.548583984375 2.0364990234375 22.5126953125
-12.40966796875 -4.8570556640625 47.217041015625
5.4013671875 0.85791015625 32.87451171875
-11.646484375 -5.131591796875 60.75244140625
-10.258056640625 -5.514404296875 53.403564453125
44.705810546875 -6.058349609375 -32.344482421875
-24.942138671875 -0.0247802734375 -11.258544921875
10.60400390625 -3.6590576171875 -16.161376953125
-18.661865234375 -1.7216796875 -7.649658203125
-17.7978515625 -1.5758056640625 -5.877685546875
-19.394287109375 -3.0462646484375 76.944091796875
-17.2880859375 -0.173095703125 2.575927734375
22.953369140625 0.6602783203125 15.2060546875
-6.312744140625 0.478759765625 8.6298828125
-26.66259765625 15.8822021484375 -18.702880859375
-12.498779296875 -0.075927734375 6.808349609375
-15.388427734375 -0.380859375 67.58935546875
17.0078125 2.97802734375 32.025634765625
-14.138427734375 44.5914306640625 -28.73974609375
-6.315673828125 -4.8419189453125 53.2666015625
32.054931640625 -2.361083984375 -4.89990234375
-9.19970703125 0.31298828125 8.628662109375
11.20556640625 2.318115234375 25.966552734375
17.675537109375 3.2095947265625 39.31982421875
45.467041015625 -1.1278076171875 7.41796875
-11.344482421875 -3.4305419921875 39.440673828125
-6.66796875 -4.2935791015625 64.048095703125
9.57861328125 1.455810546875 19.26904296875
41.540283203125 -6.0848388671875 -31.79443359375
28.092041015625 -1.9364013671875 -2.83447265625
36.070556640625 0.398193359375 14.03173828125
-17.455322265625 46.2021484375 -34.74560546875
12.05517578125 1.7010498046875 35.91552734375
-24.88671875 1.0782470703125 1.972412109375
19.37646484375 -1.7923583984375 -2.84521484375
40.1923828125 -1.0423583984375 3.015625
4.7998046875 -3.2281494140625 -13.953125
4.76708984375 1.762451171875 26.244384765625
48.050048828125 -2.0521240234375 -3.67041015625
41.690185546875 1.4266357421875 -11.001708984375
-26.515869140625 5.352783203125 -2.51513671875
-19.771484375 -5.887451171875 49.126708984375
6.5615234375 -1.2205810546875 49.06005859375
-2.917724609375 1.4014892578125 22.122314453125
-23.10107421875 -4.831787109375 53.71533203125
-6.450927734375 -3.4410400390625 -17.68896484375
9.63623046875 -0.43701171875 46.15869140625
14.7939453125 2.3447265625 35.6796875
-4.328125 0.106201171875 29.187744140625
36.947021484375 -5.681640625 -29.935302734375
2.708740234375 1.087158203125 28.90576171875
35.143798828125 -3.6207275390625 -14.98193359375
-25.41064453125 -5.109619140625 58.890869140625
23.302978515625 4.7628173828125 16.31494140625
-14.729248046875 -0.5390625 64.2041015625
37.00146484375 -3.40234375 -12.962158203125
42.46630859375 -0.6983642578125 -7.92041015625
35.4423828125 -0.9498291015625 5.534423828125
9.507080078125 1.232666015625 35.468505859375
0.874755859375 0.563232421875 30.3525390625
20.11181640625 -5.1263427734375 -25.06201171875
20.421142578125 -0.3155517578125 7.63916015625
33.7626953125 -4.2216796875 -18.55810546875
9.76953125 2.2552490234375 30.056640625
39.0419921875 0.465576171875 14.143310546875
8.2021484375 0.08935546875 41.205322265625
-29.04638671875 -3.7686767578125 70.296142578125
-9.6533203125 -2.876708984375 39.0361328125
-17.765380859375 0.41748046875 6.55126953125
-0.2421875 -0.8658447265625 37.8115234375
3.6240234375 -1.969970703125 -5.1611328125
5.514892578125 -0.540283203125 41.423583984375
7.953857421875 -0.904052734375 46.465087890625
4.896240234375 -1.30712890625 -0.1005859375
-24.047607421875 -3.6473388671875 72.572998046875
15.1962890625 -0.48193359375 6.198486328125
-2.239501953125 -3.156005859375 48.970947265625
-2.324462890625 -2.8992919921875 46.8447265625
19.504150390625 0.72802734375 16.220458984375
40.997314453125 0.7530517578125 15.475830078125
-25.237060546875 0.531982421875 -16.04541015625
-22.915771484375 -1.2205810546875 -3.325439453125
21.687255859375 0.3150634765625 12.127685546875
-8.406494140625 -2.02001953125 -8.736083984375
-9.3837890625 -3.4447021484375 42.356689453125
-16.161376953125 -5.9681396484375 52.50927734375
14.757080078125 0.1671142578125 9.068359375
-9.843017578125 -3.201904296875 -15.578125
4.358154296875 -1.5880126953125 46.479736328125
24.93017578125 2.2998046875 18.6884765625
-25.633544921875 12.8453369140625 -21.636962890625
-26.401611328125 2.433837890625 -5.64013671875
-14.359130859375 -0.99560546875 1.17431640625
-25.20068359375 10.0223388671875 -21.146484375
-23.802490234375 -0.0614013671875 4.12451171875
-10.43603515625 -4.896240234375 49.611328125
-12.021240234375 -4.4688720703125 45.350341796875
-1.462890625 -2.4586181640625 45.296142578125
-19.203125 -5.1038818359375 47.423583984375
-5.288330078125 -3.80859375 48.830322265625
-25.33544921875 1.7357177734375 -12.573974609375
39.6396484375 -3.2840576171875 -13.372314453125
22.077880859375 -4.968017578125 -24.167236328125
-2.5986328125 -0.7938232421875 34.4169921875
21.084716796875 -1.653076171875 -0.2255859375
43.888427734375 -2.417236328125 -4.2685546875
-16.540283203125 -2.2362060546875 64.42236328125
-17.18310546875 -5.0594482421875 44.830810546875
16.84375 -2.820556640625 -11.140869140625
40.0888671875 -5.6544189453125 -30.478515625
13.237060546875 1.4130859375 40.33349609375
36.384033203125 -1.9688720703125 -2.193359375
15.828857421875 -4.824462890625 -24.94921875
-26.51513671875 3.322021484375 -4.141845703125
11.032470703125 -2.263916015625 -8.517578125
41.199951171875 -5.6260986328125 -27.413330078125
7.21826171875 -3.6348876953125 -16.133544921875
-14.338134765625 -5.596923828125 49.284423828125
-9.39697265625 -0.9945068359375 -2.1142578125
-28.164306640625 -4.195556640625 67.0732421875
31.34619140625 -5.4808349609375 -28.714599609375
0.12646484375 1.7418212890625 21.44921875
48.00439453125 -4.3768310546875 -23.277099609375
7.860107421875 0.9180908203125 14.9345703125
1.455322265625 -1.9627685546875 46.087890625
-15.436767578125 -4.597900390625 42.9931640625
-1.139892578125 -3.953857421875 55.56005859375
-3.13134765625 0.0836181640625 7.371337890625
-10.577880859375 1.71630859375 11.707275390625
38.592041015625 -6.069580078125 -32.516845703125
14.164306640625 -4.2259521484375 -20.31201171875
-12.64599609375 -3.1617431640625 -15.741455078125
48.815185546875 -5.7674560546875 -31.1044921875
9.13232421875 -0.2139892578125 43.655029296875
7.82861328125 0.88037109375 36.2119140625
-13.585205078125 -2.931640625 75.333740234375
7.565673828125 1.806884765625 22.243896484375
9.204345703125 -3.9593505859375 -18.24169921875
26.996337890625 -0.1119384765625 10.254150390625
-2.31298828125 0.685302734375 11.970947265625
43.6611328125 -0.1121826171875 10.467529296875
7.720703125 -0.6202392578125 3.858642578125
5.05517578125 -2.1458740234375 49.6337890625
-7.867431640625 -2.186767578125 -10.440185546875
-26.376953125 2.671142578125 -17.42626953125
-21.037841796875 -3.4078369140625 73.9228515625
22.931640625 -4.8133544921875 -22.310546875
25.198974609375 2.7166748046875 29.8095703125
23.37255859375 -4.3074951171875 -19.468505859375
18.7138671875 2.3857421875 26.7822265625
45.203857421875 -3.741943359375 -15.427490234375
28.053955078125 0.753662109375 17.285888671875
12.1689453125 1.178466796875 44.317138671875
-15.73291015625 44.34228515625 -37.36669921875
-5.615234375 0.0712890625 28.06787109375
19.60595703125 3.0474853515625 34.294677734375
-17.34716796875 44.071044921875 -29.013916015625
-21.65283203125 -5.087646484375 60.66943359375
-10.222412109375 -4.791015625 48.00537109375
0.203369140625 0.7440185546875 28.885498046875
-26.661865234375 0.756103515625 -14.064453125
-26.541748046875 -3.181396484375 74.7861328125
37.765380859375 -4.06640625 -17.77099609375
29.04443359375 -1.42333984375 -0.245849609375
-18.584716796875 -3.3665771484375 75.554931640625
-17.840087890625 -2.3251953125 -10.185791015625
32.818603515625 -1.470947265625 0.767333984375
-12.31591796875 -5.102783203125 63.300537109375
-1.33544921875 2.0357666015625 19.071533203125
1.157470703125 -3.6859130859375 -18.47314453125
14.698486328125 -2.1253662109375 -5.98779296875
6.066162109375 0.6771240234375 34.3359375
1.582763671875 -0.7159423828125 38.677734375
-11.472412109375 -2.546875 36.331787109375
10.673095703125 0.8232421875 39.470458984375
-0.359130859375 -1.7940673828125 -7.256591796875
34.632080078125 -5.385986328125 -26.481689453125
-21.465576171875 0.26220703125 5.76171875
28.814208984375 -1.023681640625 3.343505859375
42.451904296875 -5.95751953125 -30.473876953125
-26.000732421875 -4.499755859375 64.800048828125
13.57275390625 1.6331787109375 38.56689453125
9.804443359375 -4.2939453125 -20.998291015625
25.438232421875 -0.1688232421875 10.783935546875
-29.079345703125 -3.5732421875 72.031982421875
-23.8212890625 -0.0721435546875 -1.77783203125
-24.84765625 -3.3267822265625 73.965576171875
-11.04931640625 -3.1954345703125 -17.951904296875
25.896484375 -0.8292236328125 4.1259765625
-9.384033203125 -2.8404541015625 -13.255859375
-0.323486328125 -0.5994873046875 35.62451171875
-22.9677734375 -5.333251953125 59.3056640625
2.5927734375 -2.1197509765625 47.356201171875
-17.656005859375 -3.5361328125 64.18896484375
28.59130859375 -4.8026123046875 -23.714111328125
3.12158203125 -0.075927734375 36.2529296875
22.232666015625 -5.05908203125 -25.86279296875
-11.646240234375 2.3681640625 -4.043701171875
13.98779296875 -2.649658203125 -10.8701171875
-14.81640625 -1.3399658203125 -6.543701171875
33.028564453125 -5.302001953125 -25.41796875
47.378173828125 -3.805419921875 -16.66943359375
47.098876953125 -5.650390625 -29.4404296875
20.06103515625 -0.9866943359375 3.40234375
-10.88720703125 -0.74072265625 0.3515625
6.51416015625 -2.1939697265625 -6.502197265625
49.687744140625 -0.973388671875 -6.695556640625
-14.677490234375 42.4559326171875 -29.20458984375
-26.28173828125 3.1143798828125 -2.425048828125
16.629150390625 1.9058837890625 22.0234375
45.735107421875 -2.2003173828125 -2.261474609375
-12.63916015625 -0.38720703125 1.19580078125
20.12646484375 -4.401123046875 -21.67431640625
-15.0048828125 -2.5762939453125 -12.0693359375
12.8017578125 -0.5284423828125 5.923828125
13.119873046875 -0.7191162109375 2.182373046875
49.95458984375 -0.750244140625 2.458740234375
25.0166015625 -4.2857666015625 -20.620361328125
44.20458984375 -1.06201171875 6.131591796875
14.757080078125 -4.400634765625 -22.076171875
-19.798828125 0.8941650390625 6.3134765625
-18.811767578125 -0.4810791015625 2.254150390625
21.6767578125 -0.380615234375 8.905029296875
-2.347412109375 -2.337158203125 -9.44970703125
-7.5498046875 -2.7860107421875 -12.2734375
-22.238525390625 -2.0406494140625 -11.640869140625
-11.90283203125 -3.7479248046875 71.233154296875
21.847900390625 -3.667724609375 -16.076904296875
44.546875 -3.5662841796875 -13.65283203125
40.73291015625 -0.6241455078125 7.97119140625
39.2265625 -3.790771484375 -16.218017578125
41.95458984375 -5.567138671875 -28.88134765625
-26.96142578125 -3.9913330078125 69.408935546875
-2.18701171875 -3.213134765625 -16.012939453125
32.22119140625 -2.871337890625 -8.43896484375
-13.337890625 -5.772216796875 56.394775390625
-15.9912109375 -5.7027587890625 47.396728515625
-4.458984375 -3.501953125 -18.900634765625
4.7958984375 -0.6578369140625 4.29833984375
-1.957275390625 -1.63623046875 -4.6484375
12.51220703125 2.628662109375 28.455322265625
-5.962158203125 -0.135009765625 6.321044921875
3.837158203125 0.5791015625 33.0302734375
28.402587890625 2.2296142578125 25.05322265625
46.492431640625 -4.3643798828125 -19.910888671875
19.00146484375 -0.8671875 4.734619140625
22.140869140625 5.3145751953125 36.061767578125
45.560302734375 -1.982421875 -0.166015625
-5.259765625 -0.44677734375 30.897705078125
-18.215576171875 -0.8388671875 67.248291015625
3.035888671875 -0.61181640625 3.21728515625
25.0419921875 1.83544921875 23.20263671875
31.510009765625 -3.3753662109375 -12.83349609375
-14.295166015625 -4.3106689453125 41.951171875
-8.954833984375 -5.4017333984375 58.74755859375
35.799560546875 -6.120849609375 -30.90771484375
-15.9306640625 -2.354736328125 -10.824951171875
36.16064453125 -5.1392822265625 -25.489013671875
-2.709228515625 -0.4322509765625 4.954345703125
5.9775390625 0.762939453125 14.054443359375
1.263671875 -2.3289794921875 -7.376220703125
-13.584228515625 -1.8426513671875 -7.65380859375
26.022216796875 -1.459716796875 0.210693359375
33.78369140625 0.140380859375 11.71240234375
27.258056640625 -5.0054931640625 -25.94775390625
24.064453125 3.41796875 15.478759765625
23.09423828125 -1.681884765625 -0.856689453125
27.487548828125 -4.6727294921875 -22.2958984375
24.265380859375 -5.2286376953125 -27.0107421875
39.39111328125 -4.0140380859375 -18.36279296875
40.546142578125 -5.44580078125 -25.6044921875
34.36328125 -5.692138671875 -29.598876953125
27.373046875 -2.4342041015625 -7.181640625
33.447265625 0.7144775390625 16.732421875
36.6103515625 -1.9344482421875 -7.277099609375
-1.2734375 0.5445556640625 10.152099609375
-28.1357421875 3.7208251953125 -4.4560546875
2.272705078125 -2.802978515625 50.877197265625
38.830078125 -1.21044921875 1.38671875
45.552734375 -5.8994140625 -30.441650390625
-4.936279296875 0.6143798828125 9.6787109375
35.59716796875 -4.8568115234375 -23.80322265625
42.51123046875 -1.2017822265625 3.497314453125
42.78662109375 -1.605224609375 -0.120849609375
12.8359375 -2.758544921875 -9.837890625
-19.6650390625 -2.360595703125 79.32666015625
-8.643310546875 -0.76806640625 1.247314453125
2.7646484375 1.5604248046875 26.482666015625
32.066650390625 -4.963623046875 -24.214599609375
4.060791015625 1.59521484375 27.61279296875
31.160888671875 -3.7762451171875 -15.771240234375
2.390869140625 1.05908203125 13.902099609375
29.020263671875 -3.125732421875 -11.638671875
28.026123046875 -3.48388671875 -13.260498046875
8.816162109375 0.7030029296875 13.7373046875
-0.39306640625 -2.3670654296875 -10.093505859375
45.4013671875 -1.6690673828125 8.92626953125
-23.281494140625 -0.400390625 1.001220703125
0.531005859375 1.1826171875 14.3955078125
12.625 -1.179443359375 -0.017822265625
-4.833984375 -1.5433349609375 -3.754638671875
5.020263671875 0.2657470703125 11.5498046875
34.978759765625 -1.977783203125 -2.834716796875
7.900634765625 -1.8983154296875 -4.453369140625
14.373779296875 1.653564453125 19.75
-19.0869140625 -2.7586669921875 -14.919677734375
-10.857421875 -3.73779296875 42.008544921875
14.51513671875 -1.438232421875 -0.97998046875
24.301513671875 -3.33056640625 -14.371337890625
21.428466796875 -4.0382080078125 -18.453125
16.419189453125 2.15966796875 25.03369140625
20.144287109375 0.2578125 12.65234375
-11.79931640625 -5.8665771484375 53.60595703125
-10.1650390625 -0.4888916015625 4.223388671875
-10.084716796875 -4.532958984375 66.0927734375
-19.191162109375 -0.9132080078125 -1.58837890625
24.639892578125 -1.75732421875 -1.849365234375
31.11474609375 -1.61083984375 -1.867919921875
38.13623046875 -1.014404296875 3.64453125
43.23388671875 -1.267333984375 1.676513671875
-15.98974609375 -5.9866943359375 50.529052734375
46.48486328125 -2.695068359375 -6.004150390625
48.320556640625 -1.380859375 3.99365234375
-13.748779296875 -3.4974365234375 69.22216796875
18.0673828125 0.6175537109375 15.687255859375
-8.51416015625 -1.780517578125 -6.1474609375
-11.497802734375 -4.2603759765625 68.65185546875
42.288818359375 -0.409423828125 8.41015625
-2.51953125 0.133544921875 29.64306640625
4.013671875 -4.179443359375 -20.75732421875
15.1298828125 0.5484619140625 11.870361328125
-0.469970703125 0.92529296875 27.41455078125
-2.41259765625 -1.24169921875 -2.625244140625
19.754638671875 0.0303955078125 10.808349609375
23.907470703125 2.1260986328125 25.94287109375
39.61669921875 -0.2926025390625 -7.30908203125
9.852294921875 -2.05712890625 -5.528076171875
13.77783203125 -4.9219970703125 -24.7158203125
4.6689453125 -1.3779296875 44.75390625
30.16259765625 -2.12548828125 -4.46533203125
7.178955078125 -1.05078125 2.205810546875
8.86865234375 -1.390869140625 -1.890625
-7.993896484375 -5.2347412109375 54.50244140625
10.958984375 -4.1871337890625 -22.05810546875
-4.731689453125 -2.224365234375 -8.726318359375
-28.5859375 -4.552734375 64.615966796875
-23.4677734375 -4.077392578125 68.040771484375
16.67724609375 1.322265625 18.7626953125
18.96630859375 -3.787353515625 -17.246826171875
-26.483642578125 2.9696044921875 -7.139404296875
31.54638671875 -0.560791015625 7.00927734375
19.05615234375 -2.2122802734375 -6.263671875
21.391357421875 2.8328857421875 30.32763671875
-22.64697265625 -4.71826171875 64.486328125
22.718994140625 -3.3834228515625 -13.793212890625
10.18896484375 -4.1881103515625 -19.52392578125
24.177001953125 -2.0928955078125 -3.634765625
42.17431640625 -3.5362548828125 -14.580810546875
43.073974609375 -3.4117431640625 -13.2861328125
38.39599609375 -4.8096923828125 -21.941162109375
22.157470703125 -2.947998046875 -11.156005859375
-26.66064453125 14.4481201171875 -22.600830078125
35.91650390625 0.6075439453125 16.0595703125
43.421875 -2.3162841796875 -7.531982421875
23.919677734375 0.314697265625 13.56787109375
-5.943603515625 1.032470703125 12.8642578125
40.957763671875 -0.865478515625 5.36767578125
7.74609375 -1.2158203125 0.521240234375
-25.187255859375 1.962646484375 -0.24853515625
27.852294921875 -1.246337890625 2.1875
-24.25146484375 -5.05810546875 55.65087890625
39.309814453125 -0.3455810546875 8.746337890625
-16.83544921875 -0.58740234375 0.06005859375
12.296630859375 2.30712890625 24.60693359375
29.775390625 -0.801025390625 4.498779296875
33.74560546875 -1.0888671875 2.911376953125
4.943603515625 -3.92578125 -19.036865234375
48.77294921875 -4.3154296875 -24.73974609375
-14.4345703125 -5.3416748046875 61.1982421875
-24.161865234375 10.34814453125 -20.090087890625
5.47119140625 0.2171630859375 37.375732421875
9.980224609375 -0.2095947265625 7.12255859375
38.636962890625 -0.0230712890625 11.41015625
37.458251953125 0.4075927734375 14.669677734375
30.412109375 0.00048828125 10.71533203125
3.116455078125 -1.1051025390625 -0.2158203125
37.109375 -0.107666015625 11.406494140625
40.55322265625 0.4212646484375 13.714599609375
16.179931640625 -2.1732177734375 -6.443115234375
47.371337890625 -5.0709228515625 -25.37744140625
0.289794921875 -1.92822265625 44.4150390625
38.348876953125 -0.568603515625 7.58935546875
4.583740234375 -1.7490234375 -4.013427734375
28.944580078125 1.6895751953125 22.1376953125
1.69921875 1.59814453125 18.978759765625
-23.98388671875 -2.815673828125 77.08740234375
40.276611328125 -1.3134765625 -12.888671875
-3.22607421875 -2.7728271484375 -12.670166015625
6.713623046875 -3.361572265625 -14.503173828125
-14.478515625 -2.7437744140625 -13.776611328125
41.307861328125 -1.4176025390625 -6.428466796875
6.664306640625 -2.8839111328125 -11.5302734375
50.066650390625 -0.7158203125 -8.134521484375
-26.685546875 3.969970703125 2.958740234375
10.647705078125 -1.1517333984375 0.607666015625
-22.349853515625 0.146240234375 4.544921875
14.744140625 2.0284423828125 22.505615234375
32.228271484375 -4.1702880859375 -18.07763671875
-25.278076171875 -3.056884765625 75.749267578125
45.182373046875 -5.00390625 -24.106201171875
20.585205078125 1.8597412109375 24.521728515625
10.143310546875 -0.88525390625 2.194091796875
32.77294921875 0.360107421875 12.93310546875
25.99462890625 -4.7843017578125 -22.827880859375
5.080322265625 -2.0172119140625 -5.61181640625
37.334228515625 1.286376953125 19.38427734375
1.005859375 -0.1014404296875 34.363525390625
-11.14892578125 -3.109619140625 -16.3115234375
1.531982421875 1.85107421875 21.97705078125
-17.487060546875 -0.7664794921875 -4.4580078125
4.740234375 -0.4759521484375 5.791015625
-7.111572265625 -3.60546875 45.76806640625
31.732666015625 1.14599609375 16.937255859375
-8.828369140625 -2.4073486328125 -11.5869140625
31.093505859375 0.3560791015625 14.521728515625
-20.12841796875 -0.6697998046875 0.154296875
6.692138671875 1.6912841796875 21.030517578125
-15.0966796875 -2.1798095703125 -8.505126953125
45.445556640625 -3.44189453125 -12.35791015625
44.3798828125 -4.3297119140625 -19.225830078125
12.6767578125 0.3997802734375 11.68798828125
2.01904296875 -0.0582275390625 6.885009765625
-7.4423828125 -4.6893310546875 52.021728515625
-20.589599609375 -6.134033203125 51.971435546875
-3.346923828125 0.4866943359375 26.039306640625
-4.58447265625 -3.097900390625 -15.272216796875
14.791748046875 1.569091796875 39.777099609375
-0.899658203125 0.794677734375 12.49755859375
-7.968017578125 -3.246337890625 42.791259765625
10.118408203125 1.1707763671875 17.2099609375
-4.351806640625 -0.467041015625 2.2890625
-6.28564453125 -1.031494140625 -0.411376953125
16.75927734375 -4.5675048828125 -23.20751953125
21.2685546875 4.3870849609375 19.326171875
3.241455078125 -0.7342529296875 40.215576171875
15.61572265625 -1.5869140625 -2.8671875
-13.180908203125 -5.6273193359375 50.921142578125
20.546875 -0.52587890625 5.601318359375
-21.86865234375 -3.0616455078125 75.765869140625
-12.36962890625 -0.3350830078125 3.7568359375
-0.747314453125 -0.92236328125 1.458251953125
-19.000732421875 -5.97314453125 54.781982421875
14.69287109375 1.1923828125 14.71484375
41.123779296875 -3.304931640625 -13.286376953125
10.71142578125 -1.3359375 -0.903564453125
42.7333984375 -0.6783447265625 -9.701171875
6.09716796875 -0.0306396484375 8.765625
6.96728515625 1.9891357421875 24.37451171875
45.255615234375 -2.7913818359375 -8.318359375
9.248291015625 -1.28955078125 -0.458740234375
-28.36767578125 -3.3348388671875 75.377685546875
0.92041015625 0.69677734375 12.523681640625
-21.566162109375 -5.63720703125 56.24560546875
6.0400390625 0.14990234375 10.248291015625
15.33544921875 -0.848388671875 3.192138671875
-25.767822265625 13.920166015625 -18.532470703125
-9.497802734375 -0.9130859375 -0.51708984375
-23.5771484375 -1.73876953125 -10.32080078125
19.48681640625 2.126953125 23.0908203125
-13.092041015625 -4.3902587890625 66.346923828125
-2.430419921875 -0.3388671875 2.635498046875
30.938232421875 -4.53564453125 -21.317626953125
-18.709716796875 0.2017822265625 5.430908203125
-0.614990234375 -1.6575927734375 41.49658203125
17.7734375 2.16943359375 25.660888671875
23.84912109375 2.429443359375 27.821533203125
6.44873046875 -0.8414306640625 43.865966796875
-20.070068359375 -1.6754150390625 -7.201904296875
42.338134765625 -1.9439697265625 -1.921875
8.702880859375 1.339599609375 18.04931640625
-16.78857421875 -5.66845703125 56.343017578125
17.89013671875 -3.3682861328125 -14.407958984375
0.169921875 1.7926025390625 16.684814453125
4.4755859375 0.7056884765625 14.5703125
19.79052734375 -3.4737548828125 -14.408935546875
13.127197265625 -3.67431640625 -17.01904296875
1.6435546875 -1.1875 -0.207275390625
-12.64892578125 -2.8466796875 -13.777099609375
20.808837890625 2.9881591796875 31.93359375
3.39892578125 -1.412841796875 43.650634765625
15.09033203125 2.5526123046875 26.1865234375
-8.1044921875 -1.0859375 -1.38818359375
16.517333984375 2.2996826171875 36.73828125
41.425048828125 -4.01806640625 -18.478271484375
-20.654052734375 -3.8011474609375 67.08154296875
-5.191650390625 -2.1383056640625 39.18212890625
-6.831298828125 -5.0137939453125 61.720947265625
-10.51123046875 -5.4259033203125 51.95654296875
-3.109130859375 -2.917724609375 45.6015625
13.389404296875 2.018798828125 21.87841796875
-20.4208984375 -4.9071044921875 62.574951171875
-2.269287109375 0.0338134765625 31.174072265625
34.480224609375 -1.1729736328125 4.376708984375
27.7998046875 -3.810791015625 -16.861328125
45.522216796875 -2.8597412109375 9.776611328125
11.04345703125 1.5400390625 19.2802734375
-10.00537109375 -5.6025390625 54.84619140625
-5.99755859375 -0.365966796875 29.530517578125
-8.55859375 -5.183837890625 60.404541015625
-19.945556640625 -2.4365234375 -13.775634765625
-10.278076171875 -1.57861328125 -6.257568359375
1.29296875 -3.160400390625 53.845458984375
18.649658203125 -5.104248046875 -25.138427734375
34.408447265625 -1.4154052734375 0.215087890625
17.5205078125 -2.1361083984375 -5.262939453125
11.900390625 -4.6820068359375 -24.253173828125
-3.873779296875 -0.7305908203125 0.716552734375
17.40185546875 0.521484375 12.778076171875
1.582763671875 1.6748046875 20.52734375
-8.454345703125 -5.5626220703125 57.274658203125
-5.728759765625 -5.2685546875 58.232177734375
-21.338134765625 -4.4737548828125 65.843017578125
9.501953125 -2.7650146484375 -10.369873046875
10.618408203125 0.4798583984375 42.24267578125
36.562744140625 -3.612060546875 -14.33740234375
47.3623046875 -1.492919921875 6.558349609375
21.883056640625 2.450439453125 28.387939453125
22.8759765625 -0.99609375 4.1337890625
24.616455078125 -0.60009765625 7.6044921875
-7.0703125 -1.90234375 36.556640625
26.92138671875 0.4830322265625 13.579345703125
-16.9208984375 44.6590576171875 -31.36279296875
-6.0087890625 -3.4100341796875 44.8134765625
-22.268310546875 -3.8729248046875 70.38037109375
4.21875 -1.0611572265625 42.166748046875
15.66162109375 -4.2769775390625 -20.791259765625
21.237060546875 -3.201904296875 -12.87744140625
-1.15869140625 -3.9471435546875 -20.82080078125
13.926513671875 2.738525390625 28.987548828125
32.27783203125 1.4215087890625 21.33251953125
10.748046875 0.8321533203125 14.094970703125
11.698486328125 1.3564453125 37.279296875
6.034423828125 0.583740234375 12.5810546875
-0.238525390625 -3.5345458984375 -18.109375
-2.697998046875 0.5877685546875 10.575927734375
29.953857421875 1.1925048828125 19.5615234375
-21.753662109375 -3.47802734375 71.840576171875
42.487548828125 -1.55126953125 -11.743408203125
-11.6201171875 0.3450927734375 9.920654296875
24.548583984375 -1.282958984375 1.096435546875
24.064697265625 -3.6566162109375 -17.9716796875
2.798095703125 -2.43310546875 -8.915771484375
20.87939453125 -2.7083740234375 -7.58349609375
43.001220703125 -1.9827880859375 -3.2099609375
13.4052734375 1.3096923828125 18.197998046875
27.59765625 1.1177978515625 18.7451171875
41.523681640625 -4.7803955078125 -22.46240234375
2.98681640625 -3.7618408203125 -17.926025390625
-7.044189453125 -1.4462890625 34.1982421875
2.41650390625 0.7540283203125 12.0048828125
18.115478515625 -2.594970703125 -8.4140625
17.501220703125 -0.381103515625 7.539794921875
31.903564453125 -5.7646484375 -30.410400390625
-14.026123046875 -6.024169921875 52.90234375
-18.0322265625 -6.1475830078125 52.692138671875
42.183349609375 -0.2242431640625 9.9267578125
-24.974365234375 -0.642822265625 -15.158935546875
1.12109375 -3.2073974609375 -15.490966796875
24.103271484375 5.054931640625 19.037353515625
-7.44482421875 -2.3302001953125 37.9833984375
4.58447265625 -4.35302734375 -22.51220703125
-4.310546875 -1.9937744140625 -6.85546875
-2.2734375 -0.4564208984375 33.059814453125
-0.07470703125 1.669189453125 18.429443359375
41.03173828125 0.0517578125 12.23095703125
-30.68212890625 -3.8438720703125 68.932861328125
17.421142578125 -1.50390625 -1.333984375
11.927490234375 -2.14306640625 -7.256103515625
-20.52294921875 46.71240234375 -37.64990234375
12.923095703125 0.1121826171875 8.083740234375
33.53662109375 -1.8271484375 -2.484619140625
-16.107421875 -0.7347412109375 63.76416015625
-14.1376953125 -2.4061279296875 65.771484375
-22.551025390625 -5.58447265625 57.928466796875
-24.952880859375 2.84130859375 2.73974609375
-19.65869140625 -0.166259765625 3.360595703125
42.719970703125 -5.513671875 -26.876953125
-11.219970703125 -2.7374267578125 -13.256103515625
44.430419921875 -3.9268798828125 -17.857666015625
-26.840087890625 2.493408203125 -12.121337890625
-9.9892578125 -2.250732421875 36.6767578125
2.08642578125 -3.4334716796875 -16.76025390625
22.49072265625 3.2427978515625 34.856689453125
15.426513671875 -2.669677734375 -10.78369140625
3.846923828125 -3.61083984375 -16.105712890625
31.62158203125 -5.1759033203125 -25.606689453125
-24.453857421875 -0.4560546875 -8.326416015625
3.3134765625 0.8070068359375 30.467041015625
-13.054443359375 -2.321044921875 -11.299560546875
37.032470703125 -0.8936767578125 4.99072265625
6.062255859375 -2.39794921875 -7.840576171875
-11.360107421875 43.0877685546875 -29.635986328125
-15.1240234375 -6.1834716796875 54.297607421875
14.069091796875 -1.6417236328125 -2.314697265625
44.5380859375 -4.68994140625 -21.845458984375
-13.918212890625 -3.0980224609375 -17.019287109375
4.2158203125 -2.4527587890625 -8.82861328125
-29.25048828125 -3.677001953125 73.5361328125
-0.74072265625 -0.4853515625 3.81396484375
38.41357421875 0.6290283203125 15.8173828125
39.473388671875 -1.8017578125 -2.214599609375
5.474853515625 -1.62939453125 -2.763671875
-14.447265625 -2.9293212890625 -15.30078125
-12.74462890625 -2.2830810546875 37.02490234375
7.29736328125 -1.41796875 -0.80517578125
35.930908203125 1.5595703125 20.136474609375
27.93359375 -4.4620361328125 -20.913330078125
12.751220703125 -2.1240234375 -5.8916015625
33.648193359375 -3.732666015625 -15.517578125
-26.453857421875 3.8992919921875 -0.83154296875
-11.570068359375 -0.3897705078125 -5.6826171875
-9.973388671875 -4.0560302734375 67.631103515625
20.576171875 -4.1915283203125 -20.298828125
14.69970703125 -1.8372802734375 -4.564208984375
2.3583984375 -1.18408203125 41.793701171875
-25.551025390625 12.2750244140625 -20.068359375
-4.892578125 -0.3046875 3.95654296875
-24.16845703125 -0.070556640625 -3.286376953125
-21.9619140625 -1.647216796875 -6.572509765625
26.3232421875 -4.217529296875 -18.855712890625
0.587890625 0.4197998046875 9.651123046875
31.85791015625 -2.9761962890625 -9.908203125
-10.138427734375 -0.208984375 5.603759765625
-11.988037109375 -0.348876953125 -0.674560546875
25.12646484375 -3.310302734375 -12.9833984375
9.10693359375 -0.7666015625 3.52197265625
23.45458984375 -4.5001220703125 -21.0419921875
-14.123291015625 -3.878662109375 70.981689453125
29.427978515625 0.348876953125 12.369140625
-15.028564453125 0.078857421875 4.845947265625
6.597900390625 -0.7310791015625 4.848388671875
9.7197265625 0.94677734375 15.3896484375
-2.64697265625 -3.4183349609375 -17.362060546875
4.778076171875 -0.0665283203125 7.610107421875
-18.17578125 46.1771240234375 -30.97998046875
1.088134765625 -2.2852783203125 -10.112060546875
-7.511962890625 -1.900634765625 -7.48876953125
28.103759765625 -0.386474609375 7.960693359375
27.3466796875 -0.4315185546875 6.072509765625
