21.610107421875 5.3004150390625 -13.1298828125
8.357666015625 4.748779296875 50.517333984375
39.85595703125 11.4937744140625 24.4560546875
-10.8916015625 8.800537109375 5.464599609375
43.58740234375 8.0606689453125 3.53125
-20.138916015625 5.499267578125 -35.736328125
17.9189453125 6.917724609375 -4.31201171875
32.531005859375 7.0565185546875 -2.469970703125
16.497314453125 20.2867431640625 70.19384765625
2.881591796875 8.8607177734375 21.99951171875
-18.4814453125 9.9600830078125 -12.404052734375
49.614013671875 9.273681640625 -14.48681640625
-1.444091796875 7.258544921875 -2.635986328125
23.833984375 3.3021240234375 -26.909423828125
-6.435546875 2.7574462890625 45.835205078125
-11.7763671875 3.0882568359375 -31.056884765625
-3.6015625 5.509033203125 32.213623046875
-18.4697265625 12.6937255859375 -25.941650390625
25.923828125 11.6004638671875 30.600830078125
18.853515625 8.6605224609375 41.138916015625
-1.40185546875 4.4749755859375 41.941162109375
4.99365234375 4.124755859375 -23.37451171875
-16.561279296875 1.643798828125 51.286865234375
-19.6611328125 5.2552490234375 71.587890625
1.68017578125 2.6624755859375 -33.300048828125
2.6455078125 3.14453125 57.25830078125
6.3037109375 7.281982421875 33.527099609375
31.3203125 4.124267578125 -21.79052734375
-5.34326171875 10.8505859375 -9.316650390625
19.279296875 3.57373046875 -21.9833984375
-0.994384765625 4.427978515625 69.5146484375
-13.294189453125 0.3365478515625 46.271728515625
20.454345703125 7.597412109375 1.204833984375
36.775390625 3.36669921875 -25.87548828125
37.934814453125 5.55029296875 -11.185546875
33.08837890625 2.233154296875 -34.0341796875
-7.695556640625 6.889892578125 77.017333984375
26.645263671875 10.7000732421875 18.88427734375
16.336669921875 5.170654296875 -16.515380859375
42.848388671875 3.9381103515625 -22.931640625
-17.498046875 13.1282958984375 -1.99853515625
-6.603759765625 7.1182861328125 63.66162109375
53.470947265625 1.1827392578125 -22.30615234375
17.6142578125 9.0133056640625 34.8701171875
-0.00146484375 3.5869140625 -26.56982421875
6.762451171875 5.3109130859375 44.4853515625
39.6396484375 9.1114501953125 12.046630859375
-7.596435546875 4.8475341796875 -16.34375
31.502197265625 8.8834228515625 8.90478515625
-18.66943359375 4.0211181640625 63.310791015625
48.29638671875 6.75634765625 -9.556884765625
-16.88525390625 9.537841796875 -44.484619140625
10.6201171875 8.797119140625 30.447998046875
-14.737548828125 2.8433837890625 56.73779296875
-15.296875 17.3284912109375 -25.41357421875
-18.0458984375 7.5184326171875 -22.555908203125
37.941650390625 7.8114013671875 1.73046875
12.4296875 3.1424560546875 -28.001708984375
0.9453125 6.3746337890625 34.934814453125
22.3544921875 9.7076416015625 15.861572265625
24.1962890625 8.80810546875 8.403564453125
1.798095703125 5.4765625 -13.072265625
30.531005859375 6.3101806640625 -7.305419921875
12.654296875 10.27783203125 20.172607421875
9.4189453125 6.0911865234375 -10.251220703125
-4.47412109375 6.1383056640625 -7.034912109375
-4.64208984375 4.0015869140625 -24.196533203125
6.173828125 2.008544921875 -36.03857421875
-18.006103515625 14.8399658203125 -14.035888671875
-16.25927734375 2.91552734375 -33.55224609375
12.943359375 9.8345947265625 14.8349609375
8.737060546875 8.13720703125 5.760498046875
18.85205078125 10.7828369140625 22.93505859375
34.1943359375 11.2847900390625 26.564453125
53.376708984375 4.909423828125 -14.919189453125
28.891845703125 11.2261962890625 26.502685546875
-13.8310546875 7.6995849609375 -1.35791015625
-4.0146484375 1.848876953125 50.171630859375
44.1142578125 6.3409423828125 -6.28125
-2.556884765625 0.9388427734375 -44.205078125
-3.318603515625 2.14892578125 -35.428466796875
-10.77490234375 5.61328125 73.044921875
42.643798828125 4.610107421875 -17.319580078125
41.465576171875 3.1485595703125 -27.700439453125
52.081298828125 6.897705078125 -0.510498046875
-12.568359375 5.3668212890625 -15.904296875
34.402587890625 4.6610107421875 -16.29345703125
26.53125 5.608154296875 -11.15234375
36.539794921875 10.1318359375 18.058837890625
32.5498046875 7.8245849609375 2.28515625
20.92822265625 11.1802978515625 31.060546875
42.686279296875 7.0743408203125 -1.7724609375
10.124267578125 7.5592041015625 0.836181640625
-12.41162109375 3.7159423828125 -25.35009765625
-11.694091796875 6.8424072265625 -5.551025390625
-10.165283203125 2.01171875 42.773681640625
-11.980224609375 1.5863037109375 -43.7314453125
-22.77392578125 3.859375 60.725830078125
2.8212890625 10.89111328125 17.753173828125
-17.23486328125 15.5191650390625 -29.60986328125
-19.06103515625 5.3201904296875 -40.966552734375
30.212646484375 13.5211181640625 13.547607421875
-4.6279296875 7.788330078125 0.750244140625
-1.61474609375 10.1036376953125 10.989013671875
28.56494140625 11.244873046875 34.428955078125
11.90478515625 4.2392578125 -32.456298828125
51.119384765625 2.946533203125 -28.347412109375
19.05908203125 6.0638427734375 -9.089111328125
-8.457763671875 3.323974609375 -27.901123046875
10.88525390625 6.6778564453125 42.117919921875
26.521240234375 2.5445556640625 -31.69677734375
48.00244140625 7.642578125 1.619140625
-15.37158203125 5.635986328125 -11.98681640625
6.339111328125 8.256103515625 28.331298828125
51.695068359375 6.3092041015625 -5.787353515625
-4.685302734375 3.5621337890625 60.20458984375
13.303955078125 1.2650146484375 -39.700439453125
-18.4423828125 11.6856689453125 -6.267578125
-19.32763671875 8.5164794921875 -30.5302734375
21.537109375 2.2459716796875 -33.612060546875
-7.030029296875 9.5777587890625 7.559814453125
2.79638671875 1.1497802734375 -42.662353515625
7.148193359375 4.426025390625 -19.525390625
26.495361328125 7.05908203125 -1.539794921875
9.632568359375 3.639892578125 -24.630126953125
4.320556640625 6.7965087890625 -3.892333984375
48.5986328125 5.0447998046875 -14.71630859375
-13.556640625 3.9814453125 62.0263671875
-0.3330078125 7.7755126953125 1.53662109375
4.82373046875 3.361083984375 53.505126953125
-3.96826171875 4.685546875 -19.77587890625
14.1025390625 10.5533447265625 24.25
-7.785400390625 2.794189453125 55.0771484375
49.90380859375 3.9442138671875 -23.361083984375
12.03857421875 4.8306884765625 -16.66455078125
-3.412109375 5.232177734375 36.473388671875
8.471435546875 6.6229248046875 38.501708984375
30.565185546875 11.7525634765625 17.6259765625
-2.17626953125 6.6871337890625 28.201416015625
-13.3955078125 4.5582275390625 -20.62451171875
-5.913330078125 1.435302734375 -40.383056640625
-12.929931640625 9.375 76.8701171875
3.664794921875 8.097900390625 5.821533203125
-10.02099609375 5.6697998046875 66.539306640625
-8.551513671875 8.1326904296875 2.1142578125
4.376220703125 3.4835205078125 -27.388916015625
26.119873046875 5.0809326171875 -15.8759765625
34.46875 6.2752685546875 -6.159423828125
19.679443359375 8.1982421875 5.844970703125
-18.4599609375 10.5018310546875 -18.226318359375
7.1318359375 9.8519287109375 21.01025390625
14.426025390625 2.3743896484375 -35.044677734375
3.756103515625 4.88037109375 -16.894287109375
28.427978515625 10.68798828125 22.5146484375
10.199462890625 5.6884765625 46.561279296875
-20.8544921875 4.6348876953125 66.6435546875
1.560791015625 3.9876708984375 45.459228515625
16.23046875 3.6964111328125 -24.583984375
-19.208740234375 13.666748046875 -37.92431640625
13.273193359375 6.1767578125 -7.1962890625
-7.80029296875 2.6905517578125 -33.655029296875
34.633544921875 2.590087890625 -29.159912109375
43.69091796875 8.3543701171875 7.949951171875
-4.059326171875 4.23681640625 65.948974609375
9.5244140625 3.74072265625 -37.219482421875
16.859619140625 7.2469482421875 -0.385009765625
-0.082275390625 2.772705078125 54.019775390625
38.770751953125 4.938720703125 -14.982177734375
-13.60888671875 2.4776611328125 -36.427978515625
15.49267578125 9.207763671875 11.91162109375
14.191162109375 9.2264404296875 32.004150390625
28.26171875 3.7340087890625 -24.207763671875
-3.8125 6.6712646484375 73.351318359375
29.50048828125 4.4412841796875 -18.370361328125
-18.676513671875 11.3978271484375 -22.107666015625
-16.816650390625 4.188720703125 -24.120361328125
22.188720703125 4.5057373046875 -17.717041015625
-7.049560546875 6.5394287109375 -10.38232421875
36.992431640625 10.6776123046875 22.104248046875
3.320068359375 1.71484375 -38.486572265625
20.548828125 11.2806396484375 27.312255859375
-17.305908203125 14.9056396484375 -23.08935546875
15.528076171875 7.915283203125 39.574462890625
-2.769775390625 3.3729248046875 46.24609375
-18.02880859375 7.63818359375 -9.51806640625
-17.89111328125 9.462646484375 -2.52490234375
7.807373046875 9.0997314453125 10.739990234375
-19.22607421875 9.7041015625 -35.340576171875
20.681640625 9.57666015625 38.06884765625
45.944091796875 4.2803955078125 -20.9619140625
-18.568359375 8.6781005859375 -26.93408203125
21.383056640625 7.1302490234375 -3.10009765625
-15.003173828125 5.3682861328125 70.48828125
21.831298828125 1.7906494140625 -37.27734375
-16.550048828125 3.3236083984375 60.013427734375
19.6923828125 3.193359375 -26.73193359375
3.453369140625 8.366943359375 25.792724609375
-1.100830078125 6.34375 -8.406982421875
36.302978515625 9.0660400390625 10.59521484375
32.44384765625 3.222412109375 -25.117919921875
43.022705078125 2.5526123046875 -30.914794921875
5.931640625 5.781005859375 -12.352294921875
-4.957763671875 7.4229736328125 -3.385498046875
22.737060546875 7.9691162109375 3.952392578125
7.340087890625 6.5809326171875 -7.369140625
-11.91845703125 1.700439453125 -40.149169921875
51.5078125 5.8424072265625 -11.7763671875
-19.730712890625 5.2445068359375 77.26025390625
23.777587890625 6.16455078125 -8.977294921875
-6.92333984375 3.300048828125 42.143310546875
14.94384765625 8.6331787109375 8.45849609375
27.56884765625 8.9393310546875 9.742919921875
1.032958984375 4.0146484375 -23.21728515625
39.07666015625 6.9268798828125 -1.504150390625
42.8408203125 9.581298828125 13.3974609375
22.798583984375 10.8099365234375 21.10498046875
-0.058837890625 5.0509033203125 38.763916015625
19.23779296875 9.7479248046875 14.344970703125
46.863037109375 8.0836181640625 6.582763671875
-1.3486328125 3.3582763671875 59.32080078125
40.433349609375 8.3310546875 4.90966796875
17.677490234375 23.451171875 69.5048828125
41.057373046875 5.927001953125 -9.78955078125
30.30712890625 9.7276611328125 13.619140625
-9.14404296875 5.7208251953125 -13.3974609375
12.92431640625 7.1407470703125 -1.89208984375
12.17236328125 8.385009765625 6.440673828125
23.2646484375 10.556884765625 34.13818359375
3.802490234375 11.099365234375 12.299560546875
-13.41552734375 2.4273681640625 53.6279296875
0.02880859375 2.9776611328125 -29.91748046875
23.903564453125 9.2335205078125 11.857177734375
0.141845703125 7.6087646484375 25.759033203125
-0.2744140625 8.4771728515625 6.632080078125
-0.947021484375 5.234375 -15.04931640625
-7.47900390625 9.5166015625 -7.053466796875
-14.531982421875 3.4197998046875 -29.130859375
39.34228515625 3.87109375 -23.739013671875
-9.70458984375 6.923095703125 62.35693359375
29.52734375 2.1595458984375 -33.1396484375
-8.45654296875 1.5513916015625 48.609130859375
22.12060546875 3.6546630859375 -24.059814453125
-22.3603515625 5.3316650390625 69.632568359375
-12.092529296875 8.2239990234375 2.420654296875
-17.7236328125 13.4423828125 -9.99267578125
-10.461669921875 5.0152587890625 -18.409912109375
-0.124755859375 2.134765625 -36.2021484375
-14.081298828125 6.8529052734375 -7.772216796875
15.568359375 4.40576171875 -19.8857421875
34.6787109375 5.673095703125 -11.165771484375
5.822021484375 4.58154296875 47.516357421875
-19.83056640625 8.002685546875 -38.786376953125
30.818603515625 8.1575927734375 5.00341796875
-18.669921875 5.2056884765625 -31.270263671875
1.217041015625 6.8089599609375 -4.806396484375
19.455322265625 5.06640625 -15.516357421875
-17.93896484375 2.4620361328125 -37.519775390625
11.42724609375 8.504150390625 33.551025390625
39.263427734375 10.2491455078125 19.76513671875
9.72119140625 9.753173828125 13.9560546875
23.4208984375 7.27783203125 -0.625244140625
-0.14892578125 6.39697265625 31.175537109375
-11.535400390625 3.1341552734375 57.470458984375
-17.662841796875 4.45751953125 66.680908203125
6.9033203125 7.46826171875 -1.0048828125
-18.255615234375 7.3927001953125 -14.2822265625
28.80224609375 7.4334716796875 1.22900390625
20.8271484375 2.8951416015625 -30.36328125
12.29296875 5.697021484375 -13.612060546875
-11.317138671875 5.07958984375 69.955322265625
3.70166015625 2.80712890625 -30.84814453125
35.1591796875 7.0811767578125 -0.694091796875
-18.527587890625 2.4901123046875 53.61767578125
38.330810546875 9.297119140625 15.588623046875
21.353271484375 24.4951171875 68.171630859375
-17.550048828125 5.665283203125 74.0439453125
35.653076171875 8.2540283203125 4.16455078125
-3.0478515625 8.781982421875 8.37451171875
1.539794921875 7.16259765625 -1.630126953125
35.215576171875 3.9002685546875 -23.192138671875
41.0068359375 7.5030517578125 0.905029296875
47.274658203125 6.0770263671875 -6.667236328125
5.927001953125 8.8687744140625 23.935791015625
-19.7646484375 3.50634765625 60.001220703125
-18.6884765625 11.3568115234375 -28.7392578125
37.88134765625 2.9749755859375 -29.4677734375
45.126220703125 7.4915771484375 0.478759765625
18.654541015625 5.6129150390625 -12.26318359375
3.879638671875 4.866455078125 42.210205078125
11.0517578125 4.45263671875 -19.5693359375
27.788330078125 12.0888671875 15.284423828125
4.04150390625 4.497314453125 -19.9423828125
-6.508056640625 8.359130859375 4.4140625
27.045654296875 3.1712646484375 -26.983642578125
-11.195556640625 6.306884765625 76.014892578125
48.4931640625 9.0172119140625 10.020751953125
25.021484375 3.8822021484375 -23.0888671875
46.3310546875 7.82861328125 -12.73828125
17.419189453125 2.121337890625 -34.46240234375
18.1298828125 7.8951416015625 3.22607421875
7.45458984375 3.3560791015625 -27.46337890625
-13.324462890625 1.94140625 50.621826171875
11.900634765625 9.2901611328125 27.732666015625
45.643310546875 10.250244140625 14.359375
14.92822265625 6.5660400390625 -4.666748046875
29.855712890625 11.595458984375 29.3447265625
3.77197265625 7.1756591796875 31.880859375
52.154052734375 4.2607421875 -19.31884765625
-7.80224609375 5.7081298828125 73.55908203125
-3.776123046875 3.5970458984375 -27.056884765625
20.55859375 6.3349609375 -5.888427734375
10.260009765625 10.33447265625 18.347412109375
16.5810546875 6.231201171875 -7.388427734375
-3.44482421875 6.54150390625 76.334228515625
23.347412109375 11.52001953125 28.382080078125
-15.709716796875 0.297607421875 48.746337890625
-18.632568359375 12.02734375 -14.84130859375
35.900390625 7.010498046875 -3.590087890625
-6.90673828125 4.857421875 -19.27001953125
6.193603515625 8.70166015625 7.26318359375
-10.628662109375 2.388671875 -34.471435546875
55.79150390625 3.1453857421875 -20.10791015625
-4.6845703125 5.220458984375 -16.5859375
-18.185546875 7.79736328125 -42.268310546875
27.22509765625 6.341796875 -7.204833984375
40.545654296875 8.5550537109375 7.81298828125
-1.112060546875 2.83740234375 50.78564453125
35.958740234375 2.37255859375 -32.96875
7.543701171875 8.298828125 31.1064453125
-9.072509765625 1.431396484375 -40.633544921875
15.318359375 10.4281005859375 21.303466796875
38.20361328125 8.4405517578125 23.47412109375
-3.22119140625 4.9400634765625 39.778564453125
25.87939453125 11.4124755859375 26.31201171875
-7.2373046875 5.05224609375 66.508056640625
9.920166015625 10.120361328125 21.52392578125
-18.865234375 7.2431640625 -33.24072265625
-6.167236328125 3.2327880859375 57.364013671875
5.831787109375 6.9652099609375 37.186279296875
55.364501953125 4.337890625 -13.001953125
-1.949951171875 4.2088623046875 -21.674072265625
51.3623046875 7.578857421875 2.12060546875
-9.850341796875 8.5660400390625 77.687744140625
36.930419921875 10.8338623046875 27.0107421875
-10.734375 7.7733154296875 -0.5400390625
-11.2490234375 1.6746826171875 48.440185546875
45.3447265625 5.133544921875 -16.816162109375
5.271728515625 4.1807861328125 50.227783203125
52.588134765625 3.7796630859375 -24.12109375
27.326904296875 8.63232421875 6.977783203125
-4.9775390625 3.8890380859375 63.33984375
14.912109375 2.9615478515625 -29.79833984375
46.3837890625 3.9312744140625 -23.684814453125
27.909912109375 4.1302490234375 -21.058349609375
50.9521484375 4.5970458984375 -16.216796875
6.8935546875 8.1278076171875 3.697265625
3.901611328125 6.8250732421875 34.8125
29.3935546875 6.5775146484375 -4.8037109375
14.869384765625 10.2047119140625 26.95263671875
-18.457763671875 6.00146484375 -26.150390625
13.505126953125 4.3092041015625 -38.151611328125
-18.431884765625 10.5736083984375 -9.72509765625
43.305419921875 4.4417724609375 -20.21875
38.580810546875 6.240234375 -7.663818359375
39.41796875 4.772216796875 -17.858642578125
20.351806640625 10.3314208984375 19.982666015625
24.2177734375 2.9578857421875 -29.58984375
-21.444091796875 4.073974609375 64.038330078125
34.1591796875 4.266845703125 -20.705322265625
-15.7001953125 7.073486328125 -3.536376953125
33.984130859375 8.689453125 7.81201171875
4.353759765625 2.1697998046875 -34.0380859375
11.74365234375 2.250244140625 -37.720458984375
-12.022216796875 3.470458984375 -28.01513671875
2.583251953125 8.1893310546875 3.346923828125
27.661376953125 5.337646484375 -13.67431640625
-7.7509765625 5.01904296875 61.38134765625
17.45654296875 10.7855224609375 26.495849609375
-3.437744140625 3.318359375 69.601318359375
1.215576171875 6.129150390625 -10.537109375
41.406982421875 5.406494140625 -14.95556640625
6.878173828125 5.8690185546875 41.870361328125
31.719970703125 9.894775390625 15.8857421875
-3.241455078125 1.546630859375 -40.418212890625
24.9423828125 7.5318603515625 1.552490234375
13.57080078125 3.6630859375 -24.69677734375
7.605712890625 10.1988525390625 18.20263671875
50.385986328125 5.7037353515625 -8.0185546875
-2.71435546875 7.8817138671875 2.700927734375
18.961669921875 10.1009521484375 32.8642578125
-5.981689453125 5.067138671875 35.8544921875
16.012939453125 8.3780517578125 6.055419921875
-18.589599609375 3.5753173828125 -34.60546875
8.905029296875 8.87158203125 28.324951171875
-15.99072265625 4.9791259765625 -20.402099609375
15.176025390625 3.2803955078125 -26.94970703125
-22.837158203125 4.9371337890625 75.624755859375
-18.391357421875 7.2296142578125 -19.171142578125
-21.093505859375 6.0098876953125 73.630615234375
33.483642578125 11.137939453125 23.986572265625
32.5478515625 9.2962646484375 11.2509765625
9.9482421875 3.2298583984375 -28.775146484375
-0.91015625 2.6324462890625 -33.386962890625
-19.08642578125 13.78759765625 -34.929443359375
41.404541015625 9.611328125 15.5537109375
3.6796875 11.053466796875 15.318603515625
15.235107421875 7.7451171875 42.136474609375
36.15087890625 5.11474609375 -13.214599609375
-7.13330078125 4.0010986328125 -24.865234375
41.58544921875 6.60009765625 -4.642578125
6.891845703125 6.837890625 -3.72314453125
-17.420166015625 7.7247314453125 0.022705078125
13.960205078125 7.5482177734375 0.42431640625
15.33251953125 8.710693359375 36.0087890625
45.815185546875 6.4781494140625 -8.737548828125
-11.68603515625 5.6497802734375 -12.992919921875
47.234619140625 2.5927734375 -29.924072265625
24.834228515625 9.5552978515625 14.265380859375
-4.735595703125 2.3123779296875 52.58056640625
45.4111328125 6.968994140625 -15.048583984375
0.48046875 11.408203125 10.35205078125
-10.1552734375 4.09130859375 -24.245361328125
-3.75390625 8.955810546875 -8.751708984375
32.103515625 5.0474853515625 -15.29541015625
20.888671875 9.66845703125 35.5478515625
12.581787109375 9.44921875 12.218017578125
-9.6982421875 1.9212646484375 -44.737548828125
44.137939453125 3.11279296875 -26.4091796875
-13.4560546875 5.7845458984375 74.07080078125
-12.8837890625 6.86181640625 77.790283203125
15.833984375 1.811279296875 -37.14208984375
6.75732421875 2.5841064453125 -33.497802734375
-17.56201171875 11.42626953125 -0.17431640625
-14.8994140625 16.552001953125 -29.379150390625
-6.681884765625 5.725341796875 -12.708984375
4.84228515625 1.2735595703125 -41.25341796875
-6.028564453125 1.9427490234375 -37.951416015625
-23.87109375 4.41748046875 63.625244140625
-15.959716796875 3.89013671875 62.645263671875
4.091552734375 7.204833984375 -1.455322265625
-3.81298828125 5.08349609375 71.29833984375
9.971435546875 7.835205078125 35.43603515625
32.242919921875 5.9854736328125 -9.047607421875
-13.727783203125 6.0472412109375 -10.072021484375
46.7978515625 7.90966796875 4.128662109375
-8.438720703125 8.62451171875 -9.1318359375
27.273681640625 11.577392578125 28.548828125
11.83837890625 6.5072021484375 44.585205078125
52.927978515625 6.0341796875 -8.35498046875
50.269287109375 7.0311279296875 -2.29638671875
-18.066650390625 9.2730712890625 -6.80126953125
-4.621826171875 3.768310546875 42.7568359375
15.07958984375 10.1158447265625 17.6318359375
-18.42919921875 8.8759765625 -16.428466796875
6.417236328125 10.1156005859375 12.44482421875
-2.08837890625 4.03515625 -24.08447265625
36.197998046875 5.949462890625 -7.904296875
21.45068359375 9.2926025390625 10.009033203125
10.2763671875 8.324951171875 3.915283203125
-1.072265625 5.6939697265625 36.144287109375
40.31640625 9.6083984375 23.0390625
43.43212890625 6.1663818359375 -10.031982421875
-14.37939453125 8.8795166015625 2.315673828125
25.117919921875 10.60302734375 21.60107421875
-7.818603515625 2.15966796875 50.811767578125
52.684814453125 6.6995849609375 -2.78759765625
-5.5419921875 2.4466552734375 -34.305419921875
39.93603515625 10.1512451171875 17.50244140625
14.37255859375 9.8572998046875 29.73779296875
2.869384765625 3.913330078125 -24.69384765625
-3.890625 8.322021484375 -6.3681640625
3.40380859375 6.4459228515625 37.083984375
50.35498046875 7.0416259765625 -14.379638671875
-8.904541015625 10.43408203125 76.6181640625
3.9638671875 9.7713623046875 20.12255859375
7.29541015625 3.9019775390625 -22.967041015625
28.25830078125 2.9244384765625 -30.163330078125
40.034423828125 3.9771728515625 -21.498779296875
48.968505859375 8.166259765625 7.6103515625
15.225830078125 9.6270751953125 15.314453125
45.710205078125 7.296142578125 -1.778564453125
23.263427734375 4.17919921875 -20.73095703125
43.607421875 8.9517822265625 10.274169921875
-16.5673828125 6.5953369140625 77.633544921875
12.39501953125 9.9801025390625 17.48828125
-5.200927734375 2.3179931640625 47.75927734375
-17.92626953125 3.0765380859375 57.14453125
-13.38525390625 6.981689453125 -3.7275390625
-14.281494140625 3.67626953125 -26.834716796875
-8.7119140625 3.2626953125 40.662353515625
-3.92333984375 6.0341796875 -9.287109375
-9.881103515625 7.91357421875 -6.523681640625
20.047607421875 4.3433837890625 -18.59375
-10.20458984375 2.019775390625 45.0849609375
22.237060546875 10.2503662109375 18.648681640625
7.45458984375 5.0830078125 52.617431640625
24.280517578125 5.2677001953125 -14.49365234375
14.21533203125 2.8570556640625 -31.99609375
30.647216796875 10.882568359375 21.917724609375
-5.61181640625 3.0615234375 -28.342529296875
-6.0869140625 5.2432861328125 76.989501953125
30.67529296875 7.2373046875 -1.128173828125
-18.720703125 13.00830078125 -30.592529296875
35.348388671875 7.906005859375 1.91650390625
-14.41748046875 -1.259033203125 41.971435546875
8.669677734375 3.628173828125 -35.09521484375
-7.844970703125 8.6658935546875 -4.95703125
53.74462890625 3.7401123046875 -20.9482421875
8.65576171875 4.677734375 -17.3662109375
11.01123046875 6.4453125 -7.173828125
36.893798828125 10.1622314453125 24.835693359375
-0.5205078125 5.6768798828125 -11.9345703125
-3.921875 7.282470703125 -1.365966796875
-16.1171875 5.4708251953125 -15.518310546875
8.155517578125 1.9854736328125 -37.67822265625
-18.7041015625 9.1300048828125 -24.015380859375
36.08984375 9.649658203125 15.4697265625
12.617919921875 6.782470703125 -5.11083984375
4.08642578125 5.2232666015625 -14.678955078125
-17.7041015625 13.958251953125 -28.039794921875
38.8046875 3.2591552734375 -27.422607421875
7.992431640625 4.8963623046875 48.30078125
-9.744384765625 6.9217529296875 64.605224609375
-13.010009765625 4.315673828125 -23.267822265625
0.178955078125 1.145263671875 -41.670654296875
26.203125 2.186279296875 -34.010498046875
11.55615234375 5.55517578125 -35.030029296875
40.079345703125 2.5086669921875 -29.339599609375
48.63623046875 4.1724853515625 -21.22119140625
53.7890625 2.9307861328125 -25.9521484375
-6.259033203125 2.9920654296875 -31.05029296875
41.80908203125 3.5648193359375 -24.877197265625
10.081787109375 5.466552734375 -13.366943359375
-1.54248046875 5.7447509765625 33.044189453125
51.702880859375 3.75244140625 -22.05419921875
-9.968505859375 2.9415283203125 55.5166015625
47.408447265625 3.5234375 -25.62451171875
49.906494140625 7.384033203125 -11.6767578125
0.525146484375 4.83154296875 -16.6669921875
-18.3515625 12.3309326171875 -4.141357421875
-18.460693359375 6.5262451171875 -29.494384765625
4.824462890625 9.9300537109375 17.698974609375
1.116943359375 2.72509765625 52.149658203125
-11.86083984375 1.793701171875 -37.615966796875
23.132568359375 11.423095703125 30.94482421875
-5.104736328125 4.9307861328125 69.22607421875
11.793212890625 6.043701171875 48.060302734375
-5.267822265625 5.12646484375 33.623046875
12.209716796875 7.190673828125 38.966796875
48.146240234375 4.5406494140625 -17.428955078125
-5.6640625 3.8526611328125 40.413330078125
-18.691650390625 14.1954345703125 -17.389404296875
11.24951171875 10.2332763671875 23.2822265625
23.729736328125 2.385498046875 -33.8203125
10.041259765625 10.0867919921875 16.111572265625
30.0009765625 5.7845458984375 -9.3779296875
1.441650390625 8.927734375 8.036865234375
9.460205078125 7.8570556640625 32.802734375
-2.96875 6.9771728515625 -4.212646484375
-17.777587890625 14.5157470703125 -5.98388671875
6.720947265625 5.96630859375 -10.309814453125
33.51171875 11.3919677734375 29.766357421875
-15.816650390625 2.1558837890625 -37.048828125
-12.73388671875 3.65576171875 60.01904296875
31.355712890625 2.6492919921875 -30.631591796875
14.311767578125 4.5003662109375 -36.040283203125
1.5146484375 5.4031982421875 40.24560546875
13.6279296875 4.4542236328125 -18.876708984375
54.395263671875 3.0047607421875 -23.07861328125
27.40234375 4.9488525390625 -18.040771484375
25.193115234375 11.1356201171875 34.983154296875
0.826904296875 3.180419921875 59.37451171875
30.143798828125 5.057861328125 -16.3798828125
29.328857421875 7.9539794921875 3.27978515625
-14.247802734375 3.0704345703125 -32.728759765625
-8.9091796875 8.962890625 6.3408203125
31.79638671875 2.6007080078125 -27.12548828125
-9.96826171875 1.1591796875 -42.593017578125
12.520263671875 3.135986328125 -30.67138671875
9.159912109375 8.55908203125 7.84521484375
0.597412109375 3.7218017578125 47.379638671875
2.31494140625 1.3538818359375 -40.36767578125
11.960693359375 5.8165283203125 -38.040283203125
45.124755859375 2.5726318359375 -30.42041015625
13.706298828125 4.0498046875 -33.8896484375
32.722412109375 10.2547607421875 17.76220703125
-19.201904296875 7.4691162109375 -36.793212890625
43.560791015625 5.467041015625 -15.01708984375
32.39794921875 7.0548095703125 0.151611328125
18.00048828125 2.703369140625 -31.894287109375
-10.9150390625 7.022705078125 -3.5615234375
-2.407470703125 5.9952392578125 30.50390625
31.487548828125 12.9906005859375 15.182373046875
37.280517578125 4.7135009765625 -17.79052734375
0.575439453125 9.310791015625 10.75244140625
5.00146484375 9.09326171875 21.860595703125
-4.189697265625 1.2197265625 -42.863037109375
-5.73388671875 5.431396484375 -14.595947265625
9.56201171875 3.384521484375 -31.259033203125
-19.509033203125 11.120361328125 -38.515625
-0.62451171875 6.8167724609375 -5.86083984375
-18.50048828125 10.95654296875 -31.221923828125
3.734619140625 6.782958984375 -6.10009765625
-18.348876953125 14.4791259765625 -32.072265625
29.550537109375 12.0107421875 32.71923828125
16.58251953125 9.6480712890625 13.672119140625
19.290771484375 1.978515625 -35.428955078125
-6.30126953125 7.9593505859375 2.025634765625
17.363037109375 10.533203125 20.7958984375
19.57275390625 10.149169921875 17.96435546875
-18.473388671875 13.3101806640625 -8.027099609375
24.0908203125 5.795654296875 -11.02490234375
46.047607421875 8.666748046875 9.263427734375
31.98681640625 11.1578369140625 14.2275390625
2.28857421875 3.344482421875 -27.20263671875
1.851318359375 4.6995849609375 42.717041015625
-0.889404296875 5.591796875 71.2529296875
32.8564453125 8.1715087890625 4.525146484375
20.611328125 8.5201416015625 8.25390625
2.836181640625 4.113037109375 48.08447265625
-3.221923828125 3.5938720703125 73.386474609375
32.472412109375 11.5377197265625 27.7177734375
-8.494140625 2.66748046875 -31.686279296875
18.755615234375 6.429931640625 -7.05859375
28.520263671875 7.0699462890625 -2.034912109375
-13.563232421875 4.5203857421875 64.038818359375
16.1787109375 10.7080078125 24.19873046875
-17.482421875 3.50634765625 -31.081787109375
-6.711669921875 2.668212890625 53.30078125
29.86572265625 8.5408935546875 6.808837890625
48.437744140625 3.1138916015625 -27.57275390625
-2.08203125 5.9913330078125 -10.243408203125
-6.216796875 8.1981201171875 76.380859375
4.634521484375 5.0439453125 44.134033203125
47.433349609375 6.8900146484375 -15.496337890625
18.192138671875 4.4786376953125 -17.68115234375
-17.203125 2.671630859375 55.2001953125
-13.6015625 1.891845703125 -38.734619140625
43.5068359375 8.0928955078125 5.600341796875
25.739013671875 8.34228515625 5.351806640625
28.271484375 8.250244140625 5.17822265625
16.2529296875 9.3765869140625 31.972900390625
8.334228515625 8.8603515625 26.189208984375
14.537109375 6.10205078125 -8.829833984375
-0.492919921875 3.775146484375 45.531005859375
49.47998046875 6.19287109375 -6.228271484375
-7.92041015625 1.2919921875 -42.818603515625
2.01904296875 4.3897705078125 -20.33544921875
31.1015625 4.589111328125 -19.794189453125
11.913330078125 6.062255859375 -8.986328125
26.1748046875 11.4881591796875 36.82080078125
-12.337890625 5.14599609375 66.822998046875
57.5537109375 3.9327392578125 -20.81689453125
-14.655029296875 3.4627685546875 58.691162109375
36.15576171875 2.645751953125 -30.5302734375
-18.190673828125 5.0428466796875 70.18505859375
1.593505859375 8.8424072265625 23.581787109375
34.792724609375 3.4537353515625 -25.405517578125
37.19775390625 3.814453125 -23.656494140625
27.87744140625 11.6357421875 31.178466796875
8.368896484375 9.3404541015625 22.5869140625
6.10595703125 6.65380859375 -5.75390625
-2.762939453125 2.4693603515625 52.11181640625
32.169921875 11.1995849609375 25.53564453125
-18.222412109375 10.15283203125 -20.213623046875
45.204833984375 6.984619140625 -11.27685546875
-14.68310546875 1.4537353515625 -40.480712890625
16.896728515625 7.214111328125 -2.41064453125
-7.84326171875 3.32861328125 58.496337890625
18.688720703125 7.1204833984375 -1.241455078125
-6.6376953125 5.16357421875 71.531982421875
-6.0419921875 2.138916015625 49.57861328125
40.132080078125 7.9814453125 2.651611328125
5.325439453125 1.7650146484375 -38.601806640625
6.211669921875 5.4178466796875 -14.369140625
-22.809814453125 4.3829345703125 66.25830078125
5.172607421875 3.67138671875 -25.32275390625
5.917236328125 9.0546875 9.218994140625
11.8369140625 7.96484375 1.79931640625
-9.777587890625 2.5521240234375 53.331298828125
14.92724609375 7.2030029296875 -1.920654296875
-3.731201171875 5.228271484375 74.739501953125
3.39306640625 8.4510498046875 7.775146484375
28.337646484375 11.5545654296875 18.238525390625
-5.1787109375 3.0106201171875 54.764404296875
2.305908203125 2.600341796875 -35.197021484375
-18.0146484375 5.32568359375 -22.997802734375
2.15576171875 3.16796875 -29.641845703125
32.5205078125 6.35400390625 -5.7431640625
9.501220703125 9.504150390625 11.70947265625
-10.616943359375 5.052001953125 61.24267578125
-15.05078125 16.98486328125 -27.442138671875
47.83984375 7.9852294921875 -11.453369140625
38.549072265625 7.87646484375 4.47314453125
13.56396484375 7.350830078125 41.13916015625
-12.36328125 2.8831787109375 55.68408203125
53.09619140625 2.8221435546875 -28.235107421875
33.8525390625 10.559326171875 15.6171875
19.1962890625 10.710693359375 28.64599609375
24.630126953125 11.1265869140625 32.821044921875
-2.237548828125 4.2708740234375 65.1806640625
53.321044921875 4.1463623046875 -17.72705078125
-15.3359375 2.254150390625 53.196044921875
17.245361328125 8.2818603515625 38.670654296875
40.882568359375 8.954833984375 10.525634765625
45.833740234375 6.74365234375 -3.6650390625
0.9248046875 8.41015625 5.07275390625
21.177978515625 4.05078125 -22.177734375
-2.302490234375 6.41650390625 -6.80322265625
-1.857666015625 3.372802734375 56.817138671875
15.48583984375 5.6810302734375 -12.706298828125
1.052734375 6.4241943359375 32.9755859375
36.61865234375 3.1494140625 -27.816650390625
-18.08740234375 13.6552734375 -11.906005859375
5.581298828125 7.66943359375 31.31689453125
-17.967041015625 6.5693359375 -12.530517578125
24.630615234375 9.99951171875 16.156494140625
53.612548828125 6.138916015625 -6.11572265625
-13.546630859375 4.9996337890625 -18.728271484375
-7.438720703125 4.3304443359375 -22.293212890625
26.833984375 11.0281982421875 23.58935546875
40.187255859375 4.1934814453125 -19.56494140625
-7.013671875 3.580322265625 60.288330078125
21.873291015625 6.2427978515625 -8.55859375
24.61328125 7.118408203125 -2.1611328125
32.92529296875 4.5091552734375 -17.55712890625
20.71728515625 7.1829833984375 -1.2685546875
0.700927734375 3.015625 57.226806640625
-6.28515625 7.39013671875 -0.19384765625
39.939208984375 9.4573974609375 14.27978515625
-8.493896484375 2.4642333984375 43.66552734375
17.508544921875 9.2596435546875 10.919677734375
13.8876953125 1.846923828125 -37.13134765625
-14.360107421875 5.4598388671875 72.37841796875
24.736572265625 7.9822998046875 3.475341796875
-23.691162109375 5.633056640625 67.455078125
19.463623046875 2.1939697265625 -33.507080078125
-2.450927734375 3.1160888671875 67.941650390625
48.405029296875 8.1536865234375 5.31982421875
30.6552734375 1.8956298828125 -34.6923828125
50.51220703125 4.016357421875 -20.505859375
13.390869140625 8.9759521484375 9.559326171875
10.6611328125 6.962158203125 40.218505859375
-11.189453125 4.3048095703125 -22.238525390625
14.842529296875 3.6920166015625 -22.791748046875
19.859130859375 1.82666015625 -37.2666015625
-4.64501953125 4.89990234375 73.028564453125
2.123779296875 5.148193359375 -15.636474609375
41.208251953125 6.139892578125 -7.8798828125
-0.500732421875 8.2130126953125 3.406005859375
46.833251953125 8.9239501953125 12.853759765625
-4.80224609375 7.68798828125 64.032958984375
8.609130859375 5.8443603515625 44.39208984375
26.797119140625 11.3140869140625 17.068115234375
-10.03759765625 5.8306884765625 77.47265625
-20.153564453125 4.789794921875 69.791259765625
-2.49853515625 2.9991455078125 -29.547119140625
-3.74560546875 4.5555419921875 67.923828125
-5.96435546875 5.809326171875 74.098388671875
37.1484375 6.9873046875 -2.13427734375
30.710205078125 11.6766357421875 26.974365234375
-1.65478515625 1.2137451171875 -42.226806640625
26.394775390625 7.598876953125 0.302490234375
-18.6435546875 3.46142578125 -40.75634765625
-18.9580078125 3.777587890625 -36.56884765625
40.412109375 5.2337646484375 -13.328369140625
-9.69287109375 3.231201171875 57.982421875
-8.06689453125 7.8746337890625 62.637939453125
-3.1044921875 2.7344970703125 53.975830078125
-18.68310546875 9.097900390625 -32.232421875
18.151611328125 3.684326171875 -23.521484375
-21.182861328125 3.7496337890625 58.7451171875
7.676025390625 7.66748046875 2.017333984375
17.21826171875 5.4632568359375 -13.505615234375
21.150390625 10.3394775390625 32.754150390625
-8.713134765625 3.6873779296875 -25.87939453125
13.77685546875 10.7640380859375 22.365966796875
5.833984375 6.3475341796875 -8.503662109375
11.26708984375 7.4029541015625 -0.672119140625
16.77001953125 7.7803955078125 1.43505859375
-0.420654296875 7.6595458984375 -0.35546875
18.70849609375 4.280517578125 -19.93505859375
31.593505859375 10.5074462890625 20.159423828125
-6.108642578125 1.22412109375 -42.26708984375
-2.7373046875 2.7379150390625 -31.88134765625
-1.637939453125 1.9036865234375 -37.317626953125
17.93310546875 8.80615234375 36.72509765625
34.392822265625 10.6475830078125 20.314208984375
18.866455078125 8.6627197265625 7.53662109375
49.1904296875 7.7349853515625 -15.6982421875
43.174560546875 9.9793701171875 16.1005859375
34.1220703125 5.8707275390625 -8.90283203125
14.058349609375 8.3638916015625 6.520263671875
32.943115234375 5.2921142578125 -12.71240234375
35.638916015625 9.16650390625 12.875
13.40673828125 5.587890625 -12.0927734375
19.15625 10.737548828125 30.58740234375
20.782958984375 2.9354248046875 -28.24853515625
37.44482421875 6.492919921875 -6.1806640625
5.58935546875 4.800048828125 -17.326171875
22.871337890625 8.74365234375 7.064208984375
6.031005859375 3.2086181640625 -28.690185546875
27.106689453125 10.6229248046875 21.173828125
28.31494140625 6.0213623046875 -10.18310546875
3.504150390625 3.6883544921875 49.808837890625
32.834228515625 5.8414306640625 -10.832275390625
11.018798828125 9.5653076171875 26.09326171875
4.102294921875 5.8587646484375 -11.932861328125
22.1103515625 2.0943603515625 -35.448974609375
-7.576416015625 1.6605224609375 -39.5283203125
29.18017578125 12.7498779296875 16.350830078125
21.6298828125 10.9581298828125 22.561767578125
34.13623046875 6.646484375 -4.1025390625
-8.6533203125 3.116943359375 -29.751953125
-13.631103515625 6.73291015625 -5.96240234375
-18.509521484375 6.52490234375 -24.342529296875
22.3955078125 3.132080078125 -29.217041015625
-15.851318359375 6.3416748046875 -8.07080078125
21.144287109375 9.7294921875 14.441162109375
0.960693359375 1.9110107421875 -38.288818359375
4.532470703125 10.069580078125 10.92529296875
27.537353515625 6.690185546875 -4.954833984375
34.429443359375 4.569580078125 -18.88427734375
43.084228515625 5.9710693359375 -8.20947265625
47.075927734375 8.353271484375 -14.396728515625
12.56982421875 9.3853759765625 29.792724609375
-18.69873046875 9.5855712890625 -42.38037109375
34.572509765625 10.149658203125 17.95361328125
-13.637451171875 5.5250244140625 -14.386962890625
21.0458984375 5.4439697265625 -11.360595703125
41.099365234375 10.0921630859375 19.5
-1.375 4.79052734375 -18.173583984375
-18.203857421875 6.8736572265625 -16.067626953125
-10.803955078125 5.3067626953125 -15.32421875
10.06201171875 7.4254150390625 -2.085693359375
39.413330078125 10.4532470703125 21.605224609375
8.8212890625 7.49609375 -0.484375
1.594482421875 7.8360595703125 26.891845703125
41.68212890625 8.30810546875 6.367431640625
-18.759521484375 10.1866455078125 -25.539306640625
-6.94091796875 2.3013916015625 -35.5146484375
44.549072265625 9.2811279296875 12.739013671875
37.435546875 10.4053955078125 20.029296875
-8.15625 2.292724609375 46.34033203125
30.969482421875 11.91455078125 12.877197265625
-9.646728515625 6.4320068359375 -9.4443359375
-19.12353515625 12.0535888671875 -35.574951171875
18.4521484375 11.04833984375 24.958251953125
-10.657958984375 4.811767578125 -20.23583984375
10.6884765625 3.3861083984375 -26.12353515625
13.65771484375 7.8720703125 38.046630859375
-14.399658203125 7.7490234375 0.396728515625
-14.06884765625 18.4610595703125 -28.730224609375
21.616943359375 9.4949951171875 11.8349609375
49.522216796875 3.54541015625 -25.119140625
-11.617919921875 1.302978515625 46.022705078125
38.9755859375 9.6744384765625 24.6015625
7.087158203125 5.1131591796875 46.28564453125
16.350830078125 3.01708984375 -31.142333984375
-3.492431640625 5.1976318359375 -15.186279296875
8.691162109375 10.0924072265625 19.682861328125
-6.246337890625 4.3072509765625 -20.89453125
19.70361328125 24.708740234375 70.103271484375
-18.728271484375 11.91650390625 -20.301513671875
3.39892578125 3.14306640625 52.37060546875
7.66552734375 7.4261474609375 34.7470703125
-11.687255859375 1.72705078125 44.046142578125
32.600341796875 2.4742431640625 -32.282958984375
-18.697021484375 10.849609375 -16.2451171875
-19.6640625 5.35986328125 -37.500732421875
5.47705078125 10.9888916015625 14.96875
24.927978515625 5.317626953125 -12.78076171875
33.864990234375 2.449462890625 -30.814453125
-4.461669921875 8.5860595703125 6.717529296875
-1.67919921875 8.9285888671875 9.58837890625
-4.162109375 4.60205078125 38.01708984375
24.93994140625 10.338134765625 18.34326171875
-15.4423828125 4.94384765625 -18.661865234375
30.84716796875 11.95166015625 31.20068359375
-8.832763671875 4.8013916015625 -19.201904296875
-14.576171875 4.5810546875 -22.011962890625
40.18359375 4.9119873046875 -16.210205078125
40.89501953125 7.2760009765625 -2.025146484375
11.797607421875 3.8331298828125 -24.33984375
-0.260009765625 2.6829833984375 -31.69140625
43.249267578125 2.882080078125 -27.974365234375
-12.99951171875 5.12158203125 70.633056640625
52.040283203125 5.8037109375 -9.918212890625
26.0478515625 2.7830810546875 -29.96435546875
3.686279296875 7.577392578125 29.3701171875
-14.13818359375 1.1810302734375 48.578369140625
-16.542236328125 5.658447265625 -13.365234375
-4.745849609375 2.6339111328125 -32.249755859375
26.23828125 8.8746337890625 8.399169921875
24.687255859375 2.72021484375 -31.318115234375
-16.306884765625 7.0906982421875 -1.24755859375
-18.531982421875 3.58349609375 -38.79931640625
9.800537109375 5.173583984375 -15.12939453125
54.244384765625 4.229248046875 -19.290771484375
0.0068359375 3.5433349609375 60.933349609375
10.556884765625 4.737060546875 -33.537353515625
14.796630859375 9.7523193359375 13.491455078125
-0.353759765625 4.5247802734375 -20.6494140625
29.779541015625 11.1527099609375 19.232177734375
-4.3466796875 3.2821044921875 57.466064453125
28.41845703125 5.47509765625 -12.052490234375
43.587890625 3.8763427734375 -24.880615234375
-4.257080078125 4.3953857421875 -21.52294921875
5.43115234375 5.6453857421875 40.731201171875
41.556884765625 5.6925048828125 -11.49658203125
-2.345703125 3.7060546875 44.53564453125
48.880126953125 7.870361328125 3.164794921875
6.24755859375 10.1273193359375 19.366943359375
-4.88720703125 8.1551513671875 3.68212890625
9.36376953125 4.099609375 -20.043701171875
47.518310546875 7.093505859375 -1.524169921875
-18.865966796875 8.3931884765625 -28.673095703125
35.90771484375 4.0057373046875 -20.963134765625
45.9228515625 7.6826171875 2.587646484375
-3.091552734375 10.39599609375 9.138916015625
-19.27099609375 6.886474609375 -31.272216796875
-18.12890625 3.4571533203125 -32.74462890625
-11.943603515625 2.1539306640625 51.732421875
16.22265625 7.9173583984375 3.15283203125
-11.532958984375 2.552978515625 53.650390625
28.998291015625 10.555908203125 20.829833984375
15.015625 5.1961669921875 -15.317626953125
34.826904296875 11.3309326171875 28.230712890625
2.81005859375 2.719482421875 55.53466796875
9.682861328125 9.0655517578125 9.839599609375
24.5302734375 6.30078125 -7.3681640625
42.08447265625 6.3673095703125 -6.336669921875
-20.64794921875 12.32666015625 -39.52197265625
-16.67724609375 3.7276611328125 -27.033447265625
-4.42724609375 3.5902099609375 74.752197265625
21.99560546875 6.485107421875 -4.6416015625
9.267578125 6.6072998046875 -6.85791015625
53.228759765625 5.5450439453125 -11.4365234375
3.7099609375 2.09814453125 -36.793701171875
-14.632080078125 8.858154296875 76.87451171875
8.0263671875 3.1502685546875 -32.38916015625
27.14208984375 11.6416015625 33.4404296875
41.878173828125 7.729248046875 2.439453125
13.4716796875 8.6517333984375 33.523681640625
36.85009765625 7.409912109375 0.387451171875
39.90869140625 6.9609375 -3.468017578125
18.6064453125 3.4501953125 -25.221923828125
50.8095703125 4.3790283203125 -18.165283203125
50.845947265625 7.810791015625 3.809326171875
-6.043212890625 2.1767578125 51.387939453125
-4.58203125 0.8377685546875 -44.55078125
17.208740234375 8.31201171875 40.573486328125
-16.38525390625 5.1580810546875 71.578369140625
30.586669921875 5.6405029296875 -11.158935546875
-18.116455078125 14.7196044921875 -21.5244140625
-0.360107421875 3.45751953125 49.288818359375
-11.188720703125 3.0279541015625 -32.918212890625
2.97705078125 6.018310546875 -10.399658203125
-19.609130859375 5.9544677734375 -39.407958984375
2.786376953125 9.6591796875 12.453369140625
-2.337890625 2.7801513671875 49.513671875
19.040283203125 3.1422119140625 -28.457275390625
22.5400390625 5.4697265625 -14.72314453125
-14.64404296875 3.498046875 60.45751953125
-3.499755859375 3.023193359375 59.011962890625
6.399658203125 4.2908935546875 -21.118896484375
3.988525390625 3.102783203125 -29.06787109375
38.478759765625 11.50439453125 25.55810546875
-10.491455078125 4.7574462890625 67.97265625
17.955322265625 3.3992919921875 -26.942626953125
31.72314453125 8.715087890625 13.8896484375
54.209716796875 1.8502197265625 -20.85302734375
26.362548828125 6.117919921875 -8.723876953125
38.663818359375 8.799072265625 10.61474609375
-2.212158203125 7.74755859375 1.018798828125
30.82568359375 3.6461181640625 -23.4111328125
1.4052734375 3.0323486328125 -31.239501953125
11.1669921875 5.927734375 -10.574951171875
0.385986328125 6.5753173828125 -7.281494140625
25.318603515625 11.5421142578125 27.97509765625
50.892333984375 5.2674560546875 -13.3212890625
21.899169921875 11.2435302734375 24.276611328125
-18.2080078125 6.1204833984375 77.17626953125
14.686767578125 10.38232421875 19.662841796875
30.44580078125 11.38916015625 25.24755859375
42.172607421875 5.546142578125 -13.30712890625
7.29443359375 1.761962890625 -39.194580078125
16.753173828125 6.437744140625 -5.534912109375
13.289306640625 3.3656005859375 -26.487548828125
30.3662109375 6.8890380859375 -3.376708984375
37.017822265625 5.197998046875 -14.73583984375
16.4267578125 4.6285400390625 -18.374267578125
1.40869140625 7.668701171875 1.694091796875
17.62744140625 21.8106689453125 70.117431640625
34.669189453125 8.855712890625 11.449951171875
35.662353515625 5.9874267578125 -9.726318359375
-18.380615234375 12.24658203125 -18.119873046875
-3.854248046875 3.8145751953125 62.0009765625
15.353515625 7.3753662109375 44.118408203125
32.36181640625 11.5361328125 15.892822265625
50.713134765625 3.280029296875 -26.6806640625
-6.2802734375 8.953125 -5.9140625
25.7373046875 4.6947021484375 -17.577392578125
10.487548828125 3.86181640625 -23.1240234375
-14.364990234375 4.8927001953125 68.6494140625
8.77734375 3.41796875 -26.135986328125
16.146240234375 2.9373779296875 -28.359375
12.577880859375 8.097900390625 3.373779296875
46.932373046875 5.3233642578125 -16.118408203125
16.095703125 9.1094970703125 9.678955078125
28.204345703125 2.7958984375 -32.198974609375
27.572998046875 11.160888671875 25.16259765625
42.02734375 7.9388427734375 4.323486328125
18.498291015625 9.6151123046875 12.7724609375
14.313232421875 7.1097412109375 47.01904296875
19.587646484375 10.1466064453125 34.4892578125
-17.0009765625 2.7822265625 -35.12255859375
17.99267578125 5.6689453125 -10.40771484375
19.631591796875 6.72021484375 -4.06884765625
12.49365234375 8.8414306640625 31.972900390625
-6.22314453125 8.6407470703125 6.10791015625
-13.284912109375 2.115234375 -42.708251953125
-18.299072265625 11.2568359375 -8.130126953125
8.1474609375 4.1231689453125 -21.466552734375
43.5673828125 7.161865234375 -3.26953125
-2.389892578125 1.7677001953125 -38.918212890625
28.05126953125 7.297607421875 -0.376708984375
22.0205078125 8.5228271484375 5.565673828125
-6.0029296875 3.989501953125 61.94140625
-0.72412109375 0.8699951171875 -43.652099609375
-5.744873046875 4.1651611328125 -22.63818359375
31.49755859375 11.103271484375 23.415283203125
-19.4228515625 4.389892578125 65.6923828125
-5.0673828125 6.65869140625 76.93408203125
25.154296875 9.115966796875 9.814453125
-3.935546875 5.2667236328125 34.82421875
-9.037109375 8.2801513671875 4.757080078125
12.995361328125 5.13818359375 -15.25732421875
41.76123046875 4.381103515625 -18.8740234375
3.45068359375 7.8636474609375 27.44677734375
-0.187255859375 8.591552734375 8.5068359375
19.9228515625 9.1356201171875 11.307373046875
20.29931640625 9.5101318359375 12.95263671875
-9.5859375 5.67041015625 74.2939453125
38.463134765625 3.7900390625 -22.18603515625
16.857666015625 8.5972900390625 7.54296875
41.9052734375 8.62060546875 9.17822265625
-2.941162109375 4.9404296875 76.72802734375
14.736328125 4.9010009765625 -17.093505859375
22.962890625 7.5035400390625 1.019775390625
20.081298828125 9.966796875 15.830322265625
