10.774658203125 5.0135498046875 7.56396484375
19.71435546875 6.9453125 22.82568359375
-19.13916015625 3.434326171875 -5.02978515625
-8.675048828125 4.75146484375 2.81201171875
35.00439453125 3.7828369140625 -0.21630859375
-8.39404296875 2.450927734375 -12.22998046875
48.1201171875 1.906982421875 -12.8955078125
-12.20947265625 -0.4365234375 60.967529296875
30.35498046875 3.4083251953125 -1.184326171875
-13.676513671875 4.4189453125 3.091064453125
-3.1767578125 4.5849609375 4.3486328125
-23.755126953125 -1.7589111328125 48.429931640625
35.6875 3.202392578125 -3.811279296875
6.516845703125 0.0234375 -25.9921875
22.571044921875 3.0804443359375 -4.423828125
-26.11865234375 16.230224609375 -24.110107421875
-26.671630859375 19.7674560546875 -29.526611328125
-3.175537109375 2.5943603515625 -10.282958984375
-10.034423828125 1.8477783203125 -18.3359375
3.544921875 4.5013427734375 4.385498046875
32.73974609375 2.97802734375 -5.4345703125
8.053466796875 4.0357666015625 1.1533203125
-27.257568359375 -0.7972412109375 57.826171875
27.311767578125 3.7779541015625 0.5888671875
2.904052734375 3.4332275390625 -3.717041015625
42.470947265625 3.27685546875 -4.377685546875
32.7568359375 -0.279052734375 -26.344970703125
-4.577880859375 5.0654296875 19.076904296875
42.001708984375 2.3255615234375 -11.783203125
-20.337890625 1.64306640625 60.43798828125
1.33349609375 4.6656494140625 27.289794921875
-26.597412109375 28.22607421875 -28.290283203125
-25.168701171875 4.2998046875 -6.353515625
-4.419921875 0.5899658203125 42.734375
-26.56982421875 19.430908203125 -14.808349609375
10.23974609375 2.667236328125 -7.17138671875
41.11572265625 4.557861328125 -13.1572265625
-26.129150390625 23.345458984375 -24.086181640625
6.131591796875 5.9127197265625 25.508544921875
20.85595703125 1.043212890625 -19.3896484375
-9.878173828125 1.720703125 63.658935546875
41.84423828125 1.884765625 -15.851318359375
23.484130859375 5.3243408203125 9.752685546875
33.438232421875 -2.6654052734375 45.03369140625
21.5185546875 -0.5328369140625 -31.361572265625
16.394775390625 3.89404296875 0.73681640625
32.468505859375 1.8909912109375 -11.67822265625
-14.567626953125 3.506591796875 -12.042236328125
9.906982421875 6.244140625 16.40478515625
-22.373046875 3.5784912109375 -5.12841796875
-20.755126953125 1.5323486328125 72.23388671875
14.78515625 2.9085693359375 -6.665283203125
8.753662109375 6.3663330078125 25.95068359375
38.270263671875 -0.6727294921875 -30.204345703125
5.82373046875 5.557373046875 10.82763671875
12.505859375 6.705810546875 21.002685546875
36.494873046875 2.4344482421875 -8.98046875
-22.608154296875 -1.659912109375 50.911376953125
-6.794921875 -0.3951416015625 46.02880859375
32.447998046875 3.9102783203125 0.49462890625
45.856201171875 2.400146484375 -9.760009765625
-1.862060546875 5.593017578125 18.90185546875
-10.490966796875 3.281005859375 -6.190185546875
-0.770751953125 0.6070556640625 47.058349609375
-2.638916015625 4.5062255859375 24.009765625
23.47607421875 0.0362548828125 -24.5478515625
33.81787109375 -1.3248291015625 -34.458740234375
10.43115234375 2.43408203125 -9.78515625
-25.6201171875 25.9107666015625 -38.2138671875
1.104248046875 3.05078125 36.51220703125
-26.031005859375 10.7911376953125 -14.89599609375
33.767333984375 0.6292724609375 -22.304931640625
43.98193359375 3.7308349609375 0.807373046875
-14.34228515625 3.889404296875 -2.6845703125
5.689208984375 5.1739501953125 29.201416015625
29.772216796875 0.0538330078125 -25.585205078125
24.067626953125 6.7154541015625 22.2158203125
19.551513671875 -0.8348388671875 -33.286376953125
24.736328125 5.6474609375 12.83837890625
-12.970703125 0.3662109375 63.94580078125
-20.379638671875 1.432373046875 -18.816162109375
13.102294921875 0.1107177734375 -26.1025390625
-23.389404296875 15.2652587890625 -28.222900390625
-9.94775390625 -0.995849609375 46.36083984375
-26.154541015625 21.612548828125 -11.12939453125
7.31640625 6.7061767578125 19.9775390625
-5.622802734375 2.44140625 -10.97705078125
20.147216796875 0.1368408203125 -25.739501953125
-4.568603515625 2.31201171875 33.185546875
26.533447265625 6.1126708984375 16.171875
29.65673828125 -9.63525390625 30.790283203125
-14.837646484375 0.5755615234375 65.7158203125
-25.484375 5.3319091796875 -1.685546875
10.59130859375 -0.33349609375 -28.261962890625
-8.044677734375 2.7132568359375 28.920166015625
-3.23095703125 -0.470947265625 50.401611328125
-9.657958984375 1.2203369140625 -20.737548828125
32.364990234375 15.52783203125 69.892578125
12.393798828125 6.3753662109375 16.59814453125
14.126953125 1.7103271484375 -14.861572265625
5.752197265625 3.8060302734375 -1.153564453125
3.562744140625 6.4075927734375 17.70263671875
-7.583251953125 5.043212890625 7.533447265625
5.392578125 4.2342529296875 34.4658203125
18.659423828125 6.7493896484375 11.804931640625
6.82666015625 1.0111083984375 -19.6064453125
-3.10888671875 0.343505859375 45.947021484375
46.787109375 3.3935546875 -1.998046875
-2.80419921875 1.3343505859375 40.784912109375
-25.885986328125 6.501953125 -11.0595703125
-22.724365234375 4.3387451171875 -1.84716796875
-24.008544921875 16.2813720703125 -31.642822265625
10.1630859375 1.5880126953125 -15.64453125
-6.279541015625 -1.001953125 50.161376953125
45.3330078125 0.7745361328125 -19.52294921875
-25.658935546875 27.4014892578125 -20.669921875
25.254638671875 1.39306640625 -16.67822265625
2.165283203125 4.2281494140625 2.3662109375
-19.02392578125 -0.5928955078125 56.809326171875
-10.08349609375 4.3544921875 0.37353515625
-16.27197265625 0.962890625 68.640625
28.6357421875 -15.9337158203125 31.922607421875
22.820556640625 9.727783203125 13.186279296875
14.27294921875 -0.763916015625 -31.482177734375
11.946533203125 4.43994140625 3.357666015625
4.94287109375 2.9588623046875 -6.73486328125
48.473388671875 2.952392578125 -7.689697265625
-2.177734375 0.3243408203125 -26.554443359375
3.404541015625 1.4761962890625 -17.68896484375
-6.06982421875 4.115234375 1.910400390625
30.475830078125 4.809814453125 7.437255859375
-11.028564453125 5.6947021484375 7.62744140625
4.360107421875 2.61962890625 45.748291015625
-26.467529296875 16.5650634765625 -17.588623046875
-24.621337890625 1.6180419921875 71.823486328125
-25.7763671875 9.896484375 -23.6708984375
-5.449951171875 2.606689453125 30.232666015625
38.348876953125 3.1767578125 -4.637939453125
7.490478515625 0.81396484375 -21.909423828125
-0.71630859375 3.882568359375 0.348388671875
17.439453125 7.3201904296875 30.40576171875
-8.877197265625 -1.1671142578125 55.7890625
-13.299072265625 -1.581787109375 48.67919921875
-16.892822265625 3.923828125 -5.619873046875
6.19140625 3.15625 41.431884765625
10.054443359375 4.98828125 35.116943359375
15.045654296875 6.81396484375 20.685302734375
0.664306640625 0.4437255859375 -24.841796875
-11.988525390625 3.790283203125 -2.852294921875
5.71337890625 1.29541015625 -17.228515625
42.099609375 3.4052734375 -17.63818359375
14.9599609375 5.5308837890625 11.699462890625
23.158447265625 2.2733154296875 -12.221923828125
-16.2333984375 0.05712890625 59.394775390625
29.39990234375 0.3541259765625 -21.744384765625
-13.041748046875 -1.264892578125 44.029296875
1.66162109375 5.7244873046875 14.093017578125
-20.593505859375 -1.0382080078125 43.638916015625
31.095703125 5.956298828125 14.911865234375
-9.36767578125 4.982666015625 6.0400390625
-15.462158203125 4.3582763671875 1.596923828125
-26.370361328125 14.2542724609375 -22.464599609375
9.0947265625 6.7662353515625 21.4658203125
-12.370361328125 4.051513671875 -11.575439453125
-26.6669921875 7.4925537109375 -6.694580078125
-13.66845703125 -1.4664306640625 52.551025390625
3.933349609375 3.760986328125 36.20947265625
24.978515625 7.0706787109375 24.287841796875
-26.350830078125 11.961181640625 -9.15234375
22.31591796875 2.3907470703125 -9.28466796875
-26.010498046875 22.893798828125 -35.09033203125
-12.455810546875 -1.010009765625 56.203857421875
-1.175537109375 2.084716796875 38.820068359375
-26.357666015625 9.410888671875 -3.4306640625
15.784912109375 0.4718017578125 -25.625732421875
23.574462890625 0.694580078125 -22.28076171875
40.48974609375 0.7481689453125 -21.834228515625
29.782470703125 -0.9100341796875 -33.378662109375
-9.706787109375 0.2200927734375 38.61572265625
-7.90869140625 1.2523193359375 36.39208984375
4.1982421875 6.2288818359375 15.55712890625
37.507568359375 2.9100341796875 -6.91064453125
30.39404296875 1.1246337890625 -18.1884765625
4.267822265625 2.5291748046875 42.39599609375
38.325439453125 5.2431640625 10.58935546875
32.9404296875 -1.7171630859375 43.066650390625
-16.172119140625 1.5186767578125 -17.0498046875
-26.131591796875 23.1842041015625 -18.94287109375
8.590576171875 0.3963623046875 -24.76171875
-26.10498046875 14.301025390625 -13.759765625
17.620849609375 0.825927734375 -22.597900390625
-26.586181640625 24.321533203125 -30.32958984375
18.50390625 6.4791259765625 18.846435546875
27.834228515625 4.575927734375 7.35302734375
15.378173828125 2.2003173828125 -10.697509765625
-0.15234375 1.2015380859375 45.025146484375
21.71533203125 5.921630859375 10.928955078125
35.389404296875 1.0687255859375 -17.57373046875
-3.19091796875 5.010498046875 6.686279296875
43.286376953125 4.439697265625 4.83447265625
-26.237060546875 17.4263916015625 -20.5517578125
28.682373046875 5.369873046875 11.834716796875
-25.668212890625 13.7034912109375 -5.84228515625
26.31298828125 0.7391357421875 -19.878662109375
36.147216796875 3.1153564453125 -13.798095703125
-26.0166015625 9.90380859375 -20.8154296875
-1.216796875 2.860107421875 -8.9638671875
-18.20654296875 3.6009521484375 -8.707275390625
26.834716796875 2.400146484375 -9.12109375
10.056884765625 5.497314453125 11.658935546875
27.120849609375 0.2193603515625 -24.244384765625
29.52880859375 1.7972412109375 -12.85498046875
9.198974609375 -0.4874267578125 -29.914794921875
-20.95263671875 0.64306640625 64.9912109375
-26.168212890625 30.1773681640625 -26.5615234375
-19.945556640625 2.23974609375 -13.573974609375
-11.8876953125 6.1717529296875 -9.017578125
32.78564453125 5.576171875 12.031494140625
-25.615234375 17.9490966796875 -30.71142578125
21.00732421875 4.7625732421875 7.20556640625
6.068603515625 2.8095703125 -8.625244140625
-2.4345703125 3.212646484375 -5.033935546875
-12.770263671875 1.8797607421875 -15.215087890625
20.95751953125 7.6580810546875 27.628662109375
25.4072265625 3.6124267578125 -0.84619140625
14.956298828125 1.3033447265625 -19.26611328125
29.111572265625 6.980712890625 22.62255859375
-17.47802734375 0.87890625 -22.158935546875
34.060791015625 4.4608154296875 5.512451171875
24.2294921875 2.55712890625 -7.8427734375
2.93994140625 5.344970703125 25.3212890625
40.08251953125 2.6485595703125 -8.092041015625
-26.778564453125 5.718505859375 -22.203125
-25.334228515625 28.5345458984375 -36.37841796875
35.287841796875 5.1976318359375 10.4794921875
10.07080078125 6.095947265625 29.31396484375
23.11865234375 3.8826904296875 2.373291015625
25.943603515625 1.8729248046875 -12.285400390625
-25.87451171875 3.221923828125 -21.073974609375
18.487548828125 7.7958984375 14.273681640625
23.939208984375 7.9561767578125 28.611328125
-23.11376953125 1.876708984375 -17.662353515625
-26.821533203125 6.4957275390625 -16.738037109375
2.609130859375 2.5667724609375 40.869873046875
8.72900390625 3.0059814453125 -5.3017578125
-0.61572265625 1.692626953125 -15.933349609375
25.53564453125 3.148193359375 -3.796875
-25.430419921875 4.626953125 -11.92529296875
11.9306640625 1.9632568359375 -12.1171875
-2.013916015625 2.7508544921875 33.632568359375
-24.470947265625 13.265625 -28.500244140625
46.97705078125 -0.2235107421875 -27.2373046875
25.078857421875 -1.0152587890625 -33.368408203125
23.140380859375 6.403564453125 16.987548828125
27.21630859375 4.495849609375 4.39794921875
26.19775390625 5.2138671875 11.116455078125
-13.10693359375 0.72607421875 67.02001953125
-15.347900390625 4.342529296875 62.05419921875
3.279052734375 1.685546875 -15.5986328125
19.67529296875 3.3988037109375 -3.72705078125
-4.029541015625 2.0517578125 35.20263671875
-0.081787109375 0.409423828125 -22.875732421875
13.116943359375 3.4527587890625 -2.733642578125
8.92236328125 4.976806640625 6.582275390625
1.089599609375 2.5283203125 -9.480224609375
13.56494140625 5.7855224609375 37.58642578125
15.1064453125 6.7030029296875 30.481689453125
19.8671875 2.6240234375 -8.65869140625
37.023681640625 3.6390380859375 -0.746337890625
-3.859130859375 3.39453125 28.706787109375
41.804443359375 3.9263916015625 2.424560546875
-25.827880859375 8.27001953125 -22.356689453125
-2.568359375 3.5679931640625 -2.02783203125
47.119873046875 0.2291259765625 -23.0869140625
20.39111328125 3.584228515625 -0.84814453125
18.96728515625 4.8001708984375 7.8125
-21.76611328125 0.1163330078125 61.346923828125
-4.175048828125 3.8077392578125 25.47216796875
-14.05029296875 2.5279541015625 60.978759765625
-30.27587890625 -0.203857421875 60.626220703125
-13.538330078125 2.17529296875 -10.813720703125
22.15283203125 9.8087158203125 11.219482421875
7.71142578125 5.8448486328125 12.66015625
-8.498779296875 -0.5491943359375 59.555419921875
11.353515625 0.98974609375 -20.024658203125
-25.452392578125 15.6650390625 -6.859375
27.6279296875 1.3409423828125 -15.76123046875
-16.642578125 -1.8729248046875 44.513427734375
15.69140625 4.6405029296875 5.761962890625
9.988037109375 4.17431640625 2.0380859375
22.86572265625 0.89404296875 -19.95361328125
25.17919921875 0.050537109375 -25.70751953125
-23.86767578125 2.708984375 -14.77197265625
21.15771484375 1.1668701171875 -17.35791015625
-23.986572265625 8.098876953125 -1.082763671875
-18.940673828125 1.682373046875 -17.316162109375
33.28173828125 1.2457275390625 -16.45166015625
4.03515625 0.864501953125 -21.873046875
30.891357421875 5.4114990234375 10.604248046875
12.774169921875 2.79541015625 -7.010986328125
6.903076171875 4.332763671875 3.971923828125
-26.30029296875 7.2281494140625 -1.791015625
19.994140625 8.1468505859375 15.669677734375
-9.292724609375 2.6680908203125 27.308349609375
17.2587890625 -0.4075927734375 -29.402587890625
-9.128173828125 47.5186767578125 -34.61962890625
-25.442138671875 3.0767822265625 -16.1572265625
-12.972900390625 0.93212890625 -23.2353515625
-20.677490234375 2.0208740234375 74.199462890625
-26.142822265625 8.7744140625 -15.473876953125
42.124755859375 -0.302734375 -26.673583984375
23.95947265625 3.359375 -2.363037109375
45.30517578125 0.0015869140625 -25.7080078125
-13.3271484375 0.4454345703125 35.07470703125
-5.35888671875 1.2802734375 -19.507080078125
34.464111328125 2.5810546875 -8.43408203125
7.6376953125 1.87548828125 -13.912109375
2.299560546875 6.2200927734375 19.254638671875
17.610595703125 2.077880859375 -12.993896484375
48.21728515625 4.26123046875 -0.8896484375
42.45703125 0.3583984375 -22.75830078125
-6.432373046875 1.561767578125 -17.146728515625
37.36181640625 4.27490234375 3.0126953125
38.641357421875 0.4949951171875 -21.0224609375
-25.18798828125 15.8966064453125 -25.8486328125
12.6640625 -0.3814697265625 -28.9501953125
-25.8291015625 8.6556396484375 -25.449462890625
-12.09228515625 0.49169921875 36.659912109375
36.882568359375 0.1083984375 -24.648681640625
-10.3740234375 1.6220703125 -16.387451171875
23.445068359375 -0.4962158203125 -30.3525390625
-10.888427734375 2.4776611328125 -11.40380859375
2.601318359375 0.4525146484375 -24.40478515625
15.630859375 3.4537353515625 -3.005615234375
44.93017578125 2.0255126953125 -11.952880859375
27.452392578125 2.900634765625 -4.228759765625
11.138671875 3.46728515625 -2.644775390625
21.111572265625 7.4644775390625 25.66455078125
-25.330810546875 -1.2308349609375 53.784912109375
28.256591796875 -0.470947265625 -28.056884765625
-24.876220703125 12.07958984375 -25.726318359375
-7.495849609375 -1.0487060546875 48.604248046875
-19.1376953125 1.0029296875 66.59814453125
19.790283203125 2.9346923828125 -6.681396484375
24.193603515625 8.03759765625 13.429443359375
44.1513671875 2.7744140625 -7.28515625
-10.904296875 0.08251953125 64.0380859375
1.2509765625 3.716796875 -0.70166015625
-26.648193359375 23.6226806640625 -28.061279296875
-26.556396484375 21.5604248046875 -24.78857421875
-25.705078125 24.9656982421875 -18.233642578125
-26.0234375 4.297607421875 -18.02099609375
-26.404541015625 23.1890869140625 -21.635498046875
-25.9091796875 26.1658935546875 -32.588134765625
9.3388671875 4.39306640625 37.72265625
22.903076171875 6.498779296875 19.078125
31.298828125 6.49755859375 19.1904296875
1.026123046875 5.496826171875 22.208251953125
-4.018310546875 4.45458984375 2.591064453125
6.536865234375 0.442626953125 -24.0849609375
-3.44140625 1.2896728515625 -19.069091796875
1.185302734375 2.193603515625 -11.98681640625
41.314208984375 -0.8759765625 -30.517822265625
16.467529296875 6.8016357421875 35.079345703125
-15.76025390625 -0.4805908203125 56.30126953125
5.843994140625 3.8699951171875 36.58251953125
41.418701171875 2.7308349609375 -9.683837890625
5.65234375 2.1761474609375 -12.377197265625
-7.167236328125 47.445556640625 -34.0498046875
11.75341796875 4.666259765625 5.9169921875
29.637939453125 3.0919189453125 -4.525634765625
-18.43408203125 -2.203857421875 46.710693359375
-15.029541015625 0.1024169921875 60.919921875
11.174560546875 5.939453125 31.12646484375
10.713134765625 5.3148193359375 9.480224609375
13.671142578125 6.3154296875 32.172119140625
18.942626953125 0.1644287109375 -24.21923828125
-9.539794921875 -1.5194091796875 51.90234375
-15.4833984375 3.7532958984375 60.111083984375
8.356201171875 3.8013916015625 42.366943359375
-1.494140625 0.2137451171875 50.9140625
46.94189453125 1.347900390625 -14.32421875
29.064208984375 5.7139892578125 14.114013671875
35.46923828125 -0.180419921875 -26.780029296875
16.589599609375 5.5560302734375 10.65283203125
-0.494384765625 4.5067138671875 25.91259765625
3.49365234375 5.0791015625 7.6884765625
-6.541015625 3.1329345703125 26.151123046875
-17.288330078125 -1.547119140625 52.192138671875
-15.664306640625 2.1214599609375 -13.86181640625
26.688720703125 0.967529296875 -17.946044921875
26.520263671875 8.2413330078125 25.619384765625
-7.4501953125 -1.3961181640625 54.1103515625
2.5068359375 3.2138671875 -5.582763671875
-14.940673828125 1.2601318359375 -21.138916015625
-10.71728515625 45.6585693359375 -33.849609375
31.8466796875 6.1109619140625 17.2041015625
-25.367919921875 13.1781005859375 -24.191650390625
15.298828125 7.344482421875 24.883056640625
-26.638671875 19.7493896484375 -23.902099609375
6.14453125 4.0244140625 0.703857421875
3.60302734375 2.0902099609375 -12.171875
-23.629150390625 3.5076904296875 -7.338623046875
2.044677734375 4.7056884765625 5.774169921875
-6.147216796875 2.8603515625 -8.402587890625
-0.759765625 1.75439453125 41.392822265625
-18.22998046875 4.54052734375 1.83544921875
-12.303955078125 47.3916015625 -34.05810546875
46.706298828125 2.8006591796875 -7.017333984375
34.04443359375 4.8709716796875 7.36376953125
45.498779296875 3.3458251953125 -3.742919921875
36.016845703125 4.4727783203125 5.971923828125
-25.62109375 27.709716796875 -25.40087890625
-25.646728515625 5.3724365234375 -4.870361328125
34.7294921875 5.5889892578125 12.4931640625
29.733154296875 1.2960205078125 -16.426513671875
-26.2138671875 18.1248779296875 -16.12451171875
-26.76171875 21.5284423828125 -28.630126953125
-21.379150390625 2.87890625 -9.7763671875
28.8173828125 2.54052734375 -8.224365234375
14.1083984375 5.9427490234375 34.3154296875
-1.093994140625 1.3671875 -17.72412109375
39.592041015625 0.0748291015625 -25.539794921875
15.84130859375 2.5264892578125 -8.90625
8.462158203125 3.48388671875 40.07275390625
-24.233642578125 0.7193603515625 67.22021484375
-9.351318359375 1.4317626953125 33.70947265625
-4.585693359375 1.7528076171875 -15.17578125
16.777099609375 3.9976806640625 -1.615478515625
-25.410888671875 -0.3192138671875 59.8203125
16.3505859375 7.106689453125 23.193115234375
1.62841796875 1.7489013671875 44.646240234375
10.48876953125 0.4327392578125 -23.763916015625
-21.748291015625 5.629638671875 0.57763671875
22.973388671875 8.7747802734375 14.85888671875
-9.83837890625 3.0675048828125 -8.951171875
-6.2802734375 3.6470947265625 -3.017578125
37.887451171875 -1.041259765625 -32.648681640625
-25.399169921875 4.38671875 -8.498291015625
18.6220703125 1.718017578125 -14.712890625
21.67626953125 7.853271484375 16.415771484375
34.747802734375 -0.5128173828125 -30.260986328125
14.95166015625 5.1278076171875 9.8818359375
-11.742919921875 -0.048828125 38.903564453125
-2.216064453125 8.78271484375 13.62646484375
-15.7890625 4.815673828125 -11.552978515625
22.8212890625 4.583740234375 4.101806640625
22.9716796875 7.626220703125 27.06591796875
18.40576171875 4.416259765625 2.935302734375
-19.05419921875 1.283935546875 71.48193359375
12.7041015625 5.152099609375 8.448974609375
1.52392578125 1.1544189453125 -20.12060546875
-25.811279296875 12.8602294921875 -21.003662109375
-7.536376953125 6.255126953125 9.2607421875
-20.41015625 4.5400390625 -0.103271484375
-6.315185546875 3.949951171875 -1.0888671875
-19.539306640625 -0.3228759765625 41.86767578125
31.009521484375 3.2427978515625 -2.898193359375
-26.449951171875 20.778076171875 -13.134033203125
45.241455078125 1.360595703125 -16.5703125
27.8818359375 6.25927734375 17.759521484375
-25.698974609375 17.171142578125 -11.1806640625
-17.406982421875 1.5718994140625 -18.86474609375
-16.5673828125 1.60791015625 58.482177734375
-13.5244140625 -0.20361328125 37.561279296875
-26.149169921875 1.4188232421875 72.809326171875
-21.215087890625 -2.03466796875 48.364013671875
31.92626953125 0.801025390625 -19.57177734375
-28.44091796875 1.5394287109375 70.133544921875
9.031005859375 -0.11279296875 -26.76220703125
14.034423828125 -0.35888671875 -27.748779296875
-26.440185546875 8.153076171875 -10.52490234375
39.152099609375 4.6207275390625 5.974365234375
11.91552734375 5.9349365234375 14.445068359375
32.1005859375 1.664306640625 -13.60009765625
27.556396484375 1.787353515625 -13.304443359375
-4.775390625 3.2879638671875 -5.396728515625
5.822998046875 0.6683349609375 -21.22021484375
38.462646484375 2.3140869140625 -8.97509765625
12.535400390625 5.361083984375 36.16064453125
-25.0400390625 18.658447265625 -9.26123046875
-13.786865234375 0.91845703125 33.391845703125
36.273193359375 3.7005615234375 1.068115234375
-9.947265625 2.125244140625 -13.088134765625
47.8779296875 3.356689453125 -5.59619140625
-24.09033203125 0.0533447265625 62.025634765625
25.995361328125 4.794189453125 7.232666015625
23.73583984375 3.5909423828125 0.23974609375
-8.986083984375 3.2001953125 -7.17138671875
-19.9990234375 1.8330078125 -15.421630859375
-7.17724609375 0.7763671875 -23.477294921875
13.947509765625 2.075927734375 -11.775634765625
-26.402587890625 17.2174072265625 -25.910888671875
9.644775390625 3.2418212890625 -3.6123046875
13.7529296875 4.501708984375 4.875
33.96435546875 4.138427734375 1.473876953125
18.4677734375 0.964599609375 -20.75439453125
-26.885986328125 20.29638671875 -17.02001953125
36.8984375 5.119140625 9.51416015625
9.081787109375 2.41259765625 -10.962646484375
-4.99609375 1.62890625 37.265869140625
-4.398193359375 0.922119140625 -21.22265625
-14.92431640625 -1.898681640625 49.355224609375
27.7939453125 6.559326171875 19.66455078125
14.042236328125 0.7735595703125 -22.452392578125
38.400146484375 4.679931640625 7.767578125
8.893310546875 2.6458740234375 -8.34521484375
-26.781982421875 0.7532958984375 66.49755859375
39.175048828125 4.20849609375 4.113525390625
-12.64013671875 -1.5545654296875 47.022705078125
33.162109375 5.9207763671875 14.31640625
-15.283935546875 1.791259765625 64.1298828125
19.745849609375 4.4371337890625 4.10302734375
22.4228515625 4.8856201171875 8.272216796875
0.40576171875 6.0831298828125 18.3779296875
38.94677734375 4.11083984375 -17.694580078125
-10.25244140625 4.0782470703125 26.609375
23.32373046875 5.524658203125 11.774169921875
33.69970703125 4.2401123046875 3.63671875
37.990478515625 2.724853515625 -10.7822265625
15.019775390625 4.8255615234375 7.96240234375
-13.12890625 4.833984375 4.720703125
-13.7470703125 2.2586669921875 -12.9873046875
10.419921875 4.6456298828125 4.75732421875
-12.19189453125 4.3409423828125 2.1357421875
-26.532470703125 22.095703125 -15.210693359375
-26.93896484375 19.0452880859375 -31.121826171875
-26.1904296875 16.4134521484375 -21.998779296875
26.498779296875 -0.72607421875 -31.234130859375
-15.007568359375 5.8187255859375 -8.7861328125
10.431884765625 4.2403564453125 39.50537109375
-23.98779296875 17.412841796875 -30.28857421875
-26.6513671875 17.912353515625 -24.133056640625
-20.996826171875 1.4971923828125 -17.001953125
0.7607421875 4.1060791015625 1.307861328125
6.54931640625 6.0086669921875 14.9921875
8.309326171875 5.687744140625 11.0126953125
-0.129150390625 4.8409423828125 8.476806640625
-25.635986328125 16.817626953125 -32.06591796875
-17.695068359375 2.062744140625 -13.1181640625
34.367919921875 1.6968994140625 -14.925537109375
-25.72412109375 25.356201171875 -34.293701171875
21.458984375 3.2041015625 -3.072509765625
17.180419921875 6.4591064453125 17.697021484375
29.97265625 -1.01904296875 -31.639404296875
-28.525146484375 -0.221435546875 60.619873046875
-1.128662109375 6.172607421875 11.50244140625
-25.97802734375 12.271728515625 -17.168212890625
-20.5283203125 -0.6973876953125 57.76953125
-1.2294921875 5.6729736328125 9.796875
29.273193359375 4.8271484375 8.859130859375
-11.4990234375 4.4615478515625 -8.37939453125
5.6044921875 6.6016845703125 21.597412109375
-26.1904296875 7.245361328125 -19.201416015625
-18.7734375 3.975830078125 -0.749267578125
-26.16357421875 10.1015625 -6.708984375
8.7841796875 1.4366455078125 -17.2744140625
4.00341796875 4.804931640625 29.445068359375
-26.5498046875 8.811279296875 -5.055419921875
-15.462890625 5.74267578125 4.7998046875
13.488525390625 6.8441162109375 28.82275390625
39.940185546875 3.6041259765625 -0.009033203125
32.329833984375 -1.0220947265625 -33.604736328125
35.105712890625 3.47216796875 -2.191650390625
33.78369140625 1.9713134765625 -13.275390625
16.03955078125 7.3701171875 26.698486328125
39.362548828125 -0.9129638671875 -31.537353515625
36.797607421875 -0.80078125 -31.31396484375
-9.2587890625 5.48193359375 7.745361328125
8.22802734375 6.641357421875 23.86865234375
-26.0634765625 10.423095703125 -11.3232421875
-15.81689453125 5.320556640625 59.196533203125
21.943603515625 -0.036865234375 -28.48828125
-3.242919921875 5.472900390625 17.861328125
-17.384765625 3.2945556640625 58.56201171875
-9.526123046875 -0.2158203125 42.790283203125
-26.052001953125 12.606201171875 -14.10888671875
-6.40576171875 0.6578369140625 40.313232421875
-17.27783203125 -1.1378173828125 54.30419921875
15.09228515625 3.0277099609375 -4.6806640625
-28.955078125 -0.8297119140625 56.91015625
29.29150390625 6.3818359375 18.821533203125
-2.215576171875 6.311279296875 13.309326171875
3.38330078125 3.9036865234375 33.7705078125
-12.078369140625 5.264404296875 6.17431640625
0.283203125 3.3232421875 33.06689453125
48.239990234375 0.7637939453125 -18.2255859375
-26.28857421875 25.1380615234375 -22.065673828125
18.63916015625 5.646484375 10.484619140625
-21.511962890625 1.3853759765625 70.227294921875
5.394775390625 4.6397705078125 32.682861328125
46.942626953125 1.5379638671875 -16.700927734375
14.400146484375 6.3409423828125 16.013427734375
21.6552734375 6.5806884765625 17.831298828125
-18.38818359375 3.5755615234375 -7.00537109375
-1.952392578125 3.50341796875 29.0732421875
29.8671875 -16.679931640625 33.077880859375
37.559326171875 0.73095703125 -19.7177734375
1.873046875 3.9920654296875 31.1357421875
-18.49267578125 -1.739501953125 49.78759765625
-16.34423828125 1.552001953125 72.442138671875
30.554931640625 -8.7388916015625 31.931396484375
46.039306640625 -0.6063232421875 -29.47998046875
-24.91015625 16.033203125 -28.302001953125
27.588134765625 -15.65673828125 33.54931640625
2.459716796875 3.1685791015625 37.53369140625
-16.414794921875 5.6962890625 -9.846435546875
25.20556640625 6.4508056640625 19.986572265625
-25.75244140625 27.21044921875 -27.22265625
33.3564453125 5.31298828125 10.4541015625
19.515380859375 -0.2479248046875 -30.31787109375
5.1708984375 3.404296875 39.57666015625
27.804931640625 -1.2139892578125 -35.31640625
-6.79931640625 2.2381591796875 31.894287109375
36.37451171875 0.492431640625 -23.07763671875
19.2177734375 -0.1070556640625 -27.487548828125
21.94140625 0.229248046875 -23.610107421875
-25.31884765625 3.7340087890625 -13.440673828125
-7.470703125 1.5374755859375 34.076904296875
-5.951904296875 4.1533203125 22.197509765625
40.60009765625 4.8740234375 7.493408203125
3.252685546875 1.9837646484375 44.0302734375
24.614013671875 0.7235107421875 -18.73583984375
-19.895263671875 -1.3653564453125 52.332275390625
18.00244140625 7.0206298828125 31.968017578125
-4.14794921875 1.217529296875 39.7724609375
-28.1611328125 0.996337890625 68.562255859375
-31.098876953125 0.546142578125 64.56005859375
6.110595703125 1.519775390625 -15.326904296875
9.3984375 6.8983154296875 19.73291015625
-24.889404296875 17.16015625 -26.952880859375
46.42138671875 1.7294921875 -12.770263671875
-21.748291015625 0.5186767578125 63.421875
-14.77197265625 1.6119384765625 70.611083984375
17.985595703125 3.94140625 0.1953125
46.622802734375 0.881103515625 -20.593505859375
17.296630859375 7.412841796875 28.34716796875
-29.44482421875 0.462158203125 65.09033203125
-4.623779296875 5.1883544921875 7.5390625
0.0205078125 0.927734375 -21.09130859375
-2.319580078125 0.40673828125 -24.88720703125
-6.926025390625 3.7176513671875 24.332275390625
11.947509765625 7.10888671875 23.466796875
-25.786376953125 12.3756103515625 -7.49267578125
-0.6220703125 2.5926513671875 36.826416015625
0.22607421875 5.900634765625 14.931640625
-13.9677734375 -0.60205078125 39.443603515625
12.699462890625 4.075927734375 -0.36572265625
39.708251953125 3.1982421875 -3.447021484375
45.511474609375 3.96044921875 1.793212890625
-25.83837890625 10.5211181640625 -2.30322265625
-26.26708984375 4.9908447265625 -16.289794921875
15.988037109375 1.071533203125 -20.552490234375
-14.23779296875 -1.1912841796875 42.864013671875
27.884033203125 2.1702880859375 -10.39013671875
4.62353515625 -0.30224609375 -28.4501953125
-15.6728515625 -1.01904296875 40.23046875
-27.199951171875 -0.4190673828125 59.443359375
11.702392578125 6.369140625 29.158935546875
13.412109375 7.3306884765625 24.421875
20.302490234375 6.777099609375 10.75439453125
-8.688232421875 -0.97509765625 47.44189453125
26.56103515625 7.122314453125 23.789794921875
27.623046875 2.6925048828125 -6.3095703125
-25.489990234375 12.5198974609375 -4.46630859375
-3.659912109375 1.989501953125 -13.47900390625
8.8505859375 0.8359375 -20.719970703125
15.863037109375 -0.562255859375 -31.064453125
34.96337890625 2.20458984375 -9.96630859375
-22.083740234375 1.72509765625 73.37890625
32.509521484375 0.5238037109375 -21.23779296875
-22.263671875 1.4229736328125 -19.24951171875
11.820068359375 0.613037109375 -21.564453125
9.935791015625 6.309326171875 27.681884765625
-20.96435546875 0.926513671875 66.6728515625
-4.55810546875 -0.58642578125 49.4013671875
-11.15576171875 1.7916259765625 30.998046875
30.650634765625 4.6065673828125 5.392333984375
42.501220703125 -1.01171875 -31.966552734375
33.531494140625 -0.21728515625 -27.794189453125
1.1181640625 1.2220458984375 46.117919921875
-11.480224609375 2.4652099609375 29.11865234375
-25.7158203125 5.788818359375 -6.77978515625
-26.160400390625 15.87890625 -8.41162109375
-13.245849609375 -0.3211669921875 58.818115234375
43.47216796875 4.104248046875 2.321044921875
-5.615478515625 0.819091796875 -24.0595703125
-26.722900390625 18.2279052734375 -27.16064453125
-8.77490234375 -0.6895751953125 57.3525390625
-0.775146484375 3.449951171875 30.778564453125
-2.813720703125 6.6085205078125 7.509765625
-21.259033203125 -1.950439453125 44.939697265625
33.29541015625 -3.2601318359375 43.482666015625
-10.50146484375 1.701416015625 -14.758056640625
-26.36279296875 1.4932861328125 70.987060546875
12.56005859375 1.5096435546875 -15.286376953125
10.888427734375 1.365478515625 -18.48876953125
28.8095703125 -14.687255859375 33.0166015625
-24.02880859375 -1.1175537109375 54.765869140625
6.161865234375 5.79541015625 13.174072265625
-24.675537109375 1.2454833984375 70.235107421875
17.8095703125 3.0787353515625 -6.14501953125
27.9521484375 5.8316650390625 15.417724609375
-8.34765625 3.245361328125 26.111328125
15.774658203125 4.0565185546875 2.424072265625
31.65673828125 -0.844482421875 -31.79052734375
-24.014404296875 -0.425048828125 58.56103515625
-4.63427734375 3.9351806640625 1.046142578125
1.241943359375 1.169921875 48.552734375
-14.532958984375 0.1575927734375 36.12744140625
-16.342041015625 -0.416748046875 57.8427734375
21.1953125 -0.0986328125 -27.046630859375
1.767822265625 0.15625 -27.247314453125
-2.799072265625 5.9263916015625 16.3662109375
29.127197265625 0.3602294921875 -23.344970703125
34.152587890625 0.9913330078125 -19.90185546875
-6.059814453125 5.1412353515625 19.9921875
24.3984375 0.7025146484375 -20.883544921875
46.65185546875 2.466796875 -11.171630859375
8.733642578125 -0.107421875 -28.3564453125
31.29833984375 0.1527099609375 -25.051025390625
-15.527587890625 3.6822509765625 -1.60009765625
35.324951171875 -0.9288330078125 -32.423583984375
-11.273681640625 -1.1112060546875 45.361572265625
30.819580078125 2.81103515625 -6.88134765625
24.972412109375 -0.82470703125 -31.76611328125
-6.86865234375 1.931884765625 -15.634521484375
-19.093994140625 -1.82080078125 42.273193359375
2.588623046875 6.0782470703125 16.158203125
31.91259765625 1.2235107421875 -17.6533203125
48.395263671875 0.8974609375 -21.7578125
33.53759765625 6.2642822265625 16.59423828125
19.904296875 6.600830078125 19.901611328125
-16.986083984375 1.2027587890625 -20.375244140625
4.472412109375 2.6358642578125 -8.509033203125
-26.10205078125 10.9813232421875 -12.832275390625
-5.560546875 -1.0556640625 55.2744140625
-15.74560546875 3.7393798828125 58.299560546875
12.464599609375 4.97705078125 38.437255859375
40.55322265625 4.1861572265625 -17.71875
-23.056640625 1.326416015625 72.05126953125
0.64453125 2.8966064453125 -7.98046875
-16.74365234375 -0.7554931640625 38.891845703125
37.128173828125 3.32763671875 -2.725830078125
29.70947265625 -1.44482421875 -35.22607421875
28.526123046875 3.345458984375 -2.725830078125
-9.619873046875 2.4500732421875 29.072998046875
34.1796875 3.103271484375 -4.349365234375
16.78955078125 2.0711669921875 -14.37109375
37.881103515625 -0.234130859375 -25.85546875
20.823486328125 7.9752197265625 30.00634765625
31.0703125 -0.5628662109375 -30.0947265625
28.84912109375 3.7222900390625 0.144287109375
19.19775390625 7.7225341796875 26.560302734375
5.072265625 4.7001953125 4.816650390625
43.384033203125 -0.4656982421875 -28.685302734375
-1.119873046875 3.3861083984375 -2.90283203125
38.1455078125 -0.481689453125 -28.597412109375
-4.85009765625 1.7340087890625 -17.274169921875
-22.332275390625 1.1456298828125 68.2900390625
7.23095703125 0.0848388671875 -27.417724609375
24.944091796875 -0.104248046875 -28.338134765625
44.130615234375 0.268310546875 -23.815673828125
-24.383056640625 1.802978515625 -19.910400390625
39.727294921875 -0.6785888671875 -29.55615234375
23.355224609375 2.1614990234375 -10.55078125
26.748046875 4.044677734375 2.187744140625
17.978271484375 -0.4786376953125 -31.3046875
-26.653076171875 21.1929931640625 -32.367431640625
-29.7822265625 1.196044921875 68.41064453125
10.610595703125 6.9647216796875 21.9052734375
-25.1025390625 26.8218994140625 -19.298583984375
-18.66064453125 3.9012451171875 -2.331298828125
13.6591796875 2.084228515625 -13.336181640625
-10.00732421875 1.618408203125 32.277099609375
43.928466796875 2.3629150390625 -10.77197265625
37.654541015625 4.4188232421875 -14.710693359375
-7.54248046875 3.7275390625 -4.275146484375
28.201171875 1.0660400390625 -17.411865234375
16.8662109375 2.29833984375 -10.166259765625
7.2236328125 1.2364501953125 -17.69677734375
1.924072265625 4.905029296875 7.7822265625
43.486572265625 2.030517578125 -12.59912109375
-20.012451171875 -0.998779296875 55.45556640625
39.35595703125 4.7310791015625 -14.384521484375
-18.09130859375 0.19482421875 39.618896484375
20.955810546875 0.857421875 -20.956787109375
42.74560546875 1.99658203125 -14.55712890625
-7.41015625 4.946044921875 5.439453125
12.193603515625 -0.0010986328125 -27.390869140625
-26.109375 14.8514404296875 -15.830078125
1.87646484375 5.204833984375 9.686767578125
8.507568359375 0.5819091796875 -23.19677734375
42.87451171875 1.120849609375 -18.972412109375
32.21533203125 1.4788818359375 -15.16259765625
22.309326171875 3.87744140625 1.020751953125
-7.31494140625 0.21728515625 41.858154296875
-7.673828125 4.4874267578125 22.486328125
-14.47314453125 4.1143798828125 -0.14013671875
-26.64404296875 5.7005615234375 -18.368896484375
26.0009765625 4.385986328125 5.390380859375
-0.840087890625 0.5037841796875 -24.36328125
-3.677978515625 0.3846435546875 -26.07373046875
-1.248046875 0.20654296875 48.914794921875
-32.720703125 0.7464599609375 64.410888671875
43.20849609375 0.021240234375 -25.584716796875
-14.89404296875 5.500244140625 -6.9560546875
-16.593017578125 1.886474609375 -15.547119140625
-9.12158203125 4.1343994140625 -0.84375
31.03955078125 1.8961181640625 -12.319580078125
42.599365234375 3.09375 -5.927490234375
-22.32177734375 3.100830078125 -8.546142578125
-12.947509765625 0.079833984375 62.24755859375
30.88525390625 3.8369140625 0.4990234375
43.96826171875 0.8848876953125 -20.27978515625
10.132080078125 3.69140625 -1.407958984375
-26.275634765625 8.8035888671875 -19.3017578125
-27.071044921875 18.539306640625 -32.9404296875
32.0556640625 2.3717041015625 -10.248779296875
32.776611328125 0.4122314453125 -23.494140625
28.1650390625 -1.1134033203125 -33.798828125
-2.2802734375 3.987060546875 1.844482421875
30.914306640625 2.498046875 -8.87255859375
-13.4189453125 -0.8525390625 41.416748046875
7.39892578125 4.1607666015625 36.937744140625
-14.79296875 -0.544921875 59.388427734375
-7.310546875 0.8575439453125 -21.82421875
11.46337890625 1.6365966796875 -13.911865234375
36.97265625 -0.34765625 -27.162353515625
-4.332763671875 0.73876953125 -22.770263671875
19.621826171875 2.061279296875 -13.09765625
-13.520263671875 3.89453125 -1.35498046875
-17.654296875 3.4395751953125 -10.395751953125
26.3017578125 -0.214111328125 -27.5849609375
-25.751708984375 24.9478759765625 -36.82275390625
-5.178466796875 6.3157958984375 18.37255859375
-8.75439453125 1.329345703125 -19.47607421875
0.9228515625 3.04052734375 -5.47119140625
32.26806640625 -0.9801025390625 44.259033203125
9.457275390625 6.6021728515625 17.84912109375
-1.40869140625 0.803466796875 -22.168212890625
4.392333984375 3.3778076171875 -4.162109375
36.667724609375 2.86962890625 -4.970703125
2.05712890625 4.5711669921875 28.662109375
-9.026611328125 -0.441162109375 45.238525390625
-0.16796875 5.68798828125 13.120849609375
17.72119140625 1.6077880859375 -15.988037109375
-26.540771484375 14.2088623046875 -20.703125
21.169189453125 7.04345703125 23.361328125
45.6474609375 0.10107421875 -24.196044921875
45.722900390625 2.5850830078125 -8.19775390625
-22.46484375 -1.4398193359375 46.39501953125
36.0634765625 0.896240234375 -19.345458984375
22.1240234375 0.1456298828125 -25.297607421875
34.30517578125 4.859130859375 8.891357421875
23.110107421875 2.6822509765625 -6.480224609375
37.72998046875 2.5050048828125 -16.64208984375
39.939453125 0.1739501953125 -24.033203125
2.082763671875 2.3021240234375 -10.73046875
8.95556640625 5.142578125 33.31982421875
-6.12255859375 -1.1942138671875 51.68896484375
11.110595703125 5.931396484375 13.12353515625
-11.008056640625 1.1986083984375 -21.9140625
-26.215576171875 8.880859375 -8.45458984375
25.5087890625 6.33154296875 17.373046875
5.53271484375 -0.1907958984375 -27.166259765625
7.43798828125 5.9326171875 26.638671875
2.676513671875 0.2672119140625 -25.967041015625
23.591552734375 -0.8475341796875 -32.980224609375
8.459716796875 6.1466064453125 15.873291015625
24.408203125 6.4476318359375 18.664794921875
46.962890625 0.9793701171875 -19.091552734375
20.23828125 1.7625732421875 -15.286376953125
5.523193359375 0.6748046875 -22.797119140625
33.400146484375 2.262939453125 -9.503173828125
16.324462890625 2.9805908203125 -6.67724609375
-17.534912109375 -1.5965576171875 41.662353515625
-0.769775390625 0.3189697265625 -25.92236328125
-2.169921875 2.214599609375 -12.514404296875
-4.7265625 2.5150146484375 31.588623046875
33.4189453125 3.5802001953125 -0.653076171875
-2.637939453125 1.895751953125 38.381103515625
-1.430908203125 2.8358154296875 -7.24462890625
7.772216796875 3.4862060546875 -3.18603515625
-0.355712890625 1.99462890625 -12.409423828125
-3.8173828125 0.466796875 -24.40966796875
-0.814453125 6.015869140625 16.209716796875
2.431884765625 3.44677734375 35.359130859375
35.197021484375 4.3392333984375 4.175537109375
5.0009765625 6.5048828125 18.232666015625
26.646728515625 2.4794921875 -7.475341796875
16.58154296875 2.306884765625 -11.725830078125
-2.801025390625 7.1551513671875 14.449462890625
-21.895263671875 2.2816162109375 -12.934814453125
-8.092041015625 3.30712890625 -5.929931640625
-8.155517578125 0.564453125 -24.63916015625
2.42724609375 1.26416015625 -18.8515625
38.4091796875 3.9193115234375 1.323974609375
13.4794921875 4.2335205078125 1.952392578125
37.514892578125 4.5718994140625 6.511474609375
-0.574462890625 1.0966796875 -19.35205078125
32.285888671875 4.2445068359375 2.99853515625
9.224853515625 1.919921875 -14.480224609375
-8.662841796875 0.835693359375 -23.00341796875
13.204833984375 3.2734375 -4.25146484375
17.1474609375 7.109375 24.500244140625
-4.850341796875 3.8955078125 -1.52734375
-19.89013671875 -2.2125244140625 47.619873046875
-25.606201171875 3.11083984375 -19.423583984375
-26.451171875 6.53369140625 -20.754150390625
17.4560546875 6.58837890625 33.931884765625
18.7822265625 3.290283203125 -4.986572265625
25.31494140625 5.1070556640625 9.874755859375
3.203857421875 1.867431640625 -14.06201171875
4.486083984375 5.9293212890625 23.429443359375
7.54638671875 2.62451171875 -9.52001953125
-7.32861328125 2.8736572265625 27.583251953125
-20.031982421875 3.328369140625 -6.261474609375
28.2822265625 3.9893798828125 1.745849609375
-6.1904296875 1.27294921875 -20.876953125
-0.399169921875 5.40087890625 21.68017578125
4.7822265625 1.627197265625 -16.063720703125
9.60009765625 3.955810546875 0.18017578125
-11.7607421875 1.6270751953125 -17.013427734375
-2.879150390625 0.9920654296875 -21.249755859375
-21.215087890625 -1.189453125 53.066650390625
-7.0087890625 2.4461669921875 -11.603759765625
-26.033935546875 13.858154296875 -11.802978515625
-24.71875 3.4617919921875 -11.2578125
-14.2568359375 1.2193603515625 -18.58056640625
7.504638671875 2.0838623046875 -11.829833984375
-6.07666015625 2.1470947265625 33.24462890625
13.467529296875 5.583251953125 12.12158203125
-4.671630859375 4.5806884765625 21.5048828125
-26.6015625 28.5015869140625 -26.244873046875
-1.051025390625 3.2081298828125 -4.407470703125
31.104248046875 2.9315185546875 -4.876708984375
-18.788818359375 1.576904296875 -19.48876953125
21.301513671875 4.229736328125 2.693603515625
-25.4677734375 4.802001953125 -10.4208984375
-24.72998046875 0.8720703125 68.642822265625
-7.1220703125 0.7464599609375 38.982177734375
29.16455078125 5.00439453125 10.358642578125
-0.047607421875 1.6644287109375 42.7255859375
24.182861328125 5.9083251953125 14.400634765625
22.427734375 7.880615234375 28.5869140625
12.08642578125 4.23779296875 1.32177734375
17.361572265625 4.10400390625 1.885986328125
-1.188232421875 3.5635986328125 -1.402099609375
22.406005859375 7.700439453125 10.51416015625
19.533447265625 -0.541015625 -31.800537109375
-5.690673828125 0.5693359375 41.641845703125
-0.027587890625 4.1400146484375 28.05908203125
-23.457763671875 2.34375 -16.26708984375
-13.62255859375 1.153564453125 -20.407958984375
-28.190673828125 -0.4981689453125 55.53076171875
26.298828125 1.96826171875 -10.820556640625
35.54443359375 5.72021484375 14.268798828125
13.271728515625 6.47998046875 17.8203125
-1.804443359375 4.580810546875 4.97265625
23.351806640625 8.764404296875 12.119140625
-12.342041015625 4.2158203125 -6.28662109375
5.178466796875 6.012451171875 14.367431640625
39.089599609375 0.8302001953125 -19.180419921875
3.3193359375 6.12451171875 14.338623046875
-23.1650390625 -0.898193359375 56.273681640625
4.478515625 4.8594970703125 6.4794921875
11.13525390625 6.7093505859375 20.377197265625
-10.943359375 -1.495361328125 48.43212890625
12.40576171875 5.5718994140625 34.55029296875
-22.4453125 -1.64501953125 49.4169921875
-26.37646484375 11.0556640625 -3.60107421875
25.57470703125 5.9044189453125 15.032958984375
43.73388671875 1.525634765625 -16.200439453125
5.593994140625 4.4385986328125 3.245849609375
12.33447265625 1.2032470703125 -18.8544921875
45.60205078125 3.3880615234375 -1.0791015625
24.440185546875 1.7745361328125 -12.819091796875
-2.39990234375 0.255615234375 47.264892578125
-22.275390625 2.772216796875 -11.013671875
-9.45751953125 3.5899658203125 -5.15185546875
-17.2978515625 3.89697265625 -1.71142578125
-25.95751953125 -0.9710693359375 57.104736328125
2.605224609375 2.9644775390625 39.119384765625
28.15673828125 6.7735595703125 21.4892578125
32.625 3.1600341796875 -3.895751953125
-11.841064453125 0.6068115234375 35.018310546875
36.13232421875 2.208251953125 -10.899658203125
38.515625 3.608642578125 -0.650390625
-8.113525390625 3.8885498046875 -2.59619140625
22.74462890625 6.6954345703125 21.066650390625
-19.966796875 2.6968994140625 -10.658935546875
0.52392578125 4.50732421875 5.34375
11.63916015625 6.9765625 25.189208984375
3.8876953125 2.9847412109375 40.224609375
47.7724609375 -0.2952880859375 -29.16552734375
14.433837890625 2.53125 -9.54052734375
-0.84716796875 4.78759765625 6.10400390625
-17.0087890625 -2.1688232421875 46.274658203125
2.293701171875 5.5439453125 11.935791015625
-21.768310546875 4.544189453125 -0.721923828125
24.061279296875 7.5130615234375 25.799072265625
-7.074951171875 -0.7760009765625 57.890625
-9.23193359375 1.872802734375 30.8671875
-1.224853515625 2.7567138671875 34.89697265625
-20.413330078125 3.8154296875 -4.358154296875
5.90087890625 5.38330078125 9.35009765625
-15.370361328125 3.5819091796875 -3.717529296875
0.316650390625 3.045166015625 35.248779296875
-26.061279296875 16.6441650390625 -16.134033203125
-1.427490234375 4.9459228515625 7.7568359375
-7.376953125 4.646484375 3.5322265625
8.688720703125 2.1898193359375 -12.85595703125
18.9375 7.3946533203125 30.431884765625
-26.848388671875 8.7197265625 -2.20849609375
-26.136474609375 10.7596435546875 -8.302490234375
-18.179931640625 3.640869140625 -3.898681640625
-2.796875 2.6871337890625 -8.847900390625
11.866455078125 2.274169921875 -10.13916015625
-25.918701171875 9.8927001953125 -16.42724609375
-14.9521484375 4.7977294921875 3.752197265625
28.373291015625 1.7943115234375 -11.9208984375
-26.246826171875 14.6693115234375 -9.632080078125
24.10546875 1.3907470703125 -15.73779296875
-25.837890625 25.36669921875 -26.3212890625
5.493408203125 6.1241455078125 16.275390625
-1.788330078125 4.7471923828125 22.04833984375
20.03369140625 3.4915771484375 -2.2861328125
24.6337890625 -1.2198486328125 -34.769775390625
-26.2451171875 21.1087646484375 -19.523681640625
31.8359375 3.3779296875 -1.089111328125
6.366943359375 6.501220703125 18.8564453125
-11.534912109375 4.4080810546875 0.8076171875
-27.728271484375 0.3287353515625 64.7080078125
2.005859375 6.2332763671875 17.782958984375
4.020751953125 3.28564453125 -5.593505859375
-21.456787109375 3.95947265625 -2.513916015625
10.33544921875 6.6640625 26.300537109375
-26.199951171875 24.2955322265625 -35.571044921875
-28.55615234375 0.087646484375 62.763671875
14.963134765625 4.0513916015625 1.07763671875
-26.099853515625 14.531982421875 -23.892578125
-4.95263671875 -1.121337890625 53.7138671875
40.635009765625 3.9200439453125 3.330322265625
26.941650390625 -0.522216796875 -29.837890625
30.021240234375 -10.222412109375 32.0966796875
21.343505859375 6.97314453125 21.80810546875
5.148193359375 2.5728759765625 -10.322021484375
-18.605712890625 5.6861572265625 2.688720703125
48.44140625 4.1839599609375 -2.539794921875
