-16.28759765625 3.493896484375 -11.281494140625
-5.8095703125 4.022216796875 -6.01708984375
22.73046875 5.333251953125 3.75
46.298828125 1.85693359375 -13.669677734375
38.67626953125 6.7100830078125 14.394775390625
-4.499267578125 0.982177734375 -26.3525390625
27.87939453125 -0.25341796875 -28.736083984375
37.109619140625 0.7408447265625 -22.858642578125
-9.7646484375 7.215576171875 10.035400390625
3.242919921875 -0.6141357421875 -34.13916015625
18.988525390625 2.38427734375 -13.640380859375
-6.34765625 1.6861572265625 49.6220703125
33.192138671875 8.3604736328125 22.768798828125
6.740234375 6.327880859375 36.6064453125
29.810791015625 6.645751953125 12.4755859375
-4.744873046875 2.19287109375 -19.018310546875
-20.80517578125 6.706787109375 -8.388916015625
42.763671875 3.6397705078125 -4.802001953125
-2.873291015625 2.8052978515625 43.864013671875
-1.678955078125 1.94140625 59.46630859375
34.095703125 -1.289794921875 -34.295166015625
-18.766845703125 2.6456298828125 -20.71240234375
-13.3759765625 2.31982421875 60.23193359375
-18.84619140625 0.3974609375 52.989501953125
9.45361328125 8.169677734375 27.80126953125
27.57373046875 -0.7452392578125 -32.634521484375
-16.470947265625 4.6650390625 -4.186767578125
32.724853515625 3.369384765625 -6.5068359375
-1.7236328125 5.766845703125 29.214599609375
8.827392578125 3.7708740234375 -6.423583984375
5.764892578125 4.764892578125 42.94873046875
4.028564453125 6.908447265625 29.407470703125
-10.16064453125 6.8624267578125 66.072265625
48.93212890625 4.5076904296875 2.294677734375
-8.810302734375 4.6893310546875 -6.776123046875
45.862060546875 1.055419921875 -20.027587890625
-20.898681640625 2.4637451171875 -36.545166015625
2.229736328125 2.103759765625 -17.6005859375
12.084228515625 0.2579345703125 -29.970703125
52.0498046875 1.3790283203125 -12.056396484375
-6.298095703125 6.94140625 9.403564453125
-20.02880859375 9.29931640625 0.95263671875
33.46875 2.5111083984375 -11.72607421875
-19.563232421875 5.81689453125 -2.0947265625
32.44189453125 2.12451171875 -13.65478515625
0.49560546875 -0.8656005859375 -37.764892578125
-19.970703125 8.64453125 -4.7607421875
12.043212890625 6.8021240234375 11.349853515625
17.586669921875 7.065185546875 12.0615234375
-1.567138671875 2.13818359375 61.6259765625
44.689453125 5.4932861328125 8.017822265625
7.734130859375 4.763671875 -1.219482421875
2.446044921875 -0.8272705078125 -36.23828125
-27.077880859375 3.8795166015625 67.7333984375
-1.941650390625 1.80859375 -19.330322265625
1.106201171875 3.0789794921875 -11.7900390625
26.16455078125 0.1961669921875 -26.425537109375
40.30517578125 7.0108642578125 16.05712890625
-20.51220703125 3.574951171875 68.162109375
17.753173828125 8.2266845703125 20.962890625
15.497314453125 8.529052734375 31.22021484375
10.312255859375 8.6904296875 23.747314453125
41.85693359375 7.855224609375 18.5419921875
7.494384765625 6.8380126953125 34.123291015625
22.19287109375 6.304931640625 9.170166015625
12.44384765625 5.8499755859375 7.56396484375
0.5869140625 3.6038818359375 43.3837890625
8.43994140625 7.4305419921875 30.049072265625
-5.470703125 3.9730224609375 37.000732421875
-5.419189453125 5.1187744140625 74.677001953125
20.438720703125 4.073974609375 -4.79833984375
38.10791015625 5.8597412109375 8.38671875
-25.912353515625 4.4736328125 70.0888671875
39.0458984375 6.2164306640625 10.86376953125
50.63134765625 -0.0244140625 -23.585205078125
51.54443359375 2.2996826171875 -9.56494140625
20.35009765625 8.949462890625 24.89697265625
-8.385009765625 5.2412109375 64.619384765625
-17.94921875 -0.609375 -39.8212890625
52.2890625 -0.794677734375 -20.82763671875
-2.150390625 1.48095703125 -22.692626953125
40.2978515625 6.772216796875 12.594482421875
-12.27197265625 2.819091796875 61.81640625
-3.0771484375 6.3577880859375 7.05517578125
13.157958984375 9.0504150390625 26.68701171875
-10.365234375 1.0428466796875 53.974609375
15.5537109375 3.1968994140625 -8.086181640625
-18.008056640625 5.677978515625 1.63427734375
35.364501953125 -0.6253662109375 -30.96875
-19.224365234375 3.0821533203125 65.584716796875
-20.575439453125 1.568115234375 55.997314453125
24.436279296875 -1.2967529296875 -37.121337890625
-13.0302734375 0.05126953125 -32.52783203125
27.68359375 5.7119140625 7.293212890625
30.828125 6.1907958984375 9.651611328125
0.884521484375 6.7972412109375 26.566162109375
3.864990234375 2.5460205078125 -14.035888671875
37.650146484375 9.3948974609375 50.8857421875
35.95703125 6.56982421875 11.647705078125
-4.728515625 2.0888671875 62.5263671875
11.91259765625 0.945068359375 -24.9169921875
-12.550537109375 8.3629150390625 79.38818359375
24.07177734375 6.0556640625 6.848388671875
40.01171875 5.485595703125 5.07275390625
-19.563232421875 5.8775634765625 -0.128662109375
9.93310546875 6.378173828125 37.545654296875
16.42724609375 -0.7198486328125 -31.3515625
49.62255859375 2.4049072265625 -10.790283203125
5.364990234375 -1.3035888671875 -38.7373046875
0.11083984375 6.291259765625 5.474853515625
8.103271484375 1.783203125 -33.853271484375
5.495361328125 2.8619384765625 -12.991943359375
-10.411376953125 1.6793212890625 45.4140625
-4.183837890625 1.39306640625 -23.08203125
25.794677734375 1.6085205078125 -16.82568359375
18.3525390625 3.2896728515625 -8.01953125
-19.006591796875 7.7994384765625 79.11328125
-3.322998046875 2.1546630859375 60.537109375
11.414306640625 4.5291748046875 -1.4560546875
-17.769775390625 3.93798828125 -8.1630859375
16.422607421875 2.427490234375 -14.927490234375
-7.82861328125 2.7362060546875 42.855224609375
11.099609375 -1.668212890625 -40.224609375
28.874267578125 8.81787109375 15.5068359375
16.2666015625 7.8338623046875 36.511962890625
10.6728515625 5.2705078125 3.657470703125
41.25146484375 -0.3187255859375 -28.299560546875
9.62451171875 1.8294677734375 -35.804931640625
15.46875 5.4967041015625 5.22021484375
-1.338623046875 -1.3828125 -39.636962890625
-11.931640625 1.3116455078125 55.468017578125
-18.590087890625 10.072265625 2.31494140625
13.529296875 3.12939453125 -9.073486328125
-17.63134765625 3.561279296875 68.73046875
20.982666015625 -1.2259521484375 -36.31591796875
-6.814453125 3.53076171875 -10.330322265625
28.448486328125 1.23779296875 -21.217041015625
-22.913818359375 2.8931884765625 65.012939453125
21.49658203125 7.9775390625 19.820556640625
28.308349609375 9.082763671875 27.659423828125
-22.304931640625 7.3653564453125 -35.69091796875
-10.54248046875 1.4375 -23.703125
-20.3046875 6.0 -10.33154296875
15.1865234375 0.9925537109375 -22.494873046875
27.53466796875 3.6993408203125 -5.6171875
8.868896484375 4.4853515625 48.78857421875
31.284423828125 5.87451171875 7.531982421875
-18.671630859375 2.793212890625 -18.7880859375
13.925048828125 9.0552978515625 24.856201171875
-20.826416015625 8.359619140625 -27.135498046875
-0.8544921875 -0.1627197265625 -34.158935546875
48.30029296875 3.1990966796875 -8.9072265625
-14.341552734375 2.850341796875 -15.597412109375
-5.1494140625 8.0438232421875 12.279541015625
7.935791015625 5.8466796875 6.27392578125
-2.53369140625 3.9432373046875 39.454345703125
22.17041015625 3.0108642578125 -9.32958984375
14.531005859375 0.0291748046875 -30.14501953125
9.468994140625 5.164794921875 -0.255126953125
32.273681640625 7.833984375 17.3818359375
40.053955078125 5.7874755859375 9.039794921875
36.554443359375 10.605224609375 49.896728515625
40.363525390625 4.2564697265625 -0.771728515625
24.728759765625 0.9703369140625 -22.305419921875
17.16357421875 7.373779296875 14.13525390625
-20.67431640625 8.7294921875 -18.6318359375
38.601806640625 -0.8907470703125 -30.94921875
-3.783203125 4.7322998046875 33.50927734375
3.371337890625 8.537353515625 18.25048828125
-13.82666015625 0.5946044921875 52.48828125
29.12255859375 3.0867919921875 -9.26220703125
23.134765625 7.4798583984375 16.268310546875
-8.0849609375 6.3189697265625 5.134521484375
26.76025390625 9.5726318359375 29.63134765625
44.102783203125 5.3927001953125 5.23681640625
-0.16796875 1.545166015625 -21.735107421875
10.161865234375 3.02880859375 -10.368896484375
28.507568359375 5.7091064453125 5.363037109375
4.583251953125 3.2867431640625 -11.16552734375
3.261962890625 7.6492919921875 24.58203125
3.649658203125 2.253173828125 -16.3662109375
-3.341064453125 6.01953125 4.348876953125
-13.17578125 4.395751953125 69.655029296875
45.617431640625 2.5634765625 -12.05908203125
38.269775390625 2.5001220703125 -10.461669921875
-16.858154296875 0.574462890625 52.936279296875
23.1669921875 -0.0712890625 -27.883056640625
17.7255859375 7.4114990234375 16.35302734375
-9.99365234375 0.6029052734375 -28.79833984375
0.4189453125 2.2725830078125 -16.701904296875
-4.861328125 5.0029296875 -1.92626953125
-8.603271484375 0.0306396484375 -31.3974609375
-6.447509765625 -1.403076171875 -43.047607421875
34.798828125 4.292236328125 -0.67041015625
19.686767578125 -0.2628173828125 -30.703369140625
-10.140625 0.401611328125 -44.49609375
23.668701171875 3.222900390625 -7.595458984375
11.763671875 8.1136474609375 31.147705078125
28.451171875 10.2069091796875 35.50390625
1.84912109375 5.4083251953125 1.48388671875
13.806640625 8.1351318359375 19.38427734375
20.29345703125 9.646240234375 28.571044921875
49.717041015625 -0.599365234375 -29.359619140625
49.910888671875 4.930908203125 5.2919921875
-11.19384765625 4.1900634765625 72.9287109375
0.68896484375 3.3031005859375 46.28662109375
-20.287353515625 9.1749267578125 -14.9775390625
-5.869873046875 1.6455078125 -22.2705078125
-6.973388671875 6.9566650390625 -3.273681640625
-2.04150390625 4.694091796875 35.104248046875
18.183349609375 2.9600830078125 -11.410400390625
12.882080078125 4.738525390625 0.253173828125
37.676025390625 -1.197998046875 -33.017578125
29.05859375 10.2333984375 18.335693359375
-17.749755859375 3.200927734375 -14.3984375
21.806884765625 7.4105224609375 14.917724609375
22.753173828125 2.074951171875 -14.409912109375
1.819091796875 6.139892578125 6.1875
-14.793701171875 4.0648193359375 70.904052734375
-24.235595703125 3.896728515625 69.168212890625
20.351318359375 6.4326171875 8.9912109375
14.144287109375 1.439453125 -18.9970703125
-18.451416015625 -0.4290771484375 -38.033203125
19.016845703125 7.21826171875 13.3173828125
29.8017578125 8.12744140625 18.902099609375
1.255615234375 4.7281494140625 -2.4443359375
43.8564453125 0.2923583984375 -24.55322265625
10.439453125 5.20947265625 47.810791015625
0.8544921875 5.7396240234375 3.34716796875
18.630126953125 1.847412109375 -17.90869140625
11.733642578125 3.103271484375 -12.7841796875
-16.46044921875 2.8753662109375 64.038330078125
-17.784912109375 6.494384765625 4.103515625
1.29248046875 2.59765625 -13.715087890625
2.61083984375 -1.419921875 -39.76953125
-13.100341796875 0.50341796875 47.59814453125
-8.578857421875 3.5283203125 39.57177734375
-1.620361328125 4.2821044921875 -6.8310546875
-13.539306640625 3.75537109375 -9.86328125
-20.46533203125 8.5201416015625 -13.02294921875
-20.44091796875 7.400146484375 -14.51123046875
27.689208984375 -1.3377685546875 -34.56494140625
-6.011474609375 2.6099853515625 75.438720703125
43.91796875 6.2486572265625 11.6513671875
36.37109375 3.3701171875 -8.3330078125
17.063232421875 1.6114501953125 -19.064208984375
24.18115234375 9.61083984375 38.58984375
6.562255859375 6.956787109375 30.634033203125
-4.58837890625 2.4930419921875 -15.123291015625
42.039794921875 3.794189453125 -2.4228515625
7.943115234375 5.0517578125 1.079833984375
-8.28564453125 1.5155029296875 47.7763671875
-19.563232421875 5.7559814453125 -4.06640625
9.845458984375 7.9876708984375 17.364990234375
28.2802734375 6.3748779296875 10.27587890625
-20.264892578125 0.8211669921875 -36.044677734375
-6.568359375 0.0797119140625 -32.06591796875
3.581787109375 4.930908203125 40.53271484375
23.2705078125 6.7972412109375 11.973876953125
-6.38232421875 2.8804931640625 65.625244140625
46.631591796875 1.2137451171875 -18.34814453125
47.130859375 4.7900390625 2.505615234375
37.871337890625 -0.0413818359375 -26.64599609375
14.63671875 4.3681640625 -3.019287109375
0.481689453125 1.559814453125 56.85986328125
-5.732177734375 1.413330078125 55.00390625
23.559814453125 8.8392333984375 24.463134765625
12.9921875 7.87451171875 16.9052734375
44.11669921875 4.737548828125 -12.31201171875
41.6044921875 5.81982421875 7.780029296875
-12.115478515625 7.7862548828125 7.5
-4.974609375 0.4637451171875 -28.964599609375
14.54833984375 -0.6746826171875 -33.005859375
0.549072265625 5.7117919921875 32.507080078125
20.427490234375 4.94482421875 0.974853515625
-7.291259765625 3.8582763671875 70.564697265625
-11.0859375 0.7489013671875 49.35693359375
45.997802734375 4.22021484375 -0.8740234375
-14.232177734375 6.3857421875 4.788330078125
38.147705078125 1.131591796875 -20.908935546875
18.54150390625 9.4378662109375 31.412841796875
16.369384765625 7.225341796875 43.455810546875
-20.324462890625 6.1483154296875 -23.172607421875
2.62353515625 3.990234375 -7.90283203125
10.040771484375 -1.17138671875 -35.575927734375
2.4208984375 2.509765625 53.789306640625
29.87158203125 -0.3740234375 -29.214111328125
35.120849609375 -0.6968994140625 -29.1806640625
7.073974609375 -1.629638671875 -40.0888671875
33.43115234375 0.65625 -22.494384765625
-21.116943359375 3.4344482421875 -34.830810546875
7.53515625 -23.97216796875 45.863037109375
31.649658203125 1.8125 -17.328125
-8.841552734375 -1.27099609375 -44.373779296875
35.824462890625 6.6640625 14.722412109375
37.51904296875 2.2481689453125 -13.66259765625
31.504150390625 8.771484375 24.858642578125
35.11328125 1.6939697265625 -18.53564453125
49.262451171875 1.7274169921875 -16.168701171875
39.95263671875 4.699951171875 2.345947265625
5.538330078125 -1.061767578125 -36.81884765625
25.973388671875 9.8909912109375 17.9033203125
39.920166015625 3.7239990234375 -3.44482421875
0.421630859375 1.908447265625 54.435302734375
-23.011962890625 2.6944580078125 61.56103515625
-0.531005859375 2.4539794921875 49.98388671875
12.665771484375 1.0982666015625 -23.291748046875
41.4111328125 0.091796875 -24.259765625
13.466796875 8.863525390625 28.58447265625
27.649658203125 0.44677734375 -23.60498046875
9.892333984375 5.063720703125 1.61083984375
-6.76611328125 3.957275390625 74.33251953125
18.83447265625 4.6494140625 -0.655029296875
15.35498046875 -1.5003662109375 -39.495849609375
18.910400390625 -1.1883544921875 -35.718017578125
17.412841796875 7.4169921875 41.002685546875
26.22265625 4.6278076171875 -0.21630859375
-8.253173828125 3.45849609375 68.42822265625
-7.095458984375 3.2188720703125 -12.0693359375
2.35498046875 5.972412109375 4.489013671875
25.853515625 -1.0679931640625 -33.690673828125
-20.521484375 5.7982177734375 -29.101806640625
32.47265625 6.637451171875 13.254638671875
13.79150390625 7.434814453125 37.29931640625
0.707275390625 1.02197265625 -25.09423828125
24.004638671875 9.3480224609375 27.01513671875
-12.4833984375 1.2706298828125 53.44091796875
20.587890625 9.1865234375 35.482666015625
4.0634765625 9.0338134765625 16.211669921875
46.899169921875 5.5931396484375 8.48779296875
21.30029296875 8.9798583984375 40.588623046875
-10.395263671875 -1.3145751953125 -40.22265625
3.097900390625 5.2984619140625 -0.114501953125
-1.892822265625 2.719970703125 46.741455078125
3.7685546875 3.0281982421875 52.064453125
-16.80224609375 4.30224609375 -6.345458984375
-14.439208984375 5.7047119140625 79.401123046875
-15.29638671875 -0.2774658203125 49.3857421875
-13.969482421875 5.9727783203125 1.86376953125
22.963134765625 1.38818359375 -19.453125
26.4072265625 3.9866943359375 -4.146484375
-20.605224609375 8.525146484375 -8.38818359375
-5.455078125 2.290283203125 46.1787109375
49.295654296875 -0.2325439453125 -27.68017578125
-14.655517578125 1.604248046875 56.9990234375
20.3056640625 1.5048828125 -18.63037109375
11.22998046875 1.68798828125 -31.817138671875
16.18701171875 7.933349609375 19.3427734375
-21.461669921875 6.1138916015625 78.1337890625
-8.161376953125 1.207275390625 -25.448486328125
-8.126708984375 2.2305908203125 61.1875
-5.4345703125 1.7974853515625 57.928466796875
-11.40380859375 -0.29931640625 -34.86962890625
-15.516845703125 3.81396484375 67.292236328125
-4.4912109375 4.1160888671875 68.8623046875
-20.46923828125 1.3116455078125 -32.515625
21.297607421875 4.3101806640625 -3.2783203125
36.017333984375 5.7869873046875 7.3583984375
21.4833984375 0.4722900390625 -24.044189453125
-10.053955078125 0.65625 50.779541015625
-1.21630859375 5.6185302734375 3.453125
-2.089599609375 2.2208251953125 50.765380859375
-21.098876953125 6.797119140625 -34.521484375
30.91845703125 5.286865234375 2.841796875
9.6435546875 3.2630615234375 -8.147705078125
23.328125 8.4119873046875 20.275634765625
-4.99951171875 3.4246826171875 -10.742431640625
24.720947265625 9.946533203125 36.755615234375
47.392578125 3.460205078125 -3.3046875
-8.857177734375 3.3824462890625 -11.197265625
-14.76171875 -0.4708251953125 -35.9755859375
46.482666015625 4.96826171875 4.2958984375
-16.7373046875 2.211669921875 -21.1220703125
16.75537109375 4.4302978515625 -3.611328125
-11.86279296875 4.7064208984375 74.776611328125
20.138671875 8.4163818359375 37.943603515625
15.010009765625 0.65625 -25.935302734375
11.8056640625 6.5380859375 41.436279296875
6.7666015625 8.3839111328125 23.0927734375
11.636962890625 -1.111572265625 -38.123291015625
-8.51416015625 6.62548828125 8.68798828125
9.142578125 2.5594482421875 -13.746826171875
19.22607421875 4.2738037109375 -3.246337890625
24.147705078125 2.8658447265625 -10.7978515625
43.595703125 4.7413330078125 1.6142578125
8.6982421875 0.393310546875 -27.102783203125
12.5439453125 5.7244873046875 3.526123046875
-16.598388671875 0.9227294921875 -29.8671875
-0.766357421875 4.6343994140625 -2.871826171875
-21.67578125 1.6788330078125 57.34423828125
4.206787109375 -0.294921875 -32.722900390625
-16.364990234375 1.2822265625 -25.506591796875
31.05615234375 3.010009765625 -8.636962890625
-0.07861328125 3.8968505859375 -7.96875
31.7890625 2.8201904296875 -12.068115234375
52.259765625 -0.007080078125 -24.974853515625
7.145263671875 0.9857177734375 -22.856689453125
18.5693359375 1.917724609375 -15.81201171875
30.068603515625 9.310546875 16.75537109375
5.534423828125 3.455322265625 52.059326171875
7.22900390625 0.447265625 -34.814208984375
37.815185546875 7.3682861328125 18.061767578125
-12.73095703125 4.59228515625 -6.153076171875
1.604736328125 0.45947265625 -29.52099609375
52.68896484375 1.5555419921875 -16.20263671875
9.00537109375 -1.652587890625 -39.03369140625
11.55712890625 3.8978271484375 -5.32763671875
-5.029052734375 1.1605224609375 -24.577880859375
6.18115234375 8.2630615234375 19.48974609375
22.52880859375 4.2940673828125 -1.828369140625
26.394775390625 9.9888916015625 32.574462890625
-1.91650390625 -0.5633544921875 -35.4658203125
16.167724609375 8.6025390625 22.03515625
-11.819580078125 5.96142578125 -5.28662109375
-17.4423828125 5.04833984375 77.352783203125
11.45947265625 1.1563720703125 -34.8857421875
32.410400390625 1.9678955078125 -15.677490234375
-20.91748046875 3.0970458984375 64.516845703125
23.5869140625 5.56884765625 5.265380859375
51.6728515625 2.54541015625 -7.616455078125
30.365478515625 0.2266845703125 -26.013916015625
2.621826171875 3.311279296875 -10.652587890625
16.756103515625 -1.3726806640625 -37.65234375
0.3232421875 0.6195068359375 -26.77587890625
3.56005859375 6.1622314453125 33.3251953125
24.57861328125 4.3636474609375 -0.823974609375
42.494140625 -1.2490234375 -31.22265625
4.827880859375 -1.8568115234375 -40.825439453125
-1.657470703125 5.402099609375 31.74755859375
-12.2734375 -1.2186279296875 -39.162109375
-21.429931640625 4.353515625 -31.99072265625
-9.642822265625 3.9324951171875 71.501953125
-15.23583984375 5.906494140625 0.563720703125
-6.821044921875 2.823974609375 -14.07275390625
9.0166015625 7.08984375 13.19287109375
30.34814453125 1.96142578125 -16.195068359375
13.794921875 8.25 21.81494140625
10.113525390625 8.296142578125 19.082275390625
5.620849609375 7.619873046875 27.385009765625
8.77490234375 1.2076416015625 -23.3330078125
-20.0693359375 10.6806640625 -7.216552734375
-7.310546875 5.798095703125 2.485107421875
8.038330078125 8.2535400390625 20.581298828125
6.37744140625 4.828369140625 44.54541015625
7.209228515625 4.1019287109375 -5.74169921875
4.42919921875 6.244140625 7.8388671875
-16.773193359375 5.6903076171875 79.02783203125
37.4736328125 4.2183837890625 -0.387451171875
-0.062255859375 -2.0762939453125 -41.624267578125
-20.246337890625 5.3900146484375 -14.117431640625
35.573486328125 7.89404296875 19.873046875
-1.020263671875 6.480224609375 6.95849609375
-2.205810546875 1.3458251953125 56.261474609375
-5.287109375 6.6728515625 8.025390625
6.03759765625 7.3450927734375 14.029541015625
46.45703125 -0.9591064453125 -30.742919921875
27.45703125 10.412841796875 15.4736328125
12.05126953125 0.06396484375 -33.055419921875
-5.878173828125 3.8427734375 -8.94482421875
22.79150390625 9.344970703125 34.92822265625
-14.51806640625 3.0045166015625 63.60498046875
-14.917724609375 1.245849609375 53.61669921875
45.572998046875 -0.189208984375 -26.300048828125
-19.838623046875 4.5968017578125 -15.98193359375
36.243408203125 7.210205078125 26.381103515625
16.11328125 4.578369140625 -1.302734375
48.9775390625 3.3302001953125 -6.653076171875
-3.923828125 1.4183349609375 55.594970703125
1.224365234375 3.963623046875 -6.643798828125
22.708984375 1.919921875 -16.4130859375
-10.09765625 2.6016845703125 -17.819091796875
-4.494384765625 5.4256591796875 0.704833984375
27.16064453125 6.4754638671875 8.732666015625
-17.52734375 4.0927734375 -9.88818359375
5.87451171875 0.68115234375 -29.9130859375
-0.016357421875 2.53125 -15.04248046875
-20.669921875 7.8892822265625 -29.0634765625
30.11376953125 2.5552978515625 -12.664794921875
-2.45556640625 -0.3804931640625 -33.658935546875
0.60986328125 4.072509765625 41.759033203125
-7.36279296875 1.627685546875 56.0849609375
6.585205078125 6.5115966796875 9.650634765625
-11.59814453125 6.5701904296875 6.320556640625
-13.243408203125 6.11767578125 3.408935546875
-14.653076171875 3.2177734375 -13.056884765625
6.856201171875 6.821533203125 11.375732421875
22.251953125 3.7891845703125 -6.62060546875
5.563232421875 1.513916015625 -19.1171875
-1.619873046875 -1.533447265625 -37.792236328125
17.9853515625 8.23291015625 37.517822265625
41.271484375 -0.1563720703125 -26.22509765625
15.359619140625 7.5853271484375 15.404541015625
17.96337890625 -0.545654296875 -30.68359375
35.441162109375 0.53759765625 -22.958251953125
-8.744384765625 1.531494140625 57.182861328125
-17.029541015625 5.4091796875 0.251953125
-12.323486328125 4.3419189453125 -7.766357421875
-13.203857421875 5.3916015625 -2.763916015625
38.478759765625 1.58544921875 -18.09130859375
9.171142578125 5.86962890625 40.01708984375
-15.380859375 4.4105224609375 -7.67041015625
-17.21142578125 3.1851806640625 -12.652099609375
28.60791015625 8.461181640625 22.314453125
2.51171875 0.8843994140625 -24.977783203125
18.013427734375 -0.7191162109375 -34.37841796875
-22.4208984375 4.7506103515625 77.7451171875
32.339599609375 3.7193603515625 -4.9111328125
47.30712890625 5.2430419921875 6.89794921875
-20.683837890625 7.060791015625 -18.805419921875
6.48291015625 -22.3326416015625 45.17626953125
-13.30517578125 1.8543701171875 -22.35888671875
-8.90625 1.9820556640625 58.8935546875
34.908203125 1.6800537109375 -16.298095703125
-4.774169921875 -0.822509765625 -36.865966796875
4.2314453125 4.46142578125 -3.34912109375
-16.6904296875 1.3057861328125 54.83544921875
-1.5478515625 0.769287109375 -25.281494140625
-17.264892578125 1.6456298828125 -24.144775390625
-16.333740234375 1.7391357421875 58.133056640625
12.2509765625 0.4986572265625 -28.057373046875
-5.486328125 2.04345703125 -20.607177734375
-5.9287109375 3.0216064453125 71.677001953125
43.775634765625 1.9530029296875 -16.172119140625
32.027099609375 -0.347900390625 -29.310302734375
15.222412109375 1.8441162109375 -17.67236328125
51.31494140625 -1.07275390625 -29.423583984375
15.1767578125 2.5723876953125 -13.81982421875
-6.199462890625 3.0811767578125 42.904541015625
45.800537109375 6.7242431640625 13.139892578125
38.46533203125 5.4539794921875 6.339599609375
-5.713623046875 -0.4478759765625 -35.45556640625
-10.303466796875 1.69189453125 43.495849609375
-6.17822265625 3.513671875 40.359619140625
4.71826171875 5.061767578125 0.687744140625
2.285888671875 7.828125 23.012451171875
-26.164306640625 4.6571044921875 66.58251953125
-2.447509765625 1.99609375 52.40673828125
19.107666015625 9.006591796875 34.75537109375
37.360107421875 1.17041015625 -19.4501953125
-8.609130859375 0.95947265625 53.23486328125
2.0673828125 8.0943603515625 21.040771484375
-10.99755859375 5.220703125 68.87060546875
45.008056640625 5.5650634765625 -10.481689453125
-7.267578125 6.576416015625 7.58251953125
43.769287109375 6.917236328125 15.014892578125
30.6142578125 8.4794921875 22.8896484375
19.85498046875 0.0782470703125 -27.225341796875
48.693115234375 3.9490966796875 -10.505126953125
-13.1923828125 -0.0245361328125 49.248291015625
26.428955078125 -0.3446044921875 -29.517333984375
-13.34228515625 4.4747314453125 75.468505859375
34.67724609375 4.87109375 1.198974609375
36.33544921875 4.3206787109375 -1.956298828125
-2.816650390625 3.2974853515625 64.874267578125
-1.9423828125 3.9119873046875 -9.03369140625
12.603759765625 7.3941650390625 13.81494140625
-19.04541015625 3.2950439453125 67.20751953125
24.720703125 0.104736328125 -27.20654296875
10.284423828125 6.984130859375 11.6240234375
5.836181640625 2.519287109375 -14.5595703125
-7.941162109375 7.1754150390625 10.122802734375
27.309326171875 9.9619140625 19.261474609375
-11.875732421875 0.98486328125 46.374755859375
-19.014404296875 0.383544921875 -32.355224609375
31.73681640625 8.205078125 21.493408203125
52.3984375 -1.2022705078125 -27.198974609375
4.759033203125 5.791748046875 3.862548828125
41.623291015625 1.045654296875 -21.062255859375
24.82470703125 7.0357666015625 13.147705078125
8.59912109375 8.4034423828125 25.16455078125
-9.774169921875 4.0198974609375 63.88525390625
27.98583984375 4.2254638671875 -2.973876953125
14.890625 6.5374755859375 43.42724609375
9.9326171875 7.232666015625 33.327880859375
21.430908203125 0.2169189453125 -27.617431640625
7.936767578125 3.479248046875 -8.389404296875
7.021484375 4.0283203125 49.307861328125
21.17626953125 2.406494140625 -15.318603515625
1.989013671875 5.4625244140625 35.306884765625
15.491455078125 -1.217529296875 -36.47998046875
-20.49462890625 10.48388671875 -0.370361328125
33.12646484375 8.1578369140625 20.375732421875
23.650390625 -0.441650390625 -31.1787109375
4.93505859375 3.62890625 55.0400390625
0.372802734375 4.4398193359375 -4.387939453125
-2.8837890625 5.1597900390625 0.502197265625
20.4130859375 2.5709228515625 -11.33984375
-9.7421875 4.120361328125 78.128662109375
4.991943359375 6.8328857421875 10.290771484375
-5.021484375 7.008544921875 10.713623046875
-6.3154296875 1.284423828125 51.626708984375
11.10791015625 4.92626953125 0.552734375
-8.463623046875 4.5675048828125 74.782958984375
-1.845703125 1.721435546875 57.792236328125
38.659423828125 3.74072265625 -4.923583984375
19.526611328125 -0.506591796875 -32.63818359375
29.899658203125 9.2938232421875 27.84765625
16.601318359375 1.083740234375 -21.71923828125
16.652099609375 6.07080078125 7.920654296875
-3.28271484375 2.3656005859375 -18.3544921875
38.057861328125 4.9857177734375 4.164306640625
-21.404541015625 1.9693603515625 58.908447265625
31.579345703125 1.0184326171875 -20.097412109375
-3.129638671875 2.665771484375 -14.4560546875
15.826171875 9.2159423828125 28.822509765625
-19.295654296875 2.047607421875 -24.74365234375
11.005615234375 3.0970458984375 -33.474609375
5.375244140625 6.574951171875 32.3125
-12.759033203125 3.4949951171875 63.5576171875
35.7734375 3.7044677734375 -4.524658203125
44.3154296875 -0.6949462890625 -27.56591796875
1.1103515625 3.757568359375 -9.04150390625
0.701416015625 -0.5289306640625 -34.32861328125
-0.150390625 4.4063720703125 40.0673828125
0.728515625 5.0087890625 37.03369140625
-19.841064453125 4.278076171875 71.58984375
16.620849609375 5.24365234375 3.240966796875
3.71044921875 5.48583984375 38.812255859375
46.264892578125 5.8255615234375 -12.8212890625
1.856201171875 6.2252197265625 31.19677734375
-20.22412109375 2.571044921875 61.29443359375
-22.99169921875 5.720947265625 76.286865234375
13.838134765625 5.0556640625 1.662841796875
1.531982421875 8.404296875 13.765625
-10.705078125 5.9818115234375 -1.351806640625
-8.158935546875 4.224853515625 72.565185546875
-5.145751953125 6.1187744140625 4.723388671875
13.926025390625 7.3458251953125 12.69775390625
28.520751953125 2.2210693359375 -15.372314453125
21.583740234375 8.8204345703125 23.89013671875
7.622802734375 5.4774169921875 4.080322265625
-18.08984375 1.701904296875 56.653564453125
53.81298828125 0.47607421875 -19.49755859375
33.1962890625 2.94921875 -10.215087890625
39.3837890625 2.9139404296875 -9.10400390625
39.05615234375 3.3883056640625 -6.53076171875
34.414306640625 7.3704833984375 17.6025390625
51.775146484375 3.3134765625 -5.895263671875
11.55859375 5.560302734375 5.611083984375
-22.966796875 3.407470703125 66.607421875
31.343505859375 4.2457275390625 -1.541259765625
37.745361328125 7.89990234375 51.431640625
47.7880859375 1.95166015625 -12.862060546875
-18.15234375 2.34912109375 61.8349609375
32.960693359375 3.4462890625 -8.229736328125
16.3134765625 4.8695068359375 1.018310546875
-14.530517578125 8.167236328125 79.371826171875
30.7353515625 7.17529296875 17.87548828125
3.39111328125 3.970458984375 45.750732421875
-17.3369140625 4.529541015625 74.43017578125
-11.79345703125 4.9007568359375 78.209716796875
42.294921875 4.1209716796875 -0.60595703125
13.10498046875 2.446533203125 -15.2724609375
15.295166015625 9.152099609375 25.656982421875
-14.61865234375 4.2772216796875 72.525146484375
41.36328125 -1.081787109375 -32.333740234375
28.481201171875 2.3515625 -12.7822265625
13.15087890625 3.50634765625 -6.4775390625
44.02978515625 1.445556640625 -18.201171875
-20.7099609375 4.796875 -38.4296875
29.969482421875 1.5484619140625 -17.918212890625
-0.818603515625 3.4368896484375 42.67138671875
-5.2119140625 4.1246337890625 35.390869140625
41.851318359375 5.326171875 5.8173828125
45.87060546875 3.7283935546875 -6.3671875
44.81103515625 4.5113525390625 0.612060546875
15.87158203125 1.1217041015625 -20.292236328125
20.16259765625 9.674560546875 31.07275390625
14.9169921875 8.172119140625 33.580810546875
3.401611328125 7.3873291015625 28.037109375
-10.51123046875 0.78125 -27.027587890625
-4.01611328125 4.49951171875 -5.164794921875
-4.27490234375 2.53857421875 63.971923828125
-8.496337890625 -1.968994140625 -41.531494140625
-4.036865234375 0.0921630859375 -30.3583984375
27.57080078125 7.2017822265625 15.3095703125
16.333740234375 -0.940185546875 -33.867431640625
-16.29736328125 5.4617919921875 -1.1591796875
29.414306640625 -0.91455078125 -31.93408203125
18.272705078125 0.739501953125 -22.448974609375
25.085205078125 7.91259765625 15.159423828125
2.059326171875 -1.234130859375 -37.94091796875
13.70654296875 -0.951171875 -35.611572265625
6.30810546875 7.6531982421875 15.745361328125
48.173583984375 4.5521240234375 -12.120361328125
13.23828125 -0.680419921875 -33.877197265625
46.08642578125 6.2904052734375 11.65478515625
33.704833984375 3.788330078125 -3.53857421875
16.995361328125 9.2298583984375 31.220947265625
8.010498046875 6.819580078125 35.822509765625
-1.97998046875 0.1417236328125 -31.02685546875
26.64794921875 8.6727294921875 25.111083984375
14.27197265625 8.7257080078125 23.35986328125
-10.614013671875 -0.8856201171875 -38.727294921875
18.539794921875 5.8800048828125 6.069091796875
-16.773193359375 4.994140625 -2.681396484375
2.71826171875 4.228515625 -4.490966796875
26.2255859375 4.81103515625 2.78271484375
-6.804443359375 3.697509765625 69.081298828125
11.741943359375 1.6275634765625 -19.897705078125
33.318603515625 4.137451171875 -1.947998046875
17.472412109375 3.74365234375 -6.747314453125
28.86474609375 8.8609619140625 25.516357421875
-4.726806640625 -0.035888671875 -32.53515625
-3.56005859375 4.476318359375 35.424072265625
13.400390625 6.3077392578125 42.263427734375
-14.374267578125 5.162353515625 76.944580078125
3.241943359375 6.3773193359375 8.869384765625
-4.726318359375 5.870361328125 3.1240234375
-11.952392578125 1.892333984375 57.518310546875
-15.991943359375 2.714111328125 62.553955078125
23.43603515625 0.257080078125 -26.05419921875
22.094482421875 5.2667236328125 2.04833984375
14.40478515625 4.883544921875 -0.07177734375
-21.101806640625 2.950439453125 -33.010986328125
-6.720947265625 5.5950927734375 -1.7431640625
45.17431640625 2.0223388671875 -14.77880859375
13.388671875 0.264404296875 -29.099365234375
-8.1982421875 1.13671875 49.28759765625
11.433837890625 7.582275390625 15.29248046875
11.161865234375 5.657470703125 44.943359375
23.184326171875 0.890380859375 -21.44482421875
0.3271484375 6.57373046875 7.73681640625
25.840576171875 3.282470703125 -8.208251953125
-14.717041015625 2.39111328125 -19.260498046875
-10.94580078125 -0.7816162109375 -42.84619140625
25.522705078125 0.4189453125 -23.5234375
36.65478515625 4.856689453125 2.314453125
6.285400390625 1.44189453125 -21.565185546875
8.077392578125 2.158203125 -15.0615234375
-20.63134765625 1.549560546875 -37.795166015625
7.74267578125 4.9737548828125 45.776123046875
-6.76220703125 1.7779541015625 47.911865234375
1.644775390625 -1.7398681640625 -41.1875
28.638916015625 9.5079345703125 30.30078125
20.45654296875 7.4591064453125 16.037841796875
53.096923828125 1.7733154296875 -10.089599609375
8.4453125 1.7784423828125 -17.675048828125
14.474853515625 4.1346435546875 -4.88134765625
-8.168701171875 2.7337646484375 -14.832763671875
7.48193359375 -1.1214599609375 -36.826904296875
-24.415771484375 3.0897216796875 64.689697265625
17.293212890625 9.31201171875 28.112060546875
33.9736328125 2.2431640625 -13.439208984375
-5.38623046875 3.585205078125 38.549560546875
25.4658203125 8.6583251953125 22.672607421875
36.3447265625 7.21240234375 16.77978515625
16.830322265625 0.455322265625 -26.297607421875
-11.81884765625 1.4296875 43.369140625
-2.860595703125 0.70361328125 -26.608154296875
-20.526123046875 4.34814453125 -22.1328125
-18.757080078125 6.67138671875 2.54345703125
35.635498046875 8.09765625 22.273681640625
-11.079833984375 2.2169189453125 59.735595703125
-18.49072265625 5.0860595703125 75.567138671875
32.54052734375 7.4088134765625 15.926513671875
-14.581298828125 2.2584228515625 58.967041015625
13.782958984375 6.2384033203125 44.987060546875
4.944091796875 3.71875 -8.478515625
-17.666748046875 1.9013671875 -22.49853515625
-1.636962890625 2.930419921875 -12.305419921875
-5.730224609375 2.5335693359375 -17.096923828125
43.5322265625 0.9390869140625 -19.8505859375
11.271728515625 0.3101806640625 -26.893310546875
-21.572509765625 4.2783203125 -30.302490234375
-14.8662109375 3.6651611328125 -10.619873046875
5.22607421875 5.7479248046875 6.16455078125
11.544921875 -1.096923828125 -36.465576171875
15.10986328125 0.07568359375 -27.82470703125
36.924560546875 7.9644775390625 21.242431640625
25.667724609375 5.6082763671875 5.25390625
-15.52978515625 1.511962890625 -24.029052734375
3.17431640625 6.2333984375 6.967529296875
-3.119140625 3.3428955078125 -11.7119140625
-0.82470703125 -0.0667724609375 -32.635009765625
12.869140625 6.7823486328125 39.42626953125
13.056396484375 -1.0220947265625 -37.359375
17.6318359375 3.978515625 -4.875
-19.14404296875 4.301513671875 -10.120361328125
33.645751953125 -0.108642578125 -28.1396484375
-8.819091796875 2.3597412109375 41.594482421875
-15.284423828125 3.959716796875 65.792236328125
0.504638671875 7.462646484375 12.21923828125
10.568115234375 1.92724609375 -16.799560546875
-15.153564453125 4.7557373046875 -3.42822265625
8.33154296875 5.3701171875 43.931640625
-4.01611328125 3.7950439453125 -8.895263671875
-13.0322265625 5.37451171875 65.169921875
19.2666015625 6.797607421875 11.875732421875
-5.855712890625 6.249267578125 -4.02587890625
-15.170654296875 6.708251953125 6.6064453125
-2.0185546875 4.624755859375 -3.73583984375
23.455322265625 1.8831787109375 -17.84033203125
21.519287109375 9.3316650390625 34.03369140625
32.32373046875 0.14453125 -25.408447265625
-7.337646484375 1.50830078125 -21.90234375
35.154541015625 2.776611328125 -11.125732421875
12.322998046875 8.82080078125 25.209716796875
20.475341796875 0.852294921875 -22.628173828125
15.729736328125 6.5767822265625 11.16650390625
39.150390625 1.461181640625 -19.446044921875
2.23388671875 10.3321533203125 19.4736328125
16.961669921875 -0.1636962890625 -29.2548828125
-10.38818359375 3.095703125 -12.77734375
24.493896484375 9.5252685546875 32.630126953125
-4.057861328125 -1.4981689453125 -40.659912109375
-18.149169921875 2.2548828125 59.167236328125
-18.6396484375 3.5577392578125 -13.06787109375
-3.939208984375 4.6456298828125 -3.248046875
31.60791015625 9.029296875 27.6904296875
-3.616943359375 5.0126953125 -1.064697265625
-6.79931640625 -0.6641845703125 -44.84326171875
-17.3701171875 2.46923828125 60.54541015625
-3.251220703125 2.2960205078125 62.27392578125
-10.372802734375 4.457275390625 74.71142578125
37.576171875 10.4779052734375 51.93798828125
36.647216796875 5.52099609375 4.087158203125
14.73046875 -1.3729248046875 -38.126953125
-2.870849609375 6.6689453125 10.2900390625
22.1611328125 9.7509765625 32.1044921875
-3.255859375 2.6424560546875 47.380859375
39.065185546875 1.7891845703125 -13.703857421875
-12.315185546875 0.85888671875 -27.603271484375
-15.05419921875 0.6590576171875 -28.53515625
10.755859375 6.6044921875 39.001708984375
39.629638671875 2.4124755859375 -11.105224609375
5.19482421875 6.497802734375 33.8740234375
-19.6953125 7.237548828125 -5.2236328125
-20.99951171875 6.9410400390625 -32.55712890625
-22.104248046875 5.3262939453125 -35.253173828125
-20.633544921875 9.5013427734375 -11.8955078125
-1.259033203125 1.7725830078125 -20.72705078125
-17.109375 3.168212890625 -15.75732421875
-17.408935546875 7.6864013671875 79.39111328125
-11.5556640625 -1.2376708984375 -41.17236328125
-20.444091796875 4.91357421875 -24.018310546875
-20.28466796875 9.3154296875 -9.965087890625
-4.383544921875 1.7921142578125 49.634033203125
27.269775390625 1.6654052734375 -17.095458984375
22.606201171875 2.59375 -13.009521484375
-6.548095703125 1.9642333984375 59.70947265625
36.853759765625 2.37060546875 -12.324462890625
-14.224853515625 -1.7950439453125 -39.28759765625
-23.150390625 4.4754638671875 73.332763671875
41.462646484375 3.5960693359375 -6.767578125
0.390625 2.179931640625 -18.196044921875
35.947998046875 6.6597900390625 13.141357421875
-6.103759765625 2.445556640625 62.056640625
-20.29052734375 5.5499267578125 -7.591552734375
-2.695556640625 2.1571044921875 49.19921875
29.256103515625 5.86083984375 6.979248046875
-20.3974609375 7.218994140625 -22.132568359375
-19.93359375 4.6102294921875 -12.881591796875
1.558837890625 6.6151123046875 9.59765625
38.544921875 -0.1689453125 -28.020751953125
-9.15625 6.631591796875 64.38818359375
-1.45654296875 2.2900390625 -17.76171875
52.53466796875 -1.0445556640625 -19.218017578125
-0.87158203125 1.8232421875 53.642578125
8.359130859375 2.1416015625 -30.979248046875
-13.903564453125 5.4259033203125 0.0947265625
21.4189453125 5.1417236328125 -0.122314453125
-14.180419921875 0.126953125 -33.473876953125
-1.135986328125 8.844970703125 13.88427734375
-25.775146484375 4.03857421875 68.43896484375
-19.7060546875 2.8814697265625 -21.8447265625
39.8935546875 -0.0628662109375 -25.545654296875
44.114013671875 0.627197265625 -22.689697265625
-7.818603515625 2.5791015625 63.18408203125
-17.733642578125 2.5576171875 -17.657470703125
20.3017578125 7.2301025390625 14.205810546875
28.279541015625 6.46435546875 11.759521484375
-4.21630859375 6.4290771484375 6.10205078125
2.619384765625 3.043701171875 50.692138671875
-5.9814453125 5.52978515625 -5.640625
-1.408935546875 7.4761962890625 12.6630859375
-19.34814453125 4.7752685546875 -6.713134765625
43.256591796875 3.89111328125 -6.73583984375
-19.386962890625 8.8209228515625 2.337646484375
18.810791015625 8.62646484375 22.28076171875
52.30126953125 3.453369140625 -1.9912109375
-25.217041015625 4.135009765625 72.1337890625
-13.737548828125 -1.3134765625 -37.71630859375
-9.8505859375 4.84375 -7.817626953125
8.898681640625 1.515869140625 -19.35693359375
5.43212890625 2.0247802734375 -17.7353515625
16.996337890625 5.643310546875 4.90576171875
9.567626953125 1.41943359375 -21.242919921875
42.92236328125 4.859375 2.92431640625
4.548095703125 4.8321533203125 -1.1455078125
41.712158203125 1.3284912109375 -18.02978515625
46.2734375 3.6243896484375 -4.410888671875
49.117431640625 3.72998046875 -2.68505859375
24.310302734375 8.4412841796875 16.29833984375
16.753173828125 7.7679443359375 17.655029296875
2.226318359375 7.4019775390625 26.6396484375
44.94140625 5.817626953125 9.820068359375
-18.738525390625 1.349609375 -27.29150390625
28.48974609375 10.0946044921875 33.0791015625
13.0712890625 -1.729736328125 -40.239990234375
23.412353515625 -1.48486328125 -35.915771484375
39.630859375 1.48193359375 -16.50341796875
41.76953125 2.1298828125 -15.236083984375
38.302001953125 1.6328125 -15.36328125
11.525634765625 7.1171875 36.51904296875
-20.3720703125 3.778564453125 -27.095703125
-4.89453125 3.5595703125 75.5126953125
21.295654296875 8.3458251953125 38.917724609375
-10.438232421875 4.974609375 76.310791015625
27.535400390625 0.263671875 -25.0556640625
47.474853515625 4.3167724609375 -0.058837890625
32.96142578125 8.840576171875 24.6708984375
10.024658203125 6.0006103515625 7.17919921875
-0.65185546875 7.0821533203125 26.19677734375
4.735595703125 5.7034912109375 2.401611328125
-20.906005859375 9.2646484375 -32.258544921875
34.93017578125 0.8101806640625 -21.21728515625
-16.486572265625 0.4193115234375 -31.235595703125
51.02783203125 1.3114013671875 -17.40185546875
5.863525390625 4.0435791015625 47.9267578125
22.62890625 5.99169921875 7.0693359375
-16.5439453125 4.08544921875 71.178955078125
34.41259765625 0.048583984375 -26.4716796875
35.4794921875 8.607421875 23.63330078125
4.501953125 4.6998291015625 41.641845703125
-19.281494140625 3.658935546875 68.941650390625
-5.57763671875 2.2451171875 70.4931640625
-12.408203125 2.88232421875 -15.656982421875
-11.6533203125 0.321044921875 50.713623046875
-6.279296875 3.7969970703125 72.85888671875
2.724365234375 4.26611328125 41.673095703125
-14.38427734375 2.759765625 -17.064697265625
-4.32666015625 3.84521484375 71.14892578125
47.16650390625 4.8050537109375 -13.334228515625
10.361083984375 5.940673828125 42.799560546875
47.103271484375 1.235107421875 -15.38623046875
11.75146484375 5.7513427734375 47.492919921875
29.897216796875 9.37939453125 29.299560546875
43.643798828125 3.8818359375 -3.24462890625
37.0673828125 2.7337646484375 -9.43896484375
24.924560546875 1.369140625 -18.365478515625
-20.125 9.1336669921875 -1.909912109375
32.4345703125 0.32861328125 -23.94970703125
21.028076171875 8.2274169921875 21.424072265625
23.592041015625 0.5001220703125 -24.126708984375
-8.626220703125 5.644287109375 -0.2685546875
-20.438232421875 9.8328857421875 -6.09765625
3.389404296875 5.5477294921875 34.628173828125
7.50634765625 1.4251708984375 -20.12744140625
-15.23779296875 4.87353515625 75.643310546875
29.5966796875 0.26708984375 -24.553466796875
0.390380859375 5.23291015625 0.799072265625
-20.61865234375 8.03369140625 -25.5283203125
-3.544921875 4.09326171875 38.431884765625
34.61279296875 5.7493896484375 7.018798828125
10.661865234375 -0.0631103515625 -34.88671875
-6.8232421875 3.3634033203125 37.416259765625
-9.74560546875 7.17431640625 -6.47265625
-5.90380859375 5.1573486328125 -2.97021484375
25.757568359375 2.215087890625 -15.515625
-13.34765625 1.6776123046875 56.394775390625
-2.51953125 1.5150146484375 54.485107421875
-18.13330078125 4.847412109375 -3.887451171875
41.494140625 4.8226318359375 2.587158203125
25.212158203125 9.1627197265625 25.55517578125
-23.5078125 2.8321533203125 63.510009765625
41.43505859375 2.60888671875 -12.63427734375
29.991943359375 3.325927734375 -7.7236328125
29.6171875 2.821533203125 -10.9609375
-20.997314453125 7.00146484375 -30.498046875
13.02197265625 1.540283203125 -20.5439453125
-18.781982421875 3.3548583984375 -15.432373046875
-20.502197265625 5.529052734375 -20.179931640625
-12.488525390625 5.8963623046875 66.531494140625
22.50927734375 -0.9134521484375 -33.00537109375
21.130126953125 -1.75439453125 -37.753173828125
25.20458984375 3.4012451171875 -6.900146484375
18.00146484375 0.4141845703125 -24.260009765625
23.784423828125 3.40087890625 -6.18017578125
49.877197265625 1.7369384765625 -14.87646484375
26.975830078125 6.5423583984375 12.34423828125
-11.369384765625 6.8421630859375 79.499267578125
7.7744140625 5.7530517578125 39.734375
-8.970703125 0.58544921875 51.709716796875
1.972900390625 5.104736328125 39.28369140625
-5.470458984375 2.9144287109375 -13.31103515625
35.114501953125 5.489501953125 5.35302734375
30.1875 6.3043212890625 10.924072265625
36.245361328125 3.37890625 -6.701171875
41.50634765625 5.884521484375 9.855224609375
-20.384033203125 2.010009765625 -30.323974609375
-16.338623046875 -1.3681640625 -38.259765625
-20.078369140625 2.128173828125 59.612548828125
16.18896484375 3.8265380859375 -6.12890625
25.3037109375 6.7816162109375 11.515625
52.842529296875 -0.2237548828125 -26.2607421875
20.61181640625 9.25927734375 26.620361328125
12.0234375 2.171630859375 -14.046142578125
-2.1591796875 5.8553466796875 2.316650390625
-6.703369140625 1.3787841796875 -24.792724609375
2.86865234375 6.49755859375 30.12548828125
-3.054443359375 -1.1204833984375 -38.775146484375
29.073974609375 4.8177490234375 1.381591796875
-13.260986328125 -0.2786865234375 -35.904296875
-8.728271484375 1.326171875 -24.148193359375
-1.264892578125 -1.397705078125 -41.27880859375
28.945068359375 9.669189453125 19.63671875
1.864501953125 4.136962890625 43.05908203125
30.27490234375 5.40234375 4.131103515625
46.680419921875 -0.683837890625 -29.35888671875
-21.637939453125 2.336181640625 60.659423828125
22.840576171875 9.01806640625 37.963134765625
-9.180908203125 5.5423583984375 63.47607421875
43.71044921875 2.66796875 -13.276611328125
49.864501953125 3.5740966796875 -5.083740234375
20.37744140625 5.751220703125 6.242919921875
48.752685546875 0.046142578125 -25.900146484375
-6.719482421875 0.695556640625 -27.5693359375
47.666259765625 -0.4129638671875 -28.374267578125
28.949951171875 0.09765625 -27.874755859375
33.945556640625 4.9615478515625 3.063232421875
50.572265625 3.765625 -2.351318359375
43.594970703125 -0.8929443359375 -30.348388671875
10.408935546875 2.4744873046875 -14.37744140625
5.45654296875 3.4632568359375 53.488525390625
31.045654296875 3.8631591796875 -3.8125
45.403076171875 -0.5018310546875 -28.774169921875
-6.31982421875 -1.186279296875 -40.564453125
-8.982666015625 3.913818359375 -8.843994140625
-12.727783203125 1.1177978515625 -25.93896484375
-21.155029296875 4.177490234375 72.619384765625
18.20263671875 0.388916015625 -27.544677734375
21.179931640625 5.186279296875 4.069091796875
-15.189697265625 0.4134521484375 -31.98681640625
14.639404296875 6.6593017578125 39.65380859375
-19.6005859375 6.2626953125 -40.931884765625
17.898193359375 5.163818359375 2.64306640625
26.250732421875 2.804931640625 -12.373779296875
18.8056640625 9.1939697265625 32.862548828125
12.41015625 8.068603515625 19.578369140625
25.519775390625 6.119873046875 6.62646484375
-22.2939453125 4.7908935546875 75.48828125
14.6201171875 5.2633056640625 3.71875
-1.801025390625 0.37890625 -29.140869140625
48.641845703125 1.1319580078125 -17.72216796875
50.49609375 0.7392578125 -19.554931640625
-10.167236328125 3.080078125 61.71533203125
25.746337890625 6.4686279296875 9.41455078125
-11.990966796875 3.3978271484375 -11.544189453125
24.18603515625 6.2298583984375 8.24072265625
26.930908203125 2.9334716796875 -10.165771484375
-10.774169921875 5.1982421875 63.3828125
31.6328125 7.944580078125 18.638427734375
7.499755859375 7.982666015625 24.394287109375
11.249755859375 4.2969970703125 -3.3076171875
45.41796875 4.52001953125 1.880615234375
4.864501953125 5.8916015625 38.11865234375
-18.460205078125 5.730712890625 78.816162109375
