36.469970703125 6.9520263671875 15.111328125
29.008544921875 6.9287109375 13.133544921875
15.86962890625 8.9384765625 31.425537109375
-4.4541015625 -0.719970703125 -44.78759765625
24.230712890625 9.5152587890625 36.1240234375
-19.593505859375 4.799072265625 -4.530029296875
15.74609375 7.1138916015625 14.499267578125
-14.718505859375 5.907470703125 1.2783203125
19.536376953125 9.1304931640625 28.1689453125
-4.05322265625 4.6925048828125 35.84130859375
16.76611328125 8.218994140625 21.48388671875
-11.738037109375 1.9615478515625 -23.36865234375
-1.6533203125 6.4254150390625 6.61083984375
6.612060546875 5.636474609375 2.183349609375
8.74755859375 0.834716796875 -28.251220703125
9.191650390625 -0.727294921875 -35.17626953125
-15.440185546875 0.80078125 -31.0224609375
1.7568359375 4.00537109375 42.40771484375
6.416748046875 2.7257080078125 -14.258544921875
9.1904296875 5.888427734375 40.11181640625
3.8115234375 8.200927734375 20.38671875
8.486083984375 7.1771240234375 33.18408203125
2.637451171875 6.970947265625 29.7646484375
32.028564453125 8.2080078125 23.717529296875
8.68310546875 8.1573486328125 25.877685546875
-18.443359375 2.9498291015625 66.15380859375
-8.736572265625 1.1739501953125 -25.748046875
-2.422607421875 3.6492919921875 42.604736328125
-5.16064453125 5.157958984375 29.489990234375
20.2353515625 -0.6177978515625 -34.054443359375
-22.37890625 5.444580078125 -14.89208984375
-23.39892578125 3.166015625 -34.2802734375
-22.7109375 1.60400390625 56.49609375
20.256103515625 3.924560546875 -6.69482421875
48.4990234375 2.1846923828125 -11.037109375
-9.181884765625 6.482177734375 6.5263671875
8.706298828125 1.654296875 -20.208251953125
53.154052734375 2.9541015625 -20.201171875
-13.574951171875 7.0406494140625 8.572021484375
42.63623046875 1.8956298828125 -14.798583984375
-2.459716796875 1.4273681640625 55.160888671875
46.915771484375 0.9091796875 -21.393310546875
23.6328125 9.435302734375 20.167724609375
-16.85107421875 -0.1552734375 48.134033203125
-19.379150390625 1.949951171875 -22.54345703125
-8.3896484375 2.7939453125 -16.9130859375
-3.44677734375 2.4449462890625 48.251953125
24.15234375 8.3880615234375 23.847412109375
38.510986328125 1.194580078125 -19.767822265625
18.381591796875 4.899169921875 0.51513671875
5.340087890625 7.0880126953125 12.706787109375
12.193603515625 8.05615234375 31.5634765625
-15.18896484375 1.482177734375 57.1962890625
27.743896484375 8.768798828125 15.98046875
1.791015625 5.448486328125 37.5234375
-11.02392578125 3.9293212890625 74.146484375
-21.56298828125 2.1776123046875 -25.504638671875
31.112060546875 7.857177734375 20.29248046875
1.82421875 2.082763671875 -17.635009765625
31.8916015625 0.1376953125 -25.87255859375
1.646240234375 1.8050537109375 -21.5615234375
-7.068603515625 1.8726806640625 62.044189453125
27.0673828125 9.3673095703125 29.501220703125
5.35302734375 0.8304443359375 -27.3759765625
-13.64501953125 2.9549560546875 63.59716796875
-25.35107421875 3.578857421875 70.257568359375
16.248291015625 9.0008544921875 24.85400390625
40.2109375 3.464599609375 -12.668701171875
-11.51220703125 3.5404052734375 -10.924072265625
18.140625 1.0057373046875 -21.951904296875
-7.85498046875 1.5010986328125 71.964111328125
-8.39599609375 5.9798583984375 2.359130859375
33.726806640625 3.0277099609375 -8.595703125
15.965087890625 7.2852783203125 41.722900390625
16.92919921875 8.8690185546875 34.853759765625
-17.482666015625 4.4219970703125 -7.52685546875
50.714599609375 2.5218505859375 -5.953369140625
-17.725341796875 5.349853515625 79.48583984375
7.557861328125 3.9906005859375 -5.17919921875
-5.628173828125 2.341796875 -19.28125
-19.006103515625 5.9857177734375 3.547607421875
-5.964599609375 5.2779541015625 -0.612548828125
40.130615234375 0.484619140625 -25.123779296875
9.063720703125 4.8118896484375 -1.7607421875
-14.912109375 0.04931640625 -35.67333984375
-19.7783203125 3.382568359375 69.677001953125
47.58935546875 0.1134033203125 -24.615234375
7.425537109375 2.4146728515625 -30.93603515625
1.405517578125 7.5989990234375 13.96240234375
-6.040283203125 -1.392822265625 -41.329833984375
-9.84033203125 0.8280029296875 53.672607421875
8.70556640625 6.5999755859375 11.232421875
2.869140625 4.3934326171875 -6.955078125
49.54345703125 0.8961181640625 -17.92529296875
34.14599609375 1.018310546875 -21.62744140625
40.10205078125 3.970703125 -1.81396484375
-3.561279296875 5.0157470703125 32.609375
-9.0830078125 4.0985107421875 -6.44287109375
-8.13916015625 3.0926513671875 -13.6064453125
12.27978515625 6.7818603515625 38.328125
36.739013671875 -0.0443115234375 -27.349365234375
-1.451416015625 1.2939453125 -25.300048828125
-22.350830078125 6.728271484375 -2.441650390625
36.712890625 4.8023681640625 1.584716796875
32.473876953125 6.4219970703125 13.196044921875
-0.93701171875 5.861083984375 3.493896484375
-18.215576171875 3.0821533203125 -16.09326171875
9.545654296875 5.7720947265625 43.330078125
-13.7412109375 0.4625244140625 48.724365234375
-24.67041015625 2.5001220703125 60.170166015625
-7.829345703125 0.052001953125 -34.631591796875
45.244384765625 1.7955322265625 -12.912841796875
-13.904541015625 0.1934814453125 -42.720458984375
-24.0947265625 4.2447509765625 74.722900390625
43.582763671875 7.041015625 14.7548828125
18.418212890625 0.518798828125 -25.575439453125
-12.25439453125 0.7784423828125 -31.32958984375
-9.361328125 2.5 43.51025390625
11.134765625 1.3583984375 -22.462646484375
-10.890625 7.493408203125 -3.54296875
-11.146484375 7.9849853515625 78.849609375
13.74365234375 2.72021484375 -14.084716796875
41.966552734375 6.085693359375 10.3037109375
4.424560546875 0.9407958984375 -33.787841796875
-12.372802734375 2.6214599609375 -18.68603515625
37.18115234375 3.72607421875 -4.927001953125
21.6064453125 0.238525390625 -27.21044921875
16.14404296875 -1.3648681640625 -39.42333984375
-18.127685546875 3.8531494140625 72.3212890625
-5.4326171875 6.4298095703125 5.582275390625
-0.69580078125 2.8406982421875 -13.506103515625
-7.208984375 1.400146484375 49.9375
-1.845947265625 2.322998046875 -16.742431640625
-3.31103515625 4.7333984375 -3.796142578125
-15.512451171875 3.28662109375 -14.159423828125
14.433349609375 4.218994140625 -4.299072265625
-6.392333984375 4.905517578125 77.167236328125
22.287353515625 1.0650634765625 -21.080810546875
19.7919921875 8.6439208984375 37.515869140625
-9.83740234375 1.4493408203125 57.531494140625
21.0146484375 2.6024169921875 -13.23876953125
25.4375 3.089599609375 -7.978271484375
1.47998046875 9.3798828125 17.578857421875
17.260009765625 2.169921875 -16.770263671875
-10.78564453125 5.4962158203125 67.644775390625
36.798583984375 -0.7757568359375 -31.35400390625
-20.875244140625 10.252197265625 2.537353515625
12.09619140625 0.8414306640625 -27.5
24.139892578125 9.7890625 31.655029296875
22.273681640625 6.877197265625 11.3916015625
-13.885009765625 3.434814453125 71.112060546875
-20.368408203125 0.944580078125 -30.246826171875
-20.72998046875 4.753173828125 79.654296875
-4.44140625 0.8660888671875 -29.13134765625
15.61083984375 5.6141357421875 6.685791015625
19.8115234375 5.7235107421875 5.532470703125
24.656982421875 4.4111328125 -1.45068359375
26.840576171875 2.12060546875 -17.1728515625
-5.1669921875 2.9503173828125 44.16943359375
34.04150390625 4.2431640625 -0.453369140625
23.0556640625 -1.3070068359375 -37.4775390625
-19.511474609375 2.4747314453125 63.23974609375
-16.254638671875 1.8768310546875 -24.84716796875
10.11474609375 8.3658447265625 28.521728515625
47.55712890625 5.2864990234375 6.929443359375
27.279052734375 1.1180419921875 -22.23046875
39.02490234375 5.9471435546875 9.72998046875
9.0166015625 -0.9869384765625 -38.159423828125
4.183837890625 3.150390625 -11.694091796875
44.228271484375 5.5457763671875 8.420654296875
-13.1279296875 4.763916015625 78.677734375
18.297119140625 3.3160400390625 -9.52587890625
22.815185546875 6.0775146484375 7.933349609375
-18.840576171875 -0.0595703125 -36.9267578125
41.1318359375 -0.8128662109375 -32.0849609375
43.457275390625 5.0130615234375 -10.27392578125
-16.49560546875 0.798095703125 53.97900390625
-7.433837890625 1.80029296875 -23.169921875
-5.144287109375 3.5435791015625 -10.369873046875
2.522216796875 4.8255615234375 -1.374755859375
33.884765625 9.36669921875 28.356201171875
-6.41796875 2.5888671875 67.800537109375
-22.22705078125 3.291015625 -22.075927734375
-9.5068359375 1.8087158203125 60.422119140625
29.499267578125 0.558349609375 -24.235595703125
46.306884765625 4.34228515625 -11.954833984375
1.951171875 2.54931640625 55.982421875
-9.54833984375 -1.0274658203125 -41.0
25.34326171875 6.704345703125 12.990966796875
30.959228515625 2.271240234375 -13.10498046875
-14.768798828125 5.09716796875 65.935791015625
8.352783203125 2.0484619140625 -16.55126953125
50.601806640625 4.077392578125 2.8623046875
1.753662109375 3.207275390625 49.77490234375
-22.652587890625 1.6644287109375 -31.856201171875
-22.566162109375 7.91064453125 -22.161865234375
2.30859375 0.48779296875 -28.101806640625
10.88720703125 8.18603515625 20.38232421875
5.0595703125 3.378173828125 50.556884765625
41.03515625 4.3223876953125 -8.728271484375
49.72119140625 1.2767333984375 -13.91162109375
-1.57763671875 7.169921875 11.704345703125
-17.24609375 8.7830810546875 78.865478515625
2.50927734375 -1.47265625 -41.593505859375
31.740478515625 5.4290771484375 4.8076171875
-4.359130859375 1.700927734375 -21.7578125
45.286376953125 1.010498046875 -17.36962890625
-19.037841796875 1.7867431640625 59.261962890625
20.57666015625 8.78857421875 25.362548828125
30.322509765625 3.9169921875 -3.086181640625
-23.0283203125 5.7296142578125 -31.6591796875
23.535888671875 0.0216064453125 -29.2470703125
-9.40771484375 2.57763671875 66.84375
35.51904296875 8.5091552734375 49.962890625
12.103271484375 5.869873046875 45.93408203125
-2.842041015625 3.9169921875 -8.236083984375
46.21044921875 -0.6429443359375 -28.943115234375
8.376220703125 5.5462646484375 4.343505859375
5.845458984375 5.2735595703125 41.42333984375
-1.214599609375 5.8951416015625 31.10693359375
40.9208984375 1.294189453125 -21.62744140625
-15.077880859375 1.1851806640625 -27.78125
25.946044921875 5.8519287109375 7.494140625
-22.950927734375 4.7647705078125 -27.046875
11.429931640625 6.6578369140625 10.338623046875
27.476318359375 4.59716796875 1.14892578125
29.9384765625 -1.3336181640625 -35.4013671875
8.979248046875 6.67626953125 37.4921875
-2.804443359375 1.74267578125 57.9423828125
33.29931640625 7.1903076171875 26.54052734375
37.797607421875 7.0289306640625 17.488525390625
17.288818359375 -0.0767822265625 -31.04345703125
16.20703125 1.7237548828125 -20.181640625
-13.12548828125 6.1558837890625 -1.197265625
34.814697265625 5.868408203125 8.737060546875
-9.7177734375 1.2845458984375 47.9013671875
34.5224609375 7.142333984375 16.968505859375
-20.505126953125 0.9012451171875 53.05224609375
5.779541015625 1.3345947265625 -23.13232421875
-11.585693359375 3.205078125 -46.272216796875
51.408447265625 3.9632568359375 -0.094482421875
29.981689453125 8.8878173828125 26.87255859375
4.0537109375 -1.2279052734375 -39.414306640625
20.474609375 4.310546875 -1.830322265625
-22.684326171875 7.88427734375 -15.9326171875
-22.728515625 7.39501953125 -8.5712890625
-17.46240234375 5.9755859375 -44.137939453125
18.179443359375 -0.69091796875 -36.076416015625
13.39111328125 3.0845947265625 -11.47021484375
-1.19189453125 -0.504638671875 -36.68505859375
5.685791015625 8.27001953125 23.85205078125
26.836669921875 3.0001220703125 -10.2314453125
-21.398193359375 4.6109619140625 76.059814453125
-8.266357421875 6.9609375 -6.73681640625
-11.4130859375 -0.3125 -37.59130859375
7.37158203125 3.0540771484375 -11.832275390625
-17.019775390625 5.4615478515625 -2.25634765625
-15.02099609375 0.8536376953125 46.391357421875
1.017822265625 4.58544921875 -3.507568359375
28.5478515625 5.7642822265625 7.773193359375
1.19580078125 8.7535400390625 22.896240234375
2.2763671875 3.8189697265625 -9.43505859375
29.58154296875 9.334716796875 31.81396484375
18.005615234375 7.387451171875 15.771484375
42.6474609375 4.474853515625 1.380615234375
-16.13330078125 3.90869140625 -10.556884765625
5.642822265625 8.05078125 18.07421875
34.610107421875 2.3104248046875 -14.511962890625
21.0791015625 1.9525146484375 -16.633056640625
21.5400390625 8.238037109375 19.184814453125
14.679931640625 2.267333984375 -16.9853515625
-20.4150390625 3.9769287109375 -10.716552734375
49.242919921875 2.9349365234375 -8.040771484375
12.701416015625 7.3314208984375 14.90625
-0.65087890625 4.94921875 36.49951171875
-9.362060546875 3.7735595703125 72.173583984375
16.53564453125 9.392333984375 28.97216796875
26.347900390625 10.9263916015625 16.230712890625
-22.466552734375 5.317138671875 -18.34716796875
-21.500732421875 5.262451171875 -6.204833984375
-4.732421875 4.1884765625 38.272705078125
32.407470703125 -1.0362548828125 -34.759765625
23.004150390625 7.03564453125 13.9873046875
17.35498046875 6.681884765625 11.38818359375
3.010986328125 4.078125 44.63134765625
3.8486328125 7.3843994140625 27.554931640625
0.228271484375 2.087890625 54.1591796875
-4.02490234375 9.41796875 12.432861328125
0.168701171875 0.2471923828125 -31.4970703125
22.6826171875 9.7713623046875 33.796630859375
-0.06689453125 4.0731201171875 -8.2861328125
-9.94482421875 4.628173828125 65.3740234375
25.12451171875 5.0196533203125 3.68310546875
-13.7294921875 4.529052734375 68.83935546875
-26.475341796875 3.0352783203125 66.1103515625
-2.880859375 1.9996337890625 51.888671875
5.207275390625 7.046875 31.40576171875
23.452392578125 1.5992431640625 -17.744384765625
47.75439453125 4.7447509765625 4.4765625
-14.27099609375 -0.5660400390625 -38.37890625
22.718017578125 -0.866943359375 -34.26171875
50.855224609375 0.353271484375 -24.832275390625
-13.88232421875 3.6583251953125 -11.694091796875
44.539794921875 3.44140625 -3.799560546875
7.63818359375 1.8482666015625 -36.110595703125
12.218017578125 -0.3802490234375 -32.817138671875
-26.577392578125 5.5120849609375 69.14794921875
-21.384765625 0.4482421875 -38.802734375
18.220703125 8.5927734375 41.61962890625
13.183837890625 5.7841796875 6.322509765625
-21.19482421875 6.1812744140625 1.168701171875
-20.69677734375 3.65869140625 -14.96337890625
-9.19384765625 0.61865234375 -32.005859375
11.449462890625 3.868896484375 -6.673828125
-4.67822265625 -0.085693359375 -35.900146484375
-11.484619140625 -0.548583984375 -44.34423828125
-11.573974609375 4.5360107421875 76.798583984375
0.294677734375 9.38916015625 15.20654296875
13.361083984375 6.6802978515625 11.868408203125
-14.394287109375 2.5213623046875 -43.6533203125
39.532470703125 6.6668701171875 15.808349609375
0.318359375 6.5965576171875 29.10693359375
28.4267578125 6.346923828125 10.62890625
9.88037109375 1.525634765625 -34.567138671875
-21.571533203125 6.3299560546875 -40.745361328125
6.74560546875 4.1939697265625 49.00634765625
38.423583984375 6.1939697265625 12.97705078125
47.1103515625 3.8634033203125 -2.123291015625
24.39013671875 4.857666015625 1.0537109375
17.09130859375 6.357421875 8.640869140625
16.08056640625 3.8531494140625 -6.022216796875
-1.23876953125 2.2509765625 49.187255859375
29.446533203125 1.9644775390625 -17.4345703125
31.276611328125 3.4061279296875 -6.461181640625
6.31640625 6.066650390625 6.172119140625
35.94384765625 3.1611328125 -7.70166015625
7.7548828125 4.0220947265625 -8.889404296875
13.29150390625 5.1832275390625 2.488525390625
-23.32421875 2.073486328125 -37.948974609375
12.111572265625 0.9569091796875 -24.919677734375
-20.645751953125 0.0679931640625 -34.846923828125
6.670654296875 -1.3089599609375 -39.843017578125
45.127197265625 3.21044921875 -6.091552734375
8.00390625 7.2186279296875 14.79541015625
18.94140625 0.2850341796875 -27.880126953125
11.41650390625 -0.606689453125 -35.989501953125
30.3212890625 4.6751708984375 1.22412109375
-6.456298828125 4.7684326171875 -4.142578125
-11.28125 2.3822021484375 61.882568359375
20.578369140625 2.941650390625 -10.038818359375
10.572021484375 7.8150634765625 17.234375
6.158447265625 6.3868408203125 35.56640625
-1.99853515625 3.067138671875 45.933349609375
-1.720458984375 1.7130126953125 -22.221435546875
-11.68017578125 2.0716552734375 -20.869873046875
-23.140869140625 7.3529052734375 -26.189697265625
-8.98876953125 0.8980712890625 -28.072509765625
-23.446044921875 2.6202392578125 64.03955078125
29.386474609375 1.25 -19.714111328125
48.075927734375 -0.9827880859375 -30.33203125
44.98681640625 0.3651123046875 -24.429931640625
-23.98828125 3.2244873046875 68.03515625
-11.992919921875 1.6878662109375 -25.67919921875
32.08154296875 2.750244140625 -10.236328125
34.239990234375 0.35205078125 -25.10693359375
42.62353515625 -0.6451416015625 -29.718017578125
5.5244140625 4.3760986328125 53.214599609375
26.859130859375 -0.1474609375 -29.941162109375
32.65771484375 -0.6851806640625 -31.81884765625
-9.4111328125 -0.485595703125 -45.64892578125
18.9833984375 2.527587890625 -15.252685546875
-16.7490234375 6.333740234375 3.16259765625
-14.986572265625 0.4752197265625 50.67529296875
0.73583984375 -1.2281494140625 -40.126708984375
-2.391845703125 0.292724609375 -32.14306640625
34.593017578125 4.86083984375 3.128662109375
10.625244140625 8.657958984375 24.733154296875
3.33642578125 4.7464599609375 40.898681640625
-23.184814453125 5.5224609375 -36.696533203125
33.410400390625 5.7613525390625 6.91259765625
-11.9736328125 6.778076171875 6.864013671875
-7.36474609375 7.0386962890625 9.78466796875
23.09326171875 -0.435546875 -31.45751953125
-11.148681640625 5.7672119140625 1.925537109375
6.631591796875 0.8521728515625 -25.47705078125
15.93212890625 7.980224609375 19.013916015625
2.904541015625 6.5284423828125 8.212158203125
26.200927734375 0.0048828125 -27.505615234375
26.6171875 6.72607421875 14.8828125
6.053955078125 7.605712890625 26.886962890625
30.1640625 7.5294189453125 17.868408203125
-21.952880859375 4.76513671875 -12.7666015625
24.299560546875 0.966064453125 -22.130126953125
16.025634765625 -0.728271484375 -35.361572265625
5.72802734375 4.0535888671875 -6.79248046875
26.85302734375 8.369140625 23.08154296875
-3.3759765625 -1.4222412109375 -42.923095703125
9.352294921875 1.2501220703125 -30.393310546875
25.996337890625 10.357666015625 34.98388671875
6.837646484375 -0.4556884765625 -35.55078125
12.73486328125 4.55419921875 -2.029541015625
1.880126953125 6.3997802734375 31.815185546875
-4.2568359375 -0.960205078125 -39.95751953125
13.922607421875 7.1285400390625 39.8349609375
2.7900390625 5.6925048828125 35.5205078125
38.516357421875 5.3045654296875 5.119384765625
-15.403564453125 7.87158203125 79.76318359375
0.043212890625 3.6658935546875 43.809326171875
2.935791015625 6.6298828125 10.64404296875
34.081298828125 8.26318359375 24.73828125
38.977783203125 3.4061279296875 -6.21826171875
-16.0537109375 0.5982666015625 -41.087890625
26.668701171875 8.9095458984375 26.41650390625
36.424560546875 10.3558349609375 51.273681640625
1.87060546875 7.2803955078125 26.126953125
-15.129638671875 2.1212158203125 60.53173828125
22.55859375 5.083251953125 2.39306640625
29.5576171875 -0.2845458984375 -30.834716796875
-20.49365234375 1.437744140625 -27.3095703125
-16.584716796875 4.05712890625 66.688720703125
-23.087646484375 5.2708740234375 -21.55078125
48.60107421875 0.6085205078125 -19.98681640625
-7.230712890625 3.618408203125 37.33544921875
4.4189453125 2.6795654296875 -15.212646484375
-15.894775390625 0.3629150390625 -33.143798828125
-13.250732421875 6.494873046875 -5.8173828125
43.06884765625 1.3402099609375 -20.640869140625
19.857177734375 9.4781494140625 30.326904296875
-16.71435546875 2.696533203125 -18.807861328125
10.1171875 5.220703125 0.5546875
5.3662109375 5.0390625 -0.943603515625
-14.3701171875 6.2510986328125 3.41845703125
24.765869140625 2.95263671875 -11.211181640625
9.7578125 3.5146484375 -8.17919921875
18.228759765625 -0.5137939453125 -32.966552734375
14.25341796875 7.0321044921875 44.02734375
25.663330078125 9.2186279296875 14.7744140625
-5.8525390625 0.093994140625 -33.708984375
-11.482177734375 7.25390625 9.353515625
23.753662109375 0.30908203125 -26.83447265625
-7.11083984375 1.12060546875 55.07080078125
-3.205810546875 6.7740478515625 8.25146484375
28.135986328125 9.7147216796875 17.905029296875
10.5830078125 2.9571533203125 -11.971435546875
3.974609375 2.2379150390625 -17.346923828125
9.609130859375 5.3912353515625 45.82568359375
16.160888671875 4.6561279296875 -1.299072265625
-12.877685546875 5.730224609375 67.10888671875
26.82373046875 -0.899169921875 -33.32373046875
28.992919921875 7.0321044921875 15.620849609375
15.101318359375 -0.1728515625 -30.82568359375
-4.024658203125 5.3271484375 0.343994140625
-2.252197265625 5.1160888671875 34.328369140625
35.896728515625 7.43115234375 22.74169921875
-19.39404296875 -0.5791015625 -38.95068359375
12.2822265625 5.51318359375 4.376953125
5.270263671875 5.6614990234375 3.87646484375
38.8203125 1.3062744140625 -22.12353515625
-15.737060546875 4.49560546875 76.790283203125
10.291748046875 1.0797119140625 -26.071533203125
12.61572265625 2.27783203125 -15.866943359375
30.31494140625 8.4068603515625 22.437744140625
32.77197265625 7.4462890625 18.174072265625
6.7216796875 1.351806640625 -28.943603515625
-9.6884765625 1.5111083984375 -23.806640625
20.3349609375 7.1375732421875 16.2451171875
20.412109375 4.9490966796875 1.4990234375
39.283447265625 7.7318115234375 19.023193359375
38.3046875 2.5223388671875 -12.837646484375
-1.475341796875 -1.4647216796875 -41.89892578125
36.93310546875 5.8948974609375 8.7177734375
3.512451171875 7.2186279296875 14.06298828125
6.658935546875 2.2518310546875 -17.798583984375
-7.800537109375 5.3104248046875 -1.6572265625
-7.25048828125 1.444580078125 69.944091796875
37.630859375 8.1990966796875 21.615478515625
-20.215087890625 3.461669921875 67.173095703125
-14.21337890625 6.4322509765625 5.73095703125
-2.948974609375 4.1806640625 40.272216796875
6.255126953125 2.448486328125 -34.00830078125
12.072509765625 6.02880859375 8.287353515625
-17.265380859375 0.8966064453125 -29.987060546875
-10.68017578125 5.43505859375 -6.71630859375
42.820556640625 3.7745361328125 -13.626708984375
-9.331787109375 6.3001708984375 4.202880859375
2.914794921875 1.82666015625 -19.677490234375
-10.870361328125 4.13427734375 -9.02685546875
4.1875 -0.4647216796875 -36.6708984375
48.763427734375 3.254150390625 -5.830078125
-3.6298828125 2.240478515625 63.1220703125
-17.660888671875 4.3023681640625 74.594970703125
25.254638671875 2.1009521484375 -14.2138671875
-10.107421875 1.932861328125 45.9580078125
-17.347412109375 5.7528076171875 -0.21923828125
24.924072265625 10.37744140625 17.6494140625
-17.534912109375 1.5225830078125 57.787353515625
22.289794921875 9.038330078125 36.708984375
-8.2451171875 4.2811279296875 35.645263671875
-10.63037109375 2.50390625 -17.560791015625
-9.524169921875 6.7725830078125 8.55419921875
-9.68212890625 3.4525146484375 -11.899658203125
-8.15087890625 3.23486328125 70.52978515625
22.27685546875 8.7503662109375 17.11181640625
6.465087890625 8.3096923828125 21.49609375
-7.45849609375 6.3699951171875 7.662353515625
-21.44970703125 3.50146484375 -17.510986328125
-23.59423828125 5.18994140625 -34.69873046875
1.62841796875 4.858642578125 39.746826171875
-20.87841796875 5.3330078125 -2.080322265625
-9.548828125 7.05322265625 -2.04345703125
11.600341796875 -1.09375 -37.9990234375
-24.277099609375 4.068115234375 -32.65380859375
16.107177734375 8.96240234375 26.903564453125
31.839599609375 -0.009033203125 -27.920654296875
0.820556640625 8.3359375 19.348388671875
44.9521484375 0.216796875 -26.503662109375
33.244384765625 1.5712890625 -18.743896484375
-7.475341796875 8.5992431640625 11.602294921875
42.681884765625 3.705810546875 -2.9873046875
15.953369140625 -0.87451171875 -37.39990234375
13.68408203125 -0.9638671875 -35.509033203125
41.76708984375 4.9891357421875 3.14501953125
-6.140625 3.1661376953125 -13.2177734375
-22.241455078125 5.9327392578125 78.96630859375
-0.502197265625 1.546142578125 56.083984375
-4.180908203125 0.4737548828125 -31.189697265625
-17.42529296875 1.9931640625 -23.18896484375
28.930419921875 9.210205078125 28.70947265625
40.239501953125 -0.0987548828125 -27.06298828125
-21.997802734375 8.563720703125 -10.05712890625
-19.397705078125 1.894775390625 -24.567626953125
-5.645751953125 2.1695556640625 48.90576171875
4.609619140625 0.837890625 -25.37744140625
24.971923828125 7.616455078125 15.797607421875
31.262939453125 1.697265625 -18.27783203125
23.263671875 3.632568359375 -6.05810546875
40.3505859375 2.368896484375 -14.359375
48.829833984375 3.4544677734375 -3.32080078125
-15.857421875 3.770751953125 71.381591796875
30.6357421875 6.538818359375 12.00634765625
8.14453125 4.7767333984375 47.675048828125
4.396240234375 4.6600341796875 43.287353515625
-3.90576171875 -0.595947265625 -37.6904296875
-6.185546875 2.4344482421875 73.130615234375
-8.335693359375 3.7159423828125 75.3193359375
26.759521484375 9.744140625 31.456787109375
27.48583984375 0.629150390625 -24.23876953125
29.0244140625 2.3662109375 -13.707763671875
33.013671875 7.772705078125 20.9375
5.462890625 6.5758056640625 10.38330078125
-9.9990234375 -0.1534423828125 -35.34765625
13.841552734375 7.984130859375 36.1533203125
-16.700927734375 -0.404052734375 -36.463623046875
22.34521484375 9.3487548828125 30.209716796875
31.0673828125 6.2352294921875 9.895751953125
10.26708984375 7.5364990234375 31.71435546875
4.98828125 1.842041015625 -21.3662109375
-22.9375 3.6705322265625 70.051513671875
17.8974609375 8.1500244140625 37.127197265625
-13.151123046875 1.699951171875 57.5517578125
-15.531982421875 4.4971923828125 -7.1318359375
12.263916015625 -1.189697265625 -39.953857421875
0.888916015625 5.1536865234375 0.8505859375
46.6376953125 4.178955078125 0.063232421875
15.757568359375 2.7947998046875 -12.0830078125
37.414794921875 -0.958984375 -33.2333984375
36.032958984375 7.334228515625 18.696533203125
-23.42822265625 4.8525390625 -29.923095703125
29.681396484375 3.185791015625 -7.622802734375
-12.502685546875 1.1822509765625 55.64892578125
-2.929443359375 3.206787109375 -11.425537109375
-15.11572265625 3.943359375 73.212646484375
50.02978515625 2.3223876953125 -9.7529296875
14.421142578125 3.552490234375 -7.069580078125
10.592529296875 2.2320556640625 -16.825927734375
45.732177734375 1.2088623046875 -19.835693359375
44.15234375 4.6124267578125 2.6572265625
8.2607421875 7.455078125 31.23974609375
11.095947265625 6.398681640625 39.985595703125
8.6865234375 -1.388427734375 -41.530029296875
-10.17138671875 8.5762939453125 -7.485595703125
31.400390625 -0.469970703125 -30.14794921875
21.49609375 1.6380615234375 -18.812744140625
-20.595703125 2.552734375 -21.111328125
-15.226806640625 4.157958984375 64.263671875
-9.09130859375 0.7584228515625 -30.03662109375
-14.539794921875 5.092041015625 80.014404296875
1.19921875 1.3621826171875 -23.703125
-19.524658203125 4.1829833984375 73.672119140625
25.6064453125 9.920654296875 19.522216796875
-20.96923828125 5.8804931640625 3.665771484375
14.62060546875 8.699462890625 23.787109375
21.772216796875 9.3311767578125 28.025634765625
22.43359375 8.7069091796875 26.005615234375
7.428955078125 1.632568359375 -22.105224609375
-12.170166015625 1.6201171875 -45.073486328125
45.158203125 5.626220703125 -13.01123046875
-13.1552734375 1.4345703125 47.123291015625
0.308349609375 3.19384765625 -11.656982421875
51.605712890625 1.7880859375 -19.942626953125
-13.54443359375 4.36376953125 76.803466796875
-19.02392578125 5.9375 1.5966796875
-5.5302734375 2.4788818359375 -17.337158203125
18.19189453125 5.3702392578125 2.440673828125
-9.600830078125 -0.4688720703125 -39.1318359375
-12.75390625 6.97509765625 -3.294189453125
-12.324462890625 -1.198486328125 -41.884765625
42.885498046875 5.467529296875 6.01025390625
27.449462890625 1.3468017578125 -20.307861328125
14.1689453125 -1.2901611328125 -39.39404296875
-8.198974609375 3.134033203125 68.35107421875
-15.3076171875 9.9595947265625 78.49951171875
-20.352294921875 3.936279296875 71.918701171875
-24.3076171875 3.443603515625 -35.970458984375
-12.15185546875 2.1761474609375 42.627197265625
43.263916015625 3.47607421875 -5.27197265625
-27.01806640625 3.61083984375 69.213134765625
9.2373046875 2.7166748046875 -33.18994140625
-15.22265625 6.6678466796875 7.637939453125
10.255615234375 1.8697509765625 -19.0771484375
-22.344482421875 3.1571044921875 -23.997314453125
18.735107421875 9.1630859375 31.95458984375
-2.94287109375 4.6336669921875 37.713623046875
49.241455078125 -0.2474365234375 -23.7001953125
12.714111328125 8.7728271484375 24.66650390625
-22.53662109375 6.45751953125 -10.236572265625
8.281494140625 2.60595703125 -14.701416015625
14.947265625 7.6043701171875 16.174560546875
-22.51513671875 2.3887939453125 62.37744140625
6.681640625 1.63818359375 -20.12109375
-21.369140625 1.2679443359375 57.825439453125
48.78662109375 4.1448974609375 -0.457275390625
-3.23876953125 6.0809326171875 3.594970703125
-5.345947265625 7.1951904296875 11.64013671875
10.757080078125 -0.5123291015625 -34.049560546875
26.614501953125 4.26708984375 -2.90283203125
25.040283203125 1.8177490234375 -16.59423828125
44.094482421875 3.99462890625 -7.500244140625
-3.560791015625 7.0655517578125 10.2880859375
15.03173828125 0.5130615234375 -26.3369140625
22.855712890625 3.045654296875 -11.812255859375
16.15234375 5.3453369140625 2.474365234375
18.806640625 8.3265380859375 22.93701171875
-11.17041015625 5.9271240234375 78.310546875
20.934326171875 6.2686767578125 9.795654296875
-22.14599609375 6.8714599609375 -5.123779296875
32.677734375 2.5767822265625 -12.04248046875
-5.81201171875 0.849365234375 -27.802490234375
5.5712890625 7.353271484375 14.955322265625
12.492919921875 4.9947509765625 0.444091796875
7.488037109375 4.5416259765625 -3.356201171875
14.587158203125 8.74462890625 25.7509765625
11.331787109375 5.6881103515625 43.981689453125
17.450439453125 1.6893310546875 -18.742431640625
32.8251953125 0.4212646484375 -23.838134765625
24.922119140625 9.1513671875 27.1279296875
40.03515625 1.995361328125 -16.67919921875
15.922119140625 6.54736328125 10.148681640625
-17.6826171875 2.5416259765625 63.745849609375
7.924072265625 7.0885009765625 12.903564453125
-2.919189453125 1.078857421875 -28.019287109375
-21.212890625 6.8548583984375 80.364501953125
15.703857421875 2.6273193359375 -15.099853515625
8.01171875 6.846435546875 34.989501953125
-10.109619140625 -0.999755859375 -42.8076171875
7.46337890625 5.6148681640625 42.916259765625
-0.0634765625 2.1480712890625 -17.65185546875
-18.285888671875 2.4058837890625 -19.8095703125
17.744384765625 4.154541015625 -4.97216796875
-21.23974609375 5.525390625 -3.971923828125
-0.8271484375 0.6497802734375 -27.43408203125
25.4638671875 9.841552734375 32.9892578125
11.985595703125 7.94921875 18.46630859375
-7.96142578125 2.1861572265625 63.668212890625
-4.97705078125 2.6612548828125 46.536376953125
-22.34228515625 8.90087890625 -1.994140625
35.479736328125 1.7894287109375 -16.3154296875
22.931396484375 8.420166015625 22.425048828125
37.944580078125 2.006103515625 -17.1826171875
16.338623046875 4.8753662109375 0.553466796875
-21.74951171875 7.7392578125 -6.768798828125
21.29638671875 9.236083984375 35.135009765625
18.85888671875 3.1463623046875 -11.302978515625
4.261962890625 5.9019775390625 36.6552734375
24.9248046875 3.9630126953125 -3.96435546875
28.158203125 7.5296630859375 17.317626953125
24.389404296875 0.394287109375 -24.029296875
-19.029296875 4.72021484375 -6.309814453125
-11.010009765625 4.05078125 78.510498046875
-13.5859375 1.3955078125 -26.68212890625
16.861083984375 8.741455078125 32.9951171875
47.081787109375 2.972412109375 -7.496826171875
7.879150390625 6.336181640625 7.762939453125
-8.233154296875 3.332275390625 38.876953125
-22.16845703125 7.4884033203125 2.066162109375
17.110107421875 3.515625 -7.955810546875
-21.214599609375 0.83251953125 54.77001953125
46.803466796875 -0.029541015625 -26.294677734375
-5.138671875 1.9647216796875 62.0712890625
-0.65283203125 4.8349609375 -2.73388671875
11.319091796875 1.5830078125 -20.5732421875
8.4638671875 0.6707763671875 -26.42333984375
-9.733154296875 2.7724609375 -15.6318359375
2.602783203125 3.8125 46.80615234375
-1.01123046875 4.2537841796875 40.75390625
9.374755859375 7.969482421875 19.23828125
13.77001953125 7.8560791015625 34.30615234375
0.841796875 7.4222412109375 24.13525390625
-20.927001953125 0.9732666015625 -32.01220703125
-24.259765625 5.1400146484375 77.068603515625
-5.42919921875 -0.9302978515625 -43.011962890625
15.918212890625 1.414306640625 -21.980224609375
7.031005859375 4.8359375 45.795654296875
-11.340576171875 0.5543212890625 52.634033203125
47.1943359375 5.11083984375 8.728271484375
-18.42333984375 2.8670654296875 -17.911376953125
-11.982177734375 7.607177734375 -5.02294921875
40.765380859375 4.8450927734375 4.7333984375
46.9033203125 1.0867919921875 -18.24755859375
33.0625 6.2578125 11.459228515625
-17.28955078125 0.234375 -34.338623046875
-4.964111328125 4.9813232421875 -3.025390625
-10.007568359375 4.33056640625 75.78271484375
4.596435546875 8.383544921875 22.374755859375
49.329345703125 0.87060546875 -15.661376953125
50.45751953125 0.363037109375 -19.767578125
25.718994140625 3.398193359375 -6.1884765625
0.466552734375 0.5540771484375 -29.711181640625
-17.281005859375 0.83935546875 -32.037841796875
9.77392578125 7.2271728515625 34.49072265625
4.76513671875 7.555419921875 25.581298828125
-17.84423828125 3.5028076171875 67.901611328125
21.605224609375 3.9749755859375 -5.353271484375
39.40478515625 -1.0614013671875 -32.649658203125
1.30078125 6.2314453125 7.171142578125
45.755615234375 1.5313720703125 -14.651123046875
-14.193603515625 3.3092041015625 -15.42724609375
14.469482421875 1.39599609375 -20.646484375
-7.527099609375 0.35693359375 -32.855224609375
38.480712890625 -0.406005859375 -28.12353515625
34.635986328125 0.7545166015625 -23.369140625
34.39453125 -0.4693603515625 -32.343505859375
-17.68896484375 4.2093505859375 -9.32763671875
-7.8896484375 2.62744140625 -18.659423828125
-7.41162109375 2.5687255859375 42.567626953125
32.16259765625 7.9666748046875 27.736328125
-16.058837890625 1.79443359375 58.820556640625
-5.3505859375 3.9794921875 -7.917236328125
47.598876953125 1.95703125 -12.60009765625
20.8896484375 5.4461669921875 4.09521484375
-22.310302734375 4.290283203125 74.38037109375
12.714599609375 8.10400390625 21.012939453125
27.8994140625 5.7130126953125 6.07666015625
-17.567626953125 2.05810546875 60.2939453125
3.97216796875 1.4847412109375 -23.237060546875
46.011474609375 0.6802978515625 -22.9638671875
18.047119140625 8.8668212890625 25.043701171875
-12.5947265625 4.3011474609375 -8.155029296875
44.7099609375 0.8941650390625 -21.299560546875
3.05908203125 5.4969482421875 38.815673828125
37.96630859375 2.92529296875 -10.73583984375
-2.482666015625 5.8463134765625 29.816650390625
4.773681640625 5.3851318359375 39.969970703125
37.505615234375 7.4716796875 19.9638671875
24.847412109375 9.2186279296875 30.091796875
-10.63720703125 1.220947265625 55.24609375
33.46142578125 0.211181640625 -26.763427734375
28.033203125 0.3934326171875 -26.561767578125
-25.23486328125 4.225341796875 73.029541015625
36.272216796875 2.6748046875 -11.325927734375
9.685546875 4.068603515625 -6.344970703125
-2.2978515625 4.43359375 -6.23046875
1.760498046875 2.63671875 -15.796142578125
34.8076171875 4.380859375 1.170166015625
18.15869140625 6.082763671875 7.21728515625
-0.995361328125 -0.2791748046875 -34.789306640625
-15.3603515625 5.2957763671875 -1.580078125
-4.12353515625 2.609375 -16.126708984375
-15.868408203125 6.595947265625 5.0478515625
21.647705078125 3.358154296875 -7.679443359375
-0.23779296875 7.792724609375 12.72509765625
29.346923828125 2.7342529296875 -11.42333984375
11.111572265625 8.4503173828125 22.6240234375
31.745849609375 1.4359130859375 -20.00537109375
-14.3154296875 1.16845703125 55.56494140625
-18.80078125 6.1944580078125 5.317138671875
25.78857421875 4.293212890625 0.083740234375
7.607666015625 6.13330078125 39.30615234375
33.4912109375 1.9149169921875 -15.85498046875
38.802978515625 4.19970703125 0.811279296875
35.154052734375 1.32958984375 -20.179931640625
27.529296875 -0.99609375 -35.295166015625
7.4765625 3.8546142578125 -7.120849609375
-12.685546875 4.011474609375 73.48583984375
34.4990234375 7.6619873046875 27.7822265625
-22.832763671875 7.6468505859375 -24.45166015625
-4.021240234375 -0.0020751953125 -33.152587890625
27.229736328125 3.394287109375 -8.53125
29.02001953125 0.821044921875 -22.501220703125
5.635498046875 4.252685546875 47.13330078125
29.6142578125 2.1922607421875 -15.518310546875
18.424560546875 8.1158447265625 38.83349609375
19.981689453125 1.44775390625 -20.5341796875
32.341552734375 8.5626220703125 25.9169921875
17.636962890625 6.981201171875 13.1259765625
-7.841064453125 3.390869140625 -11.871337890625
11.901123046875 2.89599609375 -13.172607421875
14.833984375 9.0830078125 29.40966796875
30.713623046875 4.3104248046875 -1.39111328125
-7.0087890625 5.519775390625 1.3369140625
39.52392578125 1.5069580078125 -18.314697265625
-4.974853515625 3.55419921875 41.482666015625
-9.698974609375 0.38671875 51.952880859375
47.13232421875 2.857666015625 -10.11474609375
19.06689453125 1.9630126953125 -17.1259765625
12.68359375 8.8177490234375 26.62353515625
-18.710693359375 5.0621337890625 -2.640380859375
29.6279296875 3.8082275390625 -5.276123046875
27.336181640625 -0.412353515625 -31.691650390625
-22.72705078125 7.5435791015625 -40.151123046875
13.73193359375 8.7708740234375 31.031005859375
27.844970703125 1.74462890625 -18.590576171875
0.0751953125 9.832275390625 18.568359375
24.163818359375 6.0238037109375 6.778076171875
41.208984375 6.84033203125 14.94189453125
8.166259765625 6.63330078125 9.489013671875
31.441650390625 3.631103515625 -4.566162109375
-3.69580078125 1.3819580078125 53.890380859375
51.416015625 2.8970947265625 -8.58740234375
-1.832275390625 1.8902587890625 53.310791015625
9.970703125 7.146484375 12.353271484375
-12.89404296875 4.005859375 -9.8740234375
-22.37841796875 8.1756591796875 -14.214599609375
16.107177734375 0.9320068359375 -23.96337890625
37.16748046875 1.86572265625 -18.836181640625
13.785888671875 3.4732666015625 -9.79296875
-8.00341796875 5.615966796875 -4.213623046875
-4.187255859375 1.674560546875 59.949462890625
-23.278564453125 1.6112060546875 -35.107666015625
2.4111328125 6.3675537109375 33.498291015625
-8.0009765625 2.443603515625 73.888671875
-11.323974609375 1.4490966796875 47.189453125
17.542724609375 7.6534423828125 18.374755859375
22.00439453125 0.6361083984375 -25.4931640625
-5.8828125 1.1656494140625 56.334716796875
46.114013671875 2.5439453125 -11.574951171875
6.839599609375 6.8543701171875 32.645751953125
29.333251953125 4.368896484375 -0.2021484375
5.7646484375 2.1177978515625 -16.200927734375
-9.596923828125 -0.4088134765625 -37.04296875
8.2041015625 5.3046875 1.509033203125
35.790771484375 4.523193359375 -0.419921875
-12.9013671875 3.3841552734375 -13.128173828125
4.3916015625 6.069580078125 5.65283203125
-8.576171875 8.35205078125 -5.709716796875
33.457763671875 6.727294921875 14.618896484375
-17.181884765625 4.7149658203125 -5.821533203125
-14.257568359375 1.8095703125 58.9111328125
8.442626953125 8.0615234375 28.95703125
-13.214111328125 -0.156982421875 -36.06005859375
-25.755615234375 4.7979736328125 74.781982421875
23.896728515625 7.1270751953125 12.0
-7.480224609375 1.1094970703125 -26.966064453125
-11.593994140625 3.834716796875 69.5322265625
41.541015625 5.635498046875 8.135009765625
8.209228515625 -1.0321044921875 -36.592529296875
-23.91650390625 2.1175537109375 58.6376953125
19.15869140625 8.595703125 35.885498046875
-0.696533203125 0.0283203125 -32.99951171875
44.517822265625 -0.250244140625 -28.759521484375
4.1767578125 5.2021484375 1.123779296875
-10.748291015625 1.018310546875 -29.196533203125
8.234375 5.2625732421875 44.60546875
-19.032470703125 4.701416015625 78.52880859375
3.9296875 8.2376708984375 18.34521484375
20.675048828125 5.9420166015625 7.031982421875
-20.48681640625 4.5106201171875 -7.408203125
20.9296875 4.05908203125 -3.49365234375
-20.85888671875 2.282958984375 -23.392822265625
40.334228515625 4.0582275390625 -3.5341796875
-8.84375 3.8426513671875 77.25244140625
4.876953125 7.2425537109375 29.54638671875
20.3779296875 7.08935546875 14.241455078125
-13.36767578125 2.271728515625 -20.517578125
-0.823974609375 5.347412109375 1.15869140625
11.887451171875 3.618408203125 -8.33349609375
7.281494140625 6.326904296875 37.464599609375
9.613037109375 2.6552734375 -13.37548828125
29.322021484375 5.0421142578125 2.59130859375
-19.976806640625 3.1708984375 -16.660888671875
10.47265625 0.5985107421875 -28.052978515625
19.753662109375 3.4500732421875 -8.282958984375
5.585693359375 0.734375 -35.4248046875
12.7548828125 1.601806640625 -21.90234375
8.767333984375 5.9276123046875 5.986328125
4.608154296875 2.900146484375 -13.353271484375
-24.720458984375 2.500732421875 62.874755859375
-19.480712890625 0.79443359375 54.44140625
-7.267822265625 -0.8017578125 -42.5009765625
39.517333984375 3.60888671875 -10.263916015625
10.760498046875 4.5859375 -1.524658203125
-18.79248046875 1.2347412109375 -29.25390625
-1.868408203125 6.876953125 10.00146484375
19.826416015625 8.004638671875 21.1005859375
-8.099609375 1.4403076171875 59.4921875
-22.02880859375 1.7174072265625 -28.6162109375
38.38134765625 4.31787109375 -1.107177734375
2.292724609375 4.5291748046875 -4.669677734375
-8.057373046875 2.673583984375 65.7734375
18.787841796875 4.594482421875 -1.603515625
-11.076416015625 3.830322265625 71.98681640625
26.4853515625 4.963134765625 2.51171875
-14.255859375 0.6806640625 -32.71337890625
0.137451171875 0.9501953125 -26.03759765625
-3.985595703125 1.20458984375 55.930908203125
14.146240234375 6.084228515625 7.7197265625
36.8134765625 2.643310546875 -9.487060546875
-8.44580078125 7.2218017578125 11.24755859375
-2.088134765625 -0.933837890625 -43.9560546875
-17.217529296875 2.2100830078125 -21.357177734375
-13.417724609375 2.06103515625 60.697021484375
2.27783203125 5.883056640625 4.319580078125
47.8623046875 0.43505859375 -22.749267578125
11.849853515625 7.115966796875 13.427490234375
-6.890380859375 3.0330810546875 -14.787353515625
9.527587890625 3.2391357421875 -10.502685546875
21.83203125 9.55615234375 32.31982421875
1.2255859375 2.0576171875 -19.885986328125
14.93310546875 4.6893310546875 -2.72509765625
5.302978515625 4.3013916015625 -5.14794921875
2.534912109375 8.1044921875 17.124267578125
18.56201171875 3.6495361328125 -6.714599609375
10.47265625 6.3590087890625 8.947509765625
2.49853515625 3.37841796875 -11.914306640625
2.31298828125 -1.138916015625 -43.263916015625
-22.645263671875 8.6126708984375 -3.6875
9.7236328125 7.6004638671875 15.76123046875
7.4853515625 5.566162109375 41.02587890625
7.060546875 4.78857421875 -1.717529296875
-19.01708984375 1.64697265625 -26.217041015625
50.316162109375 2.8707275390625 -4.32763671875
51.56298828125 1.79150390625 -10.290771484375
-7.595947265625 4.310302734375 -5.330078125
9.659423828125 1.2841796875 -21.605712890625
40.89404296875 -0.8939208984375 -30.28662109375
10.243408203125 -1.1419677734375 -39.3359375
-0.09228515625 6.0748291015625 4.9609375
39.296630859375 6.254638671875 11.5126953125
2.3388671875 -0.9888916015625 -39.594482421875
3.551025390625 5.8299560546875 3.1796875
-3.78759765625 0.9481201171875 -26.404052734375
-5.501953125 3.583740234375 39.834716796875
-1.34716796875 2.7889404296875 -15.181640625
30.1962890625 5.2633056640625 4.109375
6.48583984375 8.26416015625 19.5380859375
-9.18408203125 3.9649658203125 -8.351318359375
28.775390625 3.7528076171875 -3.776123046875
13.8642578125 -0.02001953125 -29.667724609375
4.85009765625 -1.1832275390625 -40.98291015625
0.561767578125 8.1651611328125 21.02099609375
43.580810546875 2.758056640625 -12.494384765625
-27.48291015625 3.140380859375 64.744140625
-7.873291015625 -1.2635498046875 -40.823974609375
44.35009765625 1.480712890625 -16.03076171875
-25.014404296875 2.7784423828125 64.675537109375
-9.288818359375 1.8936767578125 -22.152587890625
-2.9716796875 -1.0306396484375 -41.2265625
24.64599609375 8.85400390625 25.40234375
-21.490966796875 9.1544189453125 1.40380859375
6.76318359375 2.925048828125 -32.407470703125
24.536376953125 9.69140625 34.45068359375
28.694580078125 8.232177734375 23.2705078125
-21.402587890625 5.972412109375 -0.60595703125
38.474853515625 -0.5863037109375 -31.28125
45.886474609375 5.088623046875 6.785888671875
11.913818359375 7.88525390625 33.2197265625
-3.041015625 -0.3770751953125 -36.18896484375
41.836669921875 -0.6065673828125 -28.22607421875
-20.355712890625 6.9713134765625 4.79638671875
-23.490966796875 4.2452392578125 73.1484375
2.549560546875 8.0587158203125 15.162109375
19.772705078125 -0.3541259765625 -32.31103515625
0.8251953125 5.61572265625 35.044677734375
-23.30126953125 6.734130859375 -20.626708984375
-5.741943359375 -0.52880859375 -39.29150390625
2.234375 0.28662109375 -32.186767578125
26.7060546875 3.7041015625 -4.763916015625
18.86474609375 7.704833984375 19.703369140625
43.5703125 1.33935546875 -17.693359375
-9.331787109375 5.686279296875 0.99365234375
-9.6533203125 2.7099609375 41.221435546875
36.24755859375 6.8614501953125 16.774658203125
-14.3984375 0.3660888671875 -40.913330078125
38.032470703125 0.5870361328125 -24.045166015625
-9.396728515625 0.396484375 -33.878662109375
14.7216796875 8.5743408203125 32.59716796875
-16.51611328125 5.963134765625 1.22412109375
-3.846923828125 5.717529296875 28.609619140625
-5.695556640625 4.3529052734375 35.818115234375
10.122314453125 6.17919921875 41.474365234375
-6.164794921875 1.2913818359375 51.353515625
10.74609375 8.838134765625 27.046142578125
-21.60888671875 4.958740234375 77.76416015625
6.01318359375 5.0894775390625 0.72216796875
43.2685546875 5.126953125 4.420654296875
-6.517333984375 5.976806640625 2.865966796875
41.18359375 4.393798828125 0.58154296875
19.26025390625 4.3173828125 -4.29150390625
-16.975830078125 0.311279296875 50.749267578125
-2.9619140625 0.4395751953125 -29.775390625
3.241943359375 2.9635009765625 52.000732421875
-27.408935546875 4.7421875 66.2841796875
-14.60546875 5.3302001953125 -5.5234375
-4.991943359375 3.6265869140625 -12.028076171875
-18.491455078125 -0.494384765625 49.960693359375
15.84375 7.0955810546875 11.955322265625
-12.424072265625 6.3056640625 2.852294921875
11.337158203125 5.8707275390625 5.70849609375
-0.0244140625 4.9979248046875 38.086669921875
-18.390625 0.682861328125 53.075927734375
-10.751220703125 0.3809814453125 -32.54052734375
6.5263671875 4.0859375 51.020751953125
8.968017578125 4.985107421875 49.105224609375
15.056396484375 8.46044921875 22.200927734375
-20.037109375 -0.2474365234375 51.947509765625
-10.556396484375 6.351318359375 5.3232421875
-22.015869140625 7.5811767578125 -1.04150390625
36.0703125 2.389404296875 -13.727294921875
-13.5537109375 2.73583984375 -17.04296875
-6.791259765625 2.617919921875 44.1279296875
22.318115234375 -1.267822265625 -35.99462890625
49.783447265625 -0.2772216796875 -21.8125
28.46533203125 -0.7117919921875 -33.255615234375
-11.519775390625 1.5623779296875 57.783935546875
-22.560546875 7.972900390625 -17.5791015625
38.09033203125 6.5845947265625 15.00390625
-13.354248046875 0.335205078125 50.896484375
39.400146484375 5.6094970703125 8.156005859375
46.66943359375 4.3199462890625 2.071044921875
14.515625 7.5428466796875 37.95361328125
-10.342041015625 1.4588623046875 -25.48193359375
-9.7841796875 3.31787109375 -13.82080078125
16.460205078125 -0.1241455078125 -29.484619140625
12.947998046875 4.0303955078125 -5.999267578125
18.484375 -1.0975341796875 -38.207275390625
-15.600341796875 0.42578125 49.144775390625
35.57666015625 3.58837890625 -4.572265625
-12.65673828125 0.3941650390625 -32.99267578125
6.95947265625 0.5123291015625 -27.076171875
-4.162109375 1.921142578125 -19.90234375
25.27001953125 -0.2774658203125 -29.53125
14.345703125 7.0140380859375 41.60595703125
33.045166015625 6.0970458984375 8.4794921875
34.277587890625 7.6378173828125 19.898193359375
42.707763671875 0.234375 -25.31005859375
0.833251953125 2.9998779296875 -14.42626953125
-22.990966796875 4.1170654296875 -31.36572265625
-13.646240234375 0.70703125 -30.468994140625
