44.8662109375 4.505126953125 -8.279541015625
-32.922607421875 6.2232666015625 75.694091796875
3.43408203125 9.3958740234375 41.236083984375
39.2744140625 7.7176513671875 -1.79443359375
33.190673828125 4.17041015625 -22.126708984375
48.46533203125 9.2352294921875 -8.92724609375
12.85302734375 7.841552734375 4.898193359375
4.923828125 4.8802490234375 -8.907470703125
4.97265625 8.22119140625 3.97802734375
-5.767333984375 5.339599609375 53.816650390625
0.45849609375 8.7618408203125 40.970703125
-14.188232421875 6.8187255859375 40.624755859375
33.59716796875 3.5887451171875 -24.142822265625
-7.5673828125 3.3148193359375 -18.322998046875
-2.17822265625 8.0423583984375 42.820556640625
2.366943359375 7.51513671875 52.101806640625
30.07373046875 3.1585693359375 -23.072265625
-0.4365234375 7.6484375 0.286865234375
40.70849609375 6.5328369140625 -1.44580078125
10.76904296875 7.453369140625 2.861328125
41.0810546875 4.4200439453125 -9.093505859375
19.784912109375 2.7452392578125 -21.495849609375
15.620361328125 2.95166015625 -21.9609375
42.817138671875 7.6893310546875 3.41943359375
39.7958984375 2.76220703125 -15.557373046875
11.494873046875 5.020263671875 -15.577880859375
23.576904296875 4.6517333984375 -13.383056640625
-12.091552734375 6.7193603515625 38.5498046875
2.33740234375 8.493408203125 45.21875
-19.781005859375 6.2972412109375 -1.315185546875
7.904052734375 9.4190673828125 9.23681640625
38.92578125 9.6214599609375 -4.125
35.638671875 8.06005859375 -4.055908203125
38.58837890625 4.8287353515625 -8.3251953125
13.93701171875 4.4205322265625 -15.843505859375
29.839111328125 6.114990234375 3.547607421875
29.8779296875 7.969482421875 10.36767578125
-10.838134765625 6.58056640625 -6.688232421875
18.68359375 8.7100830078125 9.799072265625
27.39990234375 8.5947265625 11.935302734375
-3.344970703125 7.5413818359375 -0.9599609375
25.34326171875 9.515625 14.712646484375
10.3203125 5.8485107421875 -3.16259765625
-11.70361328125 4.8980712890625 -13.119384765625
-19.966552734375 6.83642578125 -8.42919921875
-4.2060546875 6.0771484375 -6.5888671875
23.284423828125 10.3275146484375 17.088623046875
10.37744140625 8.57568359375 6.866943359375
-13.32080078125 6.987548828125 -5.9228515625
-8.380859375 4.9736328125 -11.8662109375
34.4853515625 9.914306640625 18.860595703125
25.739501953125 8.6114501953125 11.50927734375
14.05322265625 5.6744384765625 -2.70556640625
1.20556640625 6.7589111328125 -2.49658203125
-19.224365234375 2.628173828125 -23.66162109375
-15.0380859375 4.277099609375 -16.37841796875
33.1962890625 7.826904296875 10.818603515625
35.635498046875 5.3472900390625 2.430908203125
-10.81982421875 7.4532470703125 -3.478759765625
1.60400390625 5.9638671875 -5.298583984375
5.951171875 5.1849365234375 -12.947021484375
-25.403564453125 5.5682373046875 -14.0771484375
-12.609130859375 7.5748291015625 1.271728515625
4.0908203125 3.783447265625 -13.784423828125
2.172607421875 6.9591064453125 6.961181640625
7.735107421875 11.4293212890625 33.98193359375
-1.130859375 9.0831298828125 14.989990234375
21.685546875 12.6829833984375 34.90673828125
16.31640625 12.981689453125 34.427001953125
-24.298828125 8.4478759765625 5.854248046875
12.53759765625 10.2218017578125 23.184326171875
9.246337890625 11.0157470703125 25.1328125
12.993408203125 12.254638671875 30.78173828125
-12.678466796875 10.5037841796875 16.814697265625
5.87109375 7.7899169921875 12.298095703125
7.161865234375 10.194580078125 21.506103515625
1.400390625 11.50244140625 24.615966796875
7.120849609375 8.2391357421875 14.314208984375
28.685302734375 11.2811279296875 31.8154296875
25.80908203125 12.15234375 34.16943359375
-1.09228515625 10.9300537109375 21.781982421875
23.318603515625 11.6884765625 31.7353515625
22.529296875 13.489501953125 38.115478515625
-11.48095703125 8.4542236328125 9.6416015625
1.36181640625 9.655517578125 17.82373046875
10.929443359375 12.411376953125 30.7509765625
23.298095703125 10.710693359375 28.139404296875
-2.358154296875 9.7203369140625 16.968994140625
-6.125732421875 7.503662109375 7.72412109375
14.565185546875 8.326904296875 16.82275390625
-7.088623046875 5.0869140625 55.9326171875
-0.87451171875 9.50537109375 34.478759765625
-18.85693359375 3.072509765625 62.085205078125
-14.8330078125 4.031494140625 66.78759765625
4.10498046875 9.1524658203125 44.647705078125
4.514404296875 10.1546630859375 37.2626953125
42.617919921875 3.4163818359375 -18.4423828125
47.552734375 5.7454833984375 -13.972900390625
45.077880859375 4.1329345703125 -13.86328125
43.114990234375 4.235107421875 -16.51708984375
-4.356201171875 7.4833984375 44.2080078125
-3.80322265625 5.2794189453125 55.8896484375
-26.464111328125 6.4156494140625 -19.1640625
-4.9189453125 3.7772216796875 -20.69970703125
-16.0693359375 5.592041015625 44.24853515625
26.145263671875 10.67724609375 20.422119140625
-0.58544921875 9.2259521484375 37.077880859375
-15.474853515625 3.6798095703125 59.10205078125
-18.2568359375 2.9547119140625 53.925048828125
31.35888671875 13.938232421875 30.294189453125
-13.455078125 7.2706298828125 75.13916015625
47.5849609375 7.28662109375 -8.305419921875
36.9384765625 3.224853515625 -24.497314453125
36.09326171875 2.848388671875 -26.1279296875
39.43701171875 2.5946044921875 -26.077880859375
34.003662109375 3.007080078125 -26.1591796875
-26.4892578125 7.057373046875 -14.990966796875
-7.69189453125 7.0333251953125 43.900634765625
-20.103759765625 8.018310546875 69.704833984375
-26.16796875 5.00341796875 -20.0087890625
43.624267578125 6.4212646484375 -0.999267578125
33.572998046875 4.2220458984375 -12.025390625
17.712890625 3.3414306640625 -19.915771484375
36.479736328125 3.6722412109375 -13.190185546875
31.89892578125 3.9102783203125 -13.66162109375
5.2216796875 4.0701904296875 -20.907958984375
18.9296875 1.713134765625 -25.53662109375
22.25927734375 1.4603271484375 -25.48681640625
8.940185546875 2.471435546875 -25.68603515625
-3.951171875 3.99853515625 -23.86474609375
42.350341796875 5.3111572265625 -5.44921875
-19.342041015625 6.453369140625 80.52685546875
-18.46728515625 7.9769287109375 68.897705078125
-23.254638671875 2.115966796875 56.156005859375
19.549072265625 10.3924560546875 16.23046875
-8.73583984375 7.8414306640625 -1.44189453125
37.384765625 9.5849609375 18.5029296875
9.1064453125 7.361083984375 2.0341796875
-4.66845703125 3.8177490234375 -15.02001953125
31.991455078125 9.7757568359375 17.619873046875
-4.6318359375 5.5631103515625 -8.60107421875
-16.584228515625 9.748291015625 3.254638671875
-4.185302734375 7.0589599609375 -2.978271484375
31.97314453125 8.903076171875 14.41064453125
29.03955078125 7.5960693359375 8.75048828125
23.273193359375 9.5157470703125 23.744384765625
-6.933837890625 4.820068359375 62.965087890625
-27.69140625 4.7010498046875 68.279052734375
-16.135986328125 3.2869873046875 51.794921875
12.156494140625 11.774169921875 28.771728515625
-15.609130859375 8.767578125 9.579833984375
0.499755859375 7.97998046875 11.418701171875
29.06396484375 9.6202392578125 25.82861328125
11.702880859375 9.8499755859375 21.573974609375
20.013671875 11.83056640625 31.286376953125
15.41357421875 9.3505859375 20.830322265625
-1.97705078125 8.16796875 11.381591796875
3.044921875 11.0511474609375 23.44189453125
23.760986328125 13.069580078125 36.935302734375
5.914306640625 9.8541259765625 19.889404296875
-12.1708984375 4.265625 59.391357421875
27.664794921875 5.923583984375 -5.075927734375
-32.431884765625 5.918701171875 69.6728515625
-27.64892578125 3.8453369140625 62.340576171875
-17.242431640625 3.6876220703125 64.817138671875
-30.02978515625 4.8690185546875 65.399658203125
-31.218017578125 5.4859619140625 67.316162109375
-24.92236328125 5.6968994140625 74.9912109375
-10.379638671875 4.828369140625 69.89501953125
-28.841552734375 4.251953125 63.483154296875
-25.771240234375 4.09814453125 -23.21630859375
-7.784912109375 6.724365234375 45.638427734375
-24.172119140625 7.0771484375 83.634765625
46.726806640625 6.118896484375 -4.863525390625
-25.83935546875 7.6826171875 -3.423095703125
-26.6123046875 9.748046875 3.32958984375
-24.163818359375 4.3199462890625 53.23046875
-11.2314453125 2.817138671875 -24.255859375
1.781494140625 7.3948974609375 56.685546875
-28.24560546875 10.963134765625 7.3115234375
17.16259765625 11.2764892578125 37.380615234375
40.97998046875 3.583740234375 -18.922119140625
-15.234375 10.2340087890625 1.798828125
-25.493896484375 9.99609375 10.587646484375
-21.720458984375 3.7259521484375 50.06005859375
-9.590576171875 4.2413330078125 67.971435546875
-18.79443359375 8.10693359375 82.273681640625
18.63134765625 5.0418701171875 -4.288818359375
-14.39599609375 5.78955078125 73.370361328125
-4.227783203125 7.6981201171875 1.16943359375
32.761962890625 2.61328125 -19.390380859375
-12.165283203125 7.5904541015625 73.865966796875
-12.98681640625 3.69287109375 57.048828125
-15.40380859375 3.453125 55.459228515625
-29.7470703125 6.4266357421875 78.49169921875
-29.754638671875 5.522216796875 74.60986328125
-25.26123046875 2.5447998046875 57.7041015625
-1.177001953125 7.39501953125 47.141845703125
-20.235107421875 3.0794677734375 52.668212890625
-1.9423828125 6.379638671875 53.592041015625
21.901123046875 9.7755126953125 17.676513671875
45.747802734375 2.59912109375 -24.822998046875
-31.34326171875 5.367919921875 73.017333984375
38.30224609375 2.5830078125 -20.319580078125
8.6171875 9.037841796875 11.067626953125
23.393798828125 9.1810302734375 19.547119140625
-15.25048828125 5.2509765625 42.660400390625
-17.666259765625 6.740478515625 79.271728515625
-8.445068359375 7.7376708984375 2.48974609375
-7.79248046875 3.9698486328125 -22.05224609375
-23.6171875 2.0517578125 54.123046875
-3.107666015625 5.192138671875 59.19970703125
40.935546875 7.2618408203125 -2.97998046875
-12.715576171875 4.5340576171875 51.10791015625
-20.39453125 9.3489990234375 71.094482421875
5.58154296875 10.984375 34.097412109375
-26.804931640625 5.750244140625 -25.975830078125
-21.0048828125 6.586181640625 83.320068359375
46.1279296875 5.3043212890625 -12.935302734375
18.548095703125 9.222412109375 15.2646484375
-7.05615234375 9.0679931640625 31.6484375
-1.784912109375 7.3177490234375 1.697509765625
-30.47509765625 5.4384765625 70.169189453125
15.999755859375 11.38818359375 35.66162109375
-4.16064453125 10.5537109375 24.886962890625
-18.5537109375 3.1527099609375 50.59228515625
-11.694580078125 5.4803466796875 48.002197265625
-25.94091796875 3.548828125 56.6787109375
-1.75341796875 9.4432373046875 35.763916015625
-25.25830078125 5.71435546875 72.15283203125
20.737548828125 14.40478515625 24.636962890625
36.3818359375 9.6595458984375 -4.115478515625
17.53076171875 5.0538330078125 -8.205322265625
45.809814453125 5.222412109375 -7.201416015625
-0.76123046875 6.987548828125 7.40478515625
2.305908203125 4.181884765625 -21.3544921875
-13.155029296875 5.9451904296875 -1.26220703125
-35.290283203125 6.103759765625 72.880126953125
19.2734375 12.5697021484375 42.15283203125
-21.598876953125 5.3231201171875 68.980224609375
44.00146484375 3.034423828125 -13.93310546875
-15.8798828125 2.238525390625 -25.321044921875
36.39794921875 2.9842529296875 -23.082275390625
-12.786865234375 5.3919677734375 71.820556640625
28.946533203125 2.269287109375 -20.55322265625
5.60302734375 4.3951416015625 -18.3837890625
-25.9775390625 8.4901123046875 6.716064453125
3.705322265625 4.3726806640625 -24.520263671875
-9.18798828125 5.98828125 48.300048828125
2.08544921875 3.33837890625 -18.43212890625
-2.559326171875 9.2235107421875 34.130615234375
-26.530517578125 8.7742919921875 -5.058349609375
17.5693359375 12.177001953125 41.401611328125
32.239501953125 6.9573974609375 0.671875
-32.845703125 6.290283203125 72.039306640625
17.353271484375 4.6590576171875 -5.46435546875
34.84716796875 5.9967041015625 3.978759765625
39.251708984375 6.66650390625 2.879150390625
-1.551513671875 8.5693359375 38.5
42.31787109375 8.143310546875 6.767822265625
8.58642578125 10.6229248046875 41.360107421875
-9.2919921875 8.380615234375 34.359375
-10.66455078125 7.82373046875 36.603515625
-22.31982421875 2.72021484375 53.569091796875
-28.2119140625 12.334716796875 -8.3388671875
21.33544921875 14.677001953125 21.545654296875
-9.626953125 3.2943115234375 -19.608642578125
36.0703125 6.797607421875 -0.61669921875
43.203125 2.529052734375 -25.212646484375
41.127197265625 3.34765625 -22.81689453125
38.60791015625 2.988037109375 -24.876953125
41.979248046875 4.0540771484375 -19.972900390625
20.561279296875 5.981201171875 -6.341552734375
-0.382568359375 4.8531494140625 -26.40771484375
-26.3173828125 8.94677734375 5.291748046875
-10.48974609375 3.3856201171875 -18.316162109375
7.629150390625 12.770751953125 31.10107421875
-25.5537109375 9.0018310546875 8.718994140625
13.537109375 8.5775146484375 12.0283203125
26.702880859375 12.8267822265625 35.70751953125
-9.453125 3.370849609375 -25.347900390625
10.81884765625 10.2354736328125 46.487548828125
-27.545166015625 10.19482421875 10.1142578125
-22.921142578125 6.496826171875 -8.730224609375
16.052734375 3.6868896484375 -19.134765625
29.792724609375 2.86328125 -18.123779296875
22.69384765625 2.3050537109375 -22.258056640625
24.015869140625 5.7154541015625 -9.3486328125
7.732666015625 4.537841796875 -18.45361328125
35.66552734375 4.6116943359375 -9.97998046875
24.791015625 2.913818359375 -19.406982421875
8.574462890625 4.912841796875 -16.829833984375
13.96923828125 3.7353515625 -19.56884765625
17.32666015625 4.7969970703125 -14.68505859375
23.12158203125 2.8211669921875 -20.237548828125
37.305419921875 3.2803955078125 -14.38623046875
18.1201171875 2.8717041015625 -21.520751953125
8.137451171875 3.9586181640625 -20.461669921875
24.841552734375 5.3236083984375 -10.544677734375
26.87451171875 2.8653564453125 -18.97314453125
34.8515625 5.55126953125 -6.769775390625
31.10791015625 5.945068359375 -6.4228515625
23.176513671875 5.4500732421875 -10.569580078125
18.10400390625 2.1048583984375 -24.340576171875
9.779541015625 2.73681640625 -24.465087890625
33.61669921875 6.30322265625 -4.371337890625
44.907470703125 7.969482421875 5.061767578125
29.445068359375 6.1810302734375 -6.044921875
39.841552734375 4.9530029296875 -7.500732421875
23.517333984375 1.8037109375 -23.85693359375
34.412353515625 4.4874267578125 -10.804443359375
3.55908203125 4.30615234375 -20.530029296875
10.639404296875 3.988037109375 -19.61865234375
27.279296875 2.2861328125 -20.98095703125
31.533203125 6.3516845703125 -4.805419921875
37.287109375 2.4041748046875 -17.60888671875
27.716064453125 3.2403564453125 -17.349365234375
18.945556640625 2.4798583984375 -22.716796875
40.308349609375 7.3311767578125 1.367919921875
8.953857421875 3.128662109375 -23.26904296875
26.0947265625 5.447998046875 -9.72021484375
18.579833984375 4.9212646484375 -13.860595703125
42.732177734375 3.636474609375 -11.485595703125
19.768798828125 1.978515625 -24.315673828125
39.39794921875 3.670166015625 -12.341064453125
26.5224609375 5.9639892578125 -7.699951171875
-8.380615234375 4.1414794921875 -15.5263671875
-14.153076171875 3.3734130859375 53.831298828125
13.417724609375 12.7664794921875 32.78564453125
-27.776611328125 9.9854736328125 0.2333984375
26.723388671875 5.8221435546875 -3.292236328125
-26.788818359375 6.517578125 -23.15380859375
33.809814453125 6.488525390625 1.2353515625
14.479736328125 3.9786376953125 -10.016845703125
-12.969970703125 2.3455810546875 -24.073486328125
19.45556640625 5.919921875 -0.218017578125
31.53369140625 7.734619140625 9.991455078125
11.96923828125 5.286376953125 -4.742431640625
-1.709716796875 6.32470703125 -4.947021484375
-22.964111328125 2.47509765625 -25.322265625
-2.18359375 3.5198974609375 -15.384033203125
24.470947265625 7.505859375 7.07763671875
-5.28564453125 7.264892578125 6.494140625
27.77783203125 6.81787109375 5.5224609375
23.669189453125 8.8779296875 11.87939453125
39.43212890625 8.2276611328125 14.120849609375
-18.30859375 6.7105712890625 -8.404296875
29.17431640625 14.0323486328125 32.420166015625
19.9111328125 7.85205078125 7.009521484375
36.5146484375 7.6842041015625 11.269287109375
39.44140625 8.6639404296875 15.7255859375
33.2919921875 12.4085693359375 27.66796875
24.505126953125 9.1422119140625 13.095458984375
43.142333984375 6.962646484375 10.566162109375
31.52001953125 7.080078125 7.584228515625
-2.151611328125 5.047119140625 -9.767333984375
-20.82763671875 5.3721923828125 -14.05810546875
-14.9833984375 6.895263671875 -6.75
27.443115234375 10.6673583984375 19.5576171875
15.683837890625 4.239501953125 -7.494873046875
22.8310546875 8.5045166015625 10.262451171875
22.44384765625 9.844970703125 15.0703125
-13.366455078125 4.8057861328125 -13.946533203125
11.115234375 4.1492919921875 -9.16796875
37.35498046875 8.166748046875 13.28759765625
-20.00537109375 4.98193359375 -15.249267578125
-15.908203125 2.37646484375 -23.612060546875
-21.66796875 4.8896484375 -16.076416015625
23.605224609375 5.8233642578125 0.646484375
12.786865234375 4.677978515625 -6.736083984375
-17.905517578125 6.1336669921875 -10.404052734375
-12.102294921875 5.6932373046875 -10.3173828125
16.975341796875 6.4359130859375 0.948486328125
-17.9443359375 4.2791748046875 -17.22412109375
-19.194580078125 4.04638671875 -18.4462890625
10.311279296875 5.4122314453125 -4.767333984375
34.435302734375 7.5142822265625 10.03466796875
30.335693359375 10.0107421875 17.996337890625
20.35986328125 9.4569091796875 13.033447265625
26.115234375 6.7254638671875 4.6953125
29.003173828125 5.8507080078125 2.331787109375
-5.4677734375 5.298828125 -9.81689453125
-14.430419921875 3.408935546875 64.05712890625
13.622802734375 4.9422607421875 -5.52001953125
-1.315673828125 5.3114013671875 -8.551513671875
24.47998046875 7.9422607421875 8.682373046875
12.005859375 7.03173828125 1.676513671875
34.870361328125 8.464599609375 13.651611328125
43.568115234375 7.4765625 12.578125
5.362060546875 6.98974609375 -0.4287109375
6.999755859375 5.882080078125 -4.014404296875
-5.925537109375 3.257568359375 -17.445556640625
3.291748046875 7.256103515625 -0.05859375
13.606689453125 4.1787109375 -8.328369140625
2.403564453125 4.4827880859375 -10.50146484375
-14.591552734375 5.77294921875 -10.755615234375
2.00048828125 5.0596923828125 -8.501953125
-16.306640625 3.1715087890625 -20.81005859375
-26.41455078125 5.4375 68.548583984375
18.70166015625 13.0574951171875 37.803466796875
-2.8271484375 4.6068115234375 60.549072265625
-7.559814453125 8.784912109375 33.41064453125
-10.487548828125 7.5418701171875 -0.03515625
24.84423828125 5.5108642578125 -0.137451171875
-11.795654296875 6.8587646484375 -1.1181640625
-12.8720703125 8.5924072265625 0.10107421875
21.683837890625 9.0054931640625 19.603271484375
-24.72705078125 7.1080322265625 0.209228515625
27.03173828125 11.2978515625 31.391357421875
-8.794677734375 7.9195556640625 70.959228515625
-12.7353515625 7.7877197265625 6.826171875
-11.934814453125 6.530029296875 2.443603515625
26.60302734375 10.5687255859375 28.58837890625
-24.3193359375 7.4700927734375 2.258544921875
-10.6689453125 7.7396240234375 7.256591796875
-24.276123046875 9.5343017578125 9.849853515625
9.70556640625 11.3212890625 36.545654296875
-9.77978515625 10.718994140625 18.4560546875
-10.2060546875 10.098388671875 16.052734375
-11.859619140625 10.1151123046875 15.62841796875
-14.790283203125 8.37890625 8.3935546875
-22.275634765625 6.3355712890625 -1.306396484375
24.135009765625 11.1912841796875 30.1494140625
15.034912109375 11.0115966796875 26.8173828125
15.84912109375 10.4056396484375 24.83203125
-13.932861328125 9.8372802734375 13.99951171875
3.82958984375 9.032958984375 16.2626953125
24.59326171875 13.332763671875 38.146484375
-14.7744140625 9.139404296875 11.1904296875
15.808349609375 8.4501953125 17.64013671875
-18.1474609375 6.022216796875 -1.244873046875
5.952880859375 11.700927734375 26.681396484375
1.332275390625 8.2432861328125 12.629638671875
-4.871337890625 8.1700439453125 10.539306640625
3.015380859375 9.638916015625 18.248046875
-17.2763671875 8.1324462890625 6.75830078125
4.2333984375 8.567138671875 14.670654296875
9.668212890625 11.4189453125 26.737060546875
3.886474609375 11.7490234375 26.2509765625
8.797119140625 9.308837890625 18.73388671875
3.398681640625 8.1951904296875 13.06005859375
-22.645263671875 8.43115234375 6.278564453125
-16.416748046875 9.6993408203125 12.763916015625
-4.469970703125 7.5955810546875 8.5478515625
-1.525634765625 9.9835205078125 18.179931640625
22.9169921875 12.2630615234375 33.726806640625
15.05078125 11.7720947265625 29.614013671875
5.551513671875 12.2755126953125 28.673095703125
-21.833251953125 7.7166748046875 3.893798828125
8.772216796875 8.11376953125 14.3388671875
-5.254638671875 9.61376953125 15.727294921875
1.79296875 10.493408203125 21.026123046875
-17.65966796875 9.5760498046875 11.9462890625
11.67333984375 8.4376220703125 16.3798828125
20.440185546875 12.4510498046875 33.689697265625
-4.830322265625 10.1256103515625 17.731201171875
-20.1591796875 8.677734375 7.913818359375
-6.90576171875 9.7391357421875 15.70263671875
-21.8515625 6.8475341796875 0.697265625
-3.219970703125 8.044677734375 10.564208984375
-4.95751953125 8.2078857421875 40.27490234375
24.835205078125 5.074462890625 -1.7421875
14.21875 11.693115234375 39.830810546875
-1.526123046875 7.440673828125 45.4638671875
10.5390625 4.550537109375 -14.536865234375
17.238037109375 5.1806640625 -10.865234375
-21.21484375 6.712646484375 -9.250244140625
-3.0517578125 9.77587890625 25.934814453125
-0.09912109375 7.0191650390625 50.135498046875
-27.65869140625 5.68603515625 71.343994140625
1.236083984375 8.72509765625 42.236328125
47.80126953125 5.3048095703125 -20.45556640625
9.203857421875 11.1844482421875 38.272705078125
-26.52587890625 8.3792724609375 -7.11328125
24.403564453125 6.805908203125 -4.011962890625
0.701904296875 10.1195068359375 27.107666015625
1.015380859375 6.7252197265625 52.2724609375
10.68701171875 3.5262451171875 -11.5810546875
-6.38623046875 6.0125732421875 50.364013671875
-26.271728515625 8.67822265625 1.913330078125
47.641845703125 6.9295654296875 -10.83203125
-22.916015625 6.765380859375 80.063232421875
5.6806640625 9.334228515625 47.534423828125
49.177490234375 9.3331298828125 -5.880615234375
-6.07958984375 7.1900634765625 45.530029296875
-17.90283203125 9.1298828125 3.01416015625
-24.9130859375 5.13427734375 54.293212890625
-26.282958984375 8.134033203125 -0.088134765625
-22.841552734375 5.8873291015625 72.935791015625
13.32666015625 4.0169677734375 -12.639404296875
19.98876953125 11.56103515625 20.649658203125
7.1552734375 8.815673828125 50.15087890625
3.092529296875 7.18505859375 53.416015625
-18.407958984375 9.4324951171875 73.12255859375
-10.0087890625 8.3936767578125 72.911865234375
29.916748046875 10.8612060546875 30.635498046875
10.24169921875 9.546875 47.897705078125
5.3662109375 8.1180419921875 51.13720703125
40.65478515625 2.520263671875 -16.8037109375
-6.82470703125 7.093017578125 42.6318359375
1.44580078125 9.3521728515625 38.72705078125
-13.203369140625 3.883056640625 65.59521484375
-11.130615234375 4.9017333984375 68.25341796875
24.44580078125 6.341064453125 -6.92529296875
-9.313720703125 5.60205078125 50.87158203125
-17.1435546875 8.4215087890625 82.226806640625
-22.4580078125 2.5428466796875 58.52001953125
-1.278076171875 7.085693359375 48.875732421875
-4.929443359375 4.5621337890625 62.606689453125
-14.975830078125 4.90185546875 46.06396484375
4.98193359375 8.657470703125 5.582763671875
-5.11474609375 6.1470947265625 49.503173828125
-8.006103515625 4.6988525390625 57.6591796875
-22.7294921875 2.3287353515625 52.011474609375
27.45361328125 11.7010498046875 32.99560546875
45.687255859375 4.2366943359375 -16.984375
-19.66552734375 2.0146484375 57.40087890625
-30.920654296875 6.49169921875 77.267333984375
-7.723388671875 5.5147705078125 65.28369140625
-13.37939453125 4.145751953125 58.596435546875
-17.21630859375 6.343505859375 75.7001953125
-20.6328125 2.6207275390625 50.300048828125
-11.109619140625 4.3482666015625 65.098876953125
3.388671875 11.611083984375 27.99609375
-24.841552734375 3.46142578125 61.19287109375
-25.239501953125 4.189208984375 64.310791015625
-18.82373046875 4.6505126953125 67.888427734375
-35.17138671875 7.8934326171875 74.993896484375
3.064208984375 10.655029296875 33.33837890625
-15.2041015625 5.429443359375 71.81103515625
-16.460693359375 2.7852783203125 61.734130859375
-14.420166015625 4.63232421875 69.11474609375
-26.4541015625 3.5439453125 61.584716796875
-33.17041015625 7.846923828125 75.41064453125
-16.41650390625 4.8892822265625 69.4716796875
-19.566162109375 7.4464111328125 77.935302734375
-16.0498046875 3.2808837890625 63.674560546875
-24.447021484375 4.405029296875 65.89794921875
-0.626708984375 10.328857421875 30.46240234375
-23.996826171875 6.7935791015625 74.7998046875
-32.892333984375 6.1319580078125 73.68798828125
12.52587890625 11.62548828125 40.27392578125
-26.154296875 5.2891845703125 74.252197265625
30.51318359375 6.6728515625 0.3359375
-24.961669921875 6.8629150390625 82.057373046875
25.386474609375 9.22509765625 22.09765625
20.437255859375 13.4947509765625 38.120361328125
-27.41064453125 5.357177734375 58.356689453125
-25.76708984375 6.5040283203125 80.50341796875
-14.54052734375 2.89111328125 -25.563232421875
-27.609619140625 8.97607421875 -12.537353515625
37.32275390625 6.9217529296875 0.207275390625
16.3994140625 4.91552734375 -12.0849609375
12.7265625 8.355224609375 10.37109375
23.1904296875 6.1072998046875 -8.152587890625
-27.65771484375 6.67578125 -20.996826171875
47.787353515625 4.64306640625 -22.889404296875
2.13525390625 7.0941162109375 8.646728515625
-5.408447265625 10.9306640625 26.50146484375
7.8759765625 9.57568359375 44.96337890625
46.68212890625 7.023193359375 -0.33349609375
-18.19677734375 7.9012451171875 73.8017578125
47.54296875 8.2757568359375 4.517822265625
12.814208984375 11.168212890625 41.6455078125
47.667724609375 8.114013671875 1.513427734375
1.393310546875 10.4136962890625 32.555419921875
-26.03759765625 8.4920654296875 83.805419921875
16.258056640625 11.927490234375 41.884521484375
5.3955078125 9.29052734375 43.775146484375
-13.8955078125 3.901611328125 61.511474609375
-27.879150390625 4.49072265625 57.304931640625
-11.577880859375 4.2218017578125 66.7529296875
3.1513671875 9.6751708984375 38.64599609375
40.3173828125 6.5428466796875 6.37890625
-24.142578125 6.95947265625 -7.99462890625
45.068603515625 3.6939697265625 -15.47802734375
-3.068359375 8.9403076171875 35.889404296875
7.6513671875 10.26123046875 42.70849609375
-5.97509765625 8.7523193359375 35.522705078125
-0.119873046875 7.6278076171875 3.324951171875
-5.198486328125 9.939697265625 28.879638671875
-12.018310546875 5.4979248046875 45.09228515625
-3.98095703125 10.0206298828125 30.1279296875
-29.245361328125 7.999267578125 81.05419921875
40.507080078125 6.7447509765625 -5.004150390625
48.04150390625 9.0958251953125 6.4521484375
-28.97314453125 6.391845703125 79.708740234375
20.6552734375 16.0552978515625 23.349609375
-25.581298828125 5.1793212890625 66.156494140625
-19.531005859375 5.75048828125 68.902587890625
-15.061279296875 4.4910888671875 47.399658203125
-7.86279296875 5.015380859375 54.300048828125
5.379638671875 8.7593994140625 53.495849609375
47.68212890625 7.277587890625 -2.166015625
15.3427734375 4.3929443359375 -8.848388671875
-16.66552734375 10.06005859375 71.379150390625
-15.5361328125 10.4521484375 -1.744384765625
-1.435302734375 10.1085205078125 28.8212890625
-24.62109375 10.6065673828125 48.559814453125
20.823486328125 11.0074462890625 28.501953125
8.0390625 11.404052734375 36.95458984375
-9.269775390625 6.957275390625 41.41552734375
-12.471435546875 5.5152587890625 46.751220703125
4.85498046875 3.4566650390625 -25.099365234375
24.58251953125 9.1121826171875 20.845947265625
-24.656005859375 6.702392578125 -4.866455078125
4.084228515625 8.08837890625 52.392822265625
15.196533203125 4.8731689453125 -13.811767578125
30.23681640625 6.8017578125 -2.314208984375
-16.617919921875 7.3175048828125 72.68798828125
12.869140625 8.6051025390625 7.70654296875
-25.784912109375 3.4427490234375 -25.62646484375
-27.16015625 3.9833984375 59.046142578125
23.364990234375 5.5960693359375 -4.501220703125
11.761962890625 12.674560546875 31.9619140625
-13.28662109375 5.25732421875 45.565185546875
10.903564453125 7.97265625 12.645263671875
-17.84033203125 3.6632080078125 56.6484375
16.246826171875 11.919189453125 31.704833984375
-20.10107421875 8.8232421875 73.228271484375
19.645751953125 9.3128662109375 19.53173828125
-15.507568359375 8.40625 4.0751953125
-3.239990234375 9.683837890625 31.481201171875
-19.500244140625 7.22509765625 74.325439453125
18.046142578125 11.839599609375 38.51611328125
5.563720703125 4.532470703125 -16.673095703125
13.56689453125 4.4241943359375 -17.157958984375
-2.91943359375 8.05322265625 40.305419921875
-27.924560546875 7.27392578125 -25.607666015625
1.531494140625 10.3819580078125 28.314453125
45.406982421875 4.417724609375 -10.885498046875
32.66552734375 10.3326416015625 23.486328125
19.281982421875 5.70654296875 -7.1171875
38.0615234375 6.7982177734375 -6.7509765625
35.745849609375 2.9112548828125 -18.641845703125
-8.102783203125 8.20556640625 35.24072265625
5.726806640625 10.2353515625 38.50634765625
4.797607421875 9.9818115234375 40.2548828125
-2.947265625 3.0894775390625 -19.610595703125
10.68896484375 11.5538330078125 33.5166015625
36.334228515625 6.449951171875 1.227294921875
-16.404296875 2.624755859375 58.908447265625
43.58544921875 4.55908203125 -7.84765625
5.86083984375 8.357421875 49.83544921875
5.87646484375 12.074462890625 30.427734375
31.01220703125 14.602294921875 31.41748046875
26.435302734375 1.8016357421875 -23.007568359375
44.02001953125 5.40380859375 -4.61865234375
21.948486328125 6.5306396484375 -6.962646484375
-3.1884765625 6.8643798828125 4.438232421875
-6.728271484375 7.5101318359375 41.2802734375
8.024658203125 4.8084716796875 -13.720458984375
20.18798828125 5.6573486328125 -8.857666015625
12.284423828125 5.09423828125 -13.855224609375
-28.43896484375 4.918701171875 66.61181640625
6.857421875 3.5745849609375 -21.637451171875
-0.26025390625 7.7503662109375 45.80908203125
-1.445068359375 7.7103271484375 44.149658203125
44.397216796875 3.510009765625 -11.460693359375
-8.0078125 7.2667236328125 41.758544921875
0.91650390625 6.6304931640625 54.77734375
2.36572265625 10.86083984375 30.31787109375
-3.983642578125 4.24560546875 -21.747802734375
42.88134765625 3.4010009765625 -15.359619140625
-9.399169921875 6.6824951171875 1.946533203125
18.3330078125 12.953125 25.879150390625
-0.094970703125 3.1846923828125 -16.606201171875
-0.99072265625 5.5557861328125 58.30224609375
-13.184326171875 5.6033935546875 43.40673828125
12.645263671875 10.65966796875 43.8681640625
21.623291015625 5.4898681640625 -3.58251953125
14.192138671875 10.583984375 46.403564453125
32.38134765625 5.8992919921875 2.291259765625
-26.504638671875 2.3094482421875 58.161865234375
17.24755859375 8.797607421875 14.528564453125
-19.595947265625 4.2723388671875 48.697998046875
49.224609375 10.2242431640625 4.80810546875
49.2353515625 5.8580322265625 -21.100341796875
5.40771484375 9.1715087890625 7.594970703125
-7.185302734375 7.684814453125 2.062744140625
-22.490234375 5.2799072265625 -14.88525390625
25.59375 1.4266357421875 -24.63134765625
-25.949951171875 7.9627685546875 2.98828125
9.340087890625 9.658203125 50.3828125
-3.906005859375 10.079345703125 27.98876953125
-27.99609375 9.5989990234375 8.9951171875
-5.6484375 7.09375 3.956787109375
-25.410888671875 6.467529296875 -9.569091796875
3.693115234375 3.6370849609375 -15.04443359375
21.1513671875 12.38671875 26.43994140625
15.497802734375 11.57568359375 38.58544921875
0.669921875 10.4688720703125 29.572265625
-21.664306640625 6.7283935546875 78.05322265625
7.257080078125 11.334228515625 35.279052734375
-17.818359375 10.698974609375 71.671630859375
-20.43896484375 3.41748046875 -21.7255859375
43.65087890625 3.92724609375 -19.947998046875
48.779052734375 8.93603515625 -0.05224609375
43.21923828125 3.2989501953125 -22.381103515625
-11.809326171875 6.9525146484375 72.759765625
41.53369140625 2.7659912109375 -24.833251953125
45.724609375 2.9986572265625 -22.748046875
32.341064453125 3.5738525390625 -24.566162109375
40.39013671875 8.1407470703125 -5.435791015625
-18.948486328125 6.560546875 -0.10400390625
-20.184326171875 7.482666015625 3.518798828125
8.55859375 9.26611328125 47.544189453125
48.66015625 6.2340087890625 -16.7919921875
41.08984375 7.732421875 4.28955078125
7.3056640625 5.076171875 -15.992919921875
-31.354248046875 5.91845703125 76.154052734375
44.431640625 4.2218017578125 -17.407470703125
3.733642578125 8.53369140625 4.761962890625
-19.018310546875 2.92138671875 51.878173828125
-4.703125 5.1422119140625 57.977294921875
9.063720703125 10.7171630859375 40.072021484375
-11.921630859375 3.8822021484375 63.149169921875
40.083251953125 6.447265625 -6.220947265625
-25.808837890625 6.0360107421875 -12.47900390625
-27.765625 7.984619140625 10.3134765625
38.627197265625 2.43017578125 -18.95068359375
-15.86328125 11.7489013671875 0.48193359375
25.6328125 3.288818359375 -17.783203125
18.376708984375 15.139892578125 23.5966796875
45.314453125 7.499755859375 3.456787109375
42.759765625 4.950927734375 -6.651611328125
18.600341796875 5.9071044921875 -10.235107421875
13.127685546875 3.3603515625 -21.192626953125
21.4912109375 4.590576171875 -14.219970703125
29.829345703125 4.615966796875 -11.678466796875
3.968505859375 3.9459228515625 -21.732421875
11.0625 4.28515625 -18.40380859375
-28.05419921875 5.3353271484375 69.378662109375
21.934814453125 5.8734130859375 -9.379638671875
11.044189453125 3.4088134765625 -21.62646484375
-27.6416015625 7.4425048828125 -18.177001953125
26.481201171875 3.9923095703125 -14.950927734375
39.8828125 6.9246826171875 -0.249755859375
21.04736328125 3.3077392578125 -19.060302734375
42.33203125 4.434814453125 -8.671875
29.017578125 5.6649169921875 -8.0654296875
9.37939453125 3.53515625 -21.6513671875
34.8125 3.6890869140625 -13.617919921875
-3.1279296875 3.4971923828125 -25.463623046875
36.92578125 5.0645751953125 -7.947021484375
41.563720703125 7.5650634765625 2.594970703125
26.945556640625 6.2611083984375 -6.485107421875
41.476806640625 3.402587890625 -12.712646484375
40.2373046875 3.935546875 -11.1201171875
38.5517578125 3.0760498046875 -14.7705078125
36.466064453125 3.0150146484375 -15.607177734375
34.796630859375 2.92236328125 -16.437744140625
23.139892578125 3.6973876953125 -17.014892578125
34.423828125 5.03515625 -8.7900390625
30.227294921875 3.7080078125 -14.89501953125
22.730712890625 4.0576171875 -15.8125
3.959228515625 3.5078125 -23.34375
15.185791015625 2.1070556640625 -25.18994140625
39.830078125 4.4052734375 -9.514892578125
20.2607421875 5.5616455078125 -11.015869140625
12.2861328125 2.9853515625 -22.81640625
33.6005859375 5.5364990234375 -7.191162109375
41.046875 2.7769775390625 -15.135986328125
17.3037109375 3.70166015625 -18.71337890625
20.228759765625 4.0281982421875 -16.655517578125
29.868408203125 6.47802734375 -4.830322265625
43.201171875 6.124267578125 -2.214111328125
42.3779296875 6.6256103515625 -0.615234375
44.068115234375 7.7041015625 3.8408203125
11.030517578125 2.7515869140625 -24.043701171875
25.24853515625 4.8538818359375 -12.149658203125
16.459716796875 3.2171630859375 -20.739990234375
21.921142578125 5.2161865234375 -11.796630859375
37.319091796875 3.9376220703125 -11.96923828125
31.050537109375 3.2066650390625 -16.493896484375
21.888916015625 3.6827392578125 -17.4365234375
33.970947265625 3.3140869140625 -15.24169921875
21.433837890625 1.8521728515625 -24.290771484375
44.04736328125 6.71826171875 0.21533203125
33.214111328125 6.9920654296875 -1.960693359375
6.45654296875 3.3182373046875 -23.306396484375
25.612060546875 2.302978515625 -21.40869140625
7.698486328125 2.894775390625 -24.496337890625
26.494873046875 4.6495361328125 -12.533935546875
16.903564453125 4.5 -15.899658203125
15.23388671875 4.4073486328125 -16.730224609375
31.926513671875 5.2247314453125 -8.827392578125
27.34814453125 5.572265625 -8.89599609375
47.391845703125 7.2562255859375 -4.783447265625
1.592529296875 9.75 36.1015625
-0.243896484375 3.742431640625 -22.4970703125
-15.597412109375 3.9937744140625 49.991455078125
-0.104248046875 2.748291015625 -18.21142578125
30.162353515625 12.1787109375 30.734619140625
-4.2744140625 2.804443359375 -18.624267578125
1.383544921875 6.88671875 5.26171875
-28.946533203125 5.9862060546875 76.55029296875
-23.31005859375 5.7791748046875 -13.29296875
38.527587890625 3.415771484375 -21.486328125
16.18798828125 3.933837890625 -10.891845703125
-8.246337890625 9.351806640625 31.159423828125
-9.029052734375 7.91455078125 37.4169921875
7.47412109375 8.6209716796875 51.85888671875
-19.16650390625 6.8001708984375 -7.118408203125
3.520751953125 9.6689453125 39.91015625
0.018798828125 2.989990234375 -20.925048828125
2.507568359375 3.634521484375 -17.220458984375
-4.2802734375 7.64599609375 42.498291015625
-27.163818359375 9.252197265625 7.36572265625
40.643798828125 6.60595703125 8.52294921875
-20.45263671875 2.7628173828125 -24.13330078125
-12.09912109375 6.6337890625 -6.25830078125
36.505615234375 5.870849609375 4.00341796875
-19.57958984375 5.4959716796875 -13.237060546875
38.172607421875 7.558349609375 11.2939453125
-20.112060546875 6.4881591796875 79.308837890625
22.810546875 7.522705078125 6.651611328125
-6.7021484375 5.82958984375 -8.23095703125
1.228271484375 7.849853515625 1.51513671875
-8.3671875 5.628173828125 -9.459228515625
-13.826416015625 2.655517578125 -21.976318359375
9.530029296875 7.7659912109375 3.64501953125
2.81103515625 4.1240234375 -11.698974609375
10.34326171875 6.939453125 0.849365234375
40.25439453125 7.83740234375 12.9296875
25.716796875 7.5206298828125 7.49755859375
15.747802734375 7.2939453125 3.738037109375
27.408935546875 9.031005859375 13.5400390625
30.727294921875 8.888427734375 13.99072265625
14.499755859375 7.170166015625 2.917236328125
33.64501953125 9.4317626953125 16.84228515625
11.58203125 6.6268310546875 0.0654296875
3.715576171875 7.6610107421875 1.552490234375
14.907470703125 6.8115234375 1.7197265625
16.17138671875 7.6988525390625 5.34912109375
-0.452392578125 6.884765625 -2.521240234375
14.0693359375 6.43798828125 0.102783203125
38.16357421875 7.1220703125 9.689453125
33.212158203125 8.590576171875 13.626708984375
24.104248046875 9.8282470703125 15.496337890625
36.539794921875 8.88427734375 15.68212890625
-11.738037109375 3.2618408203125 -19.13720703125
33.239501953125 9.8995361328125 18.44091796875
-5.843505859375 7.184814453125 -3.003173828125
-6.251220703125 7.54345703125 -1.8056640625
-3.429443359375 3.505126953125 -15.8037109375
1.134765625 3.377197265625 -14.93310546875
-2.994384765625 4.4554443359375 -12.186767578125
-10.052490234375 4.4449462890625 -14.298095703125
42.74609375 7.8668212890625 13.769287109375
7.446044921875 7.3778076171875 1.608154296875
0.38330078125 7.149169921875 -1.305419921875
15.299072265625 5.6890869140625 -2.285888671875
-19.618408203125 3.6414794921875 -20.05712890625
4.50341796875 5.634521484375 -5.656494140625
7.40283203125 5.30517578125 -6.01416015625
-5.914306640625 3.8031005859375 -15.439697265625
8.30029296875 8.514892578125 6.03369140625
33.177978515625 6.9542236328125 7.609130859375
29.067138671875 8.9051513671875 13.564697265625
36.081787109375 6.843017578125 8.0537109375
18.28515625 9.505126953125 12.601318359375
8.669189453125 6.3016357421875 -1.98388671875
-12.510009765625 6.0518798828125 -9.119873046875
-14.247802734375 2.3597412109375 -23.18603515625
3.66064453125 5.04296875 -8.075927734375
-15.056396484375 3.4044189453125 -19.587890625
12.349609375 3.6185302734375 -10.75390625
-13.38916015625 3.7149658203125 -17.958251953125
-20.852783203125 4.1722412109375 -18.47119140625
-12.54638671875 4.3065185546875 -15.538818359375
4.954345703125 7.3485107421875 0.7685546875
9.9697265625 8.9344482421875 8.064208984375
17.4423828125 8.9134521484375 10.181884765625
-7.4970703125 7.52880859375 -2.2255859375
6.60791015625 7.00439453125 -0.0087890625
20.712890625 6.47998046875 2.207763671875
18.205322265625 5.68701171875 -1.43994140625
-4.64794921875 4.799560546875 -11.409423828125
2.01171875 5.6051025390625 -6.495849609375
-10.432861328125 6.11279296875 -8.28662109375
-6.718017578125 5.06591796875 -11.0390625
-8.751953125 7.0777587890625 -4.25
-19.153564453125 6.0098876953125 -11.22509765625
-0.0927734375 4.2352294921875 -12.1435546875
-17.1015625 4.870849609375 -14.8046875
37.80615234375 9.8807373046875 19.712646484375
11.61865234375 8.3721923828125 6.484375
18.26220703125 8.4141845703125 8.58935546875
31.955078125 8.0303955078125 11.201171875
35.7265625 9.7108154296875 18.47802734375
31.176025390625 10.4932861328125 20.0146484375
28.258544921875 9.949951171875 17.1630859375
34.840576171875 7.0465087890625 8.436279296875
31.549560546875 8.4981689453125 12.799560546875
38.6259765625 9.3814697265625 18.120361328125
-4.583984375 7.85400390625 -0.17626953125
30.713623046875 8.23388671875 11.583740234375
34.419189453125 6.750732421875 7.2265625
30.6748046875 6.37939453125 4.763671875
-11.7265625 3.8072509765625 -17.131103515625
-1.78955078125 2.506591796875 -18.98828125
-22.515380859375 4.0799560546875 -19.29833984375
-7.14404296875 4.552001953125 -13.05126953125
-15.855712890625 4.885498046875 -14.385009765625
-13.329833984375 6.5511474609375 -7.527587890625
-11.65576171875 7.18896484375 -4.694580078125
7.391357421875 4.759765625 -8.02001953125
-0.1064453125 3.5806884765625 -14.550537109375
9.06982421875 5.61572265625 -4.384765625
-15.8330078125 5.9764404296875 -10.373046875
20.341796875 8.5841064453125 9.823974609375
24.878662109375 7.147216796875 5.88037109375
19.956787109375 10.0338134765625 15.033203125
35.298583984375 9.0877685546875 16.06494140625
-24.590087890625 4.128173828125 -19.73046875
2.849853515625 5.978515625 -4.87890625
-17.96484375 3.2974853515625 -20.834716796875
-23.783935546875 2.974365234375 -23.729736328125
5.742431640625 5.3218994140625 -6.440185546875
-20.80712890625 6.35400390625 -10.447509765625
-24.6220703125 2.6009521484375 -25.346923828125
13.290283203125 8.90087890625 8.916259765625
36.986083984375 10.3800048828125 21.304931640625
-11.282470703125 5.19384765625 -11.90966796875
-12.58056640625 2.670166015625 -21.556640625
27.755126953125 5.7269287109375 1.5107421875
5.792724609375 7.721923828125 2.3857421875
27.001220703125 9.3897705078125 14.7373046875
1.196533203125 6.3226318359375 -4.101318359375
9.873779296875 4.352783203125 -8.78515625
-15.41162109375 6.272216796875 -9.163330078125
-6.4912109375 4.2738037109375 59.38720703125
3.68798828125 6.3519287109375 -3.26171875
2.573974609375 7.9215087890625 47.851806640625
-16.68798828125 7.7279052734375 -1.776611328125
1.090576171875 8.330810546875 44.83984375
-30.46630859375 5.8587646484375 71.71484375
16.3291015625 11.946044921875 40.189208984375
-28.01025390625 3.992919921875 61.08740234375
-2.323974609375 3.900390625 -22.5283203125
15.58837890625 8.7054443359375 13.702880859375
32.706298828125 2.64208984375 -18.080322265625
-29.10888671875 6.9249267578125 10.195556640625
-20.385009765625 2.5848388671875 56.465087890625
-12.9765625 6.4056396484375 39.4638671875
47.14892578125 4.937744140625 -17.673095703125
39.432373046875 5.313232421875 -6.29833984375
-25.146728515625 6.8133544921875 -0.995849609375
36.6826171875 6.398193359375 -6.176025390625
-11.040771484375 9.7265625 14.442138671875
10.91357421875 11.65087890625 27.9541015625
12.099609375 9.05810546875 18.783203125
-6.509033203125 8.947265625 12.911865234375
-20.55615234375 9.469482421875 10.704345703125
23.36181640625 13.752685546875 39.326416015625
20.44921875 12.8856201171875 35.287841796875
-10.6484375 8.7174072265625 10.8525390625
-1.498291015625 11.2872314453125 22.974609375
-22.3603515625 2.7091064453125 55.212158203125
20.87109375 13.2889404296875 36.89208984375
4.28125 10.8485107421875 23.06103515625
17.0693359375 9.4425048828125 21.654052734375
10.466552734375 10.0526123046875 21.954833984375
2.595703125 9.34423828125 17.043212890625
5.49462890625 9.5594482421875 18.6845703125
-17.68017578125 8.5982666015625 8.350341796875
-10.684814453125 6.9791259765625 4.4599609375
25.38720703125 11.7491455078125 32.565185546875
18.75927734375 11.1640625 28.470947265625
8.0146484375 11.4356689453125 26.312744140625
0.1416015625 10.6187744140625 21.00146484375
13.34716796875 9.398681640625 20.39990234375
-11.120361328125 5.924072265625 0.458251953125
10.45068359375 9.2921142578125 19.158203125
13.78271484375 10.4537353515625 24.401611328125
13.3359375 8.85546875 18.40234375
-23.06494140625 8.1365966796875 5.07373046875
-8.59130859375 8.23486328125 9.684814453125
16.29150390625 11.7867431640625 30.0322265625
10.833984375 7.848388671875 13.97021484375
16.663330078125 9.7998046875 22.8466796875
-8.15576171875 9.2899169921875 13.686279296875
0.15966796875 11.48779296875 24.19775390625
-3.619140625 8.7279052734375 12.955078125
-9.022216796875 7.3970947265625 6.482177734375
0.431640625 7.44482421875 48.377685546875
-21.393310546875 8.989013671875 8.6943359375
-0.312255859375 8.6944580078125 13.8037109375
-12.701171875 9.4173583984375 12.8193359375
-7.7177734375 10.45361328125 18.08740234375
11.317138671875 11.1849365234375 26.3623046875
21.25439453125 11.84521484375 31.704345703125
25.759033203125 9.76220703125 25.379638671875
24.116943359375 10.3221435546875 26.953125
-13.549560546875 8.3935546875 8.8115234375
-21.034912109375 6.3502197265625 -0.888427734375
-13.100341796875 10.1004638671875 15.21044921875
0.10986328125 9.0977783203125 15.407958984375
-5.67431640625 9.3192138671875 14.5224609375
10.89306640625 10.673095703125 24.3583984375
-6.944580078125 7.8922119140625 8.910400390625
-21.874267578125 5.7611083984375 -3.298095703125
19.206298828125 12.7623291015625 34.47021484375
1.80419921875 11.03662109375 23.02392578125
7.173095703125 10.73779296875 23.503662109375
-6.10302734375 8.5899658203125 11.719482421875
-18.526123046875 7.6832275390625 4.7421875
10.43701171875 8.6402587890625 16.760986328125
-5.268310546875 8.9619140625 13.330078125
-23.50048828125 7.08154296875 1.072265625
16.627197265625 8.0615234375 16.453857421875
3.44189453125 10.2593994140625 20.6513671875
-9.40087890625 9.0579833984375 12.46923828125
-12.744384765625 7.3531494140625 5.22802734375
46.63232421875 4.8460693359375 -16.313720703125
17.103515625 11.0721435546875 27.647216796875
21.245361328125 11.41064453125 30.106201171875
8.030517578125 12.1961669921875 29.109619140625
2.997314453125 8.769775390625 15.0517578125
-1.927001953125 10.55810546875 20.171630859375
14.1865234375 9.98779296875 22.8095703125
0.9287109375 8.7091064453125 14.2216796875
-18.512451171875 8.3350830078125 7.139404296875
-20.17529296875 7.917236328125 5.116943359375
8.39794921875 9.991943359375 21.125
28.657958984375 9.9774169921875 27.02099609375
-0.745361328125 7.748046875 10.20166015625
-7.37548828125 7.054443359375 5.7080078125
14.122802734375 6.9459228515625 11.62255859375
-1.580078125 7.376220703125 8.591064453125
-13.120849609375 9.122802734375 11.614501953125
18.777587890625 12.033203125 31.667236328125
13.798828125 11.2142333984375 27.1982421875
18.7685546875 11.5986328125 30.069091796875
15.45458984375 11.30615234375 28.02197265625
-24.718505859375 8.1533203125 4.649658203125
-12.354248046875 6.2353515625 1.239013671875
20.856689453125 13.7891845703125 39.32470703125
-27.625 9.4395751953125 -9.62109375
-10.849853515625 6.8812255859375 38.926513671875
18.22802734375 12.461181640625 36.671875
32.96142578125 10.024169921875 24.850830078125
3.933349609375 8.7164306640625 47.673828125
-3.98583984375 7.478271484375 45.460693359375
46.66552734375 7.7490234375 2.9375
-16.19189453125 4.78125 45.263916015625
47.052001953125 6.4232177734375 -9.785400390625
4.34619140625 10.9697265625 33.68115234375
-10.849365234375 2.8143310546875 -22.941162109375
-7.54931640625 6.011962890625 48.2919921875
34.447998046875 2.088623046875 -21.431884765625
11.748779296875 11.6640625 38.99853515625
-22.02392578125 7.363525390625 79.157470703125
-30.911865234375 6.911376953125 78.810546875
10.614013671875 10.5335693359375 42.218017578125
