47.25390625 3.00048828125 -13.8935546875
5.5478515625 7.951416015625 34.90283203125
36.772216796875 3.273681640625 -15.96240234375
-27.416015625 5.28564453125 -18.81689453125
40.255126953125 5.2872314453125 -7.01171875
36.894775390625 3.9940185546875 -2.6640625
-11.552490234375 1.9415283203125 50.953125
-8.76123046875 6.677734375 10.32080078125
-21.29541015625 4.0574951171875 70.307373046875
45.0185546875 0.7894287109375 -23.245849609375
41.65380859375 2.5465087890625 -14.085205078125
-2.669677734375 -0.131591796875 -30.722900390625
22.52392578125 9.7615966796875 18.919677734375
4.051025390625 6.9925537109375 19.876708984375
-1.6669921875 8.44580078125 23.869140625
-18.458984375 2.5692138671875 -19.01904296875
21.515380859375 1.010009765625 -29.424072265625
26.99365234375 1.3211669921875 -26.560546875
40.69970703125 -1.1610107421875 -32.199462890625
41.7060546875 1.5565185546875 -21.226318359375
23.542236328125 -0.177490234375 -33.4794921875
28.6025390625 0.1651611328125 -30.61767578125
-7.754638671875 4.8140869140625 38.697509765625
18.86474609375 11.1192626953125 22.506103515625
16.087646484375 2.0426025390625 -25.687255859375
-6.831298828125 -0.288330078125 -34.53515625
10.9658203125 3.9918212890625 -10.444091796875
2.066650390625 2.0870361328125 -20.5908203125
-0.8662109375 1.9991455078125 -21.815185546875
11.68505859375 2.0828857421875 -17.724365234375
19.3291015625 3.9793701171875 -7.986572265625
-16.34423828125 1.9300537109375 -26.725830078125
-5.74853515625 4.2220458984375 -14.5498046875
32.385009765625 5.467529296875 1.7705078125
-0.500244140625 1.1473388671875 -25.05078125
13.400634765625 2.77783203125 -14.4814453125
26.0966796875 5.2205810546875 -1.084228515625
35.31787109375 5.5555419921875 2.994873046875
43.69384765625 5.748046875 6.261474609375
42.419677734375 5.4320068359375 4.638671875
32.322021484375 4.44189453125 -2.275634765625
22.609130859375 2.90771484375 -11.211669921875
-28.0390625 8.9942626953125 -2.491455078125
39.4365234375 4.5235595703125 0.17724609375
37.8154296875 5.3670654296875 3.003662109375
9.641357421875 2.8553466796875 -15.303955078125
15.9990234375 4.23046875 -7.99853515625
-23.29736328125 -1.7352294921875 50.57763671875
10.60595703125 8.690673828125 36.7861328125
-18.970703125 6.9493408203125 70.224853515625
27.229736328125 8.114501953125 20.966796875
-18.79931640625 4.608154296875 -6.59765625
18.819091796875 6.7991943359375 13.28076171875
32.2421875 8.3521728515625 23.40234375
2.475341796875 5.1585693359375 1.93994140625
-16.82666015625 2.817626953125 -13.037841796875
-5.099609375 3.8828125 -5.33984375
25.025146484375 6.1258544921875 12.4970703125
20.496337890625 6.98046875 14.49560546875
17.17333984375 7.1285400390625 14.080810546875
1.39453125 7.9080810546875 12.41259765625
-23.00146484375 4.0015869140625 -10.2392578125
-13.81201171875 4.437255859375 -5.77392578125
-0.772216796875 6.5322265625 6.36083984375
-25.50146484375 3.98486328125 -11.053955078125
-20.112060546875 3.578369140625 -11.03466796875
5.440185546875 5.9610595703125 5.97998046875
8.13427734375 9.1441650390625 19.28662109375
-18.531494140625 1.8909912109375 55.969482421875
5.789794921875 8.2921142578125 25.5009765625
17.07470703125 9.6893310546875 34.36962890625
-8.94384765625 1.333984375 62.10693359375
2.88134765625 8.61328125 27.167236328125
3.571044921875 4.877197265625 49.7939453125
19.205078125 9.8583984375 17.656982421875
7.13916015625 7.8310546875 37.43798828125
45.674560546875 3.9500732421875 -0.205078125
-1.590576171875 5.308837890625 43.1103515625
8.59326171875 7.315185546875 43.408447265625
-8.824951171875 5.591796875 33.930908203125
24.8408203125 6.088134765625 3.892822265625
1.87353515625 5.2183837890625 -32.61083984375
18.369140625 12.6722412109375 18.697509765625
-6.343994140625 7.880126953125 25.345947265625
-27.712646484375 6.9022216796875 -15.814453125
-10.610107421875 2.654296875 47.912109375
-14.215576171875 6.735107421875 13.390625
-17.282958984375 1.430419921875 49.059326171875
48.989013671875 7.1697998046875 -2.907958984375
38.411865234375 8.54931640625 -9.241943359375
18.55322265625 4.9652099609375 -4.347900390625
-24.9501953125 3.890625 70.366455078125
9.67431640625 8.3519287109375 38.978271484375
-9.616943359375 1.7613525390625 56.309814453125
-11.188720703125 7.3203125 10.191650390625
41.128173828125 2.6407470703125 -10.611328125
-24.658203125 1.827392578125 60.54248046875
-29.845947265625 2.7154541015625 62.474365234375
-12.106201171875 2.6690673828125 67.609375
-14.8369140625 4.16650390625 72.67138671875
-8.560546875 -0.7176513671875 -34.7900390625
24.752685546875 1.3966064453125 -21.70849609375
-21.49609375 0.5909423828125 55.4267578125
-22.94140625 4.3428955078125 76.35595703125
46.873779296875 3.64990234375 -11.457275390625
40.74951171875 7.53662109375 -8.55029296875
-29.493408203125 2.865478515625 72.19189453125
11.2841796875 8.3822021484375 41.47607421875
-20.632080078125 1.7225341796875 61.337158203125
10.30712890625 7.74365234375 43.71875
-17.118408203125 6.3897705078125 9.246337890625
20.2109375 4.9951171875 -3.084228515625
28.96826171875 1.8013916015625 -18.855224609375
-20.592529296875 0.84228515625 48.802978515625
2.861083984375 5.43017578125 48.03125
18.9443359375 0.1693115234375 -33.49609375
35.480224609375 2.7503662109375 -18.404541015625
24.517333984375 2.025146484375 -24.5380859375
40.75634765625 -0.234130859375 -28.542724609375
32.326904296875 -0.7364501953125 -33.0419921875
15.399658203125 0.2503662109375 -26.4072265625
11.86328125 1.1171875 -31.896240234375
30.700927734375 5.2855224609375 0.55078125
23.0947265625 4.0045166015625 -6.75927734375
9.2880859375 3.912353515625 -11.25927734375
5.037109375 2.7904052734375 -16.93896484375
29.62939453125 1.450927734375 -14.827880859375
23.64306640625 6.1268310546875 1.7392578125
9.325927734375 4.5277099609375 -8.83154296875
40.294189453125 4.87109375 1.798828125
-7.154541015625 1.752197265625 -24.669921875
-9.98046875 3.4078369140625 -19.015625
19.714111328125 3.4351806640625 -10.00830078125
22.470703125 0.6512451171875 -20.11328125
-15.978271484375 1.078125 -29.961181640625
23.81396484375 2.0955810546875 -14.03955078125
-0.27392578125 4.8394775390625 -10.484130859375
-35.594482421875 7.21337890625 72.362060546875
27.78076171875 5.4027099609375 0.1357421875
7.16259765625 3.351318359375 -14.09912109375
30.2060546875 5.9407958984375 6.865966796875
4.215087890625 6.361328125 7.1845703125
17.437744140625 4.6458740234375 4.4111328125
26.004638671875 8.5147705078125 22.171142578125
18.3232421875 5.5025634765625 8.040771484375
-23.290771484375 6.07568359375 -2.181396484375
24.50927734375 11.29541015625 32.642333984375
21.2626953125 5.8966064453125 10.468994140625
-4.522216796875 6.5072021484375 5.138671875
12.506591796875 5.7359619140625 7.214111328125
20.77294921875 4.7021484375 5.6318359375
-12.851318359375 6.5196533203125 2.691162109375
30.213134765625 9.2235107421875 26.215576171875
26.915283203125 9.780029296875 27.41259765625
15.82958984375 5.5880126953125 7.62890625
15.321044921875 4.087158203125 1.5830078125
-1.682861328125 5.2669677734375 1.119384765625
17.3662109375 9.763427734375 39.847900390625
37.01416015625 5.4801025390625 -10.503662109375
-19.55322265625 5.8963623046875 -1.76513671875
-4.008056640625 3.553955078125 50.96630859375
5.340576171875 8.7845458984375 30.489501953125
-1.862548828125 4.28857421875 50.799072265625
-27.452392578125 4.6168212890625 -22.105224609375
-4.336181640625 5.76220703125 38.449951171875
11.595947265625 0.3878173828125 -25.05712890625
-6.93115234375 2.977783203125 50.285400390625
-15.501953125 8.7183837890625 -0.466796875
-14.084716796875 5.9921875 -3.6201171875
-14.56298828125 1.55517578125 60.08203125
23.47607421875 1.079833984375 -23.334716796875
-29.79736328125 3.506591796875 65.595703125
19.793701171875 5.284423828125 -1.42431640625
-4.627197265625 4.388671875 45.418212890625
47.87841796875 1.5994873046875 -27.08935546875
9.31689453125 7.058349609375 46.380126953125
-17.795166015625 6.47607421875 -4.125
-26.635009765625 3.083251953125 69.701416015625
3.38134765625 5.8409423828125 45.444091796875
1.69287109375 5.61669921875 45.92626953125
12.374267578125 7.8919677734375 44.9208984375
45.943115234375 2.168212890625 -17.5546875
13.959716796875 1.0625 -31.482421875
31.642333984375 1.7982177734375 -23.293701171875
38.596923828125 -1.2093505859375 -33.01953125
41.567138671875 -0.7091064453125 -30.1650390625
39.4833984375 -0.448486328125 -29.76611328125
35.721435546875 -0.164794921875 -29.779541015625
21.12890625 1.5565185546875 -27.39404296875
26.18310546875 1.796142578125 -24.938232421875
43.466552734375 2.872314453125 -15.5322265625
32.37744140625 0.08740234375 -29.79150390625
-1.60888671875 3.578125 54.238037109375
-0.283203125 5.6612548828125 41.768310546875
13.356689453125 2.0599365234375 -17.313720703125
-25.0986328125 2.38427734375 -27.566162109375
24.621337890625 1.62255859375 -15.655029296875
21.75146484375 2.5601806640625 -12.8330078125
32.870361328125 6.5643310546875 6.222900390625
39.808837890625 3.7742919921875 -2.653564453125
-5.11083984375 0.9798583984375 -27.090087890625
18.263916015625 0.247314453125 -22.960693359375
9.52197265625 0.9066162109375 -22.991943359375
27.389404296875 5.8443603515625 1.752685546875
-20.07177734375 2.520263671875 -25.525146484375
29.38916015625 4.35400390625 -3.5
-19.80029296875 0.1300048828125 -34.830078125
17.879150390625 0.79150390625 -20.93896484375
40.848876953125 7.0960693359375 10.7021484375
-8.321533203125 3.1796875 -19.414306640625
-13.947021484375 0.1007080078125 -33.19091796875
-27.659423828125 1.5469970703125 -31.621337890625
-10.37158203125 3.8494873046875 -17.3984375
-2.077392578125 2.708740234375 -19.391845703125
-4.202880859375 2.1478271484375 -22.231689453125
-5.49560546875 1.5240478515625 -25.068603515625
3.416015625 3.6339111328125 -14.112548828125
12.271240234375 4.8206787109375 -6.7978515625
-1.76806640625 0.933837890625 -26.26904296875
15.633056640625 5.0823974609375 -4.762939453125
3.27783203125 1.3775634765625 -23.01416015625
43.63720703125 4.8250732421875 2.619873046875
-9.0849609375 4.37060546875 -14.96630859375
-7.053955078125 3.3931884765625 -18.19580078125
-3.736328125 2.9368896484375 -18.9931640625
-8.428466796875 1.4361572265625 -26.292724609375
4.583251953125 2.2064208984375 -19.3681640625
-21.63623046875 5.0767822265625 74.20751953125
-26.247802734375 1.7362060546875 56.080078125
-32.5703125 4.106689453125 64.703857421875
-10.014404296875 1.58837890625 54.294677734375
-9.260986328125 6.3614501953125 13.408447265625
-3.46044921875 2.4876708984375 58.572509765625
-16.560302734375 3.534912109375 41.582275390625
11.777587890625 7.432861328125 13.658447265625
11.43212890625 8.587646484375 18.089599609375
18.70654296875 4.9605712890625 6.02734375
-4.384521484375 8.7542724609375 14.003662109375
-1.570068359375 7.10546875 8.37255859375
21.64599609375 5.3546142578125 8.45556640625
21.16259765625 4.2623291015625 4.021484375
-6.17431640625 6.734375 5.53564453125
13.479736328125 8.022705078125 16.485107421875
0.8798828125 6.3050537109375 5.963623046875
15.389892578125 5.210693359375 6.015625
-25.715576171875 7.28466796875 1.83935546875
4.786376953125 8.883544921875 17.260009765625
20.383544921875 5.1419677734375 7.2421875
17.2109375 7.7413330078125 16.49853515625
22.425048828125 4.4749755859375 5.23486328125
6.577392578125 4.130859375 -0.865966796875
-1.463623046875 8.8419189453125 15.222900390625
28.45458984375 7.7142333984375 19.76220703125
14.767333984375 8.6439208984375 19.310302734375
29.1708984375 5.813232421875 12.511962890625
5.804443359375 5.1126708984375 2.7578125
-4.65380859375 4.3623046875 -3.32373046875
12.1171875 6.1759033203125 8.824462890625
-14.503173828125 6.7469482421875 3.088134765625
-8.341552734375 2.7618408203125 60.62060546875
2.091552734375 3.8956298828125 -8.9443359375
-7.63671875 2.9425048828125 -11.08154296875
-14.27685546875 2.5301513671875 46.32568359375
-15.379150390625 7.1768798828125 10.297119140625
-27.48876953125 3.947509765625 -25.39501953125
-23.93798828125 0.3302001953125 54.275146484375
7.822998046875 7.6278076171875 23.501708984375
-4.170166015625 8.3790283203125 23.49560546875
4.576171875 8.79248046875 27.101806640625
-25.79931640625 3.666259765625 72.842529296875
-5.307861328125 3.2586669921875 53.101806640625
-4.72265625 7.65625 26.224609375
-21.7421875 4.504150390625 79.150390625
5.808349609375 7.3726806640625 38.39501953125
-25.98193359375 4.1685791015625 51.091064453125
-18.64892578125 7.0595703125 3.073486328125
-17.99609375 3.2008056640625 -17.04638671875
-26.77734375 0.3031005859375 55.128662109375
48.110595703125 1.6915283203125 -21.398681640625
21.7197265625 0.9083251953125 -21.929443359375
40.065673828125 2.9229736328125 -15.043701171875
11.365234375 8.5301513671875 38.919189453125
-19.344482421875 1.498046875 52.360107421875
-2.6494140625 6.1395263671875 39.185546875
-17.080810546875 5.7664794921875 71.622314453125
-11.583740234375 2.4049072265625 57.03076171875
-15.29296875 3.3067626953125 69.158447265625
-16.1943359375 1.280517578125 58.51416015625
29.09228515625 6.3341064453125 4.186279296875
41.64306640625 0.5267333984375 -25.289306640625
5.954345703125 0.631591796875 -35.57373046875
29.14697265625 2.193359375 -22.489990234375
27.468505859375 2.2164306640625 -22.90234375
21.48388671875 0.4951171875 -31.45556640625
30.718017578125 0.41943359375 -28.98486328125
-0.25244140625 2.1343994140625 -31.533203125
37.507080078125 1.5628662109375 -22.460205078125
38.38720703125 2.220703125 -19.613037109375
26.9306640625 0.291259765625 -30.62353515625
18.13916015625 1.0074462890625 -29.79150390625
-23.841796875 2.1669921875 63.32763671875
-16.218505859375 6.0460205078125 69.939697265625
-15.603271484375 4.8204345703125 75.00927734375
14.821044921875 1.4114990234375 -29.854248046875
28.077392578125 3.422607421875 -7.55078125
32.177490234375 2.0830078125 -11.58203125
23.170166015625 5.2352294921875 -1.90380859375
8.524658203125 5.103271484375 -6.811279296875
26.28662109375 1.4969482421875 -15.649169921875
-9.595703125 2.8636474609375 -21.037109375
-15.6123046875 0.226318359375 -33.19677734375
-3.206787109375 4.7515869140625 -11.70849609375
21.442138671875 4.335205078125 -5.9560546875
17.6767578125 4.31005859375 -7.183349609375
29.767822265625 3.707275390625 -5.92626953125
30.487060546875 1.79833984375 -13.20654296875
1.15234375 0.8165283203125 -25.85400390625
26.065185546875 4.707763671875 -3.107177734375
32.24658203125 3.211181640625 -7.131103515625
46.4755859375 3.37451171875 -2.22509765625
-18.5009765625 0.8563232421875 -31.588623046875
33.987060546875 4.31640625 -2.269775390625
12.821044921875 4.0704345703125 0.76806640625
-16.834716796875 2.6014404296875 56.228759765625
-15.228759765625 2.380615234375 55.8427734375
-26.990478515625 3.3974609375 67.2158203125
-28.600830078125 2.6025390625 56.352294921875
33.008544921875 7.2681884765625 19.37548828125
26.627197265625 5.08154296875 8.876220703125
11.65234375 5.3900146484375 5.599365234375
26.34423828125 7.2578125 17.337158203125
23.12158203125 9.0400390625 23.36962890625
26.123779296875 10.4554443359375 29.827392578125
3.25439453125 4.2789306640625 -1.28076171875
9.071044921875 4.04541015625 -0.4541015625
2.368896484375 3.422119140625 -4.910400390625
30.0751953125 6.976318359375 17.350341796875
23.486083984375 8.191650390625 20.1474609375
-2.75732421875 8.1185302734375 11.994873046875
-1.10546875 7.891357421875 11.597900390625
-2.42431640625 6.7593994140625 6.7578125
-20.916015625 4.049560546875 -9.42578125
-21.3994140625 2.957275390625 -13.85986328125
15.43994140625 6.02783203125 9.2392578125
-11.87451171875 4.57080078125 37.130126953125
-24.712646484375 0.9373779296875 57.031005859375
-20.54736328125 3.10693359375 66.799072265625
-16.462890625 4.1923828125 73.4921875
18.763671875 10.1751708984375 36.783447265625
-3.78759765625 7.6859130859375 20.25
5.345703125 7.814697265625 23.492919921875
-12.576416015625 6.4071044921875 12.593994140625
-2.111083984375 7.96826171875 21.861083984375
14.316650390625 9.0208740234375 40.463623046875
-31.84423828125 3.783447265625 74.49267578125
13.33447265625 9.8173828125 34.39013671875
47.9140625 1.3875732421875 -29.22900390625
-27.719482421875 7.1646728515625 -11.529541015625
-17.646728515625 1.6497802734375 47.3701171875
-23.044189453125 1.75341796875 60.131591796875
-28.23779296875 2.8480224609375 65.286865234375
-13.652099609375 1.814697265625 54.701416015625
18.7138671875 -0.0494384765625 -25.9404296875
-31.830322265625 3.6220703125 69.658935546875
1.983642578125 3.3565673828125 -29.341796875
2.866943359375 0.679931640625 -28.47705078125
-27.887451171875 1.77294921875 59.360595703125
-15.002685546875 5.140625 -4.657470703125
6.26953125 3.7337646484375 -8.974853515625
15.682373046875 1.7603759765625 -28.22607421875
2.381103515625 6.8211669921875 40.235107421875
-1.49658203125 7.56689453125 31.28173828125
34.775634765625 3.53564453125 -5.09912109375
13.967041015625 1.685546875 -27.72509765625
-8.322998046875 2.0010986328125 53.375732421875
-16.304443359375 2.3790283203125 43.896728515625
-10.536865234375 1.95458984375 65.2744140625
-19.874267578125 0.615478515625 55.40478515625
-26.596923828125 3.0150146484375 64.02099609375
-1.402099609375 0.0819091796875 -29.504638671875
-29.504638671875 2.6170654296875 70.61328125
6.25390625 7.5928955078125 18.41455078125
-18.46142578125 2.9871826171875 -14.79541015625
20.0126953125 12.391845703125 18.74169921875
-11.59912109375 6.5572509765625 33.752197265625
17.439208984375 3.6163330078125 -2.209716796875
-2.41650390625 4.5404052734375 -10.354736328125
-25.2958984375 5.3134765625 79.461669921875
-16.40771484375 7.80029296875 67.608642578125
6.2138671875 8.8726806640625 29.1845703125
-2.479248046875 3.3482666015625 55.526611328125
-22.64794921875 8.5596923828125 45.197265625
-22.16357421875 3.1004638671875 -19.983642578125
5.510009765625 3.6820068359375 -13.295654296875
-18.86572265625 4.8746337890625 77.861328125
21.49560546875 11.186767578125 19.01513671875
2.4658203125 7.01611328125 37.253173828125
-20.0400390625 4.9078369140625 74.626220703125
-2.121826171875 4.75048828125 45.730712890625
42.193359375 1.73974609375 -9.927978515625
-14.16259765625 9.1842041015625 -2.7919921875
-5.149658203125 3.065673828125 -8.563720703125
-27.12353515625 3.4642333984375 -23.93212890625
-13.3359375 6.61328125 8.6962890625
-35.2685546875 6.097900390625 70.50390625
-22.221923828125 4.6190185546875 45.994140625
-19.184326171875 4.4307861328125 65.746826171875
-19.32080078125 1.1326904296875 46.66943359375
36.287841796875 6.3126220703125 -9.423095703125
-16.551513671875 2.507568359375 65.64306640625
-19.509521484375 6.6114501953125 1.0556640625
-28.7568359375 0.74560546875 55.066162109375
-4.750244140625 -0.1314697265625 -31.995361328125
-3.922607421875 -0.453857421875 -33.6630859375
6.45751953125 8.23974609375 33.137451171875
8.294677734375 0.217041015625 -29.318359375
2.2490234375 -0.7490234375 -28.430419921875
-31.232666015625 6.3458251953125 75.7109375
-16.157958984375 7.5408935546875 8.92626953125
1.024658203125 7.885498046875 32.02099609375
0.76318359375 4.2093505859375 -2.945068359375
15.381103515625 0.46142578125 -24.283447265625
-1.866943359375 -0.8642578125 -34.008544921875
-29.083251953125 3.1351318359375 74.571044921875
-8.075439453125 5.1854248046875 35.68994140625
0.399658203125 5.3134765625 46.835205078125
19.129638671875 0.1787109375 -24.27001953125
48.556396484375 2.9014892578125 -15.2021484375
1.326416015625 4.17236328125 -33.577392578125
-25.332275390625 4.721435546875 77.1259765625
26.87744140625 5.8316650390625 4.792236328125
-21.71484375 3.1094970703125 -23.054443359375
16.024169921875 4.6407470703125 -6.3798828125
-26.669921875 5.3043212890625 -6.222900390625
-24.08740234375 7.1141357421875 4.873779296875
-4.552978515625 8.0499267578125 18.891845703125
7.0791015625 6.2186279296875 48.65869140625
-17.72900390625 4.0489501953125 76.763916015625
-0.434814453125 6.7275390625 35.25048828125
1.793212890625 1.255859375 -34.369873046875
7.263427734375 8.747802734375 18.113037109375
-24.25537109375 3.838134765625 -11.9013671875
-4.493896484375 7.4805908203125 10.900146484375
40.521484375 2.783935546875 -16.761474609375
28.260498046875 1.4324951171875 -25.743408203125
26.436767578125 -0.9130859375 -35.500732421875
43.416015625 2.04833984375 -18.782470703125
24.87841796875 1.0667724609375 -28.193115234375
37.007080078125 0.2554931640625 -27.74365234375
40.059326171875 2.0946044921875 -19.607177734375
23.162109375 0.471923828125 -31.043212890625
46.177978515625 -0.8499755859375 -29.3359375
34.524169921875 0.856689453125 -26.12744140625
30.274658203125 0.0390625 -30.611572265625
41.072265625 4.9151611328125 -8.227783203125
33.18798828125 -0.3875732421875 -31.413818359375
22.687255859375 -0.42333984375 -34.701416015625
28.9638671875 -0.793212890625 -34.272705078125
42.605224609375 2.5234375 -17.160400390625
36.240478515625 1.451416015625 -23.27734375
29.4765625 0.719970703125 -28.1767578125
31.984619140625 0.5308837890625 -28.167724609375
45.499755859375 1.7877197265625 -19.181396484375
31.61083984375 1.2833251953125 -25.3251953125
31.2685546875 2.5506591796875 -20.451171875
46.658935546875 0.1484375 -25.271484375
6.809326171875 0.8775634765625 -34.35205078125
29.501708984375 1.1319580078125 -26.551513671875
47.184326171875 1.86767578125 -18.36279296875
20.185546875 -0.1312255859375 -34.30419921875
20.21728515625 0.3836669921875 -32.272705078125
42.498046875 0.7725830078125 -24.0673828125
38.66650390625 -0.0765380859375 -28.55029296875
44.326904296875 3.5836181640625 -11.826171875
-2.099853515625 7.609375 18.536865234375
-0.00146484375 0.7320556640625 -32.389892578125
-20.223876953125 6.546142578125 69.485107421875
-8.893310546875 3.142822265625 -9.3828125
-17.835205078125 7.2056884765625 6.464599609375
-13.9189453125 4.6241455078125 36.7265625
-2.135986328125 7.5614013671875 20.255859375
-12.4453125 1.420654296875 52.299072265625
-3.275634765625 6.8900146484375 33.146240234375
-20.0732421875 4.263427734375 71.482177734375
9.076904296875 0.009033203125 -27.94921875
5.689208984375 3.0167236328125 -6.15185546875
11.56982421875 3.8048095703125 -1.294189453125
-4.12109375 3.4810791015625 -16.9716796875
-3.919921875 7.5960693359375 27.49951171875
37.02685546875 6.1478271484375 5.833251953125
10.80859375 1.4278564453125 -20.5595703125
-8.390869140625 2.051513671875 -23.864990234375
12.164306640625 3.0771484375 -13.676513671875
-20.942138671875 1.9676513671875 -27.9560546875
17.531982421875 1.9510498046875 -16.48974609375
-3.060791015625 0.31005859375 -29.10595703125
-16.306396484375 2.54541015625 -24.298095703125
42.4638671875 6.1500244140625 7.470947265625
22.2431640625 3.759521484375 -7.97607421875
9.610107421875 2.342529296875 -17.3271484375
27.6044921875 2.5308837890625 -11.19384765625
23.138671875 4.722412109375 -3.927001953125
26.456298828125 4.26611328125 -4.724365234375
14.37158203125 4.971435546875 -5.57666015625
41.50537109375 4.1614990234375 -0.62451171875
-13.48046875 0.8897705078125 -29.952392578125
-8.037353515625 0.9945068359375 -27.909912109375
-17.605712890625 1.819091796875 -27.53955078125
-1.439697265625 -0.533447265625 -31.932373046875
6.702392578125 2.664794921875 -16.932861328125
2.091796875 2.497314453125 -18.972412109375
45.781494140625 5.6937255859375 6.673583984375
40.798583984375 6.2755126953125 7.465087890625
42.375732421875 4.714111328125 1.80615234375
37.001708984375 5.737548828125 4.214599609375
15.2607421875 5.8316650390625 -1.93212890625
6.57666015625 0.613525390625 -25.025390625
-14.641357421875 2.4197998046875 -24.2919921875
2.53955078125 2.978759765625 -16.94775390625
-14.5595703125 3.753173828125 -19.031982421875
0.395263671875 2.110107421875 -21.00146484375
-11.86572265625 -0.0562744140625 -33.183349609375
-20.614013671875 0.50048828125 -33.619140625
-11.777587890625 1.3795166015625 -27.5185546875
31.060546875 4.3310546875 -3.08935546875
20.590576171875 4.0902099609375 -7.1728515625
31.993896484375 5.9091796875 3.387451171875
-23.900146484375 1.469482421875 -30.798828125
-23.43994140625 2.1561279296875 -27.96484375
1.372314453125 4.40625 -11.692138671875
-2.575439453125 1.4068603515625 -24.653564453125
-1.616943359375 3.395263671875 -16.55810546875
-10.150390625 0.638671875 -29.9404296875
16.78125 3.34716796875 -11.232421875
33.457763671875 2.5015869140625 -9.554443359375
26.008544921875 3.78466796875 -6.748779296875
31.634033203125 6.8636474609375 7.027587890625
32.271728515625 3.6214599609375 -5.5126953125
23.611572265625 5.614013671875 -0.28369140625
31.085693359375 4.7412109375 -1.470947265625
20.5654296875 3.6800537109375 -8.791259765625
-19.7373046875 1.1556396484375 -30.783935546875
-2.39306640625 4.381103515625 -12.91943359375
-22.55078125 3.016357421875 -24.3203125
5.27734375 -0.11279296875 -28.266845703125
-19.3525390625 0.611328125 -32.805419921875
14.693359375 3.401611328125 -11.64453125
10.492919921875 3.1002197265625 -14.087158203125
-18.047119140625 1.4403076171875 -29.159423828125
30.978759765625 2.9976806640625 -8.349609375
-19.25830078125 2.1497802734375 -26.736083984375
7.427978515625 0.8585205078125 -23.80859375
16.2705078125 1.8402099609375 -17.30322265625
45.624267578125 3.129638671875 -3.44189453125
28.8408203125 2.2315673828125 -11.99853515625
-25.2119140625 0.5380859375 -34.849365234375
7.9072265625 1.8526611328125 -19.7607421875
10.833740234375 1.8380126953125 -18.941162109375
7.0556640625 1.6077880859375 -20.977783203125
26.343017578125 2.4200439453125 -12.007568359375
-10.597900390625 0.1572265625 -31.965087890625
10.871337890625 2.453369140625 -16.513427734375
38.629150390625 4.9967041015625 1.79296875
7.60400390625 3.730224609375 -12.47900390625
-0.305419921875 4.32666015625 -12.50732421875
-6.6689453125 2.8489990234375 -20.217529296875
25.529296875 2.7904052734375 -10.796630859375
2.73046875 2.840576171875 -27.865966796875
1.164794921875 8.4359130859375 28.505859375
-5.28662109375 7.0401611328125 30.60791015625
-17.712158203125 7.5999755859375 -0.98095703125
17.347900390625 1.53125 -28.62646484375
-15.33056640625 6.9638671875 4.335693359375
-22.541259765625 3.65771484375 69.5712890625
12.203125 0.7877197265625 -30.4716796875
-21.088623046875 0.4561767578125 53.810546875
-22.118408203125 4.0740966796875 71.935791015625
0.3388671875 6.670654296875 37.775146484375
7.845703125 9.1058349609375 32.502197265625
-26.63232421875 5.917236328125 -3.80517578125
8.517578125 8.6021728515625 17.2734375
-7.041015625 6.18408203125 3.11474609375
18.3544921875 6.0133056640625 10.0556640625
-3.29736328125 6.1070556640625 3.93408203125
-12.474365234375 5.8756103515625 0.27490234375
30.814208984375 5.124755859375 9.65673828125
23.87548828125 7.7518310546875 18.537109375
-15.5078125 3.949462890625 -8.19775390625
11.45703125 8.9962158203125 19.701416015625
28.52978515625 8.93994140625 24.597900390625
-4.974365234375 5.9256591796875 2.71923828125
1.608642578125 4.6082763671875 -0.480712890625
28.083740234375 8.4605712890625 22.58154296875
-11.701416015625 4.893798828125 -3.348876953125
-10.834716796875 5.444091796875 -0.92822265625
20.8857421875 6.5406494140625 12.88525390625
14.108642578125 4.691650390625 3.59326171875
18.134033203125 9.2109375 22.5458984375
34.21484375 6.5615234375 16.962158203125
29.202392578125 6.3238525390625 14.526611328125
3.3671875 6.117431640625 5.97265625
6.652587890625 5.3565673828125 3.9697265625
-20.357421875 6.3675537109375 -0.15625
-9.98681640625 5.68798828125 0.28369140625
-9.08251953125 6.8511962890625 5.122314453125
34.264892578125 7.378662109375 20.18603515625
26.7900390625 7.7371826171875 19.353271484375
1.67138671875 5.629638671875 3.548828125
-13.322265625 5.6317138671875 -0.93701171875
14.15869140625 5.5087890625 6.817138671875
8.461181640625 7.6829833984375 13.646728515625
13.448486328125 7.511962890625 14.470458984375
-20.413818359375 5.4482421875 -3.782958984375
11.338134765625 7.0555419921875 12.045166015625
-14.659912109375 4.193359375 -6.98583984375
11.58984375 4.3685302734375 1.569580078125
-26.921630859375 7.9913330078125 4.252685546875
-4.99951171875 5.51708984375 1.107421875
-13.605224609375 7.8079833984375 7.523681640625
8.197998046875 3.39306640625 -3.27783203125
25.53369140625 7.626708984375 18.54296875
-15.570556640625 2.9281005859375 -12.227294921875
10.583984375 8.34375 16.8779296875
21.290771484375 9.8040771484375 18.068603515625
3.3037109375 3.4453125 -9.702392578125
-7.536865234375 4.8875732421875 -2.125244140625
13.0087890625 7.134765625 12.857177734375
5.704345703125 3.478515625 -3.689697265625
13.379638671875 6.388427734375 10.037841796875
20.314697265625 4.0184326171875 2.8095703125
20.527587890625 7.4912109375 16.510498046875
3.32958984375 5.504638671875 3.554931640625
8.410888671875 6.8658447265625 10.423095703125
-2.580810546875 4.2059326171875 -3.316162109375
-25.45751953125 4.6998291015625 -8.2333984375
27.50634765625 5.836181640625 12.10302734375
-10.55810546875 3.165771484375 -9.791748046875
-1.651611328125 5.7777099609375 3.134033203125
23.592529296875 9.927978515625 26.997802734375
0.283447265625 3.374267578125 -5.7236328125
-9.4658203125 7.39306640625 7.135498046875
28.819091796875 6.8658447265625 16.5400390625
11.31298828125 6.64697265625 10.433349609375
-17.392822265625 7.1700439453125 3.8837890625
-10.3701171875 6.22998046875 2.297119140625
0.125732421875 7.59326171875 10.79638671875
-12.3740234375 7.5098876953125 6.72216796875
10.396240234375 5.279541015625 4.788818359375
-21.818115234375 2.1099853515625 62.503173828125
-8.778564453125 3.597412109375 42.30517578125
-21.619384765625 6.36181640625 0.73046875
-2.158447265625 6.5556640625 37.831787109375
-7.9130859375 5.973876953125 31.308349609375
-27.729248046875 6.8543701171875 -14.052490234375
-0.84326171875 8.536865234375 25.1123046875
-20.446044921875 6.3857421875 8.873291015625
1.204345703125 7.922607421875 22.675537109375
17.512451171875 10.0650634765625 35.976318359375
22.42333984375 8.9793701171875 33.184814453125
19.958740234375 9.36962890625 33.978759765625
2.48681640625 8.541259765625 25.489013671875
11.638671875 8.9752197265625 29.93603515625
6.596923828125 7.9246826171875 24.300048828125
-6.345947265625 6.5504150390625 15.02392578125
0.33740234375 7.119140625 18.62158203125
-0.015380859375 8.3211669921875 23.875
9.906005859375 7.77734375 24.713134765625
7.453857421875 8.37109375 26.3095703125
18.30078125 9.3924560546875 33.571533203125
9.5244140625 8.317138671875 26.71826171875
12.483154296875 9.218017578125 31.142822265625
4.0947265625 7.70458984375 22.685791015625
-21.79638671875 2.8775634765625 -16.87060546875
6.57177734375 7.517822265625 22.694580078125
-12.1884765625 5.9691162109375 10.990234375
39.001708984375 9.1353759765625 -10.743408203125
13.262451171875 9.615966796875 36.128662109375
-5.880859375 2.9722900390625 60.968017578125
-26.623291015625 3.8878173828125 77.665771484375
-22.078369140625 6.0047607421875 45.294677734375
-24.25244140625 1.693359375 58.9296875
-5.067138671875 4.37451171875 47.087890625
-7.28857421875 7.0872802734375 26.394775390625
-18.949462890625 2.5341796875 63.21630859375
-2.7421875 7.4573974609375 30.47802734375
29.609130859375 2.8826904296875 -19.64453125
-23.433349609375 0.8094482421875 48.4306640625
8.857177734375 8.26123046875 37.744384765625
-13.761962890625 3.12890625 43.295166015625
-4.65869140625 6.1876220703125 36.2646484375
3.60400390625 8.302490234375 30.62255859375
5.72216796875 7.024658203125 40.150390625
-0.135009765625 4.755859375 49.44482421875
-4.856201171875 5.1497802734375 40.260986328125
-19.45166015625 1.0330810546875 57.77587890625
-5.6279296875 3.5244140625 49.749755859375
-3.091796875 4.180419921875 50.005859375
-22.26611328125 1.0941162109375 56.5673828125
-8.912353515625 3.070068359375 46.981201171875
-5.474853515625 2.337158203125 56.15869140625
3.052734375 4.6126708984375 -31.990966796875
-18.453369140625 7.9056396484375 69.247314453125
-19.30615234375 4.363525390625 76.32421875
-16.6123046875 1.5186767578125 61.741455078125
37.138916015625 6.818359375 -6.525146484375
-17.298583984375 1.638916015625 52.310302734375
-19.768310546875 1.0792236328125 49.98046875
-15.537841796875 4.5543212890625 67.32470703125
-10.474609375 3.4317626953125 44.853271484375
-30.143310546875 3.814453125 60.648681640625
-18.728271484375 5.4942626953125 71.27294921875
-21.270751953125 4.855224609375 75.85986328125
-12.47119140625 3.292724609375 69.948974609375
-15.6640625 3.83154296875 71.10791015625
-24.166259765625 3.53369140625 69.19970703125
11.476318359375 5.4989013671875 -4.373291015625
40.799560546875 3.748779296875 -7.01025390625
-22.122314453125 4.5784912109375 77.52685546875
-12.154541015625 1.8779296875 64.48828125
-30.58203125 4.5255126953125 75.984619140625
-24.154541015625 3.98388671875 72.7783203125
-15.295654296875 6.9068603515625 0.900146484375
-27.8408203125 3.6827392578125 76.49560546875
-24.807861328125 -0.6973876953125 49.9794921875
-0.883544921875 0.9627685546875 -28.490478515625
0.923583984375 4.494384765625 -9.5341796875
-21.873046875 0.150634765625 48.1337890625
47.2294921875 1.032958984375 -24.248779296875
-20.77001953125 5.150390625 69.310546875
9.977783203125 9.406005859375 32.40673828125
7.534423828125 0.5767822265625 -30.74072265625
-20.5537109375 4.2164306640625 78.376708984375
-14.146728515625 3.9307861328125 -16.91259765625
1.94384765625 8.223876953125 29.81591796875
-1.73974609375 8.348876953125 27.29345703125
-22.318115234375 0.151123046875 52.244140625
3.947265625 7.9705810546875 31.962646484375
-10.075439453125 6.1654052734375 10.476318359375
21.74658203125 13.0374755859375 21.14404296875
1.369873046875 4.3990478515625 54.05029296875
24.381591796875 10.3773193359375 31.572265625
13.3017578125 8.3814697265625 43.971435546875
-14.407958984375 3.8282470703125 67.843505859375
5.8173828125 0.14013671875 -32.317626953125
-1.636474609375 6.9189453125 34.382080078125
0.8134765625 6.9378662109375 36.4501953125
18.5234375 1.2413330078125 -26.79638671875
-17.533447265625 3.4683837890625 -18.44677734375
5.468017578125 7.7030029296875 37.06591796875
48.0517578125 1.127197265625 -22.9765625
32.31396484375 2.0146484375 -16.36328125
-18.3544921875 2.3367919921875 44.344482421875
-14.282958984375 8.265869140625 -1.228515625
49.28955078125 6.005615234375 -6.07470703125
38.887451171875 3.528076171875 -14.32958984375
-17.359375 1.9134521484375 60.04541015625
-14.369140625 2.0504150390625 49.314697265625
-7.39111328125 4.6898193359375 40.807861328125
-4.62353515625 8.2601318359375 24.806640625
38.168701171875 7.41845703125 -8.46826171875
-14.58740234375 8.9581298828125 -4.45947265625
-22.845703125 2.586181640625 47.654541015625
-31.408935546875 3.5286865234375 65.19970703125
24.99609375 0.614013671875 -20.152587890625
3.3681640625 1.41064453125 -27.410888671875
12.0283203125 -0.1141357421875 -28.849365234375
-13.82763671875 6.297119140625 11.786865234375
-19.97119140625 4.7890625 66.917724609375
-27.82470703125 3.3712158203125 70.475830078125
-7.2548828125 -0.045654296875 -32.4091796875
48.35498046875 6.0743408203125 -3.458984375
-7.27587890625 1.7498779296875 62.425048828125
3.6064453125 2.813232421875 -8.219482421875
21.0400390625 8.2235107421875 17.60595703125
-15.919921875 8.2333984375 -5.097412109375
41.1025390625 2.953369140625 -8.089599609375
19.3271484375 0.6639404296875 -28.82275390625
14.942626953125 9.7449951171875 36.501953125
41.787353515625 3.620361328125 -11.7890625
8.97509765625 8.610595703125 34.712890625
24.38916015625 6.1221923828125 5.1875
10.98486328125 9.030029296875 22.26611328125
10.722412109375 9.194091796875 34.984619140625
-27.3974609375 6.2728271484375 -9.094970703125
9.711181640625 8.613525390625 20.2490234375
-20.167724609375 2.2410888671875 -18.881591796875
9.511962890625 3.7529296875 -3.404296875
-6.735107421875 2.0875244140625 56.62890625
1.793212890625 7.7259521484375 34.157958984375
-5.6259765625 5.3055419921875 38.14599609375
-27.500244140625 1.2900390625 55.767822265625
-27.987548828125 9.03857421875 -9.465087890625
7.470458984375 9.0843505859375 30.392333984375
-10.401611328125 5.960205078125 31.766357421875
7.276611328125 8.3306884765625 34.374267578125
-8.642822265625 7.536865234375 9.234130859375
-9.823974609375 4.617919921875 37.929931640625
-1.349609375 3.9078369140625 -4.11767578125
1.230712890625 8.73779296875 27.161376953125
10.577392578125 4.94970703125 -5.501220703125
-3.228271484375 7.2305908203125 8.36669921875
13.59619140625 9.2822265625 37.464599609375
13.3798828125 8.681884765625 42.649169921875
9.981689453125 4.38427734375 -1.4296875
29.994873046875 5.0323486328125 8.40380859375
5.2705078125 8.4827880859375 31.82958984375
-28.874755859375 8.798583984375 -5.4599609375
-15.00732421875 3.271728515625 -21.056640625
7.810546875 3.420166015625 -4.576171875
24.487548828125 2.133056640625 -22.814697265625
10.81396484375 8.1185302734375 23.76708984375
3.118896484375 4.7626953125 51.0654296875
-3.399658203125 7.2479248046875 18.646240234375
47.36474609375 4.2347412109375 1.41943359375
-5.378173828125 6.5418701171875 32.40966796875
-6.76123046875 4.004150390625 47.5966796875
-5.138916015625 -0.160400390625 -34.176025390625
-28.4697265625 8.509765625 -7.123046875
4.766845703125 8.0614013671875 33.19970703125
37.8935546875 4.535888671875 -4.13916015625
-16.146728515625 10.2646484375 -3.0625
-22.69580078125 0.577392578125 53.804931640625
13.472900390625 0.2215576171875 -34.27587890625
17.86767578125 9.544677734375 18.613525390625
-23.4033203125 3.638916015625 75.2548828125
-17.484619140625 6.721435546875 7.87744140625
-15.269775390625 7.830810546875 7.11474609375
11.838134765625 0.7052001953125 -33.521484375
-8.248291015625 6.45263671875 29.9384765625
24.73779296875 8.814208984375 24.254638671875
39.82470703125 5.4747314453125 -5.749755859375
-29.3193359375 3.5396728515625 54.953125
14.11328125 0.5072021484375 -23.833984375
-27.4560546875 5.7696533203125 -7.21044921875
-6.211181640625 4.158447265625 -12.343505859375
-20.166748046875 2.4271240234375 62.43115234375
15.299560546875 9.56298828125 37.804931640625
16.744873046875 0.91796875 -25.33642578125
0.72265625 -0.3466796875 -33.8017578125
38.532958984375 2.0125732421875 -12.553955078125
-14.2763671875 3.1322021484375 -13.616943359375
0.1083984375 5.73388671875 43.4189453125
2.927978515625 5.725341796875 46.722900390625
5.3759765625 5.79345703125 48.34619140625
40.647705078125 9.1134033203125 -9.0087890625
29.168701171875 4.8377685546875 6.7470703125
-16.634521484375 7.2725830078125 11.578125
-18.86865234375 7.5357666015625 66.445556640625
10.31689453125 0.2283935546875 -25.416748046875
13.088134765625 8.9613037109375 39.227294921875
-4.80908203125 7.2568359375 28.437744140625
-29.432373046875 3.342041015625 69.27783203125
5.80517578125 3.6175537109375 -7.629638671875
-0.198486328125 4.462646484375 50.74658203125
22.489990234375 12.048583984375 18.7890625
7.370849609375 3.042724609375 -6.190185546875
-3.5732421875 5.5052490234375 40.169677734375
-19.766357421875 2.423583984375 -15.4658203125
-16.4140625 2.630859375 -14.29150390625
17.861083984375 10.035400390625 38.516845703125
-17.802490234375 6.513916015625 70.693359375
-9.22412109375 6.51025390625 12.085693359375
-6.87451171875 3.2686767578125 48.9873046875
-13.6572265625 3.660888671875 39.854248046875
46.800048828125 0.49462890625 -27.1474609375
-1.41455078125 4.4027099609375 49.529052734375
-16.909912109375 1.258544921875 50.32421875
-4.067626953125 3.2626953125 52.262451171875
-21.7978515625 2.1524658203125 60.86376953125
-13.7119140625 3.420654296875 41.987060546875
-24.567138671875 3.310791015625 66.39453125
48.589111328125 7.5111083984375 -1.6875
0.059326171875 3.699462890625 53.371826171875
-12.45458984375 7.16015625 9.824951171875
47.19970703125 0.1536865234375 -28.366455078125
49.168701171875 5.2366943359375 -7.160400390625
-17.505126953125 3.4600830078125 -21.0654296875
16.21142578125 9.9053955078125 36.874267578125
-20.62060546875 2.07763671875 -17.08056640625
8.9013671875 8.3094482421875 36.046875
30.8251953125 2.1702880859375 -22.077880859375
44.537353515625 -0.2088623046875 -27.310302734375
39.57177734375 0.9932861328125 -24.077880859375
37.798828125 -0.5284423828125 -30.584716796875
14.35888671875 0.7220458984375 -32.699951171875
31.06005859375 -0.847900390625 -33.85888671875
38.7548828125 1.365234375 -22.862060546875
15.17578125 0.35009765625 -33.915771484375
44.6259765625 1.23291015625 -21.622314453125
26.138916015625 1.0751953125 -27.782470703125
24.802734375 -0.1690673828125 -33.06884765625
32.009765625 0.9427490234375 -26.542724609375
30.369384765625 1.5838623046875 -24.51708984375
44.987060546875 0.2745361328125 -25.27734375
37.34912109375 -1.0118408203125 -32.61767578125
35.284423828125 -0.4422607421875 -31.0
37.108154296875 1.9033203125 -21.24267578125
42.004150390625 -0.4317626953125 -28.944580078125
29.03955078125 0.442626953125 -29.397216796875
33.257568359375 0.7452392578125 -26.9443359375
46.74755859375 1.5902099609375 -19.583251953125
22.725341796875 0.194580078125 -32.263671875
6.920654296875 7.086669921875 42.63818359375
42.105224609375 1.216064453125 -22.44384765625
40.300537109375 -0.820556640625 -30.98193359375
42.15576171875 2.0399169921875 -19.193359375
33.345947265625 2.18701171875 -21.256103515625
44.745849609375 3.189697265625 -13.902587890625
44.9111328125 -0.9613037109375 -30.153076171875
41.96630859375 -1.0496826171875 -31.38232421875
16.82275390625 -0.18798828125 -35.534912109375
27.861328125 1.77294921875 -24.526123046875
45.5439453125 2.5086669921875 -16.33740234375
29.001708984375 -0.17529296875 -31.8349609375
42.25048828125 3.5848388671875 -13.098876953125
33.73876953125 1.7435302734375 -22.8798828125
18.969482421875 0.581298828125 -31.870849609375
22.76318359375 0.8125 -29.825927734375
36.62060546875 0.802001953125 -25.713623046875
34.82861328125 -1.0286865234375 -33.439208984375
43.669921875 -0.6607666015625 -29.344970703125
24.840576171875 0.4488525390625 -30.631103515625
10.5966796875 1.0057373046875 -32.71337890625
27.36767578125 0.5687255859375 -29.403076171875
-18.134033203125 2.1156005859375 58.7900390625
-11.30029296875 6.924072265625 15.00634765625
-28.147705078125 6.2060546875 -22.5966796875
-7.59130859375 3.765380859375 46.410400390625
28.850830078125 1.45458984375 -16.99609375
-27.79931640625 5.042236328125 -27.062255859375
-27.70751953125 6.691650390625 -19.250244140625
-0.38720703125 0.7037353515625 -34.5751953125
-6.262451171875 6.2049560546875 33.33935546875
-3.401123046875 8.27001953125 26.486328125
-25.68603515625 7.847412109375 4.70166015625
-15.302734375 3.7613525390625 73.95556640625
35.217041015625 3.91455078125 -3.479248046875
-20.354736328125 6.9351806640625 5.28955078125
12.8515625 0.3961181640625 -24.647705078125
8.91845703125 1.0289306640625 -33.12548828125
26.734130859375 1.9783935546875 -13.62451171875
-5.047607421875 6.2158203125 35.003173828125
32.428955078125 6.185546875 4.60302734375
-7.12939453125 2.1624755859375 -23.05126953125
-7.345947265625 6.94091796875 28.968994140625
19.638671875 2.204345703125 -14.86376953125
23.71337890625 0.45458984375 -20.513671875
28.89111328125 3.0521240234375 -8.761474609375
31.00390625 3.407958984375 -6.73095703125
8.083251953125 4.7244873046875 -8.431396484375
42.703857421875 3.246826171875 -3.85693359375
43.56787109375 3.6968994140625 -1.830810546875
1.278076171875 2.8677978515625 -17.761474609375
-4.505859375 4.0252685546875 -14.949951171875
-5.577392578125 0.190673828125 -30.32861328125
-2.960205078125 1.9510498046875 -22.6318359375
-3.912353515625 0.065185546875 -30.32275390625
-21.314453125 2.717041015625 -25.125
43.498779296875 2.568603515625 -6.28173828125
8.4052734375 3.1546630859375 -14.499267578125
46.159912109375 5.046875 4.247314453125
22.703369140625 4.446044921875 -5.142333984375
4.476318359375 0.462890625 -26.246826171875
20.874755859375 1.905029296875 -15.66845703125
-8.36572265625 2.461669921875 -22.24658203125
-9.80322265625 -0.52099609375 -34.389892578125
34.03125 5.0343017578125 0.562744140625
23.24560546875 6.4659423828125 2.95166015625
40.60986328125 3.19873046875 -4.673583984375
32.64404296875 2.8720703125 -8.343505859375
13.97412109375 5.310546875 -4.3642578125
-16.375732421875 1.417236328125 -28.748779296875
-10.453369140625 2.51611328125 -22.65869140625
-4.890625 4.5694580078125 -12.92822265625
-17.649658203125 1.1011962890625 -30.371826171875
-21.887939453125 0.184326171875 -35.2421875
8.63916015625 0.14892578125 -26.23193359375
-22.575927734375 2.6060791015625 -25.938720703125
-9.110107421875 3.96044921875 -16.584716796875
-5.79248046875 3.504150390625 -17.382080078125
23.341064453125 1.203857421875 -17.6826171875
10.783447265625 1.017578125 -22.17822265625
17.00244140625 0.1363525390625 -23.7744140625
9.91943359375 0.5675048828125 -24.204345703125
-15.10791015625 1.6307373046875 -27.530517578125
-14.344482421875 0.4398193359375 -31.978515625
-17.9716796875 2.6710205078125 -24.303955078125
30.11474609375 2.5477294921875 -10.375732421875
-0.75927734375 3.74267578125 -14.9365234375
12.959228515625 2.3990478515625 -16.101318359375
5.970458984375 4.36865234375 -10.4619140625
44.02197265625 4.2808837890625 0.598388671875
34.062744140625 5.547119140625 2.585693359375
39.070556640625 5.37548828125 3.412841796875
12.220947265625 4.000244140625 -10.034912109375
-11.405517578125 0.6302490234375 -30.349609375
14.65576171875 2.7862548828125 -14.072265625
-10.850830078125 2.855224609375 -21.4462890625
19.998291015625 1.2498779296875 -18.50390625
46.551025390625 4.605224609375 2.63037109375
20.212158203125 4.737060546875 -4.74658203125
-21.843994140625 0.90234375 -32.409912109375
-15.580810546875 0.739013671875 -31.173583984375
-1.679931640625 2.36962890625 -20.604248046875
46.910888671875 3.6507568359375 -1.009765625
-6.384765625 0.6636962890625 -28.713134765625
31.7421875 1.8067626953125 -12.79736328125
14.737548828125 4.1195068359375 -8.812255859375
23.41650390625 2.4345703125 -12.8271484375
-23.83740234375 2.4951171875 -26.75244140625
-7.02880859375 3.803466796875 -16.577392578125
2.842529296875 1.1011962890625 -24.2294921875
-12.484375 3.49365234375 -19.42919921875
-20.544677734375 1.628662109375 -29.16845703125
24.79736328125 4.4942626953125 -4.32568359375
28.38671875 1.6475830078125 -14.427734375
4.98046875 1.8673095703125 -20.58056640625
13.72265625 1.2080078125 -20.54931640625
16.207763671875 0.8145751953125 -21.349609375
32.51708984375 7.621337890625 10.267578125
29.82421875 4.63037109375 -2.28466796875
21.90234375 5.021728515625 -3.1220703125
7.364990234375 -0.1671142578125 -27.854736328125
-17.27099609375 0.454345703125 -32.798095703125
-22.20361328125 1.8568115234375 -28.769775390625
-25.5966796875 1.082275390625 -32.827880859375
-12.522216796875 2.8782958984375 -21.85693359375
-11.329833984375 1.8609619140625 -25.493896484375
27.837158203125 6.32568359375 3.77734375
-27.6416015625 8.6551513671875 -3.703857421875
-14.199951171875 2.7987060546875 -22.672119140625
3.0185546875 3.9730224609375 -12.900146484375
-2.014404296875 3.734375 -15.345703125
11.3505859375 3.4476318359375 -12.465576171875
3.328125 2.197998046875 -19.777099609375
0.836669921875 2.489013671875 -19.381591796875
-16.74169921875 2.2691650390625 -25.513427734375
-14.798583984375 -0.1441650390625 -34.40771484375
-25.042236328125 3.3072509765625 -23.924560546875
13.07861328125 4.34765625 -8.41357421875
4.532958984375 1.3858642578125 -22.605224609375
20.8056640625 0.77685546875 -20.119384765625
2.154541015625 3.52294921875 -14.92626953125
24.85400390625 5.4173583984375 -0.68408203125
41.0703125 3.88525390625 -1.83984375
42.89892578125 6.42626953125 8.686279296875
25.724365234375 5.9698486328125 1.746826171875
28.9541015625 4.0777587890625 -4.71533203125
-25.975341796875 1.7291259765625 -30.401611328125
31.29443359375 1.3253173828125 -14.822021484375
17.21630859375 3.62353515625 -10.01708984375
20.439697265625 1.6287841796875 -16.8837890625
44.898681640625 4.9359130859375 3.43359375
0.502197265625 3.8536376953125 -14.122802734375
-18.76025390625 3.4517822265625 -21.474609375
47.837646484375 5.12646484375 5.0625
