-8.5234375 -3.6917724609375 -12.265869140625
-36.076416015625 -6.6607666015625 55.98388671875
19.1171875 -6.679443359375 -28.652099609375
-22.330322265625 -3.68603515625 37.93310546875
36.808837890625 -4.6314697265625 -13.06591796875
8.6796875 0.9759521484375 13.257080078125
0.190673828125 1.41064453125 35.192138671875
-18.9873046875 -5.687744140625 64.794677734375
-45.18798828125 -1.4549560546875 71.53125
-25.136962890625 0.2896728515625 9.89111328125
26.316650390625 0.2381591796875 16.546875
-35.309326171875 5.5762939453125 44.694091796875
-5.94482421875 -0.154541015625 3.312744140625
5.637939453125 -3.93310546875 -19.91357421875
-13.802001953125 -4.0679931640625 -27.466552734375
-24.439453125 -3.601806640625 -17.61962890625
-22.498779296875 -6.3160400390625 51.31689453125
-18.473876953125 -0.8388671875 -1.838623046875
29.396240234375 -1.6087646484375 -1.738037109375
23.7822265625 -4.607666015625 -16.1796875
3.090576171875 -3.3275146484375 -6.578369140625
-12.0087890625 -0.7283935546875 31.251953125
29.0341796875 -7.17236328125 -36.757080078125
32.005615234375 -4.9908447265625 -25.166015625
-31.531005859375 -4.705810546875 67.08251953125
18.574951171875 -1.45703125 6.740234375
2.275634765625 1.1680908203125 23.392578125
9.632080078125 -7.6710205078125 -36.91015625
10.63330078125 2.7833251953125 38.874755859375
-28.66162109375 -11.2879638671875 42.89892578125
-18.552734375 -6.0184326171875 -37.2548828125
42.149169921875 0.2281494140625 -3.618408203125
-12.61669921875 -3.0306396484375 43.440673828125
-34.64208984375 4.0015869140625 3.609130859375
1.760009765625 -0.359130859375 45.5625
9.111572265625 -1.69384765625 2.3544921875
-14.856201171875 -0.8564453125 8.8427734375
12.437255859375 4.908935546875 22.10107421875
-3.865966796875 -4.069091796875 -23.896484375
-2.344970703125 -0.31396484375 12.68994140625
29.329345703125 -2.13671875 7.794189453125
15.142578125 -4.8145751953125 -20.145263671875
-13.727783203125 -5.7567138671875 56.78955078125
40.918212890625 -3.6312255859375 -21.5361328125
-30.443603515625 -2.2646484375 45.80419921875
-40.23779296875 -4.35986328125 64.016845703125
-22.767822265625 -3.5396728515625 73.699462890625
4.34326171875 -5.963623046875 -28.7900390625
-18.41796875 -2.4747314453125 -10.784912109375
-26.49365234375 -6.5047607421875 59.39404296875
8.271484375 2.2904052734375 30.1982421875
10.821044921875 -2.5267333984375 -12.223876953125
19.922607421875 -6.5269775390625 -37.3623046875
25.455078125 2.335205078125 24.922607421875
-36.92431640625 -2.4395751953125 73.84619140625
32.144775390625 1.9150390625 -9.9453125
-15.83544921875 -4.611572265625 -18.706787109375
-32.627685546875 -2.588134765625 -15.636474609375
-27.277587890625 -1.45166015625 1.90869140625
-4.8466796875 -0.050537109375 -32.896728515625
-10.344482421875 -6.284912109375 -35.405029296875
17.283203125 0.573974609375 14.687744140625
-10.675537109375 -1.590087890625 -4.33544921875
-35.510986328125 13.6197509765625 43.134033203125
-21.85693359375 -5.6373291015625 -25.121826171875
-34.478759765625 -9.4407958984375 48.456787109375
-0.234375 -3.951904296875 -14.019775390625
-5.09375 1.9166259765625 26.73681640625
-24.006103515625 3.9373779296875 -5.371337890625
-30.03076171875 -4.5615234375 -23.6064453125
-25.961669921875 1.06103515625 67.469482421875
25.0771484375 -2.7806396484375 -8.146240234375
-6.65283203125 -0.67626953125 39.091796875
1.36865234375 -1.2611083984375 1.360595703125
22.017578125 -3.4619140625 -0.3251953125
26.4296875 -5.3236083984375 -30.036865234375
-25.731201171875 -1.672119140625 -10.091552734375
35.4453125 -3.12255859375 -5.831787109375
12.119384765625 -6.0928955078125 -26.52734375
31.126953125 -5.5155029296875 -17.29736328125
33.63037109375 -1.1724853515625 13.335693359375
3.948486328125 0.1483154296875 8.126708984375
-34.007568359375 3.18408203125 76.84326171875
-18.935546875 -1.10400390625 32.1904296875
35.876220703125 -1.52978515625 0.919921875
-18.2841796875 0.837158203125 14.62451171875
34.23974609375 -6.3731689453125 -31.57373046875
-3.720703125 0.7520751953125 19.511962890625
-12.54541015625 -4.45166015625 50.158935546875
19.432861328125 2.1201171875 21.86474609375
24.215576171875 -6.474853515625 -23.757080078125
-4.222412109375 -2.828857421875 -7.14404296875
-20.817626953125 -1.0469970703125 4.458984375
9.54296875 -3.4515380859375 -4.77099609375
-29.6591796875 -6.266357421875 51.699951171875
-14.736572265625 0.32470703125 25.323486328125
-19.1357421875 -4.2698974609375 43.6630859375
-20.200439453125 -7.0357666015625 57.406005859375
-7.640869140625 -5.119384765625 -18.592529296875
-8.85986328125 -0.5413818359375 12.305419921875
17.30126953125 -3.16015625 -12.515869140625
3.13330078125 -0.41552734375 17.1416015625
-25.033203125 -5.48681640625 -37.38427734375
-12.45703125 -0.2188720703125 2.89404296875
14.26904296875 0.9912109375 26.97509765625
-5.300048828125 -1.8995361328125 45.833984375
-15.343017578125 -2.2545166015625 37.222900390625
-30.74365234375 -3.7783203125 73.25390625
-7.321533203125 -5.006591796875 -29.02294921875
12.1220703125 -0.5223388671875 8.289794921875
-20.802001953125 -5.3358154296875 -31.55615234375
4.73681640625 1.2523193359375 40.4765625
-24.4306640625 -4.77490234375 67.98486328125
8.272705078125 0.5751953125 23.094482421875
-1.089111328125 -4.6004638671875 -31.007568359375
24.166748046875 -0.902587890625 11.04833984375
30.69384765625 -3.8519287109375 -10.562744140625
-25.56982421875 -5.02587890625 43.789794921875
-33.6318359375 -0.51123046875 -0.110107421875
13.416259765625 -7.623779296875 -32.40185546875
16.425048828125 -2.5977783203125 1.24169921875
38.14404296875 -5.671630859375 -27.26318359375
24.167724609375 -2.3211669921875 5.17333984375
3.50439453125 -7.2562255859375 -35.1826171875
0.989501953125 2.7869873046875 29.635009765625
-28.125244140625 -18.9085693359375 43.181640625
-5.48291015625 0.4859619140625 33.625244140625
-31.94580078125 -6.1407470703125 60.990234375
14.696044921875 2.873046875 34.92333984375
40.74462890625 -1.79736328125 -10.28076171875
-14.451904296875 -3.2607421875 62.726318359375
5.562744140625 -3.0008544921875 -13.86962890625
-33.76318359375 0.540771484375 -11.14404296875
35.742919921875 -5.1103515625 -20.6083984375
-37.01318359375 -4.913330078125 68.340576171875
-1.21337890625 0.065185546875 5.92529296875
-11.7431640625 -3.843505859375 -22.115478515625
-27.03857421875 -0.2105712890625 -3.777587890625
-3.36279296875 -1.6834716796875 -2.091064453125
40.883056640625 -2.568359375 -16.4013671875
-9.469482421875 0.3824462890625 7.189208984375
-21.860107421875 -0.9764404296875 -5.81787109375
0.021728515625 -3.5740966796875 -20.447265625
12.411376953125 3.5234375 17.088623046875
-32.720458984375 14.75146484375 38.506103515625
-17.396484375 -5.74072265625 52.0859375
6.285400390625 1.837646484375 35.556396484375
40.970458984375 -0.0672607421875 1.419921875
-31.13330078125 -0.328125 5.1748046875
-1.45068359375 -0.0845947265625 39.856689453125
8.701904296875 -0.670654296875 18.088623046875
-34.558349609375 -4.7877197265625 50.549072265625
34.050048828125 -0.4578857421875 6.912841796875
-23.514404296875 1.2413330078125 -0.153076171875
-34.111083984375 3.5 -3.427978515625
-15.961181640625 -5.213623046875 -32.988525390625
-14.97705078125 -1.8450927734375 -6.939208984375
-13.255126953125 -3.8101806640625 -14.458740234375
-29.658447265625 -7.44580078125 46.815185546875
-25.931396484375 -5.036865234375 77.24951171875
-13.572021484375 0.14794921875 13.465087890625
-8.903076171875 1.854736328125 23.6630859375
9.95751953125 -3.5751953125 -16.877197265625
0.886474609375 -4.7642822265625 -25.06591796875
19.894775390625 -5.4080810546875 -20.893310546875
7.41796875 -4.125244140625 -9.056884765625
-29.171142578125 -3.517578125 -18.97314453125
15.12255859375 -6.29931640625 -37.403076171875
-27.71240234375 -4.9111328125 64.188232421875
-1.965576171875 -1.7025146484375 49.258544921875
-20.425048828125 -0.2987060546875 9.1494140625
23.8271484375 -6.234130859375 -34.74462890625
31.52392578125 -0.831298828125 2.984375
-9.329833984375 -4.55517578125 55.7470703125
5.6708984375 -2.5260009765625 -2.330322265625
-19.70751953125 -3.68603515625 -16.26611328125
7.36669921875 -5.0924072265625 -24.093505859375
-31.084716796875 -6.9722900390625 56.4892578125
21.584716796875 0.6263427734375 16.452392578125
-41.09423828125 -3.1378173828125 70.13623046875
9.095703125 -6.6588134765625 -29.95947265625
-15.834716796875 -5.8275146484375 -23.74267578125
32.002197265625 -0.190185546875 -5.283203125
21.130615234375 -2.078125 -5.1826171875
-16.303466796875 -4.6746826171875 47.18701171875
-10.02587890625 -0.935546875 36.093505859375
-20.997314453125 -4.5933837890625 -20.488525390625
-5.2158203125 0.0054931640625 8.615966796875
28.597412109375 -6.197509765625 -22.5068359375
38.901123046875 -2.592041015625 -2.39111328125
21.189208984375 -2.970458984375 -10.3310546875
-16.471435546875 -6.7159423828125 60.757568359375
-26.4599609375 -4.35009765625 -27.304931640625
-29.6025390625 -1.861083984375 -12.26708984375
18.166015625 -4.2486572265625 -16.713134765625
-6.456787109375 -6.0950927734375 -33.22021484375
12.981689453125 0.4202880859375 12.503662109375
3.08740234375 1.2320556640625 12.305908203125
-33.959228515625 -1.1629638671875 77.46533203125
-16.56884765625 -1.9266357421875 3.794189453125
-14.11767578125 -0.5985107421875 -1.466552734375
18.507080078125 -6.05419921875 -32.942626953125
-36.077392578125 -5.1910400390625 62.07080078125
-24.41259765625 -7.7535400390625 54.970703125
12.41552734375 -2.5738525390625 -8.16455078125
30.618408203125 -0.013427734375 17.052490234375
25.025390625 1.3572998046875 20.717529296875
-29.244873046875 -1.97607421875 69.619140625
12.12353515625 -2.852783203125 -1.362060546875
-22.2998046875 -6.1396484375 61.04736328125
-25.72900390625 -4.8131103515625 -23.100830078125
27.670166015625 -4.316162109375 -13.5732421875
-4.6513671875 -4.8199462890625 -15.5458984375
-22.719482421875 -2.62841796875 -12.968994140625
-8.95556640625 -0.61669921875 0.315185546875
12.983154296875 -1.606201171875 4.110595703125
28.0380859375 -0.81494140625 12.80419921875
-26.2421875 -6.3416748046875 49.174560546875
12.983154296875 2.1055908203125 31.128173828125
-26.5888671875 -4.412841796875 72.12109375
16.871337890625 -6.177490234375 -25.168212890625
-18.71826171875 -5.3529052734375 -27.939453125
19.607177734375 1.51513671875 25.98388671875
30.768310546875 -5.4752197265625 -29.103515625
25.076416015625 -1.7630615234375 -3.931640625
-9.766357421875 -3.1795654296875 47.355224609375
-3.9423828125 -2.4229736328125 -28.9501953125
28.10107421875 -3.021240234375 2.226318359375
-15.095458984375 2.738037109375 16.37939453125
7.8203125 -0.473388671875 6.945068359375
15.5615234375 2.1337890625 20.528564453125
-12.82568359375 -2.8321533203125 -10.25341796875
-6.71875 0.090087890625 15.691162109375
22.466064453125 -5.535888671875 -30.85595703125
-0.780517578125 -3.8204345703125 -10.012939453125
-9.9140625 -3.9798583984375 -25.703125
-2.705322265625 1.3035888671875 30.82958984375
11.25439453125 -4.6990966796875 -21.06591796875
26.806884765625 -5.46630859375 -18.64794921875
2.61328125 -3.074462890625 -17.4453125
15.993408203125 -0.4346923828125 10.0458984375
-0.723388671875 2.01953125 25.83984375
5.274658203125 0.2158203125 20.52734375
5.701904296875 1.7950439453125 27.221923828125
-9.0400390625 -2.0009765625 41.95263671875
33.806640625 -7.25732421875 -35.391845703125
-10.451416015625 0.53955078125 27.03662109375
-6.02392578125 -7.04638671875 -37.004638671875
-4.652099609375 -3.7054443359375 -10.9296875
20.295166015625 -0.686279296875 10.551513671875
-8.093994140625 -2.815185546875 -8.48046875
-24.68505859375 -5.3221435546875 -32.896240234375
35.447021484375 -5.7681884765625 -16.78955078125
5.239990234375 -1.3760986328125 2.27734375
29.091796875 0.006103515625 -8.49169921875
-13.800537109375 -6.4083251953125 -37.159912109375
-42.3193359375 -1.7396240234375 74.120361328125
-0.78125 -2.705810546875 -5.396728515625
0.0302734375 0.54248046875 9.810791015625
-21.476806640625 -5.4332275390625 47.739990234375
-28.635498046875 -15.245361328125 44.12158203125
-29.418701171875 -2.0830078125 -1.47705078125
-19.20263671875 -2.72314453125 36.01025390625
34.58203125 -4.0692138671875 -10.0634765625
18.68896484375 -2.93115234375 -2.2509765625
2.732666015625 -3.917236328125 -11.34423828125
13.758056640625 6.8565673828125 18.08251953125
38.035888671875 -0.9947509765625 3.913330078125
-11.641357421875 -4.95751953125 -30.37353515625
-21.5771484375 -5.2615966796875 -35.2080078125
-33.236083984375 -4.2587890625 70.3671875
2.18359375 -6.498779296875 -31.783203125
9.555908203125 3.1939697265625 34.402587890625
29.46728515625 -6.1859130859375 -32.515625
-12.421630859375 -2.2213134765625 39.8232421875
-20.736083984375 2.0321044921875 -3.9580078125
-7.322509765625 -3.480224609375 -22.701171875
6.936279296875 -7.3974609375 -33.795654296875
-12.716552734375 2.095458984375 21.839599609375
33.25244140625 -2.0921630859375 -1.615966796875
-11.964111328125 -4.7266845703125 -17.7900390625
-35.36865234375 10.2730712890625 44.6591796875
14.709716796875 -3.55810546875 -15.096435546875
-25.992919921875 -0.7498779296875 5.27734375
-0.293701171875 0.168212890625 18.326904296875
-15.44677734375 -1.07373046875 30.01123046875
-6.803955078125 -2.0091552734375 -4.677734375
-33.150146484375 -7.6246337890625 52.360595703125
-3.29296875 1.625 23.281494140625
-2.566650390625 -1.156494140625 43.5380859375
-8.484375 0.06640625 31.523681640625
-35.030029296875 2.0948486328125 -6.633056640625
-21.187744140625 -5.5408935546875 69.391845703125
-18.572509765625 -3.8206787109375 40.130126953125
-3.941650390625 -3.547119140625 -33.606201171875
39.002685546875 -3.0155029296875 -6.32177734375
28.53271484375 -2.3519287109375 -5.126953125
16.436767578125 -2.2752685546875 -9.16162109375
11.45361328125 1.77978515625 24.146240234375
21.15673828125 -2.5806884765625 3.014892578125
4.919921875 0.3931884765625 44.12744140625
10.842041015625 1.4742431640625 27.742431640625
26.71044921875 -5.260498046875 -25.9619140625
-4.4091796875 -3.73388671875 -19.02294921875
41.750244140625 -0.3887939453125 -7.062255859375
-23.408203125 -4.6771240234375 -29.030517578125
5.80224609375 -0.578369140625 14.526123046875
40.88525390625 -5.842041015625 -29.96044921875
-13.439208984375 -1.218505859375 34.404541015625
38.0380859375 -4.2509765625 -9.572998046875
32.42236328125 -4.7060546875 -13.478271484375
-34.08935546875 0.0047607421875 3.314697265625
-32.5458984375 -4.3360595703125 77.094482421875
37.71142578125 -7.373291015625 -34.46728515625
-18.0068359375 -1.356689453125 -5.275390625
-24.908447265625 -3.263671875 40.8583984375
2.228271484375 -0.4197998046875 5.15478515625
-28.74267578125 -1.0196533203125 -8.47314453125
-21.429443359375 -1.8223876953125 -9.16650390625
-16.69677734375 -3.3251953125 -13.68798828125
13.010986328125 -3.5706787109375 -4.747314453125
-22.54833984375 -1.776123046875 1.54150390625
-28.13525390625 0.132080078125 8.15966796875
-22.138916015625 0.548095703125 12.040283203125
1.369140625 -2.07177734375 -1.99658203125
34.236083984375 -0.650146484375 -7.87109375
3.843017578125 2.3631591796875 33.24755859375
35.54052734375 -4.947021484375 -25.198974609375
15.603515625 -7.0274658203125 -29.882080078125
25.07763671875 -3.5947265625 -11.517822265625
21.621826171875 -3.8199462890625 -13.694091796875
-17.12353515625 -6.0545654296875 56.399658203125
22.48828125 -7.3505859375 -28.006103515625
15.1318359375 1.3583984375 17.162841796875
16.8515625 2.8385009765625 23.91162109375
-22.76611328125 -5.7933349609375 64.36572265625
-18.28271484375 -1.079833984375 6.68505859375
-11.4296875 -0.8349609375 10.164794921875
-28.18212890625 -0.5418701171875 65.586669921875
38.143310546875 -4.649658203125 -23.030517578125
-8.953125 -4.467041015625 -15.631591796875
4.3427734375 -5.149658203125 -25.41845703125
21.191650390625 -6.531982421875 -25.081787109375
-16.0634765625 -3.6917724609375 42.267578125
32.984130859375 -6.12353515625 -22.09912109375
-12.0771484375 -1.283203125 16.0234375
-2.07275390625 -1.080078125 0.872314453125
18.142822265625 1.4154052734375 18.48193359375
-29.063232421875 -20.7293701171875 40.615234375
-34.803466796875 -3.998046875 66.10302734375
25.789306640625 -1.943603515625 -0.742431640625
-22.129150390625 -4.80322265625 42.4697265625
-19.102783203125 -1.9952392578125 1.148681640625
38.142578125 -3.4232177734375 -17.951416015625
-10.487060546875 -4.348876953125 52.715576171875
12.632568359375 -7.7767333984375 -35.5302734375
-1.8662109375 -3.765625 -16.76953125
-16.519287109375 -2.0430908203125 34.1376953125
-27.60546875 -21.9979248046875 43.814453125
4.416259765625 2.606689453125 30.121337890625
-23.54833984375 -6.7236328125 58.179443359375
-2.13720703125 -5.228515625 -28.076416015625
8.26904296875 1.888427734375 40.796142578125
-42.318115234375 -3.4053955078125 67.2216796875
33.805419921875 -5.52001953125 -28.1962890625
23.782958984375 -5.4217529296875 -19.55126953125
10.392333984375 -7.5792236328125 -33.30517578125
1.970458984375 0.198974609375 41.549560546875
-30.9443359375 0.102783203125 78.992919921875
21.586181640625 -1.50146484375 7.6396484375
6.95947265625 0.3065185546875 9.865478515625
-28.74169921875 -2.640869140625 -15.1875
22.014404296875 1.4017333984375 19.818115234375
-24.871337890625 -1.033447265625 -7.136962890625
-12.77197265625 -3.615478515625 46.5673828125
-33.7998046875 12.7008056640625 40.677734375
15.98193359375 1.6578369140625 30.352294921875
1.1787109375 0.56494140625 14.6904296875
15.565185546875 -3.4390869140625 -2.552490234375
1.802734375 1.2208251953125 37.857177734375
6.07275390625 -8.038818359375 -36.762939453125
10.400146484375 1.4427490234375 15.809326171875
-17.555908203125 -5.078369140625 -21.259033203125
-11.105224609375 -2.365478515625 -7.701171875
31.91015625 -1.9432373046875 9.5244140625
-25.30029296875 -2.8218994140625 -14.69921875
25.887939453125 -1.8543701171875 7.7255859375
0.886962890625 -5.6800537109375 -28.85888671875
10.513916015625 6.1768798828125 20.025146484375
-26.691650390625 -5.836181640625 52.485107421875
-1.704345703125 -6.5867919921875 -33.546630859375
32.005859375 -2.3643798828125 5.6201171875
37.710693359375 -6.351318359375 -30.234619140625
-34.0810546875 -3.5655517578125 73.616455078125
3.91015625 -4.40185546875 -22.476806640625
-27.193603515625 -4.80078125 -35.320068359375
24.19775390625 -2.96826171875 1.7724609375
-14.85009765625 -5.2359619140625 53.71044921875
18.145263671875 -2.1309814453125 3.7939453125
6.101806640625 -3.4732666015625 -6.0986328125
-31.75390625 -0.8740234375 -8.952880859375
-9.38623046875 0.1278076171875 3.244140625
-26.32373046875 -2.412353515625 68.86328125
25.996826171875 -6.923095703125 -36.817626953125
-3.2919921875 0.0107421875 16.595458984375
-38.698974609375 -4.3095703125 71.59521484375
-3.419921875 0.3248291015625 35.84716796875
-15.961669921875 -4.501220703125 -30.038330078125
9.09521484375 -5.8447265625 -26.587890625
-36.896240234375 -5.6513671875 59.186279296875
-25.121337890625 2.030029296875 -2.60107421875
-13.473388671875 -0.750732421875 6.150390625
-28.756591796875 -4.111083984375 76.674072265625
-6.590576171875 0.89013671875 29.158447265625
15.563720703125 -1.2099609375 6.679931640625
-6.804443359375 -1.2998046875 -1.740234375
20.294677734375 0.02294921875 13.489013671875
2.703369140625 2.041015625 27.162109375
5.274169921875 0.922119140625 23.452392578125
2.276123046875 0.4619140625 20.467529296875
-30.27587890625 -1.20556640625 1.848876953125
-28.4833984375 -6.3709716796875 55.12353515625
-19.43505859375 -5.5870361328125 49.914794921875
-31.96044921875 -5.5145263671875 64.260986328125
-20.445068359375 -6.3111572265625 53.453857421875
21.58349609375 2.4501953125 24.006103515625
-6.975830078125 -0.7879638671875 6.15234375
-5.974853515625 -1.438720703125 41.8505859375
-14.978515625 0.181396484375 1.453857421875
39.307861328125 -3.167236328125 -13.500732421875
-26.2919921875 -2.783203125 65.962646484375
-13.12841796875 -0.026611328125 28.03515625
27.669677734375 -3.5020751953125 -10.20166015625
12.550048828125 -4.1949462890625 -18.51123046875
-9.049072265625 -5.4754638671875 -31.586181640625
17.302978515625 -5.5006103515625 -22.20947265625
13.412841796875 -2.4342041015625 -10.90771484375
13.4150390625 -5.588623046875 -23.972900390625
40.4501953125 -4.783447265625 -25.73193359375
12.982177734375 3.6190185546875 37.396240234375
-14.544677734375 -5.325439453125 -21.198974609375
10.40185546875 -1.0904541015625 5.31787109375
-13.68701171875 -1.3431396484375 -4.3955078125
-5.863037109375 1.533203125 21.9765625
-23.8515625 -0.421142578125 7.409423828125
-16.99853515625 0.1263427734375 12.14306640625
-37.2509765625 -0.7076416015625 76.11181640625
6.5576171875 3.036376953125 32.67138671875
-24.843994140625 -5.6126708984375 46.477783203125
-6.04638671875 -2.15869140625 -30.8447265625
-40.917236328125 -0.1702880859375 72.21142578125
-28.739501953125 -5.781982421875 -28.19677734375
-33.22021484375 -6.9398193359375 58.58642578125
-24.845703125 -6.112548828125 62.295166015625
-13.222412109375 0.56787109375 18.22607421875
-30.21484375 -1.9661865234375 -4.180908203125
8.101806640625 -3.236083984375 -12.459716796875
-7.786865234375 0.944091796875 26.07177734375
-35.64990234375 -2.8135986328125 71.388671875
15.8515625 -6.37255859375 -33.733642578125
32.951171875 2.12548828125 -7.284423828125
-14.14599609375 -4.8369140625 60.448486328125
-5.16162109375 -4.77685546875 -27.2939453125
5.207763671875 -6.746826171875 -31.722900390625
-12.5048828125 -5.70068359375 -33.762451171875
-4.29638671875 -6.6793212890625 -34.86279296875
9.970703125 0.0594482421875 9.925537109375
7.821533203125 -2.2972412109375 -0.608642578125
-27.4501953125 -4.165283203125 -21.036865234375
-5.432861328125 -1.125244140625 11.120361328125
-1.15087890625 1.045654296875 21.652587890625
0.32958984375 1.6868896484375 32.068603515625
-27.851806640625 -6.5576171875 44.94091796875
29.46630859375 -4.653076171875 -26.166748046875
8.420654296875 2.0648193359375 37.265625
-33.560791015625 -0.299072265625 -2.84375
8.662109375 -4.282958984375 -20.274658203125
21.1904296875 -4.5985107421875 -17.07421875
5.8017578125 0.128662109375 17.454345703125
27.300537109375 -2.014892578125 4.642822265625
-23.578369140625 -4.584228515625 -21.37939453125
-30.8916015625 -3.8829345703125 -21.105712890625
23.305908203125 -0.22412109375 13.549072265625
-2.93359375 -0.401611328125 3.373046875
30.618896484375 -0.8240966796875 13.695068359375
-8.859375 -1.2476806640625 9.38037109375
-6.290771484375 0.76123046875 18.625
16.838134765625 2.19287109375 32.876708984375
-37.79248046875 -4.9986572265625 64.9814453125
-32.1767578125 -6.6116943359375 50.05126953125
-7.21923828125 -3.0284423828125 48.19677734375
-28.143310546875 -5.7208251953125 61.36376953125
32.887451171875 -6.0028076171875 -19.41943359375
2.996826171875 -2.82763671875 -14.811767578125
-28.9453125 -6.0240478515625 58.449951171875
-19.85400390625 -6.6201171875 61.989013671875
34.147705078125 -0.573974609375 4.257080078125
-18.9853515625 -5.0672607421875 -33.470458984375
26.864013671875 -6.0745849609375 -32.990966796875
-39.4794921875 -4.5899658203125 67.4306640625
34.555908203125 -1.8275146484375 9.4931640625
-28.236083984375 -3.6295166015625 74.0908203125
-7.551025390625 -4.3922119140625 53.592529296875
19.02880859375 -2.3861083984375 -8.6884765625
28.1025390625 -4.962158203125 -16.09326171875
-1.296875 -4.34375 -23.372802734375
37.603271484375 -0.04345703125 7.69775390625
31.5693359375 -1.3802490234375 -10.368408203125
-15.137939453125 -4.880859375 50.22802734375
42.044677734375 0.34423828125 -0.94287109375
27.606689453125 1.044189453125 20.349365234375
-20.13818359375 -2.9415283203125 -13.337158203125
-24.43798828125 -5.5269775390625 -25.593017578125
11.69287109375 -2.20947265625 1.147216796875
5.669921875 -0.803466796875 4.8037109375
-34.336669921875 1.870849609375 1.48681640625
-30.677978515625 -4.7156982421875 46.7080078125
12.98388671875 -6.977783203125 -29.8818359375
-22.0146484375 2.91455078125 -1.50048828125
6.933349609375 -3.12353515625 -16.0947265625
-23.388916015625 -0.93701171875 3.98974609375
8.70068359375 1.1453857421875 25.6103515625
-9.288818359375 0.40185546875 16.057861328125
22.52587890625 -6.7406005859375 -37.310302734375
33.284912109375 -2.538330078125 -4.189208984375
-9.7099609375 -4.5948486328125 -20.092041015625
4.811767578125 -4.07666015625 -9.06201171875
-16.488525390625 -4.5718994140625 -26.840087890625
27.669189453125 -2.8916015625 -7.6728515625
-15.9609375 -5.8240966796875 -35.517333984375
9.958740234375 -5.3050537109375 -24.041748046875
-19.258056640625 -5.6864013671875 -25.120849609375
-21.053466796875 -0.12109375 0.206298828125
-35.196533203125 1.33349609375 -1.04833984375
-16.234375 -5.0592041015625 58.77685546875
-16.6962890625 -3.93310546875 -16.2060546875
4.906494140625 1.791748046875 37.748779296875
-4.222900390625 -2.2208251953125 -4.626220703125
12.981201171875 1.0283203125 15.021484375
17.668701171875 -6.431884765625 -35.55078125
14.68115234375 -1.6873779296875 -6.62158203125
-23.19970703125 -4.251220703125 71.2802734375
23.14208984375 -2.4658203125 -2.38818359375
-20.720703125 -5.690673828125 66.892822265625
16.97705078125 1.39794921875 26.00634765625
31.636962890625 -6.6705322265625 -33.7421875
-16.761962890625 -4.498779296875 65.0361328125
-3.705810546875 -0.6820068359375 40.839111328125
-3.37353515625 -1.97900390625 -31.374755859375
0.887939453125 -6.9012451171875 -33.91650390625
-6.4580078125 -4.1617431640625 -25.212646484375
14.568603515625 3.6513671875 18.394287109375
10.12890625 -3.4190673828125 -8.817138671875
18.143798828125 -0.1044921875 12.18701171875
-4.65478515625 0.2462158203125 5.43701171875
-11.53466796875 -3.4447021484375 -12.325927734375
28.4677734375 -0.2423095703125 15.330810546875
26.747802734375 -1.2156982421875 10.68017578125
-16.267333984375 -2.245849609375 -9.063232421875
-15.406494140625 -2.9244384765625 -11.56396484375
0.509521484375 -3.318359375 -7.46923828125
3.949951171875 -1.77685546875 0.1533203125
-27.021240234375 -2.07275390625 -12.215576171875
14.274169921875 -2.7252197265625 -0.060302734375
-16.1376953125 -3.7357177734375 44.8583984375
-7.453369140625 -2.3460693359375 44.618408203125
-5.433349609375 -0.5198974609375 13.627685546875
-2.637939453125 -3.9547119140625 -20.771240234375
-30.728759765625 -4.2080078125 70.7978515625
-26.259521484375 -0.5946044921875 -1.44091796875
-13.919677734375 -4.236572265625 -23.791748046875
-3.166259765625 -1.6136474609375 47.08154296875
34.67236328125 -4.2626953125 -22.676513671875
-4.271240234375 -2.7744140625 50.31005859375
30.263427734375 -6.2586669921875 -20.68603515625
-2.481689453125 2.2354736328125 27.550048828125
0.4365234375 0.950439453125 12.37646484375
-29.6025390625 -1.8963623046875 67.067138671875
-22.1103515625 -1.8984375 36.262451171875
-2.839111328125 0.9276123046875 33.53759765625
1.75244140625 -7.6844482421875 -36.849365234375
-32.448486328125 -2.7457275390625 78.961181640625
-13.085205078125 1.2095947265625 15.862060546875
-8.6162109375 -6.833740234375 -37.056396484375
22.4873046875 -5.926025390625 -22.105712890625
24.737548828125 -6.63134765625 -26.430908203125
-11.107421875 0.67431640625 4.888427734375
-5.083984375 -1.0357666015625 -0.027099609375
23.7353515625 0.855224609375 18.173828125
40.298095703125 -0.47412109375 4.670654296875
37.70703125 -5.25146484375 -16.048828125
-38.97705078125 -4.7945556640625 61.986083984375
6.0986328125 1.0863037109375 12.785888671875
-0.495361328125 -1.0545654296875 46.12109375
-6.525634765625 -0.5048828125 35.577392578125
-8.855712890625 -1.348388671875 38.35498046875
0.697509765625 -4.039794921875 -16.248779296875
6.53271484375 -4.82568359375 -11.54541015625
-5.206298828125 -3.68017578125 -21.2939453125
-16.268310546875 -0.72607421875 -2.7685546875
11.537841796875 6.4957275390625 17.272705078125
26.807861328125 -6.7891845703125 -24.126708984375
20.789794921875 -5.678466796875 -33.535400390625
22.052734375 -2.3289794921875 -7.36376953125
19.46484375 -2.9853515625 -0.001220703125
24.45458984375 -6.288330078125 -28.80810546875
-20.961181640625 -6.092041015625 -28.145263671875
-24.591552734375 -0.6199951171875 1.238037109375
-29.838134765625 -4.919189453125 65.44189453125
-17.304443359375 -6.0592041015625 63.177734375
14.711669921875 -6.61083984375 -27.739990234375
-25.4990234375 -4.2525634765625 -30.96630859375
32.420166015625 -1.246337890625 0.85107421875
-30.859375 -4.5484619140625 75.464599609375
-3.386962890625 0.989013671875 9.70068359375
-23.876953125 0.6163330078125 -5.80517578125
-34.831787109375 -2.06005859375 75.487548828125
0.9140625 0.1297607421875 7.688720703125
-18.8486328125 -1.6287841796875 -7.436279296875
25.94091796875 -2.3427734375 -6.021728515625
16.006103515625 -4.376708984375 -18.020751953125
6.935302734375 -5.87109375 -27.473876953125
-1.2734375 -4.79052734375 -25.951904296875
38.03662109375 -2.0123291015625 -0.30126953125
-32.096923828125 16.820556640625 37.6484375
-31.322265625 -3.138427734375 -18.1767578125
2.229736328125 -2.750244140625 -4.497314453125
8.2509765625 -1.1165771484375 4.435791015625
20.2958984375 -2.0035400390625 5.095947265625
-3.791259765625 -4.2825927734375 -13.0107421875
-21.858642578125 -3.20556640625 -15.050048828125
-18.846923828125 -4.2633056640625 -18.34716796875
24.164794921875 1.9344482421875 22.798583984375
23.73681640625 -1.4752197265625 8.52197265625
-1.2119140625 -2.0626220703125 -2.887451171875
7.69287109375 0.9334716796875 16.37548828125
7.162841796875 1.02001953125 19.45556640625
11.697509765625 3.219970703125 35.28125
-18.283447265625 -0.272705078125 10.02783203125
-14.42822265625 -0.2862548828125 11.358642578125
40.538330078125 -1.358154296875 -4.082275390625
-10.548583984375 -3.1265869140625 45.190673828125
-0.646728515625 0.021728515625 42.01025390625
-31.989013671875 -1.771240234375 -1.1103515625
-11.862548828125 -4.8035888671875 54.49951171875
-16.1474609375 -0.1070556640625 28.0478515625
-20.115966796875 -4.979248046875 45.945068359375
-19.4375 -7.2420654296875 59.5625
-33.94287109375 -5.025634765625 60.78759765625
-12.7470703125 -1.880126953125 37.5859375
-23.80126953125 -6.19482421875 53.416015625
-32.857421875 -5.100830078125 48.482666015625
31.018310546875 1.0640869140625 -7.888916015625
-35.204345703125 -6.747802734375 53.885498046875
-16.773681640625 -0.6375732421875 0.3359375
-33.8486328125 0.364990234375 -7.501220703125
-28.228271484375 -0.4293212890625 68.114013671875
18.1240234375 0.876708984375 27.887939453125
-19.78369140625 -3.7335205078125 37.950439453125
-1.841552734375 -3.197509765625 -29.173583984375
-20.38330078125 -2.213623046875 34.16455078125
-25.262939453125 -4.216796875 69.997314453125
-35.118408203125 8.08203125 45.08203125
-11.106689453125 -0.2376708984375 1.111572265625
30.787353515625 -1.8323974609375 -4.376953125
20.240234375 -5.68603515625 -30.7939453125
28.0380859375 -0.814208984375 2.53759765625
18.943359375 -2.1668701171875 -5.601318359375
-43.15087890625 -2.161376953125 72.074951171875
-4.905517578125 0.989013671875 30.893310546875
32.0703125 -6.093017578125 -31.19384765625
28.598876953125 -5.195068359375 -28.7236328125
-33.84912109375 1.074951171875 -4.560546875
12.97998046875 2.9534912109375 22.994873046875
-19.022216796875 -4.58056640625 -29.994384765625
29.896728515625 0.216796875 -5.84130859375
-28.08447265625 -2.4410400390625 72.23046875
23.349365234375 -3.0458984375 -9.866455078125
4.773193359375 -3.048095703125 -16.559326171875
19.461669921875 -3.7445068359375 -14.15869140625
11.25341796875 -3.071044921875 -14.322509765625
29.830322265625 -4.5950927734375 -13.95166015625
-8.61669921875 -6.0196533203125 -33.684814453125
35.013671875 -3.5958251953125 -7.94775390625
30.221435546875 -2.8544921875 4.411376953125
-25.597900390625 -6.630615234375 56.45751953125
-6.65283203125 -3.8499755859375 -32.12353515625
-5.94287109375 -3.0928955078125 -8.857177734375
28.89892578125 -1.5948486328125 9.884033203125
9.97265625 -2.777587890625 -1.82470703125
-12.393798828125 -5.197998046875 -19.89697265625
-10.6748046875 -2.9073486328125 -9.791015625
-23.14990234375 -2.08642578125 -10.87939453125
4.80859375 0.5843505859375 10.2421875
-20.56689453125 -5.13525390625 -22.578125
30.4208984375 -6.256591796875 -24.31103515625
-33.05810546875 -2.04638671875 -13.54736328125
-27.46826171875 -0.6817626953125 -5.8837890625
-19.637939453125 0.1119384765625 -3.4365234375
-11.43017578125 0.0731201171875 13.92578125
-10.57470703125 1.81884765625 21.46435546875
-8.004638671875 1.6080322265625 21.515869140625
-10.744873046875 -5.424072265625 57.171630859375
-15.714111328125 0.828125 15.51171875
40.917724609375 -3.1195068359375 -19.4169921875
39.0126953125 -6.866943359375 -31.90185546875
29.03369140625 -6.661376953125 -34.640625
35.541259765625 -6.0711669921875 -29.854736328125
27.66796875 -1.0599365234375 -0.0869140625
35.10791015625 -6.955322265625 -33.6728515625
-34.78955078125 -4.4285888671875 63.640625
-17.2880859375 -5.2835693359375 49.866943359375
18.16650390625 -4.7574462890625 -18.820556640625
11.255615234375 -6.53076171875 -28.65185546875
39.33251953125 -1.711669921875 1.410400390625
7.367919921875 -6.924072265625 -31.6796875
3.477783203125 -3.755859375 -19.956787109375
36.739501953125 -0.4814453125 5.5732421875
2.182861328125 -5.277587890625 -26.725830078125
0.885986328125 -4.2554931640625 -22.958740234375
-14.2333984375 -5.050048828125 -31.689697265625
-9.91357421875 -4.7939453125 -29.07470703125
19.46142578125 -3.1339111328125 -11.6298828125
-22.288330078125 -3.7781982421875 -17.57666015625
-25.7294921875 -4.0025634765625 -19.74365234375
28.8974609375 0.532958984375 18.696533203125
25.0263671875 -0.061279296875 14.842529296875
0.93798828125 -0.71923828125 3.450439453125
13.842529296875 -0.2581787109375 10.0029296875
-11.104248046875 -3.986572265625 -14.415771484375
-2.504150390625 0.5762939453125 7.578125
17.2841796875 -0.94580078125 8.39306640625
22.015625 -0.5234375 11.8447265625
30.619384765625 -1.4320068359375 11.17724609375
-7.232666015625 -4.3043212890625 -14.33837890625
10.399658203125 1.9493408203125 17.907470703125
-7.66552734375 -0.3173828125 2.01953125
-28.40234375 -4.28564453125 78.794189453125
-6.483154296875 0.679931640625 10.22509765625
-16.14111328125 -1.1546630859375 7.1455078125
1.41845703125 1.742919921875 25.46484375
-20.425537109375 0.710205078125 13.328125
-25.564208984375 -1.28955078125 3.196533203125
-0.295166015625 2.48876953125 27.937744140625
-11.42919921875 -1.3394775390625 8.075439453125
12.983642578125 1.6011962890625 29.038818359375
-35.2587890625 11.202392578125 42.72607421875
-28.346435546875 -6.4266357421875 48.75537109375
-10.267822265625 -2.0731201171875 39.7998046875
18.917724609375 2.1676025390625 24.067138671875
-27.44921875 -5.2799072265625 -25.653076171875
2.7490234375 0.14306640625 43.734619140625
-22.683349609375 -5.2491455078125 45.987548828125
6.58837890625 1.7899169921875 39.064697265625
-33.150634765625 -6.74267578125 56.013916015625
-25.26220703125 -5.5885009765625 64.31591796875
-26.173828125 -3.8597412109375 74.56103515625
-34.107177734375 -5.3472900390625 67.5888671875
-24.245849609375 -4.888916015625 42.0498046875
-7.826416015625 -3.73779296875 51.33154296875
-30.19384765625 -7.0986328125 53.55029296875
-5.830322265625 -3.5355224609375 -29.04296875
-12.494140625 -5.6240234375 58.47216796875
-22.44189453125 -4.173095703125 -31.0107421875
-37.780517578125 -3.6663818359375 69.821533203125
-33.0439453125 -1.3760986328125 -11.49658203125
-16.3896484375 -1.412841796875 31.827392578125
-13.416748046875 2.5712890625 17.7490234375
-6.762451171875 1.880859375 24.541015625
13.86669921875 5.32861328125 20.6708984375
-25.232177734375 -5.6160888671875 -29.17431640625
39.2060546875 -3.0484619140625 -10.822265625
-13.804931640625 -2.782470703125 41.2294921875
-0.67578125 -0.27685546875 14.895751953125
-24.12890625 -4.247314453125 75.05419921875
-14.25390625 -0.429931640625 4.288818359375
-13.32080078125 0.9593505859375 23.4228515625
-11.70263671875 -4.1260986328125 -24.742431640625
-7.8603515625 -3.857177734375 -20.775390625
-17.9892578125 -2.811279296875 38.19677734375
29.2451171875 -1.8232421875 -9.331298828125
-18.322265625 -6.0684814453125 53.845458984375
-24.088134765625 -6.0782470703125 48.2802734375
-26.103515625 -0.6761474609375 66.471435546875
40.01611328125 -5.25927734375 -27.859130859375
-15.07470703125 -5.1654052734375 62.19482421875
0.0234375 -6.2197265625 -31.405029296875
-22.632568359375 -6.3978271484375 56.431640625
-11.193359375 -2.2486572265625 41.562744140625
-0.838134765625 2.2078857421875 30.197509765625
-34.77392578125 -7.70361328125 49.396728515625
-8.5888671875 -0.0301513671875 5.06787109375
23.91552734375 -2.6219482421875 -0.5556640625
20.870849609375 -2.8427734375 -1.832275390625
3.875 1.0733642578125 14.122314453125
-32.41796875 -0.828125 2.641845703125
-24.654296875 -2.9423828125 67.2685546875
-25.236328125 0.368408203125 -4.388427734375
9.096435546875 -7.8798828125 -35.016845703125
28.87646484375 -5.030029296875 -24.22802734375
-22.428955078125 2.3013916015625 -4.92626953125
-28.811767578125 -2.8345947265625 65.53125
-35.9482421875 -0.8619384765625 73.197021484375
35.0126953125 -2.2730712890625 -2.46875
-25.050048828125 -5.039794921875 -34.802001953125
-8.585205078125 -3.4266357421875 49.554931640625
-3.552001953125 -0.24853515625 37.708984375
-27.287353515625 -23.3162841796875 42.4150390625
39.0107421875 -3.9031982421875 -19.627197265625
21.65771484375 -6.158447265625 -35.211181640625
32.0712890625 -7.3193359375 -36.27294921875
33.80517578125 -5.009033203125 -26.080078125
-0.407958984375 -7.201904296875 -35.628173828125
38.40771484375 -3.6689453125 -15.160888671875
-20.678955078125 -3.7470703125 39.677001953125
-14.55419921875 -2.4078369140625 38.9892578125
-3.29345703125 2.2303466796875 25.78857421875
-29.26806640625 -22.549072265625 42.250244140625
-19.4169921875 -5.54052734375 -35.586181640625
37.17333984375 -3.060791015625 -4.954345703125
26.804443359375 -1.7012939453125 -3.05419921875
34.150390625 -4.644287109375 -12.600830078125
10.39013671875 -4.22119140625 -19.397216796875
-22.441650390625 -4.78369140625 -33.53955078125
7.797607421875 -3.6015625 -17.76318359375
-10.77783203125 -4.3160400390625 -27.40625
6.50244140625 -4.614501953125 -22.425048828125
16.437744140625 -3.9034423828125 -15.90478515625
11.688232421875 -7.278564453125 -31.593505859375
13.49462890625 -2.772216796875 -2.7294921875
-42.689208984375 -2.05224609375 69.9560546875
34.913330078125 -0.1219482421875 8.614501953125
19.74853515625 2.7421875 27.4755859375
-11.018798828125 0.037353515625 29.775634765625
-11.264404296875 0.5335693359375 25.281005859375
-34.656982421875 0.2991943359375 76.408203125
31.556640625 -1.989501953125 -2.537841796875
19.00341796875 0.939453125 16.8203125
13.410888671875 1.7022705078125 17.9677734375
7.391845703125 -2.869873046875 -3.13525390625
15.564208984375 -2.121826171875 2.903076171875
20.293701171875 1.3402099609375 18.944580078125
19.43505859375 -1.122314453125 8.43603515625
25.02685546875 -0.56787109375 12.744140625
8.682861328125 -3.7862548828125 -6.466796875
-28.742431640625 -1.5263671875 -10.5712890625
-22.72021484375 -1.3111572265625 -7.513671875
-23.577880859375 -5.1922607421875 -23.897216796875
4.80908203125 -0.32763671875 6.46533203125
6.9609375 -1.8212890625 1.052734375
19.005859375 -2.60693359375 2.132568359375
-8.955078125 -1.5286865234375 -3.461669921875
-18.417236328125 -3.3865966796875 -14.561767578125
-30.893310546875 -1.349853515625 -10.6142578125
-26.16015625 -3.2579345703125 -16.814697265625
3.08984375 -2.41552734375 -2.801513671875
-9.384765625 -2.303955078125 -6.82763671875
-26.3681640625 -6.4234619140625 54.294921875
-6.71728515625 -1.826904296875 7.751708984375
-11.9892578125 -3.7669677734375 48.3173828125
13.839599609375 2.539794921875 33.234619140625
9.1279296875 2.6236572265625 31.886962890625
-29.419677734375 -0.6705322265625 4.373291015625
-8.00439453125 1.103515625 19.426513671875
17.87646484375 -6.857666015625 -31.31396484375
11.269775390625 2.447998046875 31.9296875
7.4150390625 1.856201171875 28.091796875
1.0615234375 0.14990234375 16.562744140625
-14.2490234375 -1.225341796875 32.66259765625
2.132568359375 2.3021240234375 32.379150390625
-24.398193359375 -4.9498291015625 65.90478515625
38.5712890625 -4.4058837890625 -12.235595703125
-17.0693359375 -5.5374755859375 -25.179443359375
37.275146484375 -3.9652099609375 -20.50830078125
2.111328125 0.7730712890625 39.69384765625
-28.82080078125 -0.6241455078125 -3.213134765625
-1.60546875 0.9986572265625 35.710693359375
4.07763671875 1.623046875 36.03271484375
22.919921875 -6.877197265625 -25.89013671875
-21.103271484375 -4.362060546875 70.891845703125
-15.549072265625 -3.323486328125 40.469970703125
18.599853515625 -6.726318359375 -26.8193359375
-39.73779296875 -1.8160400390625 69.940673828125
-29.76513671875 -3.4437255859375 68.15771484375
17.676513671875 -2.30322265625 -7.357666015625
-30.046875 -6.4083251953125 49.5966796875
-31.414306640625 -7.07421875 51.842041015625
-22.465087890625 -4.368408203125 40.66015625
-27.5419921875 -6.31884765625 50.868408203125
-40.190185546875 -2.845703125 67.568603515625
40.84814453125 -2.1197509765625 -13.81103515625
35.44677734375 -5.15771484375 -14.2607421875
8.119384765625 2.5159912109375 35.419189453125
-34.85546875 -6.685302734375 57.687255859375
-8.587890625 -0.3446044921875 33.358642578125
-18.43798828125 -4.9193115234375 46.797119140625
-3.775634765625 -5.6541748046875 -33.380859375
0.9404296875 -4.366943359375 -11.6572265625
-35.6064453125 -8.027587890625 47.755126953125
9.775634765625 -3.298828125 -10.647705078125
22.958984375 -5.6519775390625 -32.645751953125
-10.369384765625 -0.6533203125 34.2919921875
17.368896484375 -2.6844482421875 -0.97216796875
-20.89501953125 0.8514404296875 -2.291259765625
13.306640625 -6.6483154296875 -37.274658203125
40.2421875 -1.6832275390625 -8.5029296875
40.3671875 -1.6724853515625 -1.74560546875
32.8701171875 -1.1805419921875 -9.0732421875
33.30615234375 -4.7911376953125 -23.870849609375
-20.353271484375 -1.2603759765625 2.290771484375
22.91650390625 -1.789306640625 -4.817626953125
-34.974853515625 3.163818359375 -5.131103515625
18.1650390625 -2.7222900390625 -10.391357421875
14.709228515625 -2.8458251953125 -12.146240234375
13.8466796875 -5.0135498046875 -21.435546875
25.511474609375 -6.27587890625 -22.466796875
3.911865234375 -6.94580078125 -33.01318359375
-7.3203125 -6.634765625 -35.76611328125
-8.6181640625 -3.781005859375 -24.412841796875
33.28564453125 -3.6575927734375 -8.8251953125
-8.61767578125 -4.5950927734375 -27.784423828125
30.692138671875 -1.4097900390625 -0.447998046875
-1.38916015625 -3.8800048828125 -18.541748046875
-10.407958984375 -3.92724609375 -23.453125
-22.76708984375 -4.6175537109375 69.2353515625
-29.649169921875 -0.73193359375 -5.41650390625
26.31591796875 1.5552978515625 22.00244140625
-12.8271484375 -0.400390625 -0.181884765625
-30.03173828125 -2.9403076171875 -16.89208984375
-21.428955078125 -2.4302978515625 -11.684326171875
-0.352294921875 -0.9173583984375 2.16552734375
14.270751953125 2.5435791015625 21.76171875
2.65771484375 0.55810546875 9.35986328125
2.658935546875 -1.0631103515625 2.645263671875
15.992919921875 0.3759765625 13.403076171875
-9.567626953125 -4.1767578125 50.97705078125
-12.1865234375 -1.159423828125 4.9208984375
-30.416015625 -3.681884765625 77.85498046875
0.99072265625 0.8699951171875 21.695556640625
-7.57568359375 0.56396484375 17.345703125
-23.85205078125 0.4869384765625 11.17041015625
-1.5791015625 0.576416015625 19.5546875
-16.998046875 -0.6807861328125 8.800048828125
-4.5771484375 0.4188232421875 17.823486328125
6.558837890625 1.119384765625 24.731689453125
6.559326171875 0.5140380859375 22.224609375
-2.206298828125 -3.28076171875 -31.87841796875
2.800537109375 -0.2310791015625 14.88427734375
-6.760498046875 0.2899169921875 32.353271484375
-31.9306640625 -7.452880859375 54.8779296875
12.14697265625 -7.659912109375 -33.745361328125
29.671875 -1.55078125 2.28125
26.469970703125 -2.28759765625 2.481689453125
-20.765380859375 -4.1488037109375 41.482177734375
24.260498046875 -5.3499755859375 -30.926513671875
-11.718017578125 -0.4632568359375 6.518798828125
-13.995849609375 -3.48974609375 45.24853515625
12.22998046875 -3.41552734375 -6.580810546875
0.429931640625 -3.366455078125 -18.70361328125
15.103515625 2.71337890625 23.495361328125
40.44970703125 -4.1695556640625 -23.189697265625
-8.3681640625 -1.2977294921875 7.174072265625
12.582275390625 0.8919677734375 25.232421875
-18.845947265625 -5.4791259765625 -23.383056640625
36.208740234375 -4.5738525390625 -18.959228515625
-21.347900390625 -6.47998046875 55.179931640625
33.371826171875 -5.8931884765625 -29.898193359375
25.12841796875 -5.8299560546875 -32.602294921875
36.407958984375 -4.609375 -23.488525390625
37.27734375 -6.928955078125 -32.782958984375
29.033203125 -5.7415771484375 -30.831298828125
-27.002685546875 -5.86181640625 -28.6337890625
-33.56201171875 1.420654296875 4.279052734375
14.222412109375 -2.22314453125 -8.26904296875
-35.31298828125 -4.4798583984375 68.70458984375
-1.64013671875 -4.8643798828125 -14.646240234375
-28.97607421875 -5.2603759765625 62.97119140625
17.33203125 -7.0675048828125 -29.426025390625
7.367431640625 -6.415283203125 -29.572509765625
22.0546875 -5.17822265625 -19.164306640625
19.46337890625 -6.2884521484375 -24.69482421875
26.805908203125 -3.8382568359375 -11.90478515625
12.11767578125 -3.75244140625 -16.833984375
-12.07373046875 -4.5150146484375 -28.6962890625
34.579833984375 -1.0164794921875 2.579833984375
9.525390625 -3.031005859375 -14.778564453125
38.467529296875 -0.5213623046875 6.029296875
-7.321044921875 -5.515380859375 -31.130126953125
23.35009765625 -4.165283203125 -14.50244140625
23.349609375 -3.5546875 -11.9736328125
13.847412109375 -6.1329345703125 -26.071533203125
29.39892578125 -5.4754638671875 -17.753173828125
14.27783203125 -3.9296875 -16.790771484375
26.375244140625 -5.8380126953125 -20.34228515625
16.439697265625 -6.549072265625 -26.862548828125
2.615234375 -6.127197265625 -30.0888671875
-26.76123046875 -5.2432861328125 -36.997314453125
9.528076171875 -7.101318359375 -31.636474609375
-27.6259765625 -4.3582763671875 -33.64306640625
11.68701171875 -5.650390625 -24.850341796875
12.2177734375 5.766357421875 19.676513671875
-37.7412109375 -5.3485107421875 60.8203125
-33.220947265625 -5.8631591796875 63.045654296875
14.999755859375 4.0224609375 20.08642578125
31.285888671875 -5.9200439453125 -22.605712890625
10.92919921875 -7.3699951171875 -35.19677734375
-27.07763671875 -6.6668701171875 47.52734375
-8.953857421875 -3.14990234375 -10.17626953125
-14.54638671875 -2.4884033203125 -9.448486328125
10.83056640625 1.0020751953125 14.13916015625
-10.67626953125 -0.67822265625 -0.55859375
16.421630859375 2.4683837890625 22.224365234375
-20.139404296875 -1.016357421875 -5.36376953125
13.41357421875 -2.2493896484375 1.601318359375
23.30419921875 2.410400390625 24.460205078125
-5.08349609375 -1.6436767578125 -2.545166015625
10.400634765625 0.429443359375 11.61279296875
-1.21044921875 -4.1904296875 -11.7001953125
-14.11474609375 -4.9554443359375 -19.51171875
27.1767578125 0.5728759765625 18.24267578125
22.444091796875 1.974365234375 22.3447265625
10.83154296875 -0.720458984375 7.005126953125
-30.0322265625 -2.2310791015625 -13.954345703125
16.8525390625 1.115966796875 16.77734375
15.562255859375 0.8165283203125 15.072998046875
15.56298828125 0.0059814453125 11.7158203125
0.938720703125 -1.631103515625 -0.32666015625
-12.396728515625 -0.841064453125 -1.851806640625
22.446044921875 -0.964111328125 10.1748046875
-2.501220703125 -3.577880859375 -9.627685546875
-4.22216796875 -3.33544921875 -9.242431640625
-2.501953125 -2.46337890625 -5.011474609375
13.8427734375 -0.7647705078125 7.904541015625
-14.9755859375 -4.175537109375 -16.59130859375
-1.642333984375 -1.6220703125 -1.217529296875
-0.782958984375 -0.3753662109375 4.25537109375
-15.837890625 -1.1666259765625 -4.4384765625
12.552490234375 -0.962890625 6.619873046875
-29.600341796875 -5.0020751953125 -25.2763671875
