27.756591796875 -2.1483154296875 1.47021484375
2.30517578125 -3.415771484375 38.08935546875
20.4228515625 0.67333984375 21.58251953125
-21.68798828125 5.29638671875 -16.929443359375
-18.5400390625 -4.7569580078125 64.58203125
-8.815185546875 -5.317138671875 -20.7080078125
-19.771728515625 5.8638916015625 -28.97265625
28.668212890625 -0.2039794921875 15.02392578125
22.37451171875 4.16650390625 32.306884765625
-17.435791015625 -6.7647705078125 -31.245849609375
10.494140625 0.09912109375 18.07080078125
14.04150390625 -4.266357421875 -12.5166015625
3.0078125 36.7493896484375 -32.6904296875
47.278076171875 -0.6351318359375 6.85107421875
0.270751953125 -2.8021240234375 -3.643798828125
3.2568359375 -6.692626953125 -30.039794921875
38.336669921875 0.617431640625 17.1494140625
-15.571533203125 21.8394775390625 -21.4765625
-22.467041015625 21.1754150390625 -14.738037109375
21.098388671875 -5.12890625 -18.734375
18.841064453125 -2.429931640625 0.26318359375
-21.172607421875 1.726318359375 -37.292236328125
15.876708984375 -6.493408203125 -29.640625
-15.06787109375 -2.3984375 -0.46923828125
-12.0205078125 -3.427001953125 70.388916015625
-22.824951171875 -0.2626953125 -10.4716796875
-1.447509765625 0.0594482421875 10.4541015625
2.0263671875 -5.458251953125 -21.797607421875
-27.5537109375 -3.2684326171875 70.672119140625
-13.720458984375 -6.4837646484375 57.9873046875
-0.864990234375 -6.2652587890625 55.066650390625
-2.212890625 -3.4346923828125 31.35791015625
-2.16943359375 -5.1934814453125 44.58935546875
45.468994140625 -2.767333984375 -13.756591796875
-13.727783203125 -7.7508544921875 44.34814453125
36.40283203125 -2.4056396484375 -0.742919921875
33.598388671875 -3.893798828125 -11.171630859375
-22.6396484375 -6.5704345703125 58.229736328125
6.5634765625 0.6053466796875 25.559326171875
6.29833984375 -4.4730224609375 -15.282470703125
44.9375 -2.328125 -0.15869140625
-4.647705078125 40.375732421875 -33.08203125
-22.817138671875 -2.0277099609375 -29.00390625
-18.23388671875 32.755615234375 -26.607421875
-6.517333984375 -3.330322265625 -8.075927734375
-22.743408203125 7.5604248046875 -3.8896484375
1.837646484375 -1.8851318359375 3.56396484375
1.98779296875 29.5859375 -32.6396484375
12.6083984375 -1.80859375 4.072509765625
-11.85009765625 40.5067138671875 -32.95361328125
30.28564453125 -1.178466796875 8.09130859375
28.15966796875 -5.109375 -19.50830078125
-12.335693359375 -7.35107421875 -36.03857421875
-22.031494140625 14.71484375 -30.449951171875
-14.0283203125 -6.02685546875 -25.324951171875
32.121826171875 -5.7974853515625 -25.431396484375
-20.855712890625 2.3211669921875 -44.072265625
9.138671875 -1.380859375 37.1142578125
-2.705078125 -6.0638427734375 -26.546630859375
17.8388671875 -3.3173828125 -7.056640625
51.5625 -1.8533935546875 0.829833984375
43.09814453125 -0.2060546875 12.557373046875
17.060546875 4.5037841796875 26.91455078125
7.03515625 -3.5931396484375 -8.80224609375
-14.83349609375 -4.624267578125 -15.82958984375
-21.016357421875 7.948486328125 -22.885986328125
22.135498046875 1.4696044921875 14.79443359375
-23.081787109375 -5.01708984375 -34.77490234375
-22.13818359375 0.9739990234375 -23.28271484375
40.190673828125 -5.56201171875 -23.578125
7.491455078125 -0.0606689453125 44.780517578125
51.7275390625 -4.7325439453125 -17.1845703125
-14.390380859375 -7.4761962890625 51.709716796875
-7.94970703125 -4.4310302734375 -14.18896484375
24.371337890625 1.5440673828125 26.76318359375
31.350830078125 -3.1043701171875 -5.284912109375
9.636474609375 -6.4703369140625 -28.649658203125
5.14208984375 -0.2364501953125 14.6572265625
-21.32373046875 11.4779052734375 -17.7978515625
33.048095703125 0.7315673828125 20.3447265625
-20.375 -2.5364990234375 -5.17578125
12.0263671875 -0.705078125 11.852783203125
16.624267578125 0.0047607421875 16.820068359375
14.417724609375 0.8829345703125 22.608154296875
34.22900390625 -0.3685302734375 12.790283203125
18.992919921875 -5.9090576171875 -24.26513671875
4.4892578125 -1.521240234375 32.876953125
-22.4228515625 -1.1873779296875 -17.179443359375
-1.04150390625 35.493896484375 -36.81640625
39.38427734375 -4.227783203125 -15.2646484375
-9.582275390625 -3.1175537109375 -2.494873046875
46.437255859375 -3.209228515625 -6.054931640625
23.93017578125 -2.7564697265625 -2.839111328125
-13.37060546875 -2.639892578125 63.1337890625
-23.859619140625 -5.357177734375 66.726318359375
-12.22509765625 -1.4156494140625 6.79931640625
26.13671875 0.504150390625 21.179443359375
15.22021484375 -4.803466796875 -18.36962890625
-7.432373046875 -5.7073974609375 42.449462890625
24.53662109375 -1.320068359375 7.51611328125
-1.343017578125 -7.1033935546875 -33.357666015625
-7.924072265625 -7.0020751953125 55.70263671875
-3.0029296875 -5.1451416015625 -19.352783203125
-3.11181640625 -4.0172119140625 36.811279296875
-18.0517578125 -4.720947265625 70.106201171875
-18.50048828125 -7.406494140625 -36.771484375
28.898193359375 -4.4820556640625 -14.08935546875
3.408935546875 -3.660400390625 43.4345703125
-4.172607421875 -2.431640625 -0.546875
32.89794921875 -1.8524169921875 3.27783203125
-21.95849609375 5.739013671875 -33.8896484375
-0.314208984375 -6.0860595703125 49.78125
-22.009033203125 5.3839111328125 -8.64111328125
1.280029296875 41.7928466796875 -33.01220703125
40.873779296875 -1.91748046875 3.141357421875
-11.579833984375 -6.5931396484375 -29.892578125
-21.51513671875 22.5882568359375 -19.611083984375
5.431884765625 0.4951171875 19.834228515625
-18.79541015625 -4.1904296875 -12.59619140625
-6.65478515625 -0.87060546875 9.056396484375
20.31982421875 -4.080810546875 -11.956298828125
-17.30078125 -0.6181640625 3.709716796875
7.840087890625 -2.173828125 2.5234375
7.604736328125 33.68359375 -34.30712890625
-23.834716796875 -5.56884765625 53.242431640625
-10.437255859375 0.048828125 -10.864990234375
-19.255615234375 -5.988525390625 -26.028564453125
-7.64697265625 -6.0604248046875 -26.14599609375
-23.00341796875 9.875 -30.874755859375
5.927001953125 -5.8370361328125 -25.429443359375
5.496337890625 32.0673828125 -30.137451171875
1.693115234375 -3.29296875 -8.347412109375
12.3857421875 2.4576416015625 40.14111328125
-21.525146484375 17.9017333984375 -18.3271484375
12.62890625 -3.639404296875 -7.937744140625
-30.260498046875 -4.685302734375 66.953125
-2.31103515625 -1.6295166015625 6.031494140625
5.01416015625 -2.8814697265625 -2.938720703125
-15.38037109375 -3.3001708984375 73.82421875
-15.384765625 37.3994140625 -33.45263671875
-6.86669921875 -3.9404296875 31.68359375
17.415771484375 -1.8253173828125 4.683837890625
35.904296875 -3.244384765625 -6.359619140625
-18.963623046875 -7.124267578125 55.413330078125
-20.162353515625 -2.4541015625 -0.197509765625
11.976806640625 2.9261474609375 25.97119140625
42.508544921875 -4.8902587890625 -18.59912109375
-3.896484375 -5.90673828125 58.527099609375
-22.351806640625 17.0357666015625 -12.73095703125
20.05078125 1.6552734375 29.234619140625
-19.697998046875 10.408935546875 -26.5146484375
-13.41162109375 -2.4837646484375 -4.914306640625
26.93994140625 2.089111328125 30.49853515625
27.78125 -5.71923828125 -23.996826171875
-10.85107421875 -5.608642578125 65.69580078125
46.9814453125 -4.7225341796875 -17.6455078125
-21.39990234375 7.89794921875 -13.385498046875
20.1865234375 -6.452880859375 -28.466552734375
-18.41748046875 -7.765869140625 45.908203125
14.711181640625 -5.94970703125 -25.4345703125
11.41796875 -4.7064208984375 -16.01513671875
50.85595703125 -3.9482421875 -11.54150390625
-23.45361328125 -4.71826171875 71.115478515625
-26.836669921875 -5.453125 57.7392578125
2.75634765625 -0.8685302734375 11.052734375
-16.1728515625 -5.1876220703125 -20.433837890625
14.256591796875 -2.5887451171875 -2.530029296875
40.64599609375 -2.4326171875 -1.217041015625
5.463134765625 -6.056884765625 -33.6376953125
7.185546875 -5.2205810546875 -19.8564453125
-11.147216796875 37.604248046875 -35.98046875
0.968994140625 -4.9310302734375 -17.717529296875
41.015625 -1.976318359375 -12.08203125
24.394775390625 -0.522705078125 11.84521484375
-22.847412109375 1.9517822265625 -6.36376953125
-17.3828125 -5.8812255859375 60.704833984375
-22.39501953125 -0.987548828125 -33.81396484375
-5.50390625 -6.2003173828125 46.93408203125
34.8056640625 -4.48193359375 -15.137451171875
21.517333984375 -1.8834228515625 3.435791015625
49.71142578125 0.8028564453125 3.7822265625
52.40185546875 -2.898193359375 -3.10791015625
-18.064697265625 -3.493896484375 -8.570068359375
41.5947265625 -1.298583984375 7.373779296875
-24.89697265625 -6.00146484375 62.766357421875
24.77587890625 -4.324462890625 -13.791748046875
18.140625 -4.4727783203125 -15.4384765625
6.07177734375 29.822509765625 -33.62548828125
2.298583984375 32.21240234375 -35.77685546875
-9.96044921875 -6.3607177734375 59.623779296875
-2.2470703125 -3.5194091796875 -7.295654296875
8.9873046875 -2.195556640625 41.64794921875
25.883544921875 3.040771484375 14.525390625
0.81103515625 0.5374755859375 15.119873046875
-1.102294921875 39.2501220703125 -35.10693359375
16.132080078125 -0.634033203125 12.109619140625
38.247802734375 -0.510986328125 12.57080078125
-21.30712890625 5.021728515625 -39.564697265625
52.123779296875 -5.0670166015625 -21.15576171875
19.930908203125 -2.9952392578125 -3.5380859375
9.39208984375 -6.0025634765625 -32.605224609375
15.289794921875 -1.2362060546875 7.993896484375
-0.171875 -3.4500732421875 41.200927734375
0.251708984375 -3.0322265625 34.441162109375
44.91455078125 -1.6766357421875 3.85205078125
-5.37451171875 -5.66259765625 -22.625
1.23291015625 -6.3499755859375 -26.649169921875
-12.8056640625 -1.9691162109375 2.72119140625
13.778076171875 -0.9183349609375 38.42578125
16.591064453125 0.6163330078125 26.981201171875
27.437255859375 -3.1854248046875 -5.3779296875
10.39794921875 0.83935546875 23.085205078125
-4.91650390625 -3.9859619140625 -11.54052734375
-6.20947265625 37.4404296875 -35.040283203125
-12.504150390625 -7.921142578125 47.99462890625
24.091064453125 -5.83251953125 -22.93310546875
-22.50830078125 11.474609375 -34.836669921875
48.44970703125 -2.42578125 -1.62060546875
3.29052734375 -4.012939453125 -11.722412109375
-20.49609375 -4.3450927734375 -16.3095703125
6.24609375 -3.8919677734375 46.977294921875
-22.3076171875 -3.22314453125 -25.44677734375
-11.693603515625 -4.0826416015625 -12.46826171875
47.123291015625 -3.6416015625 -10.48779296875
-22.063232421875 2.3480224609375 -14.617431640625
2.4443359375 -5.0006103515625 47.1279296875
3.07763671875 -1.325439453125 7.044677734375
-2.913818359375 43.6612548828125 -33.411376953125
-21.892578125 -3.166259765625 -39.321044921875
-21.543212890625 -5.0787353515625 -31.3974609375
32.071044921875 -2.5712890625 -1.689453125
37.30859375 -3.6021728515625 -9.767333984375
10.36572265625 -4.1240234375 -12.091552734375
36.546630859375 -1.5997314453125 3.8515625
-4.498291015625 -7.2724609375 54.351806640625
28.859375 0.5374755859375 18.634765625
-14.452392578125 -4.230712890625 66.283935546875
-21.69921875 4.1597900390625 -0.312255859375
-5.18603515625 -3.107666015625 -4.650390625
-21.81494140625 25.81591796875 -22.39111328125
28.419677734375 -3.5274658203125 -8.894775390625
-12.39013671875 -5.157470703125 -18.47607421875
-4.171875 -4.782470703125 -15.925537109375
24.570068359375 1.8134765625 18.16943359375
43.903076171875 -3.1890869140625 -8.685302734375
32.349609375 -5.3487548828125 -21.548583984375
36.63818359375 -5.4881591796875 -22.85546875
31.014404296875 -4.8756103515625 -17.288330078125
20.65087890625 1.4000244140625 25.110595703125
-22.3701171875 10.959716796875 -6.989013671875
14.861083984375 -2.247802734375 1.319091796875
17.44140625 3.1136474609375 31.212646484375
-15.2294921875 -2.8140869140625 60.0966796875
8.483154296875 -0.57666015625 12.201171875
17.435302734375 -5.397705078125 -21.108642578125
10.674072265625 -1.4468994140625 7.03125
44.87158203125 -0.55224609375 9.4609375
-22.24951171875 8.0472412109375 -19.092041015625
32.11328125 -0.0751953125 15.803955078125
27.324951171875 1.1080322265625 24.452880859375
-1.2568359375 -6.5765380859375 -29.718505859375
24.6201171875 -5.099853515625 -18.693115234375
-7.904052734375 -7.1256103515625 -35.23046875
-21.611572265625 30.0091552734375 -24.243896484375
-17.9619140625 -7.737060546875 51.099365234375
29.986083984375 -0.5333251953125 11.8466796875
-9.481689453125 -3.3238525390625 -9.846923828125
6.149169921875 -1.922607421875 38.75341796875
-22.18798828125 11.1854248046875 -22.664306640625
-6.028564453125 -4.9237060546875 38.390869140625
48.49365234375 -4.16943359375 -14.58984375
-15.603271484375 41.3349609375 -31.36865234375
43.193359375 -2.8590087890625 -5.003173828125
2.6865234375 0.2552490234375 21.8720703125
33.658935546875 -1.23681640625 7.489501953125
24.93408203125 -1.84912109375 3.517578125
-22.308837890625 -2.16552734375 -20.452392578125
-21.661865234375 -6.6771240234375 -38.327880859375
39.167724609375 -5.0975341796875 -19.135498046875
-8.77587890625 39.775390625 -34.955810546875
44.2373046875 -5.4439697265625 -22.648681640625
23.90283203125 -3.314697265625 -6.158935546875
27.44873046875 -2.627197265625 -2.05859375
-7.458740234375 -2.4307861328125 0.175048828125
2.353515625 32.92431640625 -30.957763671875
-22.242919921875 4.8692626953125 -11.946044921875
-15.045166015625 -4.11279296875 -12.52001953125
-21.557373046875 -5.883544921875 62.89501953125
38.463134765625 -2.8441162109375 -3.715087890625
19.63916015625 0.5189208984375 18.373291015625
-9.11376953125 -4.8580322265625 -17.230712890625
3.939208984375 -2.4166259765625 0.12890625
10.059326171875 -2.105224609375 44.83056640625
-14.37890625 -7.1278076171875 -32.382080078125
-22.11474609375 13.6363525390625 -20.523193359375
-21.2578125 13.2586669921875 -26.46826171875
-5.6669921875 -3.785400390625 34.8349609375
-1.145751953125 -5.599609375 -22.43310546875
17.4189453125 -3.866455078125 -10.538818359375
4.135498046875 -4.8037109375 -18.876953125
8.66064453125 -3.4156494140625 -6.025390625
-11.1826171875 -7.610595703125 51.482177734375
-8.976806640625 -1.6422119140625 -5.285400390625
16.2138671875 0.4210205078125 19.986572265625
-22.32568359375 8.35107421875 -35.697998046875
-10.935302734375 -5.9476318359375 -24.5810546875
-4.49755859375 -7.18310546875 -34.108154296875
-13.776123046875 -5.8802490234375 61.110107421875
18.67919921875 -0.5989990234375 14.475341796875
-9.268798828125 -6.9705810546875 47.216796875
-4.41845703125 -6.6776123046875 -29.485595703125
5.3388671875 1.9383544921875 22.656494140625
12.709716796875 -6.5333251953125 -29.522216796875
3.227783203125 0.05029296875 17.601318359375
21.875 -4.579833984375 -15.03173828125
37.2314453125 -3.8739013671875 -12.915283203125
-14.90478515625 -4.7921142578125 69.849853515625
-3.049560546875 -2.0218505859375 2.374755859375
-15.48046875 -7.45068359375 -35.791259765625
4.224365234375 27.3463134765625 -32.9853515625
-21.21142578125 -4.8035888671875 -28.19140625
21.96533203125 -2.3226318359375 0.100341796875
40.93896484375 0.0570068359375 14.806884765625
-11.038330078125 -7.131591796875 55.705810546875
-1.503173828125 40.793701171875 -32.031005859375
5.34375 -5.59228515625 -22.388671875
21.554931640625 -1.3397216796875 6.664306640625
5.02685546875 -1.9990234375 4.7451171875
-21.719970703125 2.6640625 -33.872802734375
0.67333984375 -2.3553466796875 0.747314453125
-22.91357421875 -0.1671142578125 -26.547607421875
11.629150390625 -5.9283447265625 -25.4404296875
23.236328125 1.9736328125 29.595947265625
-14.540283203125 -6.969482421875 55.057861328125
-4.702880859375 -4.9796142578125 41.168212890625
2.853515625 -3.225830078125 -5.50146484375
-22.90625 7.947509765625 -7.181884765625
-20.654296875 -3.0904541015625 -10.16015625
12.09716796875 -2.435546875 0.0068359375
-15.72900390625 -7.802734375 48.993408203125
13.699462890625 -0.0152587890625 15.979248046875
-21.98876953125 2.258544921875 -20.533447265625
42.158447265625 -3.0125732421875 -15.150390625
7.08154296875 -3.05908203125 44.18701171875
10.116943359375 -0.3533935546875 14.73681640625
-16.888916015625 -2.7489013671875 -2.8564453125
28.360107421875 -1.78125 4.402099609375
-12.316650390625 -5.4444580078125 -21.474609375
-17.72802734375 -4.911865234375 -17.875244140625
-9.87255859375 -5.0035400390625 38.888916015625
-23.0390625 3.5880126953125 -2.922119140625
-6.72314453125 -6.4375 59.3349609375
-4.716064453125 36.2213134765625 -37.541259765625
48.84228515625 -1.7220458984375 2.443359375
-20.928955078125 4.273681640625 -31.486572265625
49.37255859375 -2.9892578125 -5.646728515625
20.7333984375 -3.49267578125 -7.62841796875
2.173583984375 35.0709228515625 -35.04638671875
-15.332275390625 -6.5660400390625 -29.187744140625
-2.77880859375 -6.1724853515625 51.396728515625
38.282958984375 -1.9224853515625 1.494873046875
23.873779296875 0.890625 23.017822265625
6.16357421875 -6.47509765625 -29.657470703125
25.373291015625 3.1749267578125 32.7197265625
8.726806640625 0.562255859375 20.699462890625
-19.600830078125 -7.0255126953125 -33.19482421875
-8.017333984375 -0.959716796875 -8.975341796875
34.52685546875 -2.9259033203125 -3.811767578125
-26.76611328125 -5.38134765625 66.55029296875
-9.65087890625 -6.957275390625 -32.3056640625
-21.427490234375 -3.04833984375 -13.08740234375
-20.9912109375 -5.365966796875 66.26611328125
17.046875 -2.85693359375 -3.793701171875
39.9716796875 -0.825439453125 10.278076171875
-15.6171875 -3.25927734375 -6.587890625
1.377197265625 -4.4749755859375 -14.923828125
10.36962890625 -5.07861328125 -19.2177734375
-22.399169921875 -0.827392578125 -4.101318359375
26.34130859375 -0.9085693359375 9.7998046875
49.134033203125 -3.4466552734375 -8.447998046875
27.233154296875 -4.7293701171875 -16.843505859375
-24.372314453125 -3.013916015625 73.200927734375
-21.741943359375 9.0416259765625 -27.936279296875
-9.978271484375 -2.0428466796875 2.875
-0.067138671875 -1.17578125 8.316162109375
27.041748046875 1.6390380859375 16.7705078125
-5.84375 -7.2803955078125 51.77099609375
-22.0888671875 5.29736328125 -36.67626953125
-17.06982421875 -6.088623046875 -24.257080078125
18.2509765625 1.1175537109375 23.3154296875
-4.05419921875 -0.0318603515625 11.491943359375
31.096435546875 1.1068115234375 22.326416015625
30.8125 -3.951171875 -10.954833984375
-6.746337890625 -5.1226806640625 -18.687255859375
-8.88671875 -6.562255859375 -29.167724609375
-18.53271484375 -6.3685302734375 -28.6943359375
-11.311767578125 -4.4365234375 -15.174072265625
21.66650390625 -0.6448974609375 12.112060546875
-0.378173828125 -3.3199462890625 37.095458984375
-16.896240234375 -7.3472900390625 53.59326171875
-1.82763671875 -3.870361328125 -9.9755859375
30.484130859375 -2.0885009765625 1.281005859375
-21.828369140625 -0.56640625 -40.129150390625
34.96435546875 -0.932861328125 9.858154296875
-21.122314453125 -4.301513671875 72.446533203125
28.748779296875 1.975341796875 28.066650390625
-22.385986328125 7.2548828125 -31.677490234375
10.092041015625 -3.548828125 -8.87744140625
-12.0751953125 -2.6732177734375 -1.56982421875
39.060546875 -1.6566162109375 5.59326171875
-21.911865234375 -7.4068603515625 52.88671875
35.72216796875 0.79541015625 20.195068359375
-21.491455078125 8.7337646484375 -15.90771484375
-20.705322265625 -0.343994140625 1.318603515625
-17.820068359375 -4.20263671875 73.295654296875
-21.68359375 -4.8087158203125 69.1396484375
-9.6689453125 -1.3839111328125 7.504638671875
-18.081787109375 -6.5863037109375 58.24951171875
14.668701171875 -5.4525146484375 -20.87158203125
-4.569580078125 -1.7066650390625 4.66845703125
-18.706298828125 -2.496826171875 1.999267578125
14.246826171875 -3.0816650390625 -5.936279296875
7.308349609375 -1.5140380859375 6.1572265625
18.09521484375 -6.1268310546875 -26.912109375
9.540283203125 2.9857177734375 24.32763671875
1.909912109375 -4.8070068359375 50.3134765625
32.4287109375 -4.451904296875 -14.039306640625
15.9169921875 2.963623046875 28.674560546875
-0.408447265625 -5.1280517578125 46.49658203125
11.082763671875 -3.213623046875 -4.8369140625
14.493896484375 0.614501953125 40.384521484375
49.361083984375 -4.8170166015625 -18.654296875
11.34912109375 -1.6065673828125 38.975830078125
8.990234375 1.133056640625 43.0478515625
3.9677734375 28.8514404296875 -35.06640625
2.746826171875 39.1126708984375 -33.681396484375
-11.138916015625 -4.898193359375 68.4755859375
43.940673828125 -1.3189697265625 6.363037109375
-21.62451171875 12.9818115234375 -36.69921875
13.665283203125 0.41845703125 20.037353515625
6.005859375 -3.9200439453125 -11.109619140625
34.326416015625 -3.38818359375 -8.348388671875
5.866943359375 0.171630859375 17.3505859375
-3.8896484375 -5.9222412109375 49.128173828125
-3.6953125 38.4862060546875 -34.48193359375
-22.269775390625 -0.9393310546875 -8.0908203125
-2.3359375 -3.5628662109375 33.88671875
-21.458251953125 1.5736083984375 -41.727294921875
-3.108642578125 -2.8604736328125 -2.80224609375
3.8193359375 34.972900390625 -30.86962890625
1.220458984375 -4.5089111328125 44.346923828125
-11.05078125 -5.796630859375 63.193115234375
-22.431396484375 -0.0947265625 -14.15185546875
-22.00537109375 11.3062744140625 -28.9921875
-17.798828125 -2.88623046875 -5.4130859375
-27.214599609375 -5.7578125 63.677978515625
-0.248291015625 44.3958740234375 -32.221923828125
27.368896484375 -3.9202880859375 -11.120849609375
-16.234375 -2.1549072265625 2.062255859375
23.139404296875 -3.9251708984375 -11.44775390625
7.80859375 31.34765625 -35.12548828125
-20.268310546875 -2.4951171875 -2.67724609375
-22.6884765625 3.0933837890625 -10.272705078125
6.828857421875 -2.491943359375 0.281005859375
35.102783203125 -0.1171875 15.097900390625
3.594970703125 1.2305908203125 24.266357421875
-21.2958984375 -2.4437255859375 -41.6396484375
40.0966796875 -2.7579345703125 -9.79248046875
-13.405517578125 37.5831298828125 -34.904052734375
-8.014892578125 -3.7015380859375 33.96533203125
0.7666015625 37.0084228515625 -35.598876953125
-8.9501953125 -7.3740234375 52.454833984375
-12.66650390625 -1.201904296875 -9.0029296875
28.5537109375 0.7301025390625 21.46923828125
35.930908203125 0.47998046875 17.536865234375
6.82421875 -5.0645751953125 -35.394287109375
15.318359375 -4.6282958984375 -15.944580078125
13.555419921875 -1.076171875 9.691650390625
7.798095703125 -4.9344482421875 -17.5205078125
33.835205078125 -2.245849609375 -0.053466796875
-3.014404296875 -5.7205810546875 46.80224609375
-12.39111328125 -6.271484375 -27.093017578125
-22.162353515625 1.16943359375 -18.377685546875
-18.98681640625 -8.07568359375 48.505126953125
3.930908203125 -4.5791015625 -15.760986328125
31.236328125 0.674072265625 18.251953125
13.640869140625 -0.5120849609375 13.62353515625
-44.064697265625 -29.9114990234375 76.462646484375
7.714599609375 -5.5247802734375 -22.7646484375
33.459228515625 1.2734375 22.7158203125
-15.602294921875 -3.671142578125 64.260986328125
51.251953125 1.4381103515625 2.06494140625
-24.78662109375 -6.7496337890625 57.19287109375
-13.76318359375 -2.2081298828125 72.44482421875
-26.901123046875 -4.9334716796875 69.089599609375
-22.1455078125 10.264404296875 -19.972412109375
6.459228515625 -2.6673583984375 40.99951171875
43.128662109375 -1.7554931640625 -10.9951171875
-28.10595703125 -4.7930908203125 59.642578125
-22.317138671875 -1.6544189453125 -36.096435546875
3.76416015625 30.6396484375 -31.46630859375
20.740966796875 2.4755859375 32.626708984375
9.44091796875 -5.77001953125 -24.539794921875
5.090576171875 -0.7039794921875 11.431396484375
39.080322265625 -5.34033203125 -21.5
20.454833984375 -5.4803466796875 -20.981689453125
-4.52783203125 -3.6712646484375 31.8818359375
-21.5361328125 25.9573974609375 -20.052001953125
9.92333984375 -2.3515625 0.921142578125
30.90185546875 -5.1160888671875 -19.630126953125
8.263671875 -4.378173828125 -13.9921875
28.009521484375 -1.223876953125 7.502197265625
-26.14697265625 -4.5748291015625 72.02978515625
18.5224609375 -1.387451171875 6.708984375
-22.841796875 -2.366943359375 -31.96826171875
44.8486328125 -4.9461669921875 -18.74462890625
-5.339599609375 -2.1263427734375 1.898193359375
0.473876953125 -5.949462890625 51.977783203125
2.79736328125 -1.8134765625 34.461669921875
-22.88623046875 -6.2164306640625 61.005126953125
10.35107421875 -1.8533935546875 3.48779296875
16.76416015625 -4.2469482421875 -13.57177734375
-1.5732421875 -2.39990234375 0.165771484375
-6.80322265625 -2.8798828125 -3.00341796875
7.22314453125 -2.8975830078125 -2.248291015625
-7.805908203125 -5.3651123046875 40.1923828125
3.811279296875 -4.9793701171875 48.991943359375
-6.519287109375 -4.8876953125 -16.401123046875
-18.927490234375 -2.3062744140625 74.33447265625
31.20166015625 -1.5650634765625 4.812744140625
13.677734375 3.2293701171875 27.49560546875
14.80712890625 -1.82421875 4.7607421875
24.25341796875 -2.3116455078125 -0.118896484375
-22.349853515625 9.05859375 -33.52001953125
25.85302734375 -3.328125 -7.3525390625
20.548095703125 0.2398681640625 15.8876953125
-11.11865234375 -1.565673828125 -6.07861328125
26.64111328125 1.6492919921875 27.248291015625
9.140625 -5.08203125 -34.67822265625
22.109619140625 -1.0726318359375 8.860107421875
-2.55517578125 -6.2650146484375 56.718994140625
-21.211181640625 -3.831787109375 -19.360595703125
-23.47802734375 -5.5648193359375 64.48681640625
-20.522216796875 9.0003662109375 -24.836181640625
11.12841796875 -1.7679443359375 42.262451171875
1.157958984375 -4.2901611328125 -12.67529296875
18.680908203125 4.3465576171875 28.4912109375
35.064697265625 -1.4482421875 5.72900390625
29.81982421875 -2.5203857421875 -1.572998046875
5.716796875 -3.37353515625 -6.986328125
-19.758544921875 38.1455078125 -29.37109375
-22.9951171875 -1.9952392578125 -23.69091796875
-11.52587890625 -2.1187744140625 0.8779296875
-4.440673828125 -5.880126953125 -24.658203125
-20.9423828125 -2.68603515625 -7.612548828125
0.87841796875 -6.7972412109375 -33.372314453125
22.7724609375 -6.059326171875 -24.732421875
8.615234375 0.011474609375 16.8583984375
43.843017578125 -2.1236572265625 1.781005859375
-19.75244140625 -5.9998779296875 61.581298828125
4.008056640625 -5.816162109375 -24.1669921875
4.600830078125 -2.08642578125 2.236572265625
-22.544921875 15.0499267578125 -10.6875
22.47998046875 -3.727783203125 -9.328857421875
-21.011474609375 9.193115234375 -31.59326171875
-10.160888671875 -5.5382080078125 -22.465087890625
-6.48291015625 -1.4415283203125 6.91455078125
3.610107421875 -6.7659912109375 -32.640380859375
-2.935791015625 45.07080078125 -35.1220703125
-21.3818359375 -6.9267578125 56.442626953125
-17.56689453125 -4.4112548828125 -14.419189453125
0.113525390625 -5.8922119140625 -24.219970703125
25.776123046875 0.939208984375 12.746826171875
-8.037353515625 36.7578125 -36.062255859375
2.284912109375 33.398193359375 -33.619384765625
-15.8896484375 -7.8983154296875 43.966552734375
0.2666015625 -1.6029052734375 5.06982421875
43.748291015625 -2.4825439453125 -1.9931640625
-23.189453125 -4.033203125 -30.4013671875
-21.595703125 4.47607421875 -14.405029296875
-21.87841796875 -0.7734375 -0.68896484375
-17.22216796875 -6.206298828125 -26.80615234375
2.1884765625 30.983642578125 -29.96826171875
-12.553955078125 -7.3182373046875 54.146728515625
-13.4267578125 41.1964111328125 -31.296630859375
4.726318359375 -4.1131591796875 -13.78369140625
-15.271728515625 -4.535400390625 71.98486328125
-21.657470703125 1.809326171875 0.134765625
-5.818603515625 -5.8280029296875 61.346435546875
-7.58837890625 -5.6068115234375 -22.477294921875
-13.72607421875 -1.8331298828125 4.681640625
16.51513671875 -0.5523681640625 14.56591796875
-22.228271484375 8.6153564453125 -38.947509765625
14.37890625 -5.81787109375 -22.98583984375
35.51708984375 -4.68505859375 -17.30859375
38.333740234375 -0.2940673828125 14.72216796875
-12.39990234375 -7.029052734375 -33.9033203125
-21.302001953125 6.69921875 -20.479736328125
-24.39501953125 -6.398681640625 59.478515625
-8.830078125 -1.413330078125 -10.91796875
33.39599609375 -4.9071044921875 -18.400146484375
-12.28515625 -3.9666748046875 64.423828125
4.204345703125 -3.876953125 46.328125
-22.495849609375 22.5098876953125 -16.4130859375
51.472900390625 -4.4149169921875 -15.0830078125
-15.122314453125 -8.2012939453125 46.982177734375
11.125 0.4158935546875 20.087890625
1.426513671875 0.4229736328125 13.077392578125
46.5908203125 -4.354736328125 -12.872802734375
-11.20703125 -1.8341064453125 4.605712890625
-22.150390625 2.5706787109375 -12.498779296875
-22.62890625 1.0924072265625 -8.839111328125
-21.03564453125 -6.2808837890625 59.601318359375
10.818359375 -0.85107421875 10.10595703125
23.62890625 -1.575927734375 5.1767578125
-2.40869140625 -0.96435546875 8.860595703125
13.415771484375 1.007568359375 24.476318359375
-5.695068359375 -5.676025390625 43.66796875
12.153076171875 -2.8294677734375 -2.665771484375
-0.654296875 -2.600341796875 -1.732666015625
48.6298828125 2.4898681640625 4.466796875
33.83447265625 0.2393798828125 17.3798828125
-20.84033203125 -4.8878173828125 -25.16162109375
3.92529296875 33.3089599609375 -29.46240234375
27.94775390625 -0.6812744140625 12.377685546875
14.328125 -3.910400390625 -10.460205078125
7.354248046875 -1.6470947265625 46.1591796875
26.619140625 -4.4652099609375 -14.79736328125
-22.469482421875 19.721435546875 -17.852783203125
-12.187255859375 -7.5606689453125 45.94580078125
23.47216796875 -4.583740234375 -16.401123046875
31.5390625 -0.96875 9.7646484375
17.2939453125 -5.0443115234375 -18.1748046875
-17.124755859375 -3.1417236328125 75.001220703125
-20.56982421875 -6.1060791015625 -29.8525390625
25.31591796875 -2.9749755859375 -4.64990234375
-29.22314453125 -4.3907470703125 70.099609375
37.00537109375 -0.719970703125 10.90234375
8.007080078125 30.2027587890625 -32.88037109375
1.89892578125 -2.6290283203125 -0.913330078125
4.51806640625 -3.2427978515625 41.48291015625
-22.948974609375 -3.2493896484375 74.701171875
21.010498046875 -6.3360595703125 -26.560302734375
-22.74267578125 -3.7701416015625 -36.400390625
-8.879638671875 -5.767822265625 -24.356201171875
29.326416015625 1.257080078125 23.956298828125
23.488525390625 2.35009765625 32.9111328125
31.61572265625 1.36279296875 24.442626953125
20.118896484375 -2.21728515625 1.95654296875
30.103515625 -5.8162841796875 -25.020751953125
-13.024169921875 -3.9962158203125 60.778564453125
38.674072265625 -3.14990234375 -5.736083984375
45.022216796875 -0.8018798828125 -13.361328125
-2.50830078125 38.174072265625 -36.147216796875
19.65771484375 2.79541015625 30.91259765625
35.087890625 -1.99755859375 2.466064453125
-12.997314453125 -5.139892578125 67.645263671875
2.900146484375 0.0938720703125 19.8408203125
-16.274658203125 -7.1026611328125 -33.93505859375
-5.884765625 -6.205078125 -27.179931640625
-1.416748046875 -5.1005859375 48.364990234375
-19.6474609375 8.405029296875 -26.921630859375
-6.048095703125 39.3040771484375 -34.117919921875
3.712890625 -3.527587890625 -8.1494140625
43.91943359375 -4.034912109375 -15.279541015625
0.782470703125 -3.874755859375 -10.077880859375
18.6943359375 -2.6553955078125 -1.9521484375
40.9111328125 -5.0401611328125 -20.6533203125
50.456298828125 -2.401611328125 -1.982666015625
-9.653564453125 -6.17919921875 -26.48388671875
-10.52783203125 38.969970703125 -33.151123046875
42.14208984375 -5.566162109375 -22.99755859375
0.18017578125 40.173828125 -33.82373046875
-0.308837890625 -3.6053466796875 39.17626953125
12.685302734375 -1.2685546875 7.278564453125
-0.79345703125 -4.790771484375 -16.715576171875
-15.383056640625 39.47216796875 -32.142822265625
-9.277587890625 -4.6265869140625 66.51220703125
0.715087890625 -6.5189208984375 -29.26416015625
-18.98876953125 -5.75 -23.71240234375
26.266357421875 -6.1748046875 -26.328369140625
-28.48095703125 -5.216064453125 67.753662109375
26.344970703125 -5.4068603515625 -20.347412109375
48.141845703125 -1.4375 5.210693359375
22.4345703125 -5.461181640625 -21.380859375
-28.43310546875 -5.410888671875 65.41259765625
29.4052734375 -5.6077880859375 -22.80712890625
-21.54541015625 -3.04052734375 -17.53662109375
-9.10546875 -4.0875244140625 -12.574462890625
-0.743896484375 -6.0062255859375 -26.0927734375
16.3359375 -5.8387451171875 -24.250244140625
-22.270751953125 -1.533447265625 -38.207763671875
16.4228515625 0.68994140625 21.96826171875
-18.196044921875 -5.1787109375 68.157470703125
19.18701171875 -1.9559326171875 3.751708984375
12.473388671875 0.276123046875 18.32421875
-14.61962890625 -5.1407470703125 -19.170654296875
-21.944091796875 19.3082275390625 -15.235107421875
18.360595703125 0.376220703125 19.904296875
-19.681640625 -4.615234375 -18.176513671875
-22.734130859375 -3.2198486328125 -27.3974609375
31.33154296875 -0.58154296875 14.040283203125
38.970458984375 -3.6400146484375 -11.967529296875
15.8994140625 -3.375244140625 -7.512451171875
31.90673828125 -3.42333984375 -7.1708984375
11.97998046875 -4.969482421875 -18.05078125
-8.119384765625 -0.1060791015625 7.946533203125
-16.916259765625 -3.95703125 60.90673828125
8.5751953125 -2.6241455078125 -0.661376953125
-6.396728515625 -3.9837646484375 -10.216064453125
33.93017578125 -5.92724609375 -24.6201171875
43.416015625 -5.298828125 -20.31787109375
-21.95703125 2.9918212890625 -17.6171875
-14.92431640625 -6.387451171875 59.562744140625
-11.23291015625 -6.645263671875 57.620361328125
9.8125 -4.8150634765625 -17.177001953125
-18.701904296875 -0.539306640625 2.30419921875
24.0966796875 0.669189453125 21.064697265625
-25.822998046875 -6.2393798828125 60.8369140625
44.91796875 -2.6270751953125 -4.064453125
-21.25146484375 5.9564208984375 -30.501220703125
12.527099609375 -5.751708984375 -23.671630859375
-16.175048828125 -5.55859375 -22.37451171875
13.0830078125 -4.5364990234375 -14.9658203125
1.550048828125 -3.462646484375 40.2333984375
28.273193359375 -6.1163330078125 -25.8671875
-14.039794921875 -5.675048828125 -22.408935546875
-17.944580078125 -5.4781494140625 -21.253173828125
-2.572021484375 -4.6749267578125 -14.776123046875
21.47412109375 0.92041015625 18.968505859375
-9.33935546875 -2.107666015625 0.66455078125
8.922119140625 -5.4249267578125 -20.76220703125
4.7666015625 -3.1683349609375 -5.04931640625
26.1875 -2.2877197265625 -0.472900390625
-23.142333984375 2.9893798828125 -0.955078125
-0.337158203125 -3.462158203125 -6.8447265625
29.764892578125 -3.21142578125 -6.43505859375
-4.155029296875 -3.57666015625 -7.74609375
-3.5068359375 -6.941650390625 -32.4345703125
-16.989990234375 -2.5150146484375 -0.811767578125
22.224365234375 -2.9852294921875 -3.764404296875
48.8935546875 -3.9073486328125 -11.27001953125
6.76318359375 28.0028076171875 -33.482421875
18.121337890625 -6.573486328125 -28.809326171875
-9.1953125 -1.625244140625 5.63037109375
16.118408203125 -2.5919189453125 -1.96923828125
-25.35498046875 -5.5364990234375 65.22314453125
6.54541015625 -4.1781005859375 -13.110107421875
4.512939453125 -1.343505859375 8.349365234375
-13.218505859375 -7.6314697265625 50.171875
11.8115234375 -3.746826171875 -9.7470703125
-1.166748046875 -1.964599609375 2.823974609375
52.32861328125 -3.554931640625 -5.4287109375
-22.5185546875 -0.3916015625 -19.715087890625
19.179443359375 -3.9930419921875 -9.754150390625
-7.709716796875 -2.6424560546875 -6.345458984375
6.952880859375 -1.9146728515625 4.302490234375
-19.176513671875 -3.15771484375 -6.9931640625
-6.143310546875 -4.4954833984375 -13.52001953125
3.037353515625 -6.0540771484375 -25.814697265625
-21.79150390625 -1.4771728515625 -12.03466796875
-20.599365234375 -6.8421630859375 -34.82275390625
-13.7509765625 -2.8968505859375 -2.473876953125
-30.416748046875 -4.061767578125 65.14794921875
7.662109375 -5.3804931640625 -33.50048828125
7.816650390625 -5.880615234375 -25.720458984375
-4.3984375 -5.4276123046875 -20.997802734375
33.96484375 -2.609375 -1.941162109375
-22.032958984375 27.7012939453125 -22.60986328125
-4.068603515625 -5.0328369140625 44.4609375
2.059326171875 -2.865966796875 -2.9814453125
27.00146484375 -0.4271240234375 14.123291015625
21.21142578125 1.1688232421875 23.30224609375
-15.519287109375 -1.42724609375 4.17529296875
-21.220458984375 2.1602783203125 -39.14599609375
-0.962646484375 42.76220703125 -32.89111328125
40.336181640625 -2.524169921875 -3.822265625
3.435302734375 -0.516357421875 13.867919921875
49.752197265625 -1.0755615234375 4.0654296875
14.406494140625 -6.3590087890625 -28.446044921875
-10.3583984375 -7.1004638671875 53.69775390625
11.122314453125 0.8729248046875 24.838623046875
20.936767578125 -4.81494140625 -16.659912109375
-22.74072265625 10.0546875 -5.3681640625
45.687255859375 -3.027587890625 -9.4208984375
7.140869140625 -0.0289306640625 15.6748046875
37.161376953125 -5.15625 -19.5986328125
3.331298828125 -0.232177734375 15.73974609375
10.12939453125 -4.4189453125 -14.2626953125
29.64599609375 -2.844970703125 -4.5283203125
11.84375 -0.0421142578125 16.295654296875
-25.318115234375 -5.25537109375 68.124755859375
25.517333984375 1.1102294921875 23.9033203125
51.751953125 -3.712158203125 -9.906005859375
22.448974609375 1.3978271484375 25.657958984375
-21.5546875 6.181640625 -15.192138671875
22.809326171875 1.8763427734375 17.517333984375
-1.175048828125 -3.8046875 35.46484375
4.89599609375 -6.1375732421875 -26.96875
20.350830078125 -4.5140380859375 -13.78125
-22.27734375 -5.652587890625 -39.773681640625
-19.340087890625 -7.463623046875 52.34130859375
8.98291015625 -1.703369140625 5.3388671875
-23.2548828125 1.4300537109375 -4.612548828125
29.68212890625 -0.93359375 9.995361328125
20.91259765625 -5.9530029296875 -24.55615234375
22.189453125 -6.39453125 -28.0068359375
13.06787109375 -3.0948486328125 -4.48974609375
44.009033203125 -4.47607421875 -17.146240234375
-17.0 -3.8922119140625 -10.048583984375
-8.9912109375 -6.051025390625 62.882080078125
13.649169921875 1.6702880859375 26.474853515625
45.60302734375 -2.5830078125 -2.13916015625
-3.24755859375 41.4473876953125 -32.0458984375
50.618408203125 -3.94677734375 -13.495361328125
-22.153564453125 11.12451171875 -36.734619140625
15.13916015625 0.576904296875 25.8193359375
16.70361328125 -2.2847900390625 1.0751953125
22.1005859375 0.4913330078125 20.807861328125
-3.76953125 -3.16796875 -5.843505859375
-1.688720703125 -2.9200439453125 -3.988525390625
19.125732421875 -0.616943359375 11.295166015625
4.873779296875 28.887939453125 -32.20068359375
-21.6025390625 -5.0933837890625 -33.2431640625
-9.34130859375 -7.0997314453125 56.88232421875
-7.221923828125 -6.408447265625 -29.946533203125
-20.035888671875 -5.0787353515625 68.093505859375
50.854248046875 -5.01171875 -19.717041015625
-24.301513671875 -6.4923095703125 54.765625
27.031982421875 0.5699462890625 18.849853515625
12.399658203125 1.0162353515625 41.284912109375
22.0791015625 2.7899169921875 34.008544921875
-2.96484375 39.645751953125 -32.947021484375
-13.70361328125 -2.244384765625 60.94970703125
-16.690673828125 -4.62060546875 -16.3876953125
42.313720703125 -3.1268310546875 -7.446533203125
20.82470703125 -0.8043212890625 10.48779296875
-4.306396484375 37.474853515625 -36.263671875
-4.298583984375 -4.1729736328125 33.673828125
39.885009765625 -3.61474609375 -13.61083984375
-1.5625 -6.6666259765625 52.676513671875
-21.123779296875 -6.5477294921875 -36.554443359375
24.80322265625 2.1588134765625 31.30517578125
-5.585693359375 -6.6422119140625 57.914306640625
8.5439453125 -0.92431640625 10.40478515625
5.701416015625 -3.7135009765625 48.7158203125
27.150634765625 1.295166015625 14.975830078125
16.283203125 -6.38525390625 -26.884521484375
-19.609619140625 -4.3470458984375 70.99072265625
-17.724853515625 39.387451171875 -31.855712890625
12.988525390625 4.76220703125 26.772705078125
-5.592041015625 41.905029296875 -32.74169921875
-22.042724609375 24.4730224609375 -19.110595703125
-18.60205078125 -4.701171875 -15.89892578125
-20.092529296875 -6.62451171875 57.70263671875
-0.080078125 -4.439453125 43.0712890625
27.7080078125 -5.70263671875 -22.150390625
-11.966796875 38.276611328125 -34.027587890625
11.7900390625 -4.2496337890625 -13.217529296875
-7.9560546875 -6.6878662109375 57.98681640625
11.546142578125 -0.405517578125 13.615234375
7.813720703125 -2.3690185546875 39.3291015625
-0.9248046875 -3.176025390625 32.810302734375
40.2265625 -4.733154296875 -17.708251953125
-3.004150390625 -5.556884765625 -22.149658203125
1.828369140625 31.529052734375 -31.982421875
-23.017822265625 6.38818359375 -2.53955078125
43.358154296875 -1.767333984375 -14.619873046875
-13.37548828125 -6.4874267578125 -29.712158203125
18.476318359375 -2.9786376953125 -4.891357421875
-10.11083984375 -7.5208740234375 48.716796875
30.475830078125 -5.2430419921875 -21.3759765625
-16.1533203125 -7.579833984375 51.362548828125
38.351806640625 -0.990478515625 9.26123046875
45.54296875 -4.717529296875 -14.28955078125
5.22998046875 -3.2012939453125 43.134521484375
8.262939453125 0.85400390625 22.412109375
13.562255859375 -6.3763427734375 -26.750244140625
18.33203125 -2.119384765625 2.0947265625
-11.124755859375 -3.4898681640625 -10.873291015625
29.956298828125 -4.123046875 -12.686279296875
15.0732421875 3.9249267578125 26.609375
20.916259765625 -2.7061767578125 -2.068603515625
-19.1728515625 -6.383544921875 59.656982421875
5.502197265625 -1.4786376953125 6.390869140625
-21.58935546875 10.27099609375 -24.168701171875
-0.231201171875 -4.165283203125 -11.558349609375
2.237060546875 -2.251708984375 1.86181640625
42.6875 -0.731201171875 10.900634765625
-22.83642578125 -0.586669921875 -2.18359375
-7.0166015625 -4.4954833984375 35.762451171875
-12.98828125 -7.0986328125 56.480712890625
-20.201416015625 -7.5799560546875 -37.844482421875
26.1708984375 -0.6177978515625 11.7197265625
24.001953125 1.0323486328125 12.870849609375
52.0361328125 -2.2945556640625 -0.8291015625
-12.77587890625 -4.43310546875 -13.83740234375
24.111328125 3.13134765625 14.647216796875
29.586181640625 -4.68408203125 -16.246337890625
23.953369140625 -1.043212890625 10.203857421875
-13.193603515625 -5.0302734375 69.437255859375
-19.2412109375 -5.5721435546875 66.4853515625
-22.279296875 13.2967529296875 -10.599853515625
5.718505859375 0.4527587890625 24.005859375
-15.124267578125 -4.9954833984375 68.10205078125
-14.057861328125 -2.1173095703125 0.960205078125
46.071533203125 -0.5936279296875 8.159423828125
-21.924072265625 14.2611083984375 -27.764404296875
-1.97216796875 45.1510009765625 -33.262939453125
-13.075439453125 -4.725830078125 -15.98974609375
15.01318359375 0.248291015625 17.50634765625
18.560546875 -3.9169921875 -11.90869140625
33.484375 -3.280029296875 -5.190673828125
24.527587890625 -5.86279296875 -24.6416015625
10.740966796875 -1.7998046875 5.205810546875
-2.90966796875 -4.2333984375 -13.10400390625
-20.500732421875 -2.0906982421875 1.49267578125
39.840576171875 -1.1397705078125 7.40234375
37.307373046875 -1.497314453125 5.62353515625
-12.447509765625 -6.5482177734375 59.2001953125
38.18994140625 -4.71533203125 -16.457275390625
22.761474609375 1.782470703125 27.4248046875
-4.856201171875 -2.762451171875 -2.659423828125
0.351318359375 0.430419921875 16.81103515625
-17.714111328125 -4.524658203125 63.05029296875
2.802490234375 -3.590087890625 41.609619140625
-13.3564453125 39.64599609375 -32.69189453125
-22.2373046875 12.38134765625 -8.006103515625
-15.380615234375 -4.7579345703125 60.013671875
24.84228515625 1.736328125 28.940185546875
-12.423095703125 -4.8446044921875 65.93017578125
-20.849853515625 10.85693359375 -27.75146484375
-21.419677734375 2.2283935546875 -35.637451171875
-4.223876953125 -4.4664306640625 38.080322265625
0.16455078125 -6.71044921875 -30.90771484375
8.967529296875 -3.96240234375 -10.14404296875
36.25537109375 -2.7305908203125 -3.70263671875
-6.57470703125 35.8145751953125 -36.469482421875
-6.085205078125 -3.27294921875 -6.319580078125
-6.25927734375 -7.005859375 56.2177734375
6.74755859375 -0.4827880859375 12.324462890625
3.801513671875 -6.5009765625 -28.39697265625
42.30908203125 -4.14501953125 -16.461669921875
-8.519287109375 -2.7738037109375 -1.158447265625
-10.400390625 -2.44970703125 -0.666259765625
-22.4326171875 6.64404296875 -37.71630859375
-21.13671875 -3.482666015625 -14.74267578125
8.951416015625 28.6734619140625 -33.220703125
-22.592529296875 20.7366943359375 -16.45263671875
-7.80615234375 -7.2286376953125 53.98779296875
-8.107421875 -5.3114013671875 38.48779296875
-21.230224609375 28.324462890625 -24.36669921875
-22.588623046875 11.57958984375 -30.5986328125
-17.304931640625 -6.77880859375 56.715087890625
29.391845703125 -1.4345703125 5.74755859375
-15.238037109375 -6.68701171875 57.181396484375
40.775390625 -1.4620361328125 5.710205078125
-17.43505859375 -7.10400390625 -35.217529296875
-8.30859375 -6.3643798828125 60.135986328125
5.1982421875 -4.86669921875 -17.515625
-25.94580078125 -6.6529541015625 58.761474609375
-2.153076171875 -5.875 -24.923583984375
-21.2734375 -5.6240234375 64.584716796875
-29.845458984375 -5.4847412109375 63.750732421875
7.01171875 0.65380859375 20.811767578125
-16.616943359375 -6.4371337890625 59.133544921875
36.43896484375 -4.4478759765625 -15.664306640625
16.0439453125 -3.6802978515625 -9.52880859375
18.162841796875 1.1141357421875 26.507568359375
12.6728515625 -4.0792236328125 -11.50146484375
-11.99609375 -1.644775390625 -10.51611328125
-6.0849609375 -4.226318359375 33.233642578125
-23.3408203125 -4.858154296875 68.71484375
-10.705322265625 -7.2596435546875 -33.85595703125
18.335693359375 0.7777099609375 21.565185546875
-22.452392578125 0.5670166015625 -21.654052734375
5.4775390625 -2.7645263671875 -1.300537109375
7.670166015625 0.6280517578125 24.261962890625
-22.428955078125 5.383056640625 -1.24755859375
-8.184814453125 -2.73291015625 -8.915771484375
34.779541015625 0.517822265625 18.78955078125
-22.60009765625 0.8365478515625 -11.74853515625
2.08203125 -5.3812255859375 -20.10107421875
36.874267578125 0.7584228515625 18.94775390625
15.9912109375 -4.20849609375 -12.060546875
47.216552734375 -1.76025390625 2.930419921875
47.295654296875 -2.31689453125 -0.38134765625
-16.707275390625 -4.979736328125 68.945556640625
-3.05517578125 36.3165283203125 -37.2158203125
48.9521484375 -3.98193359375 -12.9697265625
24.51025390625 -1.9647216796875 1.882080078125
-4.980712890625 -0.62158203125 9.072265625
40.346923828125 -3.0159912109375 -5.519287109375
-16.69873046875 -7.5140380859375 -36.9619140625
-21.47216796875 -3.6463623046875 -21.6123046875
-18.29931640625 -5.0953369140625 -19.45458984375
36.708251953125 0.0457763671875 16.101806640625
-16.759765625 38.856201171875 -33.1357421875
-2.301513671875 -6.4564208984375 -28.398193359375
2.923095703125 30.7669677734375 -36.382080078125
-18.35205078125 -2.457275390625 0.3505859375
-15.33837890625 -5.8355712890625 -24.280517578125
-22.02685546875 17.9124755859375 -14.292724609375
-20.52685546875 -5.0089111328125 -22.9990234375
-21.982421875 6.2886962890625 -18.993408203125
-18.857666015625 -2.5716552734375 -1.25732421875
43.269287109375 -2.4619140625 -0.378173828125
45.88671875 -5.3714599609375 -22.32275390625
0.911376953125 38.4273681640625 -34.70751953125
-22.201171875 3.4775390625 -6.644287109375
-3.93701171875 -3.78857421875 35.365478515625
-14.98583984375 -8.7532958984375 45.094482421875
5.049072265625 -3.7117919921875 -9.1474609375
24.94189453125 1.109375 19.646240234375
-6.467529296875 -3.13037109375 30.270263671875
-9.563720703125 -7.25830078125 -35.428466796875
-10.24365234375 -4.8565673828125 -18.468994140625
-22.366455078125 -5.3974609375 -37.50732421875
45.594482421875 -1.185546875 6.58544921875
-21.186279296875 8.74267578125 -17.55322265625
-21.211181640625 4.1375732421875 -35.856689453125
21.695068359375 -0.1751708984375 13.712890625
-16.523193359375 -6.972412109375 55.171630859375
44.57080078125 -3.107421875 -5.9033203125
19.87353515625 -1.5648193359375 5.7548828125
-14.484375 -3.9326171875 -10.966064453125
-14.309814453125 38.6419677734375 -33.701171875
15.112548828125 -4.379638671875 -13.781982421875
-23.295166015625 -6.87646484375 56.471923828125
34.961181640625 -4.1448974609375 -12.08642578125
-20.040283203125 -5.9793701171875 -28.11767578125
-18.76220703125 -2.8056640625 -3.302490234375
27.827392578125 -2.155029296875 -0.25537109375
-0.645751953125 -6.323974609375 -28.196533203125
26.15380859375 -5.791015625 -24.3193359375
-29.95849609375 -4.431884765625 68.613037109375
22.486328125 -3.6552734375 -7.671630859375
-21.57421875 -1.837646484375 -6.082763671875
