-20.029541015625 57.098388671875 55.063232421875
-9.30908203125 0.6722412109375 26.378662109375
-5.172119140625 64.4263916015625 42.2291259765625
-51.955322265625 0.4837646484375 -1.926513671875
-39.455322265625 7.0809326171875 14.52880859375
-56.4384765625 14.1710205078125 -3.255126953125
-34.59033203125 26.9287109375 38.523193359375
15.302734375 7.3548583984375 33.186279296875
-50.57763671875 -18.697998046875 22.2822265625
7.24853515625 37.9864501953125 43.0162353515625
37.8369140625 29.8516845703125 -39.6337890625
9.46142578125 39.548583984375 -5.9696044921875
19.63330078125 38.580322265625 -10.86376953125
-64.116943359375 34.4749755859375 -7.4443359375
-46.7109375 -4.3956298828125 1.7061767578125
28.728271484375 21.9984130859375 8.8895263671875
-15.09912109375 50.3096923828125 53.4171142578125
-41.6572265625 -2.638916015625 4.524169921875
-9.6787109375 -18.5999755859375 18.845458984375
-62.926025390625 -65.969482421875 -56.4051513671875
-31.507080078125 18.4833984375 24.2642822265625
34.969970703125 2.323486328125 6.78955078125
-19.63916015625 67.73828125 45.2158203125
-31.1103515625 -56.0771484375 -37.2938232421875
-34.84716796875 44.85498046875 54.597900390625
47.820068359375 19.1436767578125 -3.6270751953125
-38.276611328125 -23.969970703125 32.9974365234375
-55.483642578125 -60.709228515625 -51.00244140625
-0.486572265625 4.7803955078125 19.1832275390625
-76.773193359375 10.7939453125 82.3035888671875
-67.278076171875 24.3968505859375 -3.868896484375
-27.55078125 -17.7559814453125 17.8050537109375
29.78857421875 6.8797607421875 30.25048828125
74.11865234375 -38.035400390625 -52.5638427734375
32.093505859375 -6.146240234375 36.173828125
14.89794921875 22.476318359375 7.89697265625
-58.93115234375 22.6917724609375 12.65478515625
-19.476318359375 9.623779296875 13.412109375
22.760986328125 14.2808837890625 18.5902099609375
-78.251708984375 -44.5694580078125 -54.53955078125
9.697021484375 3.1060791015625 25.11376953125
56.615966796875 40.97509765625 61.38330078125
-67.58056640625 -1.5823974609375 3.4520263671875
7.768798828125 24.13427734375 22.0439453125
-77.878173828125 34.9312744140625 -14.57080078125
-2.986572265625 -35.5111083984375 37.444580078125
-27.981689453125 4.891357421875 12.7152099609375
-27.460205078125 28.7913818359375 41.009521484375
-68.705322265625 -68.4627685546875 -52.2755126953125
15.350341796875 41.2139892578125 -12.4534912109375
25.6201171875 28.6318359375 0.2230224609375
43.2451171875 19.80224609375 29.4267578125
39.66943359375 10.36279296875 16.059326171875
-71.477294921875 43.4822998046875 -20.4117431640625
-45.05322265625 4.3681640625 8.5948486328125
25.4814453125 0.5595703125 11.5711669921875
-34.760009765625 0.697998046875 7.1090087890625
-2.302490234375 45.7872314453125 36.263916015625
-45.8740234375 -69.8160400390625 -55.09814453125
-71.236083984375 36.0316162109375 -13.9661865234375
-45.366943359375 25.997802734375 -57.8922119140625
51.759033203125 39.1383056640625 55.5787353515625
-55.410400390625 -10.2105712890625 4.72412109375
19.986328125 47.4752197265625 -16.809326171875
6.455322265625 -9.1539306640625 23.198974609375
54.315185546875 13.9989013671875 63.5628662109375
9.95947265625 -20.0521240234375 27.1263427734375
7.6982421875 39.629150390625 4.6962890625
-33.174560546875 22.1109619140625 32.026611328125
-14.066162109375 -2.1348876953125 8.447509765625
-62.330322265625 -8.5750732421875 12.8310546875
11.973388671875 16.9405517578125 18.338134765625
44.708984375 21.6800537109375 -20.7020263671875
-11.5166015625 75.7056884765625 35.9022216796875
-25.129150390625 -16.525146484375 22.04736328125
-6.036376953125 67.817138671875 37.4088134765625
-59.956298828125 38.1270751953125 -2.126220703125
-46.924560546875 -23.540771484375 31.7635498046875
8.579345703125 33.093017578125 5.7030029296875
-67.802978515625 -4.6141357421875 77.1629638671875
-4.461181640625 52.7711181640625 53.5791015625
-22.71826171875 19.8775634765625 31.4521484375
-72.968017578125 -51.2933349609375 -53.4678955078125
23.09716796875 17.111572265625 12.54296875
11.20947265625 34.529296875 -3.8310546875
-15.950439453125 30.8009033203125 42.2945556640625
-22.353271484375 5.1900634765625 13.7657470703125
-64.0810546875 -61.08544921875 -56.2408447265625
23.863037109375 52.172607421875 -18.5062255859375
56.362060546875 45.556396484375 59.4051513671875
2.345703125 -8.857177734375 20.148193359375
3.06982421875 -36.2540283203125 36.9111328125
-73.07763671875 3.3697509765625 79.5361328125
47.47412109375 7.5389404296875 68.333984375
5.092041015625 -0.42138671875 25.0076904296875
-13.017578125 10.085205078125 14.73095703125
28.8056640625 15.4326171875 17.6544189453125
-2.409423828125 -26.4139404296875 32.21337890625
1.60791015625 37.5994873046875 38.884033203125
-63.506103515625 -5.701416015625 8.28125
7.116455078125 47.730712890625 38.3775634765625
-22.404052734375 0.2022705078125 5.385009765625
31.6435546875 18.9033203125 15.7264404296875
-40.559814453125 10.6177978515625 18.3323974609375
62.329833984375 -13.1644287109375 -31.3922119140625
-13.243408203125 23.21826171875 29.271728515625
-14.01708984375 2.4605712890625 9.9874267578125
-63.885498046875 46.5970458984375 -16.128662109375
28.46826171875 38.636474609375 -4.21240234375
-18.335205078125 75.0792236328125 36.3955078125
-53.197265625 -19.1749267578125 13.6458740234375
-37.53466796875 55.8138427734375 56.365966796875
62.969970703125 16.5406494140625 66.883544921875
-20.718505859375 -24.052734375 30.6962890625
7.106689453125 42.10546875 -0.43896484375
23.35546875 22.0672607421875 5.950927734375
2.67333984375 48.9378662109375 -2.891845703125
-4.13720703125 40.388671875 41.917236328125
-44.14208984375 -16.06640625 17.9183349609375
-46.448974609375 -18.3631591796875 27.1920166015625
16.531494140625 27.572265625 -0.0994873046875
35.5576171875 8.9422607421875 36.9761962890625
-53.90234375 5.0347900390625 -0.1341552734375
2.4619140625 45.0167236328125 35.912109375
27.529541015625 50.7413330078125 -11.36328125
-34.453857421875 -16.4736328125 21.0887451171875
9.900390625 55.237548828125 -11.7449951171875
-15.251220703125 -2.7271728515625 22.4786376953125
32.06640625 0.66015625 35.485595703125
-35.036865234375 5.2379150390625 12.4417724609375
-64.960205078125 28.3621826171875 -2.5067138671875
20.355712890625 5.819091796875 32.926513671875
-34.498779296875 14.3878173828125 22.7364501953125
-12.93505859375 31.9810791015625 45.677490234375
-3.727783203125 -5.6302490234375 24.1102294921875
-7.5810546875 71.857666015625 34.0692138671875
-4.531982421875 14.1513671875 21.5460205078125
-14.021728515625 -8.6890869140625 22.5377197265625
71.500732421875 -49.31640625 -33.64599609375
27.447021484375 -6.585205078125 36.653564453125
3.385498046875 10.5604248046875 12.9342041015625
-20.5419921875 -9.2259521484375 14.4384765625
-37.7998046875 21.120849609375 31.2376708984375
22.146240234375 24.99658203125 2.55859375
-49.430419921875 -7.9957275390625 2.7392578125
-27.921875 45.6170654296875 47.60595703125
-27.569580078125 22.091796875 28.3551025390625
21.940673828125 -1.1510009765625 36.296630859375
-24.9775390625 40.631591796875 47.9169921875
-3.609130859375 16.9263916015625 15.3123779296875
14.6162109375 19.223388671875 11.7745361328125
-37.7109375 29.4395751953125 40.7578125
35.513671875 15.8629150390625 25.921142578125
43.257080078125 5.462646484375 79.0233154296875
-74.22607421875 18.92919921875 -1.0830078125
-5.977783203125 9.1751708984375 17.6097412109375
35.58203125 31.2791748046875 -46.51513671875
-15.317626953125 -31.654296875 35.97802734375
-7.7822265625 -7.8870849609375 20.7235107421875
-5.063720703125 32.578369140625 44.1007080078125
-34.1826171875 -7.7005615234375 6.6787109375
-45.598876953125 5.005859375 1.6126708984375
-48.355712890625 0.9775390625 0.736328125
-63.216552734375 20.8565673828125 2.7501220703125
-5.5166015625 -24.86279296875 23.028564453125
0.223388671875 32.683837890625 40.703369140625
-61.49755859375 -10.8983154296875 79.42919921875
-31.56640625 -15.3824462890625 11.8851318359375
-67.704833984375 16.243896484375 2.7960205078125
-41.934326171875 -10.5587158203125 11.3721923828125
-47.309326171875 18.7921142578125 -52.9586181640625
-28.578369140625 32.7030029296875 44.2095947265625
-17.749267578125 59.162109375 46.7894287109375
-49.060302734375 8.8507080078125 -2.8089599609375
-63.540771484375 18.6224365234375 11.3489990234375
-79.129150390625 27.3765869140625 -7.1007080078125
-41.425537109375 -15.2225341796875 24.283447265625
-73.306396484375 11.665771484375 5.7314453125
-1.78857421875 54.6947021484375 -5.7723388671875
55.5341796875 7.174560546875 73.6727294921875
-28.607421875 9.001220703125 16.919189453125
11.421630859375 25.7288818359375 7.3125
-58.11328125 -13.9698486328125 9.412109375
-1.352783203125 55.7430419921875 -1.37158203125
-61.057373046875 -12.796142578125 12.88818359375
-51.328125 -19.6060791015625 17.6339111328125
-53.820556640625 -19.8316650390625 25.01953125
-39.373291015625 16.107421875 25.4593505859375
-49.341552734375 -58.952880859375 -53.4271240234375
-48.944091796875 32.0706787109375 30.6385498046875
18.41845703125 16.9844970703125 20.6258544921875
-62.068115234375 -70.9947509765625 -57.1173095703125
53.763671875 9.06982421875 65.7669677734375
3.9619140625 -16.9346923828125 20.803466796875
10.597900390625 -1.2493896484375 32.96337890625
-62.328857421875 25.078125 5.7410888671875
-10.644775390625 47.34765625 52.2677001953125
-49.7431640625 -16.1849365234375 9.7552490234375
56.210205078125 10.7083740234375 69.9063720703125
-81.9404296875 21.85595703125 0.16796875
22.82421875 -6.6083984375 -57.4183349609375
-58.706787109375 -64.40283203125 -57.0662841796875
-9.219970703125 56.1865234375 46.0928955078125
-52.876953125 -1.9468994140625 3.689697265625
-76.003662109375 -1.00537109375 -1.7242431640625
-52.34423828125 39.106201171875 26.0291748046875
-66.853759765625 32.267822265625 -10.0028076171875
-76.02099609375 -53.817138671875 -50.787109375
-30.38671875 38.1756591796875 50.964111328125
-76.544677734375 24.251708984375 -4.7718505859375
-13.73291015625 -15.177001953125 20.04296875
7.6923828125 5.0604248046875 20.95849609375
-1.23974609375 -16.327392578125 17.5762939453125
-80.052001953125 -1.636474609375 3.849365234375
52.854248046875 47.4002685546875 60.914794921875
48.964599609375 7.2786865234375 72.288330078125
-33.46435546875 -18.252197265625 25.9775390625
-34.168701171875 11.48974609375 19.6700439453125
-2.851318359375 65.728515625 45.5162353515625
-45.022705078125 -15.4881591796875 12.133056640625
-69.2822265625 -57.34619140625 -52.2340087890625
-34.614013671875 -60.3038330078125 -38.4036865234375
37.8623046875 -1.116943359375 10.9517822265625
-20.518798828125 30.568115234375 45.31982421875
71.2431640625 11.236572265625 -17.207275390625
-10.555419921875 4.989501953125 11.8626708984375
10.77783203125 -16.9842529296875 24.3577880859375
-4.85302734375 61.5455322265625 45.50927734375
48.24462890625 5.439208984375 78.36962890625
28.02392578125 42.4031982421875 -7.438720703125
-36.712890625 41.4864501953125 56.235595703125
-27.94482421875 -9.6976318359375 6.83935546875
-22.29541015625 53.3782958984375 57.0517578125
0.88427734375 -63.71728515625 -71.91064453125
-31.540283203125 41.165283203125 53.8831787109375
-15.14501953125 -23.3704833984375 29.7076416015625
-62.310791015625 42.6319580078125 -9.1005859375
42.033935546875 4.5439453125 12.5025634765625
40.075927734375 18.9951171875 31.95458984375
12.560302734375 3.4256591796875 29.828857421875
9.441650390625 29.054931640625 13.1190185546875
-32.11865234375 27.58642578125 41.7607421875
16.07666015625 0.7059326171875 36.3985595703125
-5.78466796875 77.7989501953125 32.3018798828125
13.956787109375 -10.07568359375 28.6348876953125
54.9287109375 25.2183837890625 33.8343505859375
-3.476806640625 -11.8935546875 18.0316162109375
66.767578125 22.537353515625 70.3717041015625
-24.890625 57.3873291015625 56.2677001953125
2.750244140625 19.6331787109375 21.8853759765625
-1.540771484375 -23.6036376953125 21.6314697265625
-51.272705078125 -66.235595703125 -57.573486328125
-60.01953125 5.7542724609375 -0.4815673828125
-79.85888671875 42.364013671875 -20.010498046875
-80.328857421875 32.4736328125 -11.209716796875
-17.119873046875 37.7574462890625 44.442626953125
-31.92041015625 -2.115478515625 3.691162109375
-23.2431640625 50.474609375 53.7823486328125
-74.661865234375 -43.012451171875 -53.4439697265625
36.178466796875 27.8197021484375 -42.736083984375
-9.18798828125 3.7117919921875 23.6912841796875
-23.703369140625 34.5228271484375 46.81005859375
-19.062744140625 58.5946044921875 51.4169921875
-58.066650390625 10.430908203125 1.0318603515625
-76.79541015625 -37.3170166015625 38.95361328125
-65.6982421875 39.18603515625 -14.7125244140625
3.639404296875 -12.7032470703125 21.5167236328125
-4.7099609375 1.396484375 26.6466064453125
-7.220458984375 42.3251953125 43.6728515625
8.203369140625 42.2230224609375 44.5250244140625
-33.367919921875 -50.06689453125 -40.6427001953125
-57.449462890625 -4.3360595703125 1.1949462890625
4.99072265625 55.2027587890625 -5.620361328125
-14.111328125 53.1763916015625 50.7672119140625
4.057373046875 41.9864501953125 39.6182861328125
-35.0634765625 -10.897705078125 9.6627197265625
-66.25537109375 14.244140625 9.94287109375
-78.4921875 17.927490234375 -0.1514892578125
-44.705810546875 36.021240234375 36.099365234375
-31.316650390625 58.5570068359375 50.927734375
19.61669921875 31.102294921875 -5.185302734375
-38.427978515625 -0.507568359375 5.536376953125
-48.03076171875 38.9993896484375 30.8072509765625
1.5029296875 9.5447998046875 16.6219482421875
35.9248046875 4.8450927734375 78.154296875
-55.349853515625 -71.304931640625 -58.9169921875
-30.74951171875 -17.7530517578125 20.3857421875
-40.119140625 -18.4434814453125 27.343994140625
-20.07470703125 47.270263671875 51.2694091796875
23.16650390625 40.9324951171875 -12.3233642578125
-63.633056640625 -1.8951416015625 3.169921875
31.46044921875 22.5494384765625 11.7132568359375
-46.4169921875 39.6553955078125 34.851318359375
29.19287109375 3.2861328125 31.787109375
-27.771240234375 -20.5284423828125 26.739990234375
1.762939453125 4.91796875 15.2059326171875
-38.24169921875 -5.013916015625 7.02294921875
18.4384765625 18.243896484375 11.90478515625
13.544189453125 51.2952880859375 -18.138427734375
-8.272705078125 -25.6334228515625 25.735595703125
-68.804931640625 -4.6990966796875 0.6796875
-62.105224609375 46.399169921875 -12.056640625
-1.965576171875 7.8515625 15.8829345703125
-19.99267578125 -18.45947265625 26.0589599609375
29.362060546875 0.0198974609375 9.7410888671875
-43.276611328125 7.8309326171875 10.9722900390625
30.503173828125 25.2943115234375 7.7337646484375
32.146728515625 30.4854736328125 8.0213623046875
53.978759765625 40.5059814453125 58.495361328125
-19.65869140625 -4.197509765625 6.8878173828125
-40.111328125 49.01904296875 58.524169921875
-24.4775390625 -25.119873046875 30.330322265625
53.453125 17.2574462890625 60.6552734375
-19.31298828125 -6.176025390625 17.09423828125
-54.468994140625 -3.73095703125 -71.997314453125
-13.984130859375 -22.916748046875 25.0908203125
35.74072265625 1.9241943359375 36.1856689453125
-59.99951171875 13.273193359375 8.7982177734375
-17.89501953125 53.2200927734375 55.19921875
52.517822265625 2.6597900390625 78.815185546875
-18.25634765625 67.823486328125 41.5980224609375
-0.48193359375 -25.961181640625 28.5653076171875
-34.349853515625 -54.4124755859375 -36.003662109375
-2.262939453125 59.516845703125 51.32568359375
24.890869140625 14.36181640625 14.5772705078125
6.115966796875 -49.709716796875 -72.341064453125
46.494873046875 34.000244140625 54.6474609375
5.68994140625 43.2451171875 3.785400390625
11.703857421875 21.3343505859375 16.059326171875
-4.369384765625 54.80322265625 50.1907958984375
37.177001953125 33.5517578125 -43.7686767578125
10.82421875 25.85107421875 15.100830078125
-26.77734375 39.402587890625 51.3177490234375
-31.71142578125 -23.074951171875 29.0201416015625
49.112060546875 41.6796875 54.5013427734375
-27.74267578125 0.28076171875 8.1844482421875
-47.340087890625 -17.8759765625 19.805419921875
-11.013427734375 59.364013671875 44.5260009765625
-4.161865234375 -39.2479248046875 40.955810546875
11.40478515625 9.457763671875 23.291015625
25.5458984375 19.858154296875 8.133544921875
15.939453125 32.979736328125 -7.664306640625
44.6875 1.1199951171875 80.4158935546875
9.3056640625 24.37548828125 18.5655517578125
-9.09521484375 -14.7164306640625 17.488525390625
31.355712890625 2.929931640625 7.7314453125
-1.3388671875 11.94287109375 14.86669921875
-54.74951171875 32.8162841796875 29.226318359375
32.965087890625 27.118896484375 -64.58544921875
-7.802490234375 49.826904296875 52.4600830078125
-74.859375 -4.3336181640625 1.3504638671875
-18.694091796875 64.2220458984375 46.2088623046875
-11.751953125 -1.5848388671875 23.983154296875
4.396240234375 -3.7685546875 29.185302734375
11.967041015625 31.1494140625 -0.6605224609375
2.15869140625 -22.4013671875 21.2493896484375
26.208740234375 12.778076171875 18.536865234375
38.863525390625 6.6986083984375 16.2227783203125
11.5927734375 18.7222900390625 21.6214599609375
-58.676025390625 16.61474609375 12.6544189453125
-6.177734375 21.7684326171875 21.1395263671875
-76.6630859375 15.6417236328125 2.510498046875
13.05810546875 39.415283203125 -10.02783203125
15.98486328125 4.56640625 35.60009765625
-14.290771484375 19.73046875 30.092041015625
10.694580078125 -11.6151123046875 23.67333984375
-52.91357421875 6.419189453125 -3.453857421875
-29.07958984375 -3.536865234375 1.7552490234375
-54.536376953125 -13.7322998046875 7.560302734375
-18.214599609375 71.459716796875 37.218994140625
-15.077392578125 65.028076171875 40.105712890625
-48.945556640625 25.43994140625 -57.106201171875
-1.43603515625 -30.13134765625 34.1448974609375
-27.324462890625 49.5333251953125 53.1962890625
21.70166015625 2.675048828125 34.339111328125
-20.3896484375 41.0235595703125 44.3162841796875
8.08642578125 42.8470458984375 -4.9532470703125
-0.7265625 50.36181640625 -2.9593505859375
-33.41650390625 50.9034423828125 53.9954833984375
-0.447265625 21.0755615234375 20.7750244140625
-48.16259765625 -66.4891357421875 -55.6273193359375
-60.5625 35.2025146484375 1.1488037109375
-30.944091796875 6.7880859375 13.7779541015625
11.121337890625 46.419189453125 -13.788818359375
23.23193359375 30.9039306640625 -3.427978515625
77.522216796875 -36.781494140625 -51.4393310546875
-34.213623046875 47.2132568359375 51.8726806640625
-65.118896484375 42.3946533203125 -16.3387451171875
-0.2236328125 -3.875244140625 25.1239013671875
-61.397216796875 -3.8084716796875 77.484619140625
-69.155517578125 -2.726806640625 14.5133056640625
51.215087890625 34.3553466796875 60.2568359375
-59.581787109375 29.3060302734375 6.6597900390625
15.1748046875 9.823486328125 28.9075927734375
-18.51123046875 78.73046875 34.7686767578125
34.419189453125 -3.3079833984375 35.7237548828125
-38.02734375 -14.18896484375 15.88818359375
-11.4052734375 50.614501953125 53.63720703125
-26.964599609375 16.967529296875 23.070068359375
-9.5537109375 8.9549560546875 15.514892578125
-18.91064453125 20.587646484375 30.687744140625
-11.910888671875 54.104736328125 47.6949462890625
57.20458984375 14.8819580078125 65.54443359375
-26.6455078125 -6.7529296875 5.2021484375
-67.16748046875 -0.6927490234375 75.9747314453125
-65.9775390625 -66.987548828125 -54.121826171875
5.778564453125 28.6861572265625 14.594970703125
8.8154296875 32.65771484375 11.0364990234375
3.51416015625 -24.3350830078125 27.023681640625
-70.63720703125 18.0059814453125 0.848876953125
-6.810546875 -10.646484375 18.56787109375
-63.527099609375 37.873046875 -11.20751953125
23.927001953125 46.127197265625 -15.11669921875
-56.236328125 -7.72412109375 2.2685546875
27.803466796875 30.8179931640625 2.0328369140625
-24.91650390625 -18.1630859375 25.2232666015625
-34.2607421875 24.85498046875 35.6251220703125
1.22216796875 48.5107421875 39.822998046875
-64.038330078125 23.6141357421875 -0.7684326171875
-64.874267578125 3.38427734375 -3.6705322265625
-57.1962890625 -7.5958251953125 79.7794189453125
-8.32666015625 33.91943359375 43.5748291015625
60.406494140625 16.8135986328125 64.4154052734375
-3.640869140625 77.8096923828125 38.1209716796875
9.230224609375 48.032958984375 -7.9466552734375
-39.193359375 -21.3743896484375 30.2249755859375
-29.4453125 55.3150634765625 54.3197021484375
-36.28564453125 -26.772216796875 33.89404296875
-62.396728515625 -5.3717041015625 2.1019287109375
-69.52197265625 -65.4022216796875 -50.7081298828125
-73.1142578125 11.150390625 13.85888671875
49.54638671875 8.8170166015625 65.5830078125
-34.891845703125 33.8905029296875 45.705322265625
8.348388671875 36.2987060546875 3.729736328125
9.447265625 52.7506103515625 -9.2869873046875
22.018798828125 -5.278076171875 34.08984375
39.860107421875 -0.3419189453125 13.7335205078125
-63.9609375 29.6484375 0.9654541015625
-72.001220703125 38.2613525390625 -16.5645751953125
-16.58984375 -14.5943603515625 21.9913330078125
-9.220458984375 -2.7872314453125 26.915771484375
22.440673828125 36.63720703125 -9.3245849609375
45.53955078125 24.3084716796875 -18.5579833984375
13.826904296875 27.687255859375 2.2703857421875
-75.249755859375 6.0621337890625 79.9991455078125
-56.14794921875 -17.825927734375 12.3724365234375
7.044189453125 -18.57958984375 21.4071044921875
-74.191650390625 15.249755859375 4.9361572265625
37.807861328125 16.315185546875 32.929443359375
-65.627197265625 -9.12158203125 17.97314453125
18.00146484375 36.091064453125 -9.0718994140625
-10.299072265625 -0.716796875 9.573974609375
-74.50244140625 0.9747314453125 76.66650390625
4.8984375 38.1812744140625 39.7960205078125
8.348876953125 29.05859375 16.986083984375
-42.665283203125 -62.375732421875 -40.8785400390625
-79.60205078125 15.1265869140625 5.3062744140625
-71.106689453125 -2.265869140625 3.146240234375
-42.800537109375 -8.4669189453125 8.755615234375
-47.10107421875 -11.1697998046875 6.28369140625
-6.1494140625 4.426025390625 10.937744140625
6.187744140625 -26.57958984375 30.7093505859375
-15.508544921875 60.32958984375 44.28662109375
5.1787109375 -32.6920166015625 35.3331298828125
-38.73388671875 4.871337890625 11.9862060546875
27.100830078125 6.658447265625 27.8905029296875
-61.349609375 -14.7691650390625 16.01171875
7.488525390625 -37.0736083984375 38.9024658203125
-52.60009765625 -9.30224609375 2.7427978515625
9.127197265625 34.0888671875 0.698974609375
-48.859619140625 12.776611328125 -3.7532958984375
67.18408203125 14.0186767578125 71.5208740234375
-17.680908203125 -1.6529541015625 20.32080078125
-32.874267578125 19.3033447265625 28.3284912109375
2.860595703125 4.6668701171875 18.4996337890625
25.150634765625 31.90478515625 -0.632568359375
-21.93798828125 8.3209228515625 15.45263671875
-71.583740234375 -54.3626708984375 -52.919189453125
2.983154296875 -29.644287109375 32.674560546875
-10.07958984375 14.5267333984375 19.160400390625
-63.70703125 -6.029296875 76.3232421875
-1.88427734375 -20.0340576171875 18.3330078125
5.20751953125 51.15625 -3.760986328125
-75.03515625 33.4071044921875 -12.379150390625
-12.883544921875 5.157470703125 15.541259765625
-81.20947265625 23.6624755859375 -2.9110107421875
-67.931640625 42.67041015625 -19.338134765625
-62.403076171875 35.939697265625 -2.9859619140625
-77.445068359375 13.511962890625 19.9669189453125
9.658203125 6.2647705078125 11.5931396484375
-1.2822265625 3.674560546875 22.6551513671875
-1.97802734375 -25.3111572265625 24.7823486328125
28.155517578125 37.1859130859375 -1.164794921875
-50.37548828125 -2.3421630859375 1.4444580078125
55.8095703125 3.4326171875 78.096435546875
27.470458984375 47.367919921875 -11.48046875
14.53125 -17.3564453125 23.9949951171875
13.0322265625 43.5318603515625 -13.256103515625
-68.365966796875 14.144775390625 5.3531494140625
-14.24658203125 0.702880859375 6.6376953125
-11.393310546875 -21.344482421875 20.208984375
-76.929443359375 -34.149169921875 37.8170166015625
-55.732177734375 -18.8785400390625 15.841064453125
-70.63330078125 8.27001953125 6.7449951171875
-22.029052734375 -12.0550537109375 13.3868408203125
3.679443359375 22.13525390625 19.8409423828125
43.002197265625 -35.1265869140625 -64.40625
31.3828125 14.8740234375 21.991943359375
-30.18701171875 52.0423583984375 54.133056640625
9.62939453125 40.1173095703125 -1.427001953125
19.343994140625 -5.3551025390625 37.578369140625
34.958740234375 27.853515625 13.8919677734375
18.1435546875 22.091796875 6.634033203125
51.9990234375 43.0469970703125 -10.720458984375
-29.178955078125 -17.2996826171875 14.9144287109375
4.776611328125 50.1915283203125 39.2132568359375
-43.005126953125 -14.9486083984375 20.855712890625
-37.577880859375 8.85205078125 16.646728515625
43.287353515625 2.3206787109375 -7.9112548828125
-21.884033203125 -14.8319091796875 20.86279296875
-41.319091796875 -23.7523193359375 31.6512451171875
45.4599609375 14.5076904296875 -5.6541748046875
-70.93017578125 1.527587890625 77.7867431640625
6.001953125 8.534912109375 12.6322021484375
-53.614501953125 15.573974609375 -2.209716796875
-78.849609375 30.00439453125 -9.113037109375
-69.08935546875 45.59375 -21.9962158203125
9.213134765625 44.665771484375 -8.0716552734375
26.802734375 -5.8240966796875 32.0394287109375
9.92333984375 49.6514892578125 -14.5416259765625
-4.331298828125 70.3538818359375 38.6658935546875
6.009765625 33.98095703125 13.349365234375
-56.019775390625 -62.7098388671875 -56.1510009765625
-76.657470703125 41.852783203125 -20.621337890625
57.294921875 -64.953369140625 -50.96875
-5.2744140625 -27.094482421875 34.1141357421875
-23.056884765625 46.281005859375 48.4775390625
-65.17041015625 -58.7967529296875 -53.1173095703125
-0.41796875 -6.3262939453125 22.94091796875
-14.743896484375 69.4571533203125 34.62646484375
-3.312744140625 15.7713623046875 18.374755859375
-42.78076171875 -0.0516357421875 6.2103271484375
-41.48828125 -5.4761962890625 7.2301025390625
-5.516357421875 -37.167236328125 38.8099365234375
-75.946044921875 -46.89013671875 -54.7735595703125
-36.135986328125 57.747314453125 51.6993408203125
32.68359375 -3.0980224609375 32.026611328125
-70.8486328125 -58.483642578125 -49.4818115234375
3.968017578125 37.5833740234375 8.751953125
-20.537353515625 -26.5145263671875 32.82861328125
-41.26513671875 -14.43359375 17.744384765625
-17.1005859375 -9.2645263671875 21.3565673828125
30.05517578125 22.4945068359375 -70.999755859375
-6.66015625 12.5238037109375 18.8709716796875
-6.088134765625 74.565673828125 33.043212890625
56.74560546875 48.6273193359375 61.157470703125
-32.91650390625 44.228271484375 51.981689453125
-35.439453125 3.0516357421875 10.0635986328125
-61.973388671875 -7.4097900390625 5.729248046875
70.2412109375 8.07861328125 -16.1817626953125
-53.634521484375 -68.5665283203125 -58.5634765625
-49.140380859375 -13.884765625 7.5438232421875
58.60009765625 1.4288330078125 79.668212890625
10.696533203125 6.3343505859375 23.8046875
5.37158203125 -10.3291015625 20.1441650390625
-10.45458984375 66.2279052734375 37.4571533203125
16.959228515625 19.492431640625 9.267578125
-37.7392578125 26.2164306640625 37.240234375
15.3330078125 16.0172119140625 20.6671142578125
6.639404296875 40.6412353515625 41.1820068359375
-65.190673828125 -63.96923828125 -54.947998046875
-26.136962890625 26.417724609375 35.325927734375
-57.50341796875 -11.42333984375 6.8553466796875
7.037353515625 20.0389404296875 22.325927734375
-6.80126953125 -25.806396484375 29.7669677734375
20.009765625 26.4747314453125 0.6580810546875
-55.238037109375 10.7784423828125 -4.86083984375
-30.552490234375 30.408447265625 43.1385498046875
2.634521484375 -38.48486328125 40.061279296875
-68.077880859375 36.9739990234375 -14.855224609375
-14.494140625 39.1429443359375 42.33349609375
-61.72314453125 -59.2899169921875 -55.02294921875
-34.39208984375 -15.45849609375 14.138916015625
-14.22900390625 47.235107421875 53.4385986328125
44.684326171875 18.739501953125 -18.4749755859375
-43.1376953125 -17.5030517578125 26.9888916015625
-14.112548828125 -11.35302734375 20.75634765625
-7.364501953125 53.838623046875 48.48828125
-66.831787109375 -56.144287109375 -53.86328125
10.63232421875 21.911865234375 23.348388671875
-6.6875 -19.662109375 18.8353271484375
8.723876953125 21.71337890625 20.1898193359375
-17.32177734375 74.5111083984375 33.4437255859375
-10.831787109375 61.29833984375 42.0242919921875
-60.33984375 21.151611328125 10.27294921875
-10.452392578125 70.80908203125 33.24755859375
73.741943359375 13.026611328125 -17.932861328125
17.5751953125 45.9898681640625 -15.4183349609375
-35.724365234375 -23.6947021484375 31.165283203125
-21.519287109375 -8.2120361328125 10.985107421875
-73.84033203125 29.174560546875 -8.9674072265625
-49.450439453125 35.5029296875 30.7852783203125
-80.65673828125 45.10009765625 -21.521484375
-38.260986328125 -11.0015869140625 11.8372802734375
29.33642578125 -1.6021728515625 33.105712890625
-70.756103515625 5.827880859375 78.8270263671875
73.872314453125 -33.005615234375 -53.188720703125
-77.16748046875 -41.635009765625 -54.8797607421875
17.337890625 49.0968017578125 -17.31298828125
37.891845703125 3.4090576171875 80.1385498046875
-10.70458984375 -7.5989990234375 21.8389892578125
30.805419921875 19.2325439453125 12.7252197265625
21.653564453125 49.7081298828125 -18.2408447265625
-7.498291015625 -5.70556640625 24.35693359375
25.9306640625 37.2362060546875 -5.9580078125
-22.434326171875 -2.732666015625 3.9619140625
-31.7080078125 33.6182861328125 45.6939697265625
14.5390625 25.265625 4.9869384765625
-0.03515625 -35.3270263671875 36.41845703125
-46.6962890625 -20.9189453125 28.9815673828125
5.907470703125 45.924560546875 -0.980224609375
43.5615234375 23.24462890625 -23.1568603515625
-83.10205078125 42.696044921875 -18.207763671875
31.9921875 3.078857421875 37.4671630859375
-31.577392578125 -9.3818359375 7.075927734375
-58.015625 -65.8887939453125 -59.7947998046875
-62.775634765625 18.38818359375 7.970703125
-4.5830078125 66.4813232421875 39.9493408203125
10.63037109375 24.92529296875 10.2259521484375
-3.73828125 59.0247802734375 48.5687255859375
-26.905029296875 34.24267578125 46.55126953125
-76.77099609375 14.72900390625 7.706298828125
-65.008544921875 -6.111572265625 15.4617919921875
-14.619140625 75.352783203125 32.1451416015625
6.44970703125 -2.505615234375 26.873046875
-17.336181640625 53.256591796875 51.3297119140625
-36.305419921875 53.222412109375 54.515380859375
-1.777587890625 2.86328125 13.525634765625
-58.47021484375 -63.167236328125 -54.2327880859375
-44.373046875 21.1837158203125 -51.4981689453125
-43.1708984375 4.666015625 11.0374755859375
-36.43603515625 -15.67236328125 18.0911865234375
-17.493408203125 -18.1981201171875 24.2503662109375
-3.11669921875 42.7105712890625 40.14990234375
-19.309326171875 73.989013671875 39.65234375
-41.6708984375 8.5264892578125 16.3470458984375
-80.125732421875 14.632568359375 21.0166015625
-18.578369140625 5.2569580078125 14.4722900390625
-56.80322265625 5.9158935546875 0.4439697265625
-68.997314453125 -49.98388671875 -53.9888916015625
-32.553466796875 -5.1640625 3.9757080078125
4.233642578125 46.8076171875 37.6810302734375
-52.03369140625 -62.7164306640625 -58.660888671875
-20.1455078125 -22.0008544921875 28.4794921875
-24.233154296875 -8.9658203125 8.3096923828125
-74.986328125 21.00146484375 -3.40966796875
-20.09814453125 35.2972412109375 47.1529541015625
-44.1572265625 -4.3720703125 3.4156494140625
-27.103515625 12.6207275390625 18.5992431640625
-64.542724609375 18.1016845703125 3.0093994140625
-23.295166015625 22.195556640625 29.0667724609375
27.868896484375 27.8319091796875 2.69677734375
-38.126220703125 48.0511474609375 56.1505126953125
-18.306640625 49.0443115234375 53.9759521484375
-7.283935546875 0.0845947265625 10.229248046875
-62.259033203125 50.0921630859375 -14.2857666015625
-79.053955078125 37.623046875 -15.3956298828125
51.36767578125 15.0543212890625 60.9044189453125
10.46630859375 -3.3089599609375 35.2005615234375
58.138427734375 5.7015380859375 74.206298828125
-34.8125 -1.09716796875 4.6171875
-62.80908203125 27.8843994140625 3.9803466796875
-40.374755859375 54.270263671875 55.329833984375
-24.20068359375 -14.16796875 13.245361328125
-1.89990234375 39.6533203125 40.005859375
14.470947265625 4.249267578125 32.799560546875
-31.92919921875 14.6778564453125 21.158935546875
59.062744140625 11.476806640625 69.2476806640625
15.742431640625 -3.32177734375 40.1522216796875
52.169677734375 37.549560546875 58.12158203125
-27.2001953125 7.258056640625 14.4765625
-31.943115234375 -52.2427978515625 -39.102294921875
-11.570068359375 7.6741943359375 13.622802734375
56.12109375 11.3829345703125 66.96337890625
-46.578125 -7.2305908203125 3.3629150390625
36.993896484375 30.7086181640625 -42.4698486328125
-49.20361328125 -5.433837890625 0.3729248046875
-51.083984375 -18.233642578125 11.7186279296875
17.380859375 29.4801025390625 -2.26806640625
-31.175048828125 11.5260009765625 19.3990478515625
-14.1982421875 35.3489990234375 45.5618896484375
15.802001953125 38.3359375 -11.73046875
73.173583984375 -43.889892578125 -47.1951904296875
-29.09814453125 -14.1466064453125 10.7119140625
29.502685546875 -6.024169921875 34.54736328125
-15.6474609375 56.7950439453125 47.210693359375
-6.2109375 60.70654296875 48.6124267578125
-28.036376953125 -56.3748779296875 -40.708740234375
37.1103515625 1.083984375 8.4615478515625
15.623046875 17.250732421875 13.7664794921875
60.58984375 19.723876953125 65.0211181640625
-67.00732421875 26.758544921875 -5.6676025390625
32.118896484375 7.5223388671875 32.67919921875
-77.318115234375 13.6783447265625 81.8272705078125
11.4306640625 37.78564453125 -8.147216796875
13.548828125 0.0281982421875 34.903564453125
60.691650390625 -12.3599853515625 -35.703857421875
-38.46435546875 58.44873046875 55.3641357421875
70.77978515625 -32.2025146484375 -80.282470703125
-1.15625 -10.269287109375 18.9163818359375
7.31201171875 8.1898193359375 17.6082763671875
46.25 3.4776611328125 79.349365234375
6.913818359375 48.8006591796875 -5.3282470703125
-62.426025390625 19.101318359375 5.002197265625
14.439453125 5.791259765625 29.302001953125
-21.1806640625 68.8809814453125 40.4744873046875
-71.84716796875 44.89453125 -22.987548828125
20.88134765625 18.067138671875 10.2432861328125
-50.87548828125 -19.63330078125 25.2354736328125
-49.666748046875 40.3775634765625 28.4456787109375
-63.20654296875 5.149658203125 -0.6051025390625
-24.17724609375 -16.3026123046875 19.25537109375
38.8056640625 32.4154052734375 -38.521484375
-24.007568359375 36.966796875 49.4417724609375
-30.6259765625 45.0528564453125 49.6094970703125
7.812744140625 0.668701171875 25.3922119140625
-47.741455078125 27.7315673828125 -58.531005859375
55.74853515625 4.1966552734375 75.2435302734375
13.62548828125 33.9156494140625 -5.4150390625
-37.77587890625 -14.8443603515625 22.7044677734375
9.606689453125 36.869140625 -4.7418212890625
-7.0537109375 62.347900390625 43.7220458984375
-71.2392578125 -5.1356201171875 15.6678466796875
64.741943359375 18.8897705078125 66.9844970703125
30.577392578125 17.340087890625 19.0262451171875
-61.27685546875 -61.973388671875 -56.28955078125
-25.868896484375 -16.627685546875 15.2958984375
26.032470703125 1.4464111328125 31.695556640625
-7.462890625 3.0556640625 25.978515625
36.837890625 25.748779296875 -40.760986328125
-10.888427734375 38.9310302734375 42.40234375
19.719482421875 22.7572021484375 4.247314453125
-20.170166015625 23.141845703125 29.92431640625
50.025390625 36.7734375 55.4990234375
-60.053955078125 48.94580078125 -10.5284423828125
-59.853515625 44.24755859375 -7.009521484375
3.00439453125 0.8946533203125 23.3826904296875
2.433349609375 51.1629638671875 -5.0458984375
-59.38427734375 -9.2957763671875 5.55908203125
10.7314453125 1.579345703125 27.404541015625
-25.01611328125 -22.6273193359375 28.3831787109375
17.75830078125 7.8265380859375 30.9117431640625
3.670654296875 -22.240234375 24.9879150390625
-45.646240234375 -16.9521484375 14.59033203125
47.558349609375 38.421630859375 -19.5421142578125
-69.065673828125 -2.7708740234375 75.19970703125
32.933349609375 24.692138671875 13.5888671875
-47.8525390625 6.3079833984375 -0.6300048828125
2.2255859375 -16.2166748046875 18.5762939453125
34.369873046875 7.9141845703125 34.4857177734375
12.494140625 -19.1278076171875 26.03173828125
23.6669921875 33.499267578125 -5.7864990234375
-81.471923828125 19.173095703125 1.213134765625
-18.088134765625 65.6312255859375 43.5050048828125
-77.1669921875 -2.3272705078125 3.718017578125
-59.14111328125 -9.378662109375 78.5625
73.746826171875 11.3660888671875 -14.46923828125
-7.006591796875 17.8953857421875 19.9393310546875
-51.9697265625 -14.9356689453125 8.17333984375
-7.065673828125 37.2066650390625 40.0230712890625
28.97607421875 26.5150146484375 5.113037109375
-31.666259765625 60.5936279296875 53.349853515625
-37.68603515625 31.27099609375 43.000244140625
-76.1806640625 -6.6861572265625 2.3831787109375
-44.266845703125 -24.3614501953125 32.54248046875
-47.488525390625 -1.836181640625 3.3212890625
20.2529296875 1.21240234375 38.351318359375
-72.264892578125 24.5709228515625 -5.4564208984375
-71.712158203125 40.7520751953125 -19.51025390625
65.931396484375 16.24951171875 66.9366455078125
-10.96044921875 -24.77294921875 25.090576171875
-82.441650390625 29.29248046875 -6.8487548828125
-75.059814453125 35.2537841796875 -15.0625
-32.540771484375 -55.17041015625 -39.618896484375
-63.397705078125 -68.386474609375 -57.8912353515625
-25.816162109375 -13.558837890625 10.8526611328125
8.85986328125 -2.7864990234375 31.272705078125
24.73095703125 26.1458740234375 2.0716552734375
-11.118896484375 1.7115478515625 22.979736328125
-22.317138671875 2.2186279296875 7.4232177734375
-47.111572265625 -57.0274658203125 -46.764404296875
-24.69921875 29.4923095703125 41.3084716796875
38.165771484375 7.546875 38.50830078125
-2.42333984375 48.1983642578125 -1.255859375
8.482666015625 -21.5565185546875 24.099853515625
7.373291015625 39.4990234375 1.8594970703125
26.548583984375 35.989013671875 0.8699951171875
-7.2470703125 -23.027587890625 20.54345703125
-53.878662109375 -18.809814453125 22.357177734375
-23.95068359375 4.2353515625 11.605712890625
-70.53857421875 14.8861083984375 3.6671142578125
-2.94873046875 72.3558349609375 40.6661376953125
-76.21923828125 26.244873046875 -7.329345703125
-80.75830078125 35.3150634765625 -13.448974609375
-63.015869140625 -9.9312744140625 15.5277099609375
40.380859375 4.6878662109375 79.6876220703125
2.2421875 42.70361328125 37.563232421875
-39.828369140625 50.6815185546875 56.23681640625
-48.4462890625 -18.971435546875 16.8875732421875
61.584228515625 13.2530517578125 68.9462890625
6.458251953125 39.068603515625 7.173828125
-15.901611328125 22.029541015625 29.7628173828125
13.08203125 19.2109375 14.8028564453125
53.793701171875 11.2340087890625 63.304443359375
-15.15673828125 -6.14892578125 23.0150146484375
27.03857421875 40.014892578125 -6.3013916015625
-55.998779296875 35.34326171875 29.35205078125
-33.85693359375 -13.09228515625 10.9595947265625
-25.16748046875 54.2960205078125 57.430908203125
38.99267578125 22.0792236328125 32.341064453125
9.3359375 29.8197021484375 5.681396484375
12.81689453125 -11.6590576171875 25.5211181640625
-56.732666015625 -1.7706298828125 -72.7021484375
-16.787353515625 72.0728759765625 34.7369384765625
27.765380859375 24.1685791015625 7.3857421875
-27.40966796875 48.006591796875 50.841796875
2.034912109375 -2.220458984375 24.9305419921875
-2.787353515625 14.281494140625 15.745849609375
-0.15966796875 46.6422119140625 37.854248046875
-6.202880859375 70.129638671875 35.7896728515625
-29.655029296875 35.6595458984375 48.1319580078125
-33.30322265625 16.9591064453125 25.775146484375
6.653076171875 23.5601806640625 18.9268798828125
20.3955078125 7.2467041015625 30.1829833984375
-64.83203125 14.5419921875 12.3319091796875
-18.517822265625 62.0794677734375 48.271484375
-64.389404296875 31.8907470703125 -3.6072998046875
-21.323486328125 -5.8067626953125 9.019287109375
-11.2197265625 76.01025390625 29.5625
-53.82763671875 38.589599609375 28.7640380859375
-66.197021484375 -3.77734375 14.5032958984375
20.117919921875 40.5001220703125 -12.826416015625
-29.668212890625 -53.75146484375 -39.791259765625
-36.772705078125 -18.373046875 27.1497802734375
-19.15283203125 -8.2666015625 18.9283447265625
-3.35791015625 33.4488525390625 40.900146484375
26.77099609375 51.4324951171875 -13.94775390625
39.771240234375 34.3814697265625 -43.2215576171875
-69.819091796875 35.2425537109375 -11.7125244140625
69.95947265625 5.921630859375 -13.8050537109375
-11.705078125 12.953857421875 17.5540771484375
11.891357421875 27.14794921875 4.92919921875
-38.60205078125 18.38671875 27.8302001953125
-37.5859375 45.1068115234375 57.47900390625
-41.302978515625 56.83154296875 54.1915283203125
-44.76611328125 -21.7861328125 30.837646484375
-19.2744140625 55.0137939453125 53.4083251953125
4.095947265625 -20.1025390625 21.9400634765625
-29.1591796875 40.220947265625 52.4600830078125
2.802734375 13.8409423828125 11.1234130859375
5.565673828125 -14.9197998046875 21.791259765625
46.727783203125 59.3021240234375 45.89453125
9.615966796875 45.318115234375 -10.919189453125
51.903076171875 7.3739013671875 72.203857421875
-77.838623046875 32.8731689453125 -12.317138671875
-4.682373046875 77.304443359375 35.535888671875
-57.413818359375 11.84619140625 -2.1500244140625
43.45947265625 8.000244140625 77.381103515625
55.94091796875 8.02783203125 71.089111328125
6.503662109375 -22.3245849609375 26.7315673828125
-14.228271484375 3.812255859375 12.370361328125
-61.61279296875 -7.8485107421875 8.552734375
-11.21240234375 73.5247802734375 34.2618408203125
46.5087890625 33.585205078125 -18.5572509765625
-60.354736328125 -3.1983642578125 2.441650390625
12.40673828125 19.617431640625 18.7371826171875
-30.31982421875 20.1494140625 26.0882568359375
-43.883544921875 1.9149169921875 8.2734375
-0.107666015625 -27.890625 32.304931640625
18.01513671875 33.84033203125 -6.105224609375
-60.8798828125 16.3826904296875 14.2564697265625
14.6728515625 -1.7508544921875 37.7781982421875
-16.726806640625 43.1773681640625 45.73486328125
-73.7001953125 -48.43408203125 -54.7021484375
34.529052734375 0.3465576171875 8.9359130859375
-20.39208984375 -11.3524169921875 16.137451171875
-4.5009765625 5.638916015625 12.7384033203125
-64.475830078125 25.7349853515625 -3.04541015625
6.386474609375 2.502197265625 22.9161376953125
-62.402587890625 -8.3258056640625 76.9869384765625
-30.935302734375 4.316162109375 12.6390380859375
-64.162841796875 16.5159912109375 9.37255859375
-11.466552734375 30.7841796875 43.7269287109375
-22.341796875 -17.427978515625 24.7513427734375
5.672119140625 44.3494873046875 39.8013916015625
-13.090087890625 -21.880859375 22.263916015625
-36.247802734375 22.70703125 32.8076171875
47.069091796875 51.8173828125 46.2587890625
-24.81787109375 19.2762451171875 28.28662109375
-21.785400390625 32.939208984375 44.9365234375
-35.9375 16.044677734375 25.884521484375
13.190185546875 9.5406494140625 25.3345947265625
-6.50439453125 -0.2918701171875 27.786376953125
-4.26513671875 11.9002685546875 20.0537109375
9.1923828125 -14.8494873046875 23.7904052734375
-9.4794921875 -25.64794921875 29.3668212890625
-67.635986328125 -59.470703125 -51.87109375
-4.551513671875 -17.925537109375 17.9188232421875
-64.2451171875 47.17431640625 -19.58544921875
-25.650634765625 51.2569580078125 54.8013916015625
-60.421630859375 23.1600341796875 7.5283203125
9.0224609375 32.69384765625 3.0125732421875
-38.6728515625 11.7645263671875 19.888671875
22.94384765625 18.704345703125 8.620849609375
9.26220703125 41.9996337890625 -7.646728515625
-47.5341796875 -16.7137451171875 11.214111328125
-48.722900390625 -18.2877197265625 24.3232421875
-31.179443359375 -19.669921875 26.1907958984375
-68.57958984375 -64.5062255859375 -53.1641845703125
4.826904296875 -36.7025146484375 39.1207275390625
6.481201171875 11.20654296875 10.2142333984375
-6.91796875 -4.3223876953125 26.88525390625
-2.79638671875 -3.175048828125 26.2042236328125
-14.2890625 54.8885498046875 48.69970703125
11.520751953125 50.33154296875 -16.5938720703125
-1.706298828125 -32.625732421875 35.08984375
8.791259765625 -18.9560546875 23.52783203125
49.4052734375 7.36767578125 74.93017578125
7.796630859375 -38.5994873046875 41.71435546875
-57.017578125 -61.130615234375 -53.1572265625
42.666748046875 17.3199462890625 28.605712890625
-13.2919921875 -32.247802734375 37.623779296875
-28.8388671875 18.681396484375 24.4112548828125
-36.63232421875 -59.51171875 -39.9678955078125
-30.78955078125 56.0035400390625 52.114990234375
-56.57568359375 -16.3216552734375 10.1943359375
12.01220703125 35.7918701171875 -6.42333984375
27.25048828125 43.8836669921875 -10.181640625
-61.82763671875 22.0281982421875 5.184326171875
-27.45068359375 -25.97900390625 30.4825439453125
34.30810546875 -5.071044921875 37.7252197265625
-2.869873046875 -37.972900390625 38.4681396484375
-7.6650390625 51.6295166015625 54.4205322265625
-37.6630859375 1.962158203125 8.6231689453125
29.7294921875 44.3043212890625 -6.30810546875
7.857666015625 54.736328125 -10.0712890625
-4.598876953125 -33.003173828125 36.7447509765625
-46.2548828125 33.5615234375 32.701904296875
-79.780517578125 24.8433837890625 -4.8138427734375
48.057861328125 17.0069580078125 -2.0673828125
17.725341796875 6.4503173828125 33.78857421875
-3.515869140625 3.8096923828125 11.085205078125
-27.852783203125 2.6834716796875 14.1822509765625
-27.35107421875 41.9501953125 49.185546875
-8.847900390625 -21.0914306640625 19.50732421875
50.77197265625 4.638916015625 78.3258056640625
51.78662109375 0.2982177734375 79.7728271484375
-31.5927734375 9.4176025390625 17.30224609375
-2.639404296875 67.4808349609375 43.5416259765625
-20.2861328125 55.2442626953125 56.9364013671875
5.74755859375 48.9822998046875 -2.349853515625
17.4482421875 42.4744873046875 -13.4571533203125
35.2939453125 29.180419921875 -39.8929443359375
-66.7470703125 -3.660400390625 2.0560302734375
-15.3642578125 -0.2930908203125 21.467041015625
-15.618408203125 -20.265625 23.7916259765625
41.4736328125 0.4334716796875 -7.5032958984375
-68.294189453125 22.33642578125 -1.300048828125
66.71728515625 21.2042236328125 68.1044921875
23.00341796875 38.841796875 -10.7384033203125
-38.25537109375 53.3748779296875 57.020263671875
-7.04443359375 2.8236083984375 9.0643310546875
-7.068603515625 52.2574462890625 51.8052978515625
-33.9853515625 36.2763671875 50.0648193359375
-32.51708984375 -16.970458984375 22.781005859375
32.616943359375 16.353515625 27.459716796875
-17.574462890625 66.287353515625 39.33837890625
-82.92431640625 34.4354248046875 -10.947509765625
-26.246337890625 57.6207275390625 54.0435791015625
36.18798828125 6.6119384765625 16.3260498046875
-78.696044921875 38.884521484375 -17.6531982421875
25.908203125 53.3280029296875 -17.3377685546875
37.307861328125 8.948486328125 15.8931884765625
-30.427490234375 -50.169189453125 -40.267578125
9.497802734375 42.4642333984375 -2.53955078125
-12.257080078125 -18.587890625 19.183349609375
-10.721435546875 52.723876953125 52.2845458984375
67.5556640625 19.1527099609375 66.174072265625
16.253662109375 32.1083984375 -5.2401123046875
-35.58984375 55.587158203125 53.7225341796875
25.58056640625 41.650390625 -11.1661376953125
-28.160400390625 -17.6365966796875 20.40576171875
63.213623046875 -11.8009033203125 -35.5408935546875
6.355224609375 38.141357421875 9.64892578125
-35.318603515625 -56.572509765625 -37.2847900390625
-39.300048828125 -25.966064453125 34.2799072265625
-48.53955078125 42.0465087890625 30.062255859375
-7.55517578125 65.928466796875 38.2987060546875
-14.5751953125 8.3426513671875 13.640625
-32.361328125 39.1099853515625 52.326171875
-64.471923828125 34.8218994140625 -9.97021484375
41.836181640625 -33.0343017578125 -62.38427734375
62.499267578125 -16.1376953125 -33.27978515625
-62.27294921875 32.592041015625 0.994873046875
-51.697509765625 2.66357421875 -3.2625732421875
23.7275390625 43.1282958984375 -13.731201171875
-7.31591796875 64.076904296875 40.8665771484375
11.865478515625 5.2647705078125 27.213623046875
-22.7255859375 40.403076171875 45.167724609375
51.79931640625 42.234375 55.4527587890625
