-1.30029296875 32.6109619140625 39.7259521484375
-57.870849609375 -1.679443359375 70.4869384765625
-41.37744140625 -16.8006591796875 4.784423828125
-28.94970703125 -26.74072265625 24.076171875
-18.795166015625 25.229736328125 32.6871337890625
-73.665283203125 2.34375 -11.7357177734375
25.783203125 29.0040283203125 33.26611328125
22.84326171875 -31.4730224609375 25.0440673828125
-0.7314453125 -12.88232421875 7.876220703125
-56.643798828125 17.416748046875 -13.8048095703125
-10.859130859375 -13.5841064453125 -0.9490966796875
-64.21142578125 9.8367919921875 3.12109375
-74.350830078125 -24.3287353515625 24.158203125
85.02587890625 11.48779296875 65.79150390625
60.26513671875 -2.5443115234375 77.605712890625
-5.046630859375 -23.7740478515625 20.741943359375
46.1220703125 -7.58740234375 28.533935546875
-14.131591796875 29.97607421875 37.2939453125
-43.637451171875 20.03955078125 -9.1820068359375
25.86181640625 -64.1064453125 -83.459716796875
54.710693359375 13.732177734375 20.8995361328125
48.223876953125 1.9371337890625 21.109619140625
47.082275390625 11.5040283203125 5.6263427734375
8.99853515625 -4.2706298828125 18.7803955078125
51.59228515625 -2.2021484375 3.97509765625
77.376953125 1.046875 74.0697021484375
3.574951171875 47.680419921875 46.2152099609375
-5.141845703125 3.308349609375 7.4246826171875
68.798095703125 34.2939453125 47.760986328125
25.002197265625 -15.9222412109375 17.7537841796875
-3.08349609375 -13.582763671875 2.9146728515625
-38.986572265625 -73.17431640625 -57.89990234375
1.175048828125 55.14208984375 39.505859375
19.9375 44.938720703125 -11.5433349609375
10.1162109375 -2.4149169921875 3.058349609375
13.474609375 -45.108154296875 40.28515625
42.845458984375 13.09423828125 1.5042724609375
-28.973876953125 -14.0767822265625 -3.330322265625
60.88330078125 -2.9014892578125 5.3553466796875
30.6171875 17.3792724609375 4.9783935546875
0.569091796875 69.727783203125 28.2008056640625
21.695556640625 62.949462890625 59.0621337890625
-47.45947265625 26.6085205078125 -20.3143310546875
62.77685546875 -4.686279296875 11.2801513671875
-23.80810546875 3.181884765625 4.2681884765625
-77.634521484375 63.508056640625 48.04296875
-42.548583984375 35.2247314453125 -18.0706787109375
60.30615234375 6.9425048828125 13.6234130859375
69.802978515625 29.9698486328125 52.9991455078125
-67.8974609375 31.0911865234375 -13.752685546875
-61.423583984375 7.0472412109375 74.2891845703125
27.687744140625 37.68212890625 31.5546875
53.351806640625 19.2042236328125 8.505615234375
-75.738037109375 31.346435546875 18.29931640625
7.111083984375 -29.22412109375 21.5599365234375
30.5126953125 48.4293212890625 -21.089599609375
-13.231201171875 44.730224609375 42.822998046875
1.348388671875 -23.6263427734375 20.656005859375
-75.019775390625 -38.217529296875 33.952880859375
42.245849609375 -2.5693359375 32.3621826171875
37.84130859375 10.3179931640625 13.4090576171875
11.26220703125 9.0281982421875 12.7457275390625
-75.0927734375 -30.5069580078125 28.9063720703125
-10.525146484375 52.5411376953125 45.0499267578125
-58.69970703125 -12.9356689453125 -4.7442626953125
49.58544921875 -6.1561279296875 27.66552734375
-63.0 19.1859130859375 -11.5706787109375
-47.342529296875 10.638916015625 -5.489013671875
25.46630859375 39.2537841796875 28.6912841796875
-68.1103515625 20.3131103515625 76.8155517578125
25.1787109375 4.06494140625 4.16357421875
-22.718505859375 3.261474609375 8.6219482421875
-20.8994140625 -19.435791015625 10.131591796875
55.5126953125 5.4173583984375 71.836669921875
2.103271484375 -9.624755859375 15.7855224609375
-50.165283203125 14.8355712890625 -11.4327392578125
-51.3037109375 -12.24169921875 -3.7974853515625
37.0458984375 16.4256591796875 0.1513671875
12.892578125 57.65380859375 36.384765625
-53.014892578125 21.0238037109375 -18.04052734375
52.858642578125 -8.37841796875 29.172119140625
27.294677734375 -22.7137451171875 18.124755859375
7.9775390625 46.5841064453125 42.943603515625
-42.239013671875 9.7252197265625 5.383056640625
-27.39208984375 3.9019775390625 -7.303955078125
-68.308349609375 24.6885986328125 -7.94091796875
28.061767578125 26.4508056640625 6.048095703125
-17.94921875 53.9544677734375 43.9293212890625
-36.839599609375 33.7237548828125 17.290771484375
-71.54150390625 16.150146484375 70.988525390625
46.8935546875 48.113037109375 -25.77685546875
-58.87158203125 13.0401611328125 -8.7093505859375
50.978515625 7.2386474609375 -76.2447509765625
-6.281005859375 -7.4656982421875 -2.9166259765625
7.904052734375 58.480224609375 34.916259765625
30.166259765625 -6.7738037109375 29.5653076171875
45.29443359375 31.992919921875 -17.341064453125
-6.262939453125 -32.2205810546875 26.12890625
-41.382080078125 30.409423828125 -14.080322265625
25.905517578125 8.0367431640625 3.64306640625
66.973876953125 -0.095947265625 9.9757080078125
26.509521484375 41.78076171875 -14.4970703125
46.41552734375 41.9669189453125 -22.3580322265625
-16.582763671875 49.1036376953125 45.1968994140625
33.884033203125 -0.22021484375 26.749755859375
70.036865234375 11.856689453125 55.460693359375
8.380126953125 54.118896484375 35.41162109375
46.556640625 28.0458984375 -5.2708740234375
12.896240234375 11.4951171875 15.0355224609375
11.711669921875 48.7615966796875 44.121337890625
-52.1015625 -8.8909912109375 7.7786865234375
-35.9521484375 29.1087646484375 20.10302734375
-1.09619140625 53.7430419921875 44.80908203125
-3.92919921875 -19.56787109375 8.6435546875
-40.25732421875 -9.96630859375 -4.8721923828125
-41.739990234375 22.7138671875 -4.37109375
42.857666015625 8.675537109375 9.689697265625
-62.111083984375 -2.6414794921875 -10.5162353515625
66.74169921875 59.84375 30.2281494140625
-16.69775390625 -22.9876708984375 21.46044921875
44.34765625 0.1143798828125 3.2357177734375
25.754638671875 34.6192626953125 32.7816162109375
15.360107421875 9.535400390625 10.8779296875
-23.855712890625 6.5968017578125 -58.1815185546875
63.9951171875 4.62548828125 65.197021484375
-44.59130859375 -3.384521484375 -11.6966552734375
-65.93994140625 -38.1044921875 31.5731201171875
-35.22314453125 -72.51318359375 -59.9036865234375
50.2509765625 17.9141845703125 2.0394287109375
-40.366943359375 27.5933837890625 -7.8963623046875
-41.73828125 0.1353759765625 -6.426025390625
-59.444580078125 2.719482421875 72.5009765625
-51.58642578125 10.0760498046875 -7.053955078125
52.35888671875 1.051025390625 30.0897216796875
-66.08837890625 24.44140625 -13.09326171875
34.3515625 44.9852294921875 -27.7939453125
11.324462890625 -27.9306640625 15.541015625
5.754150390625 2.719482421875 7.134765625
25.755126953125 41.5589599609375 -9.5986328125
-41.755615234375 -9.67822265625 72.6051025390625
-65.631103515625 -44.0013427734375 37.2398681640625
27.076171875 -64.97900390625 -80.1175537109375
-21.938232421875 -23.2457275390625 22.177978515625
-48.656982421875 9.5125732421875 0.495361328125
-22.416748046875 -5.108154296875 0.647705078125
16.8955078125 -39.452392578125 33.2877197265625
-62.81103515625 36.5859375 -29.0223388671875
-6.199951171875 22.149169921875 27.385009765625
22.874267578125 -42.5147705078125 36.7342529296875
15.3515625 29.5784912109375 33.4129638671875
5.2216796875 -19.7900390625 14.9744873046875
22.09033203125 -36.17578125 30.8240966796875
-1.808837890625 53.29345703125 48.36376953125
-61.73779296875 28.8443603515625 -22.5302734375
-58.05322265625 -43.5045166015625 34.859130859375
-16.43798828125 6.9691162109375 13.185302734375
-75.64404296875 74.588623046875 34.5628662109375
-53.94580078125 -61.709716796875 -57.0625
24.42578125 -8.241455078125 25.7110595703125
-48.002197265625 -7.3829345703125 -3.1058349609375
0.638427734375 46.3304443359375 43.901611328125
-67.408447265625 15.4569091796875 -2.6705322265625
-8.944580078125 33.524169921875 41.200927734375
-42.912841796875 13.00390625 -0.4371337890625
-3.619140625 -2.2393798828125 4.4290771484375
-42.30029296875 42.823486328125 -24.4912109375
-80.131591796875 57.8048095703125 53.2091064453125
-60.838623046875 -8.36474609375 46.9443359375
-25.558349609375 -28.3233642578125 26.9547119140625
-10.23779296875 55.108154296875 41.17822265625
-71.35205078125 12.225830078125 66.3466796875
-26.066162109375 32.7872314453125 23.8179931640625
-20.70703125 -27.0152587890625 25.8262939453125
19.05029296875 2.1964111328125 8.5517578125
49.32861328125 23.478271484375 -3.6082763671875
33.6767578125 31.7711181640625 -17.5721435546875
-10.84765625 12.10693359375 15.43798828125
17.982421875 -13.635009765625 14.9716796875
44.755615234375 -0.760986328125 25.7283935546875
13.5654296875 -1.47119140625 4.7835693359375
3.3076171875 35.528076171875 34.4920654296875
-70.516357421875 -41.4249267578125 35.8255615234375
-65.768310546875 -47.4989013671875 -60.859130859375
-12.235107421875 -15.73828125 1.4981689453125
-19.0478515625 -19.6402587890625 17.0047607421875
-64.54150390625 11.4869384765625 74.28076171875
-1.025634765625 -10.0272216796875 -0.0985107421875
-73.870849609375 17.833740234375 63.020263671875
28.80810546875 -25.133056640625 23.05810546875
67.44189453125 6.1463623046875 59.1004638671875
-46.782470703125 31.005615234375 -24.2784423828125
38.32373046875 -1.7222900390625 32.6033935546875
-68.412353515625 -45.9075927734375 40.9840087890625
-30.44091796875 -11.927734375 -6.34423828125
38.05712890625 28.26220703125 -14.3267822265625
47.00830078125 -10.7689208984375 29.9656982421875
-22.568603515625 -11.8570556640625 1.0072021484375
-14.17236328125 -63.4456787109375 -39.7802734375
22.592041015625 -17.6361083984375 15.888427734375
19.205078125 44.6690673828125 31.6292724609375
30.5625 0.59765625 19.5150146484375
-47.02783203125 15.9886474609375 -10.2821044921875
-22.06982421875 -16.807373046875 6.0970458984375
71.53125 33.9561767578125 52.4698486328125
-16.785400390625 -10.037353515625 -0.7220458984375
52.120361328125 12.4395751953125 15.7972412109375
-15.5849609375 1.9930419921875 8.0643310546875
-15.86572265625 -16.0211181640625 3.80859375
-68.786376953125 20.6019287109375 -7.743408203125
38.7060546875 2.13623046875 27.7825927734375
16.379638671875 -35.7288818359375 31.2899169921875
14.0927734375 1.2474365234375 7.8118896484375
-6.816162109375 -13.703369140625 0.260009765625
-43.402587890625 -11.7098388671875 -4.9412841796875
18.544189453125 5.0419921875 6.6551513671875
-52.7607421875 1.547119140625 70.3614501953125
8.25146484375 61.9124755859375 25.409423828125
2.440185546875 -28.6832275390625 28.22998046875
-22.78173828125 -19.387939453125 16.9022216796875
30.6533203125 29.6644287109375 -13.5205078125
10.098388671875 -1.0245361328125 18.4228515625
49.44580078125 10.9765625 20.0911865234375
-37.53076171875 -22.838134765625 6.2847900390625
54.866455078125 9.1165771484375 23.03955078125
22.556884765625 40.10791015625 -6.5767822265625
-44.311279296875 -10.0191650390625 6.5430908203125
11.135986328125 2.6768798828125 9.257568359375
26.533203125 12.9580078125 11.785400390625
-66.98193359375 15.2652587890625 76.76318359375
-29.9150390625 33.0792236328125 19.6656494140625
-39.43994140625 8.1142578125 1.1455078125
-36.226806640625 -11.1141357421875 -5.8970947265625
-73.058837890625 18.5994873046875 67.5225830078125
16.323486328125 50.711669921875 45.66064453125
55.069091796875 -5.8909912109375 30.7686767578125
1.640380859375 51.449951171875 39.533935546875
12.05712890625 -6.0377197265625 3.9866943359375
20.6982421875 -2.5318603515625 16.23291015625
72.76953125 8.4661865234375 57.822998046875
29.27880859375 -18.9737548828125 19.0196533203125
-57.489013671875 -36.9864501953125 31.8214111328125
72.35888671875 -0.4837646484375 75.1343994140625
3.586669921875 -38.7330322265625 34.954833984375
-43.32177734375 28.44580078125 -18.1317138671875
0.933349609375 59.793212890625 34.4796142578125
-10.72998046875 3.3970947265625 9.7467041015625
73.610107421875 15.961181640625 56.2027587890625
24.75146484375 44.886474609375 29.910400390625
81.959228515625 15.0301513671875 61.5931396484375
-7.406005859375 15.23974609375 18.8948974609375
-9.82861328125 -26.5595703125 23.2208251953125
22.574462890625 66.1749267578125 59.5732421875
34.990478515625 -5.581787109375 30.945556640625
36.412841796875 11.793212890625 6.1495361328125
-28.71826171875 30.7274169921875 23.4700927734375
9.087890625 70.368408203125 19.1883544921875
35.97802734375 24.314453125 -12.09326171875
42.023193359375 21.0645751953125 -7.5799560546875
9.47607421875 12.744140625 16.0806884765625
-1.91015625 -19.2913818359375 14.731689453125
7.402099609375 31.56298828125 35.25244140625
-61.87451171875 -47.1241455078125 39.456298828125
11.48486328125 -16.289794921875 13.157470703125
-42.975830078125 16.3409423828125 -2.8486328125
-20.743896484375 -71.7408447265625 -43.6737060546875
-51.90576171875 5.4322509765625 -3.244140625
-10.400146484375 43.0255126953125 39.3955078125
22.50390625 -9.486572265625 20.2203369140625
26.577880859375 17.053955078125 12.23388671875
17.501953125 -19.0660400390625 12.95751953125
32.03662109375 35.2293701171875 -19.5767822265625
-67.391845703125 42.8551025390625 -25.1962890625
-53.782958984375 -1.8089599609375 69.9017333984375
53.16943359375 -81.1517333984375 -92.7618408203125
-29.83154296875 -75.667236328125 -59.7470703125
-64.048828125 28.03759765625 -19.4144287109375
-59.87109375 36.8458251953125 -30.8958740234375
10.074951171875 -30.06640625 20.2972412109375
-6.53515625 24.62255859375 32.3270263671875
-14.3203125 55.1767578125 41.6201171875
-42.60791015625 -16.277587890625 7.829345703125
-32.161865234375 -2.764404296875 -9.7274169921875
-49.3818359375 -9.7376708984375 70.812744140625
46.3193359375 29.1676025390625 -11.02685546875
-5.20703125 -21.35302734375 15.8660888671875
-60.860107421875 -8.007080078125 -3.474609375
12.604248046875 43.9998779296875 44.7205810546875
54.591796875 -76.33447265625 -94.3975830078125
-59.73876953125 7.8709716796875 -1.9029541015625
30.959228515625 -2.5782470703125 24.610107421875
32.163330078125 11.494384765625 10.143798828125
-68.488037109375 36.522705078125 -15.231201171875
-77.997802734375 69.1397705078125 43.085693359375
-67.1201171875 31.2994384765625 -19.2845458984375
-40.192626953125 42.330810546875 -21.9678955078125
42.84619140625 17.2730712890625 -2.7535400390625
-54.53564453125 29.083984375 -24.120361328125
-14.226318359375 -21.1773681640625 8.4608154296875
-11.925048828125 -23.119384765625 12.2196044921875
28.349365234375 0.5419921875 15.929443359375
28.159423828125 39.8338623046875 -17.2265625
-10.303466796875 -18.5826416015625 4.0052490234375
-63.39208984375 11.353759765625 -4.487548828125
-21.430419921875 47.2890625 47.3953857421875
27.03759765625 46.47119140625 -17.585205078125
-25.528076171875 -30.061767578125 29.7301025390625
-12.2802734375 7.074951171875 13.09521484375
-12.25146484375 38.59130859375 44.201171875
51.1298828125 13.2139892578125 10.4674072265625
9.24658203125 68.94189453125 22.242919921875
-31.574951171875 -23.7237548828125 18.812255859375
-61.856201171875 13.21484375 -7.36474609375
16.1552734375 -1.003662109375 17.1241455078125
-30.477294921875 26.3199462890625 21.900390625
7.807373046875 50.0650634765625 39.9287109375
13.38671875 38.6732177734375 35.3973388671875
-65.1435546875 33.1820068359375 -23.3642578125
-46.130126953125 -72.4532470703125 -58.17724609375
-14.597412109375 34.683837890625 43.0040283203125
27.148681640625 36.9703369140625 -10.9190673828125
75.391845703125 4.5020751953125 68.3377685546875
-56.266845703125 24.412353515625 -20.5828857421875
1.770751953125 66.966064453125 26.60205078125
-40.63330078125 -82.6435546875 -59.075927734375
70.51708984375 37.4337158203125 47.412353515625
-46.7900390625 -61.6981201171875 -56.6861572265625
-72.9501953125 -20.9666748046875 22.3958740234375
-31.221435546875 2.099365234375 -12.21142578125
5.361083984375 -2.3553466796875 5.2684326171875
32.17626953125 21.361572265625 -3.867919921875
-68.478759765625 -30.819091796875 29.7001953125
-37.026123046875 0.2816162109375 -7.3011474609375
-11.32275390625 27.986083984375 34.931640625
23.8193359375 -20.328369140625 17.202880859375
12.236572265625 50.89599609375 38.550048828125
-32.104248046875 -19.379638671875 1.0660400390625
-40.551513671875 15.0277099609375 3.3092041015625
-40.661376953125 -21.0860595703125 10.513671875
15.816162109375 60.3382568359375 37.597412109375
14.61279296875 72.007080078125 24.589111328125
4.673095703125 51.6785888671875 44.0103759765625
-43.65380859375 -67.8017578125 -56.8096923828125
34.81298828125 -7.8265380859375 33.6395263671875
-24.755859375 15.619384765625 -66.3790283203125
-59.50634765625 31.085693359375 -25.9786376953125
-3.91455078125 17.5045166015625 21.4388427734375
49.380859375 0.572265625 28.310302734375
1.42236328125 42.62353515625 41.205810546875
26.177001953125 -38.38720703125 34.4124755859375
70.868408203125 39.8819580078125 49.447998046875
-7.992919921875 -64.920654296875 -43.959228515625
-29.154296875 -7.6641845703125 -6.7569580078125
8.56787109375 44.2735595703125 46.432861328125
60.556884765625 60.1153564453125 17.36669921875
13.40771484375 -23.2073974609375 13.1090087890625
28.493896484375 29.7322998046875 1.6199951171875
7.310302734375 53.082275390625 38.6763916015625
-41.736328125 27.6197509765625 -10.77978515625
-38.94580078125 -10.1505126953125 74.5242919921875
-54.5947265625 -63.8929443359375 -54.83154296875
-5.487548828125 48.0718994140625 45.8955078125
54.57568359375 1.987548828125 -50.9376220703125
20.185546875 -45.054931640625 36.6666259765625
-34.351806640625 -76.86572265625 -61.728759765625
-18.106689453125 -1.6337890625 4.16357421875
17.023681640625 11.4610595703125 6.933349609375
-36.7392578125 4.0701904296875 -10.310791015625
-53.8251953125 -8.0499267578125 -7.4283447265625
15.6220703125 55.6591796875 41.017333984375
14.462646484375 -30.584716796875 24.7568359375
20.86279296875 13.47900390625 13.25390625
3.963623046875 62.0982666015625 29.2904052734375
-38.22998046875 -7.776123046875 -3.797607421875
-6.930908203125 30.8031005859375 38.377685546875
6.117431640625 -25.968017578125 16.70263671875
-51.6767578125 13.101318359375 -8.3568115234375
47.9580078125 47.3162841796875 -22.902587890625
0.64453125 58.6885986328125 37.519775390625
-64.095458984375 22.0782470703125 -13.76904296875
-4.83349609375 -29.26708984375 25.258056640625
15.6513671875 32.884765625 31.943115234375
8.29833984375 -8.2669677734375 19.275390625
13.083740234375 -13.20556640625 15.3511962890625
-32.10498046875 6.0498046875 -11.5726318359375
-4.14306640625 26.698974609375 34.5003662109375
65.637939453125 -2.18701171875 11.9205322265625
-17.94970703125 -7.8011474609375 -2.7752685546875
-25.235107421875 -21.91015625 10.326171875
-25.719970703125 -3.756591796875 -3.093017578125
-0.165283203125 -16.1923828125 12.3369140625
7.402587890625 8.8499755859375 11.802001953125
29.385009765625 36.4505615234375 -15.75927734375
41.174072265625 -8.71044921875 30.2059326171875
-80.606201171875 65.98486328125 47.6531982421875
-24.75244140625 16.3233642578125 -69.6795654296875
65.674072265625 -45.4268798828125 -77.1470947265625
72.331787109375 43.687255859375 53.1021728515625
78.814208984375 9.8675537109375 61.5594482421875
57.302001953125 2.22607421875 31.3568115234375
1.205810546875 -20.2762451171875 17.9287109375
27.86474609375 -7.5894775390625 25.0306396484375
-16.5087890625 10.263671875 16.44921875
37.79296875 13.328857421875 12.5550537109375
77.85693359375 -83.1986083984375 -84.7056884765625
-25.287109375 -18.7371826171875 4.715087890625
41.820556640625 36.127197265625 -22.4781494140625
17.447509765625 -43.7901611328125 35.843505859375
7.70654296875 14.1317138671875 19.891357421875
24.730712890625 2.330322265625 8.414306640625
37.261474609375 4.9154052734375 24.589599609375
-56.55078125 -52.08154296875 -59.328857421875
-2.011474609375 57.400634765625 43.8424072265625
-18.18359375 -12.0067138671875 1.244384765625
-26.8828125 -80.6844482421875 -58.2039794921875
-7.40234375 10.2159423828125 13.94580078125
45.1259765625 -24.7353515625 -79.5904541015625
-43.828857421875 -12.774658203125 -2.0462646484375
1.95947265625 17.08349609375 22.7735595703125
-41.8603515625 38.0078125 -20.572509765625
1.590576171875 63.2122802734375 31.412109375
49.34228515625 -3.1925048828125 28.558349609375
66.906982421875 0.059326171875 75.7081298828125
-8.029052734375 -24.467529296875 21.244384765625
-33.735595703125 31.2872314453125 20.73193359375
-64.52197265625 -34.477294921875 29.4085693359375
44.948974609375 9.38818359375 7.5230712890625
4.381591796875 70.507080078125 22.1256103515625
21.443115234375 39.0418701171875 28.60107421875
41.78955078125 23.083251953125 -10.1243896484375
-49.07275390625 -66.535400390625 -55.8319091796875
19.07421875 47.455322265625 -13.1092529296875
40.9482421875 27.8389892578125 -15.314697265625
-7.216796875 53.08544921875 46.6610107421875
33.970947265625 -23.0836181640625 20.69775390625
42.53271484375 -2.731689453125 4.3958740234375
-3.7177734375 -6.084228515625 -1.90869140625
20.685302734375 -40.010986328125 32.6512451171875
-46.486083984375 38.2686767578125 -30.9908447265625
45.89697265625 -10.083984375 26.74853515625
52.607421875 3.406494140625 72.689208984375
20.763916015625 35.443115234375 30.4034423828125
80.705078125 -77.0045166015625 -50.2451171875
31.55859375 27.002685546875 -11.48779296875
-46.784423828125 33.7930908203125 -27.3214111328125
11.27783203125 -11.562744140625 17.3018798828125
79.09375 16.1263427734375 59.1607666015625
-47.55029296875 -81.180908203125 -57.35888671875
71.868408203125 2.6910400390625 73.992431640625
28.564208984375 26.8623046875 -2.0999755859375
-0.504638671875 47.666259765625 47.378662109375
12.726318359375 74.312744140625 20.0023193359375
-39.422607421875 12.6806640625 6.0369873046875
42.0771484375 32.33642578125 -19.4810791015625
-27.8193359375 -22.9024658203125 13.8228759765625
-58.138916015625 8.7894287109375 -5.0638427734375
-65.86181640625 38.225830078125 -27.432861328125
-5.572509765625 -16.900390625 3.8206787109375
46.973388671875 20.3428955078125 -3.702880859375
24.775146484375 -26.491455078125 20.0557861328125
-27.209716796875 -0.82373046875 -8.6221923828125
28.453857421875 -64.9022216796875 -75.2432861328125
5.802001953125 -4.2769775390625 15.352294921875
31.024169921875 19.387939453125 0.5711669921875
-13.483154296875 -29.6185302734375 25.9776611328125
20.071044921875 31.2708740234375 31.971435546875
-29.642822265625 36.2518310546875 19.7913818359375
32.30126953125 -20.22802734375 18.779541015625
15.921142578125 29.310302734375 36.385498046875
-18.84521484375 42.80078125 48.3643798828125
-48.43212890625 -3.148681640625 69.5272216796875
20.79248046875 -30.3931884765625 22.7861328125
-65.440185546875 9.5555419921875 0.212158203125
-19.463623046875 -5.8194580078125 -0.204345703125
27.00341796875 1.397705078125 13.3583984375
-44.634765625 -13.7987060546875 9.8739013671875
77.650146484375 38.157470703125 52.935302734375
26.47900390625 -1.708740234375 16.6796875
-12.0517578125 -20.802978515625 6.400146484375
-59.5771484375 22.7000732421875 -17.48193359375
-39.72265625 33.044189453125 -12.5438232421875
-4.637939453125 -24.3612060546875 55.28271484375
23.06689453125 -76.3446044921875 -79.407958984375
-60.009521484375 -40.4039306640625 33.59619140625
10.8525390625 45.7086181640625 42.82177734375
-38.868408203125 -22.5380859375 13.554443359375
62.26904296875 -0.7652587890625 76.242919921875
-34.71044921875 -24.5675048828125 12.2991943359375
21.206787109375 -0.93408203125 12.4119873046875
-41.78955078125 -14.357666015625 3.095458984375
70.901123046875 4.8953857421875 66.388671875
33.1240234375 29.2747802734375 -15.1732177734375
9.254150390625 -21.076904296875 12.6640625
-43.9013671875 23.21875 -15.5279541015625
53.7138671875 0.0966796875 75.6033935546875
-1.943115234375 40.857421875 36.3848876953125
-44.1650390625 -78.2513427734375 -60.3809814453125
29.756591796875 42.5885009765625 -20.703125
-0.75732421875 -6.5953369140625 -1.482666015625
-31.692626953125 -24.3631591796875 7.8974609375
67.134521484375 5.3492431640625 69.8116455078125
16.046630859375 6.2474365234375 9.3094482421875
-6.9755859375 35.906494140625 41.26123046875
-51.16259765625 -4.7708740234375 69.0303955078125
64.49755859375 3.7430419921875 16.4805908203125
-73.798583984375 8.4080810546875 -10.9527587890625
19.305419921875 -35.264892578125 29.138427734375
38.44482421875 42.8858642578125 -27.3555908203125
15.4541015625 6.3809814453125 12.236328125
-6.912353515625 -11.6328125 -2.252197265625
-59.411865234375 -50.1466064453125 -60.242431640625
75.154296875 11.4378662109375 59.20458984375
-0.23583984375 -30.088623046875 26.9644775390625
57.13037109375 -5.4906005859375 6.338134765625
-60.4541015625 -37.0794677734375 31.77587890625
45.087646484375 22.9464111328125 -7.473388671875
-54.839599609375 19.0369873046875 -15.512939453125
16.1240234375 -30.7626953125 27.2593994140625
-14.142578125 -22.0572509765625 15.79296875
53.573974609375 -4.1436767578125 5.017822265625
10.412841796875 60.787353515625 28.1202392578125
38.095458984375 -7.714599609375 30.743408203125
-54.190673828125 4.0169677734375 72.0155029296875
-2.626220703125 -27.566162109375 24.2646484375
-12.250244140625 -22.2545166015625 18.06298828125
-29.059326171875 -79.399169921875 -59.9765625
3.577880859375 -24.967041015625 19.2623291015625
73.937255859375 6.501708984375 63.583984375
-66.56298828125 17.54150390625 74.6749267578125
-45.623779296875 14.040771484375 -7.0284423828125
-18.116943359375 -14.1373291015625 3.6605224609375
44.96923828125 12.156982421875 3.6927490234375
-47.6728515625 -12.883544921875 11.2119140625
-59.467041015625 -59.123291015625 -56.2381591796875
6.84326171875 -43.4921875 38.4176025390625
-67.1484375 33.9903564453125 -21.1116943359375
51.090087890625 21.3826904296875 2.04638671875
16.576904296875 67.7965087890625 30.0382080078125
25.3330078125 -42.901611328125 38.85302734375
-41.74169921875 -72.945068359375 -58.86474609375
18.26025390625 -8.12060546875 19.8231201171875
12.8896484375 -2.1463623046875 20.36376953125
7.6845703125 47.15869140625 45.7957763671875
-18.5224609375 14.54638671875 20.931396484375
-68.057861328125 42.173095703125 -20.6971435546875
76.40966796875 33.5830078125 54.180419921875
19.21484375 8.6773681640625 5.43115234375
-48.1806640625 24.5545654296875 -18.0140380859375
-2.54052734375 2.808349609375 6.2032470703125
24.153564453125 45.5408935546875 -10.85400390625
-20.311279296875 50.829345703125 44.369140625
32.180419921875 -4.7449951171875 30.1376953125
12.2392578125 -35.7657470703125 32.5196533203125
-7.197265625 -21.8604736328125 9.1861572265625
-0.82177734375 65.0855712890625 33.225341796875
-57.333740234375 -10.640380859375 -5.8984375
46.103759765625 37.9566650390625 -21.1375732421875
51.653076171875 25.676513671875 -0.4688720703125
73.761474609375 37.784912109375 52.48583984375
8.818359375 -29.8922119140625 25.8331298828125
65.26513671875 23.4306640625 -35.5081787109375
11.6865234375 54.2877197265625 36.2991943359375
31.814208984375 15.8111572265625 10.2332763671875
19.830810546875 -30.0819091796875 19.6048583984375
27.943115234375 33.883544921875 -14.89892578125
-15.69091796875 46.166015625 44.8433837890625
19.892822265625 42.7041015625 29.6234130859375
66.5361328125 32.7916259765625 46.777099609375
25.907958984375 34.8223876953125 -2.3419189453125
-78.32958984375 71.367919921875 40.464599609375
12.9140625 35.943603515625 33.6903076171875
-16.93408203125 -27.3758544921875 25.6910400390625
49.044677734375 42.263671875 -19.148193359375
-34.25146484375 35.5916748046875 18.9229736328125
25.78369140625 -34.77880859375 28.91064453125
-4.71435546875 56.7822265625 50.6693115234375
22.8876953125 -75.74609375 -85.248046875
-49.224609375 36.64599609375 -31.3941650390625
53.917724609375 21.1673583984375 6.394775390625
-62.835205078125 33.964599609375 -26.45361328125
6.48974609375 67.134033203125 23.3463134765625
-14.499267578125 48.2974853515625 47.009521484375
-51.942626953125 -11.062255859375 -6.3382568359375
-29.98974609375 -29.293701171875 24.876220703125
31.957763671875 44.118408203125 -25.4957275390625
19.20849609375 -31.714599609375 27.754638671875
-62.49951171875 -51.8763427734375 -59.235595703125
3.574951171875 54.7998046875 37.856201171875
-74.661865234375 33.8055419921875 17.107421875
35.738525390625 1.2802734375 29.8890380859375
1.56103515625 72.217041015625 22.8604736328125
54.3564453125 -84.068603515625 -92.162841796875
-80.228271484375 60.5418701171875 52.204345703125
63.409423828125 -57.5863037109375 -64.248291015625
-26.04736328125 -23.624755859375 22.5311279296875
-45.660400390625 10.4127197265625 -2.0333251953125
21.366455078125 -23.2154541015625 14.4542236328125
35.86669921875 22.15234375 -9.0360107421875
-16.02099609375 24.68798828125 32.28515625
-71.760009765625 4.1741943359375 -10.6627197265625
-3.30224609375 -4.2352294921875 1.0849609375
-8.112060546875 2.83837890625 8.399658203125
-17.4716796875 37.2779541015625 47.3887939453125
4.8515625 45.01953125 46.367431640625
-23.065673828125 -7.219482421875 -2.0316162109375
-34.6015625 -20.9111328125 2.286865234375
19.7158203125 -0.1695556640625 7.0615234375
-12.525146484375 -2.14501953125 5.2769775390625
-75.7421875 17.5401611328125 66.4144287109375
23.55517578125 48.0726318359375 -13.89501953125
63.0166015625 3.007080078125 11.4454345703125
-16.2685546875 17.51513671875 24.99853515625
-26.864501953125 -12.2891845703125 -3.9510498046875
-39.42431640625 -19.17333984375 3.8341064453125
-49.5615234375 -9.815185546875 9.1285400390625
-43.455322265625 28.63232421875 -14.83349609375
-62.45947265625 -32.25390625 29.7701416015625
1.500244140625 31.713134765625 38.64306640625
-59.135986328125 26.63427734375 -22.263916015625
43.794677734375 41.9483642578125 -25.783935546875
28.33056640625 -4.3646240234375 20.8817138671875
20.19921875 41.970947265625 -7.6922607421875
58.28125 2.857177734375 74.235107421875
38.497802734375 31.00830078125 -17.7979736328125
-73.222900390625 -36.12548828125 32.9798583984375
-68.2548828125 -38.72412109375 33.24853515625
65.52490234375 26.7344970703125 -36.9722900390625
28.630126953125 18.30615234375 13.7008056640625
-71.260009765625 14.5865478515625 68.5435791015625
27.815185546875 18.0792236328125 8.23046875
-14.045654296875 -68.57421875 -41.24462890625
-64.7275390625 40.098876953125 -29.9371337890625
16.317626953125 -10.15283203125 19.1676025390625
-38.43701171875 -75.876708984375 -60.6170654296875
-28.452392578125 4.150146484375 -9.9710693359375
-21.057373046875 -1.8604736328125 3.9071044921875
-1.677490234375 -22.8819580078125 20.6824951171875
-2.138671875 29.105224609375 36.4483642578125
-57.12060546875 3.7464599609375 73.6732177734375
63.015869140625 5.4210205078125 13.8211669921875
14.459228515625 -33.69580078125 31.3646240234375
-67.976806640625 15.1082763671875 73.4530029296875
-71.60498046875 21.567138671875 72.810546875
1.779052734375 -12.375 16.153076171875
37.870361328125 20.4842529296875 -7.5556640625
14.668701171875 -40.7236328125 34.3912353515625
23.095703125 -8.1080322265625 23.2607421875
-27.465576171875 -17.6136474609375 1.1031494140625
-77.858642578125 74.912109375 36.852294921875
-69.3427734375 34.8448486328125 -12.230224609375
15.474609375 75.592041015625 25.7733154296875
0.029296875 55.087646484375 42.0418701171875
69.487060546875 2.7347412109375 72.099853515625
12.779541015625 -30.70458984375 21.5477294921875
26.719482421875 39.93896484375 -11.7303466796875
-44.11962890625 -75.904296875 -57.6986083984375
-56.330078125 14.939208984375 -10.7655029296875
-45.74169921875 -38.3426513671875 12.4820556640625
4.078369140625 -6.1533203125 -0.03857421875
-14.081298828125 -22.8900146484375 20.5438232421875
-73.044189453125 -24.9244384765625 26.5302734375
-62.853271484375 -49.4044189453125 -60.6710205078125
-37.1748046875 31.4967041015625 18.9036865234375
52.869873046875 -85.698974609375 -89.689697265625
-10.953857421875 32.0194091796875 39.2943115234375
1.047119140625 51.2777099609375 46.14697265625
-27.919189453125 -22.24609375 19.1610107421875
-37.1376953125 -83.370849609375 -61.2838134765625
42.988037109375 26.374755859375 -13.517578125
21.0439453125 -26.1688232421875 15.2066650390625
-55.5703125 26.965087890625 -22.688720703125
17.74755859375 -3.08154296875 17.989501953125
37.18408203125 17.1861572265625 -2.490966796875
2.208251953125 48.6397705078125 42.887451171875
-41.420166015625 14.0963134765625 -2.46875
-74.4521484375 27.1629638671875 24.3331298828125
3.09521484375 2.7103271484375 6.4476318359375
-39.801025390625 -15.0255126953125 -1.1353759765625
7.07080078125 -14.4656982421875 15.7310791015625
38.89208984375 40.1710205078125 -26.2286376953125
33.9033203125 11.7958984375 8.0472412109375
18.012939453125 -26.86279296875 14.7275390625
-17.958984375 -30.7373046875 29.584228515625
-4.378173828125 -21.6180419921875 19.013427734375
4.693603515625 15.7767333984375 22.56640625
28.278076171875 29.97900390625 -1.0968017578125
-59.3916015625 -5.178955078125 -11.8045654296875
-63.71484375 -36.85693359375 30.490234375
48.061279296875 37.8135986328125 -17.102783203125
-63.34130859375 -41.7318115234375 34.5576171875
-12.4765625 -7.7515869140625 -2.212158203125
-9.5986328125 -22.875 19.305908203125
-37.194580078125 -18.9091796875 1.5836181640625
-53.21044921875 -9.3948974609375 -4.4171142578125
-73.17138671875 4.103271484375 -14.62939453125
67.40869140625 37.146484375 46.1646728515625
3.889892578125 -36.3277587890625 33.7283935546875
12.181640625 -43.1822509765625 37.814453125
-27.025390625 -8.1251220703125 -2.798095703125
-70.239013671875 -23.9705810546875 27.644287109375
-18.299560546875 -19.9080810546875 13.5152587890625
-0.661865234375 36.2877197265625 36.2523193359375
27.873779296875 27.734130859375 3.5897216796875
41.92333984375 7.6468505859375 12.0164794921875
-15.12646484375 -25.3365478515625 22.5848388671875
47.942138671875 18.919189453125 -1.61328125
22.81103515625 -7.031982421875 19.119384765625
8.913330078125 17.619873046875 21.5843505859375
25.065185546875 42.404296875 28.6678466796875
-51.466796875 -60.591064453125 -57.8345947265625
-48.4111328125 -56.1107177734375 -55.5721435546875
51.810302734375 -7.3651123046875 26.71044921875
-78.38818359375 65.1668701171875 46.045166015625
33.5546875 2.1837158203125 22.697509765625
-72.353515625 27.294677734375 21.91796875
13.19189453125 42.9443359375 40.0418701171875
-72.21240234375 -44.496826171875 40.6658935546875
31.177490234375 37.30615234375 -21.0704345703125
33.861083984375 25.778076171875 -10.800537109375
47.655029296875 9.964111328125 11.0897216796875
4.426513671875 -9.7596435546875 17.1658935546875
64.5263671875 4.3009033203125 72.8868408203125
-61.818603515625 22.6046142578125 -15.9901123046875
54.5341796875 1.005126953125 31.735595703125
47.661376953125 8.8121337890625 14.872314453125
-18.689453125 21.060302734375 27.9012451171875
-28.6181640625 28.14208984375 22.7322998046875
30.3759765625 -5.260498046875 27.207275390625
37.48291015625 13.9266357421875 1.041748046875
76.390625 7.1126708984375 65.8502197265625
28.372802734375 47.42919921875 -19.7059326171875
41.329345703125 44.93359375 -28.44091796875
-8.169677734375 7.9317626953125 11.086181640625
-23.09619140625 -20.1148681640625 11.5115966796875
30.4013671875 23.6448974609375 -2.6466064453125
55.03369140625 11.07666015625 20.78271484375
-14.152099609375 49.594970703125 44.1934814453125
48.791015625 9.1090087890625 -80.612060546875
12.73681640625 59.372314453125 33.63427734375
-11.31591796875 50.3753662109375 43.6966552734375
-8.816162109375 -8.096923828125 -2.3497314453125
76.784912109375 8.3692626953125 62.4442138671875
25.628173828125 16.251220703125 9.8680419921875
-20.400634765625 0.7703857421875 6.7471923828125
11.154541015625 49.54638671875 41.29052734375
-4.01708984375 56.0689697265625 44.9962158203125
-44.036865234375 -70.8203125 -58.4371337890625
-18.363525390625 8.3466796875 14.41259765625
-56.955322265625 33.157958984375 -28.9866943359375
-48.472412109375 17.7774658203125 -12.2357177734375
-68.294921875 14.71240234375 -0.0452880859375
-43.806884765625 -18.743896484375 13.309326171875
-54.15087890625 -56.013671875 -59.0087890625
-7.84814453125 -29.3160400390625 25.33935546875
36.424560546875 26.2703857421875 -15.501708984375
-9.921630859375 40.0528564453125 39.8017578125
-49.57275390625 -3.235595703125 -11.837158203125
-31.888916015625 -23.697509765625 16.0313720703125
-40.459716796875 36.408447265625 -16.92724609375
26.467529296875 -27.1015625 22.4373779296875
-23.11865234375 -68.2054443359375 -43.34619140625
52.190673828125 -1.885009765625 77.53466796875
28.81982421875 23.87939453125 6.039794921875
-41.0458984375 24.845703125 -5.9322509765625
66.740478515625 54.6624755859375 43.8592529296875
31.948486328125 23.6717529296875 -6.6966552734375
-65.75146484375 9.2681884765625 9.568603515625
-17.528076171875 5.1278076171875 11.2174072265625
-22.923828125 -28.36767578125 26.6695556640625
39.522705078125 -4.5037841796875 33.049560546875
30.283447265625 -1.7030029296875 20.9951171875
-58.254150390625 8.6478271484375 74.61328125
-73.57958984375 -42.734619140625 37.8956298828125
-64.646484375 -1.8851318359375 -10.42138671875
83.072021484375 19.109375 62.3525390625
11.77587890625 66.3182373046875 23.91162109375
-1.999267578125 -18.9007568359375 68.97998046875
53.031494140625 -2.97412109375 29.7379150390625
-48.9990234375 -69.624755859375 -54.1981201171875
16.283203125 -28.794189453125 17.0380859375
-47.1865234375 -2.2003173828125 -10.73486328125
27.867431640625 32.23681640625 -6.371337890625
-67.367431640625 24.8134765625 -10.818603515625
-8.139892578125 28.2666015625 35.24560546875
45.051025390625 -2.419189453125 3.11572265625
-14.177734375 -12.18310546875 -1.173828125
18.986572265625 -22.066650390625 12.532958984375
49.477783203125 12.355712890625 6.298095703125
57.337646484375 12.6910400390625 -55.9031982421875
-32.513916015625 -16.4033203125 -2.044189453125
60.04052734375 3.7022705078125 12.228515625
73.10009765625 7.776611328125 60.3355712890625
-21.271240234375 41.958984375 47.8221435546875
-13.12548828125 12.69921875 17.668212890625
-59.586669921875 18.3084716796875 -13.4530029296875
-47.083984375 -7.6253662109375 71.483642578125
-77.765380859375 37.5081787109375 19.316650390625
-5.485595703125 -18.7615966796875 5.9896240234375
41.60986328125 39.350830078125 -24.95361328125
-0.61962890625 60.976318359375 37.51953125
-77.2958984375 29.926025390625 19.8443603515625
-61.58447265625 15.6778564453125 -8.19580078125
-58.25732421875 -55.617919921875 -58.60546875
5.86767578125 -27.7764892578125 19.219482421875
50.209716796875 10.1522216796875 16.556884765625
-16.79150390625 -20.4339599609375 15.9580078125
-31.765625 -81.091796875 -59.90185546875
37.535888671875 31.7825927734375 -20.0970458984375
-10.794189453125 6.9281005859375 10.956298828125
74.343017578125 46.4805908203125 54.6971435546875
-34.8525390625 2.4886474609375 -11.1680908203125
18.19970703125 40.9359130859375 28.153564453125
-4.0185546875 -9.8096923828125 -2.02490234375
-66.211669921875 16.425048828125 -4.868408203125
29.50537109375 -17.3614501953125 16.989013671875
9.911865234375 -6.367919921875 21.5029296875
-22.366455078125 51.2313232421875 46.1329345703125
1.83056640625 -26.0550537109375 22.661376953125
23.55029296875 40.3564453125 30.05712890625
56.494140625 -3.2071533203125 28.9742431640625
-11.668701171875 25.2342529296875 33.9271240234375
-17.873046875 51.458984375 45.344482421875
-61.124755859375 -54.9158935546875 -58.37744140625
33.969970703125 39.931640625 -23.3602294921875
-12.211669921875 52.880126953125 42.37353515625
-59.845703125 38.5877685546875 -32.8123779296875
-25.027099609375 -3.359619140625 -0.62939453125
-76.609130859375 63.162109375 45.6898193359375
9.85400390625 26.6610107421875 35.1531982421875
49.269287109375 2.2081298828125 23.458984375
-7.130859375 40.18408203125 38.1002197265625
-0.257080078125 -14.154052734375 10.476318359375
-57.788818359375 10.1900634765625 11.662353515625
30.3232421875 17.542724609375 15.4951171875
1.068603515625 48.63623046875 45.576416015625
7.734130859375 59.2098388671875 31.2720947265625
10.90673828125 -31.226318359375 29.527099609375
-68.239990234375 -43.102294921875 36.5771484375
26.993408203125 49.083251953125 -18.2896728515625
15.556884765625 72.5120849609375 26.93310546875
-45.331787109375 21.037353515625 -13.342529296875
-21.69482421875 -72.6685791015625 -41.4669189453125
33.425537109375 4.7989501953125 20.9713134765625
-4.655517578125 50.9095458984375 48.5164794921875
-62.849853515625 -45.36572265625 -60.1990966796875
-55.9267578125 12.760986328125 -9.46484375
-33.430419921875 -8.221435546875 -7.6077880859375
9.689697265625 58.7926025390625 29.56640625
-33.847412109375 -24.0078125 6.0970458984375
-66.73388671875 35.962890625 -23.467529296875
48.8193359375 26.8380126953125 -5.296630859375
34.27197265625 14.5367431640625 3.315185546875
-50.250244140625 -33.8111572265625 11.3048095703125
-8.0693359375 52.274658203125 44.3692626953125
-32.951416015625 -12.2178955078125 -5.92822265625
-46.99853515625 -0.7440185546875 -8.6259765625
7.321044921875 -45.286376953125 40.18017578125
3.79052734375 -27.47265625 24.060302734375
-54.820068359375 -6.5533447265625 -10.05078125
-73.63330078125 32.80224609375 19.2235107421875
2.887451171875 38.0086669921875 34.931640625
-39.40576171875 31.1331787109375 16.7462158203125
36.34033203125 19.9075927734375 -3.7177734375
-49.908447265625 -7.1221923828125 -8.28369140625
-35.06298828125 -15.693359375 -2.057861328125
-61.889404296875 -44.921142578125 37.7816162109375
69.649658203125 31.9840087890625 51.4442138671875
5.048583984375 63.8438720703125 26.587158203125
-3.5048828125 20.8232421875 24.5474853515625
5.376708984375 51.4537353515625 40.9605712890625
-75.685546875 35.8746337890625 18.578369140625
70.333984375 34.4332275390625 49.7791748046875
22.689697265625 -3.6292724609375 17.361572265625
-37.591796875 -16.6309814453125 -0.4273681640625
-21.645263671875 4.6201171875 10.4769287109375
-44.393798828125 9.407958984375 4.083984375
-40.802734375 11.9295654296875 3.837890625
-65.222412109375 -28.898681640625 29.2039794921875
23.724609375 7.731201171875 4.8892822265625
-65.602783203125 -39.8056640625 33.41162109375
51.94921875 12.03125 21.1861572265625
-76.1416015625 59.311767578125 47.9869384765625
-47.880859375 -37.71484375 11.2496337890625
-63.064208984375 -8.8929443359375 45.8760986328125
-1.728271484375 26.823486328125 35.453125
24.89990234375 38.7486572265625 32.0670166015625
-72.990966796875 -28.8179931640625 28.9254150390625
-30.06103515625 -1.370849609375 -9.5166015625
-68.34619140625 37.529296875 -17.8426513671875
-77.219970703125 58.588623046875 51.844482421875
18.40283203125 35.7587890625 31.1865234375
23.88671875 -29.149658203125 23.624755859375
62.4697265625 9.936279296875 20.5723876953125
28.03125 40.4049072265625 30.6595458984375
-73.971435546875 -32.697265625 30.4381103515625
11.03369140625 58.4124755859375 32.0706787109375
74.021728515625 34.824951171875 54.978271484375
49.27001953125 -10.25927734375 29.0240478515625
-32.92724609375 -75.2669677734375 -60.2491455078125
68.162109375 -2.0904541015625 75.9578857421875
19.78564453125 -16.3009033203125 13.48486328125
-78.171142578125 26.647216796875 23.6251220703125
-2.833984375 -1.195556640625 6.55859375
-26.412109375 31.0272216796875 25.5548095703125
-18.8505859375 27.314453125 34.1728515625
-1.64794921875 -11.543212890625 2.8251953125
24.9287109375 1.990478515625 5.950927734375
-3.417236328125 54.6922607421875 51.07666015625
-39.526123046875 31.8648681640625 19.7762451171875
-5.517822265625 46.0059814453125 42.8929443359375
-67.555419921875 -44.7340087890625 38.642822265625
-78.35546875 66.962158203125 44.2420654296875
14.2099609375 69.519775390625 24.3873291015625
55.38427734375 12.1695556640625 -57.3541259765625
64.9345703125 58.3543701171875 29.3922119140625
-75.631103515625 17.062744140625 60.535400390625
75.203857421875 39.6475830078125 53.2799072265625
22.36669921875 44.18603515625 30.489990234375
57.6611328125 -1.0755615234375 76.9100341796875
-1.81689453125 -15.64794921875 7.2525634765625
65.02197265625 61.7154541015625 26.240234375
-34.74560546875 -74.229736328125 -62.633544921875
14.495361328125 -5.05078125 21.2906494140625
-42.081298828125 -7.74365234375 -6.815673828125
-34.837646484375 -80.0494384765625 -61.35498046875
-39.975830078125 23.25634765625 -2.7181396484375
-55.183349609375 -50.9171142578125 -57.554931640625
-44.95263671875 -11.884521484375 73.9322509765625
-65.258056640625 25.3209228515625 -15.30908203125
36.8798828125 -8.543701171875 34.7977294921875
-26.00439453125 13.923095703125 -67.830322265625
22.955078125 -38.05322265625 32.2745361328125
-23.57861328125 -14.770263671875 2.659912109375
-43.0654296875 20.9072265625 -6.063232421875
61.2109375 -3.74609375 7.994384765625
-61.85400390625 -5.29443359375 -11.857421875
27.1875 34.4281005859375 35.8101806640625
43.812255859375 30.0570068359375 -16.8870849609375
53.6708984375 22.9468994140625 4.017333984375
11.825927734375 12.7767333984375 16.8419189453125
-26.79638671875 -15.30029296875 -0.9168701171875
-10.393310546875 45.7120361328125 43.5838623046875
-19.004150390625 48.0213623046875 45.0980224609375
-69.03369140625 -36.13671875 31.645263671875
25.0654296875 -0.0794677734375 13.0526123046875
37.2958984375 9.816162109375 15.9342041015625
-5.864990234375 37.5823974609375 38.259765625
-61.961181640625 9.7637939453125 -2.876220703125
35.656494140625 10.9732666015625 10.5570068359375
-17.9755859375 23.873291015625 30.814453125
71.14794921875 41.6737060546875 51.099609375
21.403564453125 46.7823486328125 -12.22607421875
70.53857421875 31.0186767578125 55.09033203125
-39.470947265625 29.559326171875 21.2281494140625
10.06640625 33.4149169921875 32.5198974609375
52.1083984375 6.117431640625 71.570068359375
-47.231201171875 -71.612060546875 -55.9393310546875
-29.70068359375 -71.6605224609375 -58.93701171875
3.773681640625 33.30517578125 35.4031982421875
-15.403564453125 -7.578369140625 -2.49072265625
-2.6923828125 37.6414794921875 36.39013671875
45.956298828125 -5.4786376953125 30.4049072265625
44.680419921875 26.9381103515625 -11.85009765625
13.4296875 30.3548583984375 35.08056640625
47.578857421875 44.9344482421875 -22.5247802734375
32.35400390625 10.5137939453125 12.4705810546875
-72.402099609375 -39.8026123046875 34.909912109375
5.0791015625 27.37646484375 36.0408935546875
9.218017578125 4.1566162109375 8.98095703125
3.1748046875 0.404541015625 7.724365234375
21.1337890625 15.224365234375 11.57373046875
0.705322265625 65.9237060546875 30.5045166015625
-4.520751953125 31.0347900390625 38.651611328125
-42.1005859375 -13.214111328125 0.34765625
70.712890625 6.8515625 58.41650390625
-1.255126953125 -18.360107421875 12.13623046875
57.109619140625 9.9571533203125 -54.4512939453125
8.987548828125 -12.2510986328125 16.85205078125
51.020263671875 -5.37451171875 6.1334228515625
-26.05224609375 -21.4251708984375 16.19140625
44.40087890625 33.613037109375 -18.916259765625
27.748046875 35.513671875 -12.7691650390625
-45.96240234375 -10.3372802734375 -5.2413330078125
-4.74169921875 42.2716064453125 38.4056396484375
30.0146484375 1.7352294921875 17.4432373046875
10.358154296875 54.9842529296875 34.3052978515625
68.26416015625 13.142333984375 54.420166015625
-62.63720703125 13.5694580078125 74.72265625
-5.6240234375 54.2740478515625 45.2734375
25.446044921875 -24.1229248046875 18.8060302734375
13.529296875 8.40185546875 12.1680908203125
13.635498046875 -31.5745849609375 30.5389404296875
-27.30224609375 1.56005859375 -7.90966796875
47.005615234375 24.025146484375 -4.0101318359375
85.522216796875 11.840087890625 63.4503173828125
-38.6923828125 -22.7470703125 8.412353515625
36.670654296875 -3.361572265625 31.951416015625
-41.81884765625 33.7552490234375 -16.2978515625
-21.398681640625 46.1951904296875 50.60302734375
-69.36572265625 -28.1370849609375 29.35205078125
-50.83544921875 -56.3614501953125 -56.81396484375
55.8759765625 1.1529541015625 75.7901611328125
-36.621826171875 -70.480224609375 -58.05419921875
80.51416015625 12.8515625 60.9447021484375
-16.921630859375 -17.283935546875 5.5721435546875
-37.63671875 -73.6588134765625 -60.1092529296875
83.348876953125 -70.4703369140625 -46.9075927734375
60.51171875 3.2698974609375 75.0533447265625
15.474853515625 -30.6512451171875 22.50439453125
