19.525390625 -23.1910400390625 -1.7664794921875
23.6630859375 -15.0511474609375 4.344970703125
8.08251953125 -64.2891845703125 -20.5228271484375
-5.626220703125 -25.8536376953125 -3.8782958984375
-16.549072265625 -23.177001953125 -14.763427734375
-16.36474609375 -37.2080078125 -10.5250244140625
17.2587890625 -40.294921875 -20.177978515625
11.122314453125 -33.10302734375 -14.3819580078125
-14.910888671875 -25.4061279296875 -9.1915283203125
9.81982421875 -66.0418701171875 -20.4788818359375
-13.378662109375 -33.230712890625 -10.8416748046875
0.776123046875 -68.88525390625 -39.442626953125
-17.356689453125 -2.927978515625 18.47119140625
24.2275390625 -4.2298583984375 -7.503662109375
8.75390625 -71.83251953125 -35.2802734375
-7.71728515625 -67.8046875 -40.99609375
-18.126220703125 -24.6756591796875 -4.803955078125
-5.21240234375 -69.4058837890625 -24.999755859375
8.762451171875 -71.2281494140625 -28.5455322265625
20.042724609375 -31.3359375 -12.493408203125
-14.3251953125 -61.307861328125 -35.5093994140625
10.737060546875 -36.1666259765625 -17.591552734375
19.4072265625 -74.9798583984375 -26.3431396484375
-25.062744140625 -3.37060546875 19.001708984375
-1.22216796875 -67.4412841796875 -33.1336669921875
-14.4384765625 -5.46240234375 18.3890380859375
-26.044677734375 -58.6483154296875 -46.34326171875
-5.27099609375 -68.0399169921875 -37.6138916015625
6.125732421875 -34.68994140625 -15.6998291015625
6.629638671875 -54.9813232421875 -20.4549560546875
14.9296875 -14.444091796875 -5.6741943359375
18.99560546875 -66.3946533203125 -22.2615966796875
7.5439453125 -47.83447265625 -20.4051513671875
25.57177734375 11.1773681640625 -6.455322265625
23.864501953125 1.078369140625 -0.3260498046875
15.84228515625 -36.415283203125 -18.021484375
-14.713623046875 -27.6903076171875 -5.4842529296875
19.925048828125 -51.3507080078125 6.6727294921875
7.01513671875 -69.88330078125 -20.6251220703125
22.349365234375 -73.407958984375 -24.15966796875
-0.774658203125 -58.919677734375 -20.8909912109375
-6.152587890625 -67.8624267578125 -33.402587890625
-3.652587890625 -66.6302490234375 -34.4310302734375
17.05712890625 -77.942626953125 -23.3485107421875
21.54443359375 -47.5374755859375 8.1474609375
18.743408203125 -9.1143798828125 -9.1688232421875
25.06689453125 -37.466796875 -19.1654052734375
4.6474609375 -44.338134765625 -20.2952880859375
1.316650390625 -32.146240234375 -13.066650390625
28.421630859375 -40.9410400390625 -20.28564453125
20.501220703125 -32.6082763671875 -14.128662109375
17.95361328125 -30.8729248046875 -11.82373046875
18.915283203125 -17.29638671875 -1.28515625
12.8095703125 -56.9647216796875 -20.3363037109375
27.713134765625 -19.673583984375 1.4549560546875
17.063232421875 -55.4921875 -20.312255859375
23.011962890625 -5.1619873046875 2.1732177734375
-3.646240234375 -67.3330078125 -30.1883544921875
7.7431640625 -29.9942626953125 -11.2723388671875
-17.013671875 -58.7120361328125 -43.12353515625
22.911376953125 11.7454833984375 -2.6307373046875
-20.86083984375 -22.736572265625 -13.2989501953125
12.08349609375 -40.874267578125 -20.17529296875
-18.928955078125 -6.236572265625 18.816162109375
-23.2529296875 -21.679931640625 -13.349365234375
14.339111328125 -31.1436767578125 -12.171875
11.916748046875 -62.362060546875 -20.4842529296875
7.763916015625 -25.0328369140625 -7.8232421875
22.423095703125 -3.103271484375 2.6923828125
23.4814453125 -12.452880859375 7.0977783203125
23.286376953125 -6.0113525390625 -0.72998046875
10.829833984375 -71.0867919921875 -22.38232421875
19.793701171875 13.4073486328125 -1.0650634765625
21.521728515625 -5.5050048828125 6.962646484375
4.21923828125 8.5516357421875 38.2310791015625
2.84033203125 -36.68505859375 -17.9483642578125
26.11181640625 1.391845703125 -6.116455078125
22.06787109375 -42.416015625 -20.401123046875
26.354248046875 9.2127685546875 -7.62744140625
25.42919921875 8.16943359375 -3.8253173828125
11.352783203125 -38.8070068359375 -19.575927734375
22.859375 -69.4652099609375 -25.76171875
22.5703125 -48.8489990234375 -20.537353515625
25.47509765625 4.0269775390625 -3.037109375
20.814208984375 -7.0064697265625 9.419189453125
3.315673828125 -58.3360595703125 -20.5872802734375
23.6865234375 -26.6236572265625 -6.83154296875
22.37451171875 -2.9522705078125 -15.19921875
2.2587890625 -56.468017578125 -20.480224609375
24.920654296875 -42.9857177734375 -20.572265625
0.49560546875 -34.3553466796875 -15.4930419921875
26.261474609375 -68.8607177734375 -16.970458984375
16.052490234375 -33.8470458984375 -14.9871826171875
17.607421875 -15.061279296875 -4.625
0.927734375 -61.4410400390625 -20.6661376953125
-12.669189453125 -24.3990478515625 -3.2412109375
-19.487548828125 -28.947998046875 -15.6353759765625
-9.15673828125 -65.551513671875 -34.6053466796875
3.876220703125 -22.55517578125 -13.76318359375
28.761962890625 -21.2490234375 -0.239013671875
20.0244140625 6.133544921875 2.659423828125
-27.19677734375 -51.791259765625 -47.189453125
-12.47900390625 -31.1744384765625 -10.2552490234375
18.8349609375 -38.1229248046875 -19.492431640625
20.5791015625 0.5655517578125 3.408935546875
11.4638671875 -24.2215576171875 -2.659423828125
19.55419921875 -62.5831298828125 -21.0648193359375
9.1572265625 -54.7239990234375 -20.40771484375
-1.216552734375 -23.9464111328125 -4.7484130859375
20.647216796875 15.2318115234375 -3.28125
23.05029296875 13.278076171875 -3.9769287109375
16.39453125 -23.3211669921875 -0.65576171875
-14.780517578125 -1.480712890625 20.9610595703125
18.909423828125 -68.27197265625 -26.175048828125
18.287109375 -42.1009521484375 -20.2816162109375
-17.302490234375 -22.98828125 -9.5609130859375
-28.0146484375 -55.5987548828125 -47.2498779296875
-16.4560546875 -58.107421875 -37.3719482421875
22.17138671875 -50.216064453125 6.1434326171875
-17.4873046875 -31.5264892578125 -14.5025634765625
-3.1796875 -67.9171142578125 -27.936279296875
-4.34814453125 -72.29150390625 -21.9765625
26.924072265625 -32.537841796875 -13.7635498046875
-27.472900390625 -48.693359375 -43.9921875
14.124267578125 -58.9644775390625 -20.1497802734375
-14.991943359375 1.1337890625 23.22021484375
9.359619140625 -73.3426513671875 -31.956298828125
-1.353271484375 -22.2972412109375 -1.9697265625
-0.598388671875 -74.984619140625 -22.11572265625
-22.060791015625 -55.7947998046875 -36.85693359375
-22.574462890625 -30.7591552734375 -15.1968994140625
21.756103515625 -9.98779296875 -3.5802001953125
-3.508056640625 -69.8179931640625 -25.8741455078125
6.01806640625 -61.633056640625 -20.3896484375
-7.6669921875 -66.8048095703125 -38.7012939453125
-29.2197265625 -48.5869140625 -46.233642578125
1.568115234375 -23.0628662109375 -11.87841796875
22.85009765625 5.872314453125 0.4720458984375
-0.27490234375 -37.3006591796875 -18.392333984375
23.6240234375 -75.6868896484375 -22.346435546875
7.51904296875 -23.0416259765625 -10.4361572265625
23.211181640625 -3.2047119140625 -13.2364501953125
-9.60498046875 -66.9649658203125 -42.0950927734375
-13.864990234375 -59.7669677734375 -37.8026123046875
-13.761474609375 -28.2003173828125 -11.6395263671875
9.005615234375 -71.9161376953125 -25.61669921875
0.68505859375 -73.4364013671875 -31.584716796875
24.01416015625 -27.9696044921875 -8.4124755859375
21.326416015625 -37.132568359375 -19.041259765625
-23.38427734375 -52.5673828125 -39.816650390625
15.8740234375 -68.78369140625 -24.21484375
24.434814453125 8.1339111328125 -2.0565185546875
-21.265380859375 6.69775390625 21.0980224609375
23.69482421875 -3.1077880859375 -0.9931640625
10.14306640625 -19.431884765625 -2.3148193359375
20.899658203125 -24.72802734375 -4.7984619140625
18.93212890625 5.337646484375 4.0792236328125
-15.473388671875 4.2701416015625 20.1983642578125
6.7099609375 -25.82421875 -12.0546875
23.44384765625 -45.3662109375 9.64404296875
16.924560546875 -25.2025146484375 -4.962890625
25.888671875 -50.504638671875 -20.5477294921875
14.679931640625 -40.5836181640625 -20.1766357421875
-0.12109375 -54.0693359375 -20.8551025390625
5.334228515625 -47.4892578125 -20.337646484375
-0.747314453125 -70.8282470703125 -29.03369140625
27.482666015625 -36.879150390625 -18.9212646484375
-21.09228515625 -18.521484375 -12.342041015625
-0.212646484375 -39.169921875 -19.53564453125
-15.598876953125 3.87109375 17.75244140625
9.32177734375 -52.4248046875 -20.343505859375
20.89990234375 -77.3604736328125 -22.987060546875
3.719970703125 10.6002197265625 35.17333984375
26.02880859375 3.2598876953125 -9.28076171875
12.50927734375 -19.27490234375 -1.68310546875
20.61767578125 -67.6181640625 -24.1783447265625
1.47216796875 13.51318359375 38.533935546875
3.632080078125 -73.1142578125 -21.7677001953125
18.877685546875 -3.777587890625 9.359619140625
21.53369140625 11.79833984375 -1.0833740234375
7.928955078125 -44.3406982421875 -20.356689453125
11.39697265625 -43.13330078125 -20.4329833984375
23.047119140625 -12.3603515625 10.2933349609375
-13.046630859375 -33.255615234375 -12.82080078125
4.589599609375 -29.3223876953125 -12.597412109375
-27.772216796875 -49.9398193359375 -40.5384521484375
21.723388671875 -7.6630859375 -6.6116943359375
-11.453369140625 -64.5244140625 -42.272216796875
27.343505859375 -28.2705078125 -8.81494140625
26.078125 -47.152587890625 -20.453369140625
18.64990234375 -35.181640625 -17.0848388671875
-19.035888671875 6.1513671875 23.249267578125
-0.5283203125 -73.2845458984375 -20.58740234375
10.038330078125 -28.0933837890625 -7.2791748046875
-0.225830078125 -70.76953125 -32.297607421875
-1.89208984375 -67.0126953125 -39.3590087890625
16.742431640625 -44.208984375 -20.384521484375
-9.1416015625 -64.2733154296875 -36.7645263671875
-3.551513671875 -24.9757080078125 -4.262939453125
27.483642578125 -34.9039306640625 -16.662109375
24.00048828125 -79.4498291015625 -21.2623291015625
26.302734375 -49.9229736328125 5.99755859375
2.947998046875 -20.7769775390625 -11.5025634765625
10.55419921875 -61.0980224609375 -20.4931640625
4.956298828125 -41.9852294921875 -20.279052734375
14.813232421875 -37.5513916015625 -19.0689697265625
5.162841796875 -71.78369140625 -35.572998046875
20.104248046875 -28.0653076171875 -8.3935546875
7.8154296875 -40.7962646484375 -19.9112548828125
-19.6103515625 -61.7623291015625 -45.5301513671875
-17.769287109375 -60.422119140625 -44.220703125
23.42138671875 -11.36669921875 4.9639892578125
20.5322265625 -10.236328125 -5.047607421875
4.10009765625 -62.2198486328125 -20.498779296875
3.210693359375 -51.0692138671875 -20.3314208984375
-14.694091796875 -23.82080078125 -14.6961669921875
25.8056640625 2.1473388671875 -3.8292236328125
14.685791015625 -35.3133544921875 -17.1080322265625
-12.30712890625 -62.3809814453125 -40.993408203125
-1.655029296875 -67.01513671875 -37.2161865234375
23.12451171875 -45.9610595703125 -20.4088134765625
-20.350830078125 -56.072509765625 -42.774169921875
9.25390625 -62.7340087890625 -20.48388671875
24.82568359375 -0.5948486328125 -13.3817138671875
-27.20751953125 -61.923095703125 -45.8253173828125
19.084716796875 -51.932861328125 -20.3184814453125
22.693115234375 -12.997314453125 0.6534423828125
24.069091796875 -66.2066650390625 -23.6431884765625
-19.324951171875 -20.5191650390625 -11.298828125
19.1533203125 -59.8175048828125 -19.751220703125
12.568115234375 -34.857421875 -16.4456787109375
23.840087890625 -8.5391845703125 0.7169189453125
22.03759765625 -3.1044921875 4.63427734375
24.6171875 -30.2579345703125 -10.7413330078125
-25.853759765625 -62.8033447265625 -44.9249267578125
22.559814453125 -55.6884765625 -20.4869384765625
0.33837890625 -50.091552734375 -20.5928955078125
12.989013671875 -52.138427734375 -20.5469970703125
-20.06787109375 -23.0611572265625 -5.400146484375
24.3544921875 5.90234375 -1.1365966796875
7.42431640625 -70.4903564453125 -34.698486328125
23.9189453125 -31.6170654296875 -12.6942138671875
5.6748046875 -32.1806640625 -12.773193359375
-7.093017578125 -66.799560546875 -35.0316162109375
-15.802978515625 -25.3731689453125 -7.4036865234375
-23.31640625 -24.1654052734375 -15.9385986328125
25.302001953125 -43.9337158203125 11.3323974609375
10.513427734375 -74.488037109375 -28.7989501953125
-1.371826171875 -73.7337646484375 -23.198974609375
1.068115234375 -42.716064453125 -20.2362060546875
20.929443359375 2.4091796875 3.125244140625
24.296630859375 -35.34521484375 -17.37109375
-13.945068359375 -30.384765625 -11.07763671875
21.41357421875 -6.08251953125 -11.4820556640625
-16.91796875 3.8780517578125 23.3050537109375
-14.648681640625 -28.718017578125 -8.449951171875
21.357421875 -44.8433837890625 10.99169921875
9.168701171875 -35.299560546875 -16.52783203125
8.87939453125 -36.672607421875 -17.6907958984375
20.997314453125 -13.061767578125 -2.5928955078125
14.361572265625 -69.8658447265625 -24.29833984375
6.74658203125 -23.5709228515625 -1.6912841796875
24.716064453125 0.404296875 -1.881591796875
16.5439453125 -49.3515625 -20.3829345703125
-29.37890625 -51.0718994140625 -38.4442138671875
18.33349609375 -26.1558837890625 -5.9859619140625
-19.11474609375 -56.02490234375 -39.538330078125
24.303955078125 -50.9637451171875 5.811279296875
-15.965576171875 -24.01318359375 -4.177734375
23.814208984375 -71.5062255859375 -23.0152587890625
-20.972900390625 3.954345703125 17.5462646484375
-0.40185546875 -67.9345703125 -40.36474609375
-2.773193359375 -72.2144775390625 -20.7012939453125
18.476318359375 -28.871337890625 -9.35498046875
7.70166015625 -71.0946044921875 -31.1905517578125
-10.218994140625 -65.0611572265625 -41.1221923828125
10.218505859375 -32.1436767578125 -13.1719970703125
13.680419921875 -63.689697265625 -20.229736328125
25.170654296875 -1.3431396484375 -4.8636474609375
-20.852783203125 -60.0423583984375 -45.978759765625
19.284912109375 -12.3365478515625 -4.8128662109375
7.4169921875 -68.093994140625 -20.475830078125
24.216064453125 -3.8162841796875 -3.976806640625
24.45458984375 -24.4873046875 -4.4852294921875
6.345458984375 -51.5426025390625 -20.5556640625
22.1982421875 -16.544189453125 2.3330078125
22.275634765625 -62.3018798828125 -18.8978271484375
24.67431640625 -39.2056884765625 -19.8857421875
20.8984375 -44.9844970703125 -20.4700927734375
25.61279296875 -46.208251953125 8.0482177734375
16.233642578125 -27.984375 -7.1981201171875
25.6259765625 -70.1680908203125 -13.716552734375
3.91943359375 12.256103515625 36.5487060546875
24.36572265625 -20.3265380859375 2.474853515625
-19.933349609375 -2.3131103515625 18.3360595703125
27.437255859375 -54.4561767578125 -20.568359375
21.09619140625 -30.1298828125 -10.8802490234375
27.465576171875 5.3875732421875 -9.5889892578125
2.17333984375 -34.739990234375 -15.765380859375
8.56689453125 -46.4268798828125 -20.3194580078125
29.56787109375 -25.426513671875 -5.4825439453125
23.044921875 -13.848388671875 3.2554931640625
-17.78515625 0.131103515625 17.096435546875
10.7353515625 -29.314697265625 -9.6292724609375
17.506591796875 -4.4664306640625 10.53759765625
12.749755859375 -37.820556640625 -18.8707275390625
16.543212890625 -11.3118896484375 -7.779541015625
13.3232421875 -33.077880859375 -14.257568359375
15.802001953125 -15.802490234375 -4.304931640625
-2.653564453125 -32.6885986328125 -14.577392578125
3.798828125 -48.511962890625 -20.41064453125
18.167236328125 2.0592041015625 5.4791259765625
16.16259765625 -61.5906982421875 -20.281494140625
13.641845703125 -4.2591552734375 11.8284912109375
-3.107666015625 -67.179443359375 -36.2965087890625
23.39501953125 -7.5645751953125 2.718017578125
-26.67626953125 -61.46826171875 -48.21044921875
18.2333984375 -78.89208984375 -22.4276123046875
12.313720703125 -30.99609375 -11.75
-0.744873046875 -69.1982421875 -31.59130859375
21.75732421875 8.4708251953125 0.0562744140625
22.48779296875 -10.9046630859375 -0.7677001953125
15.447998046875 -38.9759521484375 -19.793212890625
16.677734375 -12.41650390625 -6.305419921875
-6.354736328125 -66.8358154296875 -36.7291259765625
-18.39208984375 4.25439453125 19.3709716796875
19.14697265625 -18.734375 -0.0401611328125
22.427978515625 -7.5828857421875 -1.0147705078125
2.43603515625 -29.972412109375 -12.585205078125
20.64453125 -8.99853515625 -6.61376953125
13.99951171875 -46.7662353515625 -20.4473876953125
-16.0048828125 -0.9320068359375 19.837890625
23.298583984375 -67.4061279296875 -22.59619140625
25.04443359375 10.766357421875 -4.71728515625
-14.962890625 2.237060546875 20.9508056640625
23.1943359375 3.1414794921875 0.8135986328125
-3.3408203125 -71.51904296875 -25.21728515625
-17.51611328125 -25.3892822265625 -16.5684814453125
17.21484375 -46.7593994140625 -20.507568359375
21.836669921875 -26.38916015625 -6.450927734375
26.28369140625 4.9622802734375 -4.6943359375
21.9873046875 -0.02734375 2.5897216796875
15.11083984375 -43.5291748046875 -20.5059814453125
15.549072265625 -54.734375 -20.4820556640625
-24.978759765625 -61.7374267578125 -47.171630859375
9.041015625 -33.3603515625 -14.169677734375
27.66748046875 -33.55615234375 -14.9013671875
21.263916015625 -54.0380859375 -20.2884521484375
-0.974609375 -23.5927734375 -2.9981689453125
23.013671875 -48.0684814453125 7.283203125
6.30029296875 -20.902099609375 -9.4417724609375
20.736328125 -35.63330078125 -17.74072265625
13.099365234375 -24.3131103515625 -3.3409423828125
27.453857421875 -23.4619140625 -3.3292236328125
-16.47216796875 -21.5379638671875 -13.269287109375
21.632568359375 -65.2701416015625 -22.4312744140625
21.28662109375 -63.7442626953125 -18.9798583984375
-28.938232421875 -53.360107421875 -48.1666259765625
-21.03125 -24.665283203125 -16.625
3.892822265625 -32.6876220703125 -13.5054931640625
-17.97998046875 6.4212646484375 20.9305419921875
-4.366455078125 -24.5372314453125 -2.277587890625
22.42431640625 -71.8602294921875 -28.547607421875
10.293701171875 -24.80712890625 -4.417724609375
24.44140625 -49.3515625 -20.509765625
17.15380859375 -21.4530029296875 -0.702880859375
26.117919921875 6.840087890625 -7.2447509765625
3.653564453125 -68.121826171875 -20.6630859375
11.42822265625 -72.52294921875 -26.5816650390625
12.68701171875 -24.352783203125 -1.3587646484375
22.514892578125 -6.1070556640625 5.322509765625
6.074951171875 -23.3226318359375 -5.0439453125
5.368408203125 -57.6724853515625 -20.526123046875
16.5888671875 0.77392578125 8.1004638671875
0.51025390625 -68.496826171875 -37.294677734375
25.64111328125 -57.5086669921875 -20.4036865234375
19.52294921875 2.7216796875 4.327880859375
18.6201171875 -21.1297607421875 0.0941162109375
-2.45263671875 -75.0263671875 -20.7816162109375
-0.608154296875 -44.9581298828125 -20.9415283203125
0.660400390625 -47.7021484375 -20.5758056640625
19.517578125 -6.6396484375 10.5975341796875
21.682861328125 -70.3182373046875 -12.518798828125
22.572021484375 -9.5223388671875 7.7799072265625
21.8173828125 -40.4434814453125 -20.1990966796875
17.60205078125 -1.28076171875 8.39404296875
4.676025390625 -54.475830078125 -20.483154296875
25.071533203125 -68.4873046875 -19.9197998046875
-14.9033203125 -36.60302734375 -10.0244140625
17.499267578125 -36.3917236328125 -18.07958984375
-14.861083984375 -26.0780029296875 -6.1654052734375
24.171142578125 -33.4420166015625 -15.0567626953125
19.141845703125 -64.4091796875 -21.8079833984375
21.568359375 -14.448486328125 0.0872802734375
20.10546875 -22.2098388671875 0.6279296875
1.745849609375 -74.2703857421875 -19.85986328125
28.0859375 -29.291015625 -9.955322265625
25.3125 -22.669921875 -2.3939208984375
11.0927734375 -55.2265625 -20.3797607421875
-16.871826171875 3.7784423828125 24.9525146484375
-23.84716796875 -57.6337890625 -46.5887451171875
-20.0107421875 -21.429931640625 -12.5213623046875
27.435791015625 -26.6119384765625 -6.80859375
25.5888671875 -21.6370849609375 -0.883544921875
-3.318603515625 -31.8675537109375 -13.055419921875
21.094970703125 -19.7059326171875 1.897216796875
11.0732421875 -22.137451171875 -0.596923828125
-18.775390625 -40.808349609375 -9.7933349609375
-21.4951171875 -41.11767578125 -10.4273681640625
25.308349609375 -1.89892578125 -10.172607421875
5.473876953125 -35.593017578125 -16.9007568359375
7.523681640625 -70.2086181640625 -28.2169189453125
16.169189453125 -51.059814453125 -20.528076171875
8.782470703125 -31.1895751953125 -12.1494140625
-15.95947265625 1.60498046875 17.82666015625
16.38818359375 -13.8372802734375 -5.2581787109375
0.482177734375 -69.85595703125 -35.7567138671875
-15.134765625 0.938232421875 19.7349853515625
-17.08203125 -24.6300048828125 -6.6561279296875
21.78515625 -8.95947265625 10.9403076171875
0.520751953125 -33.133056640625 -14.22265625
7.754150390625 -22.36767578125 -11.8948974609375
3.634765625 11.25146484375 37.9117431640625
9.270751953125 -71.9951171875 -32.8509521484375
17.636962890625 -58.73486328125 -20.306884765625
13.6845703125 -71.7149658203125 -27.19580078125
-23.167236328125 -4.0555419921875 19.015625
24.41064453125 -66.408447265625 -15.90234375
18.496826171875 -10.13330078125 -7.937255859375
-3.206298828125 -69.1795654296875 -29.242431640625
-16.768798828125 -26.5802001953125 -15.49853515625
-15.118408203125 -25.13232421875 -11.7567138671875
13.558837890625 -68.3455810546875 -21.658447265625
-18.423095703125 -23.532470703125 -8.5408935546875
25.798095703125 -74.300537109375 -15.607666015625
22.365478515625 -8.552001953125 -3.189453125
-0.800048828125 -69.715087890625 -20.6900634765625
-17.236572265625 -63.433349609375 -44.6510009765625
11.79248046875 -58.40283203125 -20.4222412109375
23.306640625 -58.416015625 -20.3216552734375
21.25537109375 -33.63427734375 -15.27490234375
-18.44921875 -56.9234619140625 -41.6712646484375
-26.0322265625 -52.841064453125 -46.8603515625
22.320556640625 -22.81005859375 -1.930908203125
-2.81787109375 -72.874267578125 -23.42626953125
-2.933349609375 -75.004150390625 -25.1744384765625
-28.919921875 -57.06787109375 -48.704833984375
26.31689453125 -71.4547119140625 -21.982421875
24.822509765625 -0.680419921875 -3.1358642578125
-21.086181640625 5.1114501953125 18.8841552734375
18.412353515625 -23.6802978515625 -2.9193115234375
26.779541015625 3.0377197265625 -6.7138671875
14.00830078125 -60.5328369140625 -20.3917236328125
19.58642578125 -15.938720703125 -2.1119384765625
25.822998046875 -73.400634765625 -13.9405517578125
-23.9345703125 -52.595703125 -43.493408203125
4.013427734375 -65.2412109375 -20.43212890625
22.468994140625 -7.031982421875 -5.134033203125
-10.419921875 -63.57763671875 -36.051513671875
20.041748046875 -3.93017578125 7.8519287109375
3.561767578125 -34.155517578125 -15.2684326171875
23.113037109375 -21.7705078125 -0.2337646484375
-24.525146484375 -53.440185546875 -37.8577880859375
14.904541015625 -52.642333984375 -20.51904296875
21.6279296875 -69.356201171875 -27.0894775390625
25.469482421875 -28.12841796875 -9.0213623046875
-22.322998046875 4.0328369140625 18.5360107421875
-25.25439453125 -51.04150390625 -41.6947021484375
27.701904296875 -31.191650390625 -12.44384765625
4.396240234375 -24.8697509765625 -15.49072265625
-21.5625 -54.5162353515625 -38.15771484375
0.373291015625 -59.958984375 -20.5716552734375
-2.241943359375 -73.91650390625 -26.8170166015625
-16.128662109375 -30.606201171875 -13.7359619140625
9.12744140625 -56.9451904296875 -20.52001953125
9.63134765625 -23.7965087890625 -1.073974609375
27.3681640625 -51.2547607421875 -20.3804931640625
5.2587890625 -22.0372314453125 -7.6739501953125
-15.0439453125 -38.41162109375 -9.241455078125
22.43017578125 -72.7216796875 -25.571533203125
-26.5380859375 -57.0623779296875 -49.088623046875
17.589111328125 -18.136474609375 -1.358642578125
9.295654296875 -30.37353515625 -10.9083251953125
-14.338623046875 -63.9801025390625 -43.4591064453125
-26.107666015625 -54.77392578125 -47.40869140625
20.154052734375 -74.6995849609375 -24.9935302734375
-19.77978515625 -20.4588623046875 -8.6617431640625
9.941650390625 -50.93603515625 -20.5018310546875
3.452392578125 -73.1728515625 -25.21142578125
12.152099609375 -27.761962890625 -6.91943359375
-16.503173828125 -57.9400634765625 -38.9727783203125
-10.338134765625 -62.7196044921875 -39.0718994140625
-16.6572265625 -61.8902587890625 -44.1141357421875
25.051513671875 -51.81298828125 -20.6790771484375
6.17041015625 -64.8829345703125 -20.63232421875
7.46826171875 -59.9066162109375 -20.447265625
24.171142578125 2.5325927734375 -0.7933349609375
-2.230712890625 -66.3123779296875 -33.50146484375
-26.79248046875 -51.0208740234375 -45.840087890625
25.051513671875 -76.442626953125 -21.5286865234375
-19.923583984375 -25.5799560546875 -17.9150390625
-17.61279296875 -23.91845703125 -15.6259765625
-11.15380859375 -61.6676025390625 -37.8895263671875
19.56787109375 14.7474365234375 -2.271728515625
23.4873046875 -4.855712890625 -8.9732666015625
24.04345703125 -3.173095703125 -11.6431884765625
-1.9921875 -67.82861328125 -31.6517333984375
22.4814453125 -24.3245849609375 -4.0491943359375
21.69580078125 -71.3321533203125 -11.33544921875
-21.113525390625 -4.3560791015625 18.553955078125
-25.243896484375 -58.3616943359375 -48.41650390625
-21.8974609375 -56.6346435546875 -45.5394287109375
4.14453125 -21.6676025390625 -1.5504150390625
-22.853271484375 -55.3262939453125 -44.6990966796875
21.865966796875 -31.95361328125 -13.0633544921875
8.09716796875 -58.389404296875 -20.606689453125
13.9404296875 -49.67333984375 -20.3822021484375
-17.767578125 3.189208984375 16.578369140625
-17.46826171875 -1.2603759765625 18.36865234375
9.306640625 -26.3414306640625 -6.297119140625
1.934326171875 -46.8486328125 -20.406494140625
2.334716796875 -23.3673095703125 -3.5216064453125
-14.748046875 -61.2030029296875 -49.557373046875
6.766357421875 -28.5867919921875 -12.0172119140625
-1.213623046875 -35.1944580078125 -16.4931640625
-15.1083984375 -4.297607421875 19.5498046875
9.832763671875 -28.0418701171875 -8.8023681640625
-19.05810546875 3.6656494140625 17.76416015625
8.552001953125 -27.1939697265625 -9.6510009765625
16.799560546875 -31.7672119140625 -13.192626953125
21.5654296875 -68.8048095703125 -24.412353515625
-2.3759765625 -70.60107421875 -26.55615234375
-14.182373046875 -62.373046875 -43.1810302734375
19.947021484375 -48.1253662109375 -20.4586181640625
15.040771484375 -27.2706298828125 -6.4764404296875
20.239501953125 -66.32470703125 -23.1513671875
3.082275390625 -38.0589599609375 -18.9261474609375
28.1513671875 -47.8885498046875 -20.72314453125
24.664794921875 -45.2867431640625 -20.5887451171875
1.35400390625 -36.9512939453125 -18.1939697265625
2.424560546875 -40.742431640625 -20.03662109375
27.60302734375 -44.34228515625 -20.523681640625
0.920654296875 -23.4256591796875 -2.5411376953125
6.591064453125 -24.6732177734375 -13.548095703125
-0.732666015625 -31.5941162109375 -12.4327392578125
21.055419921875 5.0496826171875 2.378173828125
-15.043212890625 -65.2762451171875 -44.3365478515625
4.8798828125 -23.4287109375 -2.53759765625
7.01611328125 -23.8731689453125 -8.8721923828125
27.066650390625 -44.7088623046875 9.5009765625
6.119384765625 -36.717529296875 -18.018798828125
20.36328125 -41.4222412109375 -20.2698974609375
11.10986328125 -68.1473388671875 -20.8941650390625
3.741455078125 -71.000732421875 -20.034423828125
16.2578125 -24.78759765625 -3.6676025390625
-0.625244140625 -71.6531982421875 -30.7752685546875
2.265625 13.011474609375 36.500732421875
23.3232421875 -10.8509521484375 7.014404296875
-16.2421875 -28.899169921875 -13.7957763671875
4.96435546875 -19.6436767578125 -9.4447021484375
22.293701171875 -19.53759765625 2.7908935546875
22.40673828125 -10.0701904296875 9.8355712890625
14.826171875 -23.63623046875 -0.8143310546875
7.22509765625 -31.122802734375 -12.127685546875
-16.060302734375 4.8082275390625 21.5064697265625
-18.322998046875 2.0733642578125 15.7354736328125
-15.10205078125 0.5343017578125 21.789306640625
11.24365234375 -37.364990234375 -18.65478515625
23.765869140625 -4.6578369140625 -0.2950439453125
15.219482421875 -11.838134765625 -8.2481689453125
15.90087890625 -3.7464599609375 10.457275390625
7.178955078125 -33.5467529296875 -14.64697265625
24.71826171875 4.3963623046875 -1.734375
23.43310546875 -11.86279296875 3.5511474609375
21.480224609375 -11.393798828125 -2.53369140625
2.529541015625 -52.9844970703125 -20.3829345703125
23.031005859375 -6.3193359375 3.7066650390625
11.133544921875 -66.5634765625 -19.9979248046875
24.31201171875 -4.3316650390625 -5.9866943359375
26.933837890625 -43.0169677734375 -20.3873291015625
20.962158203125 -38.4818115234375 -19.5601806640625
24.59814453125 -68.7325439453125 -23.1795654296875
12.194091796875 -33.892578125 -15.048583984375
23.293701171875 -9.0928955078125 4.6932373046875
26.833251953125 -30.249755859375 -11.2564697265625
27.32763671875 -57.35986328125 -19.869873046875
15.24267578125 -28.4024658203125 -8.41162109375
-19.656005859375 -18.269287109375 -11.4473876953125
-15.79296875 -60.7802734375 -35.356201171875
25.81396484375 -20.2015380859375 1.4578857421875
4.27734375 -59.8765869140625 -20.43359375
-20.276611328125 -54.976806640625 -39.8651123046875
25.11083984375 -47.359375 7.2088623046875
18.813232421875 -5.421142578125 10.139404296875
23.7138671875 -13.6751708984375 10.1650390625
3.50341796875 -21.619140625 -6.74462890625
25.31298828125 -69.53515625 -21.2828369140625
23.29443359375 -12.0111083984375 12.00048828125
22.732666015625 -4.6234130859375 -11.5628662109375
-0.709228515625 -72.2725830078125 -28.7303466796875
17.492431640625 -29.5958251953125 -10.182373046875
22.85791015625 -30.0413818359375 -11.001220703125
-18.940673828125 -22.9765625 -13.023193359375
0.1533203125 -52.4053955078125 -20.6580810546875
3.308349609375 -55.0208740234375 -20.393310546875
7.804443359375 -39.3499755859375 -19.624755859375
-24.41455078125 -52.69921875 -44.96142578125
13.603271484375 -25.2034912109375 -4.7923583984375
20.7822265625 -1.7752685546875 5.218017578125
22.320556640625 -35.2099609375 -16.9674072265625
-15.5771484375 -26.0697021484375 -14.2899169921875
18.958740234375 0.2572021484375 6.069091796875
26.417236328125 0.6380615234375 -8.39794921875
21.476318359375 10.224853515625 -0.3428955078125
23.823974609375 11.8018798828125 -3.781494140625
13.9423828125 -25.788330078125 -2.5443115234375
26.78369140625 4.7381591796875 -6.261474609375
25.349365234375 -1.8822021484375 -7.4818115234375
-16.622314453125 -39.0159912109375 -9.073974609375
22.793701171875 -11.5472412109375 0.8597412109375
18.466064453125 -39.478271484375 -20.0137939453125
23.086181640625 -6.1011962890625 -6.134521484375
6.1552734375 -21.2659912109375 -11.801025390625
26.058349609375 7.7303466796875 -5.069091796875
-0.50634765625 -67.8155517578125 -34.4400634765625
25.60498046875 -53.5589599609375 -20.3900146484375
26.710205078125 -24.408203125 -4.4381103515625
2.013916015625 -72.4346923828125 -30.78369140625
21.346435546875 -16.5765380859375 0.7020263671875
-19.123779296875 -58.7117919921875 -44.021240234375
21.440185546875 -51.4659423828125 6.0107421875
21.53369140625 -6.377685546875 8.12548828125
-20.666015625 -19.9595947265625 -11.77392578125
-24.611328125 -52.521240234375 -38.980712890625
21.89453125 2.8623046875 2.14013671875
22.690185546875 -15.4542236328125 3.1556396484375
24.892333984375 -41.5643310546875 -20.29052734375
8.3798828125 -71.3870849609375 -23.09033203125
22.91259765625 -8.9293212890625 2.285400390625
19.834716796875 10.4195556640625 0.9410400390625
6.088623046875 -44.4652099609375 -20.2547607421875
18.664306640625 -44.00439453125 -20.53173828125
-14.12158203125 -35.4464111328125 -10.470703125
7.43505859375 -62.1514892578125 -20.5604248046875
15.1806640625 -20.2813720703125 -0.83203125
16.884765625 -67.6533203125 -23.7335205078125
-18.50927734375 -22.8150634765625 -5.173095703125
25.69384765625 -0.470947265625 -11.23046875
23.306884765625 -0.519775390625 0.2442626953125
23.420654296875 8.931396484375 -1.405517578125
-14.173095703125 -59.104248046875 -40.083740234375
20.14697265625 -16.4434814453125 -0.5771484375
1.341064453125 -64.8656005859375 -20.61279296875
28.389892578125 -39.530029296875 -20.005859375
9.24853515625 -47.78662109375 -20.4593505859375
10.766845703125 -4.0408935546875 33.5731201171875
22.447265625 7.28662109375 0.4991455078125
22.720947265625 -74.5616455078125 -23.35302734375
8.931884765625 -71.7359619140625 -27.2130126953125
-15.021240234375 -25.9996337890625 -10.6165771484375
11.092529296875 -49.4364013671875 -20.4635009765625
-15.882568359375 2.228759765625 22.18017578125
-19.687744140625 -24.0758056640625 -15.4615478515625
28.671142578125 -18.971435546875 2.256591796875
-17.557373046875 -37.9730224609375 -10.7279052734375
-22.40087890625 -22.6661376953125 -13.9381103515625
-0.880859375 -41.8680419921875 -20.652587890625
1.38232421875 -71.554931640625 -20.39453125
-18.456298828125 -26.37109375 -17.090087890625
-15.598388671875 -22.9573974609375 -11.85400390625
-1.468017578125 -70.455810546875 -27.7120361328125
10.666259765625 -40.742919921875 -20.21533203125
25.27099609375 -74.0870361328125 -22.1055908203125
-14.283203125 -28.6583251953125 -9.8226318359375
-28.34619140625 -48.64013671875 -45.1126708984375
23.7099609375 13.475341796875 -5.39599609375
-28.459228515625 -50.408203125 -47.2545166015625
-16.75830078125 -58.0321044921875 -41.7369384765625
-4.09130859375 -73.1458740234375 -20.8758544921875
-24.18701171875 -51.7593994140625 -41.1029052734375
-18.737548828125 -30.148681640625 -14.5584716796875
-14.8525390625 -30.7381591796875 -12.388427734375
13.794189453125 -44.0399169921875 -20.418212890625
13.962890625 -32.185546875 -13.0704345703125
25.296142578125 -66.4970703125 -20.11279296875
6.556640625 -48.839111328125 -20.2811279296875
-22.91845703125 -53.733154296875 -43.1229248046875
2.501220703125 -23.1131591796875 -14.252685546875
14.697998046875 -42.0205078125 -20.4615478515625
8.522705078125 -69.210205078125 -20.763427734375
-25.381591796875 -4.9774169921875 18.8662109375
-19.123291015625 -57.20166015625 -36.7705078125
24.62841796875 -3.2802734375 -9.9544677734375
14.22900390625 -30.021728515625 -10.8746337890625
19.71923828125 -2.2188720703125 6.8516845703125
-19.962646484375 -57.4007568359375 -43.82861328125
-26.321044921875 -51.399658203125 -38.91162109375
0.797607421875 -44.3497314453125 -20.4307861328125
12.75146484375 -28.6617431640625 -9.010986328125
-14.237060546875 -2.9239501953125 20.88916015625
21.765625 -63.14013671875 -20.1514892578125
23.854736328125 -66.817138671875 -20.3616943359375
-22.456787109375 -5.1319580078125 18.465576171875
25.563720703125 -0.1944580078125 -5.564453125
-6.610107421875 -67.5146484375 -38.1134033203125
-0.8056640625 -50.869140625 -20.8114013671875
-2.097412109375 -74.9029541015625 -22.16064453125
11.105224609375 -45.472900390625 -20.449462890625
12.377197265625 -53.6259765625 -20.38916015625
12.654052734375 -22.1295166015625 -0.046875
8.38232421875 -24.564453125 -4.025146484375
16.429931640625 -30.8062744140625 -11.8017578125
8.135498046875 -23.820068359375 -2.2752685546875
0.822998046875 -73.4588623046875 -28.763427734375
12.080322265625 -26.2392578125 -5.4156494140625
-5.374267578125 -68.28515625 -39.425537109375
-16.416748046875 -1.982177734375 18.9368896484375
21.8427734375 -57.2574462890625 -20.2830810546875
-12.845947265625 -64.418212890625 -42.99658203125
8.552734375 -71.1409912109375 -30.08984375
17.66259765625 1.210205078125 6.4599609375
21.578125 -78.259765625 -21.6688232421875
11.444580078125 -24.0279541015625 -0.82763671875
23.4501953125 -42.543212890625 -20.361328125
25.353515625 -71.499755859375 -23.0172119140625
7.3837890625 -35.0 -16.2109375
20.145751953125 -23.6956787109375 -3.644775390625
-8.04248046875 -65.14111328125 -38.0362548828125
13.031494140625 -61.5672607421875 -20.267333984375
22.413330078125 -64.9141845703125 -20.4998779296875
-15.678466796875 -32.89501953125 -14.249755859375
23.212890625 -2.2264404296875 0.41943359375
18.701904296875 -49.6883544921875 -20.449462890625
-14.513427734375 -24.5838623046875 -4.3707275390625
16.387939453125 -19.2061767578125 -1.0960693359375
-13.837158203125 -34.12255859375 -9.888916015625
-0.3408203125 -71.354736328125 -33.7254638671875
-16.46337890625 -4.02978515625 19.51318359375
5.692138671875 -38.178955078125 -19.1396484375
-1.9794921875 -39.287841796875 -20.0782470703125
4.156494140625 -27.28662109375 -13.926025390625
20.29345703125 -14.4969482421875 -2.35302734375
-1.382568359375 -69.83984375 -29.7587890625
19.434814453125 -45.979736328125 -20.5419921875
1.800537109375 -50.2108154296875 -20.5513916015625
-29.612548828125 -48.5687255859375 -40.8155517578125
26.4619140625 8.082763671875 -6.760498046875
-24.17578125 -55.2921142578125 -46.6824951171875
10.502197265625 -73.3494873046875 -32.790771484375
1.47021484375 -39.546630859375 -19.8011474609375
-21.87060546875 -53.6102294921875 -41.4407958984375
9.006103515625 -71.162109375 -33.9130859375
-15.89111328125 -58.0826416015625 -40.621337890625
10.0771484375 -69.6282958984375 -20.982421875
-5.704833984375 -24.61181640625 -1.943359375
-1.092529296875 -75.2030029296875 -20.689697265625
22.594482421875 -65.4072265625 -19.180419921875
25.26416015625 -34.619140625 -16.5411376953125
3.235595703125 -19.724365234375 -9.960205078125
4.677490234375 -40.697021484375 -19.8958740234375
19.7470703125 -68.318603515625 -25.0892333984375
-15.03857421875 -59.0589599609375 -37.7413330078125
-12.0693359375 -60.865478515625 -38.521484375
-23.755126953125 4.7421875 19.37646484375
23.03466796875 -10.9066162109375 2.1661376953125
-12.999755859375 -60.9833984375 -40.8446044921875
-9.9638671875 -64.382080078125 -39.737548828125
-26.5537109375 -49.4989013671875 -43.3575439453125
22.65478515625 -18.21728515625 3.279541015625
26.244140625 2.811279296875 -11.3082275390625
7.78955078125 -51.6588134765625 -20.514404296875
22.267578125 -4.210693359375 5.4891357421875
-0.5625 -67.3004150390625 -36.4150390625
8.3095703125 -70.866455078125 -25.0828857421875
23.8125 -70.01806640625 -13.9901123046875
24.628662109375 -68.723388671875 -14.46875
-17.8857421875 -28.2811279296875 -15.1781005859375
0.135986328125 -69.970703125 -34.4171142578125
-23.259765625 -31.918212890625 -15.423095703125
13.28857421875 -55.5535888671875 -20.4471435546875
2.29833984375 -45.53466796875 -20.4698486328125
22.016357421875 -1.6680908203125 2.718017578125
-21.006591796875 -23.9637451171875 -13.9326171875
-1.54931640625 -36.6729736328125 -18.268798828125
12.06640625 -64.0980224609375 -20.4337158203125
6.544921875 -23.3458251953125 -13.859375
8.666015625 -72.296630859375 -31.4259033203125
-0.9208984375 -34.1231689453125 -14.9276123046875
-15.001708984375 -27.9755859375 -12.3756103515625
16.725341796875 -56.81005859375 -20.2491455078125
26.65283203125 -37.8348388671875 -19.42333984375
-18.10595703125 5.5235595703125 19.915771484375
9.60595703125 -73.69287109375 -29.42529296875
-14.17724609375 -26.9793701171875 -11.2041015625
-14.080078125 -1.9224853515625 22.522705078125
2.126708984375 -68.7955322265625 -20.5238037109375
2.07958984375 -22.53662109375 -13.0550537109375
16.07763671875 -79.023681640625 -23.229248046875
4.575439453125 -38.9227294921875 -19.3521728515625
20.344482421875 -27.1123046875 -7.4559326171875
21.17431640625 -7.087646484375 -10.2642822265625
23.8154296875 10.0543212890625 -2.10986328125
-4.444091796875 -68.406982421875 -27.907958984375
16.051513671875 -6.41455078125 33.352294921875
5.87939453125 -25.7672119140625 -13.1236572265625
8.594482421875 -25.0902099609375 -6.7550048828125
-16.185302734375 4.408203125 19.056640625
6.49462890625 -32.82421875 -13.7354736328125
29.3095703125 -33.1478271484375 -14.7642822265625
-20.60693359375 -32.0523681640625 -14.9925537109375
20.21044921875 -0.5009765625 4.71484375
-9.936279296875 -65.595703125 -33.5072021484375
3.61767578125 -22.770751953125 -5.230712890625
-20.474853515625 2.6142578125 15.832275390625
29.06005859375 -31.33447265625 -12.41650390625
-20.885498046875 -54.8331298828125 -41.6766357421875
4.875 9.961669921875 35.661865234375
17.30078125 -68.2025146484375 -24.9398193359375
12.31591796875 -46.8116455078125 -20.3934326171875
24.837158203125 6.727294921875 -2.08544921875
6.873046875 -26.272216796875 -10.7388916015625
6.478271484375 -40.9864501953125 -20.2069091796875
24.89013671875 -26.939208984375 -7.3448486328125
-18.077392578125 -23.6434326171875 -14.0054931640625
-27.864013671875 -56.943359375 -47.0108642578125
6.939208984375 -63.592529296875 -20.4483642578125
22.006103515625 -71.1702880859375 -25.5224609375
9.574462890625 -43.2542724609375 -20.331787109375
24.1513671875 -36.6131591796875 -18.5596923828125
20.297607421875 -51.0858154296875 -20.1527099609375
2.1904296875 -35.5560302734375 -16.8260498046875
-0.5869140625 -73.0977783203125 -30.4744873046875
18.25390625 -67.00537109375 -23.2193603515625
22.438720703125 -70.2969970703125 -27.65869140625
1.903564453125 -23.074951171875 -4.751953125
20.863525390625 -18.5660400390625 1.0360107421875
6.733154296875 -24.6192626953125 -10.8009033203125
-15.026123046875 -23.781005859375 -12.734375
22.7421875 -13.4957275390625 2.0047607421875
26.78125 -43.56982421875 12.1243896484375
23.302001953125 -69.7822265625 -24.540771484375
15.743896484375 -29.2877197265625 -9.8558349609375
21.889404296875 -4.0841064453125 -13.903076171875
18.882568359375 15.9222412109375 -2.7110595703125
9.649169921875 -70.4752197265625 -22.9140625
26.6044921875 3.4359130859375 -7.97265625
4.46240234375 9.173583984375 36.672119140625
-21.52783203125 -23.0985107421875 -7.309814453125
14.865234375 -6.178466796875 32.66943359375
6.7294921875 -22.7596435546875 -0.6368408203125
-17.49462890625 -40.6971435546875 -9.4517822265625
5.627197265625 7.141357421875 36.93359375
5.808349609375 -66.2431640625 -20.5684814453125
26.760498046875 -18.7056884765625 3.2899169921875
22.894287109375 -47.5616455078125 -20.59912109375
28.842529296875 -37.013427734375 -18.884033203125
10.443115234375 -25.536376953125 -5.5177001953125
7.192626953125 -24.0345458984375 -5.1285400390625
24.183349609375 -2.2574462890625 -1.9508056640625
19.25048828125 -30.70166015625 -11.5458984375
-9.78857421875 -64.5640869140625 -35.328857421875
10.884765625 -30.042724609375 -10.7279052734375
10.26416015625 -72.3668212890625 -23.8751220703125
21.597900390625 -7.6591796875 8.4588623046875
11.733642578125 -4.031005859375 34.57421875
17.911376953125 -32.956787109375 -14.6922607421875
5.8759765625 -22.9677734375 -6.9619140625
-15.021240234375 -59.8905029296875 -42.285400390625
-14.01171875 -59.8505859375 -41.213623046875
-8.106689453125 -65.664794921875 -35.4012451171875
22.149658203125 -49.0728759765625 6.8060302734375
5.129638671875 -22.882080078125 -14.27392578125
23.283447265625 -5.6407470703125 -3.2655029296875
19.964599609375 -33.8096923828125 -15.557861328125
22.824462890625 -28.45068359375 -8.933837890625
8.808349609375 -71.940673828125 -24.3134765625
-26.730224609375 -50.7471923828125 -40.5543212890625
15.416015625 -34.7386474609375 -16.173095703125
15.02392578125 -26.46728515625 -5.432373046875
5.5703125 -23.850830078125 -3.8515625
-20.35302734375 -23.8328857421875 -7.395263671875
7.740966796875 -26.2392578125 -9.0775146484375
19.31591796875 -58.664306640625 -20.3612060546875
-22.611083984375 -53.462646484375 -39.137451171875
-19.168212890625 -62.07373046875 -47.735595703125
-18.2255859375 -20.8284912109375 -10.5130615234375
1.075927734375 -69.299072265625 -38.16455078125
6.138427734375 -20.4610595703125 -10.7548828125
9.400390625 -64.4764404296875 -20.4332275390625
13.58984375 -41.3248291015625 -20.3890380859375
11.314208984375 -31.7288818359375 -12.5869140625
28.644775390625 -27.715576171875 -8.345703125
-11.56396484375 -62.1942138671875 -36.7645263671875
20.73095703125 -21.0311279296875 1.4056396484375
-18.924560546875 -56.10107421875 -37.98046875
23.136474609375 -39.5504150390625 -20.0821533203125
-18.08203125 -56.8255615234375 -39.5545654296875
23.899169921875 -2.1072998046875 -13.07763671875
4.22705078125 -36.097412109375 -17.44775390625
-15.9306640625 -24.597412109375 -9.159423828125
-26.218505859375 -60.2642822265625 -46.6280517578125
-12.0166015625 -63.374267578125 -41.781982421875
-2.2939453125 -74.463134765625 -24.1378173828125
18.2685546875 -23.2608642578125 -1.4410400390625
25.76025390625 -31.8392333984375 -13.059814453125
23.498046875 -13.244873046875 6.068603515625
21.49462890625 -71.4915771484375 -29.375244140625
26.08203125 -66.4730224609375 -17.7987060546875
27.466064453125 -36.087646484375 -17.892578125
1.294921875 -20.0654296875 -11.6126708984375
16.487548828125 -2.1099853515625 9.850341796875
19.138916015625 -7.442138671875 11.543701171875
9.588134765625 -34.160888671875 -15.0299072265625
7.7763671875 -37.095458984375 -18.2847900390625
-18.061767578125 6.55126953125 22.2171630859375
3.427734375 -44.7730712890625 -20.253662109375
-13.713134765625 -60.490478515625 -49.242919921875
29.093017578125 -34.8837890625 -16.72216796875
22.68505859375 -8.5716552734375 6.5633544921875
23.90234375 -30.8226318359375 -11.6614990234375
0.975830078125 -57.3486328125 -20.6510009765625
28.74560546875 -20.4599609375 0.7864990234375
-8.74072265625 -67.012939453125 -40.9805908203125
-19.15380859375 -23.8619384765625 -4.7691650390625
29.102783203125 -23.37646484375 -2.8365478515625
23.6015625 -12.177734375 8.8524169921875
-17.52197265625 -57.981689453125 -36.5775146484375
18.930908203125 -0.9864501953125 7.03271484375
23.85791015625 -67.5140380859375 -15.5262451171875
-14.28564453125 -27.5098876953125 -9.141845703125
21.04443359375 -8.1265869140625 10.2869873046875
14.57177734375 -36.197509765625 -18.1053466796875
22.135009765625 -76.7850341796875 -22.4249267578125
16.7177734375 -39.190185546875 -19.7071533203125
20.29248046875 4.859130859375 4.4635009765625
9.318115234375 -72.7083740234375 -28.6436767578125
10.80126953125 -75.4725341796875 -29.58056640625
-0.036865234375 13.5283203125 37.3699951171875
-29.22705078125 -48.236083984375 -43.1578369140625
24.198974609375 -78.17626953125 -21.27685546875
-12.60400390625 -32.0870361328125 -11.2840576171875
18.39306640625 7.8206787109375 2.629638671875
-1.997802734375 -32.0955810546875 -12.9764404296875
-7.03125 -66.2733154296875 -37.66748046875
2.305908203125 -59.376708984375 -20.4620361328125
2.630859375 -62.118896484375 -20.54052734375
-0.24658203125 -74.8616943359375 -23.4888916015625
-0.79150390625 -36.085693359375 -17.314208984375
19.769775390625 -76.3370361328125 -23.3035888671875
23.222900390625 -9.3927001953125 -0.431884765625
22.97998046875 -7.78564453125 0.123291015625
12.706787109375 -50.5228271484375 -20.5494384765625
15.989501953125 -40.08203125 -20.2646484375
25.41357421875 1.0048828125 -3.1259765625
4.041259765625 9.7767333984375 37.91259765625
-13.8076171875 -26.794921875 -5.58935546875
7.02783203125 -70.5362548828125 -32.12158203125
-16.388427734375 3.0130615234375 17.22998046875
-23.029052734375 -2.6295166015625 18.589599609375
20.287353515625 -68.44140625 -26.718994140625
28.054443359375 -21.803466796875 -1.1456298828125
5.53759765625 -53.5394287109375 -20.5595703125
4.384033203125 -23.755859375 -14.8262939453125
23.02685546875 -8.3614501953125 3.6417236328125
-18.25390625 -5.1243896484375 18.986328125
-20.03369140625 6.6431884765625 20.7779541015625
21.11279296875 -30.9271240234375 -11.916259765625
-23.675048828125 -54.8533935546875 -45.5975341796875
21.958251953125 1.6085205078125 2.4619140625
-22.35302734375 -54.8876953125 -43.614990234375
25.82177734375 1.37353515625 -4.8349609375
24.091064453125 -25.510498046875 -5.3663330078125
8.1806640625 -24.208251953125 -5.9425048828125
25.44921875 -33.2679443359375 -14.7760009765625
25.393798828125 -48.326904296875 6.440673828125
24.50927734375 -45.8306884765625 8.5440673828125
3.53466796875 -53.7742919921875 -20.4090576171875
-18.5712890625 -2.583740234375 18.3743896484375
23.671142578125 -6.4598388671875 2.04443359375
7.62939453125 -55.7674560546875 -20.48095703125
25.947265625 -26.53857421875 -6.77783203125
22.04833984375 -6.6756591796875 -8.4609375
27.001220703125 -46.1761474609375 -20.5738525390625
18.50439453125 -11.01123046875 -6.79931640625
-15.30615234375 -35.647216796875 -12.0855712890625
-4.778076171875 -67.600341796875 -36.537353515625
22.785888671875 0.26904296875 1.08154296875
13.80078125 -57.7454833984375 -20.3623046875
-14.00634765625 -60.4488525390625 -36.37646484375
-4.244873046875 -23.635986328125 -1.26171875
23.31298828125 -37.572265625 -19.063232421875
-4.14453125 -67.0692138671875 -35.506103515625
-0.449951171875 -68.332275390625 -32.4588623046875
-25.498291015625 -51.14306640625 -44.462646484375
