6.434326171875 -5.482177734375 -11.4832763671875
9.936767578125 -18.1318359375 -13.6724853515625
-13.227294921875 -16.263916015625 -13.4261474609375
-23.689453125 -37.946533203125 -35.86767578125
-10.02880859375 -49.7969970703125 -36.7144775390625
-19.66943359375 -60.0086669921875 -39.349609375
-28.6572265625 -22.7386474609375 18.208984375
-2.7958984375 -31.144287109375 -13.7535400390625
-22.907958984375 -61.4556884765625 -34.75390625
27.63134765625 -11.4327392578125 -13.6590576171875
3.107666015625 -9.9554443359375 -13.2523193359375
-6.90869140625 -52.8253173828125 -36.365234375
-12.4052734375 -9.3760986328125 -13.0667724609375
-1.731201171875 -67.898681640625 -30.0980224609375
-21.947509765625 1.009033203125 9.0592041015625
18.106689453125 12.8997802734375 11.025390625
-0.415283203125 15.1331787109375 1.8804931640625
-22.3212890625 2.39404296875 1.63916015625
-20.779541015625 -48.627685546875 -40.4832763671875
27.008544921875 -36.5849609375 -12.7080078125
-14.949462890625 -58.3533935546875 -36.994140625
1.15234375 -4.0443115234375 -9.39990234375
-10.153076171875 25.557861328125 23.3111572265625
-4.560791015625 20.763916015625 -3.64794921875
10.2744140625 -46.656494140625 -14.6490478515625
7.189697265625 -43.8685302734375 -16.14599609375
-20.265869140625 1.197021484375 -0.43603515625
-3.761962890625 -24.8382568359375 -13.369873046875
8.883544921875 -37.46728515625 -15.4473876953125
-11.649169921875 4.2281494140625 -7.5772705078125
-28.32666015625 -49.677978515625 -37.581298828125
-1.34423828125 19.3961181640625 -2.44140625
14.047607421875 -45.20263671875 -11.8773193359375
17.396240234375 -28.89453125 -13.982177734375
6.372802734375 -41.54833984375 -17.020751953125
0.953857421875 -44.3685302734375 -19.1212158203125
-13.257568359375 26.2042236328125 24.119873046875
21.31787109375 -22.0267333984375 -13.787109375
-6.071533203125 -27.1207275390625 -14.0223388671875
5.43310546875 -34.9530029296875 -14.497802734375
12.3955078125 -20.5760498046875 -14.15625
-12.121337890625 31.734130859375 19.89306640625
-5.227783203125 -21.87548828125 -13.6165771484375
6.73486328125 -12.2962646484375 -13.5455322265625
-29.58203125 -56.458251953125 -33.06396484375
6.68212890625 -16.1982421875 -13.415771484375
4.47607421875 -32.452880859375 -13.8773193359375
-22.03564453125 -59.0006103515625 -39.2869873046875
-23.69091796875 -42.431640625 -39.0714111328125
-10.212646484375 19.303466796875 6.6153564453125
16.6435546875 -31.5283203125 -13.6839599609375
22.17333984375 20.8116455078125 8.2823486328125
-25.46142578125 -39.6396484375 -36.2802734375
-4.930419921875 -28.8311767578125 -13.54443359375
-13.8984375 -53.5438232421875 -39.8297119140625
-14.44580078125 0.4600830078125 -5.66015625
1.90234375 -45.9990234375 -17.3980712890625
24.584716796875 11.561279296875 12.130859375
-18.51611328125 -60.5040283203125 -32.2742919921875
-10.990966796875 -12.217529296875 -13.3946533203125
-1.98193359375 10.5625 4.94482421875
2.093505859375 14.223388671875 3.3187255859375
23.7265625 -29.3021240234375 -13.6529541015625
-19.437744140625 -10.601806640625 -13.3631591796875
-29.3740234375 -54.7469482421875 -34.4151611328125
12.02099609375 -23.5770263671875 -13.7796630859375
22.652587890625 -27.066650390625 -13.810791015625
-17.760498046875 -55.74365234375 -40.630615234375
1.414794921875 -18.1529541015625 -13.8134765625
-0.4765625 -21.748291015625 -13.7926025390625
-24.054443359375 -4.40966796875 3.138427734375
-11.715087890625 10.5223388671875 -5.34326171875
-15.090576171875 -72.591064453125 -28.9521484375
-23.149658203125 6.5703125 12.52294921875
-5.66650390625 16.18408203125 2.931396484375
24.384033203125 15.4754638671875 10.4072265625
-17.73291015625 20.8316650390625 27.1929931640625
-15.822021484375 -18.3970947265625 -13.5855712890625
-9.556884765625 2.6689453125 -5.77392578125
-2.462890625 -34.192138671875 -13.698486328125
4.0712890625 -48.763671875 -14.6610107421875
-24.322265625 -57.02197265625 -38.469482421875
9.626953125 -31.1104736328125 -13.9166259765625
-22.14599609375 3.43994140625 10.9263916015625
-20.72216796875 -44.1495361328125 -40.1014404296875
18.808349609375 -8.8211669921875 -13.1505126953125
0.594482421875 19.5439453125 -2.333251953125
1.00048828125 11.96826171875 4.01513671875
-8.278564453125 -29.1357421875 -14.0050048828125
12.671630859375 -13.204833984375 -13.4903564453125
-17.40966796875 -41.1826171875 -38.319580078125
9.27392578125 11.6290283203125 10.0308837890625
-21.3564453125 0.8236083984375 3.637451171875
6.610595703125 -45.7623291015625 -14.9852294921875
0.424072265625 -15.2401123046875 -13.31005859375
-27.44873046875 -46.1768798828125 -38.9996337890625
7.05322265625 -14.299560546875 -13.6416015625
-7.720458984375 -16.0478515625 -13.47412109375
-17.904052734375 -63.073974609375 -26.87548828125
5.844970703125 18.7718505859375 4.61328125
5.765625 11.9189453125 10.1080322265625
1.37451171875 -47.116455078125 -18.4090576171875
0.44921875 17.07666015625 -0.3961181640625
-7.64501953125 -10.0662841796875 -13.3304443359375
-28.2138671875 -62.867919921875 -29.723876953125
1.68017578125 -24.0391845703125 -13.8907470703125
-8.5400390625 -73.085205078125 -28.860595703125
-9.135498046875 -57.21728515625 -31.9990234375
-15.486328125 20.1966552734375 29.4720458984375
-28.116943359375 -43.7767333984375 -35.3121337890625
-21.760986328125 5.967041015625 10.9527587890625
-6.6240234375 -64.3082275390625 -30.7591552734375
-0.862060546875 -24.4407958984375 -13.6541748046875
-9.156494140625 -67.528564453125 -33.9302978515625
-5.49951171875 17.888427734375 1.1231689453125
-16.296630859375 27.1539306640625 25.590576171875
-3.002197265625 -19.8350830078125 -13.6331787109375
-15.162353515625 -27.410400390625 -13.830810546875
-11.47607421875 -0.321533203125 -5.9140625
20.85302734375 -24.8194580078125 -13.87255859375
-8.240966796875 1.3597412109375 -4.2259521484375
-28.158935546875 -55.2425537109375 -35.9969482421875
-1.3837890625 13.265869140625 3.4268798828125
9.701416015625 -12.1868896484375 -13.5938720703125
4.22900390625 23.0321044921875 -1.5400390625
20.41650390625 -17.16845703125 -13.3472900390625
21.01953125 -33.6607666015625 -13.6226806640625
-17.136962890625 -59.74267578125 -32.2843017578125
-1.4248046875 -32.80712890625 -14.2257080078125
-7.126953125 15.1776123046875 3.649169921875
-5.0009765625 -73.172119140625 -30.6925048828125
16.15625 -35.0860595703125 -13.8546142578125
-20.257568359375 -8.8887939453125 -0.298583984375
-1.43017578125 -38.6669921875 -18.782958984375
-22.127685546875 -6.92041015625 -0.2210693359375
6.857666015625 9.603271484375 12.44775390625
13.0859375 -43.136474609375 -13.537353515625
-18.510009765625 3.5955810546875 -1.7052001953125
11.43701171875 -32.57373046875 -13.8809814453125
2.701171875 -34.3616943359375 -15.752197265625
11.146728515625 -29.46826171875 -13.824951171875
3.058837890625 -44.1212158203125 -21.8583984375
-10.931640625 -74.8465576171875 -28.570556640625
6.387939453125 -37.869873046875 -17.37451171875
0.820556640625 7.765380859375 5.887451171875
-8.930419921875 -57.417724609375 -30.435791015625
-24.94677734375 -61.495361328125 -28.0145263671875
-16.6484375 -65.162841796875 -27.90771484375
15.66650390625 -25.027587890625 -13.8720703125
6.82861328125 -24.215576171875 -13.8782958984375
-10.427001953125 19.9317626953125 8.0269775390625
-15.4921875 -24.643310546875 -13.650634765625
20.3701171875 9.3001708984375 13.24658203125
25.606689453125 -15.9132080078125 -13.725341796875
-11.20263671875 20.108642578125 11.323486328125
0.11181640625 -30.3277587890625 -13.9384765625
3.15234375 -7.552001953125 -13.2169189453125
19.938720703125 -19.6373291015625 -13.5595703125
-13.10791015625 -72.4862060546875 -32.3472900390625
17.031005859375 17.7369384765625 8.6337890625
-10.399169921875 -29.0284423828125 -13.4967041015625
9.25390625 -16.5230712890625 -13.515380859375
-2.166259765625 -13.83984375 -13.474365234375
-22.92236328125 -61.108642578125 -38.046875
-13.661865234375 -27.2120361328125 -13.4654541015625
-27.462158203125 -35.009033203125 -35.5032958984375
13.5107421875 -5.659912109375 -11.7117919921875
27.073486328125 -18.135009765625 -13.501708984375
-5.70849609375 20.0045166015625 -0.638427734375
-7.33447265625 -62.270751953125 -31.0692138671875
13.60791015625 -8.9580078125 -12.924072265625
8.12646484375 -4.9124755859375 -10.3043212890625
-19.3154296875 -43.2666015625 -39.820068359375
8.658203125 -24.9178466796875 -13.868408203125
-20.236572265625 -21.7874755859375 -13.8011474609375
-8.056640625 20.023681640625 5.1756591796875
17.279296875 8.69384765625 16.150634765625
18.61083984375 -41.7855224609375 -13.51220703125
-7.90771484375 21.4981689453125 0.1146240234375
-11.814453125 -48.958740234375 -37.2421875
0.128173828125 7.930908203125 9.269287109375
9.647216796875 14.674560546875 12.1236572265625
-7.865966796875 -27.101806640625 -13.7835693359375
-20.635986328125 -60.4532470703125 -29.689208984375
2.54052734375 -44.707275390625 -18.089599609375
5.810302734375 23.5599365234375 1.236083984375
-25.156982421875 -34.45263671875 -33.3138427734375
8.125244140625 -7.76611328125 -12.3470458984375
20.909423828125 -36.794677734375 -13.7427978515625
-11.060302734375 -20.4937744140625 -13.46044921875
2.4580078125 12.110107421875 6.086181640625
-17.60009765625 -45.350830078125 -39.740478515625
-15.369384765625 -57.386962890625 -40.461181640625
18.109375 -32.225341796875 -13.6263427734375
14.628173828125 7.675537109375 17.042236328125
23.263427734375 -30.9615478515625 -13.8890380859375
-0.726806640625 -44.1585693359375 -18.3453369140625
-16.602294921875 -62.7596435546875 -30.5457763671875
19.07763671875 -10.5421142578125 -13.487548828125
-26.687255859375 -41.855712890625 -38.1845703125
1.20166015625 20.271240234375 -3.5426025390625
23.043212890625 -15.541259765625 -13.51220703125
-3.326171875 -17.07568359375 -13.5635986328125
-0.14599609375 6.0909423828125 18.8990478515625
-8.5966796875 -66.671142578125 -32.3809814453125
10.551513671875 -47.5482177734375 -12.8314208984375
5.2646484375 -4.2880859375 -9.4654541015625
10.568603515625 -9.2130126953125 -13.2161865234375
-18.712646484375 -50.6297607421875 -40.2508544921875
2.743896484375 18.69970703125 2.004638671875
27.789306640625 -15.5865478515625 -12.1405029296875
24.8251953125 -18.982421875 -13.4112548828125
-0.521728515625 -52.3271484375 -13.5914306640625
11.469970703125 -15.331298828125 -13.7315673828125
-30.377685546875 -53.6029052734375 -34.1285400390625
-24.166015625 -47.955322265625 -40.268798828125
-24.0341796875 -61.806640625 -35.7178955078125
15.69189453125 -38.584716796875 -13.913330078125
-20.09765625 -53.2239990234375 -40.3433837890625
4.148681640625 -39.715576171875 -22.27880859375
-15.883056640625 2.633544921875 -5.1697998046875
-4.72509765625 -12.346435546875 -13.4136962890625
3.02001953125 -32.8602294921875 -13.784912109375
-12.354248046875 -71.259765625 -31.8809814453125
-0.548095703125 6.95361328125 12.961669921875
0.085693359375 -32.99560546875 -13.8482666015625
-9.61767578125 -55.4044189453125 -38.3623046875
11.618896484375 -42.10693359375 -13.7181396484375
-9.578857421875 -17.715087890625 -13.5185546875
15.047607421875 -33.6734619140625 -14.09716796875
-6.265869140625 -17.18115234375 -13.5155029296875
-26.694580078125 -62.7374267578125 -31.704833984375
-3.667724609375 -18.531982421875 -13.2393798828125
1.69677734375 -22.4984130859375 -13.9427490234375
-10.498291015625 18.6085205078125 10.7435302734375
-27.56787109375 -30.32470703125 -32.9698486328125
9.550537109375 -40.494873046875 -15.4368896484375
10.0224609375 -43.5345458984375 -14.37451171875
-8.8427734375 -14.620849609375 -13.71826171875
27.65771484375 -33.87841796875 -11.708251953125
-13.1103515625 25.070068359375 25.457275390625
12.397705078125 -39.4287109375 -13.7921142578125
-25.070068359375 -43.599609375 -39.1376953125
-17.662353515625 -17.74072265625 -13.707275390625
3.502685546875 -26.6187744140625 -13.70458984375
-14.451416015625 -58.1265869140625 -38.5079345703125
17.5341796875 -39.960205078125 -13.6556396484375
-14.2890625 -62.59521484375 -31.3858642578125
-2.579345703125 -41.802001953125 -18.9654541015625
14.490478515625 -14.3507080078125 -13.580322265625
-10.39013671875 17.586669921875 8.4500732421875
26.9599609375 -33.3896484375 -13.4949951171875
11.92529296875 -45.12451171875 -13.663330078125
23.60986328125 -32.4564208984375 -13.7733154296875
14.595703125 -40.806396484375 -13.582275390625
-10.34814453125 -22.8121337890625 -13.4791259765625
2.61572265625 -49.1964111328125 -14.6790771484375
-21.94677734375 1.4996337890625 5.307373046875
20.071533203125 -41.3828125 -13.6043701171875
-0.439697265625 5.6602783203125 13.870361328125
5.536865234375 -49.0394287109375 -14.50732421875
-22.413330078125 -43.0621337890625 -39.9298095703125
-10.0546875 -45.410400390625 -34.61669921875
-14.3154296875 -72.484375 -31.044189453125
-11.28515625 -65.552978515625 -31.9678955078125
-22.844970703125 -60.6895751953125 -21.1644287109375
8.82177734375 -46.343017578125 -14.6929931640625
10.58642578125 -20.556884765625 -13.91552734375
-18.72412109375 -12.6016845703125 -13.5072021484375
-16.708251953125 -53.8602294921875 -40.4588623046875
2.672607421875 -4.9444580078125 -11.7061767578125
-16.787353515625 -8.6424560546875 -12.738525390625
-11.4677734375 -53.7144775390625 -39.531982421875
6.668212890625 -7.3563232421875 -12.165283203125
-1.23388671875 -8.6845703125 -12.5963134765625
-1.537353515625 -51.5684814453125 -15.736572265625
6.0693359375 -42.88818359375 -16.4822998046875
1.848876953125 -16.079345703125 -13.5894775390625
-2.11376953125 -11.405517578125 -13.3267822265625
-2.50244140625 -36.685791015625 -16.3424072265625
25.7890625 -36.0958251953125 -13.373046875
-0.74072265625 8.391357421875 11.421142578125
-10.759765625 23.648193359375 5.079345703125
-9.786376953125 22.16796875 3.596923828125
7.397705078125 9.3585205078125 10.8338623046875
-19.441650390625 -58.21240234375 -40.3831787109375
-3.635498046875 -14.2601318359375 -13.381103515625
-18.405517578125 -20.135986328125 -13.75732421875
5.753173828125 15.6044921875 6.97412109375
2.5 -21.171142578125 -13.629638671875
-19.4501953125 -60.5223388671875 -34.4337158203125
2.77783203125 9.770751953125 11.313720703125
-11.650146484375 -68.869140625 -34.56884765625
-11.81103515625 23.1170654296875 22.8905029296875
-29.04052734375 -39.3140869140625 -34.0426025390625
-11.745849609375 5.473388671875 -8.436767578125
8.6650390625 10.611572265625 8.720703125
-3.66552734375 -65.9891357421875 -34.111328125
-19.144287109375 -40.199951171875 -38.4462890625
0.1435546875 -28.757080078125 -13.87890625
25.56396484375 -8.90283203125 -13.1043701171875
3.414306640625 -29.8114013671875 -13.9359130859375
-8.585693359375 -24.4552001953125 -13.889892578125
15.938720703125 11.477294921875 14.8497314453125
-27.993896484375 -59.00341796875 -34.3973388671875
-0.118896484375 -37.966064453125 -22.2188720703125
5.170654296875 -42.62939453125 -19.9696044921875
-5.642578125 -30.30908203125 -13.286376953125
-11.8046875 -19.0318603515625 -13.6397705078125
17.2158203125 -43.8817138671875 -12.8009033203125
-12.695556640625 -57.413818359375 -35.4813232421875
-21.980712890625 -38.6875 -36.060791015625
-16.04345703125 6.0369873046875 -6.6849365234375
17.987548828125 -37.2259521484375 -13.5706787109375
-14.5146484375 -0.8341064453125 -2.9681396484375
-15.58984375 -51.087890625 -39.82763671875
12.30078125 12.9053955078125 11.669189453125
-2.3486328125 7.7784423828125 8.204833984375
20.407958984375 11.2489013671875 10.8748779296875
-16.3828125 23.760009765625 24.8309326171875
-24.935791015625 -60.0374755859375 -37.830810546875
8.72900390625 -41.8131103515625 -15.8526611328125
-9.82177734375 29.5870361328125 22.551025390625
-17.309326171875 -48.3424072265625 -40.041259765625
-10.572265625 27.1741943359375 23.0806884765625
-26.21875 -57.33251953125 -37.0775146484375
1.947998046875 16.9892578125 2.023681640625
-13.973388671875 7.051513671875 -8.3057861328125
-11.18212890625 26.5771484375 1.426513671875
-28.453125 -37.09521484375 -35.0628662109375
22.5390625 17.4176025390625 6.364013671875
1.978271484375 -31.2821044921875 -13.5819091796875
21.81298828125 -9.0552978515625 -13.072265625
-21.40478515625 -57.3568115234375 -39.7581787109375
-23.114501953125 -44.9461669921875 -40.0494384765625
-22.76318359375 -6.07080078125 0.9332275390625
0.522216796875 -31.690185546875 -13.489501953125
25.08203125 -11.01220703125 -13.3316650390625
-20.07861328125 -45.689453125 -40.417724609375
-17.245361328125 -59.10107421875 -39.0059814453125
14.8388671875 16.2828369140625 12.3155517578125
-0.066162109375 10.5965576171875 4.814453125
20.91650390625 -10.9072265625 -13.60400390625
10.996826171875 -36.41943359375 -13.8155517578125
19.614990234375 21.6103515625 9.3858642578125
-12.486328125 -66.9171142578125 -30.4918212890625
-13.867431640625 3.8504638671875 -7.2705078125
-9.853759765625 -1.03662109375 -4.909912109375
10.462646484375 -26.0482177734375 -13.95751953125
6.873291015625 -22.2431640625 -13.8311767578125
-0.784912109375 -17.8326416015625 -13.76220703125
-21.45703125 -46.848876953125 -40.482177734375
-12.611083984375 -64.7679443359375 -31.6171875
24.9345703125 -13.5565185546875 -13.706787109375
-19.5859375 -41.96826171875 -39.2305908203125
-17.25244140625 -12.9129638671875 -13.462158203125
-0.335205078125 -6.29248046875 -11.7347412109375
4.361572265625 13.6123046875 8.3447265625
-19.765380859375 -8.896240234375 -13.0289306640625
23.86962890625 21.5653076171875 8.81982421875
-22.8046875 -46.479736328125 -40.3206787109375
-22.225341796875 -1.8031005859375 6.2862548828125
-27.88525390625 -53.2974853515625 -36.6417236328125
17.30517578125 20.6510009765625 7.515869140625
-1.544921875 15.9736328125 2.011962890625
-24.82275390625 -44.6456298828125 -40.041015625
14.5361328125 -6.608642578125 -12.17529296875
-17.922607421875 3.3739013671875 -3.2314453125
2.80859375 20.535888671875 -0.4200439453125
17.768310546875 5.9815673828125 14.68359375
7.85546875 16.010986328125 10.5303955078125
10.87744140625 16.3310546875 14.800048828125
-25.848388671875 -62.56787109375 -33.4833984375
21.03564453125 13.6837158203125 9.588134765625
3.3330078125 21.8116455078125 -2.2596435546875
-19.373291015625 25.811279296875 26.8231201171875
-23.463623046875 -50.0140380859375 -40.05517578125
-6.85107421875 -71.8133544921875 -34.247802734375
-1.201904296875 -35.3746337890625 -14.9698486328125
0.8056640625 9.7257080078125 5.597412109375
18.93896484375 7.5958251953125 14.374267578125
14.552978515625 -44.166015625 -13.3564453125
-2.43115234375 -67.952880859375 -32.5205078125
4.591064453125 18.86328125 4.019775390625
-7.805908203125 21.7197265625 -2.13232421875
5.539306640625 20.677734375 2.341796875
16.976318359375 -17.498291015625 -13.8145751953125
25.421630859375 -22.5784912109375 -13.6165771484375
15.47998046875 -19.8160400390625 -13.54345703125
14.729736328125 -18.0006103515625 -13.849609375
-6.359375 19.16259765625 0.3372802734375
-22.572509765625 -60.5108642578125 -25.1883544921875
-3.143798828125 -25.873291015625 -14.109375
-24.40771484375 -52.2998046875 -39.3048095703125
-16.503173828125 -11.271240234375 -13.385498046875
-26.486328125 -58.5341796875 -36.3687744140625
-9.745361328125 23.5831298828125 -2.4146728515625
-0.200927734375 12.5899658203125 3.659912109375
-24.275634765625 -41.373046875 -38.1175537109375
3.01513671875 -12.1005859375 -13.6390380859375
-14.331298828125 5.500732421875 -8.0927734375
-1.5087890625 -19.71630859375 -13.4891357421875
-16.887451171875 0.6422119140625 -4.0184326171875
5.0 -9.7852783203125 -13.0419921875
22.1025390625 11.1986083984375 11.55712890625
-6.619873046875 -13.3388671875 -13.709228515625
-6.9169921875 -54.2481689453125 -36.2974853515625
-1.4912109375 -39.322998046875 -21.6519775390625
-16.821533203125 5.32861328125 -3.55224609375
9.294921875 -13.79345703125 -13.6063232421875
-16.352783203125 -58.974853515625 -34.4017333984375
-21.507080078125 -41.2144775390625 -37.9779052734375
4.633544921875 -23.8948974609375 -13.8271484375
15.5693359375 -27.0828857421875 -14.142822265625
-22.8017578125 -40.2557373046875 -37.2294921875
14.438720703125 -29.7586669921875 -13.9080810546875
-14.7236328125 -45.9393310546875 -38.6541748046875
1.199951171875 18.254150390625 -0.6485595703125
-28.53759765625 -32.209716796875 -35.806640625
-12.77490234375 30.55908203125 21.1939697265625
-16.089111328125 -43.1016845703125 -38.713134765625
-15.47412109375 -0.4276123046875 -4.7783203125
-20.411865234375 -0.8570556640625 5.4036865234375
-15.92138671875 -73.8773193359375 -27.2100830078125
20.08251953125 15.2352294921875 8.3997802734375
-15.420166015625 -15.5570068359375 -13.387939453125
-6.873779296875 -73.201416015625 -31.7974853515625
25.6552734375 -38.88427734375 -13.617919921875
19.447265625 -36.099365234375 -13.80029296875
2.782470703125 -46.7071533203125 -16.2532958984375
-23.484375 -2.3480224609375 5.104736328125
-20.251708984375 -1.723876953125 3.303955078125
-16.953369140625 -25.09765625 -13.6695556640625
-30.010498046875 -57.3734130859375 -30.359130859375
-13.6513671875 -21.07421875 -13.6710205078125
19.73974609375 -27.0792236328125 -13.5382080078125
-11.486328125 -23.744140625 -13.7562255859375
-2.037109375 -29.9232177734375 -13.6650390625
-13.19140625 10.1854248046875 -5.01611328125
23.946533203125 -40.525634765625 -12.6458740234375
-20.2373046875 -40.03564453125 -35.9163818359375
-12.9287109375 -26.0291748046875 -13.4879150390625
-13.773681640625 1.8017578125 -6.38671875
8.360595703125 -9.2374267578125 -13.038330078125
-23.3857421875 -61.590576171875 -29.5870361328125
26.966064453125 -13.15576171875 -12.9290771484375
4.8193359375 16.7255859375 5.8055419921875
12.17041015625 -18.01904296875 -13.6243896484375
-14.896728515625 22.8304443359375 27.47216796875
23.35302734375 -8.53271484375 -12.9388427734375
-7.905517578125 -70.1810302734375 -34.59521484375
-3.056884765625 -69.203125 -29.5487060546875
4.111572265625 -46.858642578125 -14.6158447265625
8.298095703125 13.34228515625 11.1614990234375
5.137939453125 9.9102783203125 11.3826904296875
3.202392578125 15.2664794921875 5.5435791015625
-11.62548828125 7.4964599609375 -7.555908203125
0.43408203125 -12.5574951171875 -13.5133056640625
3.350830078125 -15.95751953125 -13.44482421875
-10.305419921875 -15.0396728515625 -13.6251220703125
-11.5693359375 2.1282958984375 -6.8096923828125
4.176513671875 -42.9052734375 -21.719970703125
-13.902099609375 -64.5911865234375 -30.9296875
-10.9609375 8.9454345703125 -5.2791748046875
24.11767578125 -16.3345947265625 -13.6314697265625
5.493408203125 -7.9307861328125 -12.46142578125
-1.554931640625 -7.4058837890625 -12.359375
3.99951171875 -18.044189453125 -13.8135986328125
-30.51025390625 -55.394287109375 -31.9495849609375
-21.765625 -0.6358642578125 7.0697021484375
-14.332763671875 31.504638671875 21.5230712890625
-4.31884765625 -70.400390625 -31.009765625
-7.75830078125 -64.9119873046875 -31.4212646484375
6.884765625 -49.9091796875 -12.7252197265625
-1.421875 -15.312744140625 -13.2940673828125
23.1474609375 -23.119873046875 -13.7642822265625
20.136474609375 -22.5797119140625 -14.0789794921875
-22.98046875 -60.3758544921875 -22.4560546875
6.646484375 -48.228759765625 -14.4549560546875
12.527587890625 -31.8214111328125 -14.05029296875
-14.007568359375 -18.7574462890625 -13.7005615234375
-27.086669921875 -33.765869140625 -35.1932373046875
2.33251953125 -28.6949462890625 -13.9427490234375
18.736328125 -38.633056640625 -13.2806396484375
23.596923828125 -11.0439453125 -13.2506103515625
-26.05517578125 -62.8487548828125 -28.7550048828125
9.15576171875 -44.2125244140625 -15.1483154296875
-10.944580078125 -60.9918212890625 -32.3228759765625
-12.662109375 -43.1337890625 -36.1552734375
4.844970703125 -12.4638671875 -13.7548828125
25.72705078125 -24.9063720703125 -13.5869140625
-10.678466796875 -56.7611083984375 -35.8848876953125
-15.5908203125 -67.9134521484375 -27.6141357421875
15.667236328125 -41.9127197265625 -13.57568359375
8.171142578125 -31.13720703125 -13.8367919921875
20.4658203125 -12.95947265625 -13.716552734375
12.566162109375 -16.07666015625 -13.7376708984375
-14.858154296875 -42.4803466796875 -37.144287109375
14.045654296875 -15.6563720703125 -13.831298828125
4.447021484375 -16.7012939453125 -13.4510498046875
-23.66845703125 -58.14892578125 -38.70458984375
20.10693359375 17.5233154296875 5.9180908203125
-28.32275390625 -41.4134521484375 -33.830810546875
9.47021484375 -21.364013671875 -13.857421875
8.10107421875 -33.5096435546875 -13.9820556640625
3.70068359375 21.33984375 0.3153076171875
-17.302978515625 -15.4244384765625 -13.832763671875
23.958740234375 -20.3673095703125 -13.8394775390625
-15.070556640625 -13.666748046875 -13.6126708984375
-12.876708984375 -14.7623291015625 -13.637939453125
16.2685546875 -28.2431640625 -14.19970703125
-2.28857421875 -71.1097412109375 -28.8311767578125
27.868896484375 -31.227294921875 -12.9825439453125
17.301025390625 -19.44677734375 -13.7977294921875
-6.514404296875 17.102783203125 2.27392578125
-15.9228515625 4.0877685546875 -5.5657958984375
23.0947265625 -36.39599609375 -13.930908203125
0.063232421875 -35.418212890625 -16.2744140625
4.65283203125 -22.3526611328125 -13.8790283203125
10.787109375 10.9859619140625 12.2900390625
17.532470703125 -26.0296630859375 -13.6251220703125
1.03564453125 -47.73095703125 -15.760009765625
-13.004638671875 -57.5196533203125 -37.91064453125
17.49951171875 15.5443115234375 9.382568359375
-20.522705078125 -2.53125 4.3441162109375
26.699951171875 -30.27392578125 -13.43798828125
-20.035400390625 2.2457275390625 -1.8302001953125
22.6171875 -28.6068115234375 -13.7589111328125
4.21142578125 11.880126953125 10.1875
-5.60302734375 -24.1810302734375 -13.4913330078125
13.73974609375 -27.4910888671875 -14.0018310546875
-11.118896484375 -25.6220703125 -13.628173828125
-12.1318359375 27.684814453125 23.416748046875
19.0751953125 -6.7120361328125 -11.94873046875
21.439208984375 -30.984619140625 -13.760986328125
15.69873046875 -43.30615234375 -13.191650390625
-9.288818359375 -69.910888671875 -34.7325439453125
-26.5751953125 -55.602294921875 -37.217041015625
-13.905029296875 -44.8291015625 -37.6788330078125
-3.952392578125 -31.7225341796875 -14.153076171875
20.1923828125 -38.6080322265625 -13.3602294921875
-1.827392578125 -41.10107421875 -21.31884765625
-25.4482421875 -45.915283203125 -39.484619140625
-22.671630859375 7.857421875 5.758544921875
10.63134765625 14.4395751953125 13.425048828125
1.4296875 8.0450439453125 7.4427490234375
11.298583984375 -38.7398681640625 -13.89697265625
-5.638916015625 21.357421875 -3.15087890625
-1.0400390625 8.30615234375 6.37646484375
-13.444091796875 -51.46630859375 -39.0704345703125
2.21435546875 -43.716796875 -22.756103515625
-16.406982421875 21.4088134765625 28.3629150390625
2.069091796875 18.99609375 -0.0360107421875
8.1826171875 -48.7281494140625 -13.8477783203125
-8.54150390625 -53.153564453125 -38.2025146484375
4.55712890625 -44.8980712890625 -16.6644287109375
-10.31201171875 20.998046875 5.7078857421875
3.01220703125 -51.2857666015625 -14.210205078125
4.590576171875 -43.43115234375 -18.968505859375
7.88818359375 -40.9920654296875 -16.67578125
4.390380859375 -51.7139892578125 -12.2213134765625
-15.504150390625 -22.7691650390625 -13.826416015625
-17.609375 -61.6517333984375 -30.35546875
12.317626953125 -6.6336669921875 -11.996826171875
-10.3359375 30.8397216796875 21.5335693359375
-22.5615234375 -4.4254150390625 2.9398193359375
-16.42138671875 -55.0556640625 -40.843994140625
1.61279296875 -10.4263916015625 -13.271728515625
24.33056640625 14.1536865234375 10.3057861328125
-21.024169921875 -61.1695556640625 -36.2530517578125
18.74609375 -21.7010498046875 -13.6875
-7.892578125 -67.7327880859375 -34.71044921875
4.335693359375 -7.3236083984375 -12.795654296875
-0.3857421875 -51.730224609375 -15.2098388671875
-9.94287109375 -68.82421875 -34.592529296875
23.31689453125 11.7178955078125 11.6470947265625
6.4169921875 14.3992919921875 8.9512939453125
-1.777099609375 -12.6275634765625 -13.4488525390625
-16.562744140625 -47.42431640625 -39.5712890625
0.0810546875 6.9315185546875 11.849853515625
-27.142578125 -63.4224853515625 -29.3187255859375
21.695068359375 14.60205078125 8.7109375
-20.792236328125 -8.647705078125 -12.3203125
12.818359375 16.310546875 14.5418701171875
-14.134033203125 8.2408447265625 -6.523193359375
7.6337890625 10.9522705078125 9.6197509765625
-14.32763671875 20.5 29.0435791015625
4.059326171875 -14.4996337890625 -13.8184814453125
-17.58984375 -10.0902099609375 -13.2796630859375
-8.24951171875 17.41845703125 6.8990478515625
-24.13427734375 1.3958740234375 10.2222900390625
-15.2919921875 -52.96240234375 -40.0810546875
-20.56494140625 -0.655517578125 3.9364013671875
10.82666015625 13.5098876953125 12.2445068359375
-17.68017578125 -51.630126953125 -40.1346435546875
10.514404296875 11.0543212890625 10.518310546875
-14.294189453125 -68.44091796875 -28.292236328125
13.07177734375 -25.5167236328125 -13.85888671875
-4.596435546875 -71.99951171875 -30.3787841796875
22.664794921875 12.6842041015625 10.03369140625
16.940185546875 15.693603515625 10.7469482421875
27.475341796875 -29.0845947265625 -13.460693359375
15.16455078125 12.90087890625 12.324951171875
4.188720703125 14.3114013671875 7.080322265625
-21.75341796875 -8.1231689453125 -0.2398681640625
-11.01318359375 -69.5528564453125 -32.240966796875
12.577880859375 -8.4090576171875 -12.4500732421875
-16.987060546875 23.2427978515625 26.6656494140625
-5.985107421875 -20.458251953125 -13.907958984375
-19.099609375 -55.7294921875 -40.452392578125
-20.87158203125 -9.595703125 1.0128173828125
-13.303466796875 21.1390380859375 27.4107666015625
-16.19580078125 -19.98095703125 -13.597900390625
-23.91259765625 -37.51953125 -34.7064208984375
-4.802001953125 -19.04248046875 -13.4188232421875
-28.131591796875 -61.927978515625 -32.380615234375
-25.662109375 -36.166748046875 -34.8509521484375
-11.291748046875 24.45166015625 23.8773193359375
-12.62646484375 29.86767578125 22.519287109375
-16.765869140625 -59.0556640625 -37.846435546875
-17.702880859375 -53.1107177734375 -40.26171875
-5.718017578125 -65.68017578125 -34.05908203125
-13.14208984375 -70.4815673828125 -32.744873046875
25.08740234375 12.6234130859375 12.5694580078125
9.724853515625 -28.3026123046875 -13.6722412109375
-5.92529296875 -71.9658203125 -32.4996337890625
15.736083984375 9.1324462890625 16.350341796875
-7.915771484375 21.6162109375 3.1090087890625
21.112548828125 16.5113525390625 7.3402099609375
-24.2158203125 -61.7242431640625 -24.2774658203125
-27.07080078125 -47.848388671875 -38.65966796875
23.14794921875 7.9525146484375 15.772705078125
24.601318359375 17.862060546875 9.04345703125
21.617431640625 8.29931640625 13.7467041015625
25.44921875 15.3548583984375 11.9588623046875
-17.106201171875 -42.37451171875 -38.6126708984375
13.786865234375 16.8145751953125 15.58642578125
-25.792236328125 -48.4674072265625 -39.5155029296875
-13.717529296875 5.430419921875 -9.2440185546875
-13.67236328125 -47.268310546875 -38.42041015625
-26.402587890625 -50.4071044921875 -38.826416015625
5.580322265625 17.9158935546875 5.5533447265625
-17.00439453125 -27.180419921875 -14.0496826171875
17.998046875 18.8419189453125 7.199462890625
-18.04345703125 -23.2138671875 -13.7020263671875
-12.744384765625 -60.8858642578125 -32.9232177734375
19.193603515625 8.4713134765625 13.4154052734375
-24.053466796875 -54.0308837890625 -39.1636962890625
-29.348388671875 -45.683349609375 -37.435302734375
-9.04638671875 -73.7998046875 -30.0203857421875
2.14501953125 -33.6051025390625 -14.6756591796875
21.568359375 -14.444580078125 -13.5836181640625
-19.02001953125 -46.2659912109375 -40.120849609375
-9.598876953125 23.0904541015625 1.9222412109375
-26.9853515625 -61.89599609375 -34.600341796875
17.133056640625 -41.132080078125 -13.6806640625
-12.94873046875 -22.664306640625 -13.82666015625
-22.44140625 4.2257080078125 11.8370361328125
25.614501953125 16.5426025390625 12.703369140625
-2.795166015625 -71.44873046875 -29.908203125
16.849609375 9.7996826171875 15.7994384765625
17.84228515625 -6.248046875 -12.626953125
-10.68408203125 -50.7889404296875 -36.3724365234375
-23.764404296875 -36.25 -33.3116455078125
11.19580078125 -12.108642578125 -13.5616455078125
3.48779296875 17.79150390625 4.5682373046875
-11.00537109375 -63.247802734375 -32.6309814453125
9.424072265625 -10.08203125 -13.271240234375
-14.426025390625 -48.189453125 -38.8936767578125
13.482666015625 -41.96875 -13.51220703125
21.318603515625 7.31396484375 14.453125
11.8720703125 -14.1182861328125 -13.7061767578125
-12.45361328125 -59.2518310546875 -33.45361328125
18.897216796875 11.74072265625 11.1976318359375
-14.549072265625 -58.689697265625 -33.7205810546875
-9.60693359375 -72.142822265625 -29.1790771484375
6.49169921875 13.001220703125 9.6072998046875
-20.819580078125 -0.052001953125 1.4993896484375
-29.070556640625 -61.300048828125 -31.45361328125
-17.403076171875 -63.575927734375 -28.5091552734375
-12.071533203125 27.734130859375 0.3941650390625
-24.66748046875 -54.9085693359375 -38.5281982421875
7.887451171875 -11.776123046875 -13.3648681640625
-14.01416015625 -54.9097900390625 -40.6644287109375
18.942138671875 14.8831787109375 8.6865234375
8.515380859375 9.6551513671875 10.4229736328125
-3.598876953125 -11.48388671875 -13.3590087890625
8.19140625 9.56396484375 8.2923583984375
-20.1826171875 -38.399169921875 -35.477783203125
2.5859375 9.2772216796875 7.2647705078125
-20.509521484375 -11.322509765625 -13.0806884765625
-9.497802734375 -12.093017578125 -13.2498779296875
-4.400390625 -68.18505859375 -34.2242431640625
-1.50146484375 20.4876708984375 -3.679931640625
-3.411376953125 -7.4825439453125 -12.34375
18.60595703125 -27.5389404296875 -13.60546875
-6.121337890625 -8.3260498046875 -13.1240234375
-28.9482421875 -57.3438720703125 -33.6251220703125
-29.192626953125 -42.8746337890625 -35.7310791015625
16.328369140625 -15.4495849609375 -13.5574951171875
-19.025146484375 3.840576171875 -2.9761962890625
-28.437255859375 -30.6767578125 -34.7381591796875
-24.457763671875 -50.6746826171875 -39.7872314453125
-24.19287109375 -5.4072265625 1.715576171875
4.65234375 22.3182373046875 1.4183349609375
-1.84228515625 6.11865234375 12.1199951171875
4.93212890625 -5.56396484375 -11.5167236328125
-9.5634765625 1.062744140625 -5.72802734375
-28.236083984375 -59.7572021484375 -33.3997802734375
-10.308349609375 -0.1322021484375 -5.5953369140625
-8.451904296875 0.3116455078125 -2.83837890625
2.9775390625 20.684814453125 -1.9366455078125
15.724609375 -21.936767578125 -13.9761962890625
-22.447265625 -52.4947509765625 -40.0662841796875
21.5009765625 19.705078125 6.845458984375
-7.666259765625 -11.2852783203125 -13.404296875
0.7666015625 14.45849609375 2.1129150390625
0.6220703125 -8.6085205078125 -12.612060546875
-11.989990234375 -50.844482421875 -38.471923828125
-22.418212890625 -54.537841796875 -39.76416015625
9.484375 -22.82177734375 -13.5811767578125
-5.080078125 -11.1715087890625 -13.404296875
15.867431640625 14.7213134765625 11.5537109375
13.8544921875 -23.166015625 -13.9208984375
-9.789306640625 18.2142333984375 6.961181640625
1.428466796875 -19.9996337890625 -13.5242919921875
21.65087890625 17.927001953125 5.704833984375
12.649658203125 14.6439208984375 13.67431640625
6.600830078125 -18.2783203125 -13.6884765625
-11.563232421875 -55.012939453125 -40.1710205078125
18.52099609375 -16.9417724609375 -13.5699462890625
20.732177734375 -8.2547607421875 -12.9521484375
21.752685546875 22.904052734375 10.1182861328125
-18.70361328125 23.0985107421875 25.5496826171875
-4.07275390625 -15.994873046875 -13.730712890625
0.058349609375 -42.7376708984375 -22.947021484375
-12.97119140625 -62.7083740234375 -31.87060546875
13.560546875 -20.4088134765625 -13.8516845703125
26.19580078125 -20.6446533203125 -13.7783203125
6.045654296875 -26.2183837890625 -13.941162109375
-15.173095703125 -67.177490234375 -29.9119873046875
-7.65625 17.6279296875 5.425537109375
2.018310546875 9.9300537109375 5.93603515625
-8.80615234375 -55.068359375 -37.456298828125
-25.983642578125 -54.086669921875 -38.086669921875
13.232177734375 -34.7979736328125 -13.819580078125
-13.7265625 -49.1920166015625 -38.7322998046875
0.77099609375 -50.0712890625 -14.8560791015625
23.482666015625 -24.2847900390625 -13.7734375
-11.038818359375 -13.912841796875 -13.679931640625
-9.027587890625 -47.9029541015625 -34.53466796875
18.283935546875 -43.176513671875 -13.080322265625
-18.26513671875 -43.8807373046875 -39.62158203125
1.339111328125 13.042724609375 3.5703125
16.267333984375 18.7742919921875 11.0460205078125
22.300048828125 -24.8348388671875 -14.0650634765625
-6.08251953125 -72.6134033203125 -31.09521484375
-4.23095703125 18.323486328125 1.9415283203125
-1.2001953125 18.6591796875 -1.3302001953125
19.567138671875 -33.3046875 -13.5557861328125
-3.048828125 -23.73583984375 -13.6160888671875
-10.11279296875 -56.894287109375 -34.18701171875
-7.6708984375 20.985595703125 -1.0201416015625
-14.02392578125 -74.8153076171875 -25.7340087890625
0.660888671875 -44.6837158203125 -21.07421875
26.38037109375 -26.88916015625 -13.7308349609375
-0.73583984375 14.11572265625 2.44580078125
-4.04150390625 20.4393310546875 -2.6015625
1.582275390625 7.2242431640625 11.3883056640625
14.4541015625 -7.938232421875 -12.4786376953125
-8.9501953125 -25.6016845703125 -13.8033447265625
-13.29931640625 27.7578125 23.70556640625
22.507080078125 15.4912109375 8.7164306640625
2.364990234375 -40.4801025390625 -22.123291015625
-1.115966796875 -43.6297607421875 -21.097900390625
-5.468994140625 -70.3690185546875 -34.2921142578125
17.90869140625 -12.1951904296875 -13.516357421875
10.29833984375 -35.271240234375 -13.7587890625
-26.260986328125 -42.6358642578125 -37.3773193359375
21.863037109375 -17.5738525390625 -13.52783203125
-17.27001953125 -59.403076171875 -33.428466796875
-8.048828125 -73.1026611328125 -27.7666015625
-19.752685546875 -5.9547119140625 0.8939208984375
21.922119140625 -40.5648193359375 -13.64599609375
25.444580078125 -34.6051025390625 -13.48828125
-23.093017578125 0.5595703125 9.0955810546875
19.24365234375 17.0650634765625 7.836181640625
-8.19921875 -30.7899169921875 -13.2738037109375
-27.279541015625 -31.3023681640625 -33.5982666015625
4.958740234375 -28.0830078125 -13.62109375
-19.924560546875 -3.949951171875 2.822021484375
-7.968017578125 19.1094970703125 5.94091796875
-12.812744140625 -53.346923828125 -39.370361328125
-22.71142578125 -60.0758056640625 -39.2445068359375
-15.872802734375 -60.503662109375 -30.3228759765625
2.55078125 16.4625244140625 3.58642578125
5.279541015625 -43.7841796875 -16.7987060546875
-20.757080078125 -5.0963134765625 2.10400390625
5.940673828125 -14.72412109375 -13.596435546875
-11.022216796875 -56.5853271484375 -38.528564453125
18.273681640625 -24.1513671875 -13.8983154296875
22.71728515625 -38.9744873046875 -13.570068359375
25.964599609375 -17.04345703125 -13.62158203125
-11.197021484375 -44.6513671875 -35.443115234375
-21.513671875 -38.9937744140625 -34.957763671875
-25.619140625 -62.5511474609375 -31.2327880859375
-9.88525390625 -47.649169921875 -35.792724609375
-21.01708984375 -59.677978515625 -20.470703125
-8.12451171875 -74.3114013671875 -28.2322998046875
19.896484375 10.291748046875 12.644287109375
-1.98876953125 -66.3543701171875 -32.0228271484375
-7.92138671875 -63.097900390625 -30.217529296875
-19.66015625 -60.506103515625 -33.266357421875
-17.030517578125 27.839599609375 26.220947265625
0.49658203125 -11.2447509765625 -13.2137451171875
-18.746337890625 -15.0218505859375 -13.65380859375
-10.486328125 7.18603515625 -7.4591064453125
17.158203125 6.7894287109375 15.6680908203125
-0.39892578125 -20.4119873046875 -13.3831787109375
23.002685546875 -37.659423828125 -14.2259521484375
-12.401123046875 -0.45751953125 -4.2252197265625
9.361328125 -7.046142578125 -11.7083740234375
-11.08837890625 19.9185791015625 9.0069580078125
-12.552490234375 -46.98974609375 -37.755859375
-17.794189453125 -58.2967529296875 -40.8016357421875
15.624267578125 -13.142578125 -13.6517333984375
7.9091796875 -26.83349609375 -13.707763671875
-26.36669921875 -38.0872802734375 -34.9808349609375
-14.236572265625 -70.1949462890625 -30.531494140625
17.1455078125 11.5760498046875 14.949462890625
17.261474609375 -34.67529296875 -13.8994140625
25.478759765625 -32.35009765625 -13.677490234375
18.503662109375 -29.5887451171875 -13.87646484375
-1.578369140625 -22.1666259765625 -13.7476806640625
-6.7021484375 -22.3336181640625 -13.6356201171875
-12.571533203125 -0.6597900390625 -5.638671875
-9.867919921875 5.95849609375 -8.4627685546875
9.819091796875 12.0662841796875 10.9803466796875
-10.71826171875 -21.6978759765625 -13.58154296875
-9.551513671875 -52.4334716796875 -38.1021728515625
16.88525390625 -36.534912109375 -13.6759033203125
-9.90283203125 22.3665771484375 -0.5091552734375
9.0126953125 -5.8563232421875 -11.6976318359375
5.987060546875 -29.3287353515625 -13.9490966796875
0.161865234375 -40.320068359375 -22.5001220703125
2.39697265625 -27.417724609375 -13.6468505859375
0.079833984375 -4.331787109375 -9.0107421875
-16.953857421875 -22.413818359375 -13.7596435546875
-10.416259765625 18.73046875 8.176513671875
19.321533203125 -13.432861328125 -13.7841796875
22.759521484375 -12.0107421875 -13.5810546875
24.572998046875 -25.02587890625 -13.7796630859375
17.343505859375 7.6468505859375 16.6810302734375
-29.190673828125 -52.4010009765625 -35.99658203125
24.104736328125 10.6572265625 14.035400390625
-28.935791015625 -50.522705078125 -36.8421630859375
-18.45068359375 -61.4971923828125 -28.6705322265625
20.449951171875 -15.6064453125 -13.399169921875
-21.274658203125 2.4788818359375 0.763427734375
25.697509765625 -7.87255859375 -12.5604248046875
2.7744140625 -8.72705078125 -13.1295166015625
14.797607421875 -30.86962890625 -13.805419921875
-10.379150390625 -27.457763671875 -13.4366455078125
26.732421875 -15.4876708984375 -13.770751953125
-9.50830078125 -58.350830078125 -32.10888671875
-23.86328125 -61.6322021484375 -34.102294921875
24.2978515625 -22.2677001953125 -13.7099609375
16.60009765625 17.0208740234375 10.9002685546875
-25.10546875 -61.64208984375 -36.1976318359375
18.746337890625 10.7249755859375 12.7908935546875
-11.1982421875 -69.6402587890625 -33.6640625
8.198974609375 -14.17236328125 -13.4482421875
-23.245361328125 -61.128662109375 -31.5101318359375
16.670654296875 -7.9134521484375 -12.656982421875
26.54443359375 -11.0277099609375 -13.5262451171875
7.19970703125 -10.153564453125 -13.2066650390625
10.26171875 -19.345458984375 -13.794189453125
16.38720703125 -26.148193359375 -13.8172607421875
7.293701171875 15.509521484375 9.455810546875
-21.96484375 5.8887939453125 12.7596435546875
-9.369140625 -29.5479736328125 -13.9603271484375
-25.708251953125 -52.499267578125 -38.712890625
-2.79541015625 -9.7384033203125 -13.055908203125
-27.635986328125 -52.16455078125 -37.55126953125
12.501220703125 -36.652099609375 -13.548583984375
8.03857421875 -19.069580078125 -13.8551025390625
13.59033203125 -35.90283203125 -13.7174072265625
-9.669921875 20.9527587890625 4.6142578125
17.1279296875 -13.8011474609375 -13.4803466796875
-15.322265625 -9.0015869140625 -12.8060302734375
2.245361328125 -12.967041015625 -13.74169921875
-13.201904296875 -10.3853759765625 -13.507568359375
-16.663818359375 6.511962890625 -5.53564453125
-23.990234375 -0.4583740234375 7.736083984375
23.773193359375 -13.6845703125 -13.900634765625
7.76513671875 -16.5989990234375 -13.547607421875
13.43994140625 -11.9912109375 -13.51318359375
21.087890625 -32.4296875 -13.437744140625
19.25537109375 -31.0037841796875 -13.585205078125
-1.81298828125 -40.1990966796875 -18.789306640625
22.11279296875 -18.9276123046875 -13.988037109375
5.53564453125 -46.4996337890625 -14.817626953125
-14.923828125 -58.140625 -39.5673828125
12.04052734375 -22.41796875 -13.818603515625
-2.7138671875 5.37451171875 14.4359130859375
23.7900390625 -26.606201171875 -13.74365234375
-22.468017578125 -38.458740234375 -37.3607177734375
-5.056396484375 -9.95166015625 -13.330322265625
-24.80029296875 -47.095947265625 -39.8189697265625
19.578857421875 -18.5115966796875 -13.6629638671875
-22.105224609375 -44.2451171875 -40.2193603515625
-7.455078125 -20.146240234375 -13.9527587890625
-7.40380859375 -18.853515625 -13.6558837890625
-0.86181640625 -43.387451171875 -19.36083984375
-12.171142578125 -21.341796875 -13.5145263671875
-10.069580078125 -53.9437255859375 -39.29736328125
-0.49609375 -25.5543212890625 -13.5516357421875
-14.473388671875 21.6439208984375 27.697265625
-8.15380859375 -21.592041015625 -13.58154296875
17.64599609375 -21.3463134765625 -13.6683349609375
-12.132080078125 -17.004638671875 -13.432373046875
-23.876953125 -40.0740966796875 -37.61328125
-29.07421875 -59.49755859375 -31.4317626953125
14.589599609375 -24.63037109375 -13.7408447265625
10.30859375 -32.3055419921875 -14.084716796875
11.777099609375 -33.7220458984375 -13.8900146484375
4.5302734375 -30.843017578125 -13.706298828125
-9.405517578125 -59.8604736328125 -31.214599609375
16.439208984375 -23.447265625 -13.908203125
2.87451171875 -18.5107421875 -13.8807373046875
23.1240234375 17.501708984375 7.4400634765625
3.64990234375 -19.8883056640625 -13.4761962890625
6.912841796875 -20.65234375 -13.77099609375
-19.029541015625 -47.722412109375 -40.1492919921875
25.2216796875 -28.1202392578125 -13.77197265625
11.537841796875 -26.4442138671875 -14.08837890625
-6.39306640625 -25.8822021484375 -13.79052734375
-14.32373046875 -15.9105224609375 -13.406982421875
-15.664794921875 -66.689208984375 -28.2901611328125
-12.91943359375 -68.5457763671875 -31.0938720703125
14.070556640625 14.2904052734375 12.708984375
-22.334716796875 -61.146240234375 -29.431884765625
0.948974609375 -26.67822265625 -13.5928955078125
0.52783203125 -38.836669921875 -22.60498046875
1.4609375 -45.106689453125 -18.043701171875
-7.0908203125 18.97314453125 3.685546875
14.1611328125 6.6728515625 16.7237548828125
-20.15087890625 0.847900390625 0.654541015625
-29.080078125 -37.9815673828125 -34.4140625
-15.377197265625 -11.142333984375 -13.192626953125
-2.492431640625 19.3521728515625 -2.41064453125
2.87255859375 -44.1065673828125 -20.7242431640625
2.079345703125 -25.0665283203125 -13.5645751953125
27.060302734375 -37.94970703125 -12.2091064453125
-20.08984375 -51.427001953125 -40.3328857421875
-10.0068359375 -20.2086181640625 -13.8406982421875
4.236572265625 -25.473876953125 -13.839111328125
23.94287109375 -33.6082763671875 -13.782470703125
17.005615234375 -30.425048828125 -13.8824462890625
19.215087890625 7.46240234375 16.040283203125
-19.16015625 -21.414794921875 -13.9573974609375
23.4033203125 14.191650390625 9.5225830078125
12.239501953125 -29.820556640625 -13.843994140625
-17.313720703125 -20.4879150390625 -13.7763671875
-4.208984375 -26.2021484375 -13.841552734375
25.3115234375 -37.3988037109375 -13.733154296875
-1.298828125 -27.6363525390625 -13.837890625
-8.74560546875 1.710205078125 -5.2537841796875
7.485107421875 -28.8336181640625 -13.8187255859375
13.98388671875 -32.89892578125 -13.979736328125
-19.74658203125 -49.275146484375 -40.3846435546875
9.604736328125 -33.740478515625 -13.71484375
-13.7646484375 29.6287841796875 23.0755615234375
2.58984375 -35.3634033203125 -16.38623046875
0.170166015625 -5.5135498046875 -10.8831787109375
-2.525390625 -66.7674560546875 -33.29150390625
-12.410400390625 25.5692138671875 24.55126953125
-19.0712890625 -13.7169189453125 -13.3082275390625
16.50830078125 -10.1693115234375 -13.27392578125
4.784912109375 -33.6820068359375 -14.1085205078125
11.2421875 -41.0491943359375 -13.9307861328125
-24.48388671875 -39.4420166015625 -36.8363037109375
-15.103759765625 -21.103271484375 -13.5911865234375
7.724853515625 -46.0335693359375 -14.7841796875
8.179443359375 -39.31396484375 -17.3377685546875
21.594482421875 -13.2696533203125 -13.6226806640625
-21.259033203125 2.0489501953125 4.583984375
-15.083740234375 -28.3004150390625 -13.1251220703125
4.4287109375 20.3857421875 2.7479248046875
-2.437744140625 -72.7982177734375 -29.6875
-3.57666015625 -69.5780029296875 -30.7254638671875
-1.0986328125 -37.626220703125 -19.0887451171875
-14.50146484375 -62.2613525390625 -30.3232421875
-0.65869140625 -12.936279296875 -13.35546875
