17.945068359375 -38.970703125 -69.50146484375
0.432373046875 4.013671875 19.574951171875
-62.811279296875 -101.877197265625 38.3778076171875
20.28466796875 -51.5556640625 41.416259765625
6.15380859375 -37.07666015625 41.3365478515625
-56.061767578125 -84.435791015625 35.134033203125
51.79833984375 -2.923095703125 61.3319091796875
-24.045166015625 -27.481201171875 10.6572265625
12.98583984375 50.74365234375 -86.564697265625
64.905029296875 114.013427734375 -51.29736328125
-37.78564453125 108.111083984375 36.748046875
-14.178955078125 -97.662353515625 13.2745361328125
-25.667236328125 30.689208984375 10.9368896484375
-12.33642578125 14.954833984375 7.2723388671875
-43.34765625 31.520263671875 -12.933349609375
0.379638671875 53.8154296875 19.4666748046875
69.356689453125 65.610107421875 -54.1527099609375
-57.80322265625 32.6064453125 -14.799072265625
67.40283203125 61.7314453125 -74.3089599609375
55.95703125 26.30712890625 39.76318359375
-39.784423828125 -124.955810546875 33.968994140625
57.449462890625 109.493896484375 -29.51806640625
1.976806640625 -124.071533203125 26.0565185546875
9.127685546875 -43.6728515625 41.320068359375
55.843505859375 -66.373291015625 25.630126953125
9.920654296875 -79.50390625 -50.8289794921875
61.7294921875 124.143798828125 -43.1788330078125
6.755615234375 61.621337890625 39.9808349609375
65.123779296875 69.5595703125 -37.129638671875
-64.691650390625 102.893310546875 35.552490234375
8.0517578125 -56.197021484375 42.1920166015625
-32.635009765625 3.6845703125 0.5828857421875
63.970947265625 -97.593505859375 -39.3116455078125
14.95849609375 118.775634765625 -98.9541015625
61.3974609375 44.533203125 -44.326171875
55.4248046875 13.93994140625 -25.7249755859375
-38.287841796875 -14.877685546875 -9.9583740234375
-61.99853515625 84.611572265625 34.6365966796875
-54.6787109375 14.940673828125 -13.912109375
-31.822509765625 25.25732421875 0.566650390625
54.772216796875 -16.015869140625 -48.4757080078125
64.198974609375 -52.93896484375 -45.575439453125
66.528076171875 127.20263671875 -50.7188720703125
-22.9892578125 82.989990234375 11.05859375
24.635986328125 -25.947021484375 40.0772705078125
12.60498046875 24.9677734375 -84.5111083984375
-27.02197265625 87.2099609375 35.9693603515625
-31.321044921875 16.904052734375 1.583740234375
-8.719482421875 -83.84521484375 13.935302734375
13.6806640625 60.432373046875 41.284912109375
-21.4169921875 -120.62109375 43.2696533203125
56.314208984375 -6.299560546875 -24.2490234375
-47.16015625 -56.111572265625 -13.4693603515625
-13.914306640625 35.334716796875 6.864013671875
-66.840087890625 -1.3466796875 31.3272705078125
-46.265869140625 112.930419921875 37.9552001953125
60.900634765625 -52.366455078125 -26.599609375
-23.559326171875 -59.530517578125 22.5361328125
40.671142578125 11.639892578125 36.4351806640625
-69.302734375 -15.06201171875 31.2587890625
3.21240234375 -6.911376953125 18.3143310546875
67.468017578125 71.16357421875 -72.9937744140625
18.199951171875 -31.411865234375 40.325927734375
16.253173828125 86.81396484375 42.159423828125
-53.718505859375 96.14794921875 35.62890625
6.22265625 44.213134765625 40.02392578125
-64.454833984375 -29.994873046875 -13.4412841796875
-34.758056640625 58.455322265625 -6.5284423828125
34.15380859375 -6.218505859375 -80.88134765625
-22.433837890625 -115.970947265625 20.3360595703125
-10.468017578125 69.91943359375 12.363525390625
61.053466796875 55.515625 -52.6495361328125
-26.857666015625 64.59423828125 22.45263671875
30.892822265625 45.67431640625 37.708984375
-6.787353515625 -108.201416015625 16.2747802734375
-18.808349609375 59.720703125 7.7149658203125
-60.1220703125 10.587158203125 -13.84130859375
-24.13720703125 -19.662109375 31.43798828125
23.318603515625 -13.071044921875 40.0513916015625
-52.74462890625 104.883544921875 37.232421875
8.31201171875 -66.51171875 -54.3428955078125
-63.197021484375 62.67333984375 32.6939697265625
55.6494140625 109.335693359375 44.398193359375
64.919921875 -99.625732421875 -21.065673828125
67.53125 92.50830078125 -38.33154296875
-30.833251953125 108.775390625 38.5233154296875
-7.71435546875 55.6064453125 12.112060546875
22.38623046875 -39.54638671875 41.7509765625
8.876953125 -0.97509765625 -74.7650146484375
8.238525390625 -121.635009765625 45.378173828125
-1.371337890625 -119.166259765625 32.4688720703125
-23.58447265625 -117.136474609375 32.16015625
16.391845703125 63.05029296875 -90.9627685546875
6.964111328125 -69.334716796875 20.11572265625
59.62451171875 -52.61962890625 -35.580810546875
15.55078125 -30.699462890625 -70.2347412109375
4.745849609375 -61.976806640625 41.452392578125
64.461669921875 -62.22705078125 -44.72509765625
-4.783935546875 -64.815673828125 19.7054443359375
-67.478515625 -40.356689453125 32.742431640625
-11.76123046875 4.836181640625 7.417724609375
60.097900390625 -67.542236328125 -18.4649658203125
-53.94384765625 -125.012451171875 42.501708984375
52.99609375 1.972412109375 55.109619140625
-23.788818359375 -14.564453125 8.945556640625
13.271484375 131.30517578125 -97.769775390625
59.700439453125 81.19775390625 -36.3297119140625
61.5869140625 -0.0810546875 -47.827392578125
-30.97607421875 24.312255859375 8.2764892578125
69.939697265625 106.302978515625 -57.1781005859375
16.91259765625 124.619384765625 -100.76318359375
-43.28515625 65.639892578125 19.6116943359375
66.521728515625 121.31982421875 -54.158935546875
24.662353515625 74.36328125 42.0059814453125
-14.74462890625 89.64697265625 9.6700439453125
-7.413330078125 -94.38427734375 16.6837158203125
65.95703125 -8.84521484375 -43.4254150390625
-24.595947265625 -121.003173828125 7.9571533203125
-7.924072265625 82.42919921875 14.2606201171875
-23.1611328125 -79.223388671875 12.5361328125
-69.73046875 -65.46142578125 34.60107421875
-18.95947265625 -90.347412109375 12.2225341796875
-19.24560546875 -37.077880859375 7.99658203125
7.57861328125 61.9140625 18.954833984375
45.50927734375 71.71826171875 44.3018798828125
-23.965087890625 95.355712890625 10.1961669921875
-39.21044921875 -48.6396484375 -10.40576171875
-7.205322265625 -42.609375 11.54833984375
-69.986083984375 114.31005859375 38.00927734375
-16.600830078125 48.06396484375 7.2232666015625
52.607666015625 87.146240234375 41.7733154296875
62.90966796875 -91.22900390625 -19.6859130859375
61.232421875 11.02392578125 -48.4949951171875
8.69921875 -56.353271484375 -59.31494140625
46.067138671875 4.553955078125 45.2947998046875
-7.642822265625 -117.107421875 21.4906005859375
40.332763671875 101.98095703125 -67.4415283203125
61.682373046875 -70.5478515625 -38.974853515625
27.11376953125 67.18212890625 41.7730712890625
63.065673828125 27.609130859375 -50.9454345703125
59.551025390625 98.123291015625 43.01123046875
26.064697265625 33.98193359375 39.7982177734375
14.88330078125 3.26708984375 39.4749755859375
-23.98779296875 -32.355224609375 32.7841796875
-39.583740234375 5.86767578125 -11.1025390625
9.759765625 -119.393798828125 32.1187744140625
33.051513671875 103.75830078125 44.73095703125
-58.8095703125 -20.4375 -12.38916015625
5.30810546875 -24.17333984375 40.14208984375
13.41650390625 -7.0966796875 -77.5345458984375
21.6171875 127.161865234375 -96.98095703125
16.0078125 -96.317138671875 -43.6953125
-31.407470703125 45.287841796875 1.27392578125
-53.162353515625 -48.59521484375 -14.093505859375
1.798583984375 115.190185546875 32.3924560546875
-57.718505859375 -115.425048828125 40.81005859375
54.897705078125 -131.50634765625 50.6976318359375
16.541015625 43.14013671875 -87.1610107421875
-15.0576171875 -73.771484375 11.057373046875
-17.169921875 -55.243408203125 9.5953369140625
66.287109375 99.47412109375 -45.6470947265625
18.100341796875 100.115966796875 -96.951904296875
6.346435546875 -103.40380859375 44.7738037109375
-0.912353515625 -110.683837890625 33.6798095703125
11.260986328125 12.599609375 -80.28857421875
9.957763671875 38.333740234375 -84.0985107421875
48.734375 -24.193603515625 -42.2103271484375
64.01025390625 -76.260498046875 -42.1544189453125
-8.173583984375 -64.645751953125 12.5621337890625
-43.2626953125 61.89501953125 -13.6895751953125
4.924072265625 -118.56591796875 27.6409912109375
-22.8037109375 -84.125732421875 32.30029296875
11.6142578125 -46.376220703125 -63.52685546875
-37.4853515625 78.595947265625 34.9178466796875
56.427978515625 -33.353759765625 -44.629150390625
-21.865234375 107.986572265625 11.7825927734375
70.18896484375 93.43994140625 -56.4334716796875
-24.073486328125 4.048095703125 13.1328125
6.32373046875 13.46044921875 39.2911376953125
58.059326171875 2.666259765625 21.7342529296875
-53.072998046875 57.736083984375 -15.4041748046875
-64.5009765625 22.388671875 -13.663818359375
16.22607421875 69.60302734375 -92.9736328125
42.85888671875 47.470458984375 41.65087890625
58.64892578125 90.46142578125 43.4727783203125
-44.460205078125 -35.690673828125 -13.0369873046875
-23.155517578125 -59.149658203125 14.53759765625
-17.45703125 2.70849609375 7.1026611328125
56.443115234375 105.415283203125 -35.6461181640625
-7.8525390625 -77.438720703125 14.2655029296875
-37.3896484375 19.04541015625 -9.405517578125
-36.94287109375 -27.417724609375 -8.5374755859375
13.279296875 95.260986328125 -94.429443359375
14.26806640625 107.2021484375 -96.9639892578125
-44.36279296875 -8.019287109375 -13.5430908203125
24.6591796875 54.16162109375 40.7449951171875
-12.429931640625 -8.330078125 8.013916015625
-56.102294921875 -92.193115234375 37.3677978515625
-6.589599609375 -123.592041015625 21.6326904296875
-27.88037109375 77.633544921875 35.582763671875
14.2978515625 73.48876953125 41.64892578125
-48.6943359375 -20.731689453125 -14.533447265625
-19.127197265625 -6.073974609375 7.1588134765625
53.575927734375 -11.0478515625 -30.9312744140625
-50.347900390625 40.169189453125 -14.4708251953125
68.234619140625 -49.582763671875 -41.9019775390625
64.326904296875 105.00390625 -43.92626953125
68.293212890625 -17.288330078125 -44.814208984375
-0.69482421875 88.489501953125 42.006591796875
59.30029296875 88.802978515625 -30.15869140625
-23.64794921875 18.1630859375 7.5198974609375
58.528076171875 75.6962890625 -33.581298828125
61.359619140625 -38.070068359375 23.9615478515625
8.364990234375 -115.72021484375 47.7696533203125
29.601318359375 21.40576171875 39.1729736328125
16.804443359375 110.167724609375 44.5054931640625
60.53173828125 -5.183349609375 8.0863037109375
-68.624755859375 -27.702880859375 31.587158203125
-66.87060546875 -121.123291015625 42.1409912109375
17.147216796875 3.84716796875 -79.1173095703125
6.35888671875 -36.83447265625 -67.639404296875
-23.209716796875 -57.925048828125 35.6416015625
-17.045654296875 -121.681640625 15.6844482421875
15.292724609375 -123.34228515625 46.104736328125
17.305908203125 -64.48388671875 41.8115234375
-23.666748046875 112.603515625 36.30615234375
12.575927734375 -71.012939453125 -54.9051513671875
-11.92041015625 -15.7314453125 7.72412109375
60.513671875 41.437744140625 -49.4677734375
-34.636962890625 -7.96533203125 -5.230224609375
12.55078125 -86.971435546875 -48.455078125
4.47900390625 -91.320068359375 42.9749755859375
-36.06787109375 52.027587890625 -8.0155029296875
-13.005126953125 -34.3583984375 8.0706787109375
-41.202880859375 51.03515625 -12.3392333984375
-68.60498046875 -109.915771484375 40.1165771484375
-9.012939453125 96.088623046875 13.7967529296875
59.385986328125 -119.050537109375 44.2894287109375
70.5205078125 72.884521484375 -60.9434814453125
-37.50927734375 70.272216796875 34.6837158203125
69.668212890625 59.948974609375 -52.6058349609375
-0.47265625 58.593017578125 16.1583251953125
-16.264892578125 -85.1708984375 11.8348388671875
-69.59033203125 89.727783203125 34.71044921875
50.46044921875 61.0087890625 41.0426025390625
3.510009765625 117.192138671875 24.440185546875
59.3427734375 65.2177734375 -34.502197265625
6.9365234375 30.775146484375 39.825927734375
42.9365234375 22.927490234375 41.909912109375
64.8232421875 100.625244140625 -53.7310791015625
0.374755859375 -56.335205078125 26.71484375
52.950439453125 -10.990234375 -24.9334716796875
-25.0205078125 117.712646484375 15.308837890625
-25.059326171875 -61.290771484375 28.0235595703125
10.88330078125 -21.6025390625 -69.964599609375
10.431884765625 -128.85791015625 27.3934326171875
51.593017578125 30.12646484375 39.7371826171875
14.001220703125 83.50537109375 -92.29736328125
-62.23193359375 97.43359375 35.1756591796875
-22.052978515625 -94.559326171875 35.701171875
-21.557861328125 -103.67236328125 13.4410400390625
-42.372314453125 -96.380859375 38.71630859375
-36.90576171875 95.07666015625 37.71533203125
16.552734375 30.24853515625 -84.9813232421875
62.29150390625 -111.3818359375 -18.72021484375
-63.99951171875 55.470458984375 -14.61767578125
-40.9453125 -19.554931640625 -12.006591796875
-33.787109375 -98.8916015625 39.0068359375
69.403076171875 46.712158203125 -52.1505126953125
-33.814208984375 -88.677734375 38.480224609375
-16.857177734375 26.48779296875 6.6163330078125
58.687255859375 -31.118408203125 21.4136962890625
17.311767578125 89.6845703125 -95.32373046875
-35.186279296875 44.90673828125 -7.0035400390625
9.529296875 -31.90478515625 -67.0950927734375
-42.55810546875 19.31005859375 -12.8948974609375
10.49365234375 -60.60546875 24.2889404296875
24.04931640625 40.936279296875 40.007568359375
70.168701171875 79.113037109375 -55.489990234375
18.506103515625 44.150634765625 40.1907958984375
-23.626220703125 8.353515625 6.89501953125
63.6796875 75.330078125 -46.0731201171875
15.460693359375 -18.765625 39.766357421875
-27.00732421875 68.0302734375 34.9560546875
-59.97119140625 -15.970947265625 -8.4158935546875
59.816650390625 -80.712646484375 39.36572265625
-18.466796875 78.75537109375 9.00927734375
-50.006103515625 -27.705810546875 -14.1990966796875
46.796875 18.572021484375 38.69677734375
-69.042724609375 -52.1357421875 32.615234375
23.1396484375 107.566162109375 44.9039306640625
13.67041015625 19.06201171875 -83.724853515625
-11.190185546875 44.26318359375 9.92041015625
-44.5498046875 57.903076171875 34.217041015625
-33.85595703125 113.888671875 38.286865234375
5.843017578125 68.15478515625 41.13916015625
62.0908203125 -4.197998046875 19.226806640625
-55.35693359375 67.423583984375 33.276611328125
60.002197265625 -74.408935546875 -18.4261474609375
62.25390625 109.936279296875 -41.0595703125
3.890869140625 78.818115234375 41.6368408203125
14.75390625 9.452392578125 39.678466796875
-59.9462890625 -42.53515625 -13.622314453125
32.928955078125 82.53076171875 41.817138671875
55.7158203125 -102.3994140625 41.6009521484375
-54.4638671875 -5.406982421875 -14.0958251953125
67.15234375 116.021240234375 -42.388916015625
-47.46044921875 75.4462890625 35.052001953125
10.373291015625 92.44775390625 42.5888671875
-34.202392578125 35.462890625 -4.2015380859375
1.3046875 11.1513671875 39.1868896484375
-42.652099609375 84.648681640625 35.109619140625
19.388916015625 91.9404296875 43.383056640625
-23.3291015625 -32.020263671875 7.5146484375
61.615478515625 -45.034912109375 -45.4801025390625
27.973388671875 85.503173828125 42.4696044921875
27.701416015625 58.741943359375 40.7764892578125
-23.31982421875 -67.130615234375 11.2230224609375
-13.324462890625 -117.54638671875 15.556884765625
58.675048828125 4.544677734375 -27.0220947265625
62.023193359375 -65.734375 -26.75830078125
-30.4853515625 62.29736328125 19.03271484375
-64.579345703125 43.979248046875 -14.1341552734375
60.654541015625 -46.357421875 -26.2294921875
-13.36328125 76.601318359375 9.2158203125
-48.605224609375 -114.80029296875 41.066650390625
0.749267578125 -34.7958984375 39.5015869140625
-61.1884765625 -127.070068359375 42.8192138671875
4.6416015625 113.12646484375 47.0120849609375
-53.083251953125 76.91064453125 34.185546875
27.8662109375 -11.2177734375 -91.7796630859375
-70.39306640625 -131.318359375 43.3211669921875
3.272705078125 0.339111328125 38.449951171875
-4.218994140625 62.4482421875 18.4962158203125
22.24462890625 82.3251953125 42.5418701171875
10.86083984375 -39.886474609375 -67.9892578125
-19.29736328125 13.25244140625 7.118408203125
-31.86767578125 -122.79248046875 38.654541015625
27.753173828125 114.646484375 44.5279541015625
-2.23095703125 2.5068359375 24.3680419921875
-25.73046875 -67.658447265625 24.0869140625
57.957763671875 -43.368896484375 -41.6717529296875
53.324951171875 -21.25537109375 -48.662353515625
13.63330078125 37.717529296875 39.964111328125
-7.795654296875 -5.2099609375 10.9752197265625
-24.070556640625 -1.367431640625 12.6773681640625
-0.116943359375 42.031494140625 39.5615234375
-69.436279296875 51.21630859375 32.228759765625
17.185546875 64.53515625 41.2816162109375
-21.764404296875 70.60205078125 9.1376953125
-32.638427734375 66.061279296875 2.623779296875
55.415283203125 -2.02490234375 -20.9267578125
29.264404296875 15.37109375 38.6634521484375
12.5341796875 -92.5908203125 45.2554931640625
-26.404296875 -117.38134765625 41.456787109375
9.23486328125 -31.642578125 -59.5601806640625
66.186767578125 56.466796875 -54.75
-17.2255859375 -110.608642578125 14.5516357421875
-59.6044921875 -51.80126953125 -11.72216796875
-59.750732421875 -26.137939453125 -14.16259765625
-21.2451171875 44.891357421875 7.6474609375
8.87158203125 73.119140625 41.1431884765625
16.193115234375 -122.933349609375 28.025390625
11.933349609375 106.325927734375 43.6263427734375
-32.648681640625 88.85400390625 36.287109375
-60.685791015625 56.875732421875 32.82177734375
11.773193359375 -111.618408203125 48.053466796875
56.49658203125 -59.86669921875 28.36083984375
12.0078125 5.255615234375 -79.30810546875
-51.052734375 58.929931640625 35.5570068359375
20.010009765625 99.0986328125 42.8345947265625
-24.8154296875 36.409423828125 11.2529296875
57.457275390625 53.355712890625 42.260498046875
4.2705078125 86.66064453125 42.5242919921875
59.347412109375 22.2041015625 -48.5147705078125
-17.523193359375 66.400634765625 8.7342529296875
61.0400390625 -67.2529296875 24.9766845703125
68.212890625 -64.984619140625 -42.1220703125
-59.069580078125 -106.722412109375 39.423828125
59.203857421875 78.818359375 40.8955078125
61.260498046875 -81.435302734375 -37.322998046875
-37.4091796875 -36.471435546875 -9.1961669921875
18.8623046875 50.033935546875 40.6895751953125
-64.4091796875 -115.614501953125 40.587646484375
-17.121826171875 -25.6474609375 7.9588623046875
3.626220703125 103.583251953125 43.849853515625
-35.11328125 -2.639892578125 -6.117919921875
21.135986328125 -18.034423828125 40.26611328125
62.33203125 -34.537109375 -45.4151611328125
-64.588623046875 109.281982421875 35.3642578125
66.93115234375 -85.390380859375 -43.348388671875
-54.33837890625 -36.38232421875 -14.202880859375
2.384033203125 113.365234375 42.1502685546875
16.114990234375 -87.12353515625 43.4844970703125
62.650146484375 36.83544921875 -52.2628173828125
-58.12060546875 5.624267578125 -14.921142578125
-21.955322265625 -114.530029296875 27.9072265625
-25.22705078125 -119.323486328125 36.6343994140625
56.874755859375 10.0751953125 -45.5604248046875
25.472900390625 24.48876953125 40.0909423828125
58.512939453125 -49.538818359375 -22.0025634765625
-38.247802734375 30.640869140625 -10.065185546875
55.7001953125 -93.93408203125 40.706298828125
-50.951904296875 109.729248046875 39.1097412109375
-48.070068359375 101.039306640625 37.502685546875
-36.07763671875 23.97998046875 -8.313720703125
-18.65087890625 37.517578125 7.092041015625
0.002685546875 -23.542236328125 38.5938720703125
66.591064453125 122.28125 -43.1142578125
-25.18798828125 53.913818359375 13.7152099609375
51.607177734375 -15.098876953125 -40.3341064453125
-37.40771484375 83.538818359375 36.5335693359375
20.810791015625 -8.530029296875 39.74658203125
60.465576171875 32.802734375 -31.7366943359375
-51.767333984375 20.7060546875 -15.6558837890625
55.20068359375 -26.1181640625 -23.915771484375
42.886474609375 -18.38427734375 40.366943359375
3.874755859375 21.526611328125 39.3292236328125
45.187744140625 94.829345703125 -61.8580322265625
-7.27587890625 27.90234375 12.39794921875
-45.87109375 -61.09423828125 -13.0511474609375
-6.0498046875 -99.98486328125 20.707275390625
59.599853515625 46.618896484375 -32.218994140625
-44.15283203125 43.77001953125 -13.731201171875
-56.8642578125 84.208740234375 34.648681640625
-43.430419921875 92.200927734375 36.515625
-34.535400390625 -66.84326171875 -4.1937255859375
-35.191162109375 39.7734375 -7.1656494140625
49.3291015625 83.3388671875 42.8304443359375
-21.78125 -127.34130859375 14.7469482421875
59.407470703125 116.416259765625 -35.6986083984375
-41.01025390625 -53.2734375 -11.65234375
62.209228515625 76.083740234375 -52.7279052734375
-59.690185546875 42.534912109375 -12.05126953125
55.158447265625 70.07080078125 41.4676513671875
-56.920654296875 37.634521484375 -14.4278564453125
64.0234375 -90.267578125 -39.28076171875
17.972412109375 -63.169921875 -59.99658203125
-11.7177734375 59.77392578125 11.158447265625
-10.8671875 10.01025390625 8.4298095703125
-2.34765625 -2.3076171875 17.4697265625
69.230224609375 18.468505859375 -47.930419921875
-25.717529296875 49.146484375 11.6807861328125
-39.968505859375 40.215087890625 -11.773681640625
-53.751708984375 27.923095703125 -15.0921630859375
-48.905517578125 10.64501953125 -14.44287109375
-13.629638671875 -126.47607421875 16.499755859375
-54.876708984375 -119.5693359375 41.3961181640625
16.957275390625 53.848388671875 -89.3797607421875
-10.9404296875 -102.455078125 12.3155517578125
67.543701171875 57.269287109375 -76.6817626953125
12.430419921875 -26.576171875 -71.5517578125
-64.21337890625 80.047607421875 33.4732666015625
-35.526123046875 -13.660888671875 -5.906982421875
65.876953125 -27.942626953125 -45.0853271484375
-58.9072265625 91.999755859375 34.5093994140625
-64.7373046875 47.287109375 31.791259765625
62.13134765625 101.6103515625 -38.3438720703125
-19.990966796875 -47.114501953125 8.983642578125
59.057373046875 127.095458984375 -40.084228515625
5.284423828125 64.63330078125 22.5244140625
-59.693359375 -56.485107421875 -13.98583984375
-18.52587890625 112.85205078125 12.5628662109375
9.92626953125 -12.903076171875 -72.34033203125
-59.490234375 -5.403564453125 -13.8780517578125
-20.18994140625 98.613525390625 10.832763671875
13.257080078125 -98.88037109375 46.11474609375
-0.157470703125 94.30517578125 44.061767578125
-16.927001953125 -42.587890625 8.39990234375
-18.683837890625 -77.21923828125 11.1561279296875
-42.9990234375 13.6337890625 -13.0052490234375
-12.175537109375 49.307861328125 9.1907958984375
48.16455078125 76.246337890625 42.18115234375
-43.805419921875 -101.282470703125 39.1600341796875
54.279052734375 -20.58544921875 -25.035888671875
9.196044921875 -14.9404296875 38.9013671875
-1.43359375 -79.882568359375 18.126220703125
-40.542236328125 74.674072265625 34.6800537109375
6.572265625 -3.569580078125 16.6697998046875
-12.497314453125 30.634521484375 7.6766357421875
61.580322265625 29.033203125 18.1328125
57.520751953125 54.995849609375 -31.968994140625
16.2060546875 77.913330078125 -93.52685546875
-23.276611328125 -68.017578125 18.9603271484375
-53.94384765625 47.62841796875 -13.705078125
58.8837890625 -125.73193359375 45.5648193359375
-68.314697265625 41.142333984375 31.2039794921875
-57.875732421875 73.638427734375 32.9517822265625
55.907958984375 19.788818359375 -26.088623046875
-28.780517578125 66.2861328125 26.6866455078125
4.200439453125 98.293701171875 44.1136474609375
-45.31201171875 -30.846435546875 -13.507568359375
-36.423095703125 66.8076171875 20.2935791015625
64.345458984375 85.2685546875 -43.9052734375
61.3955078125 65.563720703125 -53.9017333984375
0.962158203125 31.830322265625 39.4774169921875
-18.726806640625 54.816162109375 8.2218017578125
62.8681640625 15.595703125 -49.3494873046875
-11.6435546875 39.2216796875 8.8680419921875
-13.9775390625 118.18505859375 12.9969482421875
33.092041015625 77.608154296875 41.751953125
-28.3671875 42.39013671875 17.297119140625
8.886474609375 -82.831787109375 44.9771728515625
-62.749267578125 -96.77392578125 37.560302734375
-31.5517578125 -49.4912109375 2.514892578125
67.02490234375 -95.501953125 -43.527587890625
-70.31884765625 -99.34130859375 39.077392578125
28.310302734375 91.619384765625 43.107421875
-0.445068359375 68.18359375 40.9066162109375
55.09521484375 60.83154296875 43.9295654296875
-60.066162109375 47.529541015625 -14.8248291015625
-63.11767578125 33.088134765625 -14.843505859375
-47.572998046875 -92.525634765625 38.6578369140625
63.541259765625 -84.75927734375 -21.7657470703125
-31.4375 52.285400390625 1.039306640625
59.477294921875 5.802734375 -48.3404541015625
32.227783203125 67.662109375 39.6087646484375
-36.05517578125 8.779296875 -7.895751953125
14.781982421875 99.7578125 43.850830078125
15.2509765625 -49.511962890625 -64.7255859375
64.84716796875 86.295166015625 -54.1458740234375
-51.948486328125 -58.647216796875 -13.8778076171875
-40.023681640625 -127.598876953125 40.18896484375
-7.383544921875 22.62841796875 10.290771484375
16.49365234375 32.590087890625 39.889892578125
54.000732421875 -118.293701171875 45.36474609375
23.96533203125 -2.835693359375 40.097900390625
-3.628173828125 -104.677490234375 25.9036865234375
60.736572265625 -27.388671875 28.614013671875
-18.047119140625 93.595458984375 10.91552734375
-30.53564453125 -119.28564453125 27.4322509765625
48.728271484375 50.69091796875 41.76025390625
-28.541259765625 57.068359375 15.188232421875
-24.000732421875 61.53759765625 12.905029296875
-35.54248046875 -39.976806640625 -6.452880859375
-10.578369140625 19.658203125 8.178466796875
47.23828125 40.546630859375 41.322509765625
-23.24072265625 -50.568603515625 14.031005859375
-50.62646484375 3.10693359375 -14.3453369140625
-17.431640625 -68.962646484375 10.4979248046875
-4.868896484375 -127.203125 24.33203125
-7.478759765625 -113.43115234375 18.3935546875
-23.003173828125 -92.464599609375 13.7313232421875
-57.334716796875 113.420166015625 36.5264892578125
65.213134765625 47.38037109375 -54.3980712890625
50.330078125 15.43408203125 39.529296875
-50.61669921875 -52.86279296875 -14.18603515625
-64.321044921875 7.153076171875 -13.9613037109375
-7.21337890625 12.525634765625 10.5126953125
-67.70556640625 -82.978759765625 36.0804443359375
-36.294189453125 64.486083984375 32.75732421875
45.774658203125 104.039794921875 -66.2523193359375
-31.142578125 -39.82470703125 2.3070068359375
-59.882568359375 -37.43310546875 -13.58544921875
57.890625 2.364990234375 -36.0596923828125
-8.052978515625 -89.17529296875 15.4825439453125
47.65283203125 66.709716796875 42.14599609375
56.521240234375 -23.367431640625 -45.8175048828125
17.90869140625 -38.89453125 40.23876953125
55.986572265625 9.243408203125 -26.305908203125
-1.080322265625 -58.827880859375 20.7237548828125
5.912841796875 -21.843017578125 -68.0682373046875
53.466552734375 47.02001953125 41.5469970703125
-24.009765625 -63.793212890625 15.01416015625
-42.850830078125 -110.3251953125 40.251220703125
-15.33349609375 -59.604736328125 9.3404541015625
-47.6640625 -125.96435546875 42.8533935546875
-59.9423828125 25.823974609375 -15.115234375
69.4521484375 119.19921875 -57.2132568359375
-7.95654296875 -27.741455078125 10.540771484375
-34.152587890625 6.968017578125 -3.8194580078125
57.859619140625 -10.705078125 -46.3079833984375
-41.364013671875 -12.14599609375 -12.2882080078125
57.832275390625 75.4560546875 -28.905517578125
67.3173828125 97.2158203125 -37.9625244140625
-10.40625 -52.476806640625 9.6092529296875
-29.837158203125 67.50048828125 31.21240234375
-69.76220703125 103.532958984375 36.5382080078125
-35.56298828125 15.87890625 -6.429443359375
-28.24365234375 58.020751953125 20.4290771484375
14.635986328125 81.83642578125 42.5140380859375
28.523681640625 48.113037109375 40.968505859375
12.260009765625 63.58447265625 -88.703369140625
18.689697265625 17.562255859375 39.5845947265625
-61.266845703125 18.837158203125 -14.93505859375
-49.87939453125 50.9736328125 -15.2344970703125
-55.002685546875 14.768798828125 -9.2418212890625
54.511962890625 81.890869140625 43.5115966796875
-60.298828125 -87.91455078125 36.2421875
-27.02294921875 -105.83544921875 39.7840576171875
12.32568359375 -24.215087890625 39.9466552734375
-39.641357421875 -23.989501953125 -11.283935546875
67.772216796875 8.711181640625 -45.8492431640625
-25.0107421875 -128.16259765625 23.5802001953125
18.61962890625 -119.3876953125 45.623046875
7.156005859375 106.583984375 44.4285888671875
16.177978515625 114.27001953125 -98.9979248046875
8.50830078125 -90.0576171875 49.3524169921875
17.365478515625 -69.148681640625 -53.3731689453125
9.150634765625 22.6552734375 -82.3045654296875
44.4111328125 12.532958984375 39.760498046875
-43.195556640625 -44.207763671875 -12.8497314453125
22.638427734375 63.628662109375 41.3299560546875
13.430419921875 72.8857421875 -91.2249755859375
-11.992919921875 92.435302734375 12.8970947265625
27.922119140625 4.89453125 40.029052734375
-45.800048828125 66.75732421875 34.432861328125
66.601806640625 111.5908203125 -54.8863525390625
58.72021484375 23.304443359375 -30.3818359375
3.97900390625 -120.886962890625 47.480712890625
53.654296875 -10.9345703125 -39.6258544921875
-0.58740234375 75.8310546875 40.815673828125
64.831298828125 -38.52099609375 -44.7972412109375
67.542724609375 66.36572265625 -74.05517578125
0.119140625 -64.1123046875 17.766845703125
-26.09033203125 -100.997802734375 39.593505859375
19.758056640625 73.4033203125 42.1832275390625
5.135498046875 5.2607421875 39.5643310546875
-34.2275390625 54.066650390625 -4.298095703125
11.2666015625 -96.307861328125 -43.356689453125
-64.590087890625 -10.722412109375 -13.8419189453125
-12.408935546875 105.496337890625 14.9683837890625
24.837890625 12.74072265625 39.60009765625
-23.43701171875 -55.944580078125 10.468017578125
12.98779296875 24.70947265625 39.5570068359375
8.622802734375 97.073974609375 43.7777099609375
5.6728515625 -99.776611328125 48.556884765625
-58.791748046875 46.618896484375 -9.8455810546875
10.26318359375 -50.9716796875 -62.221923828125
51.46728515625 25.6259765625 40.5943603515625
44.5830078125 57.679931640625 43.517822265625
64.8984375 -4.59130859375 -45.2752685546875
-46.7509765625 21.02783203125 -14.055908203125
60.12939453125 70.734375 -35.1607666015625
-54.534423828125 -12.04638671875 -14.4022216796875
7.181884765625 -93.692138671875 -44.3499755859375
-11.03759765625 86.029541015625 13.2120361328125
-42.5361328125 61.834228515625 17.2000732421875
4.43408203125 1.875244140625 18.7880859375
8.751708984375 3.586181640625 -74.7132568359375
64.902587890625 51.929931640625 -54.53564453125
56.890869140625 29.526611328125 -29.361572265625
-38.564697265625 -89.01708984375 38.387939453125
-43.311767578125 -119.7177734375 41.941650390625
50.39990234375 90.9111328125 43.0897216796875
56.302001953125 21.529052734375 43.19580078125
-55.02392578125 61.498046875 -13.734375
58.80126953125 -90.9931640625 42.2650146484375
-18.460693359375 84.94140625 9.883056640625
-10.938232421875 -21.502197265625 7.98046875
-35.035400390625 -25.63330078125 -4.8243408203125
13.55908203125 35.40478515625 -86.1220703125
53.145751953125 105.338623046875 44.4652099609375
5.3681640625 -57.7490234375 -56.1402587890625
58.3037109375 37.26806640625 -30.787353515625
68.740966796875 39.908935546875 -51.5633544921875
-44.973876953125 48.18310546875 -14.3304443359375
-50.076904296875 -37.90966796875 -14.117919921875
-26.600830078125 95.40966796875 36.3115234375
14.061767578125 -126.931884765625 25.4981689453125
53.164306640625 -24.203125 -41.3089599609375
57.14892578125 -3.0869140625 -4.7498779296875
53.65673828125 -11.48828125 -48.667236328125
62.04296875 39.887939453125 18.7349853515625
5.3447265625 48.550048828125 41.1453857421875
53.45166015625 64.740966796875 40.764892578125
17.167236328125 -56.58251953125 -61.3216552734375
9.3095703125 -32.440673828125 40.8304443359375
67.154052734375 69.6103515625 -55.68603515625
-10.447265625 -74.962158203125 11.17919921875
-13.474365234375 101.464111328125 11.5728759765625
61.587158203125 60.742431640625 -34.8624267578125
61.146728515625 50.81982421875 -33.71044921875
-52.324462890625 -94.379150390625 38.4573974609375
-20.035400390625 -1.46728515625 7.2752685546875
6.47412109375 82.856689453125 41.5743408203125
61.19580078125 -72.474609375 -32.896240234375
-27.61767578125 32.3603515625 14.6192626953125
4.06591796875 57.322998046875 17.7896728515625
-60.4052734375 51.98193359375 -14.130859375
-11.862060546875 -45.092041015625 9.521240234375
5.652587890625 -17.315185546875 40.256103515625
-35.663818359375 99.186279296875 36.4542236328125
45.8974609375 92.98828125 43.735107421875
-24.1689453125 33.837890625 7.65087890625
-27.492431640625 72.575927734375 34.42333984375
48.86328125 102.552490234375 45.04931640625
-46.2763671875 34.566162109375 -14.4376220703125
12.670654296875 -64.258056640625 -59.27294921875
51.33251953125 109.556884765625 45.506103515625
17.02685546875 -113.002685546875 46.0516357421875
-42.850830078125 55.8525390625 -12.9937744140625
15.55224609375 -35.444580078125 -71.3458251953125
-28.73779296875 104.709716796875 37.27197265625
-24.257568359375 0.50927734375 16.8673095703125
-28.36572265625 -125.246337890625 23.3555908203125
57.2724609375 -71.466064453125 32.6549072265625
-39.2431640625 -62.335205078125 -10.7037353515625
-33.0732421875 -127.580078125 24.0909423828125
18.910400390625 -84.959228515625 -45.4207763671875
71.819580078125 60.3837890625 -70.84765625
7.366943359375 -51.655029296875 41.0753173828125
-58.607666015625 50.28076171875 32.3614501953125
3.585693359375 39.61376953125 39.93017578125
41.3251953125 0.109375 40.94287109375
1.115966796875 -129.962890625 26.073974609375
59.251220703125 -59.231201171875 -20.709716796875
59.3349609375 -111.3251953125 43.0323486328125
-42.419677734375 110.786376953125 38.4163818359375
-34.793701171875 -120.41552734375 27.87255859375
11.898681640625 -59.669677734375 41.6868896484375
65.769775390625 48.991943359375 -83.425537109375
-33.703369140625 0.993408203125 -3.53955078125
-30.7666015625 -116.67724609375 41.4317626953125
60.050537109375 25.839111328125 -35.744873046875
18.26611328125 108.889892578125 -98.2716064453125
32.85107421875 109.45361328125 44.7337646484375
20.646728515625 88.040283203125 -92.88916015625
56.739501953125 -5.177734375 -39.6876220703125
59.20361328125 31.17724609375 -48.7435302734375
54.79150390625 74.354736328125 40.50537109375
57.862060546875 -18.698974609375 -46.35546875
65.030029296875 105.647216796875 -49.5770263671875
-65.252685546875 68.92236328125 32.3131103515625
-37.832763671875 -2.311279296875 -9.559814453125
-2.041015625 -123.56884765625 24.34228515625
13.013427734375 119.845703125 -95.1619873046875
16.639404296875 58.708251953125 -90.34716796875
-32.393310546875 -92.830078125 38.3167724609375
61.80810546875 -64.0146484375 22.1177978515625
65.585205078125 75.58203125 -55.6597900390625
-38.958251953125 -122.18798828125 42.2503662109375
13.042724609375 -1.728759765625 38.5418701171875
58.627685546875 83.693359375 -32.88671875
-7.0087890625 -1.589599609375 15.48681640625
15.95654296875 -49.97802734375 41.52587890625
55.872314453125 17.0068359375 42.2330322265625
10.415771484375 -39.5068359375 40.905029296875
16.265380859375 -104.580078125 45.4609375
16.029541015625 -6.82080078125 39.176025390625
55.46044921875 67.90087890625 45.2535400390625
-22.9150390625 -104.30908203125 36.3153076171875
-66.658447265625 -18.11474609375 34.4073486328125
46.295654296875 89.72265625 -59.475341796875
59.212646484375 96.107421875 -34.537353515625
66.94482421875 96.804443359375 -55.8848876953125
-23.987548828125 -74.508544921875 29.236572265625
12.758544921875 -43.60400390625 -66.7412109375
17.2666015625 114.35888671875 45.594970703125
20.4287109375 61.03955078125 -89.255859375
10.540771484375 33.9716796875 40.0596923828125
-51.19580078125 50.677978515625 32.5491943359375
-47.81640625 84.54736328125 35.46630859375
-33.736572265625 -107.862548828125 40.0343017578125
55.131103515625 -130.328125 46.1500244140625
-41.7783203125 -4.348876953125 -12.57861328125
-1.445556640625 66.290771484375 20.9720458984375
-26.1982421875 11.79296875 14.9547119140625
-13.29833984375 68.9609375 8.871337890625
-59.280517578125 64.843994140625 32.91064453125
0.233642578125 -121.009765625 28.5775146484375
60.94189453125 42.558837890625 -32.9124755859375
12.562744140625 -11.05615234375 -76.0048828125
4.33154296875 -114.238037109375 47.239990234375
-19.748291015625 103.04736328125 11.7081298828125
-0.43310546875 -27.8232421875 38.1539306640625
-12.34521484375 -70.360595703125 11.0821533203125
-47.124755859375 29.810302734375 -14.36328125
-41.701904296875 96.15234375 36.2347412109375
-24.512939453125 -117.907958984375 17.0811767578125
15.080810546875 15.080078125 -82.8250732421875
10.10888671875 -5.3701171875 -75.3614501953125
-63.332763671875 -106.040771484375 39.4014892578125
-50.307373046875 93.50146484375 36.1683349609375
59.705078125 -6.037353515625 23.404541015625
-55.0859375 -87.00048828125 38.45751953125
58.032958984375 -5.797607421875 -33.1812744140625
14.497314453125 90.599365234375 43.228271484375
-54.6982421875 -28.876220703125 -14.4755859375
10.405517578125 41.3427734375 40.3597412109375
-32.305419921875 61.355224609375 0.8470458984375
59.455078125 120.575927734375 -40.0228271484375
55.552978515625 -69.25927734375 28.8062744140625
61.610107421875 5.186767578125 24.16845703125
-33.70068359375 44.956787109375 -2.3624267578125
5.921630859375 -65.173095703125 19.8883056640625
57.80517578125 -74.24755859375 37.9010009765625
12.131591796875 -74.529541015625 -52.48583984375
-57.978515625 96.99365234375 35.4755859375
-15.217529296875 -93.60302734375 12.371826171875
17.667724609375 21.245849609375 -82.0899658203125
54.139892578125 -34.302978515625 -41.13818359375
-23.41015625 -46.24169921875 11.8114013671875
-12.576416015625 -29.75390625 8.51708984375
-27.514892578125 81.78076171875 34.6102294921875
48.355224609375 57.29296875 41.19921875
24.14306640625 99.406494140625 43.8741455078125
-31.301513671875 98.195068359375 37.474365234375
63.96484375 -94.486328125 -22.232421875
10.060546875 -59.03955078125 -62.3375244140625
63.99267578125 90.13232421875 -38.5247802734375
61.398681640625 -27.812744140625 24.32958984375
59.937255859375 -57.359619140625 -26.0301513671875
-40.303955078125 104.8505859375 38.3017578125
-30.44287109375 66.4482421875 20.0035400390625
55.66259765625 113.964599609375 45.708251953125
-10.681396484375 -107.3203125 14.78955078125
-27.627197265625 -59.45751953125 23.7943115234375
68.144287109375 4.1845703125 -45.3951416015625
-30.414306640625 66.77197265625 12.7337646484375
44.34033203125 0.6611328125 48.4447021484375
-6.69287109375 58.98974609375 14.4774169921875
-53.2275390625 100.722412109375 36.505126953125
-33.654541015625 29.085205078125 -1.864501953125
23.58154296875 8.419189453125 39.6597900390625
-24.265625 -56.5625 26.2520751953125
-33.226806640625 16.294921875 -2.1556396484375
7.559326171875 -76.77880859375 -48.5972900390625
-23.251220703125 -38.46630859375 8.0802001953125
15.291259765625 -78.23681640625 -51.863037109375
-65.44580078125 -87.8232421875 36.3779296875
-6.61865234375 -103.79833984375 18.9552001953125
65.309326171875 -14.495849609375 -46.086181640625
-35.169677734375 62.667236328125 -6.44287109375
-9.9755859375 -95.9560546875 13.7044677734375
64.37841796875 -18.68701171875 -45.606201171875
62.45458984375 -75.811279296875 -24.95703125
-33.0791015625 78.80078125 36.2164306640625
-9.305419921875 -126.47900390625 17.1865234375
7.5537109375 3.302490234375 23.0115966796875
16.9462890625 -4.839599609375 -77.0791015625
13.4658203125 46.56005859375 -86.81396484375
-67.822021484375 93.507568359375 35.28955078125
10.329833984375 -107.776611328125 49.2000732421875
54.00537109375 -31.07666015625 -47.759521484375
33.443115234375 93.13232421875 44.850341796875
-28.42919921875 -119.609619140625 31.061767578125
59.043212890625 92.483154296875 -32.4044189453125
-55.262451171875 -50.375 -10.9105224609375
68.611328125 22.45654296875 -49.6322021484375
30.53662109375 35.505126953125 39.287353515625
28.7041015625 98.065185546875 44.251708984375
28.216796875 72.305419921875 41.1181640625
-10.7529296875 -0.497802734375 8.15576171875
-9.14599609375 -37.89501953125 10.7615966796875
-13.3486328125 22.408203125 6.627197265625
-24.76220703125 86.992431640625 10.0057373046875
-52.837890625 -99.76806640625 38.7979736328125
56.386474609375 0.087646484375 -24.4200439453125
21.512451171875 33.933349609375 40.046875
-48.652099609375 -13.396484375 -14.7039794921875
46.57421875 28.244384765625 39.78955078125
62.331298828125 -7.78125 17.0638427734375
21.942138671875 1.173583984375 39.7591552734375
-57.94775390625 55.666259765625 -15.442138671875
-24.091552734375 84.985107421875 33.9722900390625
62.666748046875 -65.897705078125 -43.8182373046875
-44.539794921875 52.69677734375 35.36181640625
-23.900390625 -2.699951171875 8.343505859375
27.234619140625 43.591552734375 40.5106201171875
5.068359375 34.889892578125 40.1944580078125
54.569091796875 -31.6845703125 21.8157958984375
59.78955078125 -79.74560546875 -18.580810546875
15.299560546875 128.440673828125 -101.227294921875
20.90185546875 21.766357421875 39.7685546875
-18.974365234375 -17.559814453125 7.9044189453125
61.0830078125 -77.916259765625 -39.5531005859375
-21.67724609375 -10.0478515625 7.986572265625
57.96484375 43.9443359375 42.62646484375
18.72607421875 54.65087890625 40.60400390625
-64.647705078125 -42.958740234375 -13.4476318359375
44.440185546875 7.16162109375 41.5826416015625
-57.153076171875 18.531494140625 -15.4859619140625
-60.423095703125 -13.892578125 -12.7869873046875
17.037841796875 28.41455078125 39.7037353515625
26.7236328125 62.755859375 41.1993408203125
63.449951171875 32.0703125 -51.7564697265625
9.45458984375 48.036376953125 41.3494873046875
61.69189453125 -60.724853515625 -40.6856689453125
-13.484619140625 108.782958984375 12.5428466796875
22.2001953125 -22.03759765625 40.3603515625
39.56591796875 105.916748046875 -68.4832763671875
68.362548828125 -76.273193359375 -42.434814453125
12.304443359375 -85.883544921875 44.5040283203125
-26.138916015625 25.604736328125 9.879638671875
67.7080078125 83.629150390625 -56.2877197265625
-12.08349609375 -85.45361328125 12.1600341796875
0.236572265625 -5.099365234375 15.86572265625
-64.323974609375 -49.968994140625 -13.4981689453125
12.416748046875 -121.794921875 29.2322998046875
25.361572265625 28.704345703125 40.2154541015625
-48.60546875 58.49609375 -15.1314697265625
-30.9833984375 69.923828125 34.3446044921875
-32.25927734375 37.982177734375 0.8397216796875
14.76904296875 49.611572265625 40.53955078125
-8.9169921875 -118.639404296875 17.354736328125
4.382568359375 -45.450439453125 40.93115234375
58.9423828125 -3.302001953125 -47.2825927734375
7.072998046875 -52.726318359375 -58.2442626953125
-38.763916015625 -44.464111328125 -10.25048828125
52.814453125 -27.994384765625 -44.209716796875
51.40234375 40.537841796875 41.3187255859375
-56.753662109375 11.1162109375 -11.5443115234375
64.665283203125 -81.8125 -42.626708984375
44.65380859375 43.595703125 40.3702392578125
-55.029052734375 -20.356689453125 -13.9951171875
-39.5263671875 61.041748046875 -11.9132080078125
66.03515625 -109.822509765625 -18.0897216796875
-49.5498046875 -107.7021484375 39.6959228515625
59.46728515625 -102.209716796875 43.251708984375
17.473876953125 -97.2734375 44.6732177734375
8.919189453125 3.62353515625 40.0709228515625
-49.696044921875 68.050537109375 34.543212890625
-44.3173828125 2.276611328125 -13.4818115234375
63.23486328125 -71.72802734375 -42.5804443359375
9.3095703125 26.904296875 -83.03076171875
6.644287109375 -96.704345703125 44.1522216796875
-6.598388671875 -128.463134765625 20.7430419921875
57.142822265625 -28.208740234375 -46.1385498046875
17.061767578125 69.50390625 41.3480224609375
59.4208984375 109.18017578125 42.81591796875
-63.256591796875 -34.94775390625 -13.8089599609375
54.783935546875 -66.29052734375 36.499755859375
-66.675048828125 86.061767578125 33.6627197265625
-37.882568359375 -55.123779296875 -9.77685546875
-32.230224609375 21.1953125 0.7568359375
-68.438720703125 8.969970703125 31.39697265625
55.02880859375 56.994384765625 42.5308837890625
-68.475830078125 31.995849609375 31.5
6.85107421875 89.813720703125 42.3360595703125
-24.59814453125 54.064453125 9.5321044921875
-66.64599609375 -75.056884765625 36.653564453125
-65.87841796875 56.9501953125 32.489501953125
-47.323974609375 -5.0009765625 -14.298828125
-60.656005859375 88.397705078125 35.2764892578125
-39.174560546875 59.45458984375 16.1900634765625
57.919189453125 1.39697265625 -46.9083251953125
8.69287109375 -88.9853515625 -45.2047119140625
-52.53173828125 85.745849609375 35.86376953125
58.400146484375 -1.52197265625 19.9434814453125
67.159912109375 129.207763671875 -54.187255859375
-22.1953125 -113.736328125 16.9600830078125
19.595947265625 116.75048828125 -99.072265625
66.5029296875 116.733642578125 -53.8433837890625
-23.22802734375 28.7138671875 8.376953125
-50.12890625 -45.9248046875 -13.9315185546875
17.556396484375 -33.45361328125 -68.0567626953125
-22.576171875 61.23193359375 8.64990234375
15.641845703125 -92.371826171875 -45.6640625
-22.173583984375 -116.429931640625 24.33642578125
69.820556640625 53.97021484375 -76.2261962890625
-20.1083984375 6.3984375 7.155517578125
20.9599609375 -28.4716796875 40.344970703125
-23.90380859375 -62.806396484375 31.5770263671875
58.0341796875 94.44384765625 43.6483154296875
-47.82958984375 80.510498046875 36.03173828125
-62.733154296875 -59.04736328125 -13.3602294921875
65.34765625 57.971923828125 -35.463623046875
-23.324462890625 -62.4169921875 18.729248046875
-37.378173828125 42.56103515625 -9.4234619140625
65.249755859375 11.75146484375 -47.0118408203125
41.930908203125 86.53125 -60.8612060546875
31.656982421875 58.95361328125 39.869384765625
-33.907958984375 106.380126953125 37.1826171875
59.204345703125 -5.352783203125 -27.012451171875
63.11328125 83.08154296875 -52.0926513671875
-14.135986328125 60.154052734375 7.7158203125
11.322998046875 18.506591796875 39.78466796875
59.9091796875 14.899169921875 -28.822998046875
60.53955078125 -52.967041015625 -42.18408203125
-19.8388671875 23.307861328125 6.8109130859375
63.6474609375 127.73876953125 -44.187255859375
64.095458984375 -56.905517578125 -45.052490234375
20.728515625 -36.078857421875 40.6361083984375
10.76123046875 1.794189453125 -77.7449951171875
-69.18310546875 16.8037109375 31.64111328125
19.935546875 -95.623779296875 -43.4710693359375
56.71826171875 -60.4736328125 32.3026123046875
-26.94287109375 109.633056640625 38.8133544921875
-24.0322265625 77.043212890625 34.2314453125
55.955810546875 108.529541015625 -33.2042236328125
68.134521484375 -61.06396484375 -41.4002685546875
42.492919921875 26.340576171875 39.902099609375
21.833984375 78.40771484375 41.94677734375
14.10986328125 -99.472900390625 -42.17724609375
6.76953125 -117.22119140625 36.602783203125
-64.441162109375 -0.94970703125 -13.6136474609375
-56.712646484375 -109.8310546875 40.2027587890625
-33.770263671875 60.647216796875 -3.3189697265625
-65.523681640625 -127.4658203125 42.851318359375
-60.69970703125 29.869873046875 -14.1943359375
-25.514404296875 -124.956787109375 15.517333984375
7.196533203125 -92.582275390625 45.58349609375
20.408203125 52.267333984375 -86.697998046875
60.55859375 1.9287109375 -24.7183837890625
59.94970703125 -65.274169921875 -23.415283203125
65.01171875 -88.946533203125 -42.8807373046875
-10.708984375 34.294921875 8.9393310546875
-10.22509765625 -62.126220703125 10.302978515625
19.438232421875 8.83154296875 40.007080078125
-19.66357421875 73.984619140625 9.3641357421875
-61.68310546875 105.3740234375 36.197998046875
64.798828125 1.4208984375 -46.08154296875
51.4970703125 -28.66259765625 -20.796630859375
-53.73291015625 56.73583984375 33.4404296875
-37.3828125 -11.16650390625 -8.91162109375
65.529052734375 89.405029296875 -46.52001953125
-24.681640625 7.132080078125 10.7412109375
-26.563232421875 20.718017578125 9.6318359375
17.85546875 -27.27197265625 -70.26220703125
5.682373046875 -59.988525390625 23.0986328125
65.064453125 66.29541015625 -55.2362060546875
56.171142578125 -17.137939453125 -23.3228759765625
-29.94384765625 -100.2138671875 39.3135986328125
