-5.241455078125 -15.38818359375 -24.221435546875
0.85205078125 -28.999755859375 -36.45849609375
-19.807373046875 20.056396484375 4.8564453125
6.544921875 -18.290771484375 -3.941162109375
3.24267578125 7.17236328125 -7.35205078125
-6.235595703125 23.3330078125 15.998779296875
7.615478515625 -11.9306640625 -6.6298828125
1.521484375 -12.783203125 -14.885009765625
1.532958984375 -13.842529296875 -38.300048828125
-9.761962890625 17.278076171875 1.56201171875
-20.5341796875 20.291748046875 15.302001953125
-16.216796875 24.317626953125 -4.1845703125
-1.138916015625 -13.65966796875 -33.2119140625
-2.0703125 -14.87841796875 -28.908935546875
1.245361328125 -29.131103515625 -27.636474609375
2.780517578125 1.0693359375 -14.788330078125
3.912353515625 -0.347900390625 -31.467041015625
6.8046875 7.465087890625 -33.022705078125
2.023193359375 -0.51611328125 -22.648193359375
11.582763671875 10.5283203125 -17.631591796875
4.43994140625 -22.6552734375 -41.443603515625
-4.02197265625 -22.86181640625 -29.41943359375
2.477783203125 -18.329345703125 -41.953857421875
7.773193359375 -19.056396484375 -48.544921875
-7.150146484375 12.8212890625 -1.9775390625
15.417724609375 14.43115234375 6.40673828125
4.80810546875 21.418701171875 14.788818359375
9.094482421875 7.393310546875 -5.612548828125
-14.402587890625 20.036865234375 2.567138671875
7.286865234375 -7.09814453125 -8.544921875
-18.698974609375 -2.718505859375 -29.774658203125
6.284423828125 -27.871337890625 -38.91943359375
11.627685546875 16.94384765625 8.94189453125
-1.326904296875 -6.009765625 -28.400390625
0.2734375 -8.029052734375 -17.273681640625
-1.40087890625 -14.7236328125 -18.310791015625
11.295654296875 -26.040771484375 -38.77734375
1.935546875 -24.171142578125 -37.129638671875
7.91015625 -24.92724609375 -7.19384765625
0.49462890625 -34.67822265625 -28.369384765625
4.792236328125 -12.879638671875 -44.215576171875
9.177978515625 -27.15234375 -50.840576171875
19.57177734375 -3.1015625 5.941650390625
5.224609375 -15.77978515625 -5.978271484375
3.68115234375 21.976318359375 -27.25537109375
2.2783203125 -16.4404296875 -13.44921875
-7.63818359375 15.690673828125 3.826904296875
7.353515625 6.664794921875 -25.40380859375
-20.19873046875 19.1953125 1.98095703125
-12.98046875 21.854248046875 12.20947265625
-5.273193359375 17.5966796875 7.11669921875
7.393798828125 -12.27490234375 -51.86279296875
4.891357421875 19.419189453125 -25.300537109375
7.60498046875 -44.45849609375 -49.333740234375
5.43701171875 -18.312255859375 -44.5673828125
7.64208984375 4.182373046875 -9.0830078125
0.7900390625 -23.411376953125 -14.490966796875
4.13818359375 12.72509765625 1.297607421875
19.716064453125 4.081787109375 5.763916015625
1.671142578125 -3.681640625 -30.068603515625
-19.04150390625 21.296875 10.52001953125
-0.86474609375 -23.74169921875 -37.9921875
6.72216796875 19.56298828125 -22.91552734375
2.234375 -14.89990234375 -40.90185546875
5.230224609375 -12.93701171875 -1.43115234375
-0.490234375 -14.75927734375 -36.31982421875
-3.891845703125 9.69873046875 -4.818115234375
7.74169921875 11.8330078125 -28.8154296875
13.14501953125 -1.73046875 -1.678466796875
4.372314453125 -15.38427734375 -10.64599609375
-1.2685546875 -9.736328125 -18.95703125
0.365234375 -31.81396484375 -36.866943359375
8.770751953125 7.4755859375 -23.0869140625
15.880126953125 -4.523681640625 1.59619140625
8.98486328125 16.4921875 7.867919921875
0.5048828125 18.907470703125 10.21533203125
-4.4755859375 -20.25927734375 -21.240478515625
1.455078125 -34.630126953125 -22.8115234375
8.33740234375 24.34619140625 -20.57568359375
-1.98779296875 -22.114013671875 -18.02001953125
1.243896484375 -47.1640625 -36.64892578125
16.525146484375 15.602294921875 9.306884765625
10.852294921875 8.365966796875 -3.4619140625
-4.477294921875 -16.285888671875 -21.708740234375
18.491943359375 8.6455078125 3.198486328125
-2.80517578125 -20.56298828125 -30.55810546875
-0.787109375 -27.976806640625 -33.899169921875
-3.10791015625 21.5126953125 13.820556640625
2.35009765625 -2.384765625 -15.338623046875
7.0263671875 19.021240234375 11.41015625
-0.26171875 -17.749267578125 -36.849365234375
5.59521484375 -21.30615234375 -44.65625
11.797119140625 0.1103515625 -39.0830078125
-2.135986328125 -15.874267578125 -31.91748046875
6.557861328125 -21.522216796875 -8.067138671875
3.916015625 1.136474609375 -28.347412109375
-0.290771484375 -4.87939453125 -23.423095703125
-1.9384765625 -39.2177734375 -32.4765625
-0.55615234375 -17.86865234375 -17.189697265625
16.64208984375 10.05029296875 1.536865234375
10.35693359375 -22.197265625 -46.143310546875
0.955078125 -32.286865234375 -26.21240234375
4.707763671875 15.621826171875 -33.74462890625
3.486083984375 -23.588623046875 -19.641357421875
4.451171875 1.18115234375 -21.9560546875
1.3955078125 -24.1982421875 -24.59765625
15.6396484375 -26.722900390625 -39.068359375
-16.453857421875 21.110107421875 7.544189453125
-2.479248046875 -4.52783203125 -21.210693359375
1.9697265625 20.303466796875 12.8974609375
5.613525390625 -2.423583984375 -23.574462890625
-9.560546875 18.711669921875 8.419677734375
-3.949462890625 2.047119140625 -20.479736328125
7.3154296875 -8.09716796875 -43.83544921875
-0.417724609375 2.910400390625 -20.789306640625
0.31787109375 -9.032958984375 -36.05419921875
10.157470703125 -3.760009765625 -5.240478515625
6.67919921875 -50.354248046875 -35.019775390625
8.674072265625 15.03125 -20.5244140625
7.75390625 -23.336181640625 -15.437744140625
-14.63623046875 40.92578125 -12.395263671875
-12.4794921875 18.385986328125 5.197021484375
10.975341796875 5.988525390625 -17.994384765625
6.277587890625 25.37646484375 -25.22509765625
10.113037109375 -20.153076171875 -48.099609375
-2.68017578125 17.05517578125 6.960693359375
-6.7353515625 10.064208984375 -5.32421875
14.53955078125 8.4208984375 -0.97265625
3.366943359375 5.743408203125 -9.5537109375
8.22021484375 -3.47119140625 -39.24560546875
8.78759765625 10.73388671875 -1.070068359375
0.168212890625 8.969970703125 -5.197998046875
3.207275390625 25.78466796875 21.075927734375
-2.612548828125 -17.74755859375 -27.072509765625
5.37109375 -20.658935546875 -4.685791015625
10.3408203125 -30.818359375 -37.529296875
3.1357421875 -5.944091796875 -38.577880859375
3.804931640625 -0.9453125 -33.967529296875
5.87158203125 17.848388671875 -29.4091796875
-2.570068359375 6.94384765625 -8.616455078125
3.6083984375 -7.180419921875 -12.930419921875
13.99365234375 3.392333984375 -1.472412109375
11.5849609375 13.819580078125 4.161865234375
-5.368896484375 13.920166015625 1.231689453125
5.45703125 -12.583740234375 -9.871826171875
3.318359375 -24.909423828125 -41.1181640625
24.925537109375 -48.0322265625 -26.102294921875
10.932861328125 -24.200439453125 -51.65478515625
-1.131591796875 -40.1611328125 -35.86865234375
7.888671875 -42.232666015625 -50.506591796875
8.3115234375 13.537109375 3.29248046875
-15.186279296875 33.138916015625 -9.21630859375
2.13525390625 -26.690673828125 -37.119873046875
13.279541015625 -4.455810546875 -1.27783203125
11.790771484375 -6.57861328125 -1.62109375
17.068603515625 12.35205078125 5.807373046875
7.481201171875 -48.293701171875 -46.212890625
-0.122802734375 12.344970703125 -0.15869140625
12.119384765625 18.287109375 11.55712890625
10.33251953125 21.48486328125 16.4130859375
5.205322265625 8.267578125 -5.0634765625
5.750732421875 -7.902587890625 -41.818603515625
7.47998046875 -18.701904296875 -45.91455078125
9.259765625 12.023681640625 -20.886962890625
2.213134765625 -6.5546875 -14.954345703125
6.670166015625 4.464111328125 -37.43603515625
5.263671875 4.531005859375 -29.271728515625
12.54345703125 -24.221435546875 -43.2421875
0.639404296875 -29.81005859375 -25.353271484375
18.408203125 6.2265625 3.572021484375
11.9677734375 -28.349365234375 -37.564697265625
1.06689453125 4.4755859375 -12.041259765625
13.94921875 15.67578125 7.906982421875
4.41357421875 -2.2021484375 -26.486328125
-3.02001953125 -10.7646484375 -24.779541015625
9.754150390625 5.330322265625 -6.717041015625
8.838623046875 1.386962890625 -38.8662109375
-14.771484375 29.284912109375 -6.04833984375
7.09423828125 -0.367919921875 -38.23095703125
0.837646484375 -18.943359375 -14.81640625
4.0888671875 19.67431640625 -30.378662109375
-0.49072265625 -23.923583984375 -33.76318359375
3.19873046875 -37.425048828125 -38.00439453125
4.975830078125 -17.3291015625 -9.353759765625
-15.27294921875 22.07958984375 12.920166015625
4.652099609375 -9.735107421875 -40.453857421875
-2.242919921875 3.095458984375 -16.031005859375
5.70166015625 10.047607421875 -2.418701171875
0.2822265625 -23.33935546875 -21.745849609375
5.094482421875 9.30029296875 -34.4130859375
6.93994140625 -16.813232421875 -48.49169921875
4.958251953125 -24.10693359375 -11.4560546875
0.769287109375 -2.792724609375 -17.690673828125
-3.05712890625 14.76318359375 3.22021484375
14.955810546875 -24.978759765625 -50.8115234375
11.688232421875 8.76513671875 -16.045654296875
11.109375 1.377197265625 -4.971435546875
12.27392578125 4.473388671875 -38.89013671875
1.07763671875 16.0888671875 5.362060546875
0.725830078125 -23.4853515625 -16.885498046875
3.8994140625 23.37890625 -29.687255859375
4.4501953125 -14.708740234375 -2.780029296875
11.011474609375 -38.774169921875 -50.520263671875
0.5732421875 -26.86865234375 -30.6796875
6.671142578125 15.1787109375 -25.3212890625
2.20751953125 12.14599609375 0.095947265625
1.90771484375 -5.049072265625 -33.94482421875
6.282470703125 2.4990234375 -23.5556640625
-14.27978515625 19.491943359375 8.378662109375
5.176513671875 -30.540771484375 -39.13525390625
-2.78076171875 6.17138671875 -13.222412109375
7.022705078125 -4.478759765625 -9.03125
-4.68896484375 -13.74365234375 -22.62548828125
5.635009765625 2.749755859375 -32.735107421875
-1.447509765625 -0.298828125 -19.23046875
2.236083984375 10.1396484375 -2.818115234375
-1.7646484375 -19.310791015625 -35.673828125
14.506591796875 0.83935546875 -0.818359375
18.672607421875 -0.7255859375 5.029296875
16.778564453125 1.588623046875 2.567626953125
3.9453125 -15.344970703125 -0.322509765625
-10.3037109375 15.131103515625 2.185791015625
9.4453125 -5.970947265625 -5.66552734375
12.402099609375 3.94091796875 -3.671630859375
-0.25732421875 -37.22900390625 -36.569580078125
-2.394775390625 10.54638671875 -3.307373046875
-2.915771484375 -15.499267578125 -20.23193359375
6.099853515625 0.11962890625 -23.231689453125
-3.8095703125 -11.516357421875 -22.113037109375
6.107666015625 -0.37158203125 -10.96240234375
13.46875 -26.509521484375 -50.02099609375
10.590087890625 8.57763671875 -18.57470703125
6.09912109375 17.9658203125 9.625732421875
-1.12060546875 -8.69189453125 -31.1962890625
0.021484375 1.920654296875 -16.52685546875
-1.939697265625 -19.88427734375 -18.403076171875
-1.098388671875 -6.692138671875 -25.183837890625
-2.9501953125 -12.977783203125 -25.2451171875
2.48291015625 3.28076171875 -13.4794921875
-10.13818359375 16.28955078125 4.52587890625
-2.96484375 -3.510498046875 -24.038330078125
7.724853515625 -2.2734375 -8.617431640625
-10.081787109375 15.60498046875 -0.007568359375
19.48876953125 9.22216796875 5.374755859375
5.342529296875 4.852783203125 -10.152587890625
8.36376953125 6.508056640625 -30.580322265625
-2.62646484375 -19.550537109375 -28.406005859375
2.7822265625 -11.245361328125 -13.849365234375
12.88037109375 7.508544921875 -3.064453125
-0.494140625 -5.266845703125 -18.455322265625
7.46728515625 15.00830078125 -27.8017578125
0.81591796875 -2.950439453125 -22.8818359375
-23.8798828125 22.41650390625 10.44287109375
-2.068359375 -18.05859375 -32.365234375
-1.77783203125 -37.0166015625 -32.801025390625
15.248046875 4.535888671875 -0.030517578125
-1.205810546875 -11.485107421875 -33.6875
3.592529296875 -20.274169921875 -11.75634765625
-2.84228515625 20.089111328125 11.609375
9.27197265625 -18.7646484375 -0.13525390625
-0.66796875 -33.12109375 -35.425048828125
2.3720703125 -35.22216796875 -37.944091796875
6.509765625 4.81787109375 -26.23291015625
5.7041015625 -5.643310546875 -40.461181640625
10.346435546875 5.79541015625 -39.08544921875
9.012451171875 19.63720703125 12.67724609375
7.24755859375 9.239990234375 -29.144775390625
4.99267578125 -11.84130859375 -42.09033203125
0.974853515625 -29.717529296875 -29.7392578125
8.00390625 2.0361328125 -8.9072265625
6.294189453125 -24.835205078125 -40.0830078125
8.923583984375 -21.945556640625 -44.0751953125
5.8310546875 3.189697265625 -35.796630859375
-3.0 -8.028564453125 -23.682861328125
7.329345703125 12.29150390625 -24.191162109375
15.854248046875 0.150390625 1.2255859375
0.82470703125 -25.8056640625 -26.18408203125
6.73876953125 -48.219970703125 -35.418212890625
3.15673828125 -23.645751953125 -14.2080078125
-16.776123046875 21.401123046875 15.335693359375
-2.28515625 -23.292236328125 -25.859619140625
4.67724609375 -16.4931640625 -45.463623046875
-6.054443359375 20.276611328125 11.318603515625
2.04296875 17.187255859375 7.661865234375
6.666259765625 -19.90869140625 -43.39599609375
-2.7021484375 -6.906494140625 -21.404296875
6.231689453125 16.5341796875 -31.39404296875
12.204345703125 -22.646484375 -44.895751953125
3.48388671875 -13.89892578125 -42.345947265625
-25.3759765625 23.2119140625 6.354736328125
-2.146240234375 11.704345703125 -1.429931640625
4.814697265625 -4.274658203125 -12.083740234375
9.23388671875 -16.207763671875 -49.977783203125
-18.5546875 19.06298828125 0.458251953125
8.63232421875 -24.24658203125 -42.883544921875
6.4775390625 -13.83056640625 -6.262939453125
16.647705078125 -2.722412109375 2.44921875
6.977783203125 8.101318359375 -30.9306640625
11.757568359375 -3.114501953125 -39.76123046875
5.2041015625 1.02294921875 -36.558837890625
-5.552734375 10.767333984375 -3.53564453125
-3.753662109375 -16.482666015625 -25.53759765625
2.981201171875 14.634765625 4.083984375
-1.927978515625 -1.525390625 -21.17431640625
6.446044921875 12.476318359375 -30.7353515625
-10.416259765625 17.680419921875 6.68359375
5.33642578125 1.043701171875 -12.4833984375
0.351806640625 -19.247314453125 -38.225341796875
6.172119140625 -23.6376953125 -16.8212890625
10.755126953125 -16.66064453125 2.178955078125
2.094482421875 -7.796630859375 -38.566650390625
-15.908447265625 35.966796875 -10.86474609375
3.39501953125 -17.946044921875 -44.132080078125
-2.739501953125 -22.5615234375 -22.703369140625
-17.264404296875 20.29736328125 9.32373046875
6.59130859375 -2.421875 -37.981689453125
-3.945068359375 -18.231201171875 -20.94921875
5.884521484375 -7.817138671875 -9.94921875
9.992919921875 7.9091796875 -39.2890625
-1.0126953125 13.886474609375 2.17724609375
-16.821533203125 21.6171875 11.403076171875
7.427734375 -18.2939453125 -2.00927734375
7.466796875 -9.291015625 -8.00537109375
6.53564453125 21.9013671875 15.890625
9.08203125 -46.8134765625 -35.719970703125
-21.67724609375 19.455078125 4.11376953125
1.78076171875 -28.82568359375 -23.14404296875
7.1259765625 -12.51220703125 -2.214111328125
3.6240234375 -39.7978515625 -37.85546875
7.73974609375 -29.38330078125 -38.517333984375
5.708251953125 -16.404052734375 -3.4619140625
9.551513671875 -14.313720703125 -50.801513671875
5.509521484375 7.198974609375 -34.649658203125
2.579833984375 -22.18896484375 -40.45751953125
5.80078125 17.546142578125 -25.24755859375
9.212158203125 -22.250244140625 -17.239501953125
-21.023193359375 20.895751953125 6.323974609375
6.99755859375 -11.38037109375 -44.202880859375
6.982421875 19.805908203125 -20.816650390625
5.114990234375 -45.52099609375 -37.00048828125
0.080322265625 -23.70361328125 -36.14990234375
-12.876708984375 20.370849609375 10.39990234375
-0.418212890625 -7.564697265625 -34.73291015625
7.956787109375 -26.676513671875 -38.742431640625
12.2431640625 11.12646484375 0.40380859375
7.44775390625 -12.589599609375 -47.851806640625
3.5341796875 -2.343017578125 -31.157958984375
4.830810546875 12.741943359375 -37.082275390625
5.57568359375 10.3896484375 -36.276611328125
4.48828125 1.0439453125 -26.203857421875
-2.39990234375 -23.4384765625 -30.53466796875
-1.572021484375 22.42431640625 15.436279296875
8.6259765625 -10.67138671875 -46.90625
-1.86962890625 -21.53076171875 -34.849365234375
10.108154296875 11.466064453125 0.314208984375
-0.189697265625 -23.633544921875 -25.76025390625
13.634765625 -26.739501953125 -38.684814453125
12.35009765625 -32.53857421875 -37.805908203125
2.056640625 -30.635009765625 -38.01123046875
-1.4130859375 -43.24462890625 -35.35400390625
-0.309326171875 -22.200439453125 -39.1884765625
13.56103515625 18.611328125 12.945556640625
-4.9814453125 -19.68408203125 -24.14892578125
-1.283935546875 -7.75439453125 -27.375732421875
13.855224609375 -26.35986328125 -52.047119140625
-14.215087890625 19.781005859375 4.5634765625
7.99365234375 23.083740234375 -22.9443359375
-1.115478515625 -35.467041015625 -35.720703125
1.182373046875 -11.774658203125 -37.5791015625
6.21435546875 0.726806640625 -20.673828125
-1.138916015625 -7.40771484375 -32.765869140625
3.60986328125 -20.397705078125 -40.473876953125
4.53857421875 -48.720947265625 -35.305419921875
1.934814453125 -40.955810546875 -37.6171875
9.29345703125 -1.90625 -6.72216796875
-1.71435546875 -13.769775390625 -27.09326171875
11.243408203125 -24.4287109375 -15.72412109375
15.936767578125 11.649658203125 2.529296875
8.03125 3.917724609375 -21.399169921875
1.443115234375 5.674560546875 -10.119140625
8.604248046875 26.329833984375 -21.93408203125
0.67919921875 -15.5615234375 -37.72705078125
-8.109130859375 22.211181640625 14.12451171875
3.513916015625 21.30224609375 -29.375244140625
4.953125 17.953369140625 -27.008544921875
4.367431640625 -43.72412109375 -37.884521484375
0.015625 -0.62841796875 -23.24365234375
4.858154296875 13.802734375 -34.518798828125
10.958251953125 -25.78076171875 -40.707275390625
-11.04248046875 21.473388671875 12.239013671875
-2.53076171875 -10.842041015625 -20.34912109375
17.005126953125 5.001953125 2.021240234375
11.8115234375 2.402099609375 -39.0712890625
11.5224609375 -1.659912109375 -4.005126953125
-1.8896484375 -13.970703125 -31.37158203125
4.719482421875 -23.8818359375 -18.11962890625
10.228515625 20.3388671875 14.03955078125
17.92626953125 11.4072265625 7.552001953125
7.07373046875 9.69970703125 -38.012939453125
-0.540283203125 -26.11767578125 -33.362548828125
-1.2578125 4.1669921875 -13.3544921875
4.63623046875 -11.184814453125 -10.937744140625
-19.518798828125 21.680908203125 13.3017578125
-22.3681640625 20.67919921875 14.812744140625
7.20751953125 -12.071533203125 -4.47802734375
9.889404296875 14.419189453125 4.869384765625
-1.25390625 -10.55859375 -31.673583984375
18.06787109375 0.845703125 4.083984375
7.0146484375 -9.6318359375 -45.654052734375
7.6875 8.697509765625 -25.265869140625
1.49365234375 23.69384765625 17.5205078125
-21.67138671875 21.7509765625 10.579345703125
2.3486328125 18.946044921875 10.765869140625
9.51904296875 -9.932373046875 0.219970703125
7.629638671875 10.9765625 -25.74755859375
15.70849609375 7.1337890625 -0.153076171875
7.666259765625 6.84228515625 -36.456787109375
-1.4921875 -11.481201171875 -28.775390625
0.54541015625 -44.093017578125 -36.775146484375
6.31884765625 -23.86376953125 -7.331787109375
-2.827392578125 -23.148193359375 -27.947021484375
7.684814453125 -14.325439453125 -51.2333984375
7.11083984375 11.331298828125 -0.363525390625
10.38525390625 11.249267578125 -19.525634765625
18.71923828125 2.61181640625 4.865234375
10.19140625 -24.42578125 -43.969970703125
-5.487548828125 14.886474609375 2.873291015625
3.8759765625 -27.215576171875 -38.169921875
0.47998046875 -13.76611328125 -16.14404296875
14.6064453125 -3.775634765625 0.09765625
5.835205078125 10.654296875 -33.296875
5.982421875 -16.3662109375 -7.620849609375
3.843017578125 17.9697265625 -33.677978515625
3.3837890625 -0.921875 -14.452392578125
12.893310546875 8.989990234375 -1.724853515625
-1.101318359375 -23.06787109375 -20.09619140625
2.64501953125 -24.31396484375 -39.06884765625
9.6875 10.50146484375 -17.65185546875
-8.512939453125 14.032958984375 -0.979736328125
4.645263671875 16.390380859375 -36.417724609375
10.748291015625 -5.301513671875 -4.316162109375
2.682373046875 -18.631103515625 -40.10693359375
6.9736328125 -11.82373046875 -8.39306640625
-4.201171875 -9.953857421875 -23.356201171875
-11.892822265625 17.091552734375 1.781494140625
-18.162109375 20.185546875 15.685546875
8.53515625 -9.27392578125 -43.031982421875
11.05517578125 3.6787109375 -5.43359375
5.779052734375 3.803466796875 -31.040283203125
8.532470703125 4.00634765625 -38.01318359375
4.79443359375 3.098388671875 -12.294921875
2.232177734375 -33.0400390625 -28.46337890625
2.88671875 -5.544921875 -36.323486328125
7.984130859375 -10.341796875 -5.08544921875
5.33837890625 19.328857421875 -31.71728515625
4.389404296875 -14.42138671875 -45.1787109375
9.38720703125 0.00146484375 -6.70703125
3.8681640625 -0.064453125 -35.598876953125
-0.909912109375 18.081787109375 8.71142578125
-3.86767578125 8.161865234375 -8.068359375
3.687744140625 -2.440185546875 -36.18994140625
6.698974609375 5.216796875 -30.27880859375
-0.01220703125 -5.035888671875 -32.140869140625
4.789794921875 25.1171875 20.285400390625
-4.513916015625 19.619384765625 10.537841796875
-4.047607421875 22.525390625 15.045166015625
2.095947265625 -14.289306640625 -13.98583984375
-1.15869140625 -9.935302734375 -27.334228515625
6.5166015625 17.609130859375 -22.013671875
1.220458984375 -36.58349609375 -37.473876953125
4.801513671875 15.157470703125 5.221435546875
-7.70947265625 19.80810546875 10.25244140625
8.47900390625 -6.934814453125 -6.89990234375
4.452392578125 0.7841796875 -32.812744140625
-1.343505859375 -11.573486328125 -18.953369140625
2.90576171875 -16.365478515625 -41.78466796875
1.11083984375 -27.908447265625 -29.26318359375
6.25927734375 -20.28125 -6.498779296875
-6.264892578125 16.497314453125 5.294189453125
4.196044921875 -0.508544921875 -27.161376953125
17.55615234375 -2.23828125 4.052001953125
12.7861328125 -25.08935546875 -50.95751953125
-20.568359375 21.773193359375 8.77294921875
5.7041015625 -17.814697265625 -5.72802734375
5.958740234375 13.240478515625 2.423095703125
-2.552734375 0.9443359375 -19.998046875
-3.6123046875 18.0576171875 8.172119140625
4.036865234375 -22.732177734375 -10.681396484375
9.715576171875 9.732666015625 -2.27978515625
5.814208984375 -44.799072265625 -49.390869140625
10.30322265625 15.6845703125 6.900634765625
8.268310546875 7.995849609375 -38.248046875
5.5615234375 11.994873046875 0.425537109375
-4.267333984375 20.818115234375 12.479248046875
-7.742919921875 11.514404296875 -3.11083984375
7.984130859375 -25.396240234375 -41.631103515625
5.95849609375 14.49609375 -31.958740234375
-3.32373046875 -19.676513671875 -19.56103515625
1.327880859375 -24.28759765625 -27.87939453125
0.184326171875 -27.558837890625 -35.577880859375
12.402587890625 9.029541015625 -18.50390625
13.860107421875 -0.2431640625 -39.086669921875
13.33935546875 13.77587890625 4.61279296875
2.48193359375 -11.63671875 -39.1845703125
-1.08447265625 25.316162109375 18.985595703125
4.279541015625 23.753173828125 -26.57421875
13.96435546875 12.068603515625 2.056640625
-4.445556640625 12.93017578125 0.036376953125
-2.51171875 -19.4521484375 -26.48486328125
1.801025390625 -22.037109375 -13.617431640625
-1.5439453125 -7.510009765625 -29.7685546875
7.146484375 7.861083984375 -27.608154296875
3.085693359375 13.658203125 2.422119140625
3.239990234375 -9.043701171875 -39.17724609375
-3.6259765625 -14.633544921875 -25.049560546875
1.09326171875 -27.444091796875 -26.875
10.984130859375 -26.3408203125 -51.16162109375
7.137451171875 -0.73974609375 -9.536376953125
8.538330078125 -17.846435546875 -49.734619140625
6.06884765625 -15.02734375 -48.548095703125
-16.47265625 -0.669189453125 -29.5146484375
8.343017578125 13.013427734375 -19.702392578125
-5.580322265625 12.272216796875 -1.241943359375
-2.826416015625 3.653076171875 -17.632568359375
4.097900390625 17.4287109375 -28.494873046875
-0.49267578125 -29.998291015625 -33.28857421875
-4.050048828125 -17.47265625 -24.072265625
-0.142822265625 -35.81201171875 -27.13671875
-2.31640625 -16.75830078125 -28.536865234375
0.7197265625 -33.23828125 -24.25927734375
3.480712890625 -0.0458984375 -29.757568359375
2.104736328125 -18.7587890625 -13.146728515625
3.986083984375 -33.65771484375 -39.044921875
-13.3525390625 21.754150390625 13.953857421875
5.83642578125 -4.64892578125 -10.667724609375
6.89990234375 16.048828125 -29.2802734375
6.75244140625 14.202880859375 4.083251953125
-1.45751953125 -23.47216796875 -32.337158203125
3.5302734375 -15.81787109375 -12.15380859375
1.959228515625 7.9619140625 -6.4052734375
16.73583984375 14.67333984375 7.688720703125
7.3251953125 23.417236328125 18.24609375
1.14453125 -33.19287109375 -37.673583984375
-1.354736328125 9.626220703125 -4.416015625
6.76611328125 20.950439453125 -24.0244140625
-2.3388671875 6.06689453125 -10.14013671875
-1.335205078125 21.49560546875 13.82763671875
5.500244140625 20.25537109375 13.375
-2.25341796875 -39.79248046875 -34.119140625
5.386962890625 -32.167236328125 -38.47509765625
5.255615234375 -3.5009765625 -37.02099609375
-0.50439453125 -13.40673828125 -35.12255859375
2.508056640625 -4.134033203125 -15.184814453125
-2.98291015625 -21.56982421875 -32.6982421875
4.8310546875 22.497802734375 16.591796875
12.232177734375 7.576416015625 -17.47314453125
-0.328369140625 -10.20166015625 -34.79833984375
6.362548828125 -11.917724609375 -0.553466796875
2.671142578125 -8.1279296875 -14.128173828125
-16.17919921875 25.692138671875 -5.277099609375
7.936767578125 11.7392578125 -22.5771484375
8.3369140625 -4.80419921875 -40.3828125
7.21826171875 8.35546875 -4.931396484375
5.150146484375 -40.83935546875 -37.760009765625
16.639404296875 12.549072265625 4.121337890625
-1.7001953125 -15.274169921875 -33.849853515625
7.2587890625 -22.281982421875 -44.5
-22.82470703125 20.29931640625 5.12890625
0.5224609375 -6.2265625 -35.3505859375
-0.597412109375 -16.103271484375 -17.26708984375
-12.55810546875 19.7001953125 4.01513671875
8.26171875 5.96435546875 -7.36669921875
9.308349609375 8.499267578125 -4.2607421875
7.74169921875 -9.0498046875 -3.94091796875
5.130615234375 -19.056884765625 -9.20654296875
-3.240234375 -21.163818359375 -28.6298828125
5.668212890625 -21.228759765625 -42.349365234375
-2.3212890625 -3.1240234375 -22.212890625
0.936767578125 -31.011962890625 -27.7646484375
2.64111328125 -48.254150390625 -36.62158203125
0.44384765625 -13.443115234375 -36.935791015625
-1.3984375 -10.888671875 -25.3544921875
5.491455078125 -14.3818359375 -9.802734375
-2.3662109375 -8.52197265625 -20.662841796875
-13.35107421875 19.437255859375 6.930419921875
10.95751953125 8.205078125 -20.860595703125
4.860107421875 2.982666015625 -28.40478515625
7.587890625 13.61279296875 -28.984375
6.833740234375 14.90576171875 -22.9208984375
3.70703125 -11.215087890625 -12.39697265625
-3.1708984375 5.574951171875 -11.661865234375
4.013427734375 1.267578125 -13.612060546875
3.082275390625 -0.100341796875 -25.7666015625
16.558837890625 3.352783203125 1.880615234375
-15.49365234375 32.112548828125 -7.69677734375
-7.231201171875 21.142578125 12.359619140625
-2.36669921875 -15.9404296875 -30.217529296875
-0.783935546875 -23.32373046875 -18.12451171875
6.05322265625 8.9453125 -32.61474609375
5.376220703125 -22.539794921875 -9.431640625
18.75732421875 4.517578125 4.348388671875
9.530517578125 8.84033203125 -21.925537109375
9.66845703125 17.40380859375 9.472900390625
1.54052734375 -10.98095703125 -15.39794921875
12.380615234375 -25.595458984375 -42.243408203125
5.664794921875 -23.415771484375 -42.355224609375
6.18994140625 5.9892578125 -27.55224609375
-18.172607421875 -1.121826171875 -30.048583984375
-0.326904296875 7.690673828125 -7.2236328125
6.7919921875 3.16015625 -25.0380859375
15.197998046875 -26.938232421875 -40.6962890625
-1.871337890625 -18.4482421875 -34.175048828125
0.58837890625 -6.053955078125 -17.12109375
-3.39697265625 -22.47412109375 -24.8759765625
6.640380859375 4.61181640625 -33.2392578125
9.197265625 10.549560546875 -21.719970703125
0.42041015625 -25.18017578125 -29.924560546875
1.558349609375 -23.611572265625 -20.66845703125
2.411865234375 -23.60986328125 -17.88232421875
8.47412109375 -19.576171875 -46.966064453125
3.772216796875 7.971435546875 -5.90771484375
10.072021484375 -2.572265625 -39.543212890625
0.92333984375 11.41845703125 -1.275146484375
11.306396484375 12.26123046875 -17.869873046875
-1.852783203125 -13.1708984375 -19.126220703125
1.9716796875 -42.63525390625 -37.517822265625
0.387939453125 -40.35205078125 -36.92724609375
7.2919921875 -8.50634765625 -42.107421875
1.997802734375 -28.4951171875 -37.57861328125
-1.203369140625 -32.91357421875 -33.847412109375
9.483154296875 -25.985107421875 -38.749755859375
7.17138671875 1.156982421875 -21.97900390625
4.15185546875 -5.936767578125 -39.90771484375
3.48974609375 -45.788818359375 -37.436767578125
9.2197265625 -24.45068359375 -15.387939453125
-3.10302734375 -22.534423828125 -34.33642578125
2.371337890625 -25.482177734375 -22.99072265625
5.166748046875 -9.5576171875 -10.74560546875
2.2080078125 6.59619140625 -8.528076171875
11.4306640625 19.454345703125 12.97607421875
12.90185546875 13.012451171875 3.195068359375
0.73779296875 -17.214599609375 -15.4033203125
6.0537109375 -18.428466796875 -42.936279296875
6.25048828125 -18.447509765625 -48.251953125
-5.517822265625 -13.751708984375 -24.4541015625
1.480712890625 -8.500732421875 -37.191162109375
2.39892578125 -13.47412109375 -40.0673828125
-0.338623046875 -19.533935546875 -16.52734375
5.606689453125 18.009033203125 -23.34228515625
-0.773193359375 -23.980224609375 -29.815185546875
-16.034912109375 21.27294921875 -1.4462890625
5.856689453125 -18.58935546875 -46.22314453125
-16.138916015625 23.0126953125 -3.010986328125
9.50146484375 -20.849365234375 -46.731201171875
4.145751953125 20.380859375 -26.41748046875
-3.8740234375 -22.389892578125 -31.06201171875
1.080078125 22.907470703125 16.071533203125
-20.3154296875 22.080078125 11.459228515625
-4.015380859375 -21.01611328125 -25.327880859375
8.735595703125 5.58203125 -23.51953125
12.365234375 -1.43408203125 -39.12451171875
2.064453125 -17.1748046875 -40.55810546875
0.391357421875 -20.97802734375 -38.12353515625
6.166015625 -19.73388671875 -44.95703125
7.0693359375 -19.83203125 -2.584228515625
8.323486328125 -11.4736328125 -1.786376953125
-0.764404296875 -19.306884765625 -36.984130859375
5.9013671875 -26.309326171875 -39.230712890625
-5.486083984375 -18.16845703125 -24.527587890625
4.720703125 -1.9951171875 -24.87744140625
-1.624267578125 -22.765869140625 -36.8076171875
3.058349609375 -4.050537109375 -34.539306640625
1.41845703125 14.251220703125 3.12353515625
-2.25048828125 1.953369140625 -21.491943359375
0.74462890625 -32.832763671875 -27.8203125
1.9736328125 -15.42626953125 -39.32666015625
-0.935302734375 -16.286865234375 -35.962890625
-0.1865234375 -30.327392578125 -35.919921875
-11.5908203125 16.94921875 4.848388671875
-1.585205078125 -12.06982421875 -32.174072265625
-0.2177734375 -38.91455078125 -36.471435546875
5.792236328125 -17.68115234375 -1.318603515625
10.444091796875 1.26708984375 -39.03759765625
-0.864990234375 -41.7392578125 -35.63330078125
16.12353515625 8.330810546875 0.849365234375
6.2265625 6.114501953125 -36.383056640625
8.86572265625 -30.173095703125 -37.671630859375
-3.739013671875 -21.685791015625 -21.643310546875
-1.600830078125 -36.096923828125 -34.30810546875
18.247314453125 10.509033203125 5.00732421875
8.779296875 4.326416015625 -7.958251953125
-13.76806640625 27.920166015625 -6.31201171875
-15.872314453125 19.581298828125 8.468017578125
3.884033203125 -18.972900390625 -41.39697265625
9.392333984375 -19.19140625 -49.148681640625
1.037841796875 19.749267578125 11.72802734375
4.30859375 -12.8828125 0.00537109375
1.925537109375 -23.352783203125 -15.7412109375
-0.323974609375 24.21435546875 18.12744140625
1.92626953125 -0.32470703125 -16.03759765625
13.47802734375 4.518310546875 -2.46630859375
3.189453125 -21.805419921875 -11.86669921875
-24.576171875 21.836181640625 7.4365234375
-24.116943359375 22.659423828125 8.897705078125
-18.474853515625 21.695556640625 11.941162109375
24.085693359375 -49.6806640625 -25.040771484375
8.675537109375 22.092041015625 16.64453125
-1.881103515625 -13.008544921875 -28.854736328125
6.064208984375 -48.048095703125 -46.857421875
-0.33447265625 -6.9990234375 -18.299560546875
-1.56787109375 -10.21240234375 -29.91650390625
17.182373046875 -26.909912109375 -38.810546875
-11.41796875 22.375 14.744384765625
-7.482421875 13.209228515625 -0.12255859375
4.959716796875 -24.598876953125 -41.595458984375
-14.92626953125 21.015625 7.906494140625
1.2080078125 -21.93994140625 -39.730712890625
7.282470703125 17.8232421875 -25.8681640625
-2.765625 -19.2509765625 -31.6162109375
6.34130859375 -19.316650390625 -5.2626953125
-5.406494140625 9.33642578125 -5.73583984375
7.35888671875 11.190185546875 -38.961669921875
0.9794921875 -45.59375 -36.88427734375
-4.17578125 2.791259765625 -21.838134765625
5.507080078125 -2.079345703125 -11.6806640625
2.835693359375 -25.51220703125 -37.87255859375
5.68408203125 -0.134765625 -37.488525390625
-3.51416015625 -14.475830078125 -21.243408203125
4.73681640625 -37.60693359375 -38.168212890625
0.675048828125 -23.901123046875 -38.156982421875
5.30615234375 -16.239990234375 -47.359619140625
8.300537109375 -23.557861328125 -17.08251953125
1.779296875 -25.533447265625 -36.142578125
6.785400390625 -5.990478515625 -9.514404296875
-1.59130859375 -22.886474609375 -21.706787109375
19.016845703125 7.5068359375 4.20849609375
13.61279296875 1.77099609375 -2.0625
-0.42919921875 -29.127197265625 -34.8759765625
7.01025390625 15.891357421875 6.6259765625
-4.01513671875 8.618408203125 -6.5947265625
-1.148681640625 3.234375 -14.9423828125
-1.44970703125 -3.65185546875 -23.748779296875
5.919189453125 7.64013671875 -6.2861328125
13.906982421875 14.61181640625 6.12353515625
5.39599609375 4.675048828125 -27.2978515625
3.807861328125 -2.987060546875 -13.75244140625
3.77001953125 -30.733154296875 -38.525390625
5.06884765625 -7.794677734375 -11.338623046875
13.051025390625 0.078857421875 -2.27783203125
12.711181640625 5.51123046875 -3.62548828125
4.60302734375 -6.653076171875 -41.20654296875
15.46337890625 15.496826171875 8.1943359375
7.245361328125 5.24365234375 -24.82373046875
-9.248291015625 21.518310546875 12.789306640625
10.595703125 7.73095703125 -16.361328125
12.335205078125 -4.94384765625 -2.396240234375
0.48779296875 -4.302001953125 -17.71435546875
5.602294921875 -12.52685546875 -45.5615234375
0.79638671875 -10.1650390625 -36.9716796875
-3.510498046875 -21.53515625 -19.63134765625
1.0712890625 17.689208984375 8.734130859375
3.506591796875 -10.716796875 -39.85302734375
3.990966796875 -19.61328125 -10.4345703125
-1.1015625 -4.238525390625 -19.48095703125
1.049560546875 -9.88818359375 -16.349365234375
-0.60498046875 -13.864990234375 -17.217041015625
-0.2373046875 -0.105712890625 -18.076904296875
17.43359375 8.55517578125 2.106689453125
1.0087890625 -21.986572265625 -14.973876953125
5.437255859375 -13.099365234375 -47.561767578125
9.5322265625 5.138427734375 -21.310791015625
4.295654296875 -2.030029296875 -33.028076171875
7.90234375 16.4912109375 -21.07568359375
5.6044921875 -14.669921875 -5.021484375
10.41650390625 -23.018798828125 -44.4765625
13.12109375 17.27197265625 9.848876953125
-3.483642578125 -6.947998046875 -24.62060546875
-5.739501953125 -16.93603515625 -23.454345703125
5.55908203125 13.183837890625 -35.7041015625
7.23388671875 10.59814453125 -29.802490234375
4.747314453125 6.289794921875 -36.14404296875
-18.421630859375 21.426025390625 14.869873046875
16.777099609375 11.205810546875 4.873291015625
4.57421875 -18.679443359375 -42.80615234375
9.2509765625 1.307861328125 -7.44287109375
-13.65478515625 39.994140625 -13.0546875
-14.738037109375 39.533203125 -10.843505859375
-13.9140625 41.23291015625 -13.869384765625
-8.034423828125 18.05810546875 7.642333984375
-4.4638671875 16.529052734375 5.824462890625
4.453369140625 -17.9248046875 -45.865234375
0.82666015625 -23.55810546875 -23.362548828125
6.807373046875 13.876708984375 -24.58544921875
-4.954345703125 -19.1826171875 -22.170654296875
5.768310546875 -11.951904296875 -43.552490234375
13.71875 17.66748046875 11.789794921875
-16.40673828125 33.986083984375 -7.7451171875
-15.4443359375 34.372802734375 -10.027587890625
-11.032958984375 16.095947265625 1.041748046875
0.162109375 -33.949462890625 -27.0078125
1.22998046875 1.165771484375 -16.06201171875
4.346435546875 18.44384765625 -29.569580078125
7.614501953125 10.8857421875 -27.666015625
-3.84619140625 6.719482421875 -9.361328125
26.19921875 -48.813720703125 -26.088623046875
6.043212890625 -19.968017578125 -8.45166015625
3.12255859375 20.70556640625 -27.80810546875
7.72412109375 -10.520751953125 -7.19677734375
5.614990234375 4.052001953125 -34.329833984375
0.30419921875 -36.48583984375 -28.423828125
6.21630859375 11.818115234375 -32.395751953125
5.138427734375 6.709228515625 -7.89453125
-21.168212890625 20.11572265625 2.632080078125
4.08984375 16.645263671875 -34.76953125
9.0888671875 -17.468994140625 0.56640625
-2.53173828125 3.9501953125 -14.085205078125
7.06005859375 6.244140625 -32.2197265625
8.190185546875 5.03857421875 -30.51025390625
6.017578125 19.59814453125 -24.218017578125
6.9521484375 -21.76220703125 -6.476806640625
-19.66650390625 -1.914794921875 -30.5546875
-3.29296875 15.667724609375 4.78857421875
3.26904296875 -24.46142578125 -12.928466796875
6.811279296875 -4.6279296875 -39.71142578125
-1.757080078125 -5.492431640625 -20.114013671875
3.6396484375 17.082763671875 8.031494140625
8.067138671875 7.531982421875 -24.38037109375
1.119140625 -25.644287109375 -24.610595703125
4.23779296875 -14.1083984375 -11.36767578125
9.2802734375 25.798583984375 -20.745361328125
4.85498046875 -28.951904296875 -38.95654296875
-2.51416015625 -23.54736328125 -33.3505859375
1.317626953125 -7.025634765625 -16.013916015625
2.6474609375 -23.478515625 -41.14794921875
5.050048828125 -17.241455078125 -6.905517578125
3.725341796875 0.94970703125 -30.81640625
3.352783203125 -5.959228515625 -13.733642578125
3.967529296875 23.496337890625 -28.208740234375
9.17138671875 -5.770751953125 -41.094482421875
6.95751953125 -13.7294921875 -48.763916015625
12.2080078125 -21.785888671875 -46.07568359375
12.73193359375 -25.838623046875 -39.3955078125
10.384521484375 7.12548828125 -4.983642578125
15.1630859375 9.249755859375 0.053466796875
-2.537353515625 -4.607421875 -22.6630859375
7.704833984375 12.797607421875 -27.68310546875
15.183349609375 -26.91015625 -37.502685546875
6.240478515625 -14.124267578125 -50.978515625
6.226806640625 23.929443359375 -25.084228515625
0.579833984375 -26.0126953125 -31.85498046875
2.7109375 -2.7041015625 -29.793212890625
4.257568359375 -5.4833984375 -12.66357421875
18.60791015625 -2.17138671875 5.140869140625
4.426025390625 -11.191650390625 -40.86767578125
10.45947265625 -27.2841796875 -38.086181640625
-18.96435546875 21.2509765625 9.077392578125
1.699951171875 -1.831298828125 -16.504150390625
1.860107421875 -29.76953125 -31.119384765625
9.187744140625 -25.27001953125 -40.561279296875
4.058349609375 10.155029296875 -2.308837890625
-1.81298828125 -15.16064453125 -27.45703125
6.2265625 3.419677734375 -10.497314453125
0.970703125 -28.35693359375 -25.767333984375
7.7177734375 -1.89013671875 -38.703125
-5.21875 -20.6533203125 -23.114501953125
7.1494140625 -24.48583984375 -42.753662109375
-5.187255859375 -15.322998046875 -22.78955078125
8.612548828125 13.549072265625 -21.359619140625
6.506591796875 -17.37744140625 -2.77685546875
9.704345703125 -7.208740234375 -4.851318359375
1.4169921875 -32.91162109375 -22.89453125
-0.629638671875 -10.293701171875 -17.807861328125
-1.533447265625 13.06982421875 0.70751953125
-2.368408203125 -22.759765625 -19.306884765625
5.455078125 -10.26953125 -41.53955078125
15.536376953125 16.11279296875 10.39794921875
11.893310546875 8.720947265625 -19.79150390625
4.618408203125 -14.12109375 -0.611572265625
12.313232421875 15.78466796875 7.533447265625
19.912109375 5.6103515625 5.739013671875
9.353271484375 -23.0400390625 -42.7353515625
-12.826171875 17.1962890625 4.209228515625
10.2119140625 8.9072265625 -17.257080078125
14.71728515625 13.525146484375 4.80615234375
15.022705078125 -0.2880859375 0.176025390625
3.486572265625 22.227294921875 15.75732421875
0.655517578125 -31.1005859375 -24.720947265625
-1.345703125 1.177734375 -17.8935546875
15.62158203125 10.958740234375 1.201171875
0.419189453125 -24.393310546875 -34.766845703125
-3.063720703125 -20.111328125 -24.61962890625
-2.82470703125 -40.88671875 -33.312255859375
5.257568359375 17.459228515625 -30.739501953125
-2.4716796875 -18.15625 -28.471435546875
-2.881103515625 -19.264404296875 -29.849365234375
-1.12939453125 -0.698974609375 -21.977783203125
-2.0859375 -16.7607421875 -33.001953125
4.417724609375 4.0458984375 -30.7353515625
0.33056640625 -11.14599609375 -16.5537109375
-12.214111328125 22.335205078125 13.275390625
2.26220703125 -39.54052734375 -38.039306640625
8.536865234375 2.6259765625 -38.29541015625
1.087158203125 -14.798828125 -15.118896484375
7.695068359375 -9.71630859375 -44.436767578125
17.018310546875 13.806884765625 6.630615234375
1.447021484375 -18.747314453125 -38.93212890625
0.198486328125 -18.376708984375 -15.966552734375
7.8857421875 23.12451171875 -21.071044921875
-12.62890625 19.744384765625 5.45654296875
12.324462890625 -2.162109375 -2.715087890625
3.851806640625 0.43603515625 -34.11328125
-1.79248046875 -2.797119140625 -20.4541015625
6.71044921875 -30.28125 -38.767578125
-14.512939453125 22.56005859375 13.9853515625
-3.8408203125 14.298828125 2.17724609375
3.49169921875 -1.4169921875 -30.04931640625
4.638671875 -20.813232421875 -41.411376953125
1.3623046875 -28.2490234375 -30.580810546875
-1.449951171875 -16.9716796875 -17.926025390625
3.353271484375 -17.0634765625 -43.067138671875
12.33935546875 12.184326171875 1.697998046875
0.016845703125 -23.79345703125 -39.36669921875
-11.956298828125 17.781982421875 6.322998046875
5.0849609375 15.291748046875 -35.031005859375
7.68603515625 16.798095703125 8.2216796875
3.733642578125 -14.25439453125 -43.655517578125
-1.456787109375 -20.9677734375 -17.46533203125
-22.26416015625 21.13134765625 13.513916015625
4.03759765625 9.126953125 -4.0302734375
1.903564453125 2.48876953125 -14.447998046875
-17.78125 20.897216796875 8.197265625
5.759521484375 -16.410888671875 -4.877685546875
1.05419921875 9.971435546875 -3.50341796875
-1.1552734375 -6.061279296875 -32.481201171875
-3.0390625 -9.420654296875 -24.484375
9.60400390625 13.2294921875 2.935302734375
2.29736328125 -46.295654296875 -36.812744140625
8.513916015625 -13.0673828125 -51.94140625
7.637939453125 8.730224609375 -23.862548828125
5.2548828125 8.416259765625 -35.4501953125
12.526611328125 10.27490234375 -0.6328125
9.73974609375 7.069580078125 -22.20751953125
-0.512939453125 -31.76220703125 -35.498046875
4.624755859375 2.272216796875 -31.944091796875
9.36328125 -3.25830078125 -6.51953125
2.531005859375 -33.86572265625 -38.02001953125
-11.467041015625 18.889404296875 4.4287109375
11.97998046875 -0.485107421875 -3.4794921875
-22.277587890625 22.4482421875 11.8837890625
8.084716796875 -48.078369140625 -35.601806640625
-14.259765625 29.012451171875 -7.284912109375
6.141357421875 5.295166015625 -9.140380859375
17.875 2.16455078125 3.799560546875
-8.496826171875 14.67236328125 2.111083984375
-2.338134765625 14.131591796875 1.991943359375
9.256103515625 -48.00927734375 -36.3427734375
3.489013671875 -23.886962890625 -11.255859375
18.37109375 10.032958984375 3.463134765625
0.96240234375 -26.781494140625 -36.372802734375
2.0751953125 -23.685546875 -13.390380859375
-2.760009765625 -6.98291015625 -22.853271484375
7.428466796875 21.85302734375 -22.53857421875
-20.521728515625 21.1748046875 14.060302734375
-5.72900390625 11.665771484375 -2.4443359375
4.519775390625 16.95458984375 -33.08935546875
7.556884765625 0.86474609375 -9.41943359375
5.813232421875 -13.60498046875 -2.72119140625
0.41796875 -7.662109375 -36.62646484375
7.96533203125 -15.90625 -49.170166015625
3.75732421875 -15.470947265625 -1.90576171875
5.967529296875 5.62646484375 -33.82373046875
4.755615234375 -8.362548828125 -41.030029296875
5.588623046875 -16.134033203125 -9.212646484375
-3.094970703125 3.005859375 -18.8681640625
6.412841796875 -12.474609375 -5.491455078125
11.432861328125 -19.978271484375 -47.886962890625
0.636474609375 -16.900634765625 -37.580322265625
0.981689453125 -4.57080078125 -32.92333984375
-2.46044921875 -20.436767578125 -32.178955078125
14.587158203125 -25.908203125 -41.690673828125
12.93115234375 6.1552734375 -39.626220703125
8.551025390625 24.873291015625 -21.7958984375
-0.085693359375 5.32373046875 -11.021484375
11.596435546875 5.490478515625 -39.473388671875
0.26220703125 -24.326416015625 -27.0625
13.87548828125 7.094482421875 -2.1357421875
-0.097900390625 4.321044921875 -12.69921875
2.744873046875 -9.45068359375 -13.92333984375
6.128662109375 -13.328125 -52.216796875
-2.635498046875 5.72021484375 -14.6796875
3.708740234375 20.009765625 -29.08154296875
-7.33642578125 13.818603515625 1.08447265625
-3.189697265625 12.62744140625 -0.317626953125
4.882080078125 11.050537109375 -34.150390625
16.327880859375 -1.47705078125 2.080322265625
-3.554931640625 -4.712890625 -24.15185546875
4.59521484375 -2.5654296875 -12.75830078125
9.0947265625 21.286865234375 15.664306640625
8.033203125 -8.084716796875 -7.413330078125
7.836181640625 -7.359375 -42.522216796875
9.96435546875 -2.469482421875 -5.524169921875
12.21923828125 2.4404296875 -3.635009765625
0.03271484375 -28.88623046875 -32.7724609375
13.589111328125 -2.90380859375 -1.227783203125
-1.277099609375 2.1787109375 -16.6796875
8.969970703125 -21.94677734375 -45.406982421875
-0.67333984375 -23.3603515625 -22.719482421875
-3.302978515625 -17.0224609375 -20.326171875
8.351806640625 -3.32177734375 -7.562255859375
1.416748046875 -31.781005859375 -37.68017578125
-1.344482421875 -8.426025390625 -19.16357421875
7.256103515625 14.48583984375 -26.59912109375
-0.185302734375 -25.06787109375 -32.493896484375
-1.98876953125 -12.07275390625 -25.465087890625
10.16015625 -25.252685546875 -39.6259765625
6.806396484375 8.068359375 -29.615478515625
-2.374267578125 -16.728759765625 -26.2568359375
6.86474609375 20.62548828125 -22.134033203125
3.032470703125 -14.40625 -0.11669921875
-16.6728515625 19.66357421875 1.189208984375
4.162109375 -8.265380859375 -12.412109375
10.005859375 4.0419921875 -6.884033203125
4.405029296875 -0.600341796875 -32.66796875
17.144775390625 10.81884765625 2.48828125
0.780517578125 21.178466796875 13.94970703125
7.12744140625 15.83642578125 -26.373291015625
7.051513671875 -13.125732421875 -7.221923828125
-4.4375 -10.98974609375 -24.180908203125
8.57666015625 -15.208740234375 -50.5390625
2.11279296875 -23.7763671875 -19.48095703125
3.45751953125 -14.50341796875 -12.356689453125
4.39892578125 19.093994140625 -26.5673828125
11.44287109375 -25.15576171875 -43.061279296875
11.93701171875 17.6494140625 10.29150390625
1.691650390625 -5.658203125 -35.563720703125
0.11962890625 -33.638671875 -36.489501953125
12.809326171875 16.56640625 8.4990234375
2.610595703125 -3.260498046875 -31.357421875
9.43701171875 6.723388671875 -38.87109375
-2.4833984375 -22.908935546875 -24.033447265625
12.44921875 -27.26904296875 -38.467041015625
11.03369140625 9.72119140625 -19.05224609375
10.19384765625 19.26123046875 12.23681640625
-2.8212890625 4.767333984375 -13.095947265625
-19.298095703125 19.997314453125 14.964599609375
-15.2353515625 30.87890625 -6.885498046875
-14.51318359375 28.051025390625 -5.23681640625
8.48583984375 4.570068359375 -22.446044921875
5.894775390625 -11.45166015625 -9.366943359375
-1.14892578125 -17.697021484375 -35.466064453125
13.090576171875 -23.1015625 -43.65576171875
6.860595703125 3.19921875 -37.142578125
-1.6748046875 -6.032470703125 -23.936767578125
4.542724609375 20.330810546875 -31.42822265625
-2.636474609375 -17.417724609375 -31.142822265625
5.64404296875 15.714111328125 -32.326904296875
-0.400390625 -1.59326171875 -18.97607421875
-15.396728515625 22.882568359375 -4.081787109375
-7.8876953125 10.912109375 -4.304931640625
0.276611328125 -23.39453125 -24.5390625
