-17.174560546875 14.52734375 36.0706787109375
53.603515625 -18.648193359375 60.435791015625
65.619140625 -33.685791015625 -109.1107177734375
18.252685546875 124.715087890625 -46.4990234375
6.0009765625 -58.9365234375 52.3231201171875
-19.030517578125 -95.174072265625 16.0235595703125
67.58935546875 103.603759765625 -40.4290771484375
27.499755859375 30.80078125 71.884765625
-60.057861328125 6.241943359375 59.123779296875
-38.175537109375 -57.086669921875 47.442626953125
23.3369140625 -2.391357421875 -137.579345703125
70.81201171875 -41.12646484375 -112.7777099609375
61.650634765625 -38.810791015625 -109.7052001953125
7.17724609375 71.62353515625 -58.0506591796875
-18.298095703125 21.10498046875 36.8802490234375
-18.3203125 -29.6552734375 48.1734619140625
19.82763671875 16.8916015625 -81.8267822265625
57.90576171875 -45.1396484375 54.469482421875
30.80517578125 -73.57080078125 50.9034423828125
49.313232421875 1.501220703125 -113.4683837890625
38.051025390625 -28.654541015625 57.83056640625
10.9462890625 -43.86572265625 55.34912109375
12.359375 8.75341796875 67.6661376953125
-47.85595703125 34.46044921875 66.520263671875
-49.105224609375 -60.798583984375 45.9788818359375
-24.853759765625 56.81787109375 73.6893310546875
-19.658447265625 87.53955078125 58.475830078125
33.802978515625 117.963134765625 -46.4649658203125
34.3671875 112.01220703125 -50.806884765625
62.46875 113.195556640625 -37.51708984375
21.930419921875 8.6787109375 66.944091796875
36.033203125 44.95068359375 74.331298828125
-34.35986328125 -19.340087890625 54.33251953125
-19.265625 44.4365234375 7.297607421875
-18.67724609375 -10.18994140625 54.008544921875
-6.98046875 -48.873291015625 22.9534912109375
22.04248046875 -2.40673828125 -121.6258544921875
15.54248046875 52.08251953125 79.0712890625
-14.1611328125 -44.36865234375 22.8917236328125
14.226806640625 16.392578125 68.8399658203125
-53.516845703125 -76.0634765625 43.1888427734375
27.1552734375 -8.43603515625 -83.920654296875
11.736572265625 -4.688232421875 63.41796875
34.742919921875 -6.129638671875 63.4095458984375
-63.14892578125 -26.046875 52.4952392578125
-42.98583984375 -10.5537109375 56.5111083984375
-20.646240234375 67.48828125 76.725341796875
-63.67919921875 45.32177734375 69.8074951171875
-20.290771484375 30.127685546875 9.1185302734375
-52.335205078125 -88.660400390625 41.7569580078125
40.11572265625 -37.08544921875 -106.8763427734375
65.01171875 -49.19580078125 -100.1451416015625
42.06591796875 -5.57421875 -115.5391845703125
-10.494873046875 -69.117431640625 19.12353515625
9.656005859375 118.50341796875 -63.2708740234375
-22.263427734375 -6.932861328125 57.367919921875
27.45751953125 0.48486328125 63.792236328125
-56.56787109375 10.29150390625 60.0966796875
30.16455078125 -7.49609375 -104.388916015625
-1.41162109375 24.058837890625 44.060546875
14.64306640625 -39.115966796875 56.349853515625
3.788330078125 124.702880859375 -58.486083984375
33.132568359375 13.848876953125 67.890869140625
-11.605224609375 -59.12353515625 20.6346435546875
-64.66796875 -1.282470703125 58.16357421875
35.5546875 39.448486328125 73.8341064453125
22.822998046875 28.82861328125 -79.6905517578125
-6.688720703125 -38.7412109375 25.1470947265625
43.31982421875 -7.499755859375 -84.812744140625
-1.23583984375 -93.26416015625 21.2725830078125
20.728271484375 -27.5478515625 58.71533203125
33.738525390625 -39.457763671875 56.15185546875
-32.71044921875 -90.636962890625 42.37060546875
-2.987060546875 -61.983154296875 23.1962890625
12.509033203125 -60.765869140625 52.85205078125
18.197021484375 4.374755859375 -83.206787109375
46.765625 -2.2939453125 -109.643310546875
66.625 -3.5234375 -52.7490234375
33.923828125 -5.30224609375 -124.343994140625
40.589599609375 -49.829345703125 -95.724365234375
-45.820556640625 66.67724609375 75.97216796875
24.957763671875 102.999267578125 -50.206787109375
-14.616455078125 39.188232421875 49.4801025390625
-2.829833984375 -84.766845703125 21.1717529296875
-22.671875 24.25146484375 64.120361328125
23.384521484375 -0.68896484375 -102.1395263671875
62.784912109375 -7.193359375 -54.8402099609375
57.943603515625 -61.009033203125 -40.0311279296875
53.550537109375 -6.351318359375 -51.8389892578125
24.0654296875 -61.937255859375 -99.3414306640625
-22.63720703125 -93.6845703125 24.4537353515625
34.851318359375 -8.24755859375 -109.0943603515625
-35.3525390625 -28.468505859375 52.7374267578125
22.23193359375 71.249267578125 83.7271728515625
-38.00146484375 68.880126953125 77.100830078125
-49.87841796875 -11.272216796875 55.70556640625
54.232177734375 -47.4677734375 57.3797607421875
7.6181640625 62.958984375 78.3541259765625
-53.551513671875 43.697998046875 68.9052734375
29.03369140625 101.61474609375 -54.27099609375
-3.077880859375 14.015869140625 38.5350341796875
20.939453125 46.5595703125 -70.6273193359375
11.161865234375 88.225830078125 64.6298828125
-61.044677734375 49.572509765625 70.8060302734375
11.796142578125 78.17041015625 71.25537109375
-2.9521484375 53.25732421875 47.7589111328125
21.37646484375 -9.855712890625 -90.4847412109375
50.445068359375 74.288330078125 -57.60546875
26.23095703125 -54.698974609375 53.628662109375
18.958984375 -5.228759765625 -88.6231689453125
30.359619140625 -63.627685546875 52.27978515625
-55.79345703125 -66.826904296875 45.0029296875
10.908447265625 -24.50244140625 59.6788330078125
-10.673095703125 -79.495849609375 17.4896240234375
-61.9755859375 -52.122314453125 47.1663818359375
26.162353515625 -24.23583984375 -90.0953369140625
58.13134765625 127.696533203125 -32.717529296875
-41.892333984375 -4.28955078125 57.5950927734375
-29.947021484375 -50.806396484375 48.5980224609375
-59.1298828125 68.394775390625 76.3570556640625
-30.758544921875 40.972412109375 69.28955078125
29.631103515625 -30.4970703125 -96.0361328125
-58.896484375 -58.9853515625 46.3707275390625
61.520751953125 -44.096435546875 -42.8145751953125
-65.335693359375 -61.36962890625 45.5255126953125
11.316650390625 -83.3173828125 52.5045166015625
-0.548828125 41.343017578125 44.36376953125
27.54541015625 -2.09423828125 -83.6217041015625
-35.052978515625 54.09521484375 72.923828125
29.5087890625 60.75244140625 -65.525390625
-26.264892578125 75.04296875 79.1082763671875
-39.468505859375 41.255126953125 69.1005859375
17.16650390625 -21.041259765625 -91.4732666015625
-8.66748046875 29.711669921875 39.3712158203125
11.16162109375 62.85205078125 -60.57177734375
-21.87744140625 23.09716796875 33.7484130859375
17.209716796875 47.901611328125 -52.9757080078125
-10.9814453125 -28.20458984375 26.0413818359375
-2.232666015625 -31.266357421875 27.826416015625
57.276123046875 -29.51953125 59.1744384765625
68.02490234375 81.329345703125 -85.9481201171875
-4.58349609375 -22.539306640625 29.581298828125
35.70361328125 -8.023681640625 -89.789306640625
34.247314453125 -30.823486328125 -101.1510009765625
32.09033203125 -22.67138671875 59.7060546875
13.1640625 83.15087890625 -58.66796875
-23.879638671875 71.790283203125 14.0211181640625
54.271484375 -64.296630859375 51.82080078125
20.232421875 -58.47900390625 52.87255859375
-42.547119140625 -39.884033203125 50.5753173828125
-11.261474609375 -14.3720703125 28.6824951171875
21.26220703125 -74.06396484375 50.9122314453125
19.331787109375 83.064453125 68.526611328125
35.255615234375 77.5556640625 -56.5662841796875
-8.421142578125 46.344970703125 43.2156982421875
-22.9033203125 -46.497802734375 49.3260498046875
66.085693359375 -29.86083984375 -106.1434326171875
15.805419921875 65.341552734375 83.90625
32.56787109375 7.273193359375 66.5657958984375
-38.126953125 -67.99755859375 45.5013427734375
18.430419921875 22.101806640625 -75.5792236328125
30.0341796875 111.742919921875 -52.98974609375
24.628173828125 -4.843994140625 63.3236083984375
13.659423828125 54.3583984375 -61.571533203125
8.261474609375 110.97802734375 -59.3377685546875
-0.099853515625 32.75634765625 41.660888671875
-63.698974609375 54.133544921875 72.2689208984375
23.207275390625 94.631591796875 -50.944580078125
32.570556640625 -44.76806640625 -98.544677734375
-47.127685546875 -80.461181640625 43.8924560546875
52.635986328125 -72.61083984375 50.1015625
58.115966796875 -12.840087890625 59.1141357421875
32.2392578125 -55.30908203125 53.5791015625
6.430419921875 21.831298828125 50.0238037109375
52.8017578125 -44.64501953125 -109.2689208984375
-67.582275390625 62.9228515625 75.1673583984375
4.396484375 116.03125 -52.5931396484375
54.391357421875 116.322265625 -28.662109375
21.010498046875 9.019775390625 -84.648681640625
-39.385498046875 2.947021484375 59.6478271484375
17.52490234375 -14.64404296875 61.9068603515625
18.982177734375 42.21044921875 -60.5872802734375
-49.345703125 16.142333984375 62.4879150390625
-20.78662109375 76.98583984375 80.017333984375
-29.712890625 -20.49267578125 54.2813720703125
25.14892578125 125.365966796875 -50.0203857421875
-51.79052734375 -27.32958984375 52.0975341796875
9.143310546875 53.064208984375 80.1461181640625
-20.07421875 -21.011962890625 53.6634521484375
-6.847900390625 -53.9404296875 22.413330078125
-6.260009765625 82.755859375 53.5791015625
15.69775390625 21.137939453125 51.756103515625
-55.7705078125 59.422607421875 73.3052978515625
13.869873046875 88.262451171875 -58.971923828125
23.73388671875 39.7646484375 -76.07666015625
31.455078125 58.083984375 78.8414306640625
54.162353515625 -37.4208984375 57.439453125
-52.609375 -37.456298828125 49.75439453125
6.266357421875 -42.279541015625 55.24267578125
-18.639892578125 -2.4169921875 32.057861328125
-22.93701171875 27.29541015625 18.283203125
31.3310546875 70.85546875 -59.6673583984375
16.911376953125 45.91064453125 -62.8206787109375
40.65380859375 -8.0341796875 -102.9066162109375
-19.238525390625 28.1572265625 14.8197021484375
-0.950927734375 61.250244140625 46.687744140625
6.602783203125 -68.424072265625 50.97705078125
-56.0771484375 76.13671875 78.7618408203125
-62.02099609375 -91.85791015625 41.2620849609375
-30.512451171875 2.42236328125 59.16845703125
-28.8515625 82.0068359375 75.642822265625
56.8759765625 8.8525390625 66.2247314453125
4.282470703125 34.217529296875 47.2076416015625
37.85205078125 29.913330078125 71.6151123046875
61.596435546875 3.225830078125 -56.8175048828125
3.337890625 54.59033203125 65.111572265625
4.990966796875 111.414306640625 -52.2086181640625
29.1552734375 38.559326171875 74.16943359375
-19.41064453125 -83.337158203125 17.7572021484375
25.16552734375 4.2861328125 65.1739501953125
29.023681640625 -4.923828125 -128.7750244140625
42.405517578125 -1.416015625 -122.483154296875
62.5048828125 -12.095947265625 -54.0736083984375
20.81103515625 -2.697265625 -128.2623291015625
15.823974609375 49.499267578125 -58.90087890625
37.78173828125 65.53173828125 81.2982177734375
20.295166015625 28.602294921875 -61.34521484375
36.628662109375 -8.6015625 -98.5262451171875
17.8515625 41.15478515625 -54.8907470703125
57.27587890625 -4.080078125 -49.9976806640625
-33.548095703125 26.340576171875 46.0738525390625
23.061767578125 -15.660888671875 60.588134765625
-55.906494140625 -1.992919921875 57.12109375
-33.296630859375 -11.0078125 56.0797119140625
24.814453125 50.4921875 -71.5677490234375
52.084716796875 123.938232421875 -30.9918212890625
16.77001953125 -37.806396484375 -95.238037109375
0.1533203125 19.73828125 44.167236328125
-39.565185546875 -46.060546875 49.4449462890625
-15.3916015625 -90.645751953125 16.56494140625
29.59033203125 83.739501953125 -54.5484619140625
8.33544921875 25.993896484375 47.2938232421875
-50.941650390625 -17.68359375 53.8961181640625
19.97314453125 52.56982421875 -63.6573486328125
17.946533203125 2.16259765625 64.805908203125
-39.701904296875 34.985107421875 67.6036376953125
-11.591064453125 -40.283203125 23.987548828125
-48.63671875 -44.406982421875 48.9791259765625
-33.467041015625 -62.95556640625 46.5982666015625
-65.68212890625 7.71337890625 60.27099609375
-5.78564453125 -76.409912109375 20.44580078125
13.7802734375 108.6611328125 -62.6409912109375
23.898681640625 -40.347900390625 -95.0792236328125
36.67724609375 -6.7529296875 -118.1939697265625
33.30126953125 104.368896484375 -54.507568359375
-32.3759765625 80.89404296875 81.26513671875
5.646240234375 95.9130859375 -59.0634765625
18.416748046875 -49.227294921875 54.8004150390625
-42.68896484375 49.748779296875 71.48046875
37.927734375 -37.772705078125 56.1607666015625
-20.09765625 18.044677734375 51.9337158203125
-1.306884765625 38.4365234375 40.9962158203125
9.172607421875 68.78857421875 84.3485107421875
-26.181640625 -55.91259765625 47.57568359375
53.444091796875 -26.345458984375 59.202880859375
-43.682373046875 75.779541015625 79.2330322265625
-55.418701171875 33.053955078125 65.697265625
-14.802490234375 31.127197265625 39.11572265625
-36.2705078125 76.45751953125 79.3355712890625
-41.188720703125 12.481689453125 61.7696533203125
-21.3642578125 85.467041015625 17.685546875
-29.075439453125 -83.08642578125 43.8912353515625
12.25048828125 4.619384765625 65.853759765625
30.115234375 -32.010986328125 57.924560546875
18.803955078125 66.510498046875 -59.388916015625
27.353515625 -5.42333984375 -116.912841796875
-9.7451171875 -64.033447265625 20.007080078125
53.497314453125 -13.53955078125 62.7314453125
15.970458984375 -21.83056640625 59.420166015625
-34.89697265625 64.27734375 75.7236328125
3.603759765625 79.06591796875 69.9456787109375
-62.440185546875 -37.46484375 50.224365234375
-45.6044921875 -50.8544921875 48.374267578125
41.31396484375 68.72509765625 -58.4697265625
19.3837890625 42.162109375 75.948486328125
52.450927734375 -81.589111328125 48.6864013671875
53.215576171875 -32.130615234375 -106.53173828125
-21.661865234375 -70.319091796875 45.271728515625
-21.629150390625 4.29931640625 59.9603271484375
-25.579345703125 80.076904296875 65.737548828125
4.73291015625 80.87939453125 -56.031982421875
8.166015625 -33.850341796875 57.8612060546875
-19.17919921875 -93.514892578125 20.1484375
-14.84130859375 -32.25244140625 25.6417236328125
10.43798828125 -29.205078125 58.5284423828125
58.3505859375 116.9599609375 -9.70068359375
51.536865234375 -0.6279296875 -103.76416015625
30.048583984375 77.712646484375 -57.064453125
-32.85107421875 -34.339599609375 51.5006103515625
21.28466796875 77.793701171875 -56.13134765625
-42.28515625 -90.270751953125 42.1666259765625
-54.615234375 -49.155029296875 48.0919189453125
-38.961181640625 27.53564453125 65.317626953125
-21.1181640625 -15.85107421875 55.0277099609375
16.72509765625 -14.510498046875 -89.0137939453125
-44.857177734375 43.73388671875 69.8941650390625
-3.45703125 -57.734619140625 24.2711181640625
-26.75439453125 -63.957275390625 46.5592041015625
24.700439453125 64.20947265625 82.0042724609375
65.1259765625 101.54150390625 -37.3714599609375
-29.752197265625 7.875 60.482177734375
13.74755859375 75.888671875 86.0257568359375
-4.640380859375 73.115966796875 51.87109375
26.6953125 54.14794921875 -69.9986572265625
7.490966796875 -18.250732421875 60.201416015625
-5.476806640625 0.858154296875 33.3106689453125
39.58935546875 62.23095703125 -54.3824462890625
58.778564453125 114.775390625 -35.8133544921875
-37.504150390625 -83.634765625 41.1971435546875
61.425537109375 -78.056640625 -40.375
21.067626953125 115.659912109375 -46.3070068359375
67.00927734375 96.137451171875 -34.846923828125
-3.608154296875 66.796142578125 50.431884765625
-18.474365234375 25.0302734375 31.68115234375
45.99658203125 -4.83056640625 -86.944091796875
10.522705078125 67.90771484375 -61.376953125
-15.20458984375 3.838134765625 32.8267822265625
22.11962890625 -78.34912109375 49.8082275390625
5.845947265625 87.40576171875 -59.006103515625
-42.45751953125 69.814697265625 77.656494140625
18.300537109375 -27.932373046875 -94.228759765625
-14.18408203125 -76.62255859375 17.6451416015625
-26.928466796875 60.762451171875 74.659423828125
-57.02001953125 -82.610595703125 42.4158935546875
36.13671875 -44.669189453125 -104.7120361328125
30.586181640625 -26.4482421875 -94.8623046875
-59.0537109375 21.55517578125 62.779052734375
-13.860595703125 -72.052734375 18.5650634765625
5.91357421875 -54.658935546875 52.7562255859375
-60.187255859375 -22.941650390625 52.721923828125
33.20458984375 -7.420654296875 -115.34619140625
-66.1884765625 -34.69140625 50.9434814453125
25.78076171875 -81.3759765625 49.6087646484375
44.026611328125 -34.541259765625 -105.950439453125
36.622802734375 -69.671142578125 50.5780029296875
6.834228515625 11.525390625 66.5401611328125
22.61865234375 -35.982421875 57.350830078125
56.531005859375 112.9443359375 -31.4610595703125
36.12939453125 -78.6279296875 49.4111328125
-28.673828125 71.680908203125 78.0467529296875
17.977294921875 57.8828125 79.7020263671875
23.648681640625 109.50244140625 -49.7261962890625
10.336669921875 -72.35546875 50.9024658203125
-56.315673828125 -87.140869140625 41.5928955078125
13.053955078125 -90.704833984375 26.2939453125
-63.135986328125 -68.197998046875 44.703125
-20.108154296875 -50.863037109375 47.9466552734375
34.76904296875 -1.93408203125 64.0596923828125
60.616943359375 -64.74658203125 -40.753173828125
-66.57177734375 -75.18603515625 44.2427978515625
-19.50537109375 11.844970703125 61.189697265625
-46.216796875 19.68798828125 63.3323974609375
-21.3583984375 -79.126708984375 43.9173583984375
17.905029296875 34.22900390625 -55.2738037109375
-17.835693359375 80.12646484375 64.3221435546875
-16.5556640625 24.915283203125 37.4893798828125
16.095947265625 -60.174072265625 -96.765869140625
54.6337890625 -39.055908203125 -111.1390380859375
33.162109375 -60.537841796875 52.944091796875
32.21484375 -7.43701171875 -97.753173828125
32.259033203125 -7.490234375 -83.5966796875
21.601318359375 86.841064453125 -53.4654541015625
41.506591796875 4.222900390625 -129.956787109375
62.728759765625 -71.398681640625 -38.4022216796875
32.168701171875 64.43212890625 81.052734375
-63.711669921875 -16.91259765625 54.478271484375
29.460205078125 -5.484130859375 -122.973876953125
-11.848876953125 -47.87353515625 22.74169921875
59.775390625 7.0986328125 -57.682373046875
12.620849609375 20.260498046875 68.5399169921875
-20.97265625 24.24755859375 23.7591552734375
-51.9873046875 -72.23681640625 43.98681640625
21.6015625 -1.32568359375 -88.640869140625
36.674072265625 97.69482421875 -57.510498046875
-18.1357421875 -59.145751953125 45.6160888671875
-47.24560546875 -70.390869140625 45.069091796875
23.447509765625 -19.253662109375 -92.260009765625
37.3876953125 -47.685302734375 54.713623046875
-29.800048828125 57.397216796875 73.4970703125
25.297607421875 -72.986328125 50.7034912109375
64.748046875 -84.982177734375 -41.4940185546875
7.4658203125 115.640380859375 -61.155029296875
30.7802734375 -4.490234375 -132.541259765625
23.53076171875 18.3583984375 -83.0831298828125
16.6787109375 -0.4462890625 -131.095703125
5.35546875 -88.97509765625 23.882080078125
-25.28125 -15.60888671875 55.1368408203125
19.990478515625 30.907958984375 -77.44775390625
37.822265625 69.638916015625 82.0029296875
19.71923828125 50.076416015625 79.9356689453125
55.120849609375 2.25390625 -52.3919677734375
20.48046875 23.815673828125 69.7208251953125
24.43212890625 51.860595703125 78.0693359375
2.873046875 18.98193359375 51.1932373046875
-47.983642578125 27.311279296875 65.178955078125
38.2109375 -10.185791015625 -81.144775390625
13.23486328125 30.167236328125 49.3802490234375
17.403564453125 96.697021484375 -59.895751953125
-10.027587890625 -6.060302734375 30.7373046875
-2.114013671875 8.745361328125 37.2454833984375
19.83642578125 -40.53759765625 -97.051025390625
-2.8603515625 -40.662109375 27.2144775390625
35.87060546875 85.12158203125 -57.59033203125
-20.002685546875 38.67919921875 6.435546875
53.7333984375 -60.194580078125 51.5885009765625
3.547119140625 97.1162109375 -55.699951171875
-47.301025390625 -35.47802734375 50.634521484375
50.29638671875 121.5830078125 -24.02685546875
58.745849609375 109.67236328125 -29.5740966796875
-63.705322265625 29.2666015625 65.4495849609375
43.1513671875 80.601318359375 -57.6741943359375
-25.602294921875 -33.89697265625 51.477294921875
-55.19580078125 19.71435546875 62.4556884765625
-3.245849609375 25.090576171875 40.5169677734375
-37.09814453125 -51.261474609375 48.44580078125
-29.09716796875 -11.681396484375 56.129638671875
-14.27880859375 -56.037353515625 21.1607666015625
29.596435546875 -38.364990234375 -98.4053955078125
21.98193359375 -0.23193359375 -113.894775390625
62.502685546875 -47.46337890625 -107.21435546875
-38.451171875 -20.12744140625 54.1981201171875
-21.474609375 -2.1796875 58.2545166015625
36.37255859375 50.84423828125 77.1552734375
23.646240234375 -86.432861328125 49.6614990234375
18.080322265625 129.356689453125 -47.0966796875
-21.727783203125 -54.629638671875 48.01416015625
28.954833984375 124.724609375 -48.4783935546875
-57.94482421875 -14.5126953125 54.787109375
-4.332275390625 -8.446044921875 32.393798828125
-6.535888671875 -70.093505859375 19.625732421875
63.63671875 -57.908203125 -42.052490234375
5.708251953125 104.638916015625 -57.272705078125
25.37548828125 -38.895263671875 56.556640625
-39.510986328125 -37.203857421875 51.1337890625
14.677734375 12.48486328125 67.7310791015625
8.835693359375 77.250244140625 83.71875
-22.99951171875 19.962890625 63.542236328125
44.982421875 5.813232421875 -122.751220703125
30.4765625 -16.359619140625 -87.137939453125
17.911376953125 -31.29931640625 57.98779296875
-55.640625 1.877197265625 58.3935546875
-2.0947265625 48.44580078125 49.6697998046875
13.0068359375 22.638916015625 60.74560546875
-64.009033203125 77.386474609375 79.4766845703125
30.808837890625 -8.151611328125 62.5367431640625
43.51318359375 -46.437744140625 -101.2547607421875
-2.995849609375 86.560302734375 57.7735595703125
-64.18701171875 -9.177490234375 56.215576171875
-34.958984375 -38.49658203125 50.5350341796875
27.373779296875 -19.89208984375 60.232177734375
-48.42236328125 58.43359375 73.2867431640625
21.197265625 -65.58349609375 51.949951171875
-25.274658203125 27.138916015625 45.1783447265625
57.624755859375 -7.781982421875 -48.3258056640625
-32.573974609375 -41.8212890625 49.8145751953125
39.5849609375 12.430908203125 68.3819580078125
-39.11328125 7.81689453125 60.811767578125
26.373779296875 68.1220703125 -63.99658203125
-34.218017578125 14.613037109375 62.125
7.736328125 122.1259765625 -64.173583984375
-21.255126953125 21.64404296875 40.26904296875
35.29345703125 -25.693115234375 58.6348876953125
39.701171875 46.204345703125 75.4866943359375
50.810302734375 -35.792724609375 -108.70458984375
18.1171875 68.95068359375 82.949462890625
19.3310546875 12.193115234375 -82.800048828125
-33.114501953125 34.57470703125 58.425048828125
36.462158203125 -2.269775390625 -131.261962890625
24.8271484375 7.845458984375 -85.2154541015625
61.926513671875 -52.254150390625 -40.7559814453125
7.963134765625 17.704345703125 69.511474609375
15.171630859375 -52.424072265625 54.012451171875
-57.922607421875 35.922607421875 67.021240234375
60.722412109375 106.99462890625 -32.973876953125
-31.502197265625 66.506103515625 76.5413818359375
-67.116943359375 23.464111328125 64.1483154296875
11.569580078125 96.509765625 -59.1273193359375
62.82421875 -83.784423828125 -35.7799072265625
5.34326171875 118.5078125 -57.6397705078125
-16.39697265625 -41.06884765625 23.86669921875
19.0234375 18.779052734375 68.831787109375
57.717041015625 -34.142333984375 56.3145751953125
-26.590576171875 -68.704833984375 45.59423828125
66.50390625 -42.372802734375 -112.175537109375
-22.20458984375 53.65185546875 8.8292236328125
-18.748779296875 16.465576171875 61.327392578125
5.781982421875 -77.50927734375 49.1639404296875
-19.795166015625 50.86962890625 72.3310546875
-22.6728515625 8.597412109375 61.1251220703125
19.33642578125 48.984619140625 -65.3232421875
-6.08349609375 90.64501953125 57.8818359375
60.328857421875 -43.553955078125 -108.7510986328125
67.630615234375 107.601806640625 -40.41552734375
-2.413330078125 -3.16259765625 34.9814453125
-8.305908203125 38.60009765625 41.5482177734375
18.528076171875 75.80712890625 83.5703125
-37.857666015625 50.1591796875 71.5379638671875
40.78515625 37.1611328125 75.1146240234375
-19.19091796875 -18.33447265625 28.2156982421875
43.828857421875 -5.8671875 -95.207275390625
48.89794921875 5.033447265625 -115.4066162109375
53.812255859375 120.280029296875 -31.4560546875
34.16357421875 76.320068359375 85.6085205078125
-5.111083984375 58.530517578125 47.2125244140625
25.996826171875 -1.450927734375 -87.8203125
21.124755859375 -23.600830078125 58.8861083984375
-61.839599609375 -81.4736328125 42.707763671875
23.971435546875 -50.843994140625 54.57958984375
-25.184326171875 -90.8720703125 26.279296875
-49.9912109375 72.4599609375 77.78515625
56.398681640625 -70.07861328125 48.1783447265625
31.9892578125 53.67822265625 78.4556884765625
-58.500244140625 -43.61474609375 48.960693359375
18.255859375 91.272216796875 -57.801513671875
-32.27001953125 -70.420654296875 45.345947265625
24.33740234375 -45.22021484375 -97.01123046875
-17.914306640625 -39.611572265625 47.7987060546875
10.953369140625 81.61083984375 69.349609375
-37.746337890625 21.05712890625 63.9945068359375
32.532958984375 30.8837890625 72.517578125
-25.48974609375 84.315185546875 63.1724853515625
37.80517578125 -19.74169921875 60.1409912109375
6.42041015625 -51.012451171875 54.1715087890625
-25.073486328125 45.511962890625 70.4442138671875
33.2568359375 -49.293212890625 54.8934326171875
37.7509765625 2.08642578125 65.0247802734375
-1.0703125 78.888916015625 59.4322509765625
65.780029296875 -50.535400390625 -47.2008056640625
35.2197265625 18.034912109375 69.2330322265625
-58.300048828125 -8.39892578125 55.881103515625
25.279541015625 -8.923095703125 -87.890869140625
39.68603515625 -46.33056640625 -103.5830078125
-63.4169921875 57.8671875 73.624755859375
-34.4482421875 8.098876953125 60.66259765625
-40.58642578125 59.040283203125 74.4906005859375
6.16455078125 3.714599609375 62.856201171875
35.082275390625 90.094970703125 -57.0625
14.03369140625 39.93798828125 -52.8585205078125
-63.684326171875 62.6201171875 74.93505859375
19.53564453125 0.255859375 -136.9215087890625
67.0107421875 -46.521484375 -109.9171142578125
-63.568115234375 -87.820068359375 42.1905517578125
-51.00439453125 20.722412109375 62.993896484375
31.261962890625 108.08154296875 -53.612060546875
57.923828125 -37.222900390625 -109.876220703125
17.890869140625 -9.11865234375 62.1820068359375
30.281005859375 46.800537109375 76.1859130859375
-21.275146484375 85.494873046875 61.3841552734375
28.985107421875 76.90185546875 85.398193359375
32.1923828125 -37.961181640625 -102.2364501953125
-26.726318359375 17.486328125 63.02490234375
-19.252197265625 -29.338623046875 27.1268310546875
1.772216796875 60.4560546875 61.7259521484375
16.373046875 -83.634521484375 49.6937255859375
-24.23193359375 -84.7890625 43.048828125
-24.34814453125 -89.057373046875 32.9146728515625
-38.2412109375 -82.466796875 44.838134765625
17.5380859375 26.32666015625 70.1434326171875
-30.8408203125 30.735107421875 47.885986328125
14.521728515625 75.620849609375 -58.9510498046875
-59.198974609375 -68.538818359375 44.242919921875
57.362060546875 -19.522705078125 59.9835205078125
-58.41845703125 27.2177734375 64.31640625
-67.53369140625 54.06396484375 72.86865234375
-62.58642578125 34.341064453125 66.5089111328125
29.847900390625 -19.318603515625 -90.5584716796875
-1.58447265625 54.51904296875 51.8052978515625
5.970947265625 -10.122802734375 61.4918212890625
-5.81884765625 -14.830810546875 29.0308837890625
7.7763671875 58.164794921875 78.42626953125
-47.30615234375 -26.551513671875 52.1573486328125
-28.0966796875 87.951416015625 63.381591796875
41.90087890625 72.23779296875 82.17919921875
-63.717529296875 21.470703125 63.5084228515625
-15.434326171875 -61.675537109375 20.1513671875
19.27099609375 73.00244140625 -55.9251708984375
-22.64990234375 72.086181640625 17.6705322265625
26.76708984375 44.78271484375 75.780517578125
20.067138671875 21.97509765625 -80.0302734375
-21.578369140625 40.464111328125 68.8026123046875
10.353271484375 102.651123046875 -60.7374267578125
17.022705078125 -1.55224609375 64.3328857421875
15.270751953125 -41.97021484375 -91.1727294921875
40.615234375 53.9521484375 78.78369140625
54.664794921875 2.59375 64.571044921875
3.615234375 81.313232421875 66.42724609375
-67.271240234375 -58.394287109375 47.01220703125
10.8447265625 -14.17919921875 61.63818359375
-52.31884765625 -58.6904296875 46.0531005859375
-4.825927734375 20.870849609375 37.4713134765625
14.967041015625 8.08349609375 -134.1810302734375
-34.08740234375 82.021240234375 71.7991943359375
30.458251953125 119.3095703125 -47.7830810546875
-32.705322265625 73.7392578125 78.6051025390625
25.689697265625 98.506103515625 -48.8028564453125
-35.579833984375 -22.93603515625 53.7877197265625
-55.284423828125 40.10693359375 68.001953125
17.47412109375 -41.85791015625 56.1217041015625
-34.388671875 -6.331787109375 57.2431640625
-24.3798828125 -42.648681640625 50.1141357421875
22.848388671875 -52.7470703125 -97.4771728515625
-64.19775390625 37.831298828125 67.91943359375
25.45654296875 -3.7890625 -101.27978515625
21.642578125 -32.10205078125 57.7325439453125
-17.840576171875 -44.20751953125 46.2979736328125
-30.330078125 24.64892578125 63.99169921875
-7.437255859375 -24.33740234375 27.3538818359375
35.323486328125 -40.644287109375 -105.0758056640625
-40.903076171875 16.844970703125 62.7247314453125
16.99755859375 56.30517578125 -63.797119140625
-32.6865234375 -81.057861328125 43.8564453125
24.224853515625 90.790283203125 -52.86572265625
63.12548828125 101.736328125 -30.1787109375
-0.20263671875 83.3935546875 59.738037109375
-67.28955078125 74.7490234375 79.025634765625
31.634033203125 -86.215576171875 48.7791748046875
49.835205078125 -49.460205078125 -105.9827880859375
39.352294921875 98.0380859375 -54.8240966796875
-44.12744140625 25.9697265625 64.8841552734375
-5.207763671875 -43.2158203125 25.0888671875
17.475341796875 26.570556640625 48.33935546875
-54.737548828125 29.348388671875 65.1964111328125
-2.71142578125 -49.2021484375 25.8348388671875
28.27734375 -24.99951171875 59.20654296875
3.092041015625 88.2587890625 63.8851318359375
-31.31494140625 -1.357177734375 58.33740234375
28.4326171875 50.453369140625 77.7579345703125
67.314697265625 119.54736328125 -34.3841552734375
-49.76025390625 -4.4892578125 57.1436767578125
-52.8837890625 11.130126953125 60.3145751953125
10.296142578125 88.661865234375 -60.1455078125
-31.69189453125 -29.311767578125 52.302001953125
38.647705078125 58.98193359375 79.6524658203125
13.95654296875 25.005859375 68.6253662109375
17.661376953125 60.544677734375 -61.8438720703125
56.88232421875 -51.069091796875 -104.2379150390625
24.848876953125 -58.171142578125 53.089599609375
15.5595703125 -18.0810546875 60.663818359375
29.19677734375 34.796630859375 73.913330078125
-16.95849609375 -67.62841796875 19.5284423828125
-43.626708984375 -54.494140625 48.0679931640625
11.6318359375 -64.655517578125 52.221435546875
57.621337890625 119.698974609375 -34.957763671875
-29.39306640625 27.205810546875 46.1983642578125
39.469970703125 -7.90625 -90.2547607421875
53.549560546875 -77.191162109375 49.8740234375
6.16259765625 -36.39990234375 55.9638671875
24.943115234375 -4.142578125 -119.8702392578125
-42.822021484375 -24.4775390625 53.3804931640625
-20.95849609375 81.4716796875 80.330810546875
-10.96337890625 -84.37451171875 16.8851318359375
-18.24072265625 17.619140625 46.218994140625
-2.45556640625 -68.9052734375 21.8538818359375
-26.970703125 -5.148681640625 57.827880859375
-54.505126953125 -10.669677734375 55.540283203125
43.444091796875 73.6494140625 -58.402099609375
68.32861328125 -50.92431640625 -100.2532958984375
-39.67138671875 -72.199951171875 45.1953125
61.26513671875 108.992919921875 -36.718994140625
-4.499267578125 44.95703125 44.030029296875
-34.545166015625 -59.37646484375 46.5843505859375
-1.948486328125 28.841064453125 44.9290771484375
56.786376953125 -3.901123046875 62.6322021484375
-34.162841796875 83.789794921875 64.90576171875
14.748291015625 -58.563720703125 -93.68115234375
-3.298828125 -16.91357421875 30.82958984375
22.787841796875 46.1806640625 76.089599609375
36.34716796875 79.19677734375 86.7579345703125
32.8974609375 -34.08349609375 -102.3616943359375
27.68994140625 -6.178466796875 -107.4705810546875
-11.4169921875 23.848876953125 37.544189453125
42.772216796875 60.923095703125 -57.63134765625
70.3876953125 -49.126708984375 -108.153076171875
39.601806640625 21.482177734375 69.3701171875
9.321533203125 -92.2470703125 23.7994384765625
24.292236328125 -26.732421875 -92.1761474609375
-24.31884765625 21.2490234375 47.901611328125
14.187744140625 74.450927734375 81.211669921875
-35.91259765625 -87.72998046875 42.3162841796875
-5.8212890625 27.304443359375 39.0018310546875
-24.659423828125 70.2685546875 77.7354736328125
-18.90966796875 60.120849609375 8.302734375
25.755859375 110.511474609375 -52.6143798828125
16.2177734375 -67.24169921875 51.9056396484375
-18.479248046875 17.7197265625 38.393798828125
36.35107421875 102.252685546875 -54.5260009765625
-29.568603515625 49.800537109375 71.60546875
16.033203125 78.779052734375 84.5933837890625
41.010986328125 0.33935546875 -127.1522216796875
-35.016357421875 -14.22802734375 55.439453125
-58.133544921875 13.5029296875 61.0753173828125
31.37646484375 22.771240234375 70.3472900390625
-21.529541015625 79.220458984375 66.64892578125
51.817138671875 -0.14794921875 -52.29638671875
31.643310546875 -15.535400390625 60.7884521484375
25.698486328125 76.59130859375 -60.1324462890625
-18.6943359375 -66.4404296875 45.7034912109375
23.048095703125 -1.587158203125 -106.09326171875
-1.891357421875 -89.6240234375 20.3543701171875
-8.487548828125 52.014404296875 44.6077880859375
53.887451171875 -50.697021484375 -96.4578857421875
-18.851806640625 31.96630859375 6.2615966796875
28.783935546875 64.284912109375 -64.7515869140625
-9.007080078125 20.454833984375 37.2025146484375
5.428466796875 91.018310546875 -58.4019775390625
66.75732421875 -7.35546875 -53.75927734375
-21.4326171875 -36.110107421875 51.07421875
6.08251953125 111.92236328125 -56.5196533203125
-6.544921875 -79.998291015625 20.1082763671875
-67.007080078125 -42.556640625 49.635009765625
18.257568359375 13.8642578125 -79.703369140625
-39.681884765625 -12.40478515625 56.0819091796875
-19.91943359375 58.121826171875 74.6072998046875
62.532470703125 127.373291015625 -31.4581298828125
-11.614501953125 -18.339599609375 28.0650634765625
21.687744140625 42.936767578125 -73.666748046875
-62.306396484375 -46.780029296875 48.3463134765625
-34.658203125 -66.356689453125 45.9150390625
-15.568603515625 0.241943359375 32.209716796875
-13.93505859375 9.197998046875 34.089111328125
51.813720703125 117.75927734375 -25.6270751953125
-45.56103515625 -77.177001953125 44.31787109375
32.640380859375 -7.55029296875 -77.48974609375
-40.34619140625 -28.8271484375 52.5908203125
-55.90625 -18.600830078125 53.5338134765625
18.68994140625 26.470947265625 -58.845947265625
-61.328857421875 -75.9111328125 43.732177734375
-23.778564453125 53.417724609375 72.9117431640625
63.5888671875 -79.02978515625 -43.2596435546875
24.636474609375 -16.177490234375 -89.7081298828125
29.61376953125 -6.2900390625 -91.3729248046875
-45.649169921875 -2.9267578125 58.0699462890625
-52.68994140625 26.05810546875 64.119873046875
30.350830078125 -11.75 62.1929931640625
-45.666748046875 63.137451171875 75.1326904296875
16.946533203125 83.867431640625 65.895263671875
36.58349609375 35.774169921875 73.6314697265625
26.69287109375 -47.35546875 54.7271728515625
-8.35888671875 3.91064453125 32.998046875
12.053955078125 78.011474609375 -61.0198974609375
-67.348876953125 -70.166015625 44.9315185546875
-49.384033203125 81.163330078125 80.257080078125
60.845458984375 -4.155517578125 -54.40576171875
-58.0771484375 -35.813232421875 50.1534423828125
55.583740234375 -44.10546875 57.1845703125
-39.202880859375 -1.93798828125 58.2314453125
58.64697265625 113.4345703125 -10.5059814453125
-62.142333984375 70.1630859375 77.338134765625
32.9794921875 -76.8828125 49.8231201171875
23.815185546875 38.462646484375 75.004638671875
28.58984375 93.4384765625 -52.3756103515625
16.866455078125 44.25927734375 -52.8992919921875
17.0234375 -60.12646484375 52.5458984375
36.529052734375 110.00537109375 -48.712646484375
22.900146484375 -4.05078125 -134.3427734375
61.706298828125 -48.408935546875 -41.8546142578125
42.506103515625 84.447998046875 -56.5712890625
-21.20654296875 -82.722900390625 43.7208251953125
31.462158203125 -42.76513671875 -94.632080078125
17.378662109375 102.1982421875 -59.5098876953125
52.442626953125 -85.25537109375 48.47509765625
21.318115234375 36.361572265625 -76.3023681640625
-15.720703125 -14.09033203125 29.0455322265625
-60.0888671875 -88.674560546875 41.43603515625
22.34716796875 75.1865234375 85.258056640625
-25.056640625 21.890380859375 56.6865234375
62.97412109375 -47.26123046875 -45.337890625
-18.717041015625 11.689453125 37.99462890625
30.94287109375 -41.64208984375 -99.2176513671875
3.56005859375 117.56884765625 -49.0308837890625
11.94775390625 71.130615234375 86.8240966796875
26.3095703125 17.1005859375 68.375244140625
-1.272216796875 -22.303466796875 31.170166015625
-33.826416015625 -75.1455078125 44.663818359375
19.348876953125 -53.738525390625 -98.6505126953125
22.99658203125 116.92822265625 -50.4083251953125
54.2607421875 -53.324462890625 54.736083984375
51.58837890625 -0.880859375 -98.5299072265625
15.287841796875 2.978515625 -132.6727294921875
6.356689453125 83.189208984375 -59.0419921875
54.169189453125 -30.8408203125 60.3551025390625
46.015869140625 -37.639404296875 -108.5838623046875
-63.89208984375 16.38134765625 61.941650390625
39.3935546875 -4.584716796875 62.5772705078125
15.526123046875 -24.24951171875 -87.9454345703125
22.28955078125 -8.55078125 63.0755615234375
61.245361328125 -74.603759765625 -39.4754638671875
-16.210205078125 -48.6806640625 22.388916015625
-59.16015625 -54.800537109375 46.7781982421875
61.96484375 117.640869140625 -8.184326171875
37.059326171875 71.796142578125 -56.22802734375
-19.099853515625 77.677001953125 13.77978515625
-2.289306640625 -76.08349609375 21.0687255859375
47.3759765625 2.188232421875 -117.025390625
-40.71630859375 -59.575927734375 47.1905517578125
-41.835693359375 79.79931640625 80.62548828125
-7.800537109375 -29.80517578125 26.1695556640625
-9.881591796875 -92.158203125 16.1361083984375
-62.590576171875 -20.458251953125 53.5831298828125
-51.5224609375 2.64306640625 58.3458251953125
54.55859375 -22.069580078125 60.264892578125
10.3232421875 109.613037109375 -62.833984375
-4.862060546875 -93.88525390625 19.02978515625
-51.781005859375 46.701171875 69.579345703125
-17.945556640625 -22.131103515625 51.054443359375
17.037109375 81.808837890625 -58.395751953125
23.86181640625 73.018310546875 -61.2425537109375
35.426513671875 5.260986328125 65.9876708984375
-7.78125 33.060791015625 40.1131591796875
-22.400634765625 45.928466796875 7.9940185546875
-22.44482421875 38.578369140625 8.9976806640625
59.635986328125 -86.70654296875 -35.447265625
-52.6689453125 -52.558837890625 46.9193115234375
50.2568359375 -60.552978515625 52.8626708984375
20.4677734375 31.874267578125 -60.0142822265625
26.253662109375 -64.300048828125 52.3330078125
-17.263916015625 -86.490478515625 16.507080078125
14.67236328125 70.723876953125 -61.2064208984375
34.445556640625 71.62841796875 83.524169921875
-57.825927734375 -62.346923828125 45.3494873046875
-28.507568359375 -41.500244140625 50.095703125
13.217529296875 49.5478515625 79.8878173828125
23.917236328125 -43.56689453125 55.3839111328125
-28.92919921875 80.86376953125 80.5135498046875
50.965576171875 -50.953125 -102.619140625
13.086181640625 111.8251953125 -61.2642822265625
-18.052001953125 4.921142578125 58.1002197265625
11.3564453125 -81.17626953125 49.713623046875
-11.34619140625 -32.138427734375 25.2679443359375
-51.447509765625 -7.913818359375 55.936279296875
23.615478515625 81.757568359375 -57.1070556640625
-7.5625 61.048095703125 47.5279541015625
26.334228515625 61.0712890625 -66.9918212890625
-47.48779296875 37.622314453125 68.00146484375
28.867919921875 27.339599609375 70.6356201171875
19.59326171875 38.474609375 -69.6094970703125
19.358642578125 121.467529296875 -45.439208984375
16.441650390625 -47.68310546875 -95.8199462890625
-18.46533203125 -32.329833984375 50.4342041015625
-17.754150390625 -55.28955078125 21.3985595703125
-4.13525390625 80.060791015625 54.278076171875
-33.468017578125 20.173828125 63.46484375
52.359130859375 -45.820556640625 54.9224853515625
6.0712890625 -25.7470703125 58.090087890625
-10.8115234375 -35.93115234375 24.70361328125
27.537353515625 116.4755859375 -52.0211181640625
32.93212890625 82.85205078125 -55.0654296875
25.585693359375 -37.4013671875 -95.91015625
47.96240234375 68.0634765625 -59.2144775390625
60.06640625 -80.2431640625 -37.327392578125
62.94482421875 121.420166015625 -35.6181640625
-25.485595703125 -8.227783203125 57.053955078125
-29.06640625 81.486083984375 65.9659423828125
-17.94482421875 -1.677490234375 56.0279541015625
-31.10302734375 -87.359619140625 42.9638671875
31.641357421875 124.66943359375 -50.7286376953125
-66.62353515625 30.91845703125 66.3818359375
-58.573974609375 57.414794921875 72.83642578125
58.005126953125 0.662109375 64.11865234375
50.480224609375 123.643798828125 -27.6478271484375
-49.889404296875 -85.67431640625 42.8802490234375
-53.048828125 74.5283203125 78.188232421875
15.560302734375 -6.51708984375 63.0936279296875
-50.607421875 -41.19873046875 49.2623291015625
28.399169921875 126.81689453125 -56.4188232421875
-17.880615234375 5.56787109375 34.2054443359375
24.833984375 2.669189453125 -87.619140625
63.550537109375 7.7431640625 -55.7236328125
9.561279296875 23.1416015625 48.8424072265625
-25.79833984375 -77.4404296875 44.5208740234375
-43.44775390625 -83.8232421875 43.8538818359375
43.9794921875 -2.41357421875 -118.7166748046875
35.2158203125 -30.83203125 57.572998046875
9.89306640625 -10.00927734375 62.61474609375
13.28466796875 -36.08154296875 57.303466796875
63.417236328125 -85.972412109375 -38.459716796875
-52.01025390625 -64.439453125 44.6905517578125
-61.580322265625 42.104248046875 69.103515625
39.089111328125 62.796630859375 79.6376953125
31.42431640625 -42.01904296875 55.98681640625
-39.86962890625 -77.33154296875 44.287353515625
59.068359375 -45.770751953125 -40.8548583984375
51.845703125 65.787353515625 -58.9365234375
30.1640625 74.389404296875 -58.9390869140625
-47.115234375 -47.61279296875 48.7662353515625
-28.7255859375 -35.594970703125 51.1529541015625
28.40673828125 86.885986328125 -53.79296875
40.088623046875 78.200439453125 -58.0548095703125
-15.5517578125 -21.56884765625 27.5230712890625
-27.5849609375 14.05078125 62.0081787109375
28.709228515625 127.98583984375 -49.6719970703125
-51.650146484375 34.1669921875 66.5191650390625
1.435546875 75.9619140625 63.2493896484375
41.0859375 -8.792236328125 -82.39208984375
55.08740234375 116.738037109375 -25.33056640625
-55.634765625 47.005126953125 69.8104248046875
-63.944091796875 1.97216796875 58.9580078125
-64.018798828125 -4.49365234375 57.159423828125
-8.454833984375 9.06201171875 33.9373779296875
-49.477783203125 -78.080078125 43.15625
-26.97509765625 9.779541015625 61.1026611328125
41.647705078125 -6.63427734375 -112.3114013671875
38.018798828125 -33.17578125 57.181884765625
53.57275390625 -69.2919921875 50.3336181640625
-44.449462890625 11.578125 61.2833251953125
-43.05517578125 34.54833984375 67.131103515625
-19.0849609375 52.56396484375 7.974365234375
-42.826171875 53.297119140625 72.5040283203125
23.883544921875 24.022216796875 69.5986328125
-26.8935546875 -48.172119140625 49.1478271484375
53.802734375 -4.41064453125 64.84912109375
-55.0576171875 54.618408203125 71.726806640625
-20.6328125 65.4521484375 11.61572265625
20.31103515625 38.855224609375 -60.3399658203125
37.939697265625 -48.3544921875 -97.731689453125
14.171142578125 9.374267578125 -130.450927734375
21.499267578125 16.351318359375 68.686767578125
12.5234375 91.386962890625 -59.0809326171875
-55.088623046875 -25.148193359375 52.1771240234375
-22.743896484375 -23.1201171875 53.603515625
29.268798828125 65.761474609375 82.234375
-52.384765625 59.736083984375 73.387939453125
38.83642578125 -10.912109375 61.4915771484375
-21.406005859375 72.217529296875 11.2254638671875
30.68701171875 11.517822265625 67.5294189453125
-49.61181640625 52.35693359375 71.5318603515625
65.3359375 99.689208984375 -34.3968505859375
5.475830078125 29.0166015625 47.893798828125
46.65673828125 73.599853515625 -57.301513671875
-19.678955078125 81.67138671875 60.92919921875
20.848876953125 -48.515869140625 -98.124267578125
23.845458984375 56.7158203125 78.282470703125
2.37060546875 21.664306640625 47.6414794921875
-42.73779296875 4.77001953125 59.8944091796875
28.01806640625 71.1279296875 84.9273681640625
19.114013671875 10.314208984375 67.886474609375
21.787109375 4.028564453125 65.100341796875
-19.934326171875 88.92724609375 61.55419921875
31.133544921875 91.225341796875 -55.129150390625
-41.8037109375 -16.77392578125 54.8958740234375
29.452392578125 52.907958984375 -68.4794921875
-55.7021484375 -45.954345703125 48.2340087890625
48.579833984375 77.009765625 -58.353271484375
38.761962890625 -7.927734375 -110.0657958984375
20.23388671875 -43.732666015625 55.578857421875
29.994140625 4.635986328125 65.2230224609375
10.757080078125 60.738037109375 82.9134521484375
-9.0810546875 -56.71044921875 20.8221435546875
-21.404296875 20.86572265625 43.5491943359375
38.2685546875 -8.388671875 -105.2642822265625
-8.72607421875 -2.359375 31.5615234375
45.62548828125 105.866943359375 -42.918701171875
26.76513671875 -14.723876953125 -86.3502197265625
25.95703125 -28.108154296875 59.003173828125
-11.4873046875 31.68896484375 39.9007568359375
49.059814453125 -74.996826171875 50.52490234375
-53.43896484375 -30.60693359375 50.93115234375
-25.607177734375 -59.193115234375 47.145751953125
-22.495849609375 0.9384765625 58.9630126953125
-20.6220703125 -62.33642578125 46.2076416015625
-47.68896484375 -18.256591796875 54.4573974609375
-35.32568359375 79.349365234375 80.806640625
19.55615234375 1.292724609375 -86.8865966796875
7.3525390625 74.73876953125 -59.252197265625
25.896728515625 128.68017578125 -48.010498046875
58.8115234375 -52.75927734375 -41.848876953125
-67.0087890625 45.10400390625 69.9287109375
41.981201171875 -7.5810546875 -93.017822265625
26.28515625 -5.37548828125 -112.8603515625
-35.636474609375 27.81396484375 65.3914794921875
65.021240234375 1.77734375 -54.509033203125
63.48046875 -66.60009765625 -40.63916015625
-35.627685546875 -43.912841796875 49.650390625
29.96044921875 98.417236328125 -54.1007080078125
19.49267578125 25.645263671875 -78.4486083984375
-21.663330078125 26.203857421875 43.2784423828125
22.857666015625 11.868896484375 67.1961669921875
-21.423583984375 41.656494140625 6.8970947265625
-11.305419921875 -9.67822265625 30.0938720703125
34.71826171875 -82.4736328125 48.68603515625
63.4326171875 -36.662109375 -49.0887451171875
-38.3759765625 37.946533203125 68.346435546875
-41.03369140625 -43.165283203125 50.1768798828125
-45.205322265625 -31.685302734375 51.9385986328125
28.31396484375 -25.087158203125 -92.8504638671875
-34.9296875 23.10888671875 57.923583984375
-19.74609375 -47.38232421875 48.7850341796875
-21.701904296875 -27.091064453125 52.8643798828125
-11.72412109375 16.445556640625 36.194091796875
31.65087890625 -31.4794921875 -99.184814453125
-17.372314453125 9.730712890625 57.4930419921875
-60.09228515625 77.63916015625 79.28125
-50.487548828125 -34.6357421875 50.995849609375
-45.3515625 -73.074462890625 44.6478271484375
-19.239990234375 70.5439453125 77.3084716796875
34.7607421875 -8.6591796875 -80.7667236328125
19.958984375 40.211181640625 -57.341796875
-57.91552734375 -30.740966796875 51.4482421875
21.876708984375 102.012939453125 -47.916015625
55.030517578125 -47.079345703125 -109.0675048828125
25.93115234375 -1.701171875 -92.4122314453125
-37.865966796875 24.440673828125 64.972900390625
23.5654296875 -20.190185546875 60.0450439453125
-25.811767578125 1.693115234375 58.957275390625
-48.465576171875 -88.4853515625 41.6710205078125
55.034423828125 -40.8671875 56.8978271484375
