58.44677734375 61.228759765625 68.262939453125
58.38916015625 72.422119140625 70.8221435546875
-39.232666015625 81.17138671875 -0.834716796875
-57.249755859375 -86.084716796875 26.904052734375
-30.784912109375 -17.06005859375 42.4417724609375
18.5732421875 -2.643310546875 49.9052734375
-22.1611328125 -17.102783203125 15.379638671875
18.818359375 -29.71826171875 42.9927978515625
-16.832763671875 87.574462890625 -27.476806640625
-44.3134765625 -53.859130859375 33.372314453125
-24.8017578125 70.70263671875 -3.951171875
-62.06494140625 -67.34619140625 28.540283203125
-58.5029296875 59.5888671875 60.8167724609375
49.472412109375 117.063232421875 -52.2464599609375
-46.8720703125 19.149169921875 51.362060546875
-4.744384765625 27.130126953125 32.3458251953125
-34.974365234375 -91.44482421875 28.107666015625
-43.445556640625 59.33447265625 63.1123046875
-55.42333984375 106.21728515625 -14.771484375
26.18017578125 94.452880859375 -43.417236328125
-4.111572265625 -9.908447265625 47.54541015625
-31.341064453125 -2.476806640625 45.359130859375
-40.62451171875 20.112060546875 44.4473876953125
48.388427734375 79.6259765625 74.52294921875
54.2265625 19.129638671875 40.7332763671875
43.772705078125 35.617431640625 -87.907958984375
-20.253173828125 89.888671875 -18.318603515625
-41.11572265625 84.23828125 71.597900390625
28.91357421875 132.995361328125 -49.0814208984375
13.163330078125 -50.29248046875 39.2701416015625
25.69384765625 59.629638671875 67.7891845703125
57.44873046875 -52.849609375 -84.1300048828125
66.37255859375 -49.723388671875 -64.7657470703125
36.4541015625 82.02734375 -74.19580078125
-44.197998046875 98.490234375 -13.1412353515625
-66.04736328125 40.53369140625 54.7471923828125
52.0400390625 -46.49658203125 39.48486328125
-6.483642578125 92.342041015625 -34.7386474609375
-25.2236328125 -39.6220703125 9.8624267578125
35.753662109375 -13.431640625 47.08251953125
-0.18701171875 57.97998046875 70.0450439453125
-25.44921875 -80.878173828125 2.1719970703125
21.87939453125 113.7236328125 -39.1314697265625
-60.4912109375 71.0634765625 64.9365234375
25.366455078125 126.427978515625 -54.65625
59.150146484375 -67.26123046875 33.794921875
-25.66162109375 -52.274169921875 6.8287353515625
-36.601806640625 -24.16748046875 40.421630859375
-44.945556640625 -32.177001953125 39.11865234375
64.06396484375 19.555419921875 -71.3724365234375
43.8671875 18.779296875 -59.333740234375
-20.6796875 23.412109375 25.47119140625
-40.10888671875 111.348876953125 -28.035888671875
-22.9013671875 112.639404296875 -41.3856201171875
-25.1689453125 119.31298828125 -35.5975341796875
4.61279296875 9.68310546875 73.0689697265625
-37.251953125 -52.931884765625 34.0684814453125
-60.158935546875 44.911376953125 56.0792236328125
-40.621826171875 -65.623291015625 31.515869140625
27.26513671875 -40.913330078125 40.870361328125
-29.132568359375 18.7294921875 50.4189453125
0.852294921875 108.514892578125 -42.8778076171875
58.873291015625 -80.0341796875 31.9696044921875
33.378662109375 82.393798828125 -48.33984375
31.390869140625 -1.405517578125 49.41015625
-4.38232421875 -58.743408203125 37.5537109375
-65.986328125 -27.722900390625 37.23193359375
42.16650390625 45.239990234375 62.779541015625
56.221923828125 -13.992431640625 -88.906005859375
-31.915771484375 19.770263671875 36.10009765625
54.383056640625 -7.056640625 27.966552734375
-26.16796875 46.81640625 -6.1353759765625
18.8486328125 -69.072998046875 36.2781982421875
49.17724609375 55.56591796875 -81.120849609375
57.650390625 71.938720703125 -45.7989501953125
-3.943603515625 0.84521484375 50.546142578125
-51.91357421875 67.201171875 65.6143798828125
26.790771484375 -21.186279296875 45.113037109375
5.271484375 78.89501953125 87.9200439453125
57.08056640625 18.9267578125 55.490478515625
-59.76708984375 21.011962890625 49.625244140625
-8.43359375 113.193603515625 -57.539306640625
21.29541015625 -42.307861328125 40.2535400390625
-50.9150390625 -74.188232421875 30.39111328125
41.523193359375 23.456298828125 -86.8759765625
-50.571044921875 -67.149658203125 32.20947265625
-46.984130859375 -47.193603515625 35.54443359375
1.31298828125 111.057861328125 -51.7178955078125
-19.607666015625 -44.081787109375 9.5244140625
24.850830078125 -29.185546875 43.7137451171875
25.927490234375 114.129150390625 -58.3953857421875
61.3115234375 77.555908203125 -47.1824951171875
-31.903076171875 129.902587890625 -38.741455078125
-11.594482421875 121.7333984375 -53.7730712890625
1.4638671875 77.75439453125 57.93408203125
24.923828125 9.3115234375 53.07373046875
51.055908203125 27.610595703125 58.6669921875
-50.822998046875 48.64453125 59.755859375
42.1982421875 78.263916015625 72.666015625
60.778564453125 10.033203125 -69.50341796875
-3.5458984375 -76.101806640625 34.3543701171875
-36.591796875 123.583740234375 -38.5374755859375
-30.830810546875 56.417724609375 62.119873046875
-0.87353515625 37.792724609375 61.9259033203125
3.33251953125 30.23046875 38.710205078125
-9.989501953125 127.329833984375 -58.1033935546875
-52.646240234375 112.195556640625 -19.978271484375
23.724609375 116.4541015625 -51.6680908203125
-58.5986328125 -21.083984375 38.9224853515625
32.663818359375 92.477783203125 -70.007568359375
-52.506591796875 -57.4892578125 33.78515625
-30.943115234375 34.75634765625 55.0091552734375
-14.93896484375 -57.06201171875 6.90185546875
-39.06005859375 -42.3818359375 37.0079345703125
56.416015625 -21.46142578125 46.142822265625
59.213623046875 -51.406494140625 36.8031005859375
-24.863037109375 82.848876953125 -12.8048095703125
-24.903076171875 58.845947265625 -3.6318359375
62.623291015625 -8.892333984375 -75.61669921875
-13.34375 69.953125 39.58837890625
-0.54150390625 100.352783203125 -37.5059814453125
-9.22607421875 90.568115234375 -25.83349609375
-33.37939453125 -46.873291015625 34.84619140625
53.17236328125 51.866455078125 65.598876953125
-64.109375 62.741943359375 61.9595947265625
21.93505859375 104.4228515625 -25.0654296875
60.828125 43.624755859375 -60.0853271484375
-21.763671875 62.556396484375 65.08837890625
-17.234619140625 76.317626953125 -13.567138671875
-29.449462890625 111.978759765625 -31.8182373046875
-40.063720703125 39.650390625 57.8228759765625
61.880859375 53.58740234375 -57.47509765625
-54.432861328125 -25.834228515625 39.4400634765625
-21.3125 -63.6171875 5.402099609375
1.788818359375 92.5185546875 -11.3291015625
39.4912109375 58.146728515625 67.1500244140625
-3.208740234375 117.48046875 -61.2908935546875
19.189453125 131.750244140625 -47.0462646484375
3.922607421875 -0.313232421875 50.74853515625
15.89208984375 24.229736328125 56.3580322265625
22.809326171875 -16.8515625 46.31396484375
20.583984375 52.671630859375 65.09228515625
12.99267578125 13.563720703125 54.4407958984375
-36.016845703125 -36.30517578125 38.2406005859375
30.643798828125 16.80029296875 54.4925537109375
-15.38232421875 25.765869140625 25.8192138671875
-65.914794921875 -11.651123046875 40.5338134765625
-38.1708984375 -86.377685546875 27.8328857421875
-9.632080078125 20.7099609375 28.2056884765625
-28.125244140625 94.119873046875 -27.6640625
-63.453857421875 51.3984375 58.5947265625
41.8603515625 27.63623046875 -57.494384765625
64.362060546875 104.810546875 -54.5556640625
16.17626953125 125.645751953125 -54.4854736328125
-4.23095703125 -30.673095703125 43.26513671875
16.074462890625 116.305908203125 -37.07275390625
-35.94287109375 62.00537109375 64.1708984375
43.503662109375 44.738037109375 -58.120849609375
46.0751953125 40.67626953125 62.9361572265625
50.258056640625 5.93896484375 -63.9573974609375
-26.34375 102.407470703125 -38.46533203125
-40.005859375 95.160888671875 -22.8427734375
45.392822265625 12.92529296875 -91.03076171875
-21.358642578125 94.46240234375 -35.77880859375
11.19140625 110.438232421875 -46.0794677734375
18.646240234375 -82.5654296875 33.643310546875
-17.8525390625 84.748291015625 -20.0311279296875
24.654052734375 122.847412109375 -35.008056640625
26.849609375 104.3232421875 -60.2418212890625
40.73388671875 121.458984375 -46.171630859375
-13.982666015625 81.9130859375 -13.49951171875
29.5234375 110.44482421875 -62.13818359375
30.66748046875 52.079833984375 65.4989013671875
-9.15625 -31.53076171875 13.096923828125
-15.355712890625 -73.608642578125 3.8636474609375
24.563720703125 43.736083984375 62.462158203125
-24.582763671875 -48.37060546875 34.0562744140625
-20.401123046875 129.77001953125 -37.92578125
11.949462890625 70.401611328125 88.70263671875
-16.891357421875 120.632568359375 -52.0322265625
34.234375 -76.79833984375 34.146240234375
-27.9072265625 72.9208984375 67.552978515625
5.79931640625 82.55078125 53.0238037109375
-1.465576171875 22.34912109375 32.5819091796875
46.58984375 9.43505859375 51.932373046875
23.086669921875 -56.62890625 38.724609375
-4.474609375 17.47119140625 39.30322265625
-16.94482421875 112.433349609375 -50.838134765625
-30.281005859375 -29.264892578125 39.6922607421875
-52.439208984375 99.250732421875 18.5159912109375
12.315185546875 -90.138427734375 32.0101318359375
-25.86474609375 65.206787109375 -3.25390625
-8.207763671875 33.64306640625 31.020263671875
6.705322265625 -66.636474609375 35.99755859375
54.83642578125 113.0185546875 -53.594970703125
52.141845703125 -60.5546875 -83.3094482421875
37.719482421875 -85.652587890625 33.0162353515625
-64.450927734375 28.61376953125 51.48974609375
67.61181640625 71.659423828125 -48.123291015625
37.26123046875 74.174072265625 71.8590087890625
35.0966796875 61.7958984375 -77.5589599609375
13.877685546875 59.76806640625 68.6087646484375
31.388427734375 91.894775390625 -45.8233642578125
-38.831298828125 93.75732421875 -15.3470458984375
57.45166015625 -26.21875 -88.7781982421875
-15.482421875 14.78759765625 22.9371337890625
29.099365234375 -63.283203125 36.552490234375
23.970947265625 -87.995361328125 33.056396484375
-47.244140625 110.24658203125 -25.4227294921875
39.190673828125 34.706298828125 58.9337158203125
-25.481201171875 -32.726318359375 33.4920654296875
10.625732421875 33.876708984375 59.7388916015625
8.653564453125 -45.162109375 39.838623046875
-48.232421875 85.909912109375 5.6822509765625
13.474853515625 102.31201171875 -25.670654296875
-65.9853515625 -48.138671875 32.18310546875
-53.513427734375 38.243408203125 56.2257080078125
-43.82861328125 115.132568359375 -36.0679931640625
60.814453125 1.388671875 -70.9503173828125
42.824462890625 -39.325439453125 41.557861328125
37.48046875 48.75634765625 -53.232177734375
35.701416015625 -32.46484375 42.9296875
12.838623046875 80.760009765625 55.7972412109375
67.156494140625 81.13671875 -59.404541015625
-12.894287109375 2.717041015625 20.3385009765625
26.17333984375 37.152587890625 60.21484375
-20.616455078125 79.569091796875 -9.7325439453125
-0.22119140625 129.163818359375 -61.0074462890625
56.02490234375 93.29296875 -54.3004150390625
53.616943359375 -27.218017578125 43.599609375
-12.9580078125 -4.580810546875 18.531005859375
52.92333984375 -87.59130859375 32.9647216796875
-49.81201171875 -36.11474609375 37.6279296875
26.9736328125 71.325927734375 70.7659912109375
35.04638671875 102.14697265625 -66.050537109375
-20.41552734375 -32.976318359375 12.2227783203125
-26.792724609375 -85.945556640625 28.8602294921875
-47.0654296875 43.139404296875 58.253662109375
19.18505859375 62.839599609375 69.2547607421875
38.572265625 69.381103515625 -78.6983642578125
-54.056884765625 -46.45068359375 35.37255859375
53.85888671875 -12.119384765625 47.642822265625
-3.536865234375 -65.094970703125 36.1907958984375
14.322509765625 -26.740966796875 43.62353515625
-23.49365234375 -6.9580078125 17.29931640625
-25.803466796875 -75.028564453125 4.132568359375
-28.585693359375 41.829833984375 57.359130859375
46.52294921875 23.821533203125 -61.08642578125
53.494873046875 -60.737548828125 37.045166015625
17.29443359375 35.03076171875 60.4267578125
-28.865234375 -66.194091796875 30.7178955078125
27.649169921875 113.149658203125 -39.1204833984375
30.9404296875 79.511962890625 74.7952880859375
-26.486572265625 116.77294921875 -40.18017578125
49.0869140625 -37.283447265625 -87.0709228515625
-49.608642578125 93.443115234375 7.370849609375
8.56201171875 115.490234375 -48.90771484375
60.3251953125 23.725830078125 35.5269775390625
1.19873046875 -23.952880859375 44.287109375
0.6533203125 48.703125 64.430419921875
60.758544921875 -43.873291015625 15.4805908203125
13.441162109375 -55.381591796875 37.6112060546875
30.8642578125 46.32666015625 63.45263671875
-20.89111328125 -70.826416015625 3.88427734375
-7.975830078125 108.086181640625 -52.737060546875
-57.55029296875 -4.87158203125 42.7236328125
-47.8837890625 102.133056640625 -15.949462890625
-28.781982421875 21.55908203125 32.155517578125
40.521240234375 76.513671875 -76.749267578125
-58.847412109375 -31.870849609375 36.3397216796875
49.189697265625 -3.973388671875 -91.22802734375
14.640625 -71.995361328125 34.8065185546875
50.749267578125 63.36962890625 68.497314453125
33.73876953125 -54.18408203125 38.067138671875
-6.991455078125 85.174072265625 -2.6090087890625
28.762939453125 -85.73681640625 32.74267578125
54.022216796875 13.358154296875 69.340087890625
46.2001953125 -47.511962890625 39.740234375
58.5380859375 96.46826171875 -35.407470703125
4.75537109375 104.37158203125 -41.8714599609375
51.44970703125 -32.408447265625 -89.1595458984375
24.028564453125 -72.29345703125 34.911376953125
-53.322021484375 117.7958984375 -21.3245849609375
-34.45654296875 -12.730224609375 42.845458984375
63.642578125 49.1826171875 -59.8238525390625
56.01220703125 42.380126953125 62.68994140625
33.97802734375 -70.4912109375 35.6431884765625
-19.59228515625 48.031494140625 32.2774658203125
-35.169189453125 117.182373046875 -38.1102294921875
-40.956787109375 18.858642578125 51.06396484375
37.30712890625 131.449951171875 -44.56005859375
-35.682373046875 -77.229248046875 29.3822021484375
-48.13037109375 1.55517578125 45.647216796875
7.020263671875 123.2158203125 -56.58203125
38.2763671875 -80.173583984375 33.9805908203125
-6.685791015625 98.846923828125 -43.0823974609375
18.826904296875 -63.478759765625 36.7528076171875
-14.468017578125 -62.366943359375 6.294677734375
-26.626953125 52.28857421875 61.0009765625
43.849853515625 32.038818359375 58.414306640625
49.250732421875 105.519287109375 -48.7464599609375
-44.80859375 -42.49462890625 36.9873046875
63.225341796875 39.675048828125 -62.920654296875
-34.09326171875 78.9814453125 68.8704833984375
53.557373046875 79.72412109375 73.6300048828125
-7.790771484375 76.04736328125 -3.5447998046875
-49.49951171875 -23.611572265625 41.13134765625
58.036865234375 -85.649169921875 31.941650390625
24.611083984375 118.863525390625 -45.3629150390625
65.993408203125 -61.020263671875 -63.62451171875
43.615966796875 51.332763671875 -85.0606689453125
44.8271484375 34.2294921875 -59.592529296875
-56.6494140625 -91.549560546875 26.9381103515625
42.2060546875 -61.364990234375 37.0101318359375
-58.584716796875 32.93017578125 52.9930419921875
23.661865234375 90.754150390625 -40.0933837890625
28.7705078125 83.799560546875 -45.294921875
-52.2861328125 54.7275390625 61.399169921875
8.310791015625 25.353759765625 35.0780029296875
-48.88232421875 119.4150390625 -27.2181396484375
33.59912109375 27.103271484375 58.657470703125
66.251953125 -39.25927734375 -64.97265625
-24.10302734375 87.978515625 -12.4637451171875
-41.55859375 -20.3505859375 41.1728515625
47.535888671875 32.3623046875 -89.385498046875
0.760986328125 94.425537109375 -27.761474609375
-26.081298828125 -28.06005859375 12.5189208984375
63.41357421875 30.681640625 -66.6126708984375
-14.486572265625 -42.74755859375 9.7586669921875
-34.112060546875 83.421875 -8.6392822265625
57.246826171875 -19.085693359375 64.659423828125
54.020751953125 -68.55908203125 -82.1025390625
39.744384765625 -69.500244140625 35.388671875
8.890625 -80.593994140625 33.9296875
58.97216796875 34.74658203125 56.38232421875
-15.288330078125 41.347412109375 29.5206298828125
33.264892578125 76.692626953125 -49.163330078125
55.537841796875 81.4677734375 -39.46728515625
28.984130859375 -69.240478515625 35.403076171875
38.024169921875 58.542236328125 -81.3726806640625
8.02001953125 93.863037109375 -21.8846435546875
-57.7783203125 77.937744140625 66.980712890625
-13.179443359375 130.677734375 -47.040283203125
1.56494140625 -36.21044921875 41.8782958984375
26.125244140625 -10.07568359375 47.562744140625
-38.2138671875 91.069091796875 -0.839599609375
-0.933837890625 29.96728515625 34.275634765625
-62.49658203125 81.22314453125 68.4627685546875
33.2197265625 70.091552734375 70.5604248046875
36.60595703125 72.670654296875 -50.6134033203125
-50.982666015625 -13.150634765625 43.608154296875
31.13232421875 4.92529296875 51.0604248046875
57.69677734375 -3.517578125 30.7576904296875
-28.449951171875 -45.561767578125 35.8819580078125
-45.5048828125 104.737060546875 -21.3682861328125
46.719970703125 -78.728759765625 33.7979736328125
-38.9921875 23.9375 33.1580810546875
60.067138671875 -71.7802734375 11.414794921875
-39.698974609375 73.4833984375 67.9163818359375
33.139892578125 -88.59521484375 32.1357421875
54.24755859375 25.469482421875 41.1796875
46.026123046875 -34.848388671875 41.9063720703125
15.080078125 -14.364013671875 46.9119873046875
48.176513671875 51.648681640625 64.61962890625
41.01318359375 83.904541015625 -72.921630859375
-25.572265625 -12.924560546875 41.7132568359375
-15.746826171875 75.97509765625 -5.4940185546875
28.956298828125 -51.314697265625 39.2762451171875
-62.432373046875 -86.4765625 26.20751953125
-20.3994140625 72.7197265625 -2.4013671875
42.46923828125 109.93798828125 -49.66845703125
39.313720703125 114.567626953125 -45.589111328125
48.79638671875 -51.789306640625 38.8704833984375
62.6796875 87.965087890625 -41.8699951171875
45.410400390625 -28.7431640625 43.73486328125
31.7431640625 103.06689453125 -41.70654296875
45.2109375 -18.550537109375 45.6663818359375
-25.516845703125 -24.312255859375 39.460205078125
40.828125 2.90576171875 50.6217041015625
46.30078125 -8.0576171875 -89.6669921875
-48.34814453125 98.203857421875 -2.2357177734375
-46.211181640625 -90.02880859375 28.9427490234375
60.82470703125 -81.853759765625 8.75048828125
13.0927734375 -61.91064453125 37.44921875
63.795654296875 14.63330078125 -72.40283203125
-58.726318359375 101.009521484375 17.1031494140625
62.753662109375 96.864501953125 -59.031005859375
43.665283203125 70.863037109375 69.7646484375
-63.606201171875 -57.727294921875 29.876220703125
-31.275634765625 85.0712890625 -13.2906494140625
-57.826416015625 112.31591796875 -10.5379638671875
-14.439697265625 -34.912841796875 11.572265625
49.403564453125 13.14697265625 -63.9954833984375
-28.198486328125 -73.4990234375 31.1099853515625
12.916259765625 120.536865234375 -51.0174560546875
-59.03564453125 117.64208984375 -13.77490234375
31.2490234375 -43.86279296875 40.101806640625
-45.75927734375 99.80615234375 14.327880859375
31.5185546875 87.375244140625 -70.163330078125
65.37158203125 -70.71630859375 -63.300537109375
-13.65380859375 116.00439453125 -49.635498046875
-20.331787109375 18.58154296875 23.6568603515625
-42.997314453125 -11.17431640625 43.2423095703125
-20.69140625 -22.18896484375 15.8087158203125
-32.2763671875 2.407470703125 46.408203125
-6.93359375 87.177978515625 -30.3115234375
43.34814453125 66.80859375 -79.6239013671875
28.055419921875 20.885986328125 56.0484619140625
13.641357421875 43.849365234375 62.1976318359375
45.265869140625 58.34375 67.2415771484375
-19.413330078125 89.8818359375 -31.042236328125
-11.89501953125 80.46923828125 -4.668212890625
0.239990234375 79.73291015625 -3.8221435546875
58.94091796875 -40.6650390625 40.097412109375
20.260986328125 -7.089599609375 48.516845703125
-40.603759765625 -29.4384765625 38.798583984375
48.872802734375 -83.783203125 33.083251953125
53.162353515625 -75.719482421875 34.70751953125
53.391357421875 23.4521484375 56.1153564453125
-55.690673828125 -76.247314453125 29.3021240234375
-30.51953125 28.651123046875 34.4510498046875
-51.927978515625 -86.3427734375 29.2144775390625
-21.538330078125 54.788818359375 61.0784912109375
58.600341796875 51.80126953125 -53.429443359375
33.9140625 84.03466796875 75.5283203125
-39.09619140625 7.15625 47.6197509765625
23.61962890625 -77.450439453125 34.614013671875
-17.77734375 -87.26416015625 2.0369873046875
49.364990234375 -63.3828125 36.6005859375
44.503173828125 90.502197265625 -68.093994140625
-11.3720703125 -81.7470703125 3.921142578125
4.222900390625 21.26416015625 37.3740234375
-33.666259765625 45.427734375 58.5965576171875
24.557861328125 -60.740966796875 36.4918212890625
19.170654296875 127.143798828125 -35.1512451171875
-34.067626953125 73.080078125 6.0130615234375
-27.3115234375 -5.920654296875 44.0721435546875
34.899658203125 67.3720703125 -51.3258056640625
41.23388671875 41.919677734375 -85.8525390625
-16.66796875 64.664306640625 37.4425048828125
-56.416015625 -41.713623046875 35.060302734375
1.30908203125 103.673828125 -47.8497314453125
57.510986328125 83.777587890625 74.1175537109375
7.204833984375 75.29296875 90.5635986328125
-18.09716796875 98.741455078125 -38.0404052734375
50.142578125 -69.843994140625 -78.5152587890625
28.824951171875 -80.2548828125 33.5657958984375
-42.13134765625 84.1357421875 -3.733154296875
18.7783203125 28.02490234375 57.271728515625
45.16845703125 21.295166015625 -90.2008056640625
-41.567138671875 51.3017578125 60.4326171875
-52.958740234375 -6.552734375 43.798095703125
0.00341796875 -83.63671875 33.2677001953125
63.22998046875 89.1630859375 -60.3665771484375
34.80615234375 110.367431640625 -61.6070556640625
42.159423828125 55.06689453125 -55.04833984375
21.227294921875 102.53515625 -37.083740234375
-39.599853515625 107.7880859375 -32.145751953125
50.21142578125 121.82421875 -50.769775390625
-41.510986328125 30.186767578125 37.09033203125
9.744140625 102.490966796875 -36.97998046875
42.976806640625 -87.644775390625 32.4136962890625
-31.68408203125 68.91796875 66.485595703125
-33.734619140625 111.046630859375 -33.782470703125
55.319091796875 -32.482177734375 42.7061767578125
47.73681640625 -13.774658203125 -90.0235595703125
13.708984375 -79.202880859375 33.7093505859375
49.66943359375 15.21630859375 -91.659423828125
8.919921875 -70.856201171875 35.365478515625
18.654541015625 109.15478515625 -28.610595703125
-61.037109375 -72.82080078125 28.35986328125
-26.992919921875 33.415283203125 52.66748046875
-54.341552734375 27.120361328125 52.29541015625
-16.542724609375 -25.38525390625 13.751220703125
20.429931640625 127.69677734375 -49.2330322265625
-45.063232421875 95.093505859375 5.41845703125
-10.88671875 96.0244140625 -39.126953125
53.94677734375 -5.353271484375 48.4344482421875
14.24853515625 50.5126953125 63.846435546875
28.357421875 31.12353515625 58.6781005859375
13.04296875 125.556640625 -58.2288818359375
47.572509765625 -51.817138671875 -82.01123046875
-36.3759765625 28.908447265625 34.0234375
24.8681640625 54.709228515625 65.3106689453125
48.697509765625 -68.90673828125 35.260498046875
-15.943603515625 50.892822265625 33.3006591796875
59.28369140625 -18.54931640625 42.716064453125
-24.961181640625 -76.033447265625 27.9576416015625
0.916259765625 -66.7294921875 35.9776611328125
37.872802734375 25.32177734375 56.2825927734375
22.336669921875 0.158935546875 50.61572265625
7.562255859375 -29.5517578125 43.5931396484375
-33.436767578125 75.93994140625 0.233154296875
-56.81005859375 -65.780517578125 30.510009765625
23.93701171875 66.819091796875 69.43896484375
-44.418212890625 78.704345703125 69.8111572265625
-24.754150390625 98.340576171875 -36.2066650390625
33.3740234375 71.527099609375 -74.64111328125
-48.005615234375 113.849853515625 -28.3873291015625
4.4345703125 124.37939453125 -64.1224365234375
16.709716796875 76.9453125 73.366455078125
-48.607421875 -27.890380859375 39.3341064453125
-56.44970703125 -14.961669921875 40.9771728515625
-66.160400390625 -91.463134765625 25.55224609375
-3.8642578125 93.382568359375 -30.955810546875
-66.10009765625 72.8447265625 66.0430908203125
38.394775390625 -1.23388671875 49.73974609375
-55.1015625 15.271484375 48.8961181640625
-42.11376953125 23.973876953125 38.564208984375
-41.01708984375 29.845703125 54.1019287109375
59.239013671875 -23.6767578125 21.105712890625
-33.571044921875 -6.53125 44.50439453125
-29.347412109375 70.224365234375 -2.8350830078125
41.17529296875 126.52783203125 -47.5155029296875
46.25390625 102.153076171875 -46.181640625
-44.0029296875 100.591064453125 -24.33642578125
3.20849609375 56.93701171875 66.9754638671875
0.96142578125 116.739990234375 -57.7635498046875
9.350341796875 117.567138671875 -53.141357421875
-31.446044921875 86.951416015625 -18.281982421875
-26.1259765625 64.704345703125 64.42529296875
-22.062255859375 84.9658203125 -16.9801025390625
-55.51025390625 10.75390625 47.3516845703125
-28.398681640625 -56.60107421875 33.5130615234375
21.260986328125 118.466796875 -37.767333984375
63.812744140625 81.078369140625 -45.4150390625
-28.034423828125 66.24560546875 4.3616943359375
-31.845947265625 14.11669921875 49.443603515625
0.342529296875 90.87255859375 -7.2220458984375
38.36279296875 -52.409912109375 38.75146484375
60.2626953125 -11.3671875 29.744384765625
7.955078125 -88.569091796875 32.576416015625
-48.54541015625 97.566162109375 -15.3896484375
-24.514404296875 21.92724609375 22.418701171875
3.347412109375 13.86181640625 71.4888916015625
55.959228515625 -70.982421875 35.3941650390625
7.943359375 -2.454833984375 49.668701171875
61.406005859375 34.94580078125 -63.8953857421875
58.9423828125 89.244873046875 -55.55908203125
-8.745849609375 24.792236328125 32.22265625
46.984130859375 6.814208984375 -92.2183837890625
-13.505859375 -15.634765625 15.653076171875
-35.74755859375 93.35986328125 -22.0799560546875
7.510009765625 39.433349609375 61.6097412109375
52.571533203125 47.07763671875 64.734130859375
-21.720947265625 -48.638916015625 8.718505859375
36.227783203125 120.428466796875 -46.260009765625
50.577392578125 -35.6337890625 41.77880859375
-54.694580078125 -36.61181640625 37.032958984375
29.6689453125 124.8837890625 -55.3013916015625
-20.48779296875 -12.82080078125 15.7882080078125
-63.10302734375 3.4052734375 44.1551513671875
-20.406982421875 -82.810546875 1.939697265625
-11.592529296875 -11.39111328125 17.7725830078125
-20.805908203125 127.200439453125 -32.096923828125
-3.220458984375 94.590576171875 -37.090087890625
1.429931640625 71.38525390625 87.334716796875
-60.286376953125 55.27197265625 59.66455078125
43.74609375 -72.428955078125 34.994873046875
-38.7900390625 -69.822265625 31.113525390625
57.00244140625 -64.94970703125 -82.0198974609375
15.123779296875 108.890380859375 -31.860107421875
46.263427734375 132.615478515625 -44.8729248046875
-20.169677734375 109.396484375 -39.62744140625
-43.9306640625 -81.808837890625 27.8388671875
-27.07080078125 -41.304931640625 37.4576416015625
-22.8046875 12.550537109375 48.246826171875
40.184814453125 38.5283203125 -55.742919921875
-9.173583984375 -64.88818359375 7.4176025390625
-15.409912109375 59.6005859375 35.640380859375
51.092041015625 70.71240234375 70.5982666015625
15.400146484375 111.860595703125 -38.8115234375
6.5322265625 99.38427734375 -32.2235107421875
-27.157958984375 112.07080078125 -36.5975341796875
50.310546875 6.792236328125 51.6988525390625
-53.603271484375 92.545654296875 11.620849609375
-55.928466796875 116.6650390625 -17.6356201171875
-25.01318359375 96.494384765625 -32.038818359375
9.948486328125 -19.359130859375 45.641845703125
-57.416015625 48.305908203125 57.6163330078125
-43.810302734375 95.71337890625 0.1517333984375
32.77783203125 -60.675537109375 37.2174072265625
25.497314453125 105.6123046875 -42.0374755859375
9.703857421875 19.760986328125 46.1158447265625
31.89453125 78.6279296875 -72.346435546875
-0.051025390625 -16.485107421875 46.2076416015625
39.885498046875 53.20654296875 -83.272705078125
-9.8701171875 57.5703125 36.1224365234375
4.468505859375 107.004638671875 -45.5533447265625
-50.544921875 16.3095703125 49.7086181640625
-10.558837890625 72.330322265625 -5.5511474609375
-28.72314453125 31.527099609375 1.8580322265625
17.474853515625 103.939208984375 -24.3016357421875
-27.7958984375 78.430908203125 -6.187255859375
-52.92431640625 102.7275390625 -16.2100830078125
-1.742431640625 85.538330078125 -4.7864990234375
-66.695068359375 79.604736328125 67.9908447265625
47.19287109375 -46.652099609375 -83.2884521484375
-50.233642578125 34.64990234375 55.5521240234375
2.782470703125 -7.51123046875 48.1943359375
-60.87451171875 -41.29052734375 33.98388671875
-23.787841796875 -57.98583984375 30.95458984375
8.173828125 55.55908203125 65.05126953125
41.09619140625 91.940673828125 -70.6920166015625
48.593505859375 -2.7900390625 49.5924072265625
24.907958984375 109.90234375 -40.6470947265625
-47.15234375 56.83544921875 62.510986328125
-16.149169921875 -78.46142578125 3.3359375
55.495849609375 97.624267578125 -29.3336181640625
16.21484375 118.63818359375 -44.597900390625
-24.9638671875 39.802978515625 -4.4918212890625
-1.1611328125 -41.050048828125 40.98828125
-54.90869140625 -51.050048828125 33.4666748046875
-52.49853515625 -61.591064453125 31.9444580078125
-25.912353515625 -56.886474609375 7.357421875
-62.82373046875 11.44287109375 45.856689453125
38.87255859375 -29.2900390625 43.0526123046875
-46.034423828125 -20.012451171875 41.163330078125
-9.66357421875 44.318603515625 31.993896484375
17.280029296875 -86.787353515625 32.979248046875
-48.166015625 -56.120849609375 33.7830810546875
47.979248046875 -26.818359375 -88.12255859375
4.29052734375 66.789794921875 89.55517578125
-23.644775390625 90.438720703125 -28.7347412109375
57.779052734375 6.53173828125 51.6566162109375
-26.357177734375 78.6708984375 -12.052490234375
39.92919921875 48.98193359375 63.7921142578125
-43.658203125 -62.409912109375 33.0155029296875
-45.39990234375 -66.5576171875 31.5130615234375
10.042236328125 99.2080078125 -28.793212890625
46.93603515625 17.708251953125 54.1397705078125
45.970703125 -17.564453125 -86.9932861328125
-24.50244140625 -65.27001953125 30.759521484375
35.885498046875 -23.638671875 44.58056640625
55.33935546875 -9.9736328125 -90.621337890625
-21.87548828125 103.86865234375 -38.120361328125
-45.69775390625 47.414306640625 59.636962890625
-49.0703125 7.3388671875 47.53564453125
42.758056640625 -56.1923828125 37.8597412109375
-30.2841796875 119.5654296875 -37.447021484375
-5.0625 111.17578125 -54.0511474609375
-37.11767578125 98.10009765625 -26.2247314453125
47.39306640625 -11.373779296875 47.7464599609375
51.5576171875 -0.291748046875 -91.9635009765625
33.3056640625 38.7841796875 60.6163330078125
50.988525390625 101.3427734375 -50.065185546875
38.622802734375 104.960693359375 -64.16455078125
-59.72412109375 85.259521484375 69.8236083984375
-37.462890625 76.903564453125 -1.3565673828125
-53.452392578125 77.769287109375 68.45361328125
-36.797607421875 -3.4951171875 44.64208984375
-41.71337890625 128.422607421875 -35.7471923828125
-62.099365234375 -1.8876953125 42.9815673828125
-50.4404296875 105.02392578125 18.0616455078125
-31.508544921875 98.973388671875 -27.4349365234375
-15.70849609375 108.508056640625 -48.3399658203125
-49.251953125 -16.564453125 41.2518310546875
-55.754638671875 69.369140625 65.108642578125
-26.460205078125 127.014404296875 -37.9979248046875
52.707763671875 -21.869140625 -91.0372314453125
44.266357421875 -7.4052734375 48.54833984375
-4.073486328125 121.797607421875 -61.267578125
-9.75830078125 112.69091796875 -53.373046875
11.132568359375 68.8515625 70.552978515625
-33.635009765625 52.999267578125 61.1409912109375
44.017822265625 29.349365234375 -88.6195068359375
-2.0322265625 106.68603515625 -45.8304443359375
4.05224609375 -58.994384765625 37.2000732421875
52.818359375 -15.014892578125 -91.7998046875
-8.9326171875 106.299560546875 -48.84033203125
58.6630859375 93.146484375 -47.4761962890625
40.337158203125 81.882080078125 75.8397216796875
-14.6083984375 74.267578125 -10.0062255859375
48.40966796875 33.0810546875 57.6971435546875
39.3515625 64.599853515625 -52.9947509765625
8.17626953125 118.756591796875 -57.1959228515625
-17.80908203125 103.905517578125 -43.9869384765625
51.166748046875 24.027099609375 -90.03662109375
58.60791015625 65.598876953125 69.2353515625
-33.580078125 -20.136474609375 40.4459228515625
48.40185546875 84.01123046875 74.89501953125
42.273681640625 -78.385009765625 33.971923828125
-38.072021484375 85.365966796875 -5.3834228515625
-52.235107421875 109.150146484375 -15.695556640625
-10.71533203125 66.744384765625 38.19580078125
-14.221435546875 85.58935546875 -17.73974609375
43.92236328125 28.38671875 60.822265625
-8.645751953125 -20.20361328125 15.554931640625
-46.821533203125 69.250244140625 65.5477294921875
56.9169921875 105.771240234375 -56.6180419921875
-18.613037109375 78.08544921875 -0.8060302734375
-53.0390625 84.657958984375 70.741455078125
46.142578125 59.6171875 -80.908203125
4.410400390625 -75.5439453125 34.305908203125
-0.3046875 -45.78515625 39.96240234375
10.98046875 -10.887939453125 47.4617919921875
10.376953125 129.56396484375 -61.4202880859375
54.746826171875 59.568603515625 66.686767578125
-32.099609375 -34.451416015625 37.873046875
-60.8203125 -63.241455078125 30.0621337890625
-30.803955078125 104.65576171875 -30.8946533203125
-25.513671875 3.929443359375 46.3990478515625
22.0478515625 73.503662109375 70.332763671875
-41.105712890625 62.780029296875 64.339111328125
53.2744140625 -8.160400390625 34.980224609375
36.894287109375 58.546875 -53.5433349609375
11.2734375 3.951171875 51.174560546875
43.32861328125 6.608154296875 51.7481689453125
56.516357421875 -1.68505859375 49.742919921875
44.888671875 48.2451171875 64.666259765625
28.9375 101.518310546875 -63.4923095703125
61.100341796875 57.61279296875 -55.85986328125
-27.087646484375 69.369140625 9.7508544921875
-21.378662109375 -52.6416015625 7.1485595703125
-44.16845703125 -58.188232421875 33.6578369140625
21.895751953125 35.14697265625 59.8076171875
2.298583984375 40.66650390625 61.531494140625
-45.968505859375 14.629638671875 49.48974609375
37.255859375 49.007568359375 -83.349365234375
-15.80078125 100.305908203125 -41.6978759765625
51.5244140625 -44.455810546875 -86.498046875
-6.682373046875 30.268798828125 35.1190185546875
44.966796875 46.86181640625 -85.835693359375
38.756591796875 -37.21435546875 41.8714599609375
58.183349609375 51.48388671875 64.37353515625
-62.0107421875 -50.18359375 31.881591796875
-65.244140625 -78.577880859375 26.6131591796875
-25.28662109375 -72.53662109375 34.100830078125
-31.462158203125 86.2822265625 -6.890869140625
-48.988037109375 110.41357421875 -21.527099609375
29.738525390625 117.772705078125 -58.98876953125
31.21875 86.91064453125 -46.884521484375
24.583984375 27.2939453125 58.2330322265625
63.353271484375 0.388671875 -74.223876953125
44.948974609375 39.724853515625 -87.5821533203125
-44.05078125 91.064697265625 0.851806640625
-2.686767578125 76.641845703125 -3.7261962890625
46.828369140625 15.7646484375 -61.7381591796875
-41.764892578125 2.60595703125 46.658447265625
-15.885009765625 78.95166015625 -9.2645263671875
-21.19775390625 17.77001953125 64.3133544921875
1.150146484375 108.018798828125 -48.31298828125
51.53759765625 43.614501953125 61.927978515625
-10.972412109375 95.508544921875 -34.2347412109375
39.332275390625 76.478515625 75.240478515625
-37.411865234375 42.93994140625 57.424560546875
54.392333984375 3.252685546875 50.946044921875
-21.490966796875 113.943115234375 -45.7947998046875
-57.32275390625 41.773193359375 55.7840576171875
53.48681640625 -16.647216796875 47.7884521484375
51.279052734375 -56.443603515625 37.503662109375
59.0830078125 17.0146484375 41.6820068359375
57.9462890625 91.7978515625 -36.23095703125
-1.012451171875 -20.484619140625 45.2259521484375
63.67822265625 85.72607421875 -50.2041015625
60.224365234375 67.8671875 -51.4429931640625
59.544189453125 -63.17578125 13.2366943359375
61.01806640625 26.398193359375 -66.8818359375
53.962646484375 121.9384765625 -48.8851318359375
-17.2001953125 107.509033203125 -41.9200439453125
54.78662109375 -56.083984375 -84.4029541015625
54.482421875 101.078369140625 -55.309326171875
-35.52978515625 36.018798828125 55.6654052734375
-46.134033203125 123.15478515625 -32.187744140625
-23.198974609375 -37.70849609375 37.08349609375
-22.139892578125 0.333984375 19.3218994140625
30.41748046875 -23.7666015625 44.6988525390625
-27.2646484375 -20.44970703125 40.8428955078125
-19.014892578125 8.172607421875 21.50634765625
38.219970703125 -9.802001953125 48.1904296875
42.211181640625 38.102294921875 60.1080322265625
-63.829345703125 19.075927734375 48.68017578125
-42.744140625 110.548828125 -34.4512939453125
-14.19287109375 90.372802734375 -25.8421630859375
-28.60546875 -82.18994140625 29.1290283203125
-38.51318359375 -11.50439453125 43.0684814453125
-32.17431640625 60.23388671875 63.831298828125
-62.7744140625 66.620849609375 63.2139892578125
-40.455810546875 -34.6875 38.8170166015625
53.700439453125 -51.67724609375 -85.5286865234375
23.1484375 19.806640625 54.626220703125
-50.72607421875 -79.358154296875 30.9422607421875
-12.096923828125 32.99169921875 28.5213623046875
42.978271484375 118.10498046875 -47.1973876953125
-21.45751953125 15.380859375 57.08251953125
4.1337890625 114.87939453125 -51.2254638671875
-44.251220703125 119.84228515625 -34.8846435546875
-64.333251953125 -23.776611328125 37.5531005859375
54.51953125 7.3623046875 -90.484619140625
-30.19384765625 72.79296875 1.8052978515625
30.046142578125 94.12890625 -65.97607421875
-49.278076171875 29.13330078125 53.7470703125
-50.037353515625 73.63525390625 68.402099609375
27.7333984375 129.3212890625 -52.849609375
7.84814453125 8.3984375 53.5093994140625
17.710205078125 -17.400634765625 45.8760986328125
-3.761474609375 101.55029296875 -44.671630859375
-26.6708984375 18.50146484375 30.3116455078125
63.236572265625 10.480712890625 -73.0875244140625
-16.06005859375 90.514404296875 -33.3897705078125
51.265625 36.89892578125 58.0306396484375
-63.12841796875 -37.941650390625 34.8814697265625
54.549560546875 74.71826171875 -45.089599609375
42.389404296875 113.510498046875 -43.0379638671875
39.56884765625 -21.778076171875 44.80859375
38.402099609375 43.82080078125 -83.5206298828125
-7.4208984375 91.280029296875 -30.2574462890625
-24.7490234375 88.924072265625 -21.1461181640625
-10.915771484375 -56.74072265625 8.490234375
-61.27197265625 97.7763671875 16.79931640625
36.23388671875 -44.203857421875 40.0701904296875
44.545654296875 2.37109375 -88.9337158203125
6.862548828125 -10.987060546875 47.45556640625
-61.472900390625 41.14892578125 55.0518798828125
45.08056640625 20.91552734375 56.72802734375
-55.377685546875 2.2626953125 45.2744140625
-25.70703125 72.744873046875 -0.2650146484375
43.224853515625 66.540771484375 69.649169921875
51.517822265625 4.40087890625 -91.9857177734375
-31.216064453125 -88.338134765625 27.43505859375
59.543212890625 89.762939453125 -39.668212890625
57.02392578125 96.610595703125 -56.4873046875
59.41748046875 -14.063720703125 -77.6065673828125
-11.78271484375 23.237060546875 25.779541015625
40.036376953125 47.096923828125 -55.9666748046875
-59.524658203125 -82.7001953125 26.5616455078125
-41.693115234375 27.44384765625 50.5692138671875
-10.45751953125 -41.122802734375 11.3992919921875
-55.3994140625 35.345458984375 53.9910888671875
56.8505859375 -64.466552734375 35.6942138671875
-40.282470703125 73.908203125 -0.4454345703125
-25.478515625 -64.9423828125 5.5892333984375
48.975341796875 -2.91015625 -60.150146484375
57.49951171875 64.35400390625 -49.6533203125
48.96435546875 -59.077392578125 -81.21240234375
-42.503173828125 55.070556640625 61.6953125
52.271484375 -22.89990234375 46.0933837890625
54.524658203125 109.162353515625 -54.89453125
-62.132080078125 25.021728515625 50.15380859375
57.96044921875 -42.59375 -86.041259765625
12.544189453125 108.470947265625 -41.20947265625
40.356689453125 12.931884765625 53.66748046875
-65.91357421875 -68.677978515625 28.5074462890625
-15.209716796875 73.557373046875 39.92626953125
35.645751953125 10.0556640625 53.2208251953125
2.528564453125 96.92724609375 -36.6435546875
-28.7763671875 57.812255859375 -4.3299560546875
4.93505859375 -81.524169921875 34.02392578125
-25.330078125 -87.99951171875 25.673095703125
3.11669921875 99.288818359375 -40.1207275390625
-53.816650390625 64.16650390625 63.69677734375
-44.5546875 113.948974609375 -31.0096435546875
62.843994140625 101.934326171875 -57.1524658203125
58.259765625 -55.333251953125 36.398681640625
18.498046875 94.772216796875 -39.024658203125
21.8525390625 47.9296875 63.6634521484375
-24.60009765625 16.57958984375 49.489501953125
40.640380859375 -48.881591796875 39.08544921875
57.226806640625 -37.118896484375 -87.19287109375
-47.589111328125 -2.44189453125 45.2911376953125
32.26513671875 65.52783203125 -48.866455078125
27.5390625 85.283203125 -39.533447265625
-0.45458984375 -73.511962890625 34.6903076171875
-65.361328125 -16.441650390625 39.5537109375
58.813232421875 -29.6962890625 42.0921630859375
-12.20263671875 -48.56396484375 9.8629150390625
4.52490234375 -52.5498046875 38.2684326171875
-42.54248046875 -5.87890625 45.2236328125
-32.36572265625 30.52294921875 39.0245361328125
-4.0400390625 -13.9375 47.413330078125
33.284912109375 -5.431640625 49.2996826171875
-7.869384765625 123.935546875 -57.6331787109375
-10.85107421875 16.681884765625 24.9866943359375
43.35693359375 62.501220703125 -81.239501953125
20.3369140625 43.61279296875 62.6455078125
-9.5693359375 52.949951171875 34.18017578125
-22.948974609375 8.933349609375 21.7696533203125
-45.554443359375 26.501708984375 53.5145263671875
57.442626953125 11.10205078125 69.4927978515625
37.652099609375 -61.849853515625 36.734130859375
-17.517333984375 86.82763671875 -23.440185546875
35.55419921875 41.748779296875 62.7271728515625
18.0419921875 -54.499267578125 38.3863525390625
-20.55712890625 122.25244140625 -34.1903076171875
5.856689453125 85.300048828125 -5.59716796875
-43.0302734375 67.9736328125 65.556396484375
-55.6953125 -55.29931640625 32.7666015625
30.155517578125 -37.40576171875 42.090576171875
67.98876953125 56.182373046875 -57.0218505859375
-11.92236328125 49.201171875 32.7625732421875
19.716552734375 -34.102294921875 42.4615478515625
45.482421875 118.462890625 -50.2796630859375
-29.486328125 108.743896484375 -36.3289794921875
46.1162109375 109.95703125 -48.06787109375
-43.742431640625 -86.956787109375 28.3876953125
-8.0703125 88.873291015625 -3.591064453125
53.640625 12.423828125 -90.8394775390625
67.532470703125 81.404296875 -43.8353271484375
-41.116455078125 -14.669921875 43.090087890625
-29.26123046875 44.740234375 -4.00048828125
29.157470703125 62.18017578125 68.65576171875
0.68994140625 127.58544921875 -64.9810791015625
59.00146484375 42.9794921875 -56.6219482421875
-36.881591796875 13.52294921875 49.0003662109375
48.977294921875 -22.3818359375 -89.7987060546875
21.1015625 7.386962890625 52.257568359375
64.177978515625 65.451171875 -53.26318359375
-56.2236328125 -28.835693359375 37.5740966796875
-45.735595703125 -74.049072265625 29.919189453125
-29.922607421875 38.080810546875 56.9046630859375
-24.87109375 47.56884765625 58.7747802734375
-50.52490234375 21.326904296875 52.2113037109375
55.227294921875 -29.491455078125 -88.83544921875
14.94091796875 123.920654296875 -50.689208984375
-58.836669921875 -9.72802734375 40.9791259765625
9.127685546875 -49.072998046875 39.491943359375
21.344970703125 -46.259033203125 40.1292724609375
5.892822265625 27.57373046875 37.2796630859375
-37.494140625 -63.586181640625 32.95458984375
-32.32470703125 70.9296875 9.8685302734375
7.410888671875 128.3505859375 -64.6812744140625
-58.17333984375 74.08251953125 66.220458984375
-4.793701171875 -54.918701171875 38.43994140625
43.693359375 -22.576416015625 44.7222900390625
59.622314453125 0.02685546875 33.3360595703125
-43.361572265625 35.313232421875 55.4576416015625
41.774169921875 73.4384765625 72.59814453125
31.5986328125 -12.181640625 47.1204833984375
-44.28857421875 106.673095703125 -30.2340087890625
-13.068359375 -22.3779296875 14.47509765625
27.341796875 79.53857421875 76.3880615234375
-17.85302734375 -60.40234375 6.7049560546875
52.79833984375 -36.0244140625 -88.39306640625
-9.931396484375 99.925048828125 -45.714599609375
-25.75732421875 -15.8720703125 14.368408203125
53.57666015625 -43.011962890625 40.455078125
-34.432373046875 21.425048828125 33.5784912109375
-10.7822265625 83.781982421875 -2.289794921875
-55.217529296875 23.433837890625 51.053466796875
-35.52490234375 -81.53759765625 29.8414306640625
-42.541015625 -78.70703125 30.149169921875
-17.117431640625 -53.801025390625 7.064697265625
-12.166015625 -72.592041015625 5.9073486328125
39.4169921875 -65.69287109375 36.271484375
3.458251953125 75.45947265625 88.457275390625
49.58984375 45.261474609375 -84.1533203125
27.98779296875 78.6318359375 71.7652587890625
-62.2490234375 31.876953125 52.0863037109375
-50.01220703125 63.901611328125 64.59765625
11.05859375 -36.0185546875 41.947021484375
37.19189453125 18.822509765625 54.678955078125
-46.8388671875 86.34521484375 1.7843017578125
-32.7255859375 90.63671875 -21.575927734375
-28.755615234375 101.20263671875 -35.1119384765625
43.0693359375 22.6416015625 -57.609130859375
39.21728515625 65.862548828125 68.822509765625
66.59765625 68.6005859375 -50.3382568359375
-18.547119140625 56.770751953125 35.2957763671875
59.846435546875 -33.489990234375 19.481201171875
-33.855712890625 126.521484375 -38.800537109375
-54.17041015625 -88.542724609375 26.7313232421875
57.77490234375 102.4326171875 -28.482177734375
-28.4326171875 61.30859375 63.9893798828125
-19.1337890625 -6.42822265625 17.5467529296875
36.015625 56.560791015625 66.38916015625
38.992431640625 51.816162109375 -55.1212158203125
-1.873046875 108.07421875 -51.97705078125
29.658447265625 97.739013671875 -44.0848388671875
-63.25244140625 37.845458984375 54.0220947265625
9.33251953125 81.90966796875 54.57763671875
58.76318359375 -48.22802734375 16.134765625
56.52880859375 20.493896484375 36.781494140625
-64.171630859375 -31.095947265625 36.007080078125
-41.69189453125 121.09814453125 -37.5140380859375
23.840576171875 111.8076171875 -55.23095703125
42.425537109375 31.49951171875 -58.2469482421875
-24.578857421875 65.597412109375 0.588134765625
-26.876953125 24.6513671875 29.8350830078125
-21.925048828125 79.511962890625 -13.50439453125
35.85302734375 30.874267578125 58.445068359375
50.34716796875 -19.267578125 54.5576171875
-17.969482421875 116.20458984375 -51.8837890625
6.884521484375 96.61865234375 -25.724853515625
-27.9326171875 68.06787109375 66.0443115234375
-59.29931640625 114.244873046875 -6.353515625
4.043212890625 -15.498291015625 46.3048095703125
16.7744140625 -24.08544921875 44.99365234375
5.38330078125 46.967041015625 64.2041015625
16.935791015625 40.19384765625 61.7027587890625
-35.449462890625 5.90625 47.435546875
67.205810546875 96.263916015625 -58.9278564453125
58.362060546875 60.6796875 -51.069580078125
-27.742431640625 31.739501953125 -4.66650390625
-38.689453125 113.829833984375 -37.7320556640625
56.049072265625 -48.582763671875 38.9896240234375
-28.186767578125 1.171630859375 46.1834716796875
33.4326171875 65.658447265625 68.7293701171875
-14.7431640625 -1.19140625 18.8372802734375
35.028076171875 98.322509765625 -67.9798583984375
1.13427734375 113.29931640625 -54.8306884765625
-4.06982421875 -4.09423828125 48.8043212890625
-21.04833984375 32.705810546875 28.0753173828125
-32.289794921875 -68.411376953125 30.911865234375
57.408935546875 -15.24169921875 48.8289794921875
33.990966796875 130.352783203125 -41.111572265625
31.20166015625 -48.21435546875 39.4749755859375
8.810791015625 73.145751953125 87.801513671875
-51.0654296875 81.382080078125 70.5150146484375
-0.640625 120.20654296875 -62.0972900390625
13.87841796875 104.569580078125 -30.031982421875
11.560546875 -4.609130859375 49.011474609375
-41.059326171875 -24.269287109375 40.4595947265625
-49.97216796875 88.234375 0.6761474609375
-66.068115234375 -5.50439453125 41.5196533203125
58.10693359375 25.9619140625 37.9312744140625
-28.120849609375 49.40478515625 -4.1214599609375
-56.096435546875 55.92626953125 60.411376953125
-35.510009765625 65.83203125 64.9259033203125
24.07568359375 116.13037109375 -55.7264404296875
