-6.717529296875 3.81591796875 9.39453125
-20.03564453125 2.87353515625 -38.373046875
10.144287109375 -1.078857421875 16.006591796875
16.463623046875 -10.195068359375 18.50537109375
-29.924072265625 17.47509765625 -33.1162109375
-28.21630859375 2.3759765625 -26.53173828125
2.446044921875 -12.027587890625 3.915771484375
-25.095947265625 8.5537109375 -42.1083984375
11.644775390625 0.361328125 17.515869140625
1.94580078125 -12.374267578125 10.352294921875
12.455078125 -13.374755859375 23.94287109375
-11.33544921875 1.375244140625 -7.34521484375
2.87646484375 -12.974853515625 5.2734375
-28.130126953125 -5.0517578125 -28.412353515625
-4.34130859375 -0.093017578125 17.3212890625
-9.273193359375 4.688232421875 -5.853271484375
6.5078125 0.1103515625 16.763671875
-5.60693359375 -2.88818359375 15.49169921875
13.713623046875 -10.336181640625 8.433349609375
2.179931640625 -5.591064453125 3.830810546875
-2.717041015625 -9.146240234375 -7.009033203125
-26.59619140625 0.772216796875 -46.3486328125
13.574462890625 -9.308349609375 19.712158203125
-6.631591796875 2.23828125 -7.359375
-25.216796875 0.6845703125 -45.425048828125
1.968017578125 -3.376708984375 9.986328125
-27.10205078125 -0.703857421875 -32.4501953125
-5.45068359375 1.8525390625 -6.478271484375
-19.891357421875 -3.175048828125 -36.056884765625
1.863525390625 -8.563720703125 10.01904296875
-23.61083984375 1.2822265625 -41.912109375
-18.66064453125 -2.458984375 -33.87646484375
-2.29931640625 -0.705322265625 8.505859375
9.0419921875 0.64013671875 17.101318359375
-6.417236328125 5.515625 1.683349609375
-27.008544921875 4.50341796875 -47.280029296875
14.738525390625 -9.912109375 10.0791015625
-5.661865234375 0.228271484375 18.569580078125
13.00732421875 -5.499755859375 19.3359375
-6.7431640625 4.18017578125 -23.12158203125
-29.892333984375 10.040283203125 -27.736083984375
-27.16162109375 7.607177734375 -30.574462890625
-28.520751953125 9.833740234375 -28.121826171875
-12.7802734375 2.88037109375 -10.85546875
-25.491455078125 3.07958984375 -34.24951171875
-33.068115234375 14.6376953125 -21.1728515625
-5.61083984375 -0.73486328125 -9.702880859375
0.86083984375 -3.90966796875 -0.535888671875
-6.512451171875 9.150634765625 2.236572265625
-31.552734375 12.0087890625 -21.87109375
-25.14404296875 3.62451171875 -45.034423828125
-7.31005859375 11.695068359375 -2.9716796875
-3.3486328125 1.116943359375 -8.5244140625
-0.863037109375 -1.17724609375 -5.393310546875
-4.402099609375 1.4912109375 6.216796875
3.279052734375 -13.9365234375 7.062255859375
-5.01611328125 -3.00732421875 12.107421875
9.921630859375 -6.49169921875 8.1171875
-31.00341796875 12.811279296875 -24.03076171875
-4.5517578125 7.0390625 7.427001953125
-3.580322265625 -3.662841796875 14.69970703125
-6.60595703125 -6.751220703125 -10.62646484375
-28.115234375 1.568603515625 -27.361572265625
-35.45556640625 15.766357421875 -19.568603515625
-30.52880859375 15.01025390625 -28.796875
-7.763427734375 -4.263427734375 -10.790283203125
-5.3671875 -1.447265625 -21.139892578125
-5.7109375 7.31494140625 5.314208984375
12.255615234375 -11.720458984375 24.19287109375
0.959228515625 -1.80078125 -1.113525390625
12.0859375 0.182373046875 16.28125
20.115478515625 -4.269775390625 16.21533203125
-27.6572265625 4.167724609375 -28.31298828125
-21.66015625 0.442626953125 -40.960205078125
-33.366455078125 19.484619140625 -29.462890625
0.664794921875 -12.132568359375 0.927001953125
-9.7021484375 -3.532958984375 15.166015625
-13.29541015625 0.99609375 17.737060546875
-8.346435546875 1.34130859375 -10.28564453125
-6.259521484375 -3.38623046875 14.2724609375
-5.970458984375 6.25 9.176513671875
-30.9638671875 10.220703125 -23.915283203125
-5.979248046875 2.380126953125 -9.476806640625
2.392333984375 -9.337646484375 10.9345703125
-23.719482421875 3.169921875 -39.36669921875
-1.353759765625 -0.841796875 16.098876953125
-31.776611328125 11.796875 -19.7294921875
-25.947265625 10.119140625 -37.465087890625
16.72216796875 -13.6669921875 10.821533203125
-25.05908203125 5.81689453125 -42.913818359375
-4.76171875 8.648193359375 -0.23046875
8.636474609375 -7.02392578125 10.275390625
-29.0576171875 13.8017578125 -32.546875
-5.449951171875 4.23388671875 -2.003173828125
-26.74169921875 9.087158203125 -32.75439453125
-13.131103515625 3.68359375 -5.390380859375
-3.7451171875 -18.193115234375 39.774658203125
-27.0361328125 1.705078125 -47.24609375
-19.515625 2.211669921875 -7.900634765625
-10.313720703125 5.48193359375 -5.49267578125
-2.322021484375 0.10205078125 16.438232421875
-7.998779296875 0.278076171875 18.5927734375
-9.71044921875 -0.387939453125 17.8330078125
-26.793701171875 5.128173828125 -35.211181640625
-14.755126953125 2.724609375 16.735595703125
-2.3486328125 0.036865234375 -1.68408203125
14.69580078125 -12.15673828125 9.4306640625
-2.20166015625 -3.220703125 10.416015625
5.5615234375 -6.207275390625 14.01708984375
10.4990234375 -5.799072265625 20.65576171875
-3.311279296875 -6.54345703125 -8.036865234375
-25.4736328125 5.7900390625 -44.650390625
-27.891845703125 -1.017578125 -29.8583984375
-0.05712890625 -6.850830078125 -0.74755859375
-28.523193359375 15.309326171875 -36.40771484375
-48.2646484375 -9.544921875 -6.074462890625
-22.31396484375 2.477783203125 -35.856689453125
4.5390625 -7.720703125 11.20361328125
15.98876953125 -8.781982421875 13.334716796875
12.0771484375 -12.4990234375 3.535400390625
-25.193603515625 1.898681640625 -42.846923828125
-20.484619140625 1.5888671875 -33.192138671875
8.006103515625 -8.005859375 4.87060546875
9.336669921875 -10.331298828125 21.13525390625
-11.287353515625 3.09130859375 -10.002197265625
-20.907470703125 3.14208984375 -37.54931640625
-24.558837890625 2.25732421875 -41.9658203125
-27.26220703125 4.963134765625 -37.375244140625
14.94091796875 -13.6708984375 9.560546875
-13.411376953125 2.750732421875 -9.154052734375
-5.888916015625 3.921875 3.491943359375
-5.10546875 1.707275390625 3.66943359375
1.7509765625 -10.69287109375 2.10302734375
-2.730224609375 -8.28271484375 -7.92041015625
-0.63623046875 -8.432373046875 -4.04736328125
13.45703125 -8.0966796875 6.138916015625
-6.68896484375 -3.430419921875 13.00634765625
-9.429443359375 2.23828125 -8.232421875
-27.998046875 5.593017578125 -25.795654296875
12.99072265625 0.30224609375 17.50634765625
14.174072265625 -8.0546875 10.33935546875
-31.111083984375 8.480712890625 -20.40966796875
2.4873046875 -10.89208984375 4.252685546875
-6.32861328125 -1.697509765625 -23.279541015625
-15.910400390625 1.781494140625 -7.41259765625
-4.09228515625 -1.682373046875 15.784912109375
-9.6728515625 -0.487548828125 16.14794921875
-29.160400390625 12.75634765625 -41.911865234375
-27.4248046875 5.347900390625 -30.072265625
15.92919921875 -10.03662109375 12.609375
-34.8935546875 19.4072265625 -29.074951171875
14.001953125 -9.6005859375 9.21240234375
-28.6513671875 14.921142578125 -38.103759765625
-27.126708984375 1.969482421875 -32.96923828125
-2.680419921875 -2.3154296875 9.915283203125
-8.4326171875 6.4384765625 -5.123291015625
-27.7578125 14.00048828125 -46.576904296875
1.43994140625 -5.1826171875 12.685791015625
-1.7978515625 0.98388671875 -3.437255859375
-4.558349609375 -2.82861328125 -22.338134765625
-28.1181640625 14.112548828125 -47.873291015625
-26.500732421875 6.21923828125 -39.102783203125
-25.33203125 3.8857421875 -38.576904296875
2.543701171875 -8.40234375 7.453857421875
-26.697998046875 4.942138671875 -39.07958984375
11.730712890625 -2.3759765625 18.202880859375
7.16162109375 0.608642578125 17.54248046875
-19.11474609375 1.387939453125 -33.574951171875
-7.03955078125 -5.693359375 -10.6953125
-1.01904296875 -1.51220703125 3.505126953125
16.786865234375 -6.859130859375 14.4072265625
-29.5615234375 12.19091796875 -30.373291015625
0.54443359375 -1.369873046875 1.80712890625
-18.632080078125 2.181884765625 -6.60888671875
12.11865234375 -12.269775390625 22.141357421875
-4.378662109375 5.330810546875 5.895751953125
-35.052734375 18.409912109375 -27.3408203125
2.70654296875 -5.142333984375 6.75634765625
-33.539306640625 17.5537109375 -28.119873046875
-4.94384765625 2.277587890625 -3.124755859375
-28.547119140625 12.3720703125 -38.890380859375
-2.2236328125 -7.093994140625 -6.71044921875
-2.779541015625 -6.33203125 -7.191650390625
13.21875 -11.062255859375 20.314697265625
-26.090087890625 7.427490234375 -34.3974609375
-26.73681640625 8.79833984375 -45.60595703125
-8.24560546875 -3.56396484375 14.3056640625
-9.304931640625 -2.64794921875 15.92822265625
-19.46044921875 -1.061767578125 -32.648193359375
1.009521484375 -3.369140625 1.53955078125
0.20166015625 -0.642578125 -2.888916015625
2.584228515625 -3.482421875 6.19580078125
1.498046875 -8.198486328125 2.33642578125
-4.507568359375 -2.57373046875 15.451416015625
-21.13818359375 1.60791015625 -39.24169921875
-8.94140625 0.15625 17.34765625
-6.28076171875 3.205322265625 -4.88623046875
-4.736572265625 -3.265869140625 13.40087890625
-0.782958984375 1.142333984375 -3.4423828125
-3.733154296875 1.55908203125 -6.022216796875
-28.75927734375 14.267578125 -33.405029296875
-4.243408203125 0.9482421875 7.10546875
-27.5712890625 4.206298828125 -29.604736328125
-30.739501953125 16.2333984375 -30.548828125
-6.740234375 0.775390625 17.262451171875
8.836181640625 -6.073486328125 5.978515625
-5.65771484375 2.0732421875 8.7001953125
-0.92626953125 -1.970703125 6.498779296875
15.447998046875 -7.301025390625 18.6494140625
-7.82666015625 9.624755859375 -4.081298828125
-6.582763671875 9.385009765625 -3.219970703125
-29.898193359375 15.843505859375 -32.212646484375
-27.303466796875 11.662353515625 -42.25
-28.359375 -0.60205078125 -25.98193359375
-29.67431640625 17.6962890625 -35.661376953125
0.133544921875 -10.35791015625 -0.062255859375
-6.2001953125 -7.823974609375 -10.128173828125
12.283447265625 -6.999267578125 11.5166015625
-27.4228515625 -0.0234375 -48.109375
-24.47998046875 3.49072265625 -40.262451171875
10.592041015625 -12.1708984375 25.535400390625
-0.086181640625 -8.837158203125 -0.175537109375
8.829345703125 -11.287353515625 22.50927734375
17.702392578125 -4.77490234375 14.62109375
-5.487548828125 -19.93505859375 39.177978515625
-23.142822265625 -0.611083984375 -41.858154296875
-31.101318359375 11.825439453125 -23.134765625
-0.005126953125 -9.0419921875 -3.57421875
-6.208740234375 -8.81787109375 -10.06787109375
-6.220458984375 10.785400390625 3.35888671875
-23.34228515625 2.33056640625 -36.31640625
10.380126953125 -6.30810546875 9.783203125
-25.33935546875 3.421630859375 -43.31201171875
-29.21728515625 16.807373046875 -35.197021484375
-14.849365234375 2.065673828125 -6.570068359375
13.7626953125 -11.548828125 6.000244140625
-27.354736328125 6.223876953125 -31.820556640625
-23.8525390625 -0.30810546875 -5.6259765625
-20.479248046875 2.443115234375 -34.077880859375
9.148681640625 -6.718994140625 20.76806640625
-28.13330078125 -0.3837890625 -28.15283203125
0.316650390625 -4.7744140625 10.9638671875
-28.7021484375 10.972900390625 -31.589111328125
-5.806884765625 9.878173828125 4.684326171875
-19.206787109375 2.8173828125 -36.196533203125
-27.845703125 0.951171875 -29.494384765625
2.371337890625 -3.6962890625 8.32470703125
13.377197265625 -9.23828125 6.65478515625
-2.645263671875 -0.94677734375 3.882080078125
-32.064453125 12.276123046875 -18.477783203125
-2.832763671875 0.169677734375 8.85400390625
-11.104736328125 -3.4765625 15.173095703125
-20.77978515625 1.724365234375 -7.0244140625
-27.083251953125 10.990478515625 -34.533935546875
14.417236328125 -11.89892578125 8.141845703125
16.614990234375 -9.383056640625 13.805419921875
-1.988037109375 -1.7392578125 -7.05810546875
-27.025390625 3.947509765625 -33.459716796875
1.040283203125 -2.146484375 3.13427734375
-2.8720703125 -21.63134765625 38.023681640625
-27.50634765625 2.420166015625 -30.40234375
-3.083251953125 -0.144287109375 1.7060546875
-4.2041015625 1.381103515625 -7.704345703125
-3.2509765625 -20.265625 39.1591796875
14.5595703125 -5.70263671875 14.317138671875
-5.1689453125 2.176513671875 0.257568359375
-28.3701171875 11.345703125 -34.15625
-27.336669921875 11.75927734375 -40.54345703125
0.974365234375 -11.38427734375 1.72705078125
11.579833984375 -3.649658203125 18.74951171875
2.408447265625 -9.06591796875 4.107177734375
-32.519287109375 13.0654296875 -20.233154296875
-3.4560546875 -3.725341796875 11.73876953125
1.439697265625 -7.383544921875 10.766357421875
-27.0576171875 11.996337890625 -43.529296875
-29.65380859375 14.245361328125 -44.947998046875
-6.2255859375 7.008544921875 3.24462890625
-34.74072265625 16.96240234375 -20.466552734375
-8.57080078125 -23.0244140625 42.685546875
-34.237548828125 16.9130859375 -21.30517578125
-4.67333984375 6.908203125 -0.517822265625
2.609130859375 -5.067138671875 9.286865234375
-5.831787109375 -0.048095703125 10.153564453125
19.575439453125 -4.611083984375 15.005615234375
-1.62109375 -2.2529296875 8.214599609375
-26.74609375 10.5810546875 -45.6328125
-28.804443359375 13.24951171875 -43.617431640625
-19.212646484375 2.07666015625 -5.752197265625
0.32373046875 -2.20361328125 7.359619140625
-27.608642578125 10.418212890625 -30.257568359375
-28.40234375 -2.694580078125 -27.63720703125
-31.16796875 17.13671875 -31.44189453125
-37.64208984375 15.668701171875 -16.188720703125
-27.85693359375 2.883544921875 -28.26953125
-15.11376953125 2.100830078125 -10.4091796875
-4.436279296875 -20.889892578125 37.972900390625
-35.896728515625 15.01953125 -19.1123046875
0.74951171875 -0.13671875 18.10888671875
-29.025390625 12.0458984375 -32.915771484375
-18.875244140625 2.2314453125 -39.177734375
-6.595703125 -19.00732421875 41.249267578125
-20.7109375 2.842529296875 -34.956298828125
6.986083984375 -4.163818359375 13.8154296875
11.278564453125 -11.88037109375 23.802978515625
-7.622802734375 10.99462890625 -3.758544921875
-0.642578125 -5.65380859375 12.319580078125
-29.425048828125 10.698486328125 -29.888671875
2.380859375 -4.047607421875 4.9755859375
-26.329833984375 8.046875 -32.708984375
-11.541259765625 -2.312255859375 16.343017578125
-2.255615234375 -3.983154296875 13.448486328125
-6.006103515625 1.08984375 -21.270751953125
-25.612060546875 -1.83642578125 -5.9677734375
-16.63330078125 2.960693359375 -9.626708984375
-26.884765625 2.74267578125 -48.98486328125
-27.93212890625 6.580322265625 -26.26416015625
-2.076904296875 -1.57421875 5.200439453125
-2.524658203125 -1.392578125 6.453857421875
-3.438720703125 -0.420654296875 5.9521484375
-31.2412109375 9.871826171875 -22.192626953125
-31.661865234375 16.477294921875 -28.88134765625
-6.478515625 -3.24853515625 19.775390625
-7.068115234375 2.49560546875 -23.90283203125
-27.59130859375 1.181396484375 -32.09228515625
0.60595703125 -9.177734375 1.55810546875
-27.97607421875 -3.996826171875 -30.1904296875
-24.01708984375 2.689697265625 -38.50341796875
-23.19677734375 1.89111328125 -34.144287109375
-23.33642578125 2.217529296875 -37.606689453125
-24.529541015625 2.848876953125 -36.36865234375
-19.70458984375 -1.406005859375 -31.349853515625
-27.844482421875 9.364501953125 -27.23095703125
-34.075927734375 18.29833984375 -28.587158203125
-19.34130859375 -0.15087890625 -35.2587890625
-24.732177734375 3.26220703125 -37.679443359375
-30.83251953125 19.142333984375 -35.31494140625
-3.026611328125 -2.02685546875 -7.89697265625
1.69677734375 -14.09765625 8.79150390625
-25.208984375 -1.028564453125 -44.096435546875
-25.489501953125 6.125732421875 -40.785400390625
-2.2900390625 -0.670166015625 -0.364501953125
11.306884765625 -10.997802734375 22.021240234375
-6.40087890625 4.181884765625 -20.57666015625
-19.031982421875 2.392822265625 -34.461669921875
-28.836181640625 14.506591796875 -38.95166015625
-19.121337890625 2.85595703125 -37.482666015625
-4.41162109375 -7.970458984375 -9.24169921875
5.48828125 -8.6865234375 11.284423828125
-1.123291015625 -0.942138671875 1.771240234375
-30.38037109375 8.64697265625 -23.404296875
-28.26123046875 7.274169921875 -22.01123046875
-30.83349609375 8.830810546875 -22.135986328125
-16.833740234375 2.02294921875 -5.73046875
-28.405029296875 7.710205078125 -24.177490234375
-8.81884765625 3.321533203125 -9.56591796875
-29.397216796875 8.539306640625 -24.664306640625
-0.001220703125 -10.78271484375 -1.314453125
-13.136474609375 -3.66796875 15.636474609375
2.1611328125 -12.155517578125 8.197509765625
-7.7197265625 -3.594970703125 13.029052734375
2.7431640625 -12.158935546875 6.061767578125
-3.287353515625 -7.5185546875 -8.402099609375
-4.89404296875 1.337646484375 -3.90283203125
-7.786376953125 -3.507080078125 15.146240234375
-4.54541015625 0.845703125 2.89404296875
-12.373291015625 2.06298828125 -8.249755859375
-4.389404296875 5.4404296875 7.14453125
14.21240234375 -13.384033203125 25.60546875
-28.7822265625 8.654052734375 -25.9404296875
-7.98291015625 -2.8564453125 15.935546875
-6.343505859375 2.40234375 -20.49072265625
-7.80517578125 2.859375 -6.1416015625
0.537109375 -1.990234375 5.231689453125
-6.787109375 -1.75341796875 -24.140625
-8.290283203125 -2.962890625 11.699951171875
-26.2177734375 10.15869140625 -41.324951171875
-17.317626953125 2.69287109375 -8.337646484375
-34.12158203125 13.77783203125 -19.4443359375
-34.263671875 13.714111328125 -17.309814453125
-26.537109375 10.625732421875 -39.63525390625
-15.31396484375 -0.14892578125 17.873291015625
-35.361328125 14.37841796875 -17.363037109375
-28.26123046875 6.091064453125 -24.963134765625
-27.607177734375 5.99658203125 -29.240478515625
0.267822265625 -7.95556640625 1.038330078125
5.285888671875 -11.363525390625 9.39794921875
4.8349609375 -11.180419921875 10.66015625
-13.96533203125 -0.234375 18.716064453125
-31.039794921875 13.5126953125 -25.34130859375
-0.567138671875 -1.456787109375 4.344970703125
-6.169677734375 10.246337890625 -2.861572265625
-1.7138671875 -4.626220703125 15.197998046875
-30.548828125 14.2861328125 -26.640380859375
-12.1640625 0.234130859375 16.10302734375
-28.547607421875 14.030517578125 -40.209228515625
-28.911376953125 15.408935546875 -37.273681640625
-3.88623046875 -0.239013671875 7.204833984375
1.321044921875 -6.54833984375 2.63330078125
-1.708251953125 0.578857421875 18.066650390625
-4.950439453125 -7.07763671875 -8.875
-5.063720703125 2.91796875 5.2568359375
-32.66650390625 16.081787109375 -22.935302734375
-7.850341796875 -1.59033203125 16.236328125
-1.075439453125 -5.344970703125 14.413330078125
-32.836181640625 16.499267578125 -24.65869140625
-10.71875 0.311767578125 16.504638671875
-11.16796875 0.494140625 17.762451171875
-34.714599609375 17.576171875 -23.896728515625
-35.330078125 18.068115234375 -25.632568359375
-34.544921875 17.65234375 -26.447509765625
-33.92919921875 17.16064453125 -24.711669921875
-1.63427734375 -4.827880859375 11.8271484375
-33.42333984375 17.003662109375 -26.819580078125
-1.74755859375 -4.878662109375 13.527587890625
-32.415283203125 16.30419921875 -25.4912109375
-2.69921875 -4.153564453125 11.34912109375
-0.514404296875 -4.20654296875 -3.91259765625
-10.072021484375 3.0634765625 -6.173095703125
-32.78271484375 17.125732421875 -28.509521484375
-19.743408203125 2.109375 -4.47607421875
10.271240234375 -12.05322265625 23.8369140625
-27.69287109375 5.9580078125 -27.951904296875
-11.39013671875 3.27587890625 -6.19775390625
-24.573486328125 2.093017578125 -33.7607421875
-31.476806640625 10.489013671875 -20.514404296875
-18.62158203125 2.919189453125 -8.791748046875
6.474853515625 -0.75146484375 18.521240234375
-27.486083984375 8.188232421875 -27.60400390625
-30.674560546875 9.7392578125 -25.1728515625
-1.41552734375 -2.6611328125 9.51708984375
-19.036865234375 -0.2861328125 -33.091064453125
-13.20166015625 3.07568359375 -10.022216796875
5.638671875 -7.273681640625 12.0029296875
11.035888671875 -6.275146484375 6.412841796875
-4.509521484375 -0.36962890625 8.907958984375
-4.749267578125 1.053466796875 -9.380859375
5.69091796875 0.384521484375 17.16357421875
19.65087890625 -15.168701171875 12.62939453125
-6.889404296875 -2.4521484375 -10.462646484375
-3.887939453125 -3.4169921875 13.83203125
-31.1103515625 18.9091796875 -32.348876953125
-29.8525390625 18.326171875 -34.8369140625
-4.855224609375 1.23876953125 -5.586669921875
-2.459228515625 -0.74609375 2.17626953125
-35.276123046875 14.416748046875 -18.643798828125
-4.907958984375 -0.1982421875 18.181396484375
-32.368408203125 19.98291015625 -34.115234375
4.948486328125 -5.717529296875 12.28857421875
4.16650390625 -5.3037109375 13.10009765625
-32.090087890625 19.725341796875 -32.82763671875
-32.20263671875 19.6748046875 -31.13427734375
12.032958984375 -10.56884765625 20.70166015625
3.106201171875 -4.63232421875 12.6240234375
-33.456787109375 20.6416015625 -34.16796875
4.779541015625 -5.79345703125 14.82861328125
-11.87060546875 2.75146484375 -11.261962890625
-1.181640625 -7.784423828125 -5.802490234375
-3.411865234375 0.323974609375 3.358154296875
11.474609375 -9.812255859375 20.21044921875
1.73388671875 -2.981689453125 9.109130859375
13.826416015625 -10.28564453125 6.74072265625
-9.954345703125 -3.260498046875 13.440185546875
-4.738037109375 -1.589111328125 20.007568359375
-0.48291015625 -0.30322265625 -4.60498046875
-4.823974609375 1.83349609375 -0.5595703125
1.668701171875 -2.5107421875 5.69482421875
12.468994140625 -4.24609375 14.197998046875
6.69873046875 -5.625732421875 15.217529296875
-2.5107421875 1.310791015625 -4.72998046875
-4.20166015625 1.962890625 -2.25439453125
-7.813720703125 2.624267578125 -8.24169921875
16.02685546875 -11.1201171875 19.022705078125
-6.080322265625 8.36083984375 4.391357421875
0.306396484375 -0.244384765625 -1.230224609375
-10.204345703125 2.541748046875 -8.68359375
10.06201171875 -6.4287109375 6.006103515625
10.339599609375 -6.685546875 7.290283203125
-4.975830078125 3.338623046875 -1.5146484375
-1.10498046875 1.2626953125 -5.138427734375
13.0927734375 -7.63818359375 8.205078125
-3.587890625 -3.164306640625 10.418212890625
-6.1357421875 12.249755859375 -2.1728515625
-4.113525390625 -2.453857421875 -9.15478515625
12.367431640625 -6.96142578125 10.251708984375
11.68798828125 -6.624755859375 8.543701171875
10.5048828125 -5.893310546875 11.00732421875
8.557861328125 -4.863037109375 13.027587890625
7.891357421875 -4.400634765625 12.1494140625
1.605224609375 -11.144775390625 9.819580078125
-7.8857421875 -2.193115234375 11.203369140625
13.756591796875 -7.861328125 11.1650390625
9.947021484375 -5.762939453125 13.94091796875
11.504638671875 -6.587158203125 12.32470703125
-0.56298828125 0.18310546875 19.3525390625
9.669921875 -5.506591796875 12.65869140625
-5.267333984375 4.775390625 -0.359619140625
-1.925537109375 -5.49853515625 -6.81201171875
-6.5888671875 5.05810546875 9.70458984375
-25.27685546875 5.490478515625 -42.05517578125
-0.63134765625 -8.189208984375 -1.93115234375
-7.533447265625 3.096923828125 -9.115234375
-7.274169921875 8.2490234375 -19.104248046875
-4.81201171875 4.677978515625 8.05029296875
-31.940673828125 13.87841796875 -22.8193359375
11.61328125 -5.202392578125 13.4560546875
-29.878662109375 12.656494140625 -28.691162109375
-5.998779296875 6.768798828125 -3.449462890625
-31.47314453125 14.530029296875 -24.968505859375
2.40234375 -7.095947265625 3.950439453125
-5.864990234375 7.511474609375 1.109619140625
-7.54150390625 8.010498046875 11.121826171875
19.33349609375 -10.583984375 13.056640625
13.216552734375 -4.669189453125 13.81298828125
5.352783203125 -0.234375 18.064697265625
3.27783203125 1.10986328125 16.700439453125
-6.043212890625 -3.171142578125 12.129150390625
13.66015625 -4.84912109375 12.571044921875
-7.0703125 4.456787109375 -4.9775390625
9.51708984375 -10.7548828125 22.866455078125
-3.990234375 7.1396484375 6.580322265625
-7.5224609375 1.189208984375 18.073974609375
15.1845703125 -4.84716796875 18.408447265625
13.72021484375 -3.990478515625 18.7578125
-5.12646484375 1.19970703125 8.35205078125
-13.404296875 2.52490234375 16.3173828125
-30.363037109375 15.19482421875 -30.076171875
13.52978515625 -12.26416015625 4.365478515625
-5.28173828125 1.928466796875 -9.018310546875
-1.128173828125 -2.739013671875 -5.71337890625
8.227783203125 0.913818359375 17.5
-6.62109375 11.248779296875 -2.518798828125
-5.625244140625 11.123779296875 4.164794921875
9.344482421875 0.3984375 17.954833984375
-6.18798828125 5.4638671875 -21.4775390625
2.04345703125 -2.8427734375 4.4560546875
-31.7197265625 18.801025390625 -31.090576171875
18.717041015625 -2.422119140625 15.220458984375
18.41015625 -1.94775390625 16.4228515625
14.10009765625 0.63134765625 16.631591796875
15.912109375 -0.43603515625 16.3017578125
15.610595703125 -0.195068359375 15.45166015625
-27.906982421875 12.4970703125 -40.579833984375
-6.653564453125 5.332275390625 -4.614013671875
-30.343994140625 17.66943359375 -32.2861328125
-12.9873046875 0.75 18.60595703125
14.6904296875 -6.62158203125 12.72607421875
15.8916015625 -6.862060546875 13.99609375
-27.938232421875 -2.996826171875 -30.224609375
-23.697265625 -0.820556640625 -42.7412109375
11.06884765625 -1.06787109375 15.996337890625
-18.083984375 -0.870361328125 -38.64794921875
-21.7392578125 1.26220703125 -40.548583984375
-23.68798828125 2.101318359375 -41.499267578125
-25.853515625 4.084228515625 -45.5009765625
-26.489013671875 3.72802734375 -46.384765625
17.422607421875 -1.262451171875 15.121826171875
15.363037109375 -8.18115234375 12.8642578125
-48.97509765625 -9.941162109375 -6.49853515625
-12.17626953125 1.193603515625 16.43408203125
0.328125 -0.1787109375 16.858154296875
1.078857421875 -0.603271484375 16.471435546875
-27.57470703125 3.12548828125 -31.2919921875
-24.998046875 2.102294921875 -44.57275390625
-25.004150390625 3.29833984375 -41.571044921875
-26.527587890625 5.521728515625 -45.97998046875
-22.72705078125 0.9755859375 -33.671142578125
-28.3896484375 3.99853515625 -25.30810546875
-25.020751953125 7.74755859375 -42.518798828125
-27.83984375 4.818359375 -27.4814453125
-22.330322265625 2.23876953125 -38.004638671875
-28.302001953125 10.15625 -28.98388671875
-27.157470703125 5.239013671875 -36.517578125
-28.201416015625 1.530029296875 -26.06494140625
-20.049072265625 3.0986328125 -35.8017578125
-27.989990234375 2.087646484375 -24.35498046875
-28.472900390625 13.62060546875 -46.17333984375
-47.770751953125 -10.48681640625 -6.0078125
-7.1826171875 1.712646484375 -20.0498046875
-29.72705078125 14.65478515625 -38.9853515625
-1.4228515625 -4.32080078125 -5.609619140625
8.044677734375 -10.8720703125 23.323486328125
2.32275390625 -10.48046875 11.036376953125
-7.714111328125 2.5888671875 -19.67822265625
2.3896484375 -8.20703125 3.18896484375
2.2919921875 -8.130615234375 5.732421875
-28.031494140625 -1.197265625 -28.987548828125
-27.037353515625 9.678466796875 -30.2158203125
-27.70849609375 6.79443359375 -28.413818359375
-28.3212890625 0.38916015625 -26.021240234375
-29.0546875 12.529541015625 -36.775146484375
14.02001953125 -10.5810546875 9.297119140625
-14.29345703125 2.045654296875 -8.26708984375
-15.3330078125 2.734619140625 -9.1728515625
-2.711669921875 -0.328369140625 -7.15673828125
10.227294921875 -6.73583984375 8.979248046875
-25.03173828125 1.116943359375 -44.558349609375
0.536376953125 -1.84375 -2.37939453125
-47.41943359375 -10.8515625 -6.86962890625
11.8359375 -11.52587890625 25.02294921875
-0.3671875 -1.955078125 -4.067626953125
-12.47021484375 2.98193359375 -6.611328125
-8.27490234375 -6.308837890625 -11.10205078125
-24.2177734375 2.599853515625 -35.489501953125
9.66943359375 -6.844482421875 9.833251953125
-5.9453125 -1.792724609375 -22.414306640625
0.85791015625 -0.994384765625 -0.751220703125
-30.41357421875 9.244384765625 -26.003173828125
-25.18701171875 3.44677734375 -36.40576171875
-7.16796875 -2.169677734375 15.861572265625
-7.46875 1.20068359375 -10.26708984375
-13.466064453125 1.878662109375 -7.397216796875
-21.18212890625 2.046630859375 -5.3369140625
1.166015625 -5.66259765625 13.578125
-36.6591796875 15.55810546875 -17.447021484375
15.3857421875 -13.60888671875 10.39990234375
-1.49169921875 -2.0771484375 7.35400390625
-3.07470703125 -3.81982421875 12.59228515625
7.714111328125 -6.913330078125 11.11376953125
2.982177734375 -11.077392578125 11.0859375
8.72119140625 -7.22607421875 6.917724609375
-22.562255859375 -1.3662109375 -41.822021484375
12.774169921875 -12.619873046875 24.2802734375
-5.455810546875 -3.349609375 -9.96533203125
-31.599853515625 13.53564453125 -23.649169921875
-3.192626953125 0.189208984375 -2.12158203125
-28.279296875 10.77685546875 -32.42578125
-31.813232421875 14.8720703125 -24.139404296875
-3.216552734375 -0.703369140625 8.087158203125
-29.09326171875 11.569091796875 -36.75048828125
-13.009521484375 1.471923828125 16.83935546875
-28.337158203125 11.24853515625 -35.8623046875
-1.20458984375 -1.713134765625 5.2109375
-0.792724609375 -6.650146484375 -2.8935546875
-1.890869140625 -1.373291015625 3.49365234375
-5.9580078125 0.361328125 16.45068359375
-30.66650390625 14.83837890625 -27.942626953125
6.3486328125 -0.92529296875 19.37646484375
-28.631591796875 13.497314453125 -34.65576171875
-1.9462890625 1.415283203125 -5.57666015625
-29.739013671875 14.48583984375 -30.885498046875
-0.05517578125 -2.109130859375 6.508544921875
-29.848388671875 10.894775390625 -29.051513671875
7.320556640625 -0.7783203125 19.76708984375
7.82373046875 0.149169921875 18.414794921875
-0.764404296875 -0.429443359375 -0.377197265625
-0.92138671875 -0.6171875 0.90234375
1.193603515625 -2.342041015625 7.368896484375
19.203369140625 -5.493408203125 14.67578125
-29.353515625 11.56396484375 -31.62744140625
-28.6416015625 14.209716796875 -36.381103515625
-32.714599609375 12.86669921875 -18.51953125
-7.337646484375 2.455078125 -9.919189453125
-6.260986328125 2.253662109375 -5.243408203125
-19.785888671875 0.310546875 -40.89013671875
-32.66455078125 13.60693359375 -21.115478515625
-25.675048828125 7.27294921875 -44.25244140625
-0.117431640625 0.002197265625 18.105224609375
7.650634765625 -7.946533203125 20.913818359375
-7.74853515625 3.959228515625 -5.79248046875
1.615478515625 -0.275390625 18.112548828125
-28.767333984375 14.700927734375 -47.9072265625
-6.78466796875 8.010009765625 -3.5419921875
10.273681640625 -10.31298828125 21.120849609375
-4.985595703125 1.06396484375 -4.72998046875
-31.5732421875 15.913818359375 -27.15625
-26.431884765625 8.661376953125 -43.4462890625
-34.09912109375 17.08447265625 -22.160888671875
8.095458984375 -1.188232421875 18.963134765625
15.122802734375 -13.46630859375 7.849365234375
1.097900390625 -3.093017578125 2.36376953125
-30.521240234375 16.550537109375 -31.40380859375
-6.08837890625 7.4111328125 4.468994140625
-28.2080078125 -4.100830078125 -26.70703125
-28.078369140625 -3.177490234375 -29.351318359375
-3.662841796875 -21.327392578125 37.57470703125
-28.0693359375 -2.1923828125 -28.9521484375
-4.493896484375 -20.915771484375 38.841552734375
19.01611328125 -7.033203125 13.9873046875
7.254638671875 -0.31201171875 16.37939453125
-4.39111328125 10.32080078125 -0.35595703125
13.696044921875 -9.356201171875 8.349853515625
-6.13818359375 4.191162109375 1.786865234375
-27.825439453125 -0.012451171875 -30.325927734375
-25.284912109375 -0.203369140625 -43.67919921875
-28.178466796875 3.359130859375 -26.570068359375
-27.64892578125 1.155517578125 -31.227294921875
-24.870849609375 -2.284912109375 -5.931884765625
8.81982421875 0.07373046875 16.32568359375
-27.3125 2.94091796875 -48.138916015625
-27.80810546875 1.93798828125 -29.529052734375
19.892333984375 -5.939697265625 15.12890625
-30.246337890625 15.63134765625 -37.322998046875
-25.13623046875 1.924560546875 -43.710205078125
-28.348388671875 12.46142578125 -41.87646484375
-26.740966796875 10.646484375 -35.36767578125
-28.2978515625 3.420654296875 -23.55712890625
-35.552001953125 17.257568359375 -20.496337890625
-3.20361328125 0.35302734375 17.685791015625
-27.82763671875 13.140380859375 -44.859619140625
-25.407470703125 3.62158203125 -39.86669921875
-8.789794921875 -8.367431640625 -11.415771484375
-26.236572265625 4.142333984375 -37.3203125
-23.7421875 3.044189453125 -40.226806640625
-18.85791015625 -0.32275390625 -36.962646484375
-26.921630859375 10.614501953125 -41.78759765625
-25.84423828125 4.044677734375 -36.443115234375
18.992919921875 -3.88037109375 14.94140625
-25.20166015625 4.677490234375 -42.467529296875
-16.719970703125 2.073974609375 -7.43896484375
11.279052734375 -4.734130859375 15.091796875
-20.964599609375 3.116455078125 -36.69091796875
-30.939208984375 10.34375 -23.064208984375
-17.990234375 2.20166015625 -37.858154296875
-29.306640625 7.967041015625 -22.922119140625
-11.414306640625 -3.229248046875 14.300537109375
-29.7880859375 8.13818359375 -21.22509765625
-29.650390625 8.812744140625 -26.39599609375
2.28466796875 -12.46630859375 3.09521484375
-9.455810546875 -3.3046875 12.58935546875
-26.745361328125 8.520751953125 -38.736572265625
2.72412109375 -12.67626953125 10.80224609375
-6.326904296875 -2.789794921875 -24.51318359375
-26.27294921875 8.072509765625 -33.565185546875
2.566162109375 -12.72705078125 4.398681640625
-31.419921875 10.5146484375 -21.370361328125
-30.74365234375 10.54345703125 -24.780517578125
2.682861328125 -11.1904296875 6.83544921875
2.43017578125 -10.917724609375 5.107666015625
-26.067138671875 9.1162109375 -36.158935546875
-1.392333984375 -7.7587890625 -1.539306640625
-36.12158203125 14.80859375 -16.971435546875
-26.98828125 10.808837890625 -38.372314453125
-27.13037109375 10.7451171875 -36.237548828125
-33.8408203125 13.518310546875 -18.14599609375
-28.142822265625 11.44775390625 -37.571533203125
-28.313232421875 11.37109375 -35.010009765625
-5.502197265625 -2.95458984375 -23.63330078125
-26.8193359375 11.38232421875 -45.219970703125
-31.958251953125 13.04248046875 -21.927978515625
-29.2412109375 16.687255859375 -36.043701171875
-28.576416015625 12.85546875 -42.7470703125
2.39892578125 -9.939453125 5.45458984375
-15.816650390625 2.55615234375 -10.871337890625
-4.259033203125 -3.435546875 11.717529296875
-29.1142578125 13.776123046875 -31.695556640625
9.6806640625 -13.2958984375 24.4013671875
-6.5927734375 1.59375 -23.4287109375
-6.44287109375 0.07666015625 -22.508544921875
2.45556640625 -7.456298828125 8.64697265625
-28.70263671875 14.29296875 -34.255859375
-0.3466796875 -5.7861328125 14.448486328125
-11.664794921875 0.5390625 18.611083984375
-10.331298828125 1.521728515625 -6.921142578125
-7.0859375 0.02197265625 -10.615234375
-10.439208984375 0.05322265625 17.7978515625
-32.694580078125 16.562744140625 -26.7841796875
-33.677978515625 16.889404296875 -22.993408203125
-33.844482421875 17.19873046875 -25.987060546875
-33.98583984375 17.13525390625 -23.861328125
-36.058837890625 18.509033203125 -25.667724609375
-12.23291015625 1.168212890625 17.284423828125
-0.490966796875 -10.10693359375 -3.93115234375
-3.1474609375 -9.193603515625 -8.295166015625
-31.60546875 16.502685546875 -29.731201171875
2.54638671875 -6.936279296875 11.568115234375
-20.76513671875 2.92626953125 -4.539306640625
-27.233154296875 -2.7197265625 -31.51953125
-5.843017578125 -1.404296875 15.775146484375
2.1728515625 -7.43896484375 5.25146484375
13.331787109375 -13.1357421875 26.8603515625
-7.305908203125 -2.9375 11.266845703125
-6.306884765625 3.38037109375 -20.9599609375
10.38427734375 -10.888916015625 22.86767578125
2.06787109375 -9.21875 9.22509765625
-8.415771484375 5.49365234375 -5.479736328125
-14.614013671875 2.055419921875 -11.253173828125
7.921630859375 -7.80322265625 8.2353515625
7.80859375 -7.853759765625 9.93017578125
-3.35205078125 0.733154296875 -3.00634765625
-2.346435546875 -0.695556640625 0.482421875
-3.38232421875 -0.395263671875 5.105224609375
-3.37890625 -0.01123046875 -0.417236328125
7.793701171875 -10.60107421875 21.606689453125
6.156494140625 -7.207275390625 20.4365234375
-30.9169921875 19.1044921875 -34.044921875
7.82666015625 -7.102783203125 7.33154296875
3.71923828125 -5.1220703125 14.3525390625
2.658935546875 -4.45068359375 13.87646484375
7.34423828125 -7.70166015625 20.049560546875
-4.16845703125 0.8984375 -3.86767578125
-6.03564453125 2.35498046875 -8.630126953125
3.525390625 -4.82666015625 11.794921875
-3.65087890625 0.482421875 0.389892578125
-4.929443359375 1.8203125 -7.739501953125
-4.414306640625 -0.975341796875 19.51904296875
-3.89404296875 -0.2744140625 16.069580078125
-14.468505859375 2.468017578125 -9.998779296875
-0.765380859375 -7.623046875 -3.251220703125
0.3876953125 -1.5576171875 3.087158203125
12.417724609375 -15.512939453125 24.16943359375
19.8837890625 -13.69580078125 11.65185546875
19.102783203125 -13.282470703125 12.46240234375
-0.18017578125 -0.93115234375 1.77197265625
0.963134765625 -1.56396484375 0.97900390625
2.49658203125 -7.55810546875 6.95849609375
-2.398193359375 1.361328125 -6.42041015625
6.15771484375 -4.986083984375 13.4775390625
-0.99951171875 -6.23828125 -4.20068359375
2.87939453125 -12.728759765625 7.389892578125
-0.232666015625 0.3935546875 -2.965087890625
12.591796875 -12.823974609375 25.99462890625
-0.726806640625 1.16748046875 -4.28662109375
-0.002685546875 -5.3935546875 11.444580078125
1.662109375 -11.119140625 8.96435546875
2.593994140625 -6.411376953125 6.43896484375
-3.75048828125 1.43505859375 -6.85888671875
-0.366455078125 0.271240234375 16.4013671875
10.781982421875 -6.14990234375 12.28955078125
9.529541015625 -5.5693359375 14.7666015625
12.704345703125 -6.810302734375 5.19287109375
9.36474609375 -5.2626953125 11.798095703125
-1.145263671875 0.683349609375 17.209716796875
2.412109375 -5.010498046875 4.630859375
11.339599609375 -6.2802734375 9.356201171875
12.592041015625 -6.86083984375 6.879150390625
11.925537109375 -6.398193359375 6.0009765625
13.51220703125 -11.2783203125 4.286865234375
13.372802734375 -8.134521484375 7.40478515625
-2.79541015625 -1.63134765625 9.43310546875
14.818115234375 -7.30419921875 13.20703125
-28.354736328125 -0.716552734375 -27.2783203125
-3.827392578125 0.902099609375 -1.331298828125
16.454345703125 -9.09228515625 19.2353515625
-2.77490234375 -1.1220703125 4.741455078125
-8.73583984375 7.746337890625 -4.794921875
-5.526611328125 5.878173828125 -2.96337890625
14.7080078125 -12.02880859375 10.2646484375
1.056396484375 -2.021484375 3.96826171875
-26.984130859375 0.43994140625 -32.483642578125
-2.926025390625 0.09619140625 18.970703125
19.5185546875 -14.47509765625 12.1455078125
-2.361083984375 -0.96728515625 7.262451171875
11.743896484375 -6.599609375 7.7001953125
13.011962890625 -13.0185546875 25.163818359375
9.143798828125 -2.940673828125 18.7080078125
10.583740234375 -3.81201171875 18.77783203125
12.506103515625 -11.990966796875 25.90576171875
-6.5078125 7.22314453125 10.76806640625
12.19287109375 -3.99072265625 12.9208984375
6.212158203125 -0.607177734375 16.00048828125
7.651611328125 -1.47802734375 16.0703125
12.465576171875 -4.626953125 19.673095703125
4.937255859375 -0.041748046875 18.886962890625
4.7451171875 0.251220703125 16.3505859375
19.810302734375 -13.605712890625 13.751220703125
-6.36962890625 8.34423828125 9.829833984375
-0.726318359375 -8.7138671875 -4.882568359375
14.4384765625 -4.425048828125 18.79248046875
-4.7060546875 8.67333984375 -1.068359375
2.528076171875 -8.52978515625 6.61474609375
2.619384765625 -9.23583984375 7.523681640625
-2.992919921875 0.1298828125 2.529541015625
17.422119140625 -8.554931640625 14.141845703125
15.398681640625 -9.270263671875 11.7021484375
14.828369140625 -8.6435546875 10.38818359375
0.503173828125 -7.369384765625 1.845458984375
-4.0009765625 1.173095703125 4.5556640625
0.194580078125 -7.122802734375 0.97509765625
-4.961669921875 2.35107421875 6.988525390625
-2.405029296875 0.011474609375 -0.837890625
-8.65478515625 1.934814453125 -7.78173828125
20.141357421875 -5.230712890625 16.307861328125
-4.432861328125 0.896240234375 1.201171875
19.759033203125 -11.641357421875 13.57080078125
-19.187744140625 -0.704833984375 -34.3759765625
-5.66162109375 2.2216796875 1.096923828125
1.365478515625 -6.5537109375 10.693115234375
-23.52587890625 0.424560546875 -33.24658203125
-6.704833984375 2.8193359375 -9.511962890625
-21.77783203125 0.97216796875 -33.21142578125
-26.94189453125 5.17626953125 -31.77392578125
15.603759765625 -10.911865234375 11.427001953125
2.31884765625 0.126953125 17.22607421875
14.81396484375 0.199462890625 16.666259765625
-11.419921875 2.916259765625 -9.14404296875
19.42529296875 -2.620361328125 17.307373046875
-28.150146484375 4.564697265625 -24.034912109375
-18.8544921875 -1.29638671875 -37.369140625
-18.427734375 -1.494140625 -38.213134765625
-4.97119140625 9.00634765625 7.259521484375
-28.158935546875 2.40185546875 -27.39501953125
-18.138427734375 -0.037841796875 -38.669189453125
-28.456787109375 5.889404296875 -23.239990234375
-26.443603515625 2.897216796875 -46.37158203125
2.5029296875 -5.71044921875 5.5341796875
13.4443359375 -8.222900390625 5.30712890625
-5.80712890625 5.0283203125 3.4033203125
13.370849609375 -7.27294921875 6.071044921875
-28.0283203125 7.265380859375 -26.723388671875
2.659423828125 -4.30517578125 6.263916015625
-0.893798828125 -3.135498046875 -4.837158203125
-27.3671875 4.686767578125 -38.23388671875
16.31103515625 -6.453857421875 18.136962890625
-27.306884765625 5.7890625 -37.398193359375
-3.94140625 -0.997314453125 10.227783203125
-6.598876953125 6.423583984375 -4.268798828125
-26.8388671875 5.953369140625 -35.236328125
-6.43359375 -0.77197265625 -21.61865234375
-24.959716796875 4.052734375 -44.17138671875
-27.9560546875 6.455810546875 -27.11865234375
-31.92236328125 12.33984375 -20.613037109375
-27.3642578125 9.19384765625 -28.923583984375
-25.10595703125 6.639892578125 -42.9306640625
-25.001953125 5.842529296875 -43.7724609375
-30.9345703125 12.01171875 -24.4208984375
-6.15380859375 0.98974609375 -10.2392578125
-34.212158203125 14.453857421875 -19.906494140625
-33.361328125 13.347900390625 -19.8359375
-6.5087890625 0.898193359375 -22.546630859375
-6.34765625 9.56298828125 3.039794921875
-5.6796875 1.367431640625 2.4296875
-26.670166015625 7.03271484375 -46.4375
-5.482421875 0.724365234375 1.635009765625
6.731201171875 -1.98193359375 20.31591796875
-30.946533203125 12.836669921875 -24.8837890625
-26.39306640625 8.452392578125 -46.446044921875
8.5380859375 -7.42822265625 8.62353515625
-5.010986328125 3.092041015625 -3.182861328125
20.0234375 -3.45947265625 16.137939453125
8.481689453125 -7.453369140625 9.469970703125
-2.94873046875 -0.26416015625 16.05908203125
-25.519287109375 9.81298828125 -39.58154296875
-31.3466796875 15.521728515625 -26.284423828125
-26.88818359375 10.51708984375 -43.49658203125
-26.701171875 9.76513671875 -45.618896484375
-6.457763671875 5.953125 -20.662109375
-28.726318359375 12.514404296875 -33.775634765625
-27.963623046875 12.4716796875 -39.72705078125
-21.917724609375 1.525634765625 -5.7353515625
-4.740234375 7.71240234375 -0.578369140625
-9.796875 -3.811767578125 14.341796875
-8.8662109375 -3.811279296875 14.759521484375
-27.388671875 -2.04443359375 -31.11181640625
-24.265380859375 0.8720703125 -33.2822265625
-18.863525390625 2.579833984375 -7.4912109375
-6.575439453125 -3.37939453125 11.30224609375
-24.48681640625 0.46435546875 -42.794189453125
-25.43408203125 3.10546875 -35.11083984375
-20.603271484375 0.60498046875 -40.925537109375
-25.29248046875 2.59130859375 -43.29541015625
-21.678466796875 2.7216796875 -36.2734375
18.60498046875 -5.86181640625 14.298583984375
-28.162353515625 0.80908203125 -24.736572265625
-25.10302734375 3.988525390625 -42.01953125
-22.8505859375 -0.012451171875 -41.42626953125
-26.34619140625 5.557861328125 -39.512451171875
-26.63916015625 4.46533203125 -35.6181640625
-26.0693359375 6.982421875 -39.53564453125
-28.086669921875 2.780517578125 -24.818603515625
-27.2705078125 4.685302734375 -30.47509765625
-7.246337890625 1.997314453125 -6.926025390625
6.816162109375 -4.715087890625 12.18505859375
-22.397705078125 1.86083984375 -40.584716796875
-0.54248046875 -8.89697265625 -1.0263671875
-27.278564453125 6.48583984375 -30.538330078125
8.084228515625 -4.69482421875 14.696533203125
-5.32666015625 7.44921875 8.231201171875
-28.414306640625 6.75146484375 -24.565185546875
-28.399658203125 5.9150390625 -24.09912109375
-25.46240234375 9.83837890625 -40.435546875
-26.666259765625 9.34619140625 -31.47705078125
-28.873779296875 11.3935546875 -33.31787109375
13.897705078125 -11.000732421875 8.067138671875
10.68212890625 0.216552734375 17.125
-30.784423828125 11.358642578125 -24.816650390625
-28.90625 13.152099609375 -32.94775390625
-30.195556640625 13.121337890625 -27.010986328125
-31.626708984375 11.1435546875 -20.12158203125
-11.37548828125 -2.976318359375 15.979736328125
-15.52392578125 1.68505859375 -6.55029296875
-5.07861328125 -8.363525390625 -9.224853515625
14.92138671875 -8.239990234375 12.032470703125
-5.443603515625 2.087646484375 -4.381103515625
-2.393798828125 -3.071044921875 15.479248046875
-4.05712890625 1.14794921875 5.4013671875
-33.470947265625 15.666259765625 -21.230224609375
-6.87890625 -7.35302734375 -11.0224609375
14.507080078125 -5.965087890625 13.0859375
-5.281494140625 3.582763671875 -2.37646484375
-6.27587890625 3.783935546875 0.554443359375
-30.424560546875 16.264892578125 -36.494384765625
-6.4326171875 -0.03564453125 -23.77978515625
-4.11279296875 -5.267822265625 -8.1259765625
-20.3720703125 1.174560546875 -39.635986328125
-21.98388671875 1.8896484375 -38.846435546875
-6.52978515625 7.251708984375 2.386474609375
-5.116943359375 5.644775390625 5.0322265625
-3.4345703125 -1.301025390625 15.741943359375
-4.383544921875 6.393798828125 7.063232421875
8.101318359375 -10.8466796875 22.473876953125
-16.20654296875 2.265625 -6.168212890625
-3.999267578125 -3.14111328125 -8.685302734375
-3.455322265625 1.3017578125 -4.73583984375
-2.549072265625 0.73095703125 17.640869140625
-5.7236328125 9.19921875 5.575439453125
2.653564453125 -8.73779296875 11.3046875
-6.79248046875 9.031982421875 -20.815185546875
8.19287109375 -6.458984375 6.01123046875
10.979736328125 -6.30029296875 7.25634765625
2.146240234375 -3.65185546875 4.098876953125
-1.367919921875 0.6787109375 -5.5224609375
12.31494140625 -12.809326171875 22.6171875
0.28076171875 -12.03955078125 0.0625
12.204833984375 -13.977783203125 23.587158203125
2.09228515625 -4.79736328125 12.646240234375
-0.057861328125 -9.81494140625 -0.5302734375
8.1826171875 -0.3017578125 16.36865234375
16.42041015625 -10.943603515625 13.109619140625
-4.797119140625 3.4990234375 5.629150390625
-4.917236328125 5.39111328125 -1.244873046875
12.364013671875 -1.99853515625 18.157958984375
9.113037109375 -5.852783203125 11.43212890625
-5.16943359375 6.723388671875 -1.763671875
20.01220703125 -9.9306640625 14.24951171875
-5.4208984375 8.05126953125 -2.28076171875
7.291259765625 -4.40771484375 14.67626953125
19.693359375 -8.588623046875 14.126953125
-11.85107421875 2.875732421875 -10.419677734375
-5.69970703125 9.362548828125 -2.37744140625
11.77392578125 -4.178955078125 19.21826171875
2.165283203125 -3.288330078125 7.0244140625
-11.424560546875 2.183349609375 -6.97412109375
-8.209716796875 12.647705078125 -3.4619140625
-28.27392578125 2.350341796875 -25.668212890625
-3.884765625 -3.82958984375 -8.21533203125
-9.435546875 3.081298828125 -9.1337890625
-4.05615234375 0.417236328125 7.57177734375
-9.7119140625 1.763671875 -7.35595703125
-6.606201171875 3.13916015625 9.874755859375
-12.557373046875 2.59619140625 -8.710693359375
-8.364501953125 2.644287109375 -6.554931640625
-5.84033203125 2.98583984375 2.72412109375
1.793212890625 -9.560791015625 2.4423828125
-5.97021484375 3.539794921875 1.41650390625
-3.160888671875 0.585693359375 -8.06591796875
-6.51611328125 -1.161376953125 -23.733154296875
-8.323974609375 4.694580078125 -5.8466796875
-2.736083984375 0.62744140625 -6.796875
-26.615478515625 4.590576171875 -34.759521484375
-5.827392578125 5.9716796875 3.747314453125
11.274169921875 0.455322265625 16.678955078125
-4.153564453125 6.72509765625 5.77880859375
-7.7841796875 5.853515625 -5.07861328125
-7.458984375 7.51953125 -4.350830078125
-6.55712890625 3.650390625 -22.6708984375
-36.236572265625 15.3623046875 -18.282470703125
0.96435546875 -5.991455078125 14.45703125
-6.03662109375 10.265625 3.818115234375
-26.221435546875 9.771240234375 -35.754150390625
-25.021484375 8.813232421875 -40.825927734375
-4.912353515625 10.126953125 -1.17724609375
-9.030517578125 11.8759765625 -4.246826171875
