-11.221435546875 1.284423828125 -24.802978515625
-12.62158203125 1.327392578125 -19.0751953125
-12.781494140625 1.448486328125 15.44482421875
-1.066162109375 0.689697265625 -17.615234375
4.732421875 -3.146484375 -33.56689453125
-14.4375 1.52294921875 1.030517578125
2.4716796875 -1.678955078125 -32.213623046875
1.31884765625 -0.54736328125 -24.682861328125
2.576904296875 -0.489501953125 -25.47265625
3.77880859375 -0.453857421875 -24.201904296875
-6.31494140625 -0.7822265625 -31.90771484375
-11.404541015625 -1.03662109375 -26.686767578125
-3.454345703125 -0.6767578125 -31.003173828125
3.44580078125 -0.438720703125 -27.0986328125
2.909912109375 -0.50439453125 -22.575927734375
0.1396484375 -0.57421875 -26.778076171875
1.4091796875 -0.51171875 -27.980224609375
3.101806640625 -0.428466796875 -29.583251953125
-8.526123046875 2.1240234375 -20.548095703125
-13.525634765625 1.2490234375 -30.6201171875
-14.217041015625 0.962646484375 -19.96923828125
-12.542236328125 1.199951171875 -21.55224609375
-11.7509765625 1.23388671875 -5.904541015625
-5.238525390625 1.328369140625 11.12060546875
-2.450927734375 1.55517578125 -0.7158203125
-10.36279296875 1.344970703125 -11.617431640625
-1.47314453125 1.650146484375 -6.440185546875
-1.00146484375 1.544677734375 6.30859375
0.89208984375 1.563720703125 12.11279296875
0.307861328125 1.624755859375 3.46923828125
-3.21533203125 1.544921875 -2.791259765625
-4.02587890625 8.956787109375 2.117431640625
-14.8310546875 2.948486328125 11.342529296875
-0.293212890625 -2.71728515625 -33.63623046875
0.436279296875 -21.81982421875 18.46142578125
-5.322265625 8.69775390625 -23.121337890625
-3.754150390625 10.164794921875 3.001220703125
0.555908203125 1.2421875 -3.94873046875
-9.795166015625 1.423583984375 -17.353271484375
-1.884765625 1.806884765625 7.530517578125
-7.671142578125 1.0556640625 -18.567626953125
-4.97802734375 8.712646484375 7.764892578125
-2.07373046875 9.140625 -24.21923828125
-4.089599609375 8.775634765625 4.948486328125
-10.585205078125 8.513671875 5.173583984375
-8.907958984375 8.888916015625 -26.43896484375
-14.212158203125 1.135986328125 -5.972900390625
-8.368896484375 11.004638671875 5.759033203125
-7.60595703125 11.019287109375 7.397216796875
-10.44677734375 -0.13671875 -19.15234375
-1.966552734375 1.93408203125 9.99853515625
-10.844970703125 6.685546875 5.076171875
-12.562255859375 -0.73486328125 -30.398193359375
-9.4375 3.190673828125 8.626220703125
-8.154296875 1.48876953125 -17.3076171875
-11.1201171875 5.31201171875 4.184326171875
-10.13916015625 9.01171875 2.369384765625
-6.837890625 6.486572265625 -20.516357421875
-9.008544921875 8.560546875 6.841064453125
-0.750244140625 1.48388671875 -2.3212890625
-0.43896484375 1.767333984375 -14.217041015625
-14.937255859375 1.787841796875 3.495849609375
-10.49853515625 2.390380859375 -24.2666015625
2.43017578125 -0.547607421875 -20.1142578125
-5.079345703125 -0.733154296875 -31.873291015625
-1.40625 -0.599365234375 -30.53369140625
3.970703125 -0.377685546875 -31.208984375
-0.08251953125 -0.339599609375 -19.74365234375
-15.69384765625 2.898193359375 12.956298828125
-7.80322265625 8.893310546875 -22.349365234375
-13.037841796875 1.16259765625 -3.88623046875
-11.05419921875 1.217529296875 -1.365966796875
-5.204833984375 1.341552734375 9.88916015625
-15.386474609375 1.4267578125 -8.859375
-12.158935546875 -1.362548828125 -28.39013671875
-5.968994140625 11.092041015625 6.63427734375
1.194580078125 -0.09814453125 -7.317626953125
-9.309814453125 1.49609375 8.966552734375
-10.480712890625 1.444580078125 -22.30224609375
-3.303466796875 -2.069091796875 -31.97802734375
-6.6484375 4.041259765625 -19.91796875
-11.990234375 -0.162109375 -22.902099609375
1.023193359375 0.302734375 -17.185546875
-10.707275390625 4.54443359375 6.19970703125
-12.07763671875 -1.811767578125 -30.088623046875
-9.950439453125 10.95361328125 4.502197265625
-14.572265625 1.15234375 6.759765625
-13.343505859375 1.835205078125 5.181396484375
-12.510986328125 1.396728515625 6.003173828125
-10.600830078125 9.12841796875 3.98681640625
-13.71484375 -2.5146484375 -28.960205078125
-15.380126953125 2.706787109375 2.30224609375
-13.705322265625 1.01904296875 -23.654296875
1.79248046875 -0.6533203125 -11.882080078125
0.63037109375 -0.526611328125 -29.65185546875
1.076171875 -0.496826171875 -30.876953125
2.210205078125 -0.48779296875 -27.133056640625
-5.491943359375 0.052978515625 -34.271240234375
-10.812744140625 -0.13525390625 -20.81005859375
0.568115234375 -0.69775390625 -12.32861328125
-7.24462890625 1.2646484375 9.42138671875
-10.166259765625 1.27685546875 -3.806396484375
-5.2099609375 1.485595703125 -4.90087890625
-11.537109375 1.318359375 -13.704345703125
-9.88525390625 1.387939453125 -14.069091796875
-6.496826171875 1.41455078125 -2.882568359375
-13.5771484375 1.241455078125 -14.171875
-3.136474609375 1.575927734375 -5.664794921875
-0.877685546875 1.593505859375 1.79296875
-11.8798828125 1.328857421875 -16.1787109375
-4.46826171875 1.487060546875 -2.00439453125
-7.071044921875 -0.7880859375 -34.40380859375
-8.084228515625 -0.093994140625 -29.811767578125
-0.127685546875 -0.357421875 -18.095703125
-11.208740234375 -1.600830078125 -32.1123046875
-12.40966796875 -2.11767578125 -32.197265625
-9.24658203125 6.11279296875 7.943115234375
-4.792236328125 6.57177734375 -20.866943359375
-11.3388671875 3.6396484375 2.046630859375
-7.692138671875 8.937255859375 -26.405029296875
-2.906494140625 9.099609375 -23.4306640625
-2.44580078125 9.1376953125 -25.447265625
3.09375 3.95556640625 13.0810546875
0.677001953125 0.4873046875 -5.641845703125
-14.126953125 4.03857421875 12.630126953125
-8.708740234375 4.58447265625 -21.145751953125
-14.511962890625 2.92919921875 14.627197265625
-12.483154296875 4.10791015625 12.26708984375
-3.939697265625 11.1767578125 6.28662109375
1.273681640625 -0.066650390625 -10.199951171875
-11.8291015625 2.009521484375 9.3330078125
-10.966064453125 2.218017578125 7.31298828125
-11.836181640625 3.430419921875 5.7080078125
-6.947265625 8.00830078125 -21.192626953125
-10.476806640625 3.68994140625 0.43408203125
-14.645263671875 1.7451171875 -6.764404296875
-9.04931640625 9.321044921875 6.064453125
-0.400146484375 -0.47998046875 -22.6533203125
-3.1064453125 0.453369140625 -17.685546875
1.639892578125 -0.068359375 -8.54150390625
-1.624755859375 1.736083984375 -15.893310546875
-3.770263671875 -0.97705078125 -33.52197265625
1.099365234375 -25.699462890625 23.096923828125
-11.82373046875 1.35107421875 -18.2314453125
-11.62744140625 3.0517578125 13.888427734375
-15.16162109375 2.805419921875 8.869873046875
2.285888671875 -3.719970703125 -33.2734375
-14.22998046875 1.458984375 8.42578125
-15.004638671875 2.23583984375 4.747802734375
-11.957275390625 2.90869140625 11.41650390625
-12.970703125 4.374755859375 14.3076171875
-10.02197265625 -0.929443359375 -32.010986328125
-1.849609375 0.992919921875 -20.078125
-0.42724609375 -22.375732421875 20.558349609375
-6.051513671875 1.112060546875 -17.7001953125
-2.10888671875 -1.552001953125 -31.893310546875
-9.647216796875 2.59423828125 -25.8681640625
-12.1220703125 1.0869140625 7.642578125
-5.63671875 1.60888671875 -19.291748046875
-14.50146484375 4.03564453125 11.393310546875
-3.031982421875 10.62841796875 4.6640625
1.284912109375 -0.560791015625 -23.4462890625
-12.42919921875 1.085693359375 -25.262939453125
0.95166015625 -24.01708984375 22.697265625
-6.756591796875 5.418701171875 -20.2041015625
-9.400390625 3.179931640625 -21.702880859375
-4.37451171875 -0.894287109375 -12.466064453125
-13.39404296875 -1.892333984375 -27.23388671875
-2.2392578125 0.50390625 -19.30810546875
-13.408203125 -0.7763671875 -29.59716796875
0.11669921875 1.549072265625 10.447998046875
-4.97900390625 -1.33740234375 -33.590576171875
-1.317626953125 -0.388671875 -19.778076171875
-3.736328125 -1.608642578125 -32.764892578125
-14.746337890625 1.38818359375 -2.271484375
-10.10107421875 7.0029296875 6.739501953125
-13.852294921875 1.278564453125 -19.109375
-13.8857421875 1.1064453125 -17.48046875
-4.09228515625 7.97021484375 -21.127197265625
-9.57421875 1.98828125 -26.7490234375
2.271484375 1.991943359375 5.59326171875
1.662841796875 -0.557861328125 -22.1982421875
-0.67529296875 1.673828125 -5.59619140625
-9.80859375 9.928466796875 2.427734375
-2.10400390625 -1.227294921875 -33.09765625
-0.421142578125 -1.63330078125 -32.68994140625
-6.839599609375 -13.347412109375 -35.825927734375
0.8955078125 -23.172119140625 21.857666015625
-4.239013671875 -0.840576171875 -17.412353515625
-0.3271484375 1.519287109375 11.668212890625
1.36669921875 -22.10009765625 16.771484375
-7.73681640625 7.98486328125 -22.027587890625
-8.534912109375 7.356689453125 8.017578125
1.5302734375 -0.28759765625 -18.4619140625
-16.078857421875 3.678466796875 10.110595703125
-12.1298828125 0.73974609375 -20.350341796875
0.400390625 0.027099609375 -23.410888671875
-5.110107421875 10.68017578125 6.232177734375
-2.03759765625 -1.685546875 -33.974853515625
-3.955810546875 8.4931640625 -27.581787109375
-7.06494140625 -1.26806640625 -33.21826171875
-8.482421875 1.186279296875 -19.3984375
-11.292724609375 -0.01904296875 -18.750244140625
-10.146484375 2.54248046875 -22.601318359375
-11.931640625 1.3212890625 0.26171875
5.465087890625 -2.661865234375 -31.837158203125
-14.55517578125 1.622314453125 -9.64599609375
1.2919921875 0.1015625 -11.423828125
-3.421142578125 -0.48828125 -18.1875
-2.93994140625 9.08642578125 -22.2138671875
-4.96630859375 9.005859375 -22.270263671875
-9.56103515625 -0.8798828125 -19.19677734375
-14.1787109375 1.30810546875 -7.6044921875
-0.7666015625 2.290771484375 10.044677734375
-9.32177734375 1.942138671875 -20.994873046875
-4.108642578125 2.612548828125 10.791015625
-10.667236328125 3.614501953125 7.384521484375
-10.35693359375 1.493408203125 -26.81787109375
-11.7392578125 2.045166015625 6.053955078125
-13.605712890625 1.24267578125 1.447265625
3.94873046875 -3.488525390625 -34.038818359375
5.515625 -2.804931640625 -33.095703125
-12.95703125 -2.5087890625 -26.45849609375
-13.127685546875 1.127197265625 -0.60205078125
-11.26611328125 -1.463134765625 -30.445556640625
-14.8759765625 2.77294921875 13.383056640625
-11.724365234375 -1.337158203125 -29.203369140625
-0.56005859375 -0.5576171875 -31.335205078125
-6.7607421875 -0.81201171875 -30.6826171875
-9.6552734375 -0.930908203125 -30.3505859375
1.61767578125 -0.57568359375 -20.549560546875
1.44287109375 -0.498291015625 -29.216796875
-8.419677734375 -0.8818359375 -30.31640625
-3.26318359375 -0.894287109375 -7.897705078125
3.011474609375 -0.464111328125 -26.28564453125
3.34423828125 -0.47900390625 -23.388916015625
1.623046875 -0.72021484375 -5.69921875
-4.266845703125 -0.704833984375 -31.438232421875
0.929443359375 -0.554931640625 -25.5185546875
2.96630859375 -0.48193359375 -24.636962890625
0.974609375 -0.536865234375 -27.16748046875
1.99560546875 -0.57275390625 -19.301513671875
-5.051513671875 -0.868896484375 -17.847412109375
0.68701171875 -0.504150390625 -31.712890625
1.228271484375 -0.583251953125 -21.38525390625
3.490966796875 -0.4208984375 -28.747314453125
-3.9853515625 -0.88671875 -11.63037109375
3.5361328125 -0.403076171875 -30.39599609375
2.097412109375 -0.532470703125 -23.01123046875
-0.4716796875 -0.34716796875 -20.5791015625
-12.970947265625 -1.711181640625 -28.0322265625
-1.561279296875 1.629150390625 11.22900390625
0.805908203125 -0.10546875 -8.152587890625
-12.091796875 -0.2021484375 -19.197998046875
-5.799072265625 8.96484375 -21.481689453125
-9.438720703125 10.08544921875 3.255859375
-11.180908203125 0.184814453125 -23.26171875
-16.552734375 4.264404296875 10.939697265625
-14.51025390625 1.64013671875 -11.286865234375
-7.282958984375 1.06298828125 -17.734375
-4.35302734375 1.199462890625 -19.708740234375
-9.7236328125 0.97412109375 -18.624755859375
-14.104736328125 1.165771484375 -24.472412109375
-13.2119140625 1.239990234375 -12.518310546875
-11.925048828125 1.31103515625 -14.536865234375
-0.8154296875 1.764404296875 -15.4599609375
0.05908203125 1.51220703125 -1.887939453125
-2.50146484375 1.681396484375 -13.86376953125
-3.720703125 1.636962890625 -14.308349609375
-1.15283203125 1.630859375 -3.14453125
-0.939208984375 1.71533203125 -10.9443359375
-11.85205078125 1.19384765625 -2.2099609375
-4.642333984375 1.564208984375 -10.63671875
-13.925048828125 1.395751953125 -31.436279296875
-13.509521484375 1.26806640625 -16.635009765625
-11.571044921875 1.30517578125 -12.47265625
-9.070068359375 1.564697265625 -28.836181640625
1.246826171875 1.85009765625 -15.8134765625
-10.919189453125 1.27099609375 -6.292236328125
-9.042236328125 1.429443359375 -14.867431640625
-8.345458984375 1.4130859375 -10.328857421875
0.431640625 1.673583984375 -1.04638671875
-13.95361328125 1.238525390625 -15.414794921875
-13.65576171875 1.210205078125 -11.29833984375
-12.138671875 1.2265625 -6.737060546875
-10.6494140625 1.377685546875 -16.14453125
-8.266845703125 1.4443359375 -13.202392578125
-4.822265625 1.492919921875 -4.068359375
-3.63134765625 1.380126953125 12.39794921875
-2.810302734375 1.705078125 -17.56982421875
-1.591552734375 1.45703125 12.865478515625
-0.42236328125 1.627685546875 0.162353515625
-13.054443359375 1.30224609375 -18.265625
-12.919921875 1.063232421875 6.798583984375
-8.721923828125 1.41015625 -11.57177734375
-0.07373046875 1.765625 -12.563720703125
-5.266357421875 1.46337890625 -2.848388671875
1.723876953125 1.600830078125 11.725341796875
-9.497314453125 1.3955078125 -13.23681640625
-12.458984375 1.245849609375 -10.032470703125
-6.867431640625 1.56005859375 -19.325927734375
-0.068603515625 1.621826171875 2.226318359375
-13.093994140625 1.140380859375 -1.833740234375
-8.986083984375 1.451904296875 -16.919921875
-2.2822265625 1.621826171875 -6.87353515625
-15.0888671875 1.081298828125 -3.943359375
-14.009765625 1.21630859375 -13.3623046875
-13.70068359375 1.1923828125 -9.65625
-12.92529296875 1.207275390625 -7.991455078125
-12.228515625 1.19091796875 -3.452880859375
-4.850830078125 1.335693359375 11.953125
-2.855224609375 1.687255859375 -15.927734375
-1.231689453125 1.599609375 -0.27099609375
-13.970703125 1.085693359375 0.196044921875
-13.846923828125 1.134521484375 -4.319580078125
-12.352294921875 1.141845703125 1.062744140625
-12.026123046875 1.27099609375 -10.842041015625
-10.604248046875 1.3955078125 -17.78662109375
-9.851318359375 1.4013671875 -15.30078125
-7.67724609375 1.239501953125 10.231201171875
-6.53076171875 1.401123046875 -1.65087890625
-6.2607421875 1.508056640625 -11.50341796875
-4.373046875 1.378662109375 9.50146484375
-3.945556640625 1.5478515625 -6.09814453125
-1.962158203125 1.6025390625 -3.577880859375
-1.608154296875 1.5966796875 -1.513916015625
-1.04052734375 1.67529296875 -7.249755859375
-0.956298828125 1.5625 4.66650390625
-7.294921875 1.390869140625 -3.726318359375
-2.8388671875 1.5478515625 -1.54833984375
-0.523681640625 1.587646484375 3.85693359375
-14.369140625 1.3662109375 -30.21630859375
-3.60302734375 1.537353515625 -3.62353515625
-1.529296875 1.6279296875 -4.3876953125
-12.97021484375 1.189453125 -6.349365234375
-11.4921875 1.336181640625 -15.346435546875
-1.4677734375 1.506103515625 8.349853515625
0.50439453125 1.556396484375 11.280517578125
0.7744140625 1.663330078125 1.42822265625
-13.044921875 0.33837890625 -30.706787109375
1.8642578125 2.296875 4.36572265625
-11.783447265625 1.869140625 8.096923828125
-8.468994140625 6.73388671875 -21.348388671875
-12.659423828125 1.97265625 9.72021484375
-10.32568359375 6.58984375 1.418212890625
-2.903076171875 9.747314453125 3.000732421875
-13.069580078125 0.965576171875 -31.463134765625
-12.82958984375 2.38037109375 14.6533203125
2.18310546875 4.839599609375 13.089599609375
-11.1259765625 2.6298828125 11.83740234375
-15.262451171875 2.92333984375 12.1494140625
-13.3203125 3.437255859375 14.67578125
-9.326904296875 4.655029296875 0.518310546875
0.863037109375 -22.3203125 20.167236328125
-13.787109375 4.65625 13.478759765625
2.042236328125 6.681640625 11.5234375
3.02294921875 -2.907958984375 -32.750732421875
-1.90771484375 7.641845703125 -25.177978515625
-8.6123046875 8.7060546875 -21.980224609375
-9.138671875 10.524169921875 5.715576171875
-4.811279296875 8.778564453125 1.681396484375
-2.9072265625 8.810791015625 6.198974609375
-3.190185546875 8.843017578125 1.726318359375
-8.963623046875 8.866943359375 -24.4111328125
-8.48046875 8.913818359375 -27.23876953125
-4.156494140625 8.749267578125 7.382080078125
0.91064453125 0.258056640625 -13.070068359375
-5.587646484375 11.099365234375 7.45361328125
-6.787353515625 11.0556640625 7.015869140625
-9.120849609375 10.99462890625 3.716796875
-9.0654296875 11.016357421875 1.697021484375
-8.794677734375 10.97998046875 6.5556640625
-8.2802734375 11.039794921875 2.52734375
-13.7841796875 0.98779296875 -20.779296875
-1.302001953125 -1.203369140625 -32.24951171875
-4.700439453125 0.08740234375 -18.58056640625
1.04296875 0.48583984375 -3.985107421875
-1.45458984375 0.682373046875 -18.44921875
-0.026123046875 -0.3173828125 -21.803466796875
-2.97998046875 -0.957763671875 -32.261962890625
-12.575439453125 -0.260498046875 -31.172607421875
-1.547119140625 1.286865234375 -17.163818359375
-11.18359375 2.119140625 0.73681640625
2.5087890625 5.773681640625 12.724365234375
1.37890625 2.570068359375 6.0087890625
-14.470947265625 1.03369140625 3.46875
-14.0498046875 1.371826171875 2.2646484375
-15.487060546875 2.020263671875 -6.7666015625
-8.62548828125 8.56787109375 7.66357421875
-0.430908203125 -21.6875 18.441650390625
0.96630859375 -2.985595703125 -33.22216796875
-13.761962890625 -1.5703125 -29.689453125
-7.668701171875 -13.37646484375 -36.27001953125
1.74609375 -23.486083984375 23.1572265625
-10.36669921875 -0.26513671875 -21.6357421875
-12.781005859375 0.455810546875 -25.745361328125
1.805419921875 1.953369140625 7.63330078125
-14.12646484375 3.72412109375 13.436767578125
-14.35498046875 2.83349609375 9.3017578125
0.156494140625 1.710693359375 -5.98388671875
-10.1513671875 3.174072265625 -24.181884765625
0.1328125 0.725341796875 -16.34716796875
-10.907958984375 3.664794921875 1.240234375
-14.875244140625 1.483154296875 -12.54052734375
-9.861328125 3.642578125 7.816162109375
-7.86279296875 3.9970703125 -20.36083984375
1.77685546875 -23.300537109375 21.451171875
-11.26806640625 -1.14306640625 -31.237548828125
-12.335205078125 0.843505859375 15.84814453125
-10.6767578125 1.710693359375 13.0458984375
1.468994140625 -3.74853515625 -33.7109375
2.17041015625 -21.567626953125 16.80859375
3.822509765625 -2.72314453125 -32.297119140625
-15.29638671875 2.2783203125 14.99462890625
-13.70458984375 0.542236328125 -22.46484375
-9.418701171875 3.963134765625 -23.268310546875
-7.730712890625 2.30615234375 -20.1015625
-4.23583984375 10.73876953125 3.8291015625
-13.265869140625 4.088623046875 11.01904296875
-3.951171875 1.052490234375 -18.888916015625
-5.76025390625 -1.997802734375 -33.269287109375
-10.35986328125 5.165771484375 6.646728515625
-14.196044921875 1.31396484375 7.5986328125
-10.193603515625 0.960693359375 12.620361328125
-15.049560546875 1.901611328125 7.1923828125
-13.754638671875 5.1396484375 11.047607421875
-2.829345703125 2.363037109375 9.99365234375
-3.2451171875 9.10986328125 -25.87548828125
-12.1748046875 0.721923828125 -18.70654296875
-4.089599609375 9.39892578125 2.951416015625
-10.447265625 6.385498046875 6.294189453125
-15.328857421875 4.156005859375 11.376220703125
-10.173583984375 9.1533203125 3.187744140625
-1.7666015625 -0.2587890625 -18.9521484375
-0.150390625 0.11669921875 -18.879638671875
-14.1513671875 1.648681640625 5.1513671875
-6.07568359375 -3.269287109375 -33.00390625
-15.833740234375 2.83056640625 3.526611328125
-11.82568359375 3.592529296875 4.897216796875
-4.129150390625 -2.101806640625 -32.0009765625
-11.385498046875 3.936767578125 2.8798828125
-2.89697265625 -1.731689453125 -32.759033203125
-0.63916015625 -0.5888671875 -28.44970703125
0.40771484375 1.650146484375 -14.6171875
-12.6513671875 -1.09033203125 -26.30908203125
-8.3857421875 -0.868408203125 -31.552978515625
-7.58447265625 -0.8447265625 -30.70556640625
-0.20458984375 -0.563720703125 -29.2626953125
1.753173828125 -0.522216796875 -25.49560546875
1.911376953125 -0.45947265625 -31.266357421875
2.142578125 -0.5146484375 -24.659912109375
2.187744140625 -0.496826171875 -26.30859375
2.2666015625 -0.465576171875 -29.19384765625
2.71240234375 -0.435791015625 -30.4189453125
0.162109375 -0.565185546875 -27.6025390625
-5.1982421875 -0.927001953125 -12.489013671875
3.80126953125 -0.44482421875 -25.026123046875
-5.645751953125 1.44580078125 -18.48388671875
2.017578125 -0.0654296875 -7.294677734375
-6.314697265625 0.020263671875 -34.294189453125
-10.83544921875 -0.144287109375 -19.98681640625
-11.138671875 0.68017578125 -26.095703125
-12.18359375 1.208740234375 -5.094970703125
-11.183349609375 1.3125 -11.640380859375
-8.609619140625 1.454833984375 -15.677001953125
-5.49658203125 1.518310546875 -9.427978515625
-2.467529296875 1.694580078125 -15.09521484375
1.12841796875 1.6572265625 3.4921875
-13.470458984375 1.137451171875 -3.07666015625
-9.93017578125 1.370361328125 -12.427001953125
-1.900634765625 1.48095703125 9.159423828125
-10.5087890625 2.227783203125 -23.46142578125
-4.69873046875 1.5419921875 -8.583984375
-2.304931640625 1.613037109375 -6.052490234375
-13.375244140625 1.029052734375 8.42919921875
-10.188720703125 1.267822265625 -2.9853515625
-7.7666015625 1.496337890625 -16.47509765625
-6.030517578125 1.453125 -4.923583984375
-3.54150390625 1.415771484375 9.11376953125
-2.748779296875 1.58349609375 -4.832275390625
-2.732177734375 1.44384765625 9.547119140625
-1.680908203125 1.7138671875 -13.8408203125
-0.855224609375 1.6025390625 0.971923828125
-0.46142578125 1.75830078125 -13.39599609375
-13.9482421875 1.094482421875 -0.625
-13.9033203125 1.1123046875 -2.26708984375
-13.740478515625 1.03076171875 6.77587890625
-12.756591796875 1.27392578125 -14.149169921875
-12.700439453125 1.296142578125 -16.20166015625
-12.374755859375 1.133056640625 1.8837890625
-11.84619140625 1.34228515625 -17.410400390625
-10.98681640625 1.244140625 -3.8291015625
-10.38525390625 1.336181640625 -10.79638671875
-8.14892578125 1.344970703125 -2.517578125
-7.513916015625 1.4501953125 -10.716552734375
-7.3173828125 1.3818359375 -2.9052734375
-1.315673828125 1.71240234375 -12.187255859375
-0.97900390625 1.553466796875 5.487548828125
0.86962890625 1.554931640625 12.933837890625
-14.77392578125 1.205810546875 -15.437744140625
-12.391357421875 1.2724609375 -12.49560546875
-10.716796875 1.35107421875 -13.681396484375
-8.221923828125 1.462158203125 -14.844482421875
-1.158935546875 1.482421875 12.055908203125
-9.54248046875 1.377685546875 -11.5947265625
-4.1083984375 1.62939453125 -15.140869140625
-14.08837890625 1.18505859375 -10.48876953125
-13.824462890625 1.1435546875 -5.140625
-11.36328125 1.2412109375 -5.072021484375
-11.03173828125 1.226318359375 -2.18701171875
-4.463134765625 1.343017578125 12.78564453125
-2.113525390625 1.688720703125 -13.03125
-13.31298828125 1.199951171875 -8.82373046875
-3.64794921875 1.51953125 -1.981689453125
-3.242919921875 1.679931640625 -16.760009765625
-0.33251953125 1.663330078125 -3.121826171875
-0.69775390625 1.664794921875 -4.775390625
-2.95654296875 1.647216796875 -12.233154296875
-14.768798828125 1.379150390625 -1.450927734375
-10.47607421875 2.399169921875 -25.08642578125
-15.4365234375 2.210693359375 5.5556640625
-11.489501953125 2.4736328125 10.591796875
1.87890625 3.911376953125 12.637939453125
-4.531005859375 8.901123046875 5.75537109375
0.912109375 -0.708251953125 -9.843994140625
-10.79248046875 0.1923828125 -22.427734375
-10.584228515625 4.593017578125 1.708984375
-14.9208984375 4.486328125 10.58251953125
-10.41845703125 7.022216796875 3.4755859375
-1.25 -1.505859375 -33.10888671875
-4.019775390625 8.93603515625 -26.724365234375
-4.153076171875 8.88330078125 -21.856201171875
-8.602783203125 8.865478515625 -22.77734375
-7.7255859375 8.924072265625 -25.188232421875
-5.77685546875 8.9736328125 -22.29296875
-8.98583984375 8.858154296875 -23.599853515625
-7.015625 8.627685546875 8.1142578125
-2.095947265625 9.1318359375 -23.408203125
-9.85888671875 9.288818359375 6.0419921875
-7.9873046875 11.011962890625 6.578125
-6.7431640625 11.0732421875 5.39990234375
-0.353759765625 -23.55712890625 21.81591796875
4.589111328125 -2.2255859375 -31.81005859375
-0.4775390625 -21.7060546875 20.14599609375
-2.95751953125 -0.94873046875 -33.086669921875
0.714111328125 -0.15625 -19.29541015625
-11.198974609375 1.293212890625 -25.624267578125
-10.3857421875 -0.7529296875 -19.6181640625
-12.084716796875 0.757568359375 -21.993896484375
0.917236328125 -22.126220703125 17.6123046875
1.400634765625 1.29833984375 9.64892578125
1.065673828125 0.49462890625 -4.807861328125
-0.677734375 0.697021484375 -16.78125
-0.595458984375 0.0869140625 -17.656005859375
-3.61865234375 -0.2451171875 -11.984375
-14.550048828125 1.795166015625 4.3271484375
-15.3916015625 2.228515625 3.9169921875
-11.219482421875 0.966796875 -24.01123046875
-10.8427734375 0.9697265625 -22.76708984375
-15.273193359375 3.86376953125 10.139404296875
-14.189697265625 1.14501953125 -6.7939453125
-13.115478515625 2.412841796875 10.136474609375
-2.998779296875 10.6416015625 3.451171875
-5.311767578125 2.414794921875 10.341064453125
-3.75439453125 1.62353515625 -13.076904296875
-8.6787109375 -11.478271484375 -35.656494140625
-7.174560546875 7.125 -24.947998046875
-4.459716796875 1.8232421875 11.16064453125
-13.566162109375 0.794677734375 15.81396484375
-4.9384765625 2.57568359375 11.177734375
-5.10986328125 6.591064453125 -24.135986328125
1.73876953125 -0.351806640625 -11.034912109375
0.111328125 1.69287109375 -4.342041015625
1.390625 -0.181640625 -13.91796875
-16.1240234375 3.345947265625 12.5517578125
-13.32275390625 4.380859375 12.255126953125
-1.7978515625 0.692626953125 -20.927978515625
-1.989990234375 1.73779296875 -17.546875
-9.96533203125 -0.412841796875 -20.81494140625
-0.774169921875 -2.27392578125 -32.769287109375
-11.388427734375 0.89990234375 -17.8486328125
-14.477783203125 2.310791015625 15.017333984375
-8.89599609375 1.4873046875 -20.2041015625
-10.859130859375 1.758544921875 -24.3369140625
0.89501953125 1.390380859375 -1.8740234375
1.544189453125 0.537841796875 -7.264404296875
-14.04541015625 1.861572265625 15.424560546875
-4.291015625 10.716796875 5.8505859375
-2.503173828125 8.646484375 -21.8388671875
-11.1181640625 4.998779296875 4.9853515625
-6.258544921875 -0.760009765625 -33.96875
-13.351806640625 1.171630859375 -21.98583984375
-6.59912109375 -1.874755859375 -33.275146484375
-8.28857421875 -1.472900390625 -33.269775390625
-10.836669921875 1.767578125 -25.157470703125
-4.439453125 8.781494140625 2.909423828125
-9.06103515625 10.554931640625 2.8857421875
-6.879638671875 7.09716796875 -20.86865234375
-7.640625 6.458740234375 -20.9462890625
0.50439453125 -23.69482421875 22.263916015625
-6.570068359375 8.481201171875 -21.5458984375
1.32958984375 -22.979248046875 21.018798828125
-7.67822265625 -13.54736328125 -35.44677734375
-7.45458984375 -1.275390625 -34.054931640625
-10.76025390625 -1.8916015625 -32.54736328125
0.370849609375 -0.62939453125 -20.171630859375
0.452880859375 1.66796875 -16.259521484375
-8.46630859375 0.714111328125 -18.616943359375
0.94384765625 1.24951171875 -3.115478515625
-14.57763671875 1.454833984375 -8.426025390625
-1.43408203125 1.51953125 7.1181640625
-2.15576171875 -0.925048828125 -32.239013671875
-12.862060546875 1.060546875 -24.452880859375
-15.526123046875 2.333251953125 8.429931640625
-12.752197265625 2.727294921875 10.978759765625
1.16064453125 -0.610107421875 -18.912109375
-14.420166015625 1.51708984375 -14.17041015625
-9.773193359375 2.861328125 -22.15185546875
0.65380859375 -0.01904296875 -17.634765625
0.390869140625 -0.4453125 -6.949462890625
-14.538330078125 1.007080078125 5.931884765625
0.853515625 -0.26220703125 -23.840576171875
0.744140625 -0.966064453125 -32.175537109375
-0.90185546875 -0.048828125 -20.974609375
-12.14501953125 4.7255859375 13.115966796875
-14.456298828125 3.2666015625 11.774169921875
-14.5009765625 3.09130859375 13.813720703125
-11.079833984375 4.227294921875 5.76611328125
-8.206787109375 3.21533203125 -20.440673828125
-7.187255859375 10.73193359375 7.799560546875
-15.318359375 3.058837890625 13.791015625
-5.633056640625 6.842529296875 -20.862060546875
-1.602294921875 1.7451171875 -16.71435546875
-8.10400390625 1.030517578125 -17.75732421875
-8.9365234375 0.993408203125 -17.369384765625
-14.448486328125 1.042724609375 2.647705078125
-7.383056640625 8.60400390625 -21.96044921875
-10.97900390625 4.26708984375 2.090087890625
-12.537109375 -1.365478515625 -29.638916015625
-12.9404296875 0.870361328125 -21.180908203125
-10.031982421875 -1.093994140625 -31.203125
-11.8525390625 -0.587158203125 -26.652099609375
-13.00927734375 -0.28564453125 -30.36083984375
-2.41357421875 2.062744140625 10.813232421875
1.38330078125 -24.172119140625 23.134033203125
-13.91259765625 0.60595703125 -29.875
-4.5595703125 3.056640625 10.796875
2.208251953125 -23.455322265625 21.88720703125
-9.747802734375 9.332763671875 1.9912109375
1.29345703125 -22.474609375 20.602294921875
2.213623046875 2.448974609375 6.024658203125
-1.1357421875 1.97119140625 9.611083984375
-8.23828125 3.703125 8.2705078125
-14.71875 2.361328125 8.8623046875
-10.724853515625 2.167724609375 13.47119140625
-9.50146484375 6.626708984375 1.033935546875
-10.373779296875 7.039794921875 1.84912109375
4.291259765625 -3.0107421875 -33.147216796875
-14.059814453125 4.065185546875 10.179443359375
-2.994873046875 9.86669921875 5.842529296875
-3.701416015625 9.719482421875 2.5732421875
0.0537109375 -23.201416015625 21.406982421875
-0.849853515625 -22.563720703125 20.969482421875
-0.03759765625 0.1611328125 -22.99609375
-3.494140625 10.744384765625 6.27734375
1.091796875 -0.1533203125 -18.04833984375
-0.5205078125 -0.205322265625 -19.32958984375
-13.34814453125 -2.195068359375 -28.0908203125
0.5703125 0.59130859375 -16.759765625
-9.125244140625 -1.014404296875 -19.61083984375
-11.70166015625 -1.328369140625 -30.0283203125
-3.153076171875 1.715576171875 -20.044189453125
-10.83349609375 -1.11767578125 -32.050537109375
0.84130859375 1.19482421875 -13.820556640625
-12.310546875 0.375732421875 16.24560546875
-12.05322265625 1.247314453125 -24.415283203125
-10.080322265625 2.72705078125 -25.454833984375
-0.65283203125 1.6826171875 -6.417236328125
0.10400390625 1.530029296875 -3.5302734375
3.125244140625 -3.6826171875 -33.664794921875
-14.26171875 0.626953125 -17.53076171875
-13.745849609375 1.174560546875 -8.01416015625
-14.987548828125 1.75537109375 -9.236328125
-4.591796875 -1.169921875 -33.149658203125
-11.874755859375 1.184814453125 -1.388916015625
-3.673828125 2.479736328125 10.38671875
-12.099609375 1.095947265625 6.821533203125
-7.300048828125 1.53466796875 -18.516357421875
-10.106689453125 1.7646484375 -21.85205078125
-13.718994140625 1.515380859375 4.745361328125
-11.556884765625 1.641357421875 0.7001953125
-15.402587890625 2.697998046875 3.120849609375
-12.59912109375 1.33642578125 -19.896240234375
-11.015869140625 2.989990234375 6.937255859375
-14.959716796875 2.253662109375 3.109130859375
-12.38916015625 3.04150390625 11.81982421875
2.184814453125 -23.464599609375 22.74169921875
1.330810546875 -23.49853515625 22.718017578125
-14.897705078125 1.47412109375 -11.719970703125
-0.376953125 -23.046875 20.971435546875
-14.12744140625 4.352783203125 11.82421875
-9.066650390625 3.666015625 8.656494140625
0.425048828125 -22.342041015625 20.58203125
1.315673828125 -21.947509765625 18.054931640625
-0.028564453125 -21.679931640625 19.3056640625
0.006591796875 -21.666015625 18.027587890625
-1.3173828125 -21.7353515625 19.6962890625
2.58447265625 -21.555419921875 17.24658203125
-1.294189453125 -21.72607421875 18.84423828125
-11.48779296875 1.350830078125 -0.958251953125
-14.4150390625 1.53173828125 0.210205078125
-14.05029296875 1.688720703125 1.46044921875
-15.27978515625 1.4814453125 1.828125
-11.18408203125 2.923583984375 13.076171875
-14.982177734375 1.294677734375 6.344970703125
-3.452392578125 -0.0185546875 -18.5595703125
-14.639892578125 1.759765625 7.607177734375
-14.673828125 1.904541015625 8.43359375
-13.046142578125 1.806884765625 9.292724609375
-15.49267578125 2.1884765625 7.604248046875
-12.891845703125 4.248779296875 11.852783203125
-10.016845703125 -1.569580078125 -30.427490234375
1.41357421875 2.1044921875 6.39794921875
-15.05517578125 1.253173828125 -5.575439453125
-1.58251953125 2.099853515625 10.426025390625
-14.88720703125 3.87109375 10.9677734375
-10.297119140625 4.24658203125 7.01416015625
-13.741455078125 4.203125 13.054931640625
-8.868896484375 1.02001953125 -19.834228515625
-13.441650390625 1.13623046875 -18.700927734375
-10.61083984375 8.969482421875 4.789794921875
-12.13134765625 1.057373046875 -21.144287109375
-0.78125 -1.95263671875 -33.561767578125
-7.223388671875 -13.51708984375 -36.697265625
-2.071533203125 -1.698974609375 -32.736083984375
-7.452392578125 3.85595703125 -19.9541015625
-9.348388671875 2.407958984375 -21.36328125
-7.09375 -0.797119140625 -33.579345703125
-10.48291015625 1.761474609375 -23.094482421875
-8.298828125 4.443603515625 -20.73974609375
-9.1650390625 10.97705078125 5.33251953125
-9.92431640625 10.5009765625 4.884521484375
-9.4873046875 10.530029296875 3.68310546875
-14.847412109375 1.34814453125 1.421142578125
-14.824951171875 1.35693359375 0.6005859375
-14.4599609375 1.513916015625 1.85107421875
-12.5634765625 4.548095703125 13.915771484375
-4.97119140625 3.1982421875 10.382080078125
1.39111328125 2.095458984375 7.21826171875
-13.24609375 1.38525390625 -11.685791015625
-14.46533203125 1.657958984375 -12.927734375
-8.057373046875 0.889404296875 -19.003173828125
-13.27197265625 0.88525390625 -24.068115234375
-12.896484375 1.205810546875 -23.616943359375
-6.472900390625 1.888916015625 -19.697998046875
-10.008056640625 2.121337890625 -26.335205078125
5.090576171875 -2.825927734375 -32.693359375
5.906494140625 -2.79736328125 -32.25634765625
-7.355224609375 8.1474609375 -21.59619140625
-4.122802734375 8.427001953125 -21.491943359375
-13.358642578125 -2.520751953125 -26.883056640625
0.048095703125 -2.080322265625 -33.142578125
-11.9736328125 -2.252685546875 -32.615478515625
2.873046875 -1.6669921875 -31.7890625
3.297119140625 -1.646240234375 -32.190673828125
-1.636474609375 -1.673583984375 -33.55029296875
-5.77001953125 8.509033203125 -21.117431640625
-12.535888671875 -1.685791015625 -28.845947265625
-11.63232421875 -1.621826171875 -31.711181640625
-5.792236328125 -1.36572265625 -34.026123046875
-4.171142578125 -0.989013671875 -33.94580078125
-11.6669921875 -1.47509765625 -30.86962890625
-9.608642578125 -1.072998046875 -31.60400390625
1.0537109375 -0.505615234375 -30.052734375
4.77197265625 -0.35400390625 -30.36181640625
-5.92578125 -0.77490234375 -31.072021484375
-1.3837890625 -0.59033203125 -31.35791015625
-4.690185546875 -0.725830078125 -31.03759765625
3.400634765625 -0.456787109375 -25.449951171875
-12.20556640625 -1.060546875 -27.5341796875
-6.73828125 -0.802978515625 -31.507080078125
-0.593994140625 -0.571044921875 -30.0986328125
0.263671875 -0.52490234375 -31.312255859375
2.486572265625 -0.525146484375 -22.17529296875
-4.775146484375 -0.906005859375 -12.889892578125
-4.62841796875 -0.847900390625 -18.248291015625
0.494873046875 -0.580078125 -24.705810546875
1.832275390625 -0.49072265625 -28.381103515625
-2.20751953125 -0.623046875 -31.380859375
0.60791015625 -0.535400390625 -28.82763671875
0.44384765625 -0.7470703125 -7.794677734375
1.71923828125 -0.53564453125 -24.259033203125
-11.804931640625 -1.048583984375 -27.110595703125
-7.985107421875 -0.856689453125 -31.129150390625
-6.360107421875 -0.800048828125 -30.259033203125
-2.862548828125 -0.88232421875 -7.47412109375
-0.960693359375 -0.569580078125 -31.7587890625
0.22998046875 -0.538330078125 -30.07568359375
-13.052001953125 -1.10205078125 -26.732666015625
-9.254638671875 -0.919189453125 -29.927001953125
-0.238525390625 -0.5771484375 -28.026123046875
1.008544921875 -0.5234375 -28.40380859375
0.96875 -0.68603515625 -11.905029296875
3.1357421875 -0.4150390625 -30.81982421875
3.846435546875 -0.427001953125 -26.675048828125
4.371337890625 -0.365966796875 -30.785400390625
-12.228271484375 -1.0693359375 -26.709716796875
-9.9501953125 -0.887451171875 -20.0322265625
-5.502685546875 -0.75390625 -31.47265625
-1.806884765625 -0.611328125 -30.957275390625
0.7939453125 -0.6083984375 -20.572265625
1.391845703125 -0.6650390625 -12.3056640625
1.52734375 -0.611572265625 -17.251953125
3.925537109375 -0.395751953125 -29.560302734375
-7.618408203125 -0.858154296875 -29.468994140625
-7.161376953125 -0.823974609375 -31.106201171875
-4.797607421875 -0.9150390625 -12.0654296875
-0.983154296875 -0.57861328125 -30.934326171875
0.653076171875 -0.517578125 -30.476318359375
0.9912109375 -0.677001953125 -12.729248046875
1.476806640625 -0.48486328125 -30.453369140625
1.21826171875 -0.572509765625 -6.52490234375
1.787109375 -0.5087890625 -26.732177734375
2.040771484375 -0.554931640625 -20.9501953125
2.0634765625 -0.5458984375 -21.774658203125
2.33447265625 -0.438720703125 -31.6669921875
2.61083984375 -0.47607421875 -26.709228515625
-8.8203125 -0.893798828125 -30.739990234375
0.5400390625 -0.562255859375 -26.3544921875
0.585205078125 -0.54443359375 -28.003173828125
0.827880859375 -0.594970703125 -21.808837890625
2.311767578125 -0.44775390625 -30.8427734375
-0.44921875 -0.338134765625 -21.403076171875
0.396728515625 -0.29638671875 -22.2041015625
-3.843994140625 -0.509033203125 -17.786865234375
-0.89453125 -0.367919921875 -20.178466796875
-4.01904296875 -0.2568359375 -12.40771484375
-12.985107421875 -0.755615234375 -29.997802734375
-11.56591796875 -0.460205078125 -22.5078125
-5.0693359375 0.07373046875 -34.671630859375
-5.89208984375 0.041259765625 -34.694580078125
-0.55810546875 -0.05908203125 -18.49267578125
-6.71484375 0.008544921875 -34.71728515625
1.23974609375 -0.080078125 -8.964599609375
0.2158203125 0.114990234375 -17.221435546875
1.594970703125 -0.086181640625 -6.89453125
-11.258056640625 -0.1650390625 -19.586669921875
-11.2353515625 -0.156005859375 -20.409912109375
-10.412841796875 -0.12353515625 -20.386962890625
1.42333984375 0.314453125 -16.7626953125
-3.43310546875 10.45849609375 5.050048828125
-11.99169921875 0.15673828125 -23.696044921875
-3.52880859375 0.4326171875 -17.28564453125
-2.684326171875 0.47412109375 -18.08544921875
-1.817138671875 0.524658203125 -19.7080078125
-10.41748046875 0.513671875 -21.9765625
-13.490478515625 0.626953125 -30.274658203125
-9.618408203125 0.537353515625 -21.13134765625
1.469482421875 0.843994140625 8.80859375
-13.294677734375 0.87646484375 -23.24658203125
-6.473388671875 1.091064453125 -17.30078125
-14.127197265625 0.998291015625 -23.2548828125
-2.69677734375 1.1103515625 -19.676513671875
-3.517822265625 1.07763671875 -19.699462890625
-1.147705078125 1.298583984375 -16.741455078125
-11.685546875 0.769287109375 -21.571533203125
1.8603515625 1.173583984375 8.421875
-12.541015625 0.88232421875 -20.7587890625
-13.407958984375 1.1494140625 -19.9326171875
-12.4736328125 0.908935546875 -23.2236328125
-11.719970703125 0.914794921875 -20.73583984375
-12.49609375 0.900146484375 -22.402099609375
-9.335693359375 0.9814453125 -17.79150390625
-9.79443359375 0.97265625 13.04248046875
-8.885498046875 1.199462890625 9.375732421875
-1.748291015625 1.687255859375 -11.377685546875
-1.5390625 1.4501953125 -17.97216796875
0.563232421875 1.4052734375 -4.760498046875
-13.531982421875 1.25927734375 -15.81396484375
-13.464111328125 1.127197265625 -17.879638671875
-13.391845703125 1.168701171875 -5.9501953125
-12.83544921875 1.242919921875 -11.275390625
-12.007568359375 1.1064453125 -25.662109375
-11.958740234375 1.297607421875 -13.30517578125
-10.77734375 1.31396484375 -26.0234375
-10.227783203125 1.3984375 -16.543701171875
-7.126220703125 1.45751953125 -9.884033203125
-7.06982421875 1.479736328125 -11.936767578125
-6.873291015625 1.41162109375 -4.12548828125
-5.243896484375 1.47216796875 -3.669189453125
-4.889892578125 1.46630859375 -1.605224609375
-1.171875 1.463134765625 -1.922119140625
-0.37744140625 1.6455078125 -1.479736328125
-12.695068359375 1.15234375 -1.41162109375
-12.27880859375 1.31689453125 -16.600830078125
-3.58056640625 1.54638671875 -4.444580078125
-0.837890625 1.75537109375 -14.63916015625
-12.5712890625 1.201171875 -5.92724609375
-2.88916015625 1.673828125 -14.696044921875
0.7294921875 1.6455078125 3.070068359375
1.701416015625 1.592041015625 12.546142578125
-7.09228515625 1.470947265625 -11.11572265625
-4.867431640625 1.47509765625 -2.42626953125
-2.318115234375 1.593994140625 -20.03515625
-0.579833984375 1.5654296875 5.909423828125
-0.39990234375 1.63671875 -0.65869140625
-14.53759765625 1.140625 -23.66259765625
-13.554443359375 1.250244140625 -14.992919921875
-11.00341796875 1.3837890625 -18.20849609375
-8.5869140625 1.463623046875 -16.498046875
-7.69921875 1.52294921875 -18.938232421875
-7.333984375 1.521484375 -17.28466796875
-2.816162109375 1.556640625 -2.369384765625
-2.681396484375 1.610107421875 -7.29541015625
-1.203125 1.7568359375 -16.29248046875
-12.739990234375 1.134521484375 0.23046875
-3.65380859375 1.371337890625 13.218994140625
-2.793701171875 1.565673828125 -3.190185546875
-0.860595703125 1.74658203125 -13.818115234375
-14.268310546875 1.11376953125 -3.92041015625
-12.88037109375 1.22509765625 -9.63330078125
-12.616455078125 1.183349609375 -4.285400390625
-12.756591796875 0.82275390625 16.247314453125
-11.620361328125 1.2724609375 -25.22509765625
-11.604736328125 1.291748046875 -11.2412109375
-11.45849609375 1.349609375 -16.577880859375
-11.11572265625 1.339111328125 -14.103515625
-10.182861328125 1.416259765625 -18.185791015625
-9.935546875 1.51416015625 -27.217041015625
-9.463623046875 1.40869140625 -14.46826171875
-8.06494140625 1.232177734375 9.398681640625
-6.058349609375 1.588134765625 -18.892578125
-6.075439453125 1.435302734375 -3.28173828125
-6.025146484375 1.30908203125 9.8662109375
-5.0751953125 1.5390625 -9.8271484375
-4.40087890625 1.513671875 -4.467529296875
-3.557861328125 1.55517578125 -5.265625
-3.3330078125 1.644287109375 -13.47607421875
-2.417236328125 1.568603515625 -1.947265625
-2.288330078125 1.4736328125 8.326904296875
-1.574462890625 1.610107421875 -2.74560546875
-1.49560546875 1.64111328125 -5.619140625
-1.237060546875 1.74365234375 -15.06103515625
-1.04638671875 1.52685546875 7.95068359375
-0.39404296875 1.78515625 -15.859130859375
0.060546875 1.52685546875 12.50048828125
-14.68994140625 1.093017578125 -3.521240234375
-13.97607421875 1.2294921875 -14.59375
-13.177978515625 1.253173828125 -13.75
-13.319091796875 1.051513671875 6.376708984375
-12.812744140625 1.251708984375 -12.096435546875
-12.773681640625 1.12109375 1.4619140625
-12.53759765625 1.214599609375 -7.158935546875
-12.301513671875 1.30810546875 -15.77978515625
-12.2451171875 1.330322265625 -17.832275390625
-12.33056640625 1.309326171875 -0.16015625
-11.408203125 1.223388671875 -3.429931640625
-10.96435546875 1.253173828125 -4.650146484375
-10.941650390625 1.261962890625 -5.47119140625
-10.68896484375 1.216064453125 0.287353515625
-10.587890625 1.256103515625 -3.4072265625
-10.565185546875 1.264892578125 -4.228271484375
-10.2841796875 1.376220703125 -14.4912109375
-8.322998046875 1.422119140625 -11.14990234375
-6.91845703125 1.393798828125 -2.4833984375
-5.682373046875 1.298583984375 12.3408203125
-5.637451171875 1.31640625 10.69873046875
-4.277099609375 1.562744140625 -8.983154296875
-3.114013671875 1.5849609375 -6.48583984375
-2.063232421875 1.5625 0.11669921875
-1.630615234375 1.587646484375 -0.69287109375
-0.894287109375 1.733154296875 -12.58642578125
-0.124755859375 1.599609375 4.27880859375
-0.091064453125 1.61279296875 3.04736328125
0.33056640625 1.633544921875 2.648193359375
0.937255859375 1.58154296875 10.470947265625
-13.869384765625 1.125732421875 -3.49853515625
-13.790771484375 1.15673828125 -6.3720703125
-13.61083984375 1.22802734375 -12.9404296875
-13.774169921875 1.017333984375 8.00732421875
-13.155517578125 1.26220703125 -14.571044921875
-13.0205078125 1.315673828125 -19.4970703125
-12.953857421875 1.0498046875 8.030029296875
-12.323974609375 1.29931640625 -14.958740234375
-12.273681640625 1.173095703125 -1.810791015625
-10.76171875 1.333251953125 -12.039306640625
-10.6103515625 1.2470703125 -2.586181640625
-10.31787109375 1.36279296875 -13.259521484375
-10.250244140625 1.3896484375 -15.72265625
-8.671142578125 1.576416015625 -28.414306640625
-7.890380859375 1.447265625 -11.95947265625
-7.6435546875 1.2529296875 8.99951171875
-6.89599609375 1.402587890625 -3.304443359375
-6.845458984375 1.276611328125 9.843505859375
-6.097900390625 1.42626953125 -2.460693359375
-5.631591796875 1.46484375 -4.501708984375
-5.09765625 1.530029296875 -9.006103515625
-4.541259765625 1.604248046875 -14.331298828125
-4.37841796875 1.522705078125 -5.28857421875
-4.0693359375 1.498779296875 -1.58251953125
-4.046875 1.5078125 -2.403564453125
-2.349853515625 1.59521484375 -4.410400390625
-2.079833984375 1.7021484375 -14.2626953125
-1.259521484375 1.734619140625 -14.239990234375
-1.501708984375 1.49267578125 9.581298828125
-1.276611328125 1.581787109375 1.37109375
-0.760009765625 1.494140625 12.477783203125
-0.6025390625 1.556396484375 6.73046875
-0.456298828125 1.6142578125 1.393798828125
-0.0400390625 1.779052734375 -13.795166015625
-0.0009765625 1.6484375 -0.23681640625
-14.375 1.2177734375 -15.015869140625
-14.139404296875 1.018798828125 6.353759765625
-13.54931640625 1.1064453125 -0.202880859375
-13.52685546875 1.115234375 -1.02392578125
-13.425537109375 1.1552734375 -4.71875
-13.088134765625 1.288818359375 -17.0341796875
-12.357666015625 1.285888671875 -13.72705078125
-12.52099609375 1.0751953125 7.220458984375
-11.992431640625 1.284423828125 -12.07373046875
-12.16845703125 1.386474609375 8.476318359375
-11.9091796875 1.330078125 -0.55908203125
-11.82958984375 1.20263671875 -3.031005859375
-11.453125 1.20556640625 -1.7880859375
-11.4306640625 1.214599609375 -2.60888671875
-11.13818359375 1.330322265625 -13.282470703125
-11.07080078125 1.35693359375 -15.745361328125
-10.7841796875 1.32421875 -11.218505859375
-9.092529296875 1.5556640625 -28.01513671875
-9.075927734375 1.416259765625 -13.6357421875
-8.688232421875 1.423583984375 -12.803466796875
-8.5478515625 1.3330078125 -2.939697265625
-8.18798828125 1.4755859375 -16.076171875
-6.901123046875 1.546630859375 -18.094482421875
-6.474365234375 1.42333984375 -3.70361328125
-6.451904296875 1.432373046875 -4.524658203125
-4.884521484375 1.322265625 13.1845703125
-4.14208984375 1.6162109375 -13.909423828125
-4.001953125 1.525634765625 -4.045654296875
-2.53515625 1.66796875 -12.632080078125
-2.388916015625 1.725830078125 -17.96875
-2.394775390625 1.577392578125 -2.768310546875
-2.046142578125 1.71533203125 -15.494384765625
-2.023681640625 1.724365234375 -16.3154296875
-2.029541015625 1.575927734375 -1.114990234375
-1.714599609375 1.700439453125 -12.609375
-1.0966796875 1.653076171875 -5.197265625
-1.07421875 1.661865234375 -6.018310546875
-0.41650390625 1.776123046875 -15.0380859375
-0.489990234375 1.60107421875 2.62548828125
0.35302734375 1.642578125 1.8271484375
0.39794921875 1.660400390625 0.18505859375
-3.35546875 1.635498046875 -12.655029296875
-14.369873046875 1.39111328125 -1.029296875
-14.347412109375 1.39990234375 -1.849853515625
-1.9599609375 1.6171875 10.807373046875
-14.998779296875 1.43408203125 -8.02734375
-8.515380859375 1.83642578125 9.001953125
-11.396240234375 1.87646484375 8.92822265625
-15.066162109375 1.724365234375 -6.36572265625
-11.362548828125 1.889892578125 7.6982421875
-12.945068359375 1.846923828125 5.602783203125
-11.3408203125 2.056884765625 6.475341796875
-15.066162109375 2.041015625 -7.1650390625
-13.764404296875 1.814453125 5.579833984375
-14.275390625 1.91650390625 8.854736328125
-12.2275390625 1.997802734375 8.911865234375
1.799560546875 2.5908203125 5.6103515625
-13.478759765625 1.940185546875 9.697265625
-3.75048828125 9.05419921875 -22.236572265625
-14.8759765625 2.299072265625 14.596435546875
