-9.660888671875 15.3095703125 -0.08154296875
-11.213134765625 13.268310546875 -19.581787109375
-13.291259765625 15.3515625 3.391357421875
-12.623779296875 13.326416015625 7.73388671875
-12.119384765625 13.49951171875 -14.437255859375
-13.761474609375 13.86083984375 -29.111328125
-3.568359375 12.470703125 -7.1494140625
-8.89794921875 19.003662109375 1.9755859375
-4.106689453125 -9.916748046875 19.696044921875
-11.052978515625 14.0556640625 -8.8466796875
-8.77392578125 13.339111328125 -22.300048828125
-11.82470703125 8.83251953125 -29.822265625
-10.655517578125 15.365234375 8.978515625
-19.306396484375 15.45068359375 -27.143798828125
-10.746337890625 15.191650390625 12.92431640625
-5.257080078125 14.99169921875 -2.755615234375
-7.569580078125 12.825439453125 11.810546875
-5.5703125 13.864013671875 -6.355712890625
-7.7900390625 22.6474609375 5.574462890625
-15.69775390625 1.451171875 -23.148681640625
-12.98388671875 14.887451171875 -10.440673828125
-7.91357421875 20.2001953125 -23.837890625
-11.884033203125 4.705322265625 -29.3115234375
-13.587646484375 13.36328125 -19.62841796875
-12.7548828125 15.26611328125 -2.91650390625
-8.021240234375 14.9345703125 -2.819091796875
-8.988525390625 16.9931640625 5.48193359375
-12.7890625 1.387939453125 -26.729736328125
-13.26025390625 15.0625 -15.5771484375
-6.30810546875 13.291015625 -8.768798828125
-13.429443359375 13.0029296875 -9.33349609375
-13.020751953125 10.4052734375 -28.939453125
-5.827880859375 -9.976318359375 22.951416015625
-14.25927734375 15.401123046875 -6.10546875
-16.991455078125 13.201416015625 -26.847900390625
-6.276611328125 20.2568359375 -26.93408203125
-9.15869140625 15.354736328125 -4.808349609375
-7.53076171875 13.829345703125 -7.192626953125
-6.979248046875 -10.595703125 19.2255859375
-11.07861328125 2.795166015625 -30.234130859375
-14.403564453125 15.919677734375 0.61376953125
-9.804443359375 1.5 -33.534912109375
-15.272705078125 15.307861328125 3.74072265625
-11.4736328125 15.181396484375 -7.2353515625
-11.546142578125 13.28173828125 -22.363525390625
-6.14306640625 22.29150390625 1.705322265625
-10.888427734375 15.41259765625 1.8671875
-20.97900390625 13.110595703125 -25.750244140625
-5.83984375 13.323974609375 -11.9287109375
-11.60546875 15.421142578125 -1.307373046875
-8.295654296875 15.83935546875 9.429443359375
-12.2607421875 7.058837890625 -29.156005859375
-11.336669921875 15.385986328125 4.2255859375
-10.622314453125 4.897216796875 -31.684326171875
-13.515625 13.387939453125 -22.79638671875
-8.586669921875 18.843017578125 5.512451171875
-7.904052734375 12.39013671875 -8.439453125
-7.151611328125 14.564697265625 11.03076171875
-4.060791015625 -9.58984375 17.63525390625
-8.90625 15.599365234375 1.5205078125
-9.563232421875 13.64208984375 12.557373046875
-6.586181640625 22.265380859375 4.036376953125
-6.813232421875 12.685302734375 13.4140625
-13.396728515625 12.136474609375 -28.8271484375
-13.451416015625 13.297607421875 9.299560546875
-12.941650390625 15.34423828125 5.373046875
-8.083740234375 22.25439453125 1.270751953125
-7.966064453125 17.926025390625 -22.01318359375
-7.166259765625 20.2041015625 -22.25390625
-5.369140625 -10.262939453125 20.906982421875
-17.751953125 14.764892578125 -26.7607421875
-5.211669921875 14.577392578125 -4.742919921875
-14.442138671875 16.33203125 2.591552734375
-11.46044921875 13.629150390625 8.950439453125
-9.850341796875 1.484375 -31.514404296875
-14.97998046875 13.53955078125 -27.970947265625
-4.72509765625 13.89892578125 -8.7119140625
-9.082275390625 14.523681640625 -8.390625
-14.191162109375 13.156005859375 6.904541015625
-20.518310546875 14.281005859375 -27.248046875
-7.948974609375 15.1025390625 -5.97412109375
-9.408203125 15.55419921875 6.2451171875
-13.939697265625 13.942626953125 -21.188720703125
-14.091064453125 1.481201171875 -22.70751953125
-10.7177734375 15.47119140625 -5.62939453125
-8.90625 20.826904296875 2.789794921875
-8.450927734375 15.2001953125 -1.24169921875
-13.498779296875 15.97607421875 -4.49267578125
-13.1943359375 15.242431640625 -0.9521484375
-12.409912109375 14.100341796875 -18.77099609375
-12.5595703125 14.334716796875 -12.03515625
-10.693603515625 15.067138671875 10.555908203125
-6.271728515625 13.591064453125 -10.34228515625
-3.98828125 14.040283203125 -6.31494140625
-12.373779296875 14.112548828125 -20.353271484375
-6.990966796875 23.782470703125 4.827392578125
-11.38623046875 10.162841796875 -30.91455078125
-12.080322265625 13.799560546875 -16.007080078125
-12.58544921875 14.341064453125 6.55615234375
-7.502197265625 10.953857421875 -8.879150390625
-10.2392578125 13.50634765625 -10.036865234375
-11.4228515625 14.7861328125 7.772216796875
-4.8505859375 13.568115234375 -3.179443359375
-9.324951171875 17.571533203125 3.120849609375
-11.8212890625 13.617431640625 -10.06787109375
-14.3310546875 15.37646484375 -2.948974609375
-11.51416015625 14.612060546875 11.7216796875
-9.836669921875 15.8193359375 7.816162109375
-8.187255859375 20.68115234375 5.542724609375
-8.544677734375 22.221923828125 4.3818359375
-13.565673828125 1.680419921875 -27.9404296875
-11.152099609375 15.02197265625 -4.072265625
-15.588623046875 15.184326171875 0.177490234375
-14.228759765625 10.6650390625 -28.15087890625
-14.50634765625 15.6005859375 4.946044921875
-12.903076171875 14.915283203125 -13.9951171875
-7.095947265625 15.441650390625 8.665283203125
-15.734375 1.4384765625 -21.532470703125
-3.73095703125 -10.387939453125 21.35888671875
-13.4794921875 7.02783203125 -28.3828125
-14.11962890625 2.067138671875 -21.05810546875
-13.257080078125 15.220947265625 1.810546875
-12.08984375 15.382080078125 2.62939453125
-8.744873046875 15.639404296875 -22.9541015625
-10.170166015625 15.547119140625 5.043701171875
-7.094970703125 20.228515625 -25.385986328125
-5.336669921875 22.31689453125 0.55322265625
-5.67919921875 15.546142578125 -1.56640625
-11.645263671875 13.247802734375 -18.00634765625
-5.14697265625 13.30615234375 -7.55322265625
-8.3876953125 13.088134765625 12.98095703125
-13.8125 13.873779296875 8.106689453125
-11.008056640625 7.83349609375 -31.076416015625
-5.167236328125 14.465087890625 10.680419921875
-5.331787109375 -10.250244140625 19.259765625
-14.547119140625 14.845458984375 -28.66357421875
-13.0595703125 15.288818359375 -6.8720703125
-6.844970703125 15.385009765625 -2.38623046875
-12.62255859375 14.313232421875 -9.267822265625
-8.348876953125 13.819580078125 11.397705078125
-7.98583984375 14.8037109375 -4.40283203125
-6.749755859375 12.835205078125 -6.8115234375
-9.489990234375 15.383544921875 9.794677734375
-6.423828125 14.830322265625 -3.57666015625
-14.4052734375 1.354736328125 -26.766845703125
-12.140380859375 14.065185546875 -13.224609375
-10.85595703125 14.99609375 0.2802734375
-8.08203125 15.485107421875 -0.042236328125
-15.26611328125 1.468994140625 -24.3515625
-5.97509765625 15.0 -5.933349609375
-10.274658203125 14.78271484375 -8.0126953125
-11.520263671875 1.581787109375 -29.116455078125
-7.612060546875 13.673828125 13.789794921875
-8.31787109375 14.8173828125 -7.17724609375
-10.199951171875 2.68798828125 -33.452880859375
-6.37158203125 13.141357421875 11.44189453125
-9.625 15.322021484375 -1.66015625
-10.324951171875 15.208984375 11.749267578125
-9.194580078125 15.342529296875 -3.229736328125
-5.159912109375 15.755615234375 10.289794921875
-10.52197265625 15.2685546875 3.057861328125
-20.159912109375 13.13623046875 -26.92041015625
-12.357421875 1.40576171875 -27.932861328125
-5.09326171875 20.2841796875 -27.298583984375
-7.44189453125 20.235595703125 -27.3525390625
-9.35498046875 16.994384765625 4.292236328125
-4.985107421875 -10.57568359375 22.156982421875
-11.582275390625 13.26953125 -20.779052734375
-11.0478515625 5.323486328125 -30.456298828125
-11.84423828125 14.896484375 -8.438720703125
-12.331787109375 15.42626953125 -4.08740234375
-8.975830078125 1.97216796875 -34.289794921875
-12.9716796875 13.016845703125 -29.55029296875
-13.622802734375 1.51171875 -25.5263671875
-14.083740234375 15.1767578125 -14.009521484375
-22.171142578125 12.94189453125 -25.786865234375
-21.33154296875 13.402587890625 -27.32421875
-11.580078125 15.287353515625 -2.49462890625
-19.34814453125 14.01513671875 -26.8447265625
-9.96875 14.9033203125 -4.049072265625
-7.75244140625 23.355712890625 4.025634765625
-12.315673828125 13.703369140625 -23.14794921875
-8.2783203125 20.201171875 -25.021240234375
-6.249755859375 20.26611328125 -28.108642578125
-6.173828125 -10.117919921875 20.0625
-6.5595703125 22.2744140625 2.866455078125
-6.7568359375 14.126708984375 -6.373779296875
-10.651123046875 3.5546875 -30.9775390625
-10.368408203125 14.194091796875 13.32958984375
-12.208251953125 10.282470703125 -29.727783203125
-12.705810546875 4.682373046875 -28.526123046875
-12.590087890625 11.72509765625 -29.6337890625
-4.789794921875 14.738037109375 -5.9150390625
-9.855712890625 14.3701171875 -9.204345703125
-13.35009765625 15.03173828125 -11.628662109375
-10.608154296875 15.66650390625 7.00830078125
-9.7138671875 15.43408203125 2.2890625
-7.525634765625 15.706787109375 10.235595703125
-9.06689453125 15.6865234375 8.621826171875
-16.181396484375 13.22412109375 -27.621826171875
-5.498291015625 13.888671875 -9.521484375
-6.211181640625 -9.975341796875 21.70703125
-10.43212890625 15.299560546875 -0.888916015625
-10.081298828125 15.43505859375 1.09619140625
-13.56005859375 15.386474609375 -2.1416015625
-12.520263671875 15.361572265625 4.198486328125
-6.905029296875 22.421142578125 0.91015625
-7.32177734375 22.264404296875 2.068603515625
-18.114013671875 15.47802734375 -27.51123046875
-14.2861328125 15.391845703125 -4.921630859375
-15.359619140625 14.536376953125 -27.911376953125
-14.82666015625 15.759765625 1.78466796875
-8.671875 13.964111328125 -9.193115234375
-12.19140625 14.333740234375 -10.840087890625
-8.303466796875 13.962890625 -7.9970703125
-7.396240234375 24.3232421875 5.60302734375
-11.762451171875 13.20751953125 -12.85693359375
-12.49658203125 14.3564453125 -14.802490234375
-11.01171875 13.64013671875 -10.84130859375
-5.462158203125 13.75732421875 -11.110107421875
-9.131591796875 15.364013671875 -5.992431640625
-13.745361328125 14.89599609375 5.744873046875
-9.9521484375 14.638427734375 12.5478515625
-14.193359375 12.55029296875 -28.418701171875
-11.51904296875 13.291015625 -23.552001953125
-13.60107421875 15.65673828125 -0.162841796875
-4.892333984375 -9.9208984375 18.03076171875
-6.35205078125 15.15673828125 10.6552734375
-8.4990234375 22.516357421875 2.4365234375
-10.248046875 2.37353515625 -31.4580078125
-8.52392578125 22.92529296875 3.6123046875
-4.4111328125 14.16650390625 -5.1328125
-15.24560546875 15.885009765625 2.960693359375
-4.833740234375 14.149169921875 -3.955322265625
-13.524169921875 15.39892578125 -3.719970703125
-13.841064453125 15.84375 -6.871337890625
-13.662109375 15.77783203125 2.600341796875
-13.14013671875 2.73779296875 -28.264404296875
-15.398681640625 12.663818359375 -27.642822265625
-12.72607421875 13.976318359375 -22.348388671875
-12.6474609375 13.604736328125 8.92333984375
-11.524658203125 15.44873046875 -4.8583984375
-11.50048828125 15.172119140625 -6.051025390625
-6.145751953125 -10.419677734375 18.830810546875
-18.1826171875 13.461669921875 -26.4599609375
-14.7841796875 15.63232421875 -0.18994140625
-4.499267578125 -10.074462890625 18.865234375
-7.651611328125 15.505615234375 -1.611572265625
-11.4501953125 6.1982421875 -30.0009765625
-11.072998046875 14.77880859375 9.756103515625
-4.04052734375 13.44677734375 -3.95703125
-8.931640625 21.09814453125 3.966796875
-15.3369140625 15.398193359375 -28.2470703125
-4.373046875 13.31640625 -6.742919921875
-11.796875 15.0703125 6.975830078125
-10.3076171875 15.19970703125 -6.418701171875
-7.931884765625 14.837890625 10.618408203125
-8.878662109375 15.75146484375 0.340087890625
-10.271728515625 1.619384765625 -30.70458984375
-5.535888671875 15.468017578125 9.490478515625
-8.7568359375 13.089111328125 11.783447265625
-13.1416015625 14.532958984375 -21.137939453125
-4.537109375 -9.931640625 20.510009765625
-15.12451171875 15.642822265625 -2.565185546875
-11.103515625 14.33984375 10.93994140625
-11.957275390625 13.555419921875 -21.56396484375
-12.054931640625 13.6650390625 -17.20166015625
-6.60302734375 22.956298828125 4.825439453125
-12.21728515625 14.340087890625 7.750732421875
-13.5205078125 14.387451171875 -21.94580078125
-10.236083984375 1.482177734375 -32.331787109375
-9.418701171875 1.501953125 -32.717529296875
-15.31201171875 1.453125 -22.331298828125
-14.513427734375 1.466552734375 -21.908935546875
-8.57275390625 19.9736328125 5.134033203125
-13.406005859375 14.156494140625 -9.686767578125
-13.388427734375 13.3193359375 6.528076171875
-13.090087890625 14.993408203125 -5.69677734375
-12.282470703125 15.015869140625 -6.468505859375
-14.47265625 15.469970703125 3.366455078125
-10.629638671875 15.231689453125 7.793701171875
-13.21142578125 13.937255859375 -18.401123046875
-15.205322265625 15.614990234375 0.984130859375
-12.14208984375 15.506591796875 4.99853515625
-9.184814453125 13.787841796875 13.357666015625
-11.872802734375 13.758544921875 9.733642578125
-12.01953125 15.263916015625 -0.5302734375
-7.1201171875 12.259033203125 -8.029541015625
-8.8193359375 15.058349609375 -2.4384765625
-13.63330078125 15.929931640625 1.420166015625
-13.70166015625 15.480224609375 4.17333984375
-8.39697265625 15.21875 -3.610107421875
-12.37646484375 15.410888671875 -2.114501953125
-8.611083984375 15.4306640625 5.8671875
-7.113037109375 15.86376953125 9.45654296875
-6.798095703125 10.810791015625 12.622314453125
-11.997802734375 13.970947265625 -19.560791015625
-9.911376953125 15.3662109375 10.969482421875
-5.947998046875 12.8544921875 -7.189697265625
-7.191650390625 12.683349609375 12.6123046875
-21.7529296875 13.100341796875 -26.560546875
-5.52490234375 13.30419921875 -8.3544921875
-7.990966796875 13.352294921875 -21.8857421875
-13.1015625 13.40234375 -23.579345703125
-13.173828125 14.09326171875 -19.975830078125
-5.966552734375 14.44580078125 11.0576171875
-7.536865234375 14.83056640625 -6.76416015625
-7.204833984375 14.817138671875 -3.98974609375
-6.010986328125 14.844482421875 -4.357666015625
-22.111328125 13.817626953125 -27.3134765625
-12.65185546875 14.8740234375 -7.6669921875
-7.572021484375 15.1044921875 -5.17529296875
-10.7998046875 15.300537109375 -2.081787109375
-9.248291015625 15.323974609375 -0.86181640625
-12.064453125 15.24853515625 1.44287109375
-12.817626953125 15.244384765625 -0.15380859375
-4.881103515625 15.565673828125 -1.94287109375
-11.955078125 15.428466796875 -3.289306640625
-9.937744140625 15.484375 -5.216796875
-8.7099609375 15.396728515625 10.207275390625
-7.8759765625 15.428466796875 8.252685546875
-10.96923828125 15.385009765625 5.41845703125
-11.713134765625 15.384033203125 3.427490234375
-11.264892578125 15.41064453125 1.069091796875
-9.032470703125 15.413330078125 7.041748046875
-13.9775390625 15.65478515625 -0.96044921875
-6.965576171875 23.23583984375 3.652099609375
-8.341064453125 17.924072265625 -22.80810546875
-8.9609375 18.841064453125 4.718994140625
-7.5400390625 20.2021484375 -23.0458984375
-7.068359375 20.237548828125 -26.560546875
-4.301513671875 20.303466796875 -27.672119140625
-7.50439453125 20.21435546875 -24.61181640625
-6.610107421875 24.48095703125 5.23388671875
-18.5478515625 14.4619140625 -26.7978515625
-11.037353515625 13.7744140625 -9.6484375
-12.63720703125 14.59375 -8.467041015625
-9.49462890625 14.652587890625 -7.604248046875
-9.857421875 15.384765625 8.60205078125
-13.1044921875 15.2734375 -4.898681640625
-13.587890625 1.37451171875 -27.15234375
-15.11328125 15.22021484375 -3.365234375
-14.300048828125 15.67138671875 -4.12451171875
-13.41015625 13.025146484375 7.3173828125
-16.001220703125 15.170166015625 0.957763671875
-14.935791015625 1.451904296875 -21.110107421875
-10.150146484375 15.8388671875 4.258544921875
-3.61083984375 14.042236328125 -5.5146484375
-4.554931640625 -10.249267578125 21.337646484375
-20.105712890625 15.00537109375 -27.19091796875
-12.473876953125 14.79248046875 -15.57275390625
-12.929931640625 14.906005859375 -12.810302734375
-11.504150390625 2.332763671875 -29.46826171875
-5.912109375 14.01806640625 -8.73388671875
-7.77099609375 23.0712890625 4.800537109375
-6.192626953125 -10.280029296875 20.88818359375
-5.350341796875 -10.256591796875 20.08349609375
-11.44482421875 14.35009765625 8.559326171875
-8.279296875 13.253173828125 -9.210205078125
-9.14892578125 13.80029296875 11.775146484375
-5.22998046875 14.857666015625 -3.944580078125
-11.7822265625 13.917236328125 -11.639404296875
-11.837890625 13.755126953125 -9.270751953125
-14.8896484375 1.4677734375 -23.130126953125
-8.996337890625 1.5166015625 -33.516357421875
-13.6044921875 1.51806640625 -26.33447265625
-9.17822265625 15.0625 -4.027099609375
-11.123046875 15.189697265625 12.1259765625
-5.992919921875 15.136962890625 -5.13916015625
-10.29052734375 15.062744140625 -7.212890625
-7.222412109375 14.9541015625 -3.19580078125
-10.591552734375 15.52978515625 6.218017578125
-6.253662109375 13.884765625 -11.12255859375
-12.16162109375 15.357421875 5.785888671875
-9.389404296875 15.703125 5.457763671875
-6.046875 15.118408203125 -2.77001953125
-6.7646484375 15.126953125 -5.947021484375
-11.0634765625 14.90966796875 -8.025634765625
-11.644287109375 15.122802734375 0.26513671875
-12.51611328125 14.206787109375 -14.018310546875
-16.55419921875 14.5087890625 -27.543212890625
-9.820556640625 15.539794921875 7.02490234375
-11.16748046875 15.3017578125 -3.27490234375
-14.346923828125 15.51318359375 -2.15625
-12.354248046875 14.26220703125 -21.135986328125
-13.6171875 15.79345703125 0.62890625
-17.327880859375 15.351318359375 -27.5029296875
-9.179931640625 13.07177734375 12.962646484375
-20.177978515625 13.1298828125 -26.128173828125
-11.627197265625 13.25390625 -18.798583984375
-20.9609375 13.11669921875 -26.54248046875
-5.1650390625 13.300048828125 -6.760986328125
-6.289794921875 13.5849609375 -9.55029296875
-9.447509765625 13.522705078125 -10.018798828125
-5.48046875 13.89501953125 -10.31298828125
-4.70703125 13.905029296875 -9.50341796875
-12.098388671875 13.793212890625 -15.2158203125
-13.193603515625 13.943359375 -19.1923828125
-12.663818359375 13.7421875 9.71533203125
-12.427734375 14.093994140625 -17.97998046875
-8.361572265625 15.088134765625 -5.193603515625
-13.278076171875 15.056396484375 -14.78759765625
-9.53564453125 15.225341796875 11.767333984375
-11.230224609375 15.280029296875 -0.51220703125
-9.60693359375 15.328125 -2.449462890625
-11.30078125 15.3984375 2.6474609375
-8.368408203125 15.641357421875 -22.156005859375
-7.669677734375 15.499267578125 -0.822265625
-6.862548828125 15.521728515625 -1.593505859375
-13.5419921875 15.392822265625 -2.9306640625
-12.502197265625 15.367919921875 3.409423828125
-12.39453125 15.40478515625 -1.325439453125
-12.878662109375 15.36572265625 2.611328125
-10.73583984375 15.465087890625 -4.84033203125
-10.27880859375 15.367431640625 9.776611328125
-9.049072265625 15.69287109375 7.8330078125
-14.490478515625 15.4638671875 4.1552734375
-13.7177734375 15.61669921875 4.964111328125
-13.239013671875 15.22705078125 1.021240234375
-5.4580078125 20.28515625 -28.482177734375
-12.6044921875 14.3193359375 -10.05859375
-6.125244140625 22.297607421875 0.92529296875
-5.708740234375 22.31494140625 -0.235595703125
-6.9482421875 22.96337890625 2.868896484375
-10.339599609375 15.63134765625 12.53857421875
-10.538818359375 15.405517578125 3.84912109375
-5.056884765625 13.337158203125 -11.514404296875
-9.37548828125 16.5615234375 5.073974609375
-3.57958984375 13.044677734375 -6.734130859375
-12.159912109375 13.915283203125 -12.439697265625
-13.301513671875 15.3330078125 -13.59033203125
-9.873779296875 14.364013671875 -8.413818359375
-3.999267578125 14.611083984375 -5.901611328125
-13.808349609375 11.69140625 -28.469482421875
-8.730224609375 14.946044921875 -6.3916015625
-12.654296875 7.63818359375 -29.1240234375
-7.595703125 13.1044921875 12.9990234375
-7.89404296875 15.42236328125 9.041748046875
-8.394287109375 13.660400390625 13.3759765625
-7.13916015625 11.819091796875 -7.25048828125
-14.52587890625 14.882568359375 5.331787109375
-13.47021484375 15.41748046875 -6.08740234375
-8.315673828125 19.766845703125 -23.481201171875
-4.73291015625 13.320556640625 -8.33642578125
-4.68017578125 13.914306640625 -10.690673828125
-13.79833984375 13.592529296875 7.313232421875
-11.400634765625 9.576904296875 -30.55859375
-5.850830078125 23.936279296875 6.022705078125
-5.31298828125 -10.24365234375 18.43603515625
-4.9296875 -9.93359375 19.67724609375
-11.930419921875 1.86962890625 -28.701171875
-12.37890625 1.099609375 -27.144287109375
-11.854248046875 6.776123046875 -29.56787109375
-13.56396484375 13.80078125 -20.396484375
-11.419189453125 8.551513671875 -30.2333984375
-10.6630859375 14.4912109375 -8.4267578125
-11.8623046875 14.89013671875 -7.64892578125
-15.173828125 15.341552734375 -0.599609375
-15.635498046875 15.594482421875 2.552734375
-8.0380859375 15.214599609375 -2.022216796875
-14.153076171875 14.59814453125 6.127685546875
-11.408447265625 15.361328125 7.382080078125
-14.898193359375 15.166748046875 4.536865234375
-11.90283203125 14.3203125 11.317138671875
-9.0849609375 15.680419921875 9.41064453125
-11.972412109375 13.836669921875 -20.755859375
-5.56298828125 15.458740234375 10.67431640625
-8.50146484375 15.89599609375 1.140625
-12.835693359375 13.795654296875 -17.608154296875
-13.783935546875 12.85009765625 -28.785888671875
-14.57080078125 13.838134765625 -28.338134765625
-7.9736328125 13.1025390625 12.19775390625
-10.241943359375 1.92822265625 -31.894775390625
-8.16259765625 22.506103515625 4.784423828125
-13.025146484375 13.602783203125 8.122802734375
-8.6650390625 15.412109375 8.234619140625
-13.363037109375 14.614501953125 6.145751953125
-5.5888671875 14.71875 -5.5380859375
-13.923828125 15.67333984375 -3.32666015625
-12.57421875 14.615234375 -11.23291015625
-12.029296875 13.530517578125 -18.396484375
-4.07861328125 -9.906982421875 18.461181640625
-6.548583984375 -10.580810546875 18.410888671875
-5.3876953125 -10.42529296875 21.733154296875
-6.22998046875 -9.826171875 22.527587890625
-6.576416015625 -10.27880859375 19.643310546875
-6.613525390625 -10.13623046875 21.288330078125
-12.135986328125 13.63720703125 -13.63916015625
-9.4541015625 13.950927734375 -9.606689453125
-5.95703125 13.28369140625 -6.779296875
-14.2412109375 15.4072265625 -6.89453125
-11.0458984375 14.7880859375 8.5712890625
-13.436279296875 15.286865234375 -7.67041015625
-10.124267578125 15.705322265625 3.073486328125
-12.7421875 2.29833984375 -28.285400390625
-13.43701171875 13.732177734375 8.906005859375
-12.337890625 14.125 -21.935302734375
-12.462890625 13.3662109375 -16.8291015625
-12.78564453125 14.24169921875 -19.5634765625
-14.176025390625 13.590576171875 6.5126953125
-11.085693359375 14.345947265625 10.1494140625
-14.55859375 13.872802734375 6.111083984375
-3.736328125 -11.4833984375 21.78759765625
-13.73779296875 14.883544921875 -12.03857421875
-6.127197265625 -10.4130859375 18.0068359375
-4.152587890625 -10.243896484375 21.759033203125
-6.594970703125 -10.285400390625 20.467041015625
-5.790283203125 -10.274658203125 21.309326171875
-5.771484375 -10.268310546875 20.48583984375
-6.632080078125 -9.987060546875 22.109375
-5.752685546875 -10.261962890625 19.662109375
-5.406982421875 -9.964599609375 22.549072265625
-4.134765625 -9.92626953125 20.930908203125
-8.70458984375 14.6689453125 -7.586181640625
-5.80908203125 -9.814453125 22.125732421875
-11.086669921875 15.329345703125 -6.826904296875
-7.1640625 12.98095703125 11.423583984375
-9.9208984375 15.34765625 -6.010498046875
-12.2353515625 13.475341796875 8.139892578125
-15.28857421875 14.875732421875 4.129150390625
-10.46923828125 15.144287109375 0.68701171875
-11.67724609375 15.396484375 1.84912109375
-11.48486328125 13.9072265625 10.138671875
-11.8115234375 14.49462890625 7.365966796875
-7.20849609375 13.25341796875 13.404052734375
-9.29248046875 15.451416015625 1.1142578125
-14.8583984375 16.03271484375 3.365966796875
-8.336181640625 14.683349609375 11.00390625
-9.794677734375 15.40625 5.840087890625
-14.6376953125 10.508544921875 -27.77197265625
-4.7783203125 13.448974609375 -6.351318359375
-10.22509765625 15.3857421875 7.4091796875
-10.711669921875 15.060791015625 11.345458984375
-4.445068359375 13.29150390625 -3.573974609375
-7.954833984375 13.396484375 11.406005859375
-14.70751953125 15.37451171875 -3.7470703125
-10.451171875 15.150390625 -0.1025390625
-9.07568359375 14.096435546875 -8.80126953125
-12.78173828125 15.2568359375 -1.732421875
-4.428955078125 14.016845703125 -4.345947265625
-13.941650390625 15.667236328125 -2.5380859375
-10.37353515625 14.748779296875 -3.6669921875
-10.6474609375 14.21044921875 -9.227783203125
-9.956787109375 15.33544921875 -4.431884765625
-12.73681640625 15.272216796875 -3.705810546875
-5.129638671875 13.743896484375 -8.330322265625
-5.885009765625 13.739990234375 -9.931640625
-14.60107421875 12.394775390625 -28.041015625
-11.937744140625 13.705322265625 -22.34716796875
-13.025146484375 14.4453125 -8.87646484375
-12.947998046875 14.899658203125 -12.0205078125
-12.695068359375 13.5576171875 -23.95751953125
-11.4033203125 14.06298828125 -10.833251953125
-7.16796875 15.258544921875 -5.556884765625
-8.775146484375 14.9306640625 -4.4169921875
-6.719482421875 15.443603515625 9.46337890625
-11.90283203125 15.303955078125 -5.660888671875
-7.635009765625 15.082763671875 -2.411376953125
-12.531005859375 14.4873046875 -13.215087890625
-11.9296875 15.294677734375 -4.47705078125
-14.201171875 13.72509765625 7.700927734375
-13.219482421875 15.376220703125 0.23486328125
-8.291015625 12.529296875 -8.840087890625
-12.46630859375 15.380126953125 1.8310546875
-10.35498046875 14.7705078125 12.933837890625
-5.112060546875 14.03759765625 -9.111572265625
-10.20703125 15.39208984375 6.6201171875
-15.227783203125 15.89111328125 2.17236328125
-7.2861328125 22.276611328125 0.508544921875
-14.123046875 15.462646484375 5.34765625
-9.22216796875 15.190185546875 -2.04931640625
-10.816650390625 15.437255859375 -1.289306640625
-8.169921875 1.539794921875 -34.30615234375
-14.42138671875 1.498291015625 -25.948974609375
-12.770751953125 1.394287109375 -27.5380859375
-8.583251953125 1.5283203125 -33.911376953125
-14.818359375 1.34326171875 -26.371826171875
-15.284423828125 1.462646484375 -23.54345703125
-14.43994140625 1.491943359375 -25.140869140625
-15.67919921875 1.45751953125 -23.956787109375
-13.209716796875 1.523193359375 -25.921142578125
-14.04541015625 15.91552734375 2.199462890625
-15.660888671875 1.4638671875 -24.7646484375
-13.577880859375 15.38037109375 -1.3525390625
-8.562744140625 1.983642578125 -34.684326171875
-9.388671875 1.960693359375 -33.895263671875
-11.915283203125 2.470703125 -29.063720703125
-13.48828125 15.4111328125 -5.298095703125
-10.666259765625 2.806640625 -30.628173828125
-7.303955078125 22.2705078125 1.28857421875
-8.152099609375 22.92724609375 4.400390625
-13.33203125 15.037841796875 -12.41845703125
-13.127197265625 14.965576171875 -21.50830078125
-18.97119140625 13.589111328125 -26.468505859375
-16.974365234375 13.63623046875 -27.21484375
-12.294921875 4.69384765625 -28.918701171875
-22.55419921875 13.080810546875 -26.1826171875
-7.34619140625 23.091552734375 3.251708984375
-8.125 23.075439453125 3.23388671875
-12.669921875 7.047607421875 -28.7646484375
-6.9833984375 23.090576171875 4.428955078125
-12.23291015625 8.8212890625 -29.432373046875
-12.615478515625 10.271240234375 -29.338623046875
-13.427978515625 10.393798828125 -28.550537109375
-11.80126953125 10.293701171875 -30.11669921875
-6.011962890625 10.823974609375 13.0380859375
-12.185302734375 11.591796875 -30.0322265625
-12.990966796875 12.147705078125 -29.215087890625
-7.52587890625 12.24755859375 -7.641845703125
-13.378662109375 12.861328125 -29.17333984375
-3.967041015625 13.03955078125 -7.139404296875
-17.396728515625 13.190185546875 -26.460693359375
-11.00634765625 13.21142578125 -11.25439453125
-9.161865234375 13.077880859375 12.170654296875
-6.244873046875 13.312744140625 -11.54150390625
-11.600341796875 13.26318359375 -19.98681640625
-11.90625 13.2861328125 -23.95703125
-19.77294921875 13.14111328125 -26.51513671875
-16.58642578125 13.212646484375 -27.23486328125
-5.552001953125 13.294921875 -7.166259765625
-5.57958984375 13.15771484375 11.4599609375
-21.365966796875 13.10546875 -26.155517578125
-11.780517578125 13.201416015625 -12.064697265625
-8.77490234375 13.0830078125 12.57568359375
-13.83837890625 13.292724609375 8.89453125
-13.001708984375 13.324462890625 6.93310546875
-11.8486328125 13.480224609375 8.544921875
-11.41650390625 13.62890625 -10.45458984375
-13.064697265625 13.302734375 9.704345703125
-12.467041015625 13.79443359375 -16.411865234375
-5.09375 13.900146484375 -9.908203125
-13.411865234375 13.59765625 7.718017578125
-12.224365234375 13.75 -9.675537109375
-12.260986328125 13.60986328125 9.328125
-5.866943359375 13.889892578125 -10.7177734375
-7.916748046875 13.968017578125 -7.592529296875
-13.050537109375 13.7373046875 9.310791015625
-14.166259765625 13.849365234375 -28.724609375
-4.815673828125 14.1552734375 -4.746337890625
-8.689208984375 14.1015625 -8.396728515625
-7.143310546875 14.121826171875 -6.7783203125
-10.241943359375 14.365234375 -9.60888671875
-12.758544921875 14.2509765625 -20.749755859375
-4.807373046875 14.588623046875 -5.129150390625
-12.19921875 14.34619140625 6.96044921875
-10.260009765625 14.35888671875 -8.818115234375
-12.236328125 14.318115234375 -8.863525390625
-11.8310546875 14.34521484375 8.155029296875
-17.347900390625 14.776123046875 -27.146728515625
-14.951171875 14.834228515625 -28.277587890625
-12.603271484375 14.3349609375 7.346435546875
-7.60888671875 14.805908203125 -3.603759765625
-6.80078125 14.828369140625 -4.375732421875
-5.634033203125 14.846435546875 -3.55859375
-13.369873046875 14.88232421875 -10.8447265625
-12.85986328125 14.787353515625 -15.976806640625
-9.108642578125 14.65771484375 -7.2001953125
-7.15087890625 14.83544921875 -6.360107421875
-8.720947265625 14.96484375 10.6005859375
-12.26611328125 14.87890625 -7.262939453125
-10.677490234375 14.914794921875 -7.621826171875
-6.378662109375 15.1318359375 -5.543212890625
-12.686279296875 15.004638671875 -6.082763671875
-12.248046875 14.88525390625 -8.052978515625
-9.581787109375 15.05126953125 -3.64111328125
-10.0654296875 15.155517578125 0.30126953125
-5.6611328125 15.12353515625 -2.3662109375
-14.662841796875 15.389892578125 -5.7197265625
-13.68017578125 15.18798828125 -14.395263671875
-12.87451171875 15.067626953125 -15.17333984375
-11.877197265625 15.170166015625 -6.849609375
-9.983642578125 15.326171875 -3.247802734375
-9.53515625 15.352783203125 -5.606689453125
-9.5078125 15.37744140625 10.583740234375
-9.310302734375 15.4453125 1.9033203125
-7.24853515625 15.373779296875 -2.00048828125
-11.552978515625 15.296630859375 -3.6787109375
-11.354736328125 15.3798828125 5.0146484375
-10.099365234375 15.428955078125 1.88525390625
-8.74609375 15.369140625 -5.588623046875
-8.86279296875 15.328857421875 -0.4580078125
-8.83642578125 15.1953125 -1.6455078125
-10.4140625 15.3056640625 -1.67822265625
-10.046630859375 15.304443359375 -0.485107421875
-12.71875 15.2783203125 -4.4951171875
-14.689697265625 15.380615234375 -4.5361328125
-13.963623046875 15.375244140625 -1.756103515625
-13.12060546875 15.41015625 -4.10546875
-11.203369140625 15.289306640625 -1.6962890625
-10.925537109375 15.25732421875 3.443359375
-10.028564453125 15.310791015625 -1.2744140625
-9.43603515625 15.402099609375 7.42724609375
-13.344970703125 15.3330078125 5.7587890625
-11.758056640625 15.36865234375 5.400390625
-14.644775390625 15.39599609375 -6.509033203125
-13.138671875 15.404052734375 -3.31640625
-12.853515625 15.232177734375 1.4248046875
-11.990966796875 15.416015625 -1.7109375
-11.740234375 15.374755859375 4.611083984375
-10.99609375 15.375732421875 6.60205078125
-10.951171875 15.39111328125 4.629150390625
-10.5029296875 15.417724609375 2.270751953125
-10.48486328125 15.423828125 1.481689453125
-10.244140625 15.23681640625 8.197265625
-10.010498046875 15.31689453125 -2.063720703125
-8.279541015625 15.417236328125 8.63818359375
-6.47705078125 15.52685546875 -1.18994140625
-13.873779296875 15.40625 -5.70166015625
-13.156494140625 15.397705078125 -2.527099609375
-12.90576171875 15.356689453125 3.794921875
-12.11669921875 15.372802734375 3.81298828125
-7.26611328125 15.510498046875 -1.2080078125
-6.064697265625 15.541259765625 -1.969970703125
-18.517333984375 15.466796875 -27.125732421875
-15.608642578125 15.603759765625 1.36962890625
-13.837890625 15.41845703125 -7.280029296875
-12.923583984375 15.350341796875 4.583984375
-11.121337890625 15.4599609375 -5.243896484375
-9.893310546875 15.372314453125 10.18017578125
-9.69580078125 15.440185546875 1.499755859375
-9.677978515625 15.4462890625 0.710693359375
-8.629150390625 15.424560546875 6.65625
-6.737060546875 15.72314453125 10.253662109375
-9.87548828125 15.37841796875 9.39111328125
-5.948486328125 15.739501953125 10.271728515625
-14.087158203125 15.47509765625 3.769775390625
-15.142578125 15.63671875 -1.7763671875
-9.452392578125 15.681640625 8.218505859375
-14.380859375 15.6435546875 -0.5751953125
-8.698974609375 15.828125 9.814697265625
-7.910400390625 15.844482421875 9.832763671875
-14.10302734375 15.61181640625 4.560791015625
-9.764892578125 15.84375 4.661865234375
-9.47021484375 15.675537109375 9.00732421875
-8.680908203125 15.83447265625 9.026123046875
-14.423583984375 15.77099609375 1.3994140625
-14.00048828125 15.930908203125 0.228515625
-14.065185546875 15.766845703125 2.985595703125
-14.0185546875 15.9248046875 1.016845703125
-5.475830078125 20.279052734375 -27.69921875
-7.8779296875 20.21240234375 -25.40380859375
-6.650146484375 20.2548828125 -27.72607421875
-7.84228515625 20.224609375 -26.969970703125
-7.46875 20.2265625 -26.177978515625
-5.876220703125 20.26806640625 -27.316650390625
-8.296142578125 20.195068359375 -24.23828125
-7.940185546875 20.19091796875 -22.663330078125
-5.075439453125 20.290283203125 -28.08154296875
-8.482666015625 22.243408203125 1.65185546875
-6.107666015625 22.3037109375 0.1455078125
-6.762939453125 22.31689453125 -22.510009765625
-6.9228515625 22.275634765625 1.6875
-5.744140625 22.302734375 1.32421875
-7.68505859375 22.265625 0.8896484375
-6.887451171875 22.287841796875 0.12744140625
-6.541748046875 22.280517578125 2.08642578125
-6.524169921875 22.28662109375 1.306396484375
-7.70263671875 22.259521484375 1.669677734375
-6.50634765625 22.292724609375 0.5263671875
-8.1005859375 22.52734375 2.0556640625
-7.409423828125 22.65234375 5.97314453125
-7.328857421875 22.95849609375 2.470458984375
-7.0166015625 24.328369140625 6.00048828125
-4.4814453125 -9.6015625 18.037353515625
-13.520751953125 13.672607421875 -22.383544921875
-12.15380859375 13.631103515625 -12.84765625
-13.540283203125 14.23779296875 -21.163330078125
-11.397216796875 13.77880859375 -11.240478515625
-13.007080078125 14.451416015625 -9.666748046875
-13.685302734375 15.470947265625 -13.987548828125
-13.887939453125 15.685546875 -4.904296875
-10.296875 15.361083984375 10.565673828125
-7.94091796875 14.8193359375 -6.378173828125
-9.51806640625 15.216064453125 -6.400634765625
-9.2744140625 15.45751953125 0.3251953125
-7.1865234375 14.96630859375 -4.775634765625
-8.314208984375 15.690673828125 10.217529296875
-10.711181640625 15.1884765625 -6.032958984375
-4.3935546875 14.316162109375 -5.91943359375
-6.4326171875 15.113525390625 -3.174072265625
-14.3759765625 15.361083984375 -0.97607421875
-9.963134765625 14.348876953125 12.943359375
-11.258544921875 15.1279296875 0.6689453125
-9.941162109375 14.927978515625 12.15283203125
-11.525634765625 14.322265625 12.116455078125
-8.493896484375 15.613525390625 0.74072265625
-9.317626953125 15.727783203125 2.302978515625
-7.14208984375 14.854248046875 10.636474609375
-12.758056640625 1.697021484375 -27.922119140625
-14.428466796875 16.05322265625 1.798828125
-9.720947265625 15.716552734375 2.688232421875
-12.641845703125 13.3203125 8.525634765625
-10.117431640625 15.4228515625 2.674560546875
-7.932373046875 19.91259765625 -23.07177734375
-11.4912109375 14.19140625 10.53515625
-9.570556640625 13.926513671875 12.952880859375
-9.317626953125 17.290771484375 2.722900390625
-11.78515625 15.359375 6.583984375
-11.110107421875 14.623291015625 11.335693359375
-5.150390625 15.47314453125 9.89404296875
-10.13525390625 15.416748046875 3.463623046875
-3.591552734375 13.76123046875 -6.31494140625
-4.024169921875 14.028076171875 -4.732421875
-4.842041015625 13.858642578125 -3.567626953125
-4.43701171875 13.726318359375 -3.958251953125
-4.032470703125 13.737548828125 -4.344970703125
-8.4072265625 14.9296875 -3.222900390625
-8.913818359375 21.104248046875 3.185302734375
-11.140380859375 15.31103515625 -4.458984375
-8.742919921875 14.0986328125 11.388916015625
-10.6328125 13.785888671875 -10.03515625
-11.564208984375 13.275634765625 -21.5712890625
-5.545166015625 15.75048828125 9.88623046875
-9.469482421875 14.375244140625 -8.800048828125
-11.023193359375 13.349365234375 -10.45654296875
-13.3642578125 13.296630859375 -29.538818359375
-12.203369140625 14.04345703125 -10.455810546875
-12.1748046875 14.1962890625 -11.63671875
-13.393310546875 14.4462890625 -10.071044921875
-13.853759765625 15.55517578125 -6.486328125
-11.843994140625 14.039306640625 -8.86474609375
-9.004150390625 15.708251953125 5.861328125
-12.966064453125 14.8935546875 -11.23046875
-12.971435546875 14.336181640625 6.15185546875
-12.668212890625 15.010986328125 -6.872314453125
-15.75 14.81494140625 -27.900634765625
-13.511474609375 15.687744140625 -4.1064453125
-8.924072265625 20.82080078125 3.57177734375
-11.615478515625 13.544921875 -19.17919921875
-13.3271484375 15.339111328125 4.969482421875
-16.94384765625 14.787353515625 -27.53271484375
-13.6748046875 15.4892578125 2.989990234375
-20.94287109375 13.122802734375 -27.334716796875
-19.73681640625 14.294189453125 -26.834716796875
-16.921630859375 15.505615234375 -27.878662109375
-8.763427734375 13.6298828125 -22.678955078125
-12.7373046875 14.544189453125 -21.524169921875
-18.19775390625 13.1708984375 -26.082763671875
-21.347900390625 13.111572265625 -26.947509765625
-6.93994140625 22.687744140625 2.474609375
-7.35400390625 23.505859375 3.6474609375
-5.734130859375 -10.25537109375 18.83837890625
-4.966552734375 -10.41357421875 21.33056640625
-5.294189453125 -10.2373046875 17.612548828125
-4.56396484375 -10.408203125 21.751953125
-4.957763671875 -10.098876953125 20.914306640625
-4.143798828125 -10.085205078125 21.344970703125
-4.9013671875 -10.07958984375 18.44384765625
-4.88330078125 -9.76220703125 17.617919921875
-6.1552734375 -10.26708984375 19.240966796875
-4.920166015625 -10.0859375 19.267333984375
-4.490478515625 -9.76025390625 18.4501953125
-4.096923828125 -10.069091796875 19.286376953125
-5.35986328125 -10.104248046875 20.4931640625
-21.77099609375 13.09423828125 -25.768310546875
-13.10888671875 13.543212890625 -23.1748046875
-12.322998046875 13.843994140625 -22.743408203125
-19.37353515625 13.29345703125 -26.49658203125
-11.96484375 13.696044921875 -21.15966796875
-11.990478515625 13.830322265625 -19.96435546875
-13.527587890625 14.52783203125 -21.542236328125
-12.04736328125 13.5244140625 -17.604736328125
-13.793212890625 13.30810546875 6.914794921875
-19.707763671875 15.156494140625 -27.172119140625
-8.270751953125 13.1123046875 -9.61181640625
-12.814208984375 14.089111328125 -18.384521484375
-11.4345703125 13.62255859375 -9.662841796875
-11.789794921875 14.057861328125 -11.238037109375
-11.02978515625 13.6337890625 -10.049560546875
-12.56689453125 14.47509765625 -11.634033203125
-15.604248046875 15.3212890625 0.9697265625
-8.66357421875 13.823486328125 -9.593994140625
-10.639404296875 14.070068359375 -9.628662109375
-9.462158203125 14.09130859375 -9.205810546875
-15.19189453125 15.33544921875 0.189697265625
-14.808837890625 15.765869140625 0.99609375
-12.358642578125 15.417236328125 -2.903564453125
-11.5068359375 15.455078125 -5.6474609375
-9.090576171875 14.663818359375 -7.990478515625
-11.0556640625 14.76953125 -8.42578125
-12.5380859375 15.35546875 4.987548828125
-11.660888671875 15.259765625 1.057373046875
-14.838134765625 16.181396484375 2.580322265625
-10.674560546875 15.21630859375 9.76708984375
-8.78271484375 15.2138671875 -4.013916015625
-10.573486328125 15.535888671875 5.428955078125
-10.727294921875 15.340576171875 12.135009765625
-10.5556640625 15.542236328125 4.64013671875
-8.721923828125 14.80615234375 -6.791259765625
-11.86962890625 15.0302734375 -7.249267578125
-7.581787109375 14.81494140625 -4.788818359375
-8.0556640625 15.351318359375 -1.229248046875
-12.693603515625 15.144775390625 -5.683349609375
-8.467529296875 15.47998046875 -0.44580078125
-7.957275390625 15.242431640625 -5.574951171875
-13.06689453125 15.4287109375 -6.472900390625
-5.1845703125 14.586669921875 -5.9287109375
-5.64306640625 14.986572265625 -3.15966796875
-7.994384765625 14.94384765625 -4.00390625
-12.3466796875 1.558837890625 -28.326904296875
-12.315185546875 15.28955078125 -4.880615234375
-11.91015625 15.44384765625 -5.261962890625
-7.231201171875 15.093994140625 -2.797119140625
-15.106689453125 15.080322265625 -3.763916015625
-7.515869140625 15.995361328125 9.84228515625
-9.553466796875 13.7890625 12.16162109375
-14.71435546875 15.51416015625 -3.3486328125
-6.0556640625 15.4013671875 -2.3681640625
-4.8720703125 15.42578125 -2.341064453125
-12.7744140625 15.116943359375 -2.130615234375
-8.459228515625 15.340087890625 -0.84375
-9.240234375 15.18408203125 -1.259765625
-15.117919921875 15.5029296875 -2.963134765625
-11.49365234375 2.4853515625 -29.861328125
-8.87109375 15.46875 -0.060302734375
-8.986328125 1.669677734375 -33.908935546875
-11.913330078125 14.173828125 11.712158203125
-8.485595703125 15.473876953125 0.34326171875
-10.25830078125 2.220947265625 -31.0654296875
-13.823486328125 13.72705078125 8.50146484375
-8.5732421875 1.68115234375 -34.3037109375
-8.16015625 1.692626953125 -34.698486328125
-16.0078125 15.31005859375 1.355224609375
-13.26416015625 15.36083984375 2.20751953125
-11.46826171875 13.769775390625 9.346923828125
-11.062744140625 14.925048828125 9.36181640625
-11.03564453125 14.934326171875 8.17724609375
-12.27587890625 13.890869140625 10.12060546875
-6.345703125 11.111083984375 -7.25634765625
-11.8955078125 14.179931640625 10.92138671875
-8.40283203125 13.801025390625 13.771240234375
-9.193115234375 13.928466796875 13.7529296875
-9.82861328125 15.6796875 7.420654296875
-10.583740234375 15.389892578125 5.822021484375
-9.418212890625 15.408203125 6.63818359375
-11.117919921875 14.763427734375 11.730712890625
-9.78466796875 15.55224609375 5.447265625
-9.77490234375 15.697998046875 5.054443359375
-7.5166015625 12.395263671875 -8.03369140625
-14.483642578125 15.323974609375 3.7587890625
-11.702880859375 15.530029296875 3.03515625
-9.755126953125 15.98974609375 4.26953125
-5.966064453125 13.99951171875 -6.3603515625
-15.234375 16.03076171875 2.56884765625
-12.009033203125 15.409912109375 -0.921875
-11.240478515625 15.134033203125 -0.12060546875
-11.219970703125 15.426025390625 -0.90380859375
-10.03662109375 15.450439453125 -0.876708984375
-9.28271484375 15.597412109375 0.72265625
-3.619140625 13.8955078125 -5.123291015625
-8.8095703125 15.20458984375 -2.829833984375
-12.405029296875 15.2587890625 -0.93408203125
-3.602294921875 14.18896484375 -5.90576171875
-5.60693359375 14.712646484375 -4.747802734375
-15.15380859375 15.49072265625 -1.38525390625
-11.913818359375 13.427001953125 -23.55224609375
-5.248046875 14.8515625 -3.154296875
-9.34521484375 17.139404296875 3.90087890625
-8.37109375 14.94189453125 -4.802734375
-6.7568359375 14.429443359375 11.03955078125
-6.3876953125 15.27197265625 -5.14404296875
-5.59814453125 15.001953125 -5.134521484375
-7.626708984375 14.799560546875 -2.813720703125
-11.810791015625 13.764404296875 -10.4580078125
-14.31103515625 15.525390625 -3.734130859375
-7.94189453125 14.54833984375 11.0126953125
-12.25341796875 13.468994140625 8.931640625
-8.73046875 14.818603515625 10.9951171875
-8.425048828125 14.92333984375 -2.43310546875
-8.765380859375 15.076904296875 -4.8076171875
-8.6962890625 14.52880859375 -7.986328125
-12.23193359375 13.890625 -9.274658203125
-12.474365234375 13.93505859375 -16.00927734375
-12.448974609375 13.800537109375 -17.203369140625
-12.015869140625 13.96484375 -18.76953125
-11.603759765625 13.83544921875 -19.5595703125
-10.29736328125 15.345703125 -6.808837890625
-8.14208984375 23.20849609375 4.0146484375
-7.38134765625 23.218505859375 4.811279296875
-9.888671875 14.787841796875 -7.6083984375
-9.502685546875 14.792724609375 -7.204345703125
-8.343017578125 15.2373046875 -5.978759765625
-12.593994140625 14.4658203125 -10.4482421875
-10.767333984375 14.8837890625 -3.672119140625
-10.684326171875 15.19775390625 -7.21728515625
-9.90478515625 15.06787109375 -6.80908203125
-9.880859375 14.647705078125 -8.008544921875
-12.12548828125 13.783935546875 -14.028564453125
-9.896728515625 14.927978515625 -7.208740234375
-9.88525390625 15.232421875 9.78515625
-9.1142578125 15.24267578125 10.592529296875
-12.1806640625 14.480224609375 -11.229736328125
-8.287353515625 15.699951171875 9.034423828125
-10.915283203125 15.403564453125 3.051025390625
-12.087890625 13.940185546875 -15.604736328125
-11.1044921875 15.3232421875 -6.03759765625
-10.324462890625 15.33642578125 -5.624755859375
-12.300537109375 15.009765625 -5.6787109375
-12.037353515625 15.257568359375 0.259033203125
-11.965576171875 15.282470703125 -2.8984375
-12.91943359375 15.052001953125 -13.19921875
-8.10888671875 22.663818359375 2.447998046875
-8.490966796875 22.3798828125 2.044189453125
-20.58642578125 12.974609375 -25.75048828125
-13.31640625 15.485107421875 4.576904296875
-13.174560546875 15.3916015625 -1.738037109375
-13.705078125 15.32177734375 -13.204833984375
-11.983642578125 15.276123046875 -2.109130859375
-13.452392578125 15.423583984375 -6.87646484375
-8.50732421875 22.652587890625 2.82861328125
-13.30908203125 15.345458984375 4.180419921875
-13.970458984375 15.51513671875 -1.358154296875
-12.484375 14.64599609375 -15.1845703125
-12.885009765625 14.92138671875 -14.78515625
-14.768310546875 15.495849609375 -0.98193359375
-13.993408203125 15.79150390625 -0.168701171875
-14.7392578125 15.64794921875 -2.16162109375
-16.139892578125 15.093017578125 -27.89013671875
-8.515625 22.7890625 3.220703125
-21.719482421875 13.68212890625 -27.31396484375
-12.79638671875 14.09521484375 -19.17578125
-12.384521484375 13.966064453125 -19.965576171875
-13.95068359375 13.7958984375 -20.80126953125
-13.55126953125 14.09130859375 -20.77587890625
-13.1630859375 14.23974609375 -20.36328125
-7.76171875 23.213623046875 4.4130859375
-17.739990234375 14.9111328125 -27.146240234375
-4.572998046875 -10.567138671875 22.16650390625
-7.035400390625 -10.614990234375 21.69775390625
-6.557861328125 -10.583984375 18.822998046875
-7.386962890625 24.46484375 5.216064453125
-7.007568359375 24.469970703125 5.613525390625
-5.71533203125 -10.40478515625 18.016357421875
-5.37841796875 -10.421875 21.321044921875
-5.397216796875 -10.428466796875 22.14501953125
-6.136474609375 -10.41650390625 18.418701171875
-5.799560546875 -10.278076171875 21.72119140625
-5.322265625 -10.2470703125 18.847900390625
-6.988525390625 -10.598876953125 19.637451171875
-5.76220703125 -10.26513671875 20.073974609375
-4.975830078125 -10.416748046875 21.742431640625
-6.56689453125 -10.275634765625 19.2314453125
-5.743408203125 -10.2587890625 19.250244140625
-5.341064453125 -10.25341796875 19.671630859375
-6.58544921875 -10.12646484375 20.05322265625
-6.201904296875 -10.283203125 21.300048828125
-6.183349609375 -10.27685546875 20.476318359375
-4.087646484375 -10.06591796875 18.87451171875
-4.939208984375 -9.93701171875 20.0888671875
-6.6044921875 -10.28857421875 20.878662109375
-5.724609375 -10.252197265625 18.4267578125
-4.527587890625 -9.928466796875 20.098388671875
-6.622802734375 -9.983642578125 21.69775390625
