-12.488037109375 -24.416015625 68.680419921875
9.94775390625 26.529541015625 -29.138671875
20.5751953125 -15.7802734375 68.26806640625
-8.8251953125 -29.307373046875 65.538818359375
30.5810546875 16.837646484375 -57.232666015625
-10.708984375 -18.5859375 23.0859375
23.539306640625 -53.944091796875 -26.03515625
-12.990966796875 -9.6611328125 38.931396484375
23.10693359375 -49.127197265625 43.709228515625
20.149169921875 -34.583251953125 87.32080078125
-15.386474609375 -0.3603515625 30.7666015625
24.00146484375 -33.35302734375 60.494873046875
20.799560546875 -45.502685546875 39.65380859375
15.303466796875 13.188232421875 29.63623046875
-9.15478515625 -13.244384765625 72.647216796875
12.190185546875 12.1123046875 32.593505859375
7.446044921875 26.526611328125 -31.620849609375
20.097900390625 -54.07421875 -13.985595703125
-2.670654296875 12.90185546875 24.39111328125
24.3515625 21.096435546875 -45.093505859375
-16.621826171875 -33.938232421875 63.2392578125
23.5625 -2.50439453125 4.339599609375
-16.2900390625 -14.261962890625 75.070068359375
-3.010498046875 -28.368896484375 14.4169921875
-1.37353515625 6.353515625 41.56982421875
13.81396484375 12.923828125 -79.74560546875
-19.65478515625 -30.100830078125 63.082763671875
-26.640869140625 -1.11083984375 41.582763671875
22.21044921875 -19.800537109375 55.9697265625
14.490966796875 -41.848876953125 29.68603515625
0.43115234375 -3.76025390625 25.49951171875
20.061767578125 -34.548095703125 84.057861328125
-6.8955078125 11.527587890625 29.89990234375
-1.649169921875 14.3466796875 18.6630859375
26.669189453125 19.61669921875 -55.32177734375
15.54443359375 -46.374755859375 25.544677734375
-28.769775390625 -8.1923828125 35.864013671875
19.96337890625 -15.78857421875 56.975830078125
-4.701171875 -17.224853515625 34.355712890625
15.52099609375 20.754638671875 -3.780517578125
10.998046875 17.646484375 7.947509765625
16.0595703125 -49.1240234375 -21.773681640625
20.129150390625 -30.596435546875 55.003173828125
-7.179931640625 -23.384521484375 19.21826171875
-6.347412109375 -34.669189453125 61.550048828125
-14.013916015625 -10.893310546875 30.83447265625
9.281005859375 22.963623046875 -43.561279296875
33.38623046875 15.00244140625 -56.559326171875
-8.085205078125 -19.2080078125 71.8447265625
3.726806640625 9.38134765625 42.32568359375
5.1171875 5.1220703125 32.4306640625
-6.056884765625 -15.388427734375 37.658447265625
-15.44580078125 -15.943359375 30.212158203125
-20.27294921875 -17.276611328125 71.412109375
5.080810546875 6.580810546875 40.463134765625
19.237548828125 33.1689453125 -57.07470703125
13.2314453125 2.29443359375 -66.2314453125
18.5546875 -12.046875 35.952880859375
22.607177734375 -6.74462890625 -5.888671875
-17.1728515625 -30.431884765625 49.145263671875
14.061279296875 1.508544921875 -62.35400390625
19.37060546875 -51.917724609375 21.6357421875
-23.74853515625 -15.874755859375 32.33642578125
22.84033203125 -11.978515625 39.352783203125
21.703857421875 3.442626953125 28.30810546875
-1.049560546875 -22.98779296875 65.48046875
3.087646484375 30.9033203125 -57.214599609375
-17.261962890625 5.964111328125 32.871337890625
-8.18115234375 -22.194580078125 38.732177734375
18.801513671875 -45.93017578125 -35.4892578125
14.71240234375 26.09765625 -26.22265625
-3.83056640625 -15.1826171875 73.98681640625
-21.84423828125 -19.251220703125 29.4150390625
6.04833984375 1.877685546875 -82.00390625
-15.44091796875 -29.215087890625 21.029296875
18.63818359375 -54.22021484375 -27.247314453125
10.838134765625 -46.755126953125 23.23388671875
21.9091796875 -1.947509765625 24.69873046875
-19.20703125 -26.349365234375 68.097412109375
-13.9853515625 -9.055419921875 35.622314453125
20.076416015625 -45.95654296875 28.0966796875
20.234619140625 -24.2197265625 71.107177734375
24.306640625 13.719482421875 -57.47607421875
5.715576171875 -1.1474609375 -76.822998046875
18.702880859375 14.179443359375 22.235595703125
-29.3671875 -3.610595703125 43.013916015625
-9.911865234375 -19.99609375 20.46435546875
-6.645263671875 14.016845703125 18.99609375
18.38330078125 -40.324462890625 31.04248046875
13.473876953125 32.26171875 -57.995849609375
24.301025390625 21.862060546875 -58.3349609375
3.081787109375 -35.77880859375 59.4052734375
21.7236328125 -2.612060546875 27.644287109375
1.38037109375 -23.60009765625 68.359375
22.521240234375 -5.710693359375 -2.103759765625
14.9248046875 4.334228515625 -58.585693359375
-17.577392578125 -22.380859375 26.423828125
14.25244140625 7.45849609375 -60.07958984375
21.586181640625 -6.91259765625 29.855224609375
-20.61669921875 -26.361572265625 23.9736328125
-19.208984375 -23.62841796875 69.95361328125
12.248291015625 33.178955078125 -62.03662109375
15.279052734375 13.90966796875 26.2978515625
14.134765625 -49.998046875 21.36279296875
14.661865234375 18.78759765625 4.0595703125
-27.375244140625 -15.692138671875 33.014892578125
31.940185546875 -49.80029296875 -27.64111328125
22.16455078125 -16.06640625 59.671875
24.702880859375 16.598876953125 -75.422607421875
-11.250244140625 -26.40234375 46.513916015625
10.71826171875 10.4404296875 28.598876953125
-23.06298828125 -22.04541015625 27.7548828125
-10.44873046875 10.1708984375 35.12109375
20.39306640625 -37.010986328125 52.83984375
12.51318359375 -40.3955078125 31.0673828125
24.56298828125 21.512451171875 -47.88525390625
8.56005859375 32.25146484375 -57.67041015625
5.797607421875 26.955322265625 -33.861328125
29.3603515625 -51.597900390625 -25.383544921875
24.357177734375 15.345947265625 -67.844482421875
-2.94140625 -12.293701171875 39.222900390625
15.041259765625 21.5615234375 -6.78564453125
25.0205078125 18.491943359375 -72.4169921875
-9.661376953125 11.52880859375 28.437744140625
20.939453125 -9.816162109375 34.70654296875
22.395263671875 0.029052734375 4.5517578125
7.396240234375 33.171142578125 -62.703125
14.28955078125 31.802734375 -55.045654296875
-26.4560546875 -12.901611328125 35.097900390625
-16.013916015625 -7.511962890625 34.508544921875
10.759033203125 -43.14990234375 26.75634765625
5.7119140625 24.370849609375 -32.09326171875
15.8583984375 28.6748046875 -40.035888671875
12.95556640625 -12.028076171875 39.591796875
20.68212890625 5.120849609375 40.820068359375
17.483642578125 24.4013671875 -20.3056640625
2.36669921875 14.708740234375 19.11767578125
-16.24462890625 -16.895263671875 73.804443359375
11.60546875 31.336181640625 -49.84814453125
-14.772216796875 1.256591796875 41.5029296875
21.005126953125 -14.227294921875 63.541748046875
15.298828125 27.802490234375 -36.71728515625
9.541015625 6.030029296875 38.259765625
15.97265625 11.609619140625 -75.25
-3.2060546875 12.226318359375 28.64306640625
13.68017578125 20.25341796875 -11.5126953125
-19.375 -13.264892578125 33.347900390625
18.67529296875 -49.517578125 -32.0771484375
6.501220703125 20.7490234375 -46.580078125
20.746826171875 -30.633544921875 75.18798828125
-19.322509765625 -29.85986328125 65.770263671875
20.36669921875 -16.871826171875 52.754150390625
45.335205078125 26.33056640625 -62.3291015625
20.958740234375 -18.7646484375 68.9931640625
12.238037109375 23.104736328125 -24.76220703125
20.28759765625 -20.190185546875 74.52197265625
21.46240234375 -48.99951171875 26.897216796875
24.69091796875 19.06494140625 -64.06884765625
15.920166015625 30.44482421875 -46.72607421875
16.3935546875 31.342041015625 -49.98583984375
23.221923828125 26.91357421875 -36.095947265625
21.297607421875 -40.154296875 52.93603515625
-18.77685546875 -35.44189453125 61.857421875
12.231201171875 -33.1435546875 82.818115234375
-6.971923828125 12.943359375 23.736328125
23.6611328125 -8.790771484375 40.1875
23.135009765625 -10.386474609375 -10.34765625
-15.872314453125 -2.1875 32.893798828125
9.756103515625 -55.791015625 -34.255615234375
-17.421875 -11.36767578125 33.8671875
19.07177734375 27.367431640625 -32.9287109375
24.94775390625 13.005859375 -69.661865234375
13.03466796875 28.2275390625 -49.623779296875
20.30859375 -25.4814453125 73.949462890625
11.666259765625 -49.03369140625 21.382568359375
18.150634765625 -11.01025390625 39.751220703125
-18.739013671875 -32.23876953125 64.325439453125
19.4453125 30.892578125 -47.331787109375
12.487548828125 26.950927734375 -30.71337890625
-14.0244140625 -25.051025390625 19.563232421875
-15.67578125 -20.45458984375 27.061767578125
14.823974609375 9.301025390625 -76.01611328125
-6.32421875 -19.938232421875 28.492431640625
18.97216796875 7.13037109375 41.14404296875
-6.2958984375 -25.905029296875 67.635986328125
7.912109375 10.839111328125 27.104736328125
-2.0869140625 -33.2939453125 62.60791015625
21.096435546875 -2.531494140625 20.3779296875
8.273193359375 6.98388671875 42.60986328125
15.259765625 23.59228515625 -15.41748046875
-5.48046875 -26.580078125 15.23779296875
25.60595703125 -37.9306640625 54.220458984375
-18.163330078125 -16.57666015625 30.822998046875
8.32861328125 14.64892578125 19.60009765625
19.897216796875 -41.890625 84.30712890625
19.502685546875 -24.455322265625 49.54150390625
22.45751953125 -3.218505859375 -2.75244140625
17.60400390625 -13.700927734375 40.496337890625
20.50048828125 -27.900146484375 55.127685546875
-3.576171875 -12.6484375 73.635986328125
-2.104736328125 -28.942138671875 65.08154296875
3.012939453125 -20.528564453125 70.425537109375
-6.61376953125 9.128173828125 41.035400390625
13.334716796875 12.081298828125 -76.216796875
-32.147705078125 -2.36328125 43.854248046875
22.501708984375 12.50927734375 -72.70458984375
15.84619140625 16.146728515625 17.957275390625
2.791748046875 7.09716796875 42.978515625
-11.21875 -13.78662109375 35.663330078125
14.996337890625 22.767822265625 -12.737060546875
5.350830078125 -12.9052734375 40.18408203125
-2.998046875 -28.52783203125 17.268310546875
6.360107421875 15.43310546875 17.531005859375
23.6640625 -51.9658203125 -27.79296875
16.7177734375 12.8212890625 31.70703125
11.275634765625 16.145751953125 15.37060546875
13.11376953125 18.276123046875 -3.1787109375
14.38623046875 8.42431640625 -57.717041015625
-29.93359375 -5.203125 41.1357421875
13.673095703125 4.168701171875 -64.335205078125
-11.383544921875 -15.489013671875 27.612548828125
19.477294921875 -26.1669921875 47.691650390625
9.137939453125 -49.99560546875 18.72119140625
5.2685546875 23.426513671875 -42.8974609375
21.263916015625 -4.345947265625 32.92578125
20.720703125 -37.514892578125 44.21728515625
18.2333984375 -54.894775390625 -7.471435546875
21.439208984375 -43.101318359375 32.8974609375
23.6767578125 -28.29443359375 47.9169921875
19.889892578125 -10.377685546875 38.07421875
21.641357421875 -9.83935546875 27.79345703125
44.925537109375 23.575927734375 -60.042236328125
-8.11181640625 -11.728515625 39.26171875
-8.5048828125 -16.734619140625 33.745849609375
20.908203125 -22.263671875 58.2587890625
12.89599609375 21.552734375 -8.834228515625
-8.492431640625 -18.64404296875 28.906982421875
-15.236572265625 -33.080810546875 17.83544921875
24.3662109375 20.107421875 -53.383056640625
13.528564453125 22.720458984375 -18.9404296875
7.8515625 -1.5810546875 -75.027587890625
-20.43017578125 -20.7734375 68.5439453125
20.569091796875 -28.29296875 46.274169921875
-16.45361328125 7.86474609375 20.310546875
20.8525390625 -48.43603515625 38.30078125
16.723876953125 29.55517578125 -42.21728515625
23.09130859375 -3.84521484375 2.14453125
-0.156005859375 -16.5029296875 35.951416015625
-17.930419921875 3.888671875 38.702392578125
5.0478515625 6.42333984375 35.8740234375
-13.51171875 8.02783203125 38.94873046875
13.923828125 -43.622314453125 27.779541015625
21.24267578125 -6.490478515625 37.55078125
0.8203125 26.536376953125 -33.193359375
-15.444580078125 6.51318359375 15.853759765625
20.693603515625 -26.79736328125 63.412353515625
4.054931640625 -15.779052734375 37.367919921875
13.458984375 22.3173828125 -16.522705078125
-13.48583984375 -27.46435546875 66.975341796875
-10.715576171875 -14.861572265625 74.759033203125
20.538818359375 -32.303466796875 57.5673828125
-4.197265625 10.82373046875 34.18896484375
13.150634765625 8.080810546875 43.11865234375
1.612060546875 -13.94677734375 40.11572265625
-17.369140625 0.5146484375 40.603271484375
21.92578125 -0.630126953125 17.849365234375
-12.583984375 -21.6767578125 70.643310546875
-4.200927734375 9.469482421875 40.91796875
-16.81982421875 7.31591796875 27.294677734375
11.270263671875 -1.210205078125 -75.416015625
22.6748046875 -16.259521484375 57.196533203125
9.7744140625 -42.109619140625 24.715576171875
17.934814453125 33.634033203125 -60.10107421875
20.506103515625 -23.021728515625 76.589599609375
21.345458984375 -51.475341796875 26.396240234375
14.573974609375 -2.305419921875 -66.6884765625
-10.705078125 -33.9599609375 62.532470703125
4.13720703125 23.496337890625 -34.452880859375
22.0283203125 15.665283203125 -77.2578125
21.09912109375 3.836669921875 38.33447265625
20.49853515625 -38.8115234375 82.428466796875
24.0693359375 15.920166015625 -35.756103515625
24.446044921875 15.905517578125 -61.955078125
19.409912109375 -43.696533203125 -34.82763671875
10.426513671875 -14.716552734375 39.122314453125
21.408935546875 0.53857421875 35.3330078125
-3.626220703125 24.82373046875 -34.153076171875
23.968994140625 -10.150390625 -5.632568359375
20.451904296875 -25.493896484375 60.68701171875
19.597412109375 -47.345458984375 -19.37548828125
15.426025390625 -14.474853515625 39.525634765625
-16.799560546875 -6.228515625 36.36669921875
21.2080078125 -25.58935546875 55.440185546875
21.61279296875 -53.474365234375 -11.692626953125
21.21240234375 -47.548828125 35.857177734375
20.64453125 -36.851806640625 46.858642578125
15.339111328125 15.02294921875 22.120849609375
21.0859375 -29.73046875 73.01904296875
20.98193359375 -22.766845703125 51.994384765625
24.224609375 13.585205078125 -64.169189453125
-19.620849609375 -23.499755859375 26.005126953125
-2.7353515625 24.552734375 -79.581787109375
-10.3798828125 6.938720703125 42.4609375
-16.86328125 -15.17236328125 72.2021484375
2.02587890625 15.4521484375 16.078857421875
-12.104736328125 -12.852783203125 37.642822265625
18.625244140625 12.50146484375 -75.19580078125
24.688720703125 16.1796875 -72.751953125
13.1806640625 18.658203125 -5.506103515625
18.68359375 30.43603515625 -41.20458984375
-21.760498046875 -13.9423828125 33.489501953125
0.11376953125 -18.077880859375 71.80517578125
15.677978515625 -51.809814453125 -30.64111328125
-18.396240234375 -26.90185546875 23.41357421875
20.599609375 -20.788330078125 67.08251953125
10.239990234375 -57.370361328125 -32.58251953125
-29.224853515625 -10.170166015625 34.46923828125
16.031494140625 29.99853515625 -44.416748046875
13.544677734375 11.4287109375 37.359619140625
3.128173828125 12.9228515625 28.429443359375
15.576416015625 1.998291015625 -60.50439453125
13.75146484375 16.89404296875 13.23291015625
13.078857421875 -33.7802734375 80.626708984375
20.698974609375 -18.147216796875 56.662353515625
0.470947265625 -11.3369140625 37.719482421875
24.318115234375 -36.28271484375 58.292236328125
22.5751953125 -18.099609375 53.023193359375
9.03662109375 30.450439453125 -51.591796875
20.746337890625 10.6494140625 -74.24609375
20.28076171875 -20.372802734375 72.197998046875
-0.892578125 25.46826171875 -78.1982421875
-0.2314453125 -21.000732421875 67.437744140625
-15.64697265625 8.7998046875 25.5048828125
20.451904296875 -55.06640625 -26.070556640625
20.980224609375 -30.466552734375 52.665283203125
12.677978515625 28.67333984375 -47.37353515625
25.091552734375 -11.162841796875 -7.984375
15.996826171875 -54.13623046875 -9.414794921875
-22.723876953125 -10.6953125 35.64501953125
-15.56396484375 -12.337158203125 31.7724609375
-7.904541015625 -24.26904296875 68.576904296875
11.957275390625 10.39111328125 41.480224609375
24.296875 17.610107421875 -40.12255859375
-2.26416015625 30.03076171875 -73.0234375
21.653564453125 -8.747314453125 25.756591796875
25.76123046875 18.23974609375 -57.253173828125
16.140625 11.7783203125 37.115966796875
20.186279296875 -30.827880859375 84.44580078125
7.474853515625 -13.73583984375 40.54248046875
13.081787109375 11.7587890625 34.693115234375
22.537353515625 -4.591552734375 -5.060546875
22.399658203125 -0.455810546875 -7.0908203125
21.124755859375 -39.77392578125 33.961669921875
-15.884033203125 -9.92822265625 32.93896484375
-15.883544921875 -28.4873046875 66.574951171875
9.19287109375 13.931396484375 23.909423828125
-8.941162109375 9.490478515625 39.02734375
2.347412109375 4.82958984375 -78.326416015625
21.433349609375 -5.025146484375 35.330810546875
-15.44921875 -29.49267578125 47.959716796875
22.052978515625 2.648681640625 18.345703125
21.898193359375 -10.292236328125 40.587158203125
26.24658203125 15.941650390625 -58.857421875
-25.447998046875 -14.57470703125 33.546630859375
20.493408203125 -42.4365234375 45.81884765625
11.339599609375 34.091796875 -64.0244140625
4.34521484375 25.919189453125 -76.30908203125
25.5927734375 -40.522216796875 51.779052734375
-16.88232421875 6.468505859375 36.444091796875
30.10986328125 18.179931640625 -59.021484375
20.518798828125 -40.536376953125 48.93994140625
6.398193359375 3.760498046875 -80.76416015625
-14.974609375 -32.4638671875 64.07080078125
12.21240234375 15.007080078125 19.626220703125
-28.359619140625 -10.02294921875 37.33203125
8.85888671875 2.436767578125 -77.666015625
-3.695556640625 13.9931640625 19.570556640625
24.036865234375 15.949951171875 -59.597900390625
21.884033203125 -26.185302734375 53.33935546875
21.46728515625 -50.081787109375 -23.71728515625
21.7470703125 -0.545654296875 28.93798828125
3.047119140625 -32.445068359375 62.532470703125
-12.9248046875 -11.5927734375 32.679931640625
-17.70849609375 -20.298828125 28.033203125
20.77783203125 13.4189453125 -74.303466796875
-6.754638671875 -25.859619140625 13.543212890625
9.365234375 12.856689453125 29.12744140625
3.793701171875 -14.43994140625 39.716064453125
9.671875 -46.082275390625 21.426513671875
20.753173828125 -34.7099609375 44.796875
-4.572509765625 -28.870849609375 12.42822265625
-11.384521484375 -8.15234375 39.28076171875
-17.932861328125 -30.32421875 20.547119140625
20.689453125 -33.516357421875 53.05859375
20.23046875 -22.784423828125 60.951416015625
21.302001953125 -32.15380859375 47.239013671875
15.5263671875 27.375244140625 -32.24365234375
24.5263671875 20.24951171875 -41.292236328125
20.1181640625 -13.48486328125 39.086181640625
19.838623046875 -50.483642578125 23.714111328125
12.039306640625 26.527099609375 -28.419189453125
-5.997314453125 -12.99462890625 72.643798828125
19.336181640625 -51.419677734375 -29.110595703125
1.5400390625 6.177490234375 38.131591796875
13.281494140625 17.268798828125 11.07470703125
22.46923828125 -1.7353515625 2.301025390625
20.33154296875 -35.465576171875 56.623291015625
15.37939453125 8.04931640625 43.351806640625
28.812255859375 -49.98046875 -26.90380859375
20.46875 -37.407958984375 48.987060546875
20.1982421875 -52.05078125 -26.48046875
20.553955078125 -36.62548828125 41.222900390625
20.920166015625 -42.50146484375 38.17822265625
-8.97314453125 -13.4658203125 74.819091796875
-15.0849609375 7.0087890625 41.939697265625
16.43115234375 25.67138671875 -24.147705078125
-16.539306640625 4.346435546875 41.392578125
21.85498046875 1.0908203125 19.99853515625
-7.25048828125 -16.1669921875 73.73193359375
12.57958984375 20.356201171875 -3.87744140625
16.291259765625 -46.519775390625 -34.01220703125
-4.105712890625 -26.107666015625 66.525634765625
-4.65283203125 -19.270751953125 38.348876953125
-7.283447265625 -30.5810546875 64.6796875
8.692626953125 24.806640625 -29.5634765625
21.431884765625 2.309326171875 39.843505859375
-18.92822265625 -7.67724609375 36.809326171875
14.63134765625 33.639404296875 -62.484619140625
-1.024169921875 -20.7548828125 65.434326171875
14.00537109375 19.58251953125 1.3818359375
-10.358642578125 -28.040771484375 66.393310546875
-4.57568359375 -21.780029296875 25.92919921875
4.803955078125 2.33642578125 31.535400390625
9.76025390625 9.696044921875 43.167236328125
-9.59228515625 -16.432861328125 31.906494140625
-11.775146484375 -26.37548828125 67.710693359375
17.842529296875 -50.5625 -22.137939453125
-27.97021484375 -14.408935546875 34.640625
-15.0908203125 -0.68701171875 40.62890625
21.136962890625 -6.930419921875 21.71044921875
18.455322265625 13.878173828125 26.646240234375
4.89404296875 7.435791015625 42.683837890625
16.50927734375 -42.30126953125 30.269775390625
21.2724609375 4.324462890625 30.219970703125
21.885986328125 -3.9970703125 24.06494140625
-26.833984375 -6.123291015625 39.82958984375
21.94775390625 -6.392822265625 24.668701171875
-1.697265625 23.950927734375 -34.840576171875
11.027099609375 17.27294921875 10.055908203125
20.3017578125 -17.18115234375 64.446533203125
19.150634765625 14.755615234375 -77.863037109375
20.711669921875 -46.009521484375 45.55322265625
-17.060302734375 -28.25830078125 22.07763671875
21.466796875 -2.155029296875 37.228759765625
-12.266845703125 -16.78466796875 25.426513671875
13.658203125 12.8505859375 31.23388671875
-16.098876953125 9.133056640625 23.34814453125
21.62646484375 -33.55712890625 61.068603515625
13.495849609375 23.185302734375 -14.285400390625
16.0390625 18.800048828125 5.671630859375
11.871826171875 18.0166015625 5.953125
-18.11865234375 -35.259033203125 53.168212890625
-17.021728515625 -9.403076171875 34.643310546875
-15.70068359375 -19.98095703125 71.848388671875
-24.32275390625 -8.583984375 38.074951171875
11.80126953125 14.263916015625 22.283203125
-7.964111328125 -22.34765625 41.774169921875
-11.3828125 -19.4189453125 72.049072265625
21.505126953125 1.505859375 29.92041015625
22.4892578125 -8.80419921875 -4.9736328125
10.281982421875 0.64453125 -75.5498046875
-14.60595703125 -6.707275390625 35.848388671875
-10.42041015625 -24.122802734375 68.927001953125
-3.633544921875 -25.84033203125 20.33642578125
7.926025390625 -15.444091796875 38.613525390625
20.586669921875 -20.97119140625 59.880126953125
23.990966796875 -6.9697265625 -1.293212890625
20.2763671875 -29.374267578125 80.357421875
-6.895263671875 11.19287109375 31.96533203125
-14.46484375 -5.729736328125 39.726806640625
-11.7978515625 -31.89453125 64.036376953125
-15.78515625 -3.11669921875 37.585693359375
8.83154296875 16.523681640625 12.530517578125
9.311279296875 16.153076171875 14.672607421875
22.048583984375 2.402587890625 22.453857421875
12.2822265625 13.5341796875 25.71875
-11.668212890625 -14.527099609375 30.1279296875
-6.455078125 -17.658447265625 32.809814453125
22.868896484375 -8.50048828125 -6.998779296875
0.9853515625 -20.841064453125 70.073486328125
11.447509765625 6.80078125 38.92919921875
19.55419921875 -42.8876953125 81.896484375
16.184326171875 19.95849609375 -0.340087890625
22.65087890625 -2.981689453125 -6.70556640625
22.235107421875 -31.899658203125 62.707275390625
4.245849609375 32.24658203125 -58.291015625
23.9326171875 18.87060546875 -45.255615234375
-8.74462890625 10.499267578125 33.98828125
22.061767578125 -12.102294921875 23.865966796875
-29.801513671875 -7.88916015625 33.952392578125
-15.839111328125 3.903076171875 20.096923828125
22.002685546875 -1.6435546875 22.537353515625
7.27392578125 6.13623046875 40.063720703125
-13.51708984375 -10.5322265625 36.988037109375
-19.0283203125 -34.981201171875 59.015869140625
-29.31396484375 -1.01123046875 42.23681640625
24.071044921875 -22.479736328125 52.373046875
20.7099609375 7.806884765625 -76.853271484375
20.4140625 -35.34130859375 54.045654296875
20.511962890625 -40.2353515625 40.653076171875
-16.308349609375 4.938232421875 26.524169921875
25.218994140625 22.290283203125 -60.641845703125
15.32958984375 0.077392578125 -63.564208984375
21.197998046875 5.814453125 26.974365234375
-24.272705078125 -17.875732421875 31.035888671875
-5.88671875 -19.013427734375 30.6123046875
16.74365234375 8.798828125 -76.5341796875
10.69384765625 15.400390625 18.306640625
8.727783203125 28.23046875 -51.08203125
11.408935546875 -13.1005859375 40.392578125
-15.840576171875 6.59033203125 17.921630859375
-17.380615234375 -32.088623046875 51.430908203125
-9.23486328125 -31.636962890625 64.24658203125
-18.25927734375 -5.099365234375 35.104736328125
16.268310546875 32.253173828125 -54.84521484375
7.91455078125 5.095458984375 -81.546142578125
-18.038330078125 -34.50244140625 56.949951171875
21.847412109375 0.451171875 24.094970703125
-10.7265625 -24.919677734375 41.757568359375
-3.42138671875 -25.1884765625 23.545166015625
-6.8115234375 13.280029296875 21.379150390625
22.587890625 -3.161376953125 41.566650390625
0.126708984375 -15.365478515625 73.56884765625
-7.481201171875 11.877197265625 27.990478515625
0.54931640625 26.839599609375 -77.0390625
17.579345703125 -51.9169921875 20.688720703125
-9.168701171875 -19.793212890625 23.609619140625
1.398681640625 -25.569091796875 67.131103515625
21.88671875 -3.8984375 26.0869140625
23.04638671875 -1.38818359375 -8.76708984375
16.404052734375 -47.770263671875 24.3583984375
21.321533203125 0.31787109375 39.354248046875
24.0458984375 19.73779296875 -47.07568359375
-16.050048828125 5.890380859375 20.41552734375
-9.8720703125 -24.01513671875 43.858642578125
23.66552734375 16.5234375 -26.476318359375
21.43896484375 -50.937744140625 30.951416015625
-14.866943359375 -26.94580078125 20.14111328125
-20.528076171875 -12.00048828125 34.396240234375
-25.490234375 -7.00048828125 38.46826171875
20.521484375 -34.04296875 59.4345703125
-3.275634765625 12.5712890625 26.6689453125
22.5498046875 1.201171875 42.23291015625
-11.520263671875 5.392822265625 41.443359375
21.7314453125 -9.755615234375 22.270263671875
21.697509765625 -4.919921875 29.6943359375
19.898681640625 -10.224365234375 40.654541015625
-2.052734375 -18.369873046875 71.65380859375
12.943603515625 21.933837890625 -12.68701171875
21.2080078125 -47.926513671875 32.5732421875
-8.7080078125 -13.624755859375 39.458984375
21.179443359375 -11.634765625 31.09375
-8.1923828125 -21.5419921875 70.176025390625
-14.328125 -3.40869140625 40.193603515625
-15.758544921875 -4.76416015625 35.495361328125
21.4423828125 -4.3984375 39.86669921875
7.95458984375 -58.05126953125 -32.20703125
20.080810546875 -24.945068359375 79.99365234375
-6.956298828125 -24.789794921875 16.735595703125
8.453857421875 2.32177734375 33.14306640625
-5.76171875 -22.26171875 24.181640625
-1.987060546875 -18.830078125 35.203125
-18.463623046875 -20.9921875 71.37451171875
23.361328125 -38.864501953125 55.233642578125
16.775146484375 31.79638671875 -52.27685546875
15.934814453125 -49.113525390625 22.966796875
6.31982421875 3.16748046875 33.439697265625
17.436767578125 -11.876220703125 38.109619140625
-2.736083984375 28.669921875 -74.947509765625
18.4638671875 7.204833984375 43.1044921875
19.967041015625 -28.634765625 84.131103515625
21.73388671875 -40.63525390625 29.833251953125
-1.982666015625 -4.485595703125 25.54345703125
24.362060546875 14.822509765625 -71.34130859375
15.87158203125 -49.931640625 -33.350341796875
8.04443359375 -12.327392578125 38.4345703125
12.531005859375 -46.3359375 24.28515625
23.912841796875 18.9814453125 -37.12646484375
-29.088623046875 -6.434814453125 39.8369140625
-2.47705078125 15.12158203125 17.04443359375
11.1416015625 -51.8330078125 17.9638671875
7.587158203125 20.31982421875 -44.988525390625
-14.282470703125 -14.08447265625 73.53759765625
21.900634765625 -24.896484375 50.19482421875
-7.786376953125 -22.436767578125 20.837890625
-0.931396484375 -15.572265625 37.71875
-12.64208984375 -12.1484375 30.1796875
1.079345703125 6.711669921875 42.08349609375
24.341796875 14.46142578125 -66.084228515625
20.686279296875 -40.582763671875 44.91796875
20.7958984375 -31.442626953125 50.41162109375
-10.769775390625 -30.361572265625 65.106201171875
21.455810546875 -3.04052734375 35.289794921875
-20.189453125 -14.83740234375 32.496337890625
-13.41796875 -10.325439453125 34.097900390625
-20.600341796875 -9.173828125 36.574951171875
20.492919921875 -22.245849609375 63.03466796875
24.294189453125 18.54931640625 -68.619384765625
17.953125 -54.245849609375 -9.3056640625
21.0029296875 -21.074462890625 53.822021484375
14.744873046875 24.83203125 -21.57470703125
20.12646484375 -36.47265625 86.80224609375
-13.3525390625 -11.5810546875 38.79150390625
19.17138671875 29.11279296875 -37.09521484375
22.69873046875 -6.642333984375 -3.81689453125
-15.5478515625 -5.411376953125 37.92529296875
-18.685791015625 -33.851318359375 62.99169921875
-21.134765625 -22.58251953125 26.9111328125
14.572021484375 13.4619140625 -75.599365234375
13.723388671875 -13.564697265625 40.516357421875
9.742431640625 23.5205078125 -28.010986328125
20.667724609375 -35.246826171875 51.226318359375
-16.9140625 -17.4853515625 29.633544921875
-16.416748046875 -1.869384765625 39.200439453125
-18.173828125 -36.780517578125 56.507568359375
16.838623046875 28.675048828125 -38.31689453125
22.41552734375 -12.63134765625 22.02734375
21.83349609375 -8.313232421875 40.661376953125
20.839111328125 -10.7177734375 32.87109375
20.49072265625 -35.463134765625 48.947021484375
13.182861328125 13.173583984375 27.85693359375
21.337646484375 -29.086181640625 50.94775390625
4.45947265625 33.1611328125 -62.1572265625
13.734375 -51.854248046875 19.1650390625
20.74951171875 -42.44287109375 42.284423828125
21.201904296875 -33.27978515625 43.560546875
13.63134765625 -55.557373046875 -11.927734375
6.556640625 6.984619140625 41.702392578125
-24.944580078125 -11.775390625 35.5634765625
14.176025390625 29.55712890625 -44.777587890625
13.838134765625 1.431396484375 -64.6025390625
-27.64404296875 -2.93310546875 42.43310546875
-10.4599609375 10.5 33.08154296875
22.445556640625 -4.723388671875 -7.880126953125
1.75634765625 -16.97265625 72.64404296875
11.537109375 20.286865234375 -45.5205078125
20.16015625 -15.180419921875 65.80908203125
-20.828125 -18.79052734375 70.339599609375
-4.119873046875 -21.189697265625 28.73046875
20.63916015625 -44.4619140625 41.79833984375
-4.687744140625 6.05712890625 42.2890625
24.48486328125 20.034423828125 -59.469970703125
-14.90185546875 3.177490234375 41.685546875
20.689697265625 -47.79736328125 43.6767578125
21.1123046875 5.88916015625 29.096923828125
22.013671875 -45.456787109375 47.65380859375
-1.67529296875 9.826171875 41.31787109375
-7.240478515625 9.81494140625 37.911865234375
-27.640380859375 -7.6650390625 38.99658203125
3.844970703125 -30.471923828125 63.924072265625
-16.699462890625 4.630859375 28.5302734375
1.805419921875 24.373779296875 -33.96533203125
-1.470458984375 7.947265625 43.01806640625
5.439208984375 11.3115234375 28.558837890625
-5.366455078125 -30.69140625 64.552001953125
-34.037109375 -2.678466796875 44.029052734375
-19.29833984375 -27.912109375 66.982666015625
29.952880859375 15.02783203125 -57.087646484375
20.123291015625 -25.51513671875 64.723876953125
-18.5673828125 -5.7607421875 36.948974609375
-26.219970703125 -10.50634765625 36.82177734375
-7.17333984375 -27.8291015625 66.37255859375
-3.5810546875 -24.199951171875 25.87255859375
-8.6494140625 6.14599609375 42.63671875
19.17822265625 8.264892578125 -77.898193359375
-13.977783203125 5.06787109375 41.669921875
21.513427734375 2.06591796875 33.873291015625
6.19482421875 8.6015625 43.495849609375
-7.89599609375 -19.568603515625 27.33154296875
18.560546875 -46.41357421875 26.805419921875
-27.91357421875 -11.267822265625 35.946533203125
-16.545654296875 8.14501953125 28.98828125
-15.726806640625 9.3095703125 16.28271484375
13.788818359375 3.340576171875 -61.90966796875
20.380126953125 -26.072021484375 71.526123046875
-5.186767578125 10.141357421875 36.970703125
26.390625 -51.442138671875 -29.53515625
21.65380859375 -38.86376953125 54.3310546875
14.11376953125 12.49853515625 33.275390625
-3.82861328125 -3.2197265625 26.15234375
19.93798828125 25.226318359375 -24.78857421875
-3.110107421875 13.6328125 21.530517578125
16.845458984375 -49.804443359375 -31.65283203125
22.443115234375 -36.69775390625 57.0048828125
-14.8505859375 7.89306640625 34.0947265625
21.15478515625 -44.9296875 37.879150390625
11.056640625 -45.366455078125 24.981201171875
20.550537109375 -24.07958984375 59.33642578125
-22.05859375 -6.705810546875 38.76953125
21.239501953125 -6.406982421875 31.64794921875
15.63232421875 17.273681640625 12.66357421875
23.292724609375 10.18115234375 -73.10888671875
20.418212890625 -31.252685546875 80.197998046875
20.69140625 -40.69091796875 51.227783203125
24.57958984375 17.188232421875 -67.339111328125
20.25634765625 -19.426025390625 54.772705078125
23.676513671875 -12.020751953125 -8.896240234375
22.101318359375 -0.931884765625 20.353759765625
20.449951171875 -28.12939453125 77.845458984375
-5.302001953125 -16.314697265625 35.89794921875
20.94873046875 -18.96923828125 61.2294921875
19.77880859375 -41.591796875 31.152099609375
17.54833984375 26.51220703125 -29.0
-25.599853515625 1.2275390625 52.14306640625
14.68896484375 -44.986083984375 26.724853515625
12.45263671875 -42.662841796875 28.465087890625
-4.555419921875 12.926513671875 24.3671875
-14.947998046875 -30.952880859375 19.556884765625
10.15576171875 2.8291015625 -78.973388671875
-7.02587890625 -32.176513671875 63.71435546875
-1.5068359375 -30.54052734375 64.287841796875
17.672607421875 30.89453125 -48.68017578125
7.6201171875 24.369873046875 -31.08447265625
20.8056640625 26.509521484375 -27.668212890625
-5.5224609375 30.936279296875 -73.705078125
10.31787109375 30.0048828125 -50.288818359375
18.67724609375 -44.605712890625 28.656494140625
-2.951904296875 -17.716552734375 33.87353515625
1.575439453125 24.999755859375 -78.836669921875
-7.06982421875 -14.478515625 39.114013671875
20.15576171875 -32.490234375 78.808349609375
21.33984375 3.134521484375 20.013916015625
-11.885498046875 -13.4912109375 33.90380859375
-13.6123046875 -30.197998046875 65.294921875
-15.6162109375 -18.440673828125 72.94873046875
24.930908203125 18.8193359375 -48.449462890625
22.47412109375 -52.133544921875 -10.708984375
16.30078125 15.3740234375 20.087646484375
16.609375 -9.8994140625 17.00439453125
-2.93359375 -27.681640625 66.187255859375
8.743408203125 -42.696533203125 26.1748046875
19.013916015625 -44.85205078125 -33.411865234375
3.894287109375 25.453857421875 -78.27685546875
21.386962890625 -1.631591796875 39.9248046875
24.375732421875 17.67919921875 -65.28271484375
-9.56591796875 -14.508544921875 37.331298828125
19.49755859375 8.7802734375 -75.742431640625
22.1201171875 14.7666015625 -75.625732421875
22.373046875 -2.24072265625 0.27392578125
7.095703125 23.4208984375 -42.529052734375
24.466552734375 19.633544921875 -55.2158203125
-9.158935546875 -34.878662109375 61.654296875
-16.0166015625 5.963623046875 22.517822265625
1.939697265625 29.12060546875 -45.00830078125
14.614501953125 10.731201171875 41.13427734375
19.730712890625 -53.724853515625 -11.178955078125
15.908447265625 -50.481689453125 21.636474609375
7.13427734375 2.4453125 -78.3583984375
20.249267578125 -39.621337890625 84.994140625
13.621826171875 15.772705078125 18.3212890625
13.414306640625 12.03759765625 -78.159423828125
18.117919921875 -47.728515625 -32.0234375
22.765869140625 -0.120849609375 1.14990234375
-8.542724609375 -27.062744140625 12.6298828125
-28.025146484375 -5.26806640625 40.9619140625
20.34619140625 -33.09912109375 49.121337890625
33.401123046875 14.058837890625 -58.24951171875
-0.728515625 -19.574462890625 71.117431640625
-7.866943359375 -20.965087890625 24.49072265625
-0.816162109375 29.12353515625 -73.730224609375
-5.039306640625 -11.47021484375 38.86865234375
-18.6357421875 -17.504150390625 74.05224609375
24.767822265625 21.491455078125 -49.856201171875
9.089599609375 33.62158203125 -62.0302734375
-20.2841796875 -18.63037109375 72.667724609375
17.751708984375 26.51904296875 -26.947509765625
20.30615234375 -31.093505859375 62.11865234375
-21.603271484375 -20.89501953125 28.340087890625
7.73095703125 15.781982421875 15.5458984375
-5.392333984375 14.7724609375 17.8291015625
13.916259765625 24.42041015625 -19.5361328125
-5.933349609375 -23.1923828125 22.326904296875
18.2587890625 -48.672607421875 24.52099609375
-4.187744140625 -29.17919921875 65.42138671875
21.47314453125 -17.30224609375 58.119873046875
1.889404296875 27.75341796875 -75.7060546875
13.299072265625 15.034423828125 21.54638671875
31.781982421875 15.458251953125 -57.41943359375
16.9453125 13.86767578125 25.347412109375
13.501953125 23.549560546875 -22.00732421875
2.1494140625 9.0478515625 43.2060546875
20.980712890625 0.795166015625 41.09326171875
19.738525390625 -53.71533203125 -7.447998046875
-19.991455078125 -19.767578125 28.693359375
-10.626953125 -15.16845703125 32.739013671875
-14.59765625 -21.197021484375 70.949462890625
-14.299072265625 -24.69677734375 68.7060546875
21.90625 -10.0625 24.068115234375
2.072265625 -22.068603515625 69.256103515625
-0.207275390625 -22.39111328125 68.630126953125
-9.103515625 9.824951171875 37.236083984375
24.677001953125 18.6435546875 -61.4755859375
16.399658203125 13.895751953125 -75.967529296875
11.20654296875 11.30029296875 31.282958984375
-17.690185546875 -28.761474609375 66.60400390625
12.886474609375 19.882080078125 -8.062744140625
13.95263671875 13.896728515625 -77.26123046875
17.550537109375 32.7099609375 -56.062255859375
-15.048828125 -14.34765625 31.005615234375
20.53173828125 -46.33740234375 42.593994140625
4.21484375 26.9609375 -32.953857421875
9.4443359375 -45.476318359375 23.131591796875
8.00634765625 13.890625 21.455078125
6.52978515625 0.654296875 -77.31494140625
5.112548828125 29.119384765625 -48.546142578125
-3.5263671875 -17.5166015625 72.3955078125
21.858154296875 1.423828125 28.109619140625
19.143310546875 31.79833984375 -51.85546875
-3.584228515625 27.305419921875 -76.2177734375
20.427001953125 -27.509765625 59.5146484375
-26.38427734375 0.818603515625 42.555908203125
8.9658203125 21.203369140625 -43.881591796875
20.2275390625 -33.75830078125 81.016845703125
21.031982421875 -33.06884765625 45.695068359375
-11.41064453125 -10.4580078125 39.328369140625
-4.811279296875 -13.630859375 74.6767578125
24.48681640625 21.90625 -53.577880859375
-0.97216796875 28.21337890625 -75.290771484375
-2.6689453125 25.475341796875 -77.839111328125
-33.132568359375 -6.611083984375 41.250244140625
0.791259765625 -11.59912109375 39.931396484375
-25.193603515625 -5.398193359375 40.080078125
-17.90966796875 -22.53759765625 70.611328125
-3.872802734375 -33.580078125 62.540283203125
-16.9326171875 -32.337158203125 64.30029296875
-5.33251953125 28.67138671875 -75.891845703125
-15.018310546875 -15.4365234375 74.550048828125
2.197998046875 -31.1650390625 63.654541015625
28.181396484375 17.280029296875 -59.37158203125
-5.79736328125 -15.091796875 74.1943359375
20.365478515625 -30.780029296875 44.64599609375
16.39111328125 19.18212890625 3.7216796875
15.214111328125 27.369384765625 -34.96826171875
17.159423828125 26.94140625 -30.78076171875
-20.941650390625 -25.071533203125 25.19091796875
-10.47705078125 9.158203125 39.91162109375
-15.3916015625 -24.879150390625 20.939697265625
13.15380859375 21.952392578125 -10.729248046875
23.2236328125 -0.79345703125 42.000244140625
26.5869140625 -49.915283203125 -27.48779296875
20.768310546875 4.792236328125 42.635498046875
-10.621826171875 -24.98291015625 45.604736328125
20.443359375 -27.200927734375 67.319091796875
-20.42333984375 -7.19873046875 37.68017578125
-5.895263671875 -24.6181640625 19.437255859375
-10.86083984375 -13.5126953125 73.1337890625
24.04345703125 13.41748046875 -72.576904296875
-16.490234375 2.052734375 41.328857421875
25.0986328125 -52.81640625 -26.814697265625
-7.33056640625 -28.078369140625 10.780517578125
20.185302734375 -28.672607421875 71.784912109375
17.751220703125 25.661865234375 -25.376220703125
10.45361328125 15.03564453125 20.0419921875
-5.95068359375 -27.203369140625 12.327880859375
12.64208984375 25.251220703125 -24.605712890625
20.923583984375 -47.54931640625 -20.589599609375
23.3759765625 15.56494140625 -31.525634765625
24.13916015625 20.23046875 -43.13037109375
-2.9287109375 6.41357421875 42.441650390625
-16.771484375 6.53271484375 38.33251953125
24.607177734375 20.9033203125 -63.0810546875
22.3544921875 -3.98095703125 -1.1435546875
22.49072265625 0.525146484375 6.55419921875
-15.76318359375 10.1669921875 18.515625
-24.237060546875 -10.163330078125 37.257080078125
20.103759765625 -38.365478515625 86.282958984375
20.354736328125 -29.019287109375 76.237548828125
24.80859375 18.52197265625 -70.322509765625
-16.466796875 -21.469482421875 71.070556640625
22.766845703125 -23.992431640625 52.19189453125
-0.168212890625 24.381103515625 -34.043701171875
5.736572265625 26.52880859375 -32.1376953125
17.488525390625 30.444091796875 -45.896728515625
14.439453125 18.049072265625 9.40771484375
-4.291748046875 -15.4423828125 37.814697265625
15.52197265625 -43.187744140625 28.9443359375
-17.400634765625 -2.944580078125 32.416259765625
20.776123046875 -8.928466796875 36.230224609375
20.171875 -32.697265625 87.838134765625
11.882568359375 29.560302734375 -49.449951171875
17.126953125 -48.42724609375 -18.742431640625
2.936767578125 23.453369140625 -40.76220703125
-3.771728515625 9.790283203125 38.9716796875
-1.7919921875 -29.604736328125 14.758544921875
-12.359375 -27.409912109375 47.452392578125
24.266357421875 20.578857421875 -51.5595703125
17.191650390625 -43.6416015625 29.341796875
20.826171875 -29.330078125 56.56787109375
-16.186279296875 7.916259765625 22.0556640625
-22.579833984375 -17.977294921875 30.543701171875
20.62353515625 -31.897216796875 53.75537109375
-2.547607421875 -29.318115234375 13.005126953125
20.04443359375 -11.384521484375 34.6025390625
20.133056640625 -35.105712890625 82.27783203125
-14.225341796875 -12.85595703125 30.46142578125
-1.771728515625 11.156005859375 33.4111328125
21.5673828125 -8.55078125 29.22314453125
2.821044921875 -29.225830078125 64.658935546875
-6.062744140625 12.572509765625 25.1953125
30.833251953125 -50.876708984375 -26.009521484375
5.40087890625 13.625 25.86669921875
17.885009765625 29.99853515625 -44.0458984375
21.4501953125 4.134033203125 35.912109375
13.734375 11.079345703125 39.068359375
19.968994140625 -24.908203125 67.303466796875
-0.405029296875 -35.4912109375 60.349609375
15.12548828125 30.892578125 -48.79443359375
6.901611328125 12.064697265625 27.84619140625
11.974365234375 19.56884765625 -0.7626953125
0.048828125 -14.742919921875 38.997802734375
20.62109375 -19.383056640625 70.59619140625
-10.709228515625 -17.0546875 28.0107421875
12.325927734375 10.055908203125 43.573486328125
14.321044921875 -55.183349609375 -8.423828125
22.164306640625 -47.7421875 44.93408203125
-13.05859375 -16.66748046875 73.70556640625
2.053466796875 -27.9716796875 65.668212890625
-14.11669921875 -19.297607421875 72.11767578125
17.3935546875 -47.273193359375 25.708251953125
21.478515625 -0.86474609375 30.63330078125
-4.34130859375 -18.496337890625 33.159912109375
-19.9404296875 -24.81640625 68.497314453125
6.04541015625 6.103759765625 38.468994140625
30.28662109375 -49.255126953125 -27.53369140625
12.54443359375 17.654541015625 9.286865234375
-1.35888671875 13.23486328125 22.467041015625
-17.805419921875 -1.844482421875 30.9306640625
19.31640625 -53.160888671875 -29.07470703125
-12.424560546875 -26.455078125 17.839111328125
-17.350341796875 4.759765625 31.61669921875
-12.10205078125 8.11181640625 42.277587890625
19.041748046875 32.708251953125 -55.064208984375
20.572509765625 -24.249267578125 75.359619140625
16.626220703125 24.822265625 -22.10546875
-6.4990234375 -19.58740234375 38.313232421875
-16.605224609375 7.14794921875 33.95947265625
23.28662109375 16.4697265625 -29.817626953125
8.789794921875 26.52734375 -30.523681640625
-8.744873046875 -22.329345703125 16.55126953125
-16.7265625 -4.247314453125 30.005615234375
8.2216796875 8.561279296875 43.322021484375
20.07568359375 -29.687744140625 64.81005859375
14.3525390625 19.96875 -0.59033203125
21.126953125 8.3173828125 -74.86865234375
-9.306640625 -18.8291015625 25.92529296875
4.7451171875 -33.32666015625 62.134521484375
-31.056884765625 -3.94775390625 42.86376953125
21.900146484375 -54.35595703125 -26.6943359375
13.2421875 16.13818359375 16.0693359375
-2.044189453125 -14.6474609375 39.29345703125
20.4716796875 -26.70703125 81.24169921875
-2.21728515625 -13.7578125 74.24462890625
-4.59375 -13.71826171875 40.248291015625
-14.455322265625 4.10791015625 15.786865234375
21.4853515625 -0.543212890625 37.84521484375
3.65283203125 -12.4755859375 39.90283203125
3.6435546875 14.6689453125 17.959716796875
21.40087890625 -46.516357421875 30.9794921875
11.87939453125 16.51611328125 13.79931640625
14.047607421875 21.173095703125 -4.570556640625
20.764404296875 -41.501220703125 47.3623046875
23.396728515625 -34.577392578125 59.44482421875
21.9169921875 -1.62451171875 4.522216796875
18.53076171875 -42.754150390625 30.8544921875
20.820068359375 -44.071044921875 45.39990234375
-16.219482421875 5.662109375 24.96826171875
13.281005859375 26.09765625 -27.172119140625
8.35009765625 4.9150390625 39.2451171875
-13.8818359375 -8.098388671875 38.877685546875
20.49072265625 -42.940185546875 48.35986328125
14.428955078125 -40.896484375 31.109375
25.228271484375 17.99853515625 -74.513671875
-17.654296875 5.09228515625 40.33056640625
-14.78369140625 8.9404296875 30.524658203125
-7.295166015625 12.22412109375 26.321044921875
20.494384765625 -29.487060546875 63.078125
-19.6220703125 -17.7265625 30.23828125
24.490478515625 26.90771484375 -37.23388671875
13.308837890625 0.4677734375 -66.3564453125
24.4794921875 20.0546875 -57.766357421875
45.69921875 27.2509765625 -63.715576171875
13.205810546875 19.201416015625 3.27880859375
1.320068359375 -33.122802734375 62.3681640625
20.6181640625 -38.60986328125 41.14892578125
0.138427734375 14.698974609375 17.440673828125
4.00341796875 4.7392578125 -80.29443359375
-16.458740234375 -3.25439453125 34.468505859375
-19.63818359375 -28.878662109375 64.320556640625
-13.229736328125 -26.847412109375 44.7275390625
2.916015625 -34.048828125 61.48046875
20.414306640625 -47.3125 26.970703125
-12.17431640625 -34.672119140625 62.060302734375
-10.975341796875 -17.14599609375 73.30810546875
23.919921875 11.576171875 -72.371826171875
16.61962890625 -45.899169921875 26.769287109375
-2.14453125 -34.532470703125 61.448486328125
-14.455810546875 -9.3037109375 37.687744140625
21.875732421875 2.950927734375 26.066650390625
-13.44140625 -31.768798828125 64.43896484375
21.76806640625 1.320556640625 25.548583984375
-31.643310546875 -5.12255859375 41.703857421875
-6.00634765625 -35.923095703125 60.4609375
19.1220703125 11.132080078125 -74.23388671875
21.025146484375 -48.533447265625 34.142578125
20.982177734375 -51.958984375 22.14794921875
-5.062744140625 7.6201171875 42.81494140625
-22.14794921875 -12.3056640625 34.7724609375
-4.74951171875 -19.9150390625 29.64404296875
6.74853515625 -0.21435546875 -75.865234375
14.562255859375 33.167724609375 -58.91455078125
20.328369140625 -31.515869140625 77.44091796875
-34.415771484375 -3.86962890625 42.549560546875
-8.014892578125 -24.161376953125 14.0
-8.684326171875 -21.160400390625 21.469970703125
2.80078125 -24.838134765625 67.709228515625
13.94873046875 5.699462890625 -58.716796875
10.749755859375 -49.95703125 19.910400390625
21.647705078125 -1.46044921875 26.39990234375
20.177490234375 -20.630615234375 64.024169921875
21.3369140625 -6.000732421875 39.369140625
-18.986328125 -31.6416015625 62.77392578125
-28.482421875 -8.10498046875 37.515869140625
-14.37841796875 -7.58251953125 34.1376953125
-14.781982421875 5.644775390625 14.0966796875
10.260009765625 13.546630859375 25.14599609375
-17.65869140625 4.44970703125 33.474365234375
13.687744140625 10.61572265625 -79.528564453125
20.3759765625 -27.15625 76.198974609375
9.517822265625 -47.977783203125 18.8681640625
-2.77685546875 10.4697265625 36.205322265625
-16.705078125 -35.16162109375 62.096435546875
-9.8828125 -15.471923828125 34.3916015625
-19.977783203125 -22.14990234375 69.782470703125
-13.440185546875 -14.751953125 74.82080078125
-23.79638671875 -14.616943359375 33.809814453125
22.2900390625 -43.7373046875 49.1748046875
-18.226318359375 -31.8681640625 49.363037109375
21.833984375 -51.725830078125 -26.603515625
21.3603515625 -51.097412109375 -25.110107421875
20.27587890625 -36.920654296875 82.6845703125
25.010009765625 19.960205078125 -65.442626953125
21.845703125 -7.484619140625 26.833251953125
22.8876953125 -29.564453125 46.423828125
