-8.95263671875 -18.433349609375 29.170166015625
10.33349609375 -0.34375 -77.602783203125
19.44482421875 -0.814697265625 37.0673828125
-4.698974609375 -27.555908203125 22.583740234375
16.09228515625 5.8056640625 -55.33154296875
13.75439453125 -11.83642578125 -70.055419921875
11.10791015625 4.15380859375 -58.692138671875
0.65576171875 -30.51025390625 17.382568359375
10.045166015625 -32.73876953125 -45.00244140625
1.69091796875 29.97119140625 -55.451416015625
-3.337158203125 -29.4921875 18.308837890625
13.154296875 -59.39306640625 -9.2177734375
13.268798828125 8.828369140625 37.9453125
25.31787109375 -11.370361328125 -46.1083984375
-4.23388671875 8.7861328125 33.50537109375
2.74658203125 -29.433837890625 21.382568359375
34.44189453125 8.552490234375 -62.46630859375
-16.031982421875 -22.9208984375 69.7099609375
8.474365234375 26.616943359375 -39.1904296875
14.173095703125 -20.968017578125 33.544189453125
16.996337890625 -54.08740234375 -25.159423828125
-6.13525390625 -21.55029296875 22.51953125
5.613037109375 19.078369140625 -43.088134765625
-9.095947265625 -18.91845703125 71.1513671875
9.017822265625 -26.4072265625 -47.1787109375
4.209228515625 -33.22265625 -47.10009765625
9.1591796875 -59.5498046875 11.878173828125
24.431396484375 -8.03857421875 -51.606689453125
16.522216796875 31.217041015625 -58.71435546875
23.005615234375 7.92724609375 -56.762451171875
-21.746337890625 -36.615234375 52.642822265625
-9.892578125 -16.5146484375 67.51220703125
1.942626953125 4.7626953125 40.977294921875
4.399169921875 -24.898193359375 40.2197265625
14.598388671875 -12.82568359375 36.231201171875
24.716064453125 -16.03076171875 -52.25146484375
7.25146484375 13.07470703125 20.0830078125
-5.739013671875 -15.612060546875 65.7978515625
-7.4453125 -21.937255859375 36.085693359375
19.75048828125 -11.883544921875 25.51416015625
8.331298828125 31.690185546875 -59.11962890625
20.4609375 -58.77392578125 19.009521484375
22.126220703125 -52.926513671875 -8.85791015625
-3.70263671875 -31.467529296875 12.14404296875
34.546142578125 -2.76806640625 -69.181640625
8.69140625 1.9794921875 -80.0439453125
-13.880615234375 -14.445068359375 30.7734375
-2.345458984375 28.23291015625 -49.192138671875
-0.45263671875 -33.4111328125 61.587890625
15.7705078125 20.374267578125 -11.774658203125
4.778564453125 26.875244140625 -38.703125
7.953369140625 25.255126953125 -30.55029296875
-6.190185546875 11.3701171875 21.42626953125
-18.91455078125 -33.668701171875 56.5615234375
19.437255859375 -14.591064453125 27.709716796875
5.195556640625 25.2470703125 -34.918212890625
20.8203125 -50.125244140625 39.421142578125
19.594970703125 -2.27685546875 29.536865234375
16.871337890625 -0.95263671875 -65.154296875
7.82763671875 29.67919921875 -53.1611328125
15.47900390625 23.98583984375 -28.073486328125
30.341064453125 2.281005859375 -49.099609375
22.52880859375 -21.546875 -63.41455078125
20.31005859375 -55.5576171875 25.618896484375
9.18994140625 -21.309326171875 36.685546875
-16.468017578125 9.949462890625 17.936279296875
5.57421875 -21.6796875 37.091064453125
-18.611328125 4.849365234375 38.804931640625
-6.46435546875 28.0615234375 -71.5126953125
20.863525390625 -18.90771484375 -57.23974609375
-19.17724609375 -34.643798828125 52.070068359375
-7.94873046875 -26.799072265625 42.749267578125
20.95703125 2.322998046875 -80.9208984375
33.6328125 -3.53564453125 -74.288330078125
11.56005859375 18.85888671875 -5.286376953125
10.78955078125 10.222412109375 -80.968017578125
23.132568359375 -56.915771484375 36.233154296875
-5.78466796875 -32.1572265625 62.8271484375
-1.433837890625 -24.28857421875 39.5439453125
19.7900390625 -62.2216796875 13.221923828125
3.3759765625 21.995361328125 -31.91455078125
-18.83154296875 7.131591796875 15.605224609375
18.268310546875 7.930419921875 -62.773681640625
-9.449951171875 6.96533203125 40.823486328125
6.19580078125 2.319580078125 -78.1162109375
-23.91943359375 2.03515625 37.14208984375
8.874267578125 20.068603515625 -27.61083984375
19.943603515625 -6.657958984375 22.84814453125
4.11767578125 -2.52197265625 -76.223876953125
-4.45751953125 25.95556640625 -75.352294921875
-10.15673828125 10.0341796875 26.8359375
6.641845703125 -36.15087890625 -42.134765625
-4.675537109375 -29.29833984375 64.515869140625
-0.794189453125 -22.606201171875 36.986328125
6.255126953125 -20.491943359375 -55.478271484375
24.980712890625 -49.2490234375 -12.201416015625
-17.230224609375 0.611083984375 12.713623046875
-15.6376953125 -15.787841796875 27.80322265625
-15.62890625 -11.939453125 33.575927734375
-6.518798828125 -13.72216796875 37.6259765625
14.103271484375 0.8623046875 -82.83447265625
-20.656494140625 -26.052001953125 68.0146484375
13.666015625 7.78662109375 -78.640380859375
11.69091796875 -4.480712890625 -68.47509765625
1.326904296875 -14.954833984375 -60.93017578125
23.317626953125 -28.798828125 -63.96142578125
2.69775390625 28.743408203125 -50.779052734375
20.97802734375 -6.4267578125 40.77783203125
-0.2783203125 10.15771484375 28.880859375
5.20556640625 32.185302734375 -63.317626953125
6.767822265625 -32.207275390625 -43.65576171875
11.376953125 15.718994140625 6.847412109375
24.782958984375 -21.069580078125 -60.939453125
10.6103515625 -62.132080078125 10.76806640625
-14.429931640625 4.702392578125 41.77490234375
4.917236328125 8.784912109375 27.153564453125
18.900146484375 -24.708251953125 -65.738037109375
10.4814453125 -35.640869140625 -45.689697265625
21.225830078125 -60.770751953125 26.432861328125
9.78955078125 -18.195068359375 35.43310546875
-6.373291015625 -14.701904296875 69.9052734375
-2.024658203125 -26.38037109375 42.0263671875
-14.2763671875 -28.52783203125 42.162109375
3.923828125 -33.1220703125 16.6748046875
27.2392578125 -7.05517578125 -47.679931640625
7.749755859375 30.0263671875 -56.09326171875
25.559814453125 7.618896484375 -51.02392578125
21.3427734375 -59.07763671875 34.4677734375
29.20947265625 2.119873046875 -66.67578125
-15.037109375 7.35888671875 39.492919921875
-20.473876953125 -16.280517578125 72.48828125
-24.10595703125 -8.405517578125 35.854248046875
16.253173828125 17.893310546875 -0.933349609375
26.03759765625 -3.074951171875 -70.49267578125
5.455810546875 21.755126953125 -33.933349609375
7.25146484375 8.445068359375 36.814453125
-18.083740234375 -3.176025390625 15.656494140625
-20.6640625 -28.610107421875 66.2607421875
-6.523681640625 -24.46142578125 39.905517578125
30.50634765625 7.021240234375 -46.931396484375
18.5068359375 -22.546142578125 -68.27197265625
11.943603515625 26.741455078125 -41.541259765625
-21.456787109375 -22.1396484375 70.68701171875
11.389892578125 17.501220703125 0.925048828125
19.580322265625 -8.690673828125 32.569091796875
22.200439453125 -9.540283203125 -72.718505859375
14.3916015625 21.918701171875 -17.61669921875
16.67529296875 -6.52978515625 -77.03564453125
8.02197265625 26.74951171875 -47.5
12.46435546875 30.291015625 -53.311767578125
-17.26953125 7.014404296875 32.256591796875
21.88525390625 11.66796875 -57.436767578125
-5.5888671875 -28.250244140625 15.850341796875
5.820068359375 -3.42919921875 -73.82861328125
11.9775390625 -14.326904296875 39.1376953125
21.179443359375 -54.92138671875 38.99365234375
16.289306640625 29.382080078125 -47.15087890625
16.1845703125 11.017578125 -76.355712890625
12.64794921875 21.276611328125 -15.46044921875
19.465576171875 0.64111328125 34.625
14.875 -4.69091796875 -73.666259765625
19.783203125 -14.97265625 -51.096435546875
-6.622802734375 23.866943359375 -34.555908203125
-20.1201171875 -24.175048828125 28.62744140625
12.932373046875 -49.220458984375 -7.304931640625
-15.80517578125 9.744384765625 21.633056640625
5.42578125 28.99462890625 -51.44970703125
-9.0615234375 11.21826171875 21.715576171875
-25.241943359375 -17.656005859375 30.693359375
1.423095703125 8.216064453125 37.97802734375
24.89990234375 -14.529296875 -45.676025390625
8.482177734375 23.15673828125 -27.716796875
3.849609375 -0.2978515625 -78.165771484375
9.68359375 -14.99267578125 -52.183837890625
23.145263671875 -3.143310546875 -55.826904296875
13.5703125 25.57958984375 -34.92333984375
10.646484375 17.79931640625 -10.3125
-18.81298828125 4.048583984375 28.3984375
-20.936279296875 -36.7294921875 58.26171875
16.668212890625 2.15771484375 -60.861083984375
11.804931640625 -9.738525390625 -69.66455078125
-4.85693359375 12.545654296875 15.969482421875
14.7275390625 23.360595703125 -23.59765625
-19.0087890625 -68.5009765625 69.65673828125
24.289794921875 -7.32177734375 -72.27001953125
-18.560791015625 6.891845703125 23.6953125
-6.76904296875 -22.2822265625 26.467041015625
-6.025390625 -36.478759765625 60.145263671875
22.447265625 2.606689453125 -60.824462890625
-11.9892578125 -16.8798828125 32.84619140625
13.57177734375 29.06640625 -48.05810546875
-27.02880859375 -16.066650390625 32.33203125
-22.001953125 -36.96240234375 49.9169921875
-4.300537109375 -23.644287109375 27.940185546875
17.890380859375 -12.51611328125 34.407470703125
10.54638671875 -60.738037109375 -11.627197265625
26.590087890625 -24.588134765625 -61.119384765625
-19.534912109375 3.332275390625 33.677734375
-10.492431640625 -25.0390625 67.5244140625
-8.528076171875 8.31201171875 32.992919921875
26.419921875 6.961181640625 -60.513916015625
-1.331787109375 10.482421875 26.3681640625
21.7001953125 9.248779296875 -67.326904296875
11.6728515625 -37.935546875 -44.32568359375
-12.317138671875 -25.395751953125 39.907470703125
2.1103515625 31.134765625 -59.840576171875
28.010498046875 -3.382568359375 -72.34912109375
-12.748291015625 -29.34326171875 65.397705078125
13.8427734375 -14.035888671875 -52.3525390625
32.67724609375 1.106201171875 -49.865478515625
24.897705078125 0.179443359375 -52.681640625
11.179931640625 -29.080810546875 -44.100341796875
4.52685546875 -30.36328125 -45.8876953125
3.596923828125 -26.168212890625 -50.56689453125
19.79541015625 -8.710205078125 27.999267578125
6.126953125 -6.867919921875 -69.6162109375
18.706787109375 -52.11279296875 -25.801025390625
24.767822265625 4.158447265625 -48.62109375
-15.270751953125 7.169677734375 36.689208984375
6.779541015625 12.02685546875 22.519775390625
19.61962890625 -5.830078125 31.939453125
-9.762939453125 22.921142578125 -40.694091796875
19.7119140625 -4.18212890625 26.900390625
11.157470703125 1.455322265625 -64.32568359375
29.509033203125 3.84130859375 -61.596435546875
-12.1982421875 1.94189453125 39.6884765625
19.535888671875 -9.034423828125 19.48046875
20.916259765625 -54.501220703125 33.11669921875
19.84033203125 -11.15673828125 -71.9736328125
-0.7353515625 12.388671875 18.706787109375
-19.015869140625 -21.19775390625 71.362060546875
-17.432373046875 -34.1796875 54.2392578125
3.860595703125 30.6845703125 -56.87548828125
-13.914794921875 -36.607177734375 60.227783203125
-1.50732421875 23.310791015625 -78.971923828125
14.20458984375 9.30712890625 -76.09814453125
-0.291748046875 27.757080078125 -46.736083984375
19.536865234375 -44.996337890625 41.466552734375
-27.234619140625 -12.13037109375 35.22705078125
4.341552734375 11.915283203125 24.113525390625
35.321533203125 -6.31494140625 -77.41748046875
19.26953125 -1.8212890625 39.668701171875
19.138916015625 3.77685546875 42.8505859375
17.076904296875 -63.272705078125 12.40625
-12.70849609375 -31.667724609375 47.591064453125
16.68896484375 4.334228515625 41.945068359375
10.2607421875 7.96875 27.82958984375
8.3876953125 -10.093994140625 -66.551025390625
-11.82080078125 -17.188232421875 26.304443359375
18.872802734375 -56.19140625 -12.6376953125
6.943359375 4.749267578125 41.35693359375
14.113037109375 30.965087890625 -57.019287109375
-22.835205078125 -23.257080078125 66.507080078125
20.060302734375 -13.947265625 21.988525390625
24.295166015625 -5.712646484375 -69.843017578125
22.81396484375 -55.26025390625 -5.60546875
-17.12109375 -14.6162109375 29.647705078125
19.413330078125 -1.937744140625 33.435546875
21.356201171875 -59.343505859375 30.08447265625
16.522705078125 -12.900634765625 -73.902587890625
22.0791015625 -24.84423828125 -63.7255859375
-0.351806640625 -14.36669921875 37.837646484375
-4.4384765625 -25.49609375 26.1591796875
25.766357421875 -16.177734375 -47.586181640625
-1.666015625 -19.993896484375 33.70263671875
32.177490234375 -0.239501953125 -69.889404296875
15.88525390625 7.23681640625 41.654541015625
19.762939453125 6.333984375 -79.095947265625
-11.290283203125 -16.237548828125 35.774658203125
3.253173828125 -19.843505859375 -56.778076171875
28.919677734375 5.8623046875 -59.990234375
4.295654296875 18.138427734375 -45.847900390625
-7.370361328125 -24.485595703125 17.46826171875
14.148193359375 2.443603515625 -59.78076171875
-21.611572265625 -14.217529296875 32.634765625
-19.832763671875 -15.38916015625 31.05029296875
26.190673828125 -24.403076171875 -64.470947265625
4.93310546875 25.338623046875 -43.416015625
-31.669921875 -8.892333984375 38.9560546875
-21.743896484375 -9.834228515625 36.05029296875
-20.821044921875 -32.005126953125 64.072998046875
11.37548828125 14.1162109375 15.254150390625
20.89990234375 -52.4052734375 35.63134765625
23.42138671875 -19.161865234375 -52.19677734375
-7.126708984375 -34.564453125 61.3896484375
14.1103515625 -55.8017578125 -14.498291015625
2.8095703125 29.5390625 -53.181640625
9.32275390625 12.58154296875 21.45556640625
-18.05908203125 -20.5322265625 26.820068359375
-19.028076171875 -1.764892578125 21.4541015625
20.931640625 -57.592041015625 24.260009765625
19.275146484375 -7.517578125 35.978515625
8.034423828125 14.304443359375 14.056396484375
8.4306640625 14.927001953125 11.005615234375
19.710205078125 -6.84765625 -53.740478515625
-0.9453125 30.09765625 -56.40771484375
-14.519287109375 -12.496337890625 37.219482421875
15.207763671875 -9.49755859375 -74.343505859375
15.635986328125 -5.4228515625 -52.113525390625
-3.00341796875 22.177734375 -37.31689453125
-21.80078125 2.378173828125 38.904541015625
8.01953125 7.8935546875 41.389892578125
-11.75830078125 -19.056884765625 28.09619140625
0.07568359375 22.048828125 -35.566162109375
0.527587890625 -19.97265625 32.39453125
-13.193115234375 8.845947265625 29.22705078125
10.305908203125 20.51318359375 -16.715087890625
28.89892578125 9.259765625 -50.021240234375
24.260498046875 -3.82373046875 -51.239990234375
4.24365234375 -17.364990234375 -58.808349609375
-9.514404296875 29.9345703125 -75.034912109375
10.526611328125 -11.08203125 -53.922607421875
-23.142822265625 -12.7080078125 33.928466796875
4.7666015625 -13.186767578125 -63.26220703125
20.97802734375 -53.334716796875 -25.7841796875
25.159912109375 -12.00732421875 -42.956298828125
28.478271484375 0.54248046875 -49.765869140625
16.453857421875 -12.448486328125 37.832275390625
-9.351318359375 -13.130615234375 66.94580078125
-6.166259765625 -25.874755859375 21.167236328125
30.373779296875 -4.11083984375 -47.850830078125
20.24072265625 -2.69970703125 -65.85498046875
-9.51123046875 -33.72802734375 62.3115234375
15.87548828125 7.19921875 -77.710693359375
23.08447265625 -19.809326171875 -59.429931640625
-20.4443359375 -7.4921875 32.63525390625
3.599853515625 -37.7783203125 -43.428955078125
14.315185546875 -4.657958984375 -80.14111328125
22.48291015625 5.132568359375 -57.705322265625
10.99072265625 15.467529296875 9.26513671875
-22.92041015625 -21.157470703125 67.7861328125
-15.1435546875 -29.848876953125 65.193603515625
23.876220703125 -11.183837890625 -73.459716796875
9.888427734375 -12.019287109375 -65.545654296875
20.10400390625 1.871826171875 -60.827392578125
-13.96337890625 10.104248046875 23.21630859375
26.34619140625 -9.197998046875 -46.60791015625
-3.00927734375 9.346435546875 31.455078125
20.1494140625 -47.554443359375 38.951171875
34.7685546875 -1.00927734375 -70.97119140625
3.209716796875 -19.72412109375 33.649658203125
-2.940185546875 -12.115966796875 37.178466796875
24.69482421875 -50.860107421875 -7.752685546875
17.440185546875 8.13330078125 -75.817626953125
-14.257080078125 -34.755615234375 61.8095703125
16.892822265625 -49.06494140625 -22.018798828125
20.81884765625 -4.399169921875 -69.056884765625
-17.547607421875 7.942138671875 28.20947265625
19.888671875 9.9609375 -73.51171875
-21.866943359375 -17.79931640625 71.205322265625
6.133056640625 30.968994140625 -57.67919921875
2.94482421875 -10.473388671875 -66.135498046875
-14.382568359375 -19.37353515625 71.88232421875
20.19921875 30.908203125 -61.345947265625
-4.9296875 11.0107421875 23.72021484375
-11.9052734375 -31.22998046875 63.855712890625
-20.931396484375 -37.634765625 54.66845703125
-14.78076171875 -34.144287109375 51.16357421875
15.791748046875 -16.650146484375 -53.51416015625
33.408447265625 9.226318359375 -60.3447265625
-13.45458984375 -26.239013671875 41.850830078125
22.026611328125 7.356201171875 -74.945068359375
24.96044921875 -12.882568359375 -47.94140625
8.674072265625 -3.62109375 -73.02001953125
19.21923828125 0.716552734375 -65.124267578125
17.79736328125 5.106689453125 -56.86279296875
-7.93212890625 -21.174560546875 24.056884765625
12.213134765625 13.068603515625 26.28955078125
20.952392578125 -52.38525390625 38.648193359375
29.92919921875 8.965087890625 -53.60107421875
2.5107421875 25.605712890625 -40.899169921875
27.622314453125 5.86865234375 -47.009521484375
17.638671875 -8.814208984375 -51.84765625
8.826416015625 -28.37353515625 -48.521484375
-8.228271484375 29.148681640625 -69.693115234375
20.8798828125 -61.414306640625 16.551513671875
-1.7392578125 -27.073486328125 26.102294921875
21.7265625 -17.05517578125 -51.434326171875
-15.689697265625 -66.38720703125 71.160400390625
19.666748046875 9.75341796875 -61.476806640625
-6.045654296875 10.1875 28.197998046875
8.999267578125 11.92431640625 23.71435546875
-29.759765625 -11.790771484375 35.863525390625
-7.47607421875 -10.785400390625 37.568115234375
-23.442138671875 -21.44384765625 27.70068359375
19.195068359375 -22.72265625 -64.4833984375
23.064453125 -11.94775390625 -49.97119140625
11.5810546875 16.38525390625 3.984130859375
24.632568359375 7.0810546875 -76.103515625
10.1630859375 -3.3076171875 -67.10888671875
31.182861328125 9.765869140625 -62.031494140625
19.783935546875 -10.962158203125 39.636962890625
-16.622314453125 -9.751708984375 34.2021484375
18.732666015625 3.454345703125 -59.709228515625
12.63427734375 4.147705078125 -56.8994140625
29.055419921875 -5.01025390625 -73.806396484375
-18.190185546875 -0.273681640625 25.601806640625
13.628662109375 11.81103515625 27.766357421875
23.296875 -14.2060546875 -75.994873046875
10.10693359375 19.453857421875 -12.343017578125
18.09716796875 -12.856201171875 39.656494140625
-7.59228515625 -15.94775390625 64.40234375
14.00927734375 21.301513671875 -13.01025390625
-18.127685546875 6.081787109375 29.50732421875
10.4931640625 28.764404296875 -49.224365234375
14.38134765625 -61.675048828125 11.62646484375
14.334716796875 -6.855224609375 -77.84228515625
8.431396484375 -29.958740234375 -46.537841796875
33.501220703125 -5.67333984375 -71.047119140625
-10.717041015625 -18.07421875 30.663818359375
12.13330078125 32.65625 -64.28076171875
-3.606201171875 -30.027099609375 10.072265625
13.683837890625 28.269775390625 -45.25390625
-19.434326171875 -8.964111328125 35.131103515625
4.5751953125 -22.483642578125 -54.050048828125
15.628173828125 19.632080078125 -9.56982421875
29.31591796875 3.088134765625 -59.074462890625
16.648681640625 8.064453125 -55.219970703125
-8.587646484375 -15.275390625 69.494140625
14.357666015625 -2.11669921875 -64.92822265625
6.07373046875 -41.44970703125 -44.60791015625
-13.4736328125 11.109619140625 20.7119140625
20.26513671875 -0.52197265625 41.59521484375
19.81298828125 32.22216796875 -63.85693359375
10.03515625 29.6015625 -51.59326171875
18.434814453125 3.214599609375 40.022216796875
4.4482421875 -8.523193359375 -68.94287109375
7.28662109375 32.096435546875 -62.3095703125
14.115966796875 -9.6806640625 -72.04833984375
-8.521484375 9.616455078125 28.637451171875
10.994140625 23.571044921875 -24.514892578125
14.5380859375 30.20166015625 -52.303466796875
-12.459716796875 10.114990234375 25.2001953125
11.633544921875 11.781005859375 -77.220703125
6.98046875 27.02587890625 -42.365966796875
-18.619384765625 -25.781494140625 23.5048828125
-18.287109375 -35.41748046875 61.7080078125
-0.75439453125 -29.828125 64.250732421875
9.447265625 21.88623046875 -25.4326171875
10.7353515625 2.0849609375 -82.931640625
-4.484619140625 11.955810546875 20.013916015625
10.342529296875 -13.356201171875 -53.7685546875
-14.278076171875 -16.525146484375 26.120849609375
-7.392822265625 -30.99609375 64.038330078125
2.2470703125 -13.83935546875 -62.946533203125
-25.35205078125 -13.25048828125 34.1220703125
10.62158203125 9.029541015625 -77.549072265625
-5.202392578125 -23.8037109375 66.856201171875
-7.249755859375 26.593994140625 -75.30078125
3.82861328125 25.256591796875 -36.768798828125
-2.921142578125 26.74560546875 -43.186767578125
16.01416015625 -0.0625 -73.42724609375
20.4951171875 -55.469482421875 29.199951171875
5.063720703125 -16.00244140625 39.582763671875
-9.2705078125 -23.086181640625 20.477783203125
28.311279296875 11.5244140625 -51.437744140625
7.99951171875 0.802490234375 -77.5
10.493408203125 10.572021484375 30.08447265625
25.4150390625 -29.61962890625 -60.537109375
13.708740234375 18.1376953125 0.135009765625
-14.06982421875 12.08642578125 16.29736328125
-17.864501953125 2.130859375 15.541015625
19.437255859375 -7.689453125 38.833984375
8.066650390625 -8.349853515625 -68.4052734375
-25.76123046875 -9.75341796875 36.60595703125
23.839599609375 10.576904296875 -57.759521484375
20.222900390625 6.4580078125 -76.512451171875
-18.03662109375 2.730712890625 17.740234375
6.4677734375 25.94189453125 -37.302490234375
-29.1787109375 -1.865234375 49.58740234375
11.472900390625 22.062255859375 -18.83447265625
10.522705078125 20.238037109375 -21.899658203125
19.3134765625 -1.816162109375 -67.705322265625
-15.262451171875 -9.04150390625 38.80029296875
12.190673828125 10.550048828125 31.855224609375
-5.607666015625 6.918701171875 39.3798828125
26.38134765625 3.441162109375 -64.448974609375
12.81591796875 15.542236328125 12.94287109375
-10.6865234375 8.05712890625 32.4521484375
19.082763671875 -0.195068359375 28.8955078125
19.848876953125 -8.306640625 -71.86328125
-6.93994140625 -20.571044921875 30.50927734375
-0.345947265625 -16.286376953125 39.0283203125
-18.62939453125 -26.769775390625 67.43408203125
7.299072265625 -2.245361328125 -75.047119140625
23.881591796875 -3.517578125 -53.760986328125
-7.4736328125 -17.820556640625 72.206298828125
-3.67041015625 24.37255859375 -79.02978515625
-12.696044921875 3.33251953125 41.52685546875
14.244384765625 27.426025390625 -43.056640625
13.721435546875 -33.925537109375 -47.628173828125
6.97412109375 11.08740234375 27.303466796875
-7.709228515625 -20.0458984375 27.0078125
-7.17431640625 -15.559326171875 71.896728515625
-6.975830078125 -23.572998046875 22.200927734375
19.7314453125 0.37548828125 -62.71142578125
6.89404296875 8.22705078125 39.03857421875
10.178466796875 11.280517578125 27.973876953125
-18.210205078125 -17.983154296875 73.324462890625
11.126953125 27.58056640625 -44.134765625
6.60693359375 0.109375 33.758056640625
-8.412109375 23.057861328125 -35.84375
-18.9794921875 1.488525390625 21.487060546875
-14.213623046875 -27.447998046875 66.482421875
-2.413818359375 28.595703125 -51.3662109375
-25.51123046875 0.041015625 48.830322265625
6.81884765625 6.478515625 42.719482421875
-15.419189453125 -30.901611328125 18.727783203125
17.783447265625 28.4560546875 -45.42431640625
12.361572265625 19.536865234375 -7.607666015625
-5.057861328125 -23.235595703125 30.7412109375
2.027099609375 0.63671875 -80.407470703125
19.59912109375 -8.082275390625 30.087158203125
-18.003173828125 2.63232421875 26.725341796875
-10.529296875 -29.72412109375 64.6474609375
-19.051025390625 -0.8720703125 41.0517578125
9.7568359375 -22.416748046875 38.484375
2.351806640625 6.439697265625 42.345703125
7.572265625 -13.910400390625 38.60302734375
-17.3427734375 -11.052490234375 32.53466796875
-19.19384765625 -28.8427734375 21.5341796875
18.77978515625 9.984130859375 -58.745361328125
10.74560546875 -59.120361328125 13.310791015625
17.602783203125 -57.04541015625 -10.41650390625
12.431884765625 -62.978515625 9.92333984375
-20.055908203125 -34.799072265625 50.082763671875
-18.57861328125 3.754150390625 19.75390625
17.7783203125 -10.063232421875 38.21435546875
-19.785888671875 -22.84619140625 26.325439453125
26.2275390625 -26.1650390625 -63.0283203125
-7.304931640625 -20.7861328125 70.310791015625
21.111328125 -19.94677734375 -63.02587890625
-11.02587890625 -16.181396484375 69.335205078125
-5.700439453125 27.4814453125 -73.4609375
20.682373046875 -52.119873046875 -23.94873046875
9.572021484375 17.111572265625 -0.88037109375
24.11767578125 -3.30810546875 -69.5087890625
12.01220703125 2.146240234375 -60.00341796875
14.06982421875 24.8203125 -31.259521484375
5.84130859375 -34.1748046875 -41.748291015625
21.217529296875 -12.875244140625 -73.91650390625
-17.21240234375 -24.44970703125 68.73193359375
-12.455078125 -27.82666015625 43.098876953125
-6.17529296875 -24.41845703125 19.268798828125
19.442626953125 -12.067138671875 32.072021484375
17.0986328125 -8.07177734375 -72.08251953125
28.166259765625 2.454833984375 -62.968994140625
21.299072265625 -62.51171875 23.787353515625
-11.05908203125 -16.89208984375 73.31396484375
8.41552734375 -62.347412109375 7.380615234375
31.533447265625 -3.80224609375 -73.890380859375
-23.379150390625 -24.978515625 67.6806640625
20.6123046875 -59.125244140625 16.890625
30.125 -1.10205078125 -71.132568359375
-21.630859375 -39.727783203125 56.04638671875
-14.08544921875 8.232421875 25.233642578125
16.985107421875 -5.558837890625 -70.22900390625
-18.59228515625 5.17822265625 22.399658203125
-11.47705078125 -11.00927734375 39.19580078125
31.722900390625 4.1005859375 -47.8203125
-27.791015625 -9.474365234375 37.244873046875
0.612548828125 26.883544921875 -44.997802734375
26.043212890625 -13.57958984375 -44.130126953125
17.962646484375 -13.853271484375 -50.943603515625
16.384521484375 31.609375 -60.81494140625
-14.518310546875 7.6376953125 27.654296875
23.487060546875 -45.452392578125 -8.947998046875
-11.11279296875 -16.014892578125 38.049560546875
32.2666015625 1.2783203125 -68.389892578125
19.605224609375 -3.37646484375 31.365478515625
-19.82177734375 -24.9697265625 25.667724609375
11.769287109375 6.0361328125 42.59326171875
13.7314453125 -24.087890625 -60.320068359375
12.90576171875 -31.59326171875 -44.204833984375
-9.663330078125 -17.107177734375 36.932861328125
0.999755859375 10.6396484375 25.50244140625
19.488037109375 -3.718505859375 36.994384765625
-27.90771484375 0.65283203125 48.71240234375
9.760009765625 17.2880859375 -5.145263671875
19.04833984375 17.294189453125 -0.29638671875
19.585205078125 -58.668701171875 -7.312255859375
-9.24169921875 12.955078125 16.82568359375
17.194580078125 21.0546875 -13.5068359375
2.087890625 -32.012939453125 16.9365234375
14.371337890625 6.816650390625 -56.05322265625
21.641357421875 -13.786865234375 -78.542724609375
-15.412353515625 -13.12353515625 30.135009765625
-5.085693359375 -29.841064453125 17.1611328125
3.77978515625 13.20849609375 17.809326171875
9.7373046875 -63.14501953125 9.125
14.961669921875 -4.283935546875 -68.204345703125
-16.758544921875 6.195068359375 37.837890625
31.605224609375 10.523193359375 -56.458740234375
25.29345703125 -14.88134765625 -49.186279296875
10.75732421875 13.868896484375 17.256591796875
19.3125 -4.716796875 39.5986328125
26.412841796875 -4.75390625 -48.788818359375
-16.16943359375 11.35546875 14.9912109375
-7.81298828125 -17.48291015625 35.361083984375
17.075439453125 -11.412841796875 -50.4453125
22.0810546875 -6.949951171875 -52.294189453125
19.473876953125 -6.47314453125 33.936279296875
-2.169677734375 -27.416748046875 22.7705078125
4.906005859375 5.013671875 42.44921875
24.4873046875 -29.716552734375 -62.4248046875
29.891357421875 -2.6591796875 -73.24560546875
-19.50048828125 -12.430419921875 32.6142578125
-6.7626953125 8.86181640625 31.52734375
17.558837890625 9.623046875 -74.31689453125
10.2392578125 -9.8818359375 -67.51318359375
-11.385986328125 -15.0693359375 72.0009765625
8.35986328125 -5.722900390625 -70.28173828125
21.39697265625 -55.619873046875 -9.42333984375
2.203125 -30.953369140625 18.77001953125
21.18994140625 -58.845703125 22.038330078125
4.08251953125 0.228271484375 32.3369140625
-11.89697265625 11.706787109375 19.423583984375
-13.132568359375 7.7734375 36.61279296875
-2.40869140625 12.201416015625 20.075439453125
27.40576171875 1.6552734375 -48.357421875
-8.037353515625 -22.635009765625 18.3310546875
22.04931640625 -14.724853515625 -51.014892578125
28.3818359375 -7.965576171875 -46.185302734375
28.9638671875 8.146240234375 -60.731689453125
25.58984375 0.323974609375 -49.80908203125
3.455810546875 31.41259765625 -62.4794921875
1.140380859375 12.29833984375 19.658447265625
14.9248046875 1.322998046875 -61.64990234375
-7.402587890625 25.595703125 -77.578125
5.22265625 -27.099365234375 -48.97509765625
-13.4365234375 6.509033203125 40.6337890625
-15.492919921875 -16.1416015625 72.0146484375
3.969482421875 2.859375 -79.8037109375
8.4970703125 32.853515625 -64.7255859375
-13.84326171875 -15.470947265625 28.803955078125
13.9365234375 -57.353759765625 -12.920166015625
20.255859375 -9.832275390625 -50.016357421875
11.47607421875 9.516357421875 33.8779296875
11.01708984375 -1.892822265625 -65.853515625
24.376708984375 -21.823974609375 -64.31591796875
-21.684814453125 -34.5947265625 61.520751953125
13.084228515625 -10.699951171875 -51.975341796875
33.3447265625 -5.580078125 -76.3603515625
4.705810546875 -11.4462890625 -64.67529296875
18.095703125 -10.04296875 -71.937744140625
1.463623046875 25.454345703125 -35.8154296875
25.94384765625 -18.2919921875 -50.136962890625
11.895751953125 -1.360595703125 -63.891845703125
-11.176025390625 -36.600341796875 60.06201171875
11.86669921875 9.253662109375 36.485595703125
6.262939453125 -14.170654296875 -62.227783203125
8.4033203125 -15.967529296875 39.470458984375
-18.36962890625 -16.898193359375 29.849609375
10.424560546875 30.404296875 -53.6005859375
-2.133056640625 26.36572265625 -40.54345703125
-3.559326171875 7.859375 38.234130859375
7.391845703125 -27.6787109375 -43.5546875
10.802978515625 12.553955078125 22.8916015625
31.094970703125 -2.38525390625 -48.712646484375
-13.448974609375 -15.92822265625 72.574462890625
2.755126953125 -16.385009765625 -59.838623046875
8.388671875 10.658447265625 28.778076171875
13.468017578125 15.680419921875 8.93359375
20.619140625 -50.2177734375 41.46728515625
-3.349853515625 -27.697509765625 65.9462890625
8.044677734375 -63.872314453125 5.777587890625
-19.89599609375 1.763671875 38.43408203125
3.296875 -13.5185546875 37.958984375
29.127685546875 7.976806640625 -48.118896484375
3.15087890625 -31.261962890625 -47.116943359375
24.716552734375 -2.1083984375 -52.526123046875
21.372802734375 4.264404296875 -79.79150390625
-19.333251953125 1.989013671875 32.14306640625
-17.203369140625 3.34033203125 41.38134765625
19.53564453125 0.189697265625 39.3935546875
-4.55078125 -21.82568359375 36.416015625
8.2607421875 -23.6103515625 -52.1572265625
12.847900390625 -5.64794921875 -70.120361328125
-3.551025390625 25.32080078125 -36.444580078125
12.554443359375 8.439697265625 -77.0576171875
-19.5390625 -8.156982421875 30.87548828125
5.584228515625 -16.204833984375 -59.818359375
23.3095703125 -61.97802734375 31.65380859375
-3.864501953125 -25.12451171875 29.9228515625
-9.54248046875 -26.14501953125 65.88916015625
-5.310791015625 -28.122802734375 20.72705078125
-7.3701171875 -21.34765625 34.139892578125
18.81396484375 -4.25439453125 -69.4951171875
23.98388671875 -0.802734375 -54.556396484375
10.333740234375 0.960205078125 -79.159912109375
-10.975341796875 -30.778564453125 46.804931640625
24.64013671875 -48.41064453125 -9.700439453125
-5.8046875 -22.334716796875 68.663330078125
-1.609375 6.9873046875 39.620849609375
3.33203125 -23.678466796875 39.001708984375
20.866943359375 -17.613037109375 -53.3701171875
20.44580078125 -13.053955078125 -49.624267578125
-10.351806640625 -25.133544921875 40.67919921875
-2.124755859375 -35.343505859375 60.50341796875
-7.768798828125 -14.214111328125 65.759033203125
25.273193359375 -44.878173828125 -6.263916015625
-6.284423828125 -25.992919921875 64.013427734375
12.916015625 30.64013671875 -55.42333984375
-17.208984375 -29.231201171875 20.3505859375
12.087890625 31.502197265625 -58.091064453125
2.43994140625 27.939697265625 -48.9462890625
25.70556640625 10.80029296875 -59.436279296875
23.82177734375 -6.119873046875 -51.5048828125
-23.47216796875 -21.577392578125 70.127685546875
-0.35498046875 28.118408203125 -48.901611328125
14.56201171875 4.532470703125 -55.634033203125
19.733642578125 -11.642822265625 28.034912109375
-21.37548828125 -39.66796875 53.953369140625
16.261962890625 -14.2890625 -52.51953125
-4.249267578125 13.027099609375 17.825439453125
-21.765380859375 -24.202880859375 69.296875
-4.085205078125 8.1298828125 35.787109375
2.634033203125 11.9384765625 22.33251953125
3.831787109375 13.4951171875 15.8251953125
1.6279296875 25.091064453125 -33.853271484375
7.58642578125 -15.582763671875 -60.973876953125
-10.027099609375 -27.69287109375 43.319580078125
10.2587890625 31.9921875 -60.198486328125
28.662353515625 11.4609375 -60.22021484375
11.360107421875 26.955810546875 -48.199951171875
27.93896484375 -3.533935546875 -49.2080078125
13.389892578125 16.424560546875 7.08203125
-8.453369140625 -13.4697265625 38.0498046875
3.352294921875 -20.796142578125 35.32763671875
3.319580078125 7.39501953125 40.051513671875
24.453125 -47.263671875 -8.0771484375
-17.107666015625 -29.140625 65.684814453125
22.908447265625 -9.253662109375 -51.183837890625
-14.2216796875 -30.83154296875 46.336181640625
-8.7431640625 28.11376953125 -73.83740234375
-18.63134765625 4.910400390625 34.4892578125
-16.684814453125 -1.152099609375 11.966552734375
-16.38525390625 -34.857421875 61.886474609375
10.275634765625 -59.0517578125 -12.64892578125
0.65771484375 8.805908203125 33.96826171875
8.90087890625 -1.07763671875 -76.43505859375
22.46142578125 -63.7158203125 28.1826171875
4.2578125 3.1123046875 -82.6630859375
19.373046875 -2.608154296875 35.306640625
-18.171630859375 9.337646484375 18.7568359375
3.303466796875 24.165283203125 -32.464111328125
19.851806640625 -54.017333984375 26.784912109375
-20.54443359375 -38.18115234375 59.557861328125
2.743408203125 -23.274658203125 -54.677978515625
11.902099609375 6.93359375 -57.335205078125
5.24951171875 -5.5380859375 -71.52197265625
9.58935546875 15.481689453125 7.672119140625
2.65673828125 -27.8583984375 -50.130126953125
-1.2275390625 9.54248046875 30.608154296875
28.00390625 5.817138671875 -61.86328125
0.911376953125 -34.51416015625 60.668701171875
-10.1279296875 -12.060302734375 38.1982421875
21.0205078125 -50.88427734375 37.35888671875
22.302978515625 13.9169921875 -57.90283203125
-18.013427734375 1.06494140625 41.689208984375
-24.84228515625 -14.6484375 32.820068359375
-4.59130859375 28.418701171875 -70.991943359375
5.107421875 12.790283203125 19.422119140625
-14.71875 -13.775634765625 32.43310546875
6.5166015625 -39.164306640625 -44.350341796875
19.906005859375 -10.1103515625 26.61181640625
-20.332275390625 -32.78173828125 58.8095703125
12.98486328125 12.9833984375 -79.05419921875
19.27978515625 4.44287109375 -58.091796875
-19.7197265625 -33.054931640625 48.507080078125
4.259521484375 -29.1611328125 -47.76220703125
7.663330078125 -26.931884765625 -49.194580078125
-2.289306640625 9.0380859375 33.702880859375
-5.888427734375 -28.07861328125 63.557373046875
19.85205078125 -4.63525390625 21.716796875
5.30712890625 -23.472900390625 39.20947265625
4.58837890625 -36.3095703125 -41.6708984375
1.412841796875 30.36669921875 -57.35888671875
-22.38427734375 -20.359130859375 71.75732421875
30.317626953125 6.763671875 -58.720458984375
21.067626953125 13.425537109375 -60.11669921875
11.144287109375 19.525634765625 -9.513916015625
5.2431640625 -19.9375 33.790283203125
22.746826171875 -57.35400390625 -7.628662109375
-0.156982421875 26.565185546875 -43.217041015625
0.165283203125 -23.31494140625 38.9482421875
5.336669921875 23.22705078125 -30.820556640625
13.7099609375 19.206298828125 -3.8564453125
15.62255859375 -57.867919921875 -8.72216796875
-17.267578125 9.14013671875 22.790771484375
-8.84228515625 -18.939208984375 32.178955078125
-0.305419921875 13.065185546875 16.918212890625
21.56689453125 7.18603515625 -55.660888671875
3.387451171875 -34.40283203125 -42.253662109375
-7.25732421875 -15.586181640625 38.45703125
-0.48681640625 8.003662109375 38.343017578125
7.445556640625 28.880126953125 -51.15966796875
9.917724609375 23.982177734375 -26.678955078125
14.32275390625 -15.92822265625 -52.301025390625
-3.69482421875 -27.789306640625 10.9033203125
24.830810546875 -48.995849609375 -7.190185546875
9.8798828125 16.8291015625 2.0732421875
19.64501953125 -18.451171875 -58.69287109375
15.761962890625 24.7705078125 -29.836669921875
-5.216552734375 24.591796875 -35.69580078125
11.107421875 -25.857421875 -52.99951171875
21.334716796875 -57.58984375 35.727294921875
-22.5625 -24.9560546875 65.591552734375
15.410888671875 25.92529296875 -34.385986328125
29.415283203125 4.385498046875 -46.370361328125
8.316650390625 -38.750732421875 -42.94580078125
21.106201171875 -62.50048828125 18.22314453125
6.6630859375 26.680419921875 -40.47705078125
15.14306640625 -12.723388671875 -51.740966796875
-22.18798828125 -28.9560546875 65.102783203125
24.66357421875 2.074462890625 -52.31201171875
11.279296875 -59.197265625 -9.694580078125
10.775390625 26.434326171875 -40.018310546875
11.4599609375 18.161376953125 -2.48681640625
26.051513671875 -22.53759765625 -64.9970703125
-14.344482421875 -13.603515625 34.493896484375
19.118896484375 1.7548828125 32.574462890625
26.43994140625 3.615478515625 -47.80224609375
-20.9677734375 -30.941162109375 60.163330078125
-4.408203125 -14.6416015625 68.898193359375
19.303955078125 -51.040283203125 -20.787353515625
4.924072265625 -10.22802734375 -66.506103515625
13.215576171875 11.249267578125 -76.237548828125
26.28271484375 -10.850830078125 -44.348876953125
10.9052734375 8.88623046875 -79.572998046875
-18.57275390625 -1.373046875 16.985107421875
-20.32470703125 -18.17138671875 72.864013671875
-21.0322265625 -33.674560546875 63.124755859375
-0.818115234375 25.921875 -38.631103515625
32.709716796875 6.89794921875 -61.049072265625
15.00732421875 24.13916015625 -25.340576171875
8.45166015625 -20.01123046875 32.60205078125
17.912841796875 -11.094482421875 36.23095703125
7.2314453125 17.54638671875 -44.56494140625
18.6083984375 20.136474609375 -12.5185546875
11.54833984375 -13.808837890625 -52.339599609375
-18.9853515625 -19.527587890625 72.4794921875
23.197021484375 -20.5283203125 -61.92724609375
24.815185546875 -3.698974609375 -48.9462890625
-7.978271484375 -28.26904296875 43.979736328125
-12.580322265625 -9.614990234375 39.91259765625
11.94580078125 20.572021484375 -13.223876953125
17.29345703125 8.78759765625 -57.57958984375
-19.296630859375 0.413330078125 17.952880859375
26.062255859375 8.883544921875 -59.974365234375
26.515625 -2.048583984375 -49.580322265625
-1.845458984375 23.549560546875 -34.4013671875
-9.6455078125 12.284423828125 18.599853515625
-3.841064453125 -22.622314453125 68.227294921875
21.187255859375 -59.217529296875 25.225341796875
1.178955078125 22.516357421875 -33.357177734375
-7.900634765625 -31.15771484375 46.880859375
15.27197265625 8.463134765625 -57.960205078125
8.43408203125 -31.1787109375 -45.074462890625
-6.76806640625 -18.552978515625 34.107177734375
0.917236328125 -12.070068359375 37.640869140625
17.858642578125 -11.55224609375 -73.274169921875
7.484619140625 -19.313232421875 -56.3251953125
20.44140625 12.174072265625 -58.56689453125
20.635009765625 -55.560302734375 31.548828125
6.028076171875 7.60498046875 40.613037109375
15.70751953125 -9.19970703125 -53.114990234375
-13.849609375 -30.919189453125 64.303466796875
-2.3876953125 -28.93115234375 20.4208984375
-17.19091796875 -32.250244140625 47.970703125
-16.641845703125 -30.917236328125 64.556884765625
23.58447265625 12.4248046875 -58.119384765625
-3.430419921875 -24.070556640625 39.39501953125
34.39013671875 -7.34716796875 -79.41015625
0.963623046875 31.150390625 -61.350830078125
17.7509765625 7.466796875 41.405517578125
20.208251953125 -5.027587890625 -53.56689453125
25.040771484375 2.67822265625 -49.771484375
-3.83447265625 -14.362548828125 38.179443359375
9.205322265625 6.698486328125 43.052490234375
3.3916015625 4.1484375 39.925537109375
30.265869140625 -0.076904296875 -49.824951171875
12.488037109375 12.49462890625 24.08837890625
13.5166015625 24.133056640625 -27.71142578125
13.845947265625 -47.866943359375 -6.317626953125
-6.777099609375 -23.38671875 38.37158203125
7.689697265625 -20.99462890625 -54.355224609375
-11.33984375 -32.867431640625 49.00732421875
12.522705078125 -20.297119140625 34.173095703125
-22.26220703125 -26.37255859375 66.96044921875
5.39453125 -14.0859375 38.62255859375
18.874755859375 -9.04296875 37.01513671875
-16.94384765625 -21.522705078125 70.7431640625
34.110595703125 7.099365234375 -63.6220703125
11.1689453125 8.398193359375 40.8837890625
29.70751953125 9.946533203125 -60.87109375
-4.953125 -28.795166015625 18.980712890625
-12.3525390625 -26.0126953125 67.2900390625
19.412353515625 -16.49658203125 -52.94482421875
17.506591796875 -58.062744140625 -8.243408203125
36.284912109375 -7.8876953125 -77.955078125
-1.186279296875 11.80322265625 21.79150390625
-15.37890625 9.98828125 19.8193359375
17.739501953125 7.04150390625 -77.88330078125
-23.6455078125 -18.322265625 29.9619140625
-20.323486328125 -37.0810546875 56.3564453125
19.622802734375 -12.76123046875 20.600341796875
10.860595703125 11.2470703125 -79.3935546875
6.59912109375 -10.783935546875 -65.690185546875
10.429443359375 21.6279296875 -20.33203125
7.438720703125 -42.395751953125 -43.43212890625
19.9677734375 -7.17431640625 26.5771484375
-19.52734375 3.08251953125 35.53564453125
36.07568359375 7.448974609375 -63.07861328125
17.59716796875 -50.752197265625 -23.659423828125
9.015625 -58.418212890625 13.391357421875
20.033203125 -15.705810546875 21.362548828125
22.253662109375 -27.267578125 -64.05224609375
-2.018798828125 10.83349609375 24.66845703125
3.77978515625 -24.141357421875 -53.037841796875
13.685791015625 -57.8642578125 -10.527099609375
-16.478515625 -34.218505859375 51.932861328125
11.196044921875 -10.102294921875 -52.483642578125
20.994873046875 -62.823974609375 21.567138671875
-6.318359375 22.481201171875 -35.76611328125
5.183349609375 10.7958984375 26.878173828125
24.865966796875 -51.52783203125 -5.913818359375
-12.173583984375 -35.513671875 61.19921875
25.124267578125 5.941162109375 -49.0205078125
-19.49365234375 -5.623291015625 32.147216796875
32.184814453125 6.478759765625 -46.10986328125
19.849365234375 -9.69580078125 31.027099609375
-17.923828125 3.018798828125 21.50390625
3.99072265625 18.7060546875 -43.91455078125
-4.764892578125 -26.47216796875 24.612548828125
34.421142578125 -2.549072265625 -72.92578125
20.996826171875 -57.3173828125 26.094970703125
-14.34619140625 -32.900146484375 48.87109375
-0.50634765625 -20.756103515625 35.446533203125
-8.26513671875 -22.14013671875 22.508544921875
12.857177734375 3.54345703125 -58.766357421875
-4.381103515625 -19.3359375 33.152587890625
15.7177734375 -56.60595703125 -12.28857421875
-11.0322265625 -18.962158203125 25.94287109375
20.77978515625 -53.546630859375 30.783447265625
12.808349609375 23.1650390625 -21.1845703125
12.684326171875 -8.162841796875 -72.400634765625
-17.643310546875 6.375732421875 33.94677734375
15.25927734375 -49.679443359375 -21.427001953125
21.045654296875 5.322998046875 -56.568359375
13.486328125 5.42724609375 41.8857421875
2.632080078125 11.239990234375 24.21923828125
21.013671875 -59.966064453125 20.298095703125
4.939208984375 8.65576171875 37.00927734375
-19.628662109375 0.674072265625 39.936767578125
3.890869140625 26.99658203125 -47.93896484375
-0.484130859375 5.85693359375 41.948486328125
13.064208984375 -61.06396484375 -8.45458984375
-5.905029296875 25.54296875 -76.5146484375
-19.86279296875 -6.232177734375 33.841064453125
3.54931640625 -15.091552734375 38.873046875
19.4384765625 -5.472900390625 35.817138671875
-7.68603515625 -25.793701171875 41.236328125
20.381591796875 -18.18603515625 -55.04443359375
-17.81005859375 9.090576171875 15.68359375
12.399658203125 -46.375244140625 -6.58349609375
14.790283203125 -3.193115234375 -66.34765625
-20.1005859375 -35.971435546875 53.126953125
-18.091796875 2.3994140625 28.735107421875
4.18017578125 -32.116455078125 -45.49365234375
21.656005859375 -59.0439453125 32.2568359375
9.30419921875 31.239990234375 -57.391357421875
11.751708984375 -32.26318359375 -47.240478515625
30.5673828125 2.857421875 -47.13720703125
3.612060546875 1.04248046875 -79.3876953125
2.223388671875 -26.144287109375 -51.773681640625
9.01513671875 -59.375244140625 10.063720703125
-21.339599609375 -25.359619140625 24.31689453125
20.541259765625 9.9365234375 -57.255126953125
-17.518310546875 7.346435546875 25.6142578125
-7.4951171875 -23.298583984375 34.87353515625
-13.96337890625 -29.03759765625 44.84716796875
10.2822265625 -30.9482421875 -45.24755859375
-0.62255859375 31.21435546875 -62.24560546875
-8.406005859375 -24.268310546875 39.64501953125
10.461669921875 15.7041015625 -2.000732421875
20.612548828125 -56.029052734375 34.05908203125
-18.38232421875 5.150390625 16.941650390625
3.475830078125 31.094970703125 -58.638916015625
19.906494140625 -8.70849609375 23.493408203125
8.31689453125 -25.322265625 -50.770263671875
12.29931640625 -58.28369140625 -11.626708984375
-3.655029296875 -26.922607421875 42.669921875
13.060546875 20.233642578125 -9.811767578125
-11.03857421875 6.358154296875 41.459716796875
-6.797607421875 -22.491455078125 24.580810546875
-5.246826171875 -28.211669921875 43.871826171875
-12.1416015625 9.832763671875 27.34228515625
2.61474609375 -24.66455078125 40.416259765625
-5.7646484375 -20.984375 35.370361328125
9.1123046875 24.799560546875 -29.19091796875
-31.708740234375 0.02294921875 41.736572265625
-15.461181640625 11.003662109375 16.70458984375
8.821533203125 -57.78662109375 11.6533203125
-19.839111328125 0.029541015625 22.521240234375
-7.7578125 -22.04833984375 69.096923828125
-0.7021484375 24.2373046875 -77.644287109375
-0.07373046875 -26.1806640625 42.237060546875
12.364013671875 -30.7763671875 -45.722900390625
24.836181640625 -25.113037109375 -63.48974609375
13.245849609375 22.36865234375 -18.957763671875
25.461181640625 -7.351806640625 -47.653564453125
-15.73095703125 8.024169921875 25.976318359375
9.891845703125 27.00732421875 -49.242919921875
21.8798828125 -55.8212890625 -7.24755859375
11.9619140625 -64.46875 8.453369140625
-1.830322265625 22.601318359375 -35.9296875
24.83984375 1.887451171875 -54.817138671875
8.548828125 -32.425537109375 -43.764892578125
-6.140869140625 12.38134765625 18.179443359375
19.294677734375 -57.07275390625 -8.99853515625
31.474365234375 -5.947509765625 -77.068359375
-6.619873046875 -15.344482421875 67.33642578125
-6.52880859375 28.58642578125 -69.784912109375
-8.43603515625 -16.406005859375 66.475341796875
-5.280517578125 -25.641357421875 16.847412109375
7.3388671875 -17.17431640625 -58.363525390625
-5.922119140625 -24.503662109375 26.04150390625
4.853515625 26.558349609375 -46.250244140625
21.417236328125 -61.29833984375 28.739501953125
-14.4794921875 -23.57275390625 69.111083984375
25.240478515625 -8.814453125 -72.024169921875
-12.948486328125 5.416015625 42.473388671875
12.7783203125 21.157470703125 -17.7099609375
-11.59130859375 -28.97119140625 44.511962890625
6.349853515625 27.630859375 -50.487548828125
19.58544921875 1.177734375 36.3232421875
21.157958984375 -60.910400390625 30.91552734375
24.236083984375 -7.877685546875 -49.841552734375
34.46240234375 -5.0712890625 -74.651123046875
-16.838134765625 -26.1796875 67.71875
0.663818359375 13.7021484375 15.11767578125
-22.416748046875 -11.07421875 34.964111328125
-14.958984375 -26.073486328125 67.33251953125
-6.219970703125 -23.44921875 27.693115234375
10.3125 -20.744873046875 35.426025390625
10.216552734375 -14.536376953125 39.27880859375
