10.900634765625 5.876220703125 35.758056640625
14.995361328125 -61.469970703125 19.709228515625
-7.22705078125 -25.32568359375 65.380615234375
19.22119140625 0.964111328125 -3.9775390625
16.760009765625 4.50927734375 45.69189453125
11.35791015625 22.806640625 -33.018798828125
-14.594970703125 -33.07568359375 12.971435546875
21.199462890625 -28.45166015625 -21.73095703125
25.48388671875 -26.4013671875 -53.16845703125
14.234375 24.818603515625 -40.599853515625
24.039306640625 -12.16552734375 -31.506103515625
-20.69189453125 -11.754638671875 22.10546875
-5.578857421875 7.593017578125 21.040771484375
17.483642578125 -13.896484375 -52.835205078125
25.863037109375 -12.79248046875 -66.985107421875
-14.665283203125 -26.53369140625 8.592529296875
22.156005859375 -20.418701171875 -19.510498046875
-19.793212890625 -39.587890625 69.350341796875
-18.23388671875 -7.662841796875 28.879638671875
23.853759765625 -20.74755859375 62.9423828125
20.03173828125 4.248046875 -10.135498046875
19.88525390625 -13.798828125 41.941162109375
9.42626953125 10.564697265625 10.58935546875
-21.58740234375 -27.8583984375 77.063232421875
-17.15673828125 -8.822998046875 20.604736328125
-6.994140625 -30.282470703125 46.05078125
3.322021484375 25.488525390625 -47.759765625
-3.486328125 -20.009521484375 44.223876953125
26.810546875 -33.58349609375 -45.267333984375
21.447021484375 -34.162109375 -32.498291015625
18.462158203125 -20.278564453125 -47.694580078125
20.504150390625 20.98681640625 -22.0751953125
2.670654296875 21.7724609375 -31.464111328125
-16.75830078125 -1.208251953125 46.229248046875
-8.4150390625 -39.560302734375 55.935791015625
-26.359375 -2.0947265625 48.865478515625
13.879150390625 15.32666015625 -0.947998046875
-9.14599609375 17.783447265625 -32.935791015625
28.53125 -30.6796875 -48.0302734375
-9.134765625 2.529052734375 43.111083984375
-10.041748046875 -24.01318359375 77.791259765625
21.60693359375 -19.8359375 69.06396484375
15.515625 -34.016357421875 45.083251953125
13.225341796875 -22.49609375 44.400634765625
11.1787109375 15.4677734375 -7.709228515625
21.54541015625 -24.49462890625 62.43798828125
-19.38916015625 -44.377197265625 65.674560546875
20.385498046875 -11.893310546875 45.35791015625
1.07373046875 -25.01123046875 39.204345703125
-3.810791015625 -36.52880859375 52.85302734375
-3.502197265625 -25.489501953125 40.19677734375
-11.188232421875 4.026611328125 37.85400390625
23.99072265625 -35.64599609375 -39.83447265625
-6.904052734375 22.376953125 -36.163818359375
13.839111328125 1.89599609375 -2.357666015625
20.149169921875 -47.99609375 -31.48388671875
23.875 -17.0654296875 -38.03173828125
24.797607421875 1.448486328125 -48.053466796875
9.64013671875 21.675048828125 -29.292236328125
11.14697265625 -33.96630859375 47.712890625
27.54638671875 -32.10595703125 -40.099853515625
-16.704833984375 -1.840087890625 19.908935546875
4.7978515625 2.674560546875 34.13037109375
29.735107421875 -7.99267578125 -36.479248046875
20.26318359375 -33.915771484375 84.202392578125
16.819091796875 -22.291748046875 -52.63916015625
41.60888671875 26.505859375 -57.630126953125
14.85107421875 -37.1181640625 -28.470458984375
19.748779296875 -30.857177734375 55.55712890625
21.504638671875 -29.77734375 61.486083984375
-16.869384765625 3.989990234375 35.477294921875
36.761474609375 -6.20458984375 -37.315673828125
8.293212890625 -25.657958984375 40.328125
9.79443359375 -13.68505859375 -51.1708984375
-0.05712890625 8.022216796875 24.1728515625
2.575439453125 6.635009765625 30.642333984375
8.346923828125 3.613525390625 44.55517578125
10.640869140625 27.480224609375 -52.748779296875
1.807373046875 22.601806640625 -35.6904296875
19.439453125 17.19140625 -12.937744140625
-16.869384765625 -22.4697265625 76.50244140625
-7.370361328125 -29.62255859375 40.4228515625
35.107177734375 -17.171142578125 -28.087158203125
20.2568359375 -11.433837890625 -51.266357421875
18.0380859375 16.8408203125 -6.46435546875
9.76123046875 -22.125732421875 -52.150146484375
27.017822265625 -9.58740234375 -44.444091796875
11.22802734375 -0.326171875 -53.89990234375
-15.73291015625 -9.7587890625 16.968017578125
-18.259521484375 -1.06787109375 37.808349609375
19.781494140625 -13.974365234375 33.6064453125
20.0927734375 -35.635498046875 80.79736328125
34.466064453125 -10.881103515625 -30.09326171875
2.01171875 -38.504150390625 -37.8125
14.143798828125 20.85986328125 -24.35986328125
37.29541015625 -4.7431640625 -30.4296875
28.39208984375 -12.27392578125 -62.665283203125
19.605712890625 -70.25244140625 72.98291015625
20.275390625 -39.602783203125 -45.261474609375
20.907958984375 -24.204345703125 68.509033203125
30.468994140625 4.439208984375 -43.266845703125
-9.345947265625 21.302734375 -31.729736328125
19.773681640625 -24.042724609375 28.256103515625
20.154052734375 -33.39697265625 -45.912841796875
10.128662109375 21.087890625 -41.931640625
8.904541015625 -47.7607421875 -37.3515625
15.142822265625 25.810302734375 -45.935791015625
-14.9462890625 -22.791748046875 8.6728515625
21.332763671875 -56.172119140625 8.09716796875
2.294677734375 3.736572265625 43.662109375
-15.78173828125 -2.844482421875 16.691650390625
30.5634765625 -11.6630859375 -29.0859375
5.03662109375 -25.750732421875 -47.7802734375
17.792724609375 -49.491943359375 -34.037353515625
44.60888671875 20.4658203125 -54.17822265625
13.6650390625 13.53759765625 6.068115234375
10.592529296875 12.210205078125 2.87841796875
24.087646484375 -23.35498046875 -27.727783203125
28.55126953125 -27.38818359375 -46.9697265625
-8.374755859375 -27.03955078125 68.64111328125
27.905517578125 -24.39990234375 -29.75341796875
3.211181640625 -34.82373046875 51.03564453125
23.9931640625 -6.092529296875 -51.79150390625
-16.199462890625 -41.29248046875 57.45556640625
8.05712890625 22.168212890625 -32.33740234375
17.6337890625 11.662109375 11.3095703125
19.8369140625 -38.515869140625 62.87646484375
-4.71875 6.6796875 28.34716796875
-0.892578125 -29.487548828125 45.376220703125
-18.128662109375 2.13623046875 31.225830078125
21.309326171875 -25.122802734375 -23.078369140625
7.341064453125 20.72265625 -25.638916015625
29.982421875 25.501708984375 -67.898193359375
14.132568359375 28.09326171875 -53.632568359375
19.724365234375 -66.68994140625 75.93505859375
-14.362060546875 -17.06201171875 40.578369140625
11.410888671875 16.51123046875 -15.94287109375
-8.941162109375 5.926513671875 30.674560546875
21.163330078125 -46.193115234375 58.7548828125
11.7783203125 21.327880859375 -26.7333984375
21.920166015625 -34.78271484375 -19.82568359375
30.393798828125 -1.966796875 -44.13623046875
20.888427734375 -59.2900390625 14.524658203125
22.24658203125 -58.385498046875 2.070068359375
-21.363037109375 -32.90771484375 72.284423828125
4.8623046875 -38.730712890625 55.468505859375
20.208740234375 -37.29443359375 68.71630859375
9.52294921875 -52.34619140625 29.57373046875
-25.653076171875 -5.138427734375 55.05615234375
-15.15771484375 -5.98974609375 15.8203125
20.8349609375 -40.1650390625 -36.384521484375
16.51171875 -32.15380859375 48.664306640625
12.167236328125 9.76611328125 20.68603515625
20.20703125 -71.211181640625 64.9111328125
30.892822265625 -8.67578125 -32.8759765625
20.359619140625 -26.169189453125 59.0859375
16.256103515625 -32.9326171875 52.32373046875
20.5029296875 -29.289794921875 78.0888671875
20.824462890625 -24.6884765625 74.21142578125
12.54931640625 -45.59033203125 -34.2392578125
19.5654296875 -44.222900390625 -45.099365234375
20.9248046875 -44.641357421875 -39.22998046875
-6.4140625 20.808837890625 -28.87548828125
-3.71044921875 22.564453125 -36.841552734375
36.791015625 20.0419921875 -55.001708984375
20.228759765625 -30.809326171875 85.293701171875
20.439208984375 -67.54638671875 69.299560546875
15.759765625 9.03759765625 23.533447265625
2.446533203125 2.395751953125 47.46875
19.55810546875 -41.14892578125 82.1240234375
18.341796875 -23.335205078125 33.807373046875
12.689453125 -12.179443359375 -50.90087890625
8.68701171875 -56.00048828125 24.225830078125
-6.434326171875 -22.1982421875 74.26123046875
-18.166015625 0.83544921875 27.404541015625
-2.105224609375 21.083984375 -31.072021484375
20.560302734375 -12.860107421875 38.92578125
30.66357421875 -30.688720703125 -39.904052734375
20.272705078125 -15.5654296875 30.85205078125
-14.70703125 0.972900390625 47.3876953125
27.607177734375 -12.2373046875 -38.523193359375
25.48779296875 -20.3505859375 -37.579345703125
26.255126953125 -4.763916015625 -45.0908203125
9.337158203125 10.49951171875 17.271240234375
21.2275390625 -52.534912109375 14.929931640625
34.343017578125 -4.32373046875 -39.939208984375
13.59619140625 6.6279296875 34.21875
26.706298828125 -10.045166015625 -31.0087890625
14.74755859375 -49.125244140625 -30.84423828125
15.041748046875 -25.6904296875 -54.51220703125
-14.2001953125 -12.5859375 14.318115234375
21.325927734375 -30.3408203125 -28.536376953125
27.458251953125 -25.2353515625 -49.024169921875
-15.949951171875 5.114990234375 32.27490234375
13.149169921875 17.4697265625 -9.41162109375
-3.510498046875 5.4052734375 34.83642578125
20.13232421875 -41.61474609375 63.419921875
14.46923828125 3.90185546875 -50.52978515625
34.34423828125 -6.7470703125 -30.73291015625
24.357666015625 -30.26904296875 -49.701416015625
28.01513671875 -18.55078125 -32.349609375
-7.71630859375 7.3837890625 24.72021484375
17.572265625 27.403564453125 -50.98046875
-17.591796875 3.035888671875 21.890625
36.40185546875 -5.090576171875 -26.306884765625
31.20263671875 -5.88720703125 -38.943115234375
-14.178955078125 3.70166015625 38.717041015625
23.81201171875 -10.1396484375 -48.02001953125
-17.3974609375 0.70703125 41.361572265625
21.585693359375 -18.407958984375 -16.910888671875
31.196044921875 -17.522216796875 -28.80322265625
24.733642578125 -13.296142578125 -34.3232421875
21.01806640625 -58.041015625 11.675537109375
11.30859375 -19.57275390625 -53.01806640625
4.35009765625 -36.48193359375 -40.534912109375
14.50732421875 -42.52734375 -33.150634765625
29.349365234375 27.69189453125 -70.9287109375
6.58056640625 -26.81494140625 42.647705078125
12.482177734375 -41.937255859375 -37.759765625
-4.688720703125 -25.99658203125 35.199951171875
19.082275390625 -26.6513671875 25.372314453125
28.357421875 -4.057861328125 -40.5947265625
17.52978515625 4.989013671875 37.349609375
-2.15625 -33.19091796875 49.477783203125
12.766357421875 -28.700439453125 44.19970703125
40.43408203125 18.186279296875 -56.34912109375
23.4990234375 -38.061279296875 -41.66748046875
41.244384765625 20.91015625 -59.479248046875
3.566162109375 22.320068359375 -41.15625
-5.036376953125 -24.935302734375 69.846435546875
8.946044921875 4.729248046875 32.868896484375
7.96533203125 8.5517578125 23.4599609375
-8.565673828125 0.046630859375 47.609375
21.298095703125 -24.532958984375 22.037841796875
34.7373046875 -0.50732421875 -42.71240234375
7.7802734375 -34.177978515625 50.62548828125
-10.341552734375 4.89501953125 33.765625
14.831787109375 -30.2568359375 -46.55859375
12.93994140625 4.261474609375 -4.3916015625
11.52734375 19.7802734375 -19.94091796875
-19.325439453125 -45.57958984375 62.889892578125
-19.9873046875 -11.291259765625 28.979736328125
9.8291015625 -29.215576171875 -44.451416015625
26.516845703125 -15.472900390625 -63.908935546875
24.6982421875 -2.43212890625 -48.4345703125
24.67431640625 -14.82666015625 -30.24560546875
24.9423828125 -13.3984375 -41.949951171875
12.69580078125 -25.314697265625 43.51318359375
28.533447265625 -27.201416015625 -43.444091796875
27.265625 -22.37158203125 -41.927001953125
16.1787109375 19.142333984375 -17.325927734375
18.71484375 -17.09130859375 41.545166015625
21.91552734375 -39.041748046875 75.2880859375
15.1904296875 -36.9892578125 46.5234375
6.208251953125 6.97314453125 28.8623046875
24.203369140625 0.9365234375 -44.06103515625
14.944091796875 13.05126953125 8.697998046875
23.2490234375 -24.0341796875 -51.251220703125
-5.68115234375 4.757568359375 37.004638671875
9.11279296875 -50.1044921875 27.68701171875
27.9462890625 1.51611328125 -52.560546875
13.025390625 -19.5771484375 44.81982421875
9.462646484375 2.921630859375 38.47802734375
19.97216796875 -20.277587890625 33.90966796875
28.592529296875 -6.557373046875 -56.43701171875
19.912353515625 -36.41552734375 86.49560546875
28.684326171875 -25.6943359375 -37.237548828125
2.880859375 8.497802734375 23.3701171875
29.767333984375 -32.544677734375 -41.990234375
-11.1240234375 -42.489013671875 60.02099609375
11.570068359375 -41.013916015625 -30.652587890625
-18.535888671875 -12.749267578125 20.3984375
4.4814453125 20.169921875 -25.879150390625
2.36767578125 -27.560546875 43.333984375
16.324462890625 10.623046875 17.974853515625
12.3447265625 -51.41162109375 -35.62841796875
22.038330078125 -14.895263671875 -45.166748046875
16.19970703125 -24.553466796875 31.943115234375
-17.8388671875 -5.180419921875 41.09033203125
21.23193359375 -56.1103515625 0.566650390625
27.441650390625 36.442626953125 -58.84521484375
18.63916015625 -18.646240234375 44.662841796875
13.3857421875 1.78076171875 48.2841796875
4.88330078125 -29.71630859375 -44.0654296875
20.580810546875 -8.611083984375 39.584228515625
20.592041015625 -21.151123046875 26.94873046875
-17.564208984375 3.49609375 25.804931640625
9.446044921875 -63.63134765625 16.716552734375
15.803466796875 -43.222900390625 -40.642578125
7.864990234375 -37.13232421875 -37.288818359375
40.802978515625 21.131103515625 -55.59521484375
10.577392578125 -16.26953125 -49.49169921875
10.386962890625 -32.62841796875 -42.540283203125
-17.228271484375 -2.53857421875 24.849853515625
23.940673828125 -35.050048828125 -43.900634765625
-6.429443359375 2.332763671875 45.400146484375
8.9775390625 -64.029296875 12.84423828125
17.711669921875 18.518798828125 -14.800048828125
29.617919921875 -8.739013671875 -42.0888671875
5.966796875 9.019775390625 21.463623046875
20.500732421875 -14.54443359375 36.613037109375
17.081298828125 -29.845458984375 55.384033203125
19.834716796875 -36.509521484375 -24.210693359375
8.69384765625 1.718505859375 48.274658203125
20.580078125 -19.128662109375 31.375732421875
-18.494384765625 -39.669189453125 55.707275390625
17.907958984375 -36.1611328125 -29.40771484375
-3.0244140625 -28.273193359375 43.94140625
18.433837890625 -19.091552734375 39.423828125
4.031494140625 5.197509765625 33.0712890625
-18.396240234375 -4.674072265625 29.838134765625
10.919189453125 2.595947265625 -3.20458984375
15.51123046875 7.216064453125 31.2958984375
28.8427734375 -29.050537109375 -41.315185546875
14.27001953125 -28.85205078125 -50.2021484375
-14.516357421875 -38.097412109375 54.085693359375
15.311279296875 -19.066162109375 -47.25927734375
23.293701171875 -50.762939453125 18.0166015625
21.567138671875 -22.960205078125 -17.804931640625
-23.40869140625 -16.1650390625 21.511962890625
19.853271484375 -18.7236328125 36.8837890625
-2.165771484375 3.7939453125 41.664306640625
11.612548828125 18.0693359375 -13.49609375
19.54833984375 -26.23779296875 -54.410888671875
-14.488037109375 6.2763671875 27.153564453125
19.905029296875 -63.09765625 76.9169921875
4.64990234375 -31.021240234375 47.2890625
19.646240234375 -34.520751953125 63.6220703125
9.449951171875 -52.71142578125 -34.21484375
-7.783447265625 -35.005615234375 51.310791015625
15.3603515625 22.524169921875 -31.489990234375
-11.237060546875 19.65283203125 -33.279052734375
5.027099609375 2.65673828125 44.625
-27.06201171875 -3.583740234375 53.231201171875
16.96240234375 -0.5595703125 46.417724609375
20.513427734375 -35.366943359375 -29.943115234375
13.08935546875 -41.82177734375 -24.530517578125
26.10400390625 -13.56494140625 -58.198486328125
-9.7138671875 -31.375732421875 47.178466796875
28.376708984375 -14.554443359375 -29.970947265625
20.4052734375 -31.70361328125 82.0654296875
10.12841796875 11.15234375 14.595947265625
18.886962890625 -45.215576171875 -37.44384765625
5.438720703125 -40.39599609375 -36.78515625
19.7666015625 -39.248779296875 85.948974609375
19.945068359375 -30.755126953125 -49.919921875
-13.6474609375 -20.091796875 10.0771484375
28.240966796875 -20.619384765625 -29.615966796875
6.008544921875 -35.44482421875 -38.570068359375
9.927490234375 -58.93896484375 18.196533203125
20.58447265625 -26.60400390625 80.546630859375
19.365966796875 -61.1962890625 22.691650390625
6.390869140625 -42.904296875 -38.728271484375
-6.607177734375 -26.11962890625 41.099609375
37.395263671875 -13.120849609375 -29.5791015625
11.06298828125 15.4375 -4.975341796875
21.368408203125 -27.70361328125 -29.23779296875
20.310546875 -26.718017578125 -58.06640625
20.7236328125 -3.770263671875 47.4013671875
26.633544921875 -12.069580078125 -35.98291015625
-3.45947265625 23.818603515625 -41.547607421875
-9.9658203125 7.600830078125 23.013427734375
27.281005859375 -55.13330078125 4.492919921875
16.46533203125 -38.125244140625 -24.135498046875
-17.724853515625 0.072021484375 44.0341796875
21.8115234375 -28.8427734375 -54.000244140625
10.37060546875 13.293701171875 0.40087890625
22.690185546875 -31.898681640625 -35.94091796875
8.654296875 -18.54833984375 43.010009765625
1.334716796875 25.2158203125 -45.943359375
21.920166015625 -41.631591796875 77.863525390625
-11.276611328125 -34.052490234375 49.9697265625
-29.311279296875 -2.23876953125 48.7939453125
20.26416015625 -5.490478515625 44.465576171875
40.067138671875 20.878173828125 -50.316162109375
11.709716796875 -52.07080078125 -32.735595703125
26.77294921875 -16.380859375 -31.38720703125
21.781494140625 -9.627197265625 45.662841796875
12.856689453125 -14.01708984375 -47.51513671875
19.489990234375 -0.48486328125 48.00634765625
7.78515625 16.79736328125 -24.798095703125
14.136962890625 -37.084716796875 -25.024658203125
21.20068359375 -29.398681640625 71.595947265625
3.301025390625 -34.862060546875 -42.5283203125
-24.066650390625 -11.756103515625 23.3544921875
15.533935546875 28.415283203125 -57.787841796875
-12.249267578125 9.89111328125 19.746337890625
25.990478515625 -24.80859375 -31.545654296875
-1.700439453125 -38.68017578125 55.335693359375
21.577880859375 -42.353515625 -40.4521484375
-5.48779296875 -34.443603515625 22.696533203125
-17.276123046875 -37.146728515625 51.279296875
-0.932373046875 5.6220703125 34.334228515625
22.405517578125 -37.720458984375 -38.980712890625
20.371826171875 -23.111328125 -25.179443359375
-17.60009765625 -9.760986328125 30.950927734375
32.315673828125 -0.50390625 -24.8466796875
19.79638671875 -64.197265625 74.23291015625
12.12890625 -36.9287109375 -26.711181640625
18.983154296875 -28.688720703125 -52.0693359375
-0.158935546875 4.3291015625 37.7236328125
24.633544921875 -52.32861328125 12.84228515625
20.964111328125 -36.927490234375 -32.56396484375
12.408935546875 -34.333984375 -42.54931640625
11.716064453125 -39.9072265625 -27.39208984375
36.84619140625 -5.049072265625 -39.72509765625
20.423095703125 22.1328125 -32.483642578125
-0.7099609375 -36.875 53.044189453125
-10.411376953125 -20.130126953125 43.587890625
2.6396484375 -18.7021484375 43.506591796875
-6.70556640625 3.303955078125 41.72021484375
-4.852294921875 3.703125 39.825927734375
21.685302734375 -22.643310546875 71.134521484375
8.334716796875 26.60791015625 -48.363037109375
-16.664306640625 -3.91455078125 21.47607421875
-8.076904296875 21.588623046875 -33.9814453125
-0.57861328125 17.81005859375 -28.495849609375
2.206787109375 20.88525390625 -28.8369140625
23.939208984375 -18.6533203125 -44.39208984375
18.5234375 0.399658203125 -0.741455078125
18.608154296875 2.971923828125 -8.38623046875
17.13818359375 4.164306640625 -50.03271484375
18.192138671875 20.271484375 -20.666259765625
-19.056396484375 -3.813720703125 44.808837890625
20.515625 -32.95751953125 68.60302734375
3.278076171875 -37.259765625 54.072265625
17.419189453125 -11.11181640625 -51.668212890625
23.990966796875 -22.12109375 -46.08349609375
-5.188720703125 -37.988525390625 54.439208984375
7.99560546875 -25.94921875 -48.125
20.696533203125 -8.070068359375 43.87060546875
21.303466796875 -32.050048828125 -30.733642578125
19.698486328125 -34.01806640625 51.956298828125
18.048828125 -14.703369140625 -45.727294921875
-0.170166015625 3.14208984375 43.113525390625
7.97021484375 3.25830078125 40.514892578125
21.18505859375 6.461669921875 -10.636474609375
-14.780029296875 -29.7646484375 11.943603515625
21.582275390625 1.471435546875 1.534423828125
-5.690185546875 6.0478515625 30.60546875
21.444091796875 -35.158203125 -22.78857421875
31.760498046875 0.00390625 -42.49609375
14.196044921875 -51.7265625 -33.171630859375
8.3310546875 8.002197265625 26.20361328125
16.724365234375 -61.4765625 21.55322265625
21.476318359375 -24.119140625 65.76953125
-2.3984375 19.834716796875 -28.0419921875
-17.873046875 -1.294921875 30.228271484375
-17.962890625 1.929931640625 34.509521484375
8.251953125 -32.845703125 -41.212158203125
11.617431640625 5.286376953125 38.686767578125
-6.80615234375 -32.27587890625 47.986083984375
37.6806640625 -7.928466796875 -35.725830078125
-1.646240234375 -19.056396484375 42.795654296875
16.160888671875 15.6806640625 -3.31787109375
5.427490234375 -31.673583984375 -42.190673828125
-1.0205078125 23.17333984375 -38.168212890625
20.927978515625 -27.898193359375 -31.70361328125
8.552734375 -50.9765625 -35.793701171875
13.972412109375 25.3779296875 -43.758056640625
30.435791015625 -4.7763671875 -42.348388671875
28.0400390625 -16.059814453125 -61.06494140625
-20.572265625 -38.878173828125 67.073974609375
-18.999267578125 -3.53173828125 26.3173828125
26.067626953125 -11.552001953125 -56.434814453125
14.4130859375 3.6845703125 45.974609375
-17.36962890625 0.614501953125 21.329345703125
-9.0615234375 4.570556640625 36.68115234375
-10.2548828125 -38.33154296875 54.796875
35.897216796875 -18.8193359375 -26.39990234375
24.883544921875 -55.72216796875 4.2177734375
-18.10595703125 -7.249755859375 25.290771484375
28.34228515625 -8.08447265625 -58.544921875
27.476806640625 -1.2998046875 -43.37548828125
17.925048828125 22.2373046875 -31.46484375
19.79931640625 -62.29736328125 79.749755859375
19.42919921875 -14.426513671875 44.76220703125
-13.834228515625 2.3603515625 43.797119140625
10.0380859375 -18.68017578125 -50.12255859375
-14.3134765625 -34.89111328125 47.94384765625
16.465087890625 23.704345703125 -35.80615234375
-24.68994140625 -12.941162109375 25.4111328125
21.279296875 -28.031494140625 -19.01953125
8.0048828125 23.0419921875 -35.63720703125
24.3203125 -3.85791015625 -50.388671875
2.6552734375 9.118408203125 21.01318359375
22.206787109375 -27.608154296875 63.2138671875
21.3291015625 -58.605224609375 9.315185546875
27.7392578125 -20.326171875 -36.626708984375
0.969482421875 6.0361328125 32.384033203125
2.88134765625 -30.999755859375 -45.718505859375
19.855712890625 -71.756591796875 67.631591796875
-17.8603515625 -3.4111328125 35.21044921875
21.18310546875 -54.515625 17.205322265625
21.474365234375 -32.242431640625 -26.886962890625
11.276611328125 -46.710693359375 -35.987060546875
14.116455078125 -18.4248046875 42.97314453125
7.036376953125 3.227294921875 32.914794921875
20.54248046875 -36.77685546875 72.69482421875
1.0068359375 -33.37255859375 50.098388671875
-8.38525390625 -27.76513671875 43.031494140625
10.638427734375 -38.303955078125 -25.385986328125
8.760986328125 7.1923828125 30.877685546875
16.720703125 -22.58203125 35.440673828125
19.49072265625 -27.18115234375 23.04833984375
11.67138671875 -24.20751953125 -52.07861328125
-1.6640625 8.538818359375 21.409423828125
1.67236328125 23.9013671875 -42.287353515625
31.58642578125 -1.400634765625 -20.883544921875
28.259765625 -24.783447265625 -46.79638671875
-10.083251953125 19.11181640625 -35.42236328125
19.848876953125 -38.74853515625 81.710205078125
21.035400390625 -21.125732421875 -47.608642578125
20.202880859375 -59.342041015625 80.625732421875
23.220458984375 -27.372802734375 60.123046875
16.7412109375 -24.1640625 -55.48828125
21.820556640625 -22.953125 -49.426513671875
27.54638671875 -20.409912109375 -26.781494140625
40.953857421875 20.27392578125 -53.36962890625
-10.754150390625 -21.9814453125 76.7548828125
21.390869140625 -18.031005859375 -14.56396484375
20.44970703125 -37.037353515625 66.159423828125
21.013427734375 5.410888671875 -8.302978515625
29.942626953125 2.08935546875 -42.162353515625
-14.085205078125 -25.171142578125 11.69140625
-19.8251953125 -26.553466796875 77.983154296875
19.823486328125 -72.72021484375 74.01904296875
16.610107421875 13.538818359375 4.786376953125
10.710205078125 3.717041015625 44.77001953125
-2.962158203125 2.3564453125 46.650634765625
40.679443359375 24.781982421875 -56.189453125
18.936279296875 -51.53857421875 -34.37744140625
26.102783203125 -20.80615234375 -39.8203125
-4.837646484375 -31.85693359375 26.62841796875
-6.31884765625 7.091796875 26.6083984375
8.505126953125 -59.1533203125 20.89111328125
14.400390625 11.03515625 15.873291015625
26.579833984375 -8.136962890625 -55.793212890625
10.752685546875 -27.44189453125 -48.24267578125
-11.912353515625 -31.823486328125 45.942626953125
12.984375 -34.74365234375 46.454833984375
20.629150390625 1.313232421875 -1.401611328125
17.175537109375 -18.337890625 -46.021484375
33.951416015625 -9.02978515625 -35.42333984375
-14.505859375 -24.984375 6.830810546875
25.83349609375 -28.090576171875 -50.469482421875
19.745849609375 -28.818115234375 69.21826171875
35.241943359375 -15.2373046875 -29.414794921875
26.40380859375 -11.715087890625 -42.68896484375
23.995361328125 -22.92431640625 64.4609375
-20.45263671875 -10.931884765625 25.865478515625
8.469482421875 -45.381591796875 -39.35400390625
24.31103515625 -8.477294921875 -51.424072265625
9.32421875 -33.1953125 48.9609375
-4.79052734375 22.154296875 -34.752685546875
25.6787109375 -53.974609375 8.37744140625
19.99462890625 -45.036376953125 -41.3349609375
27.522705078125 -19.93408203125 -34.164794921875
11.00146484375 -10.857666015625 -49.98779296875
-16.3046875 2.9892578125 33.1552734375
21.020751953125 -23.5419921875 -20.10791015625
5.789306640625 21.558837890625 -43.135009765625
-15.2998046875 -29.147705078125 8.183837890625
-16.174072265625 2.599609375 40.7900390625
9.3115234375 -38.869873046875 -37.945556640625
8.22900390625 -28.572265625 44.518798828125
3.555908203125 -38.82666015625 -35.726318359375
-4.888427734375 -21.84814453125 76.81884765625
17.024169921875 -29.07861328125 -50.898193359375
7.44873046875 18.219482421875 -21.84033203125
3.187744140625 3.998291015625 41.54833984375
19.8642578125 -69.289794921875 67.899169921875
25.748779296875 -19.29638671875 -35.54345703125
-26.889404296875 -2.31640625 51.156982421875
-15.31298828125 -7.5244140625 17.53564453125
9.9052734375 -16.70947265625 -47.12890625
15.29833984375 23.28173828125 -33.674560546875
-6.15380859375 -24.991943359375 67.38916015625
24.512451171875 -3.513916015625 -45.92431640625
28.93798828125 -10.829345703125 -35.69970703125
26.1845703125 -26.7373046875 -32.7802734375
4.642822265625 22.02880859375 -33.206298828125
21.01611328125 -54.3984375 13.605224609375
16.78076171875 26.459716796875 -48.541748046875
21.912353515625 -25.14794921875 -16.885009765625
19.94140625 -13.40673828125 -45.68994140625
33.718017578125 -1.62646484375 -27.0634765625
15.18310546875 21.33203125 -26.349853515625
27.986083984375 -21.67431640625 -31.635498046875
11.26806640625 -23.61279296875 42.946533203125
21.505615234375 22.658935546875 -27.899658203125
7.970458984375 -54.513916015625 -34.02392578125
-29.30712890625 -4.008056640625 53.1005859375
20.378173828125 -31.19091796875 76.493896484375
-0.780517578125 23.743408203125 -40.6259765625
23.113037109375 -21.5595703125 -21.9267578125
35.112060546875 -3.210693359375 -41.780517578125
31.625244140625 -8.211669921875 -35.21435546875
6.735107421875 -30.295166015625 46.703857421875
-21.956787109375 -11.0419921875 27.576904296875
-18.64892578125 -9.996826171875 21.86865234375
16.3662109375 -28.341064453125 53.826904296875
-8.64697265625 -29.20166015625 44.7822265625
40.852783203125 25.030517578125 -62.199462890625
1.9638671875 19.43994140625 -26.396728515625
25.179931640625 0.24658203125 -50.09423828125
-16.865234375 3.45068359375 18.789794921875
25.5439453125 -20.91455078125 -42.22998046875
14.05322265625 -12.248779296875 -52.716064453125
4.22412109375 7.439208984375 26.875
-0.958984375 -31.072998046875 46.99609375
24.303955078125 2.2392578125 -45.91357421875
-13.40380859375 -14.3359375 12.719482421875
21.091064453125 4.67431640625 -12.091064453125
36.89404296875 -4.473876953125 -34.6435546875
-12.57568359375 0.30029296875 47.72900390625
15.034912109375 20.269287109375 -22.3681640625
-2.589111328125 7.0107421875 27.670654296875
-20.619873046875 -45.696044921875 59.11328125
16.988037109375 -36.568603515625 -44.2080078125
28.786865234375 -9.66552734375 -60.091796875
21.9580078125 -34.02685546875 -35.818115234375
5.114990234375 24.862060546875 -46.547607421875
21.2216796875 -57.320556640625 4.999267578125
6.562255859375 21.6943359375 -37.108154296875
14.53515625 -45.444091796875 -33.08349609375
21.2001953125 -52.05908203125 -33.401123046875
3.468505859375 -36.710693359375 -38.004150390625
9.752685546875 20.40380859375 -21.169189453125
-16.907470703125 -7.131591796875 36.6201171875
-18.512451171875 -39.5087890625 52.83837890625
-14.0029296875 -16.072265625 43.63232421875
21.21533203125 -16.92724609375 29.245361328125
-9.076171875 3.357421875 40.620361328125
24.932373046875 -4.264892578125 -52.670166015625
-13.76806640625 -36.1787109375 51.962646484375
21.428955078125 3.666748046875 -3.218505859375
25.89501953125 -32.31884765625 -46.86181640625
13.44140625 -24.379150390625 -53.680419921875
36.06201171875 -6.785888671875 -32.1533203125
23.662109375 -55.421142578125 6.239990234375
33.263671875 -18.623779296875 -27.072021484375
4.34130859375 -20.136962890625 43.82177734375
-10.90576171875 2.361328125 44.44921875
21.121337890625 -45.5615234375 82.932861328125
5.515625 -27.94775390625 -45.255859375
7.156982421875 -47.580810546875 -38.71435546875
8.331787109375 10.19970703125 12.4892578125
-21.517333984375 -24.31689453125 75.3857421875
23.854736328125 -15.703125 -39.78369140625
22.3916015625 -26.778076171875 -54.567626953125
28.33447265625 -32.11962890625 -43.697998046875
24.18310546875 -16.33984375 -35.45703125
18.697509765625 2.84619140625 -5.781005859375
2.01025390625 -36.006103515625 52.470947265625
11.366943359375 8.11376953125 28.377197265625
-7.023681640625 -40.716064453125 57.8818359375
-4.81884765625 -29.91650390625 45.869873046875
23.551513671875 -33.443603515625 -45.369384765625
11.908203125 20.28173828125 -22.447265625
15.5400390625 0.51611328125 -2.069091796875
19.763916015625 -37.3154296875 -44.87451171875
31.3037109375 4.046630859375 -40.531982421875
15.025634765625 17.228271484375 -8.2802734375
-10.24658203125 19.015380859375 -31.41650390625
13.482666015625 -41.1494140625 -31.731689453125
-17.471435546875 -6.090576171875 38.93408203125
15.289794921875 -22.281982421875 -54.21435546875
17.078369140625 -43.80419921875 -42.332763671875
11.93896484375 -15.81396484375 -46.6513671875
20.73388671875 -35.260009765625 71.021484375
-15.8740234375 -23.51513671875 78.150390625
28.570556640625 -24.913330078125 -42.384521484375
20.9404296875 -38.66845703125 -34.788818359375
-16.88671875 -43.0380859375 59.982421875
20.90771484375 -12.219482421875 34.65966796875
-1.3251953125 0.91796875 47.932373046875
17.9677734375 -32.27099609375 53.50927734375
9.0419921875 25.22998046875 -44.444091796875
-18.634765625 -1.418212890625 40.04248046875
12.6474609375 24.30615234375 -39.192626953125
27.638427734375 -23.795654296875 -36.991943359375
20.5771484375 -27.879150390625 73.734619140625
7.208984375 -29.233642578125 -44.427734375
35.19091796875 -12.840087890625 -29.475830078125
21.4208984375 -33.1376953125 -21.162841796875
16.42431640625 -41.24072265625 -23.41943359375
28.22314453125 -8.46337890625 -38.03564453125
29.351806640625 -6.410888671875 -37.92529296875
18.308349609375 23.186767578125 -37.3828125
0.5224609375 21.876708984375 -31.77197265625
10.76953125 -34.20654296875 -41.09716796875
20.990234375 -30.111328125 -19.809326171875
10.821533203125 27.102294921875 -50.620361328125
18.674560546875 -38.1298828125 -23.1728515625
14.801025390625 12.0458984375 12.451904296875
21.016357421875 -31.921630859375 -47.8896484375
21.488525390625 -51.449951171875 16.786865234375
10.22705078125 -41.758056640625 -26.050048828125
14.142578125 9.594482421875 22.21044921875
13.758056640625 7.69775390625 29.59375
20.87744140625 -27.550048828125 67.885009765625
40.940185546875 23.2451171875 -54.619140625
8.61572265625 -51.463623046875 26.084228515625
13.884033203125 -27.25927734375 -51.658203125
30.490234375 -14.539794921875 -61.493896484375
15.65283203125 -43.507568359375 -34.6904296875
21.361083984375 -26.5654296875 -25.877685546875
-22.335693359375 -26.39501953125 75.670166015625
-0.638916015625 6.44970703125 30.6376953125
19.203125 22.043701171875 -29.234375
10.476806640625 8.107177734375 26.068115234375
-12.3056640625 -17.975830078125 9.913818359375
7.271728515625 9.791015625 18.40380859375
12.73681640625 11.458984375 14.08203125
8.712890625 -53.051025390625 24.55078125
21.020263671875 -60.180419921875 3.678955078125
-17.347900390625 -3.65234375 31.408447265625
23.41015625 -54.03369140625 9.59521484375
22.611083984375 -10.507080078125 -50.453125
16.042236328125 -29.50390625 -48.830810546875
23.520263671875 -28.115234375 -31.045654296875
-21.166015625 -30.5283203125 75.1591796875
25.0947265625 -7.453369140625 -45.7353515625
23.865966796875 -19.14404296875 -38.52978515625
-7.35986328125 -27.387451171875 39.292724609375
21.581298828125 -60.3515625 7.595458984375
-9.74755859375 -29.54736328125 42.705322265625
-18.704833984375 -8.021728515625 32.22119140625
-2.78076171875 23.34912109375 -39.365234375
28.599853515625 -9.553466796875 -64.712158203125
-1.290283203125 4.475341796875 39.5244140625
16.884033203125 -44.751708984375 -36.881103515625
21.18115234375 -20.384765625 -17.59765625
16.06201171875 16.277099609375 -5.9013671875
9.426513671875 16.560302734375 -22.37939453125
-12.763427734375 1.84130859375 45.875
19.96240234375 -24.873046875 26.133544921875
21.350341796875 -30.9130859375 -21.756591796875
9.962646484375 9.01708984375 22.91015625
-18.226318359375 -8.29052734375 23.446533203125
-4.63671875 -19.275390625 42.601318359375
12.355224609375 4.796630859375 40.613037109375
4.208251953125 22.05322265625 -36.70068359375
20.340087890625 -2.94873046875 44.217529296875
11.51611328125 -30.12451171875 -45.356689453125
18.60693359375 21.7861328125 -25.97607421875
-4.558837890625 -24.816650390625 38.48974609375
5.97607421875 21.645263671875 -31.607421875
21.664306640625 -22.742919921875 61.25634765625
-4.0146484375 8.321044921875 22.263671875
15.996337890625 4.009033203125 43.38037109375
10.44873046875 -40.051025390625 -29.140625
-16.892333984375 -1.89697265625 22.06201171875
29.328857421875 -9.1767578125 -31.546630859375
11.69287109375 -13.27587890625 -49.3955078125
13.594482421875 19.7314453125 -19.512939453125
7.46728515625 25.286865234375 -45.85400390625
11.11572265625 -64.907958984375 16.547119140625
-12.064697265625 6.456787109375 27.6904296875
24.97509765625 0.15576171875 -45.860107421875
-2.244384765625 8.07958984375 23.3818359375
6.012939453125 9.4033203125 15.869873046875
-12.80615234375 7.65478515625 22.78759765625
19.421875 -63.056884765625 21.711181640625
-4.410888671875 20.322998046875 -28.45947265625
4.294189453125 20.971435546875 -27.92529296875
-17.96630859375 -5.55908203125 21.606689453125
10.4921875 13.60986328125 4.44189453125
-12.25927734375 -41.758056640625 58.4130859375
19.004150390625 -31.98388671875 -47.285888671875
22.03125 -40.33251953125 -42.664794921875
18.685546875 -16.659912109375 43.990234375
21.376708984375 -33.5068359375 -25.056884765625
-14.88720703125 6.807373046875 24.48828125
18.589111328125 -61.197998046875 20.64501953125
-7.138671875 21.138916015625 -31.518798828125
-29.213134765625 -4.08935546875 50.701171875
10.46923828125 18.73974609375 -18.470947265625
-14.670166015625 -7.51123046875 14.47509765625
-24.494384765625 -13.03662109375 21.76123046875
19.335205078125 -35.289306640625 -45.139892578125
33.9755859375 -3.126708984375 -25.53125
-18.27783203125 -3.145751953125 37.94091796875
-7.10595703125 22.73583984375 -38.203857421875
21.4638671875 -35.721923828125 -34.18359375
12.67626953125 15.644775390625 -2.614501953125
23.57666015625 -27.046630859375 -52.6474609375
-6.685546875 18.923583984375 -28.04150390625
6.109375 2.97021484375 46.692138671875
21.00634765625 -56.340087890625 14.79345703125
27.900390625 -24.52001953125 -38.921630859375
-21.201416015625 -33.755859375 70.39501953125
-4.29638671875 5.7568359375 32.48876953125
21.064208984375 -22.241943359375 69.1689453125
5.22607421875 -34.32421875 51.00732421875
24.5048828125 -14.032958984375 -32.3974609375
14.72216796875 -40.41552734375 -24.271240234375
-15.926025390625 5.50146484375 25.875244140625
19.772216796875 -15.8310546875 34.742431640625
12.16845703125 14.6728515625 0.975341796875
26.100341796875 1.82177734375 -42.290283203125
21.7275390625 -52.94140625 11.904052734375
16.51123046875 4.950927734375 41.491455078125
7.184326171875 -20.21923828125 44.19580078125
27.893798828125 -25.22314453125 -33.708740234375
22.36474609375 -25.107177734375 -29.041748046875
2.6064453125 21.978271484375 -38.611572265625
9.337890625 -25.101318359375 -49.944580078125
19.768798828125 -70.31689453125 76.233642578125
16.65478515625 -36.09375 -27.771728515625
-12.661865234375 4.37353515625 36.06689453125
16.178955078125 24.13525390625 -37.801513671875
25.595458984375 -14.205078125 -65.50830078125
20.79931640625 -40.9609375 79.455322265625
9.72607421875 -10.520263671875 -51.754638671875
9.058349609375 -42.7529296875 -38.199462890625
14.048828125 -13.223876953125 -49.7666015625
-0.6787109375 21.086181640625 -29.592529296875
22.3154296875 -11.917724609375 -46.075439453125
9.273193359375 -57.755126953125 22.835693359375
-16.87841796875 2.238525390625 36.549072265625
11.593994140625 12.42333984375 10.32421875
16.913330078125 -33.5810546875 46.52197265625
14.072998046875 26.796875 -48.411865234375
-36.945556640625 -4.1123046875 54.783935546875
-17.90478515625 -23.060791015625 78.1708984375
-13.9423828125 5.304931640625 31.181640625
11.345458984375 28.160400390625 -54.54833984375
10.751708984375 6.7255859375 32.871337890625
11.5244140625 -25.885986328125 41.937744140625
11.740966796875 11.0302734375 15.89111328125
19.972412109375 -11.606689453125 43.185791015625
21.305908203125 -21.560791015625 -20.984130859375
-19.118896484375 -44.3759765625 56.481689453125
-15.898681640625 -39.7392578125 56.1748046875
-0.640869140625 7.564453125 26.1376953125
22.00732421875 -21.69287109375 -24.92138671875
28.994140625 -17.466552734375 -30.93896484375
-14.48486328125 -10.310546875 15.467529296875
20.186279296875 -35.460205078125 77.943115234375
10.154052734375 4.12744140625 34.958984375
28.669921875 -18.3662109375 -26.671630859375
2.0869140625 -36.775390625 -39.652587890625
13.162841796875 -41.074462890625 -40.126953125
20.046875 -8.059814453125 45.7880859375
11.9755859375 -53.571044921875 -31.18798828125
-17.700439453125 -1.056640625 26.14306640625
-7.23828125 9.04638671875 19.78125
-14.075927734375 -31.592529296875 11.4404296875
26.762451171875 -31.70458984375 -38.280029296875
-5.29296875 -30.335205078125 25.379150390625
10.6396484375 -28.553955078125 44.738037109375
19.419921875 -35.58740234375 -26.161865234375
2.372314453125 22.19287109375 -33.416259765625
25.091796875 -35.979736328125 -42.528076171875
-16.87060546875 -3.211669921875 46.439208984375
28.61669921875 4.79296875 -43.982421875
27.5302734375 -11.4716796875 -67.31884765625
1.125244140625 -37.397216796875 53.6923828125
-17.55615234375 -11.395263671875 32.478515625
24.090087890625 -20.660400390625 -44.46337890625
32.031494140625 -12.9365234375 -28.557373046875
34.748779296875 -6.873291015625 -38.464599609375
40.154541015625 21.771484375 -57.38916015625
25.538330078125 -11.698974609375 -29.962890625
-19.734375 -42.392578125 56.331787109375
31.087646484375 -18.807861328125 -26.963134765625
22.6357421875 -29.270263671875 -49.98095703125
20.602294921875 -32.423583984375 64.2294921875
24.6650390625 -10.359130859375 -54.037109375
31.908935546875 3.041748046875 -43.302978515625
9.257568359375 -19.9755859375 44.62939453125
21.90380859375 -70.4248046875 64.185791015625
2.66259765625 7.06689453125 28.086669921875
5.525634765625 24.372314453125 -44.64990234375
19.708984375 -67.4794921875 78.394287109375
18.48046875 -24.39208984375 29.742919921875
21.670654296875 -55.596435546875 6.179931640625
11.25048828125 -30.43310546875 46.398681640625
8.577392578125 -60.44580078125 17.748046875
-27.458251953125 -4.941650390625 55.93701171875
21.227294921875 -36.338623046875 -20.870361328125
-15.344482421875 -27.458251953125 6.58447265625
-10.721923828125 6.749267578125 26.12744140625
14.5341796875 5.0263671875 40.964599609375
-18.206787109375 -9.04931640625 27.446044921875
21.178466796875 -47.66015625 57.40380859375
11.171142578125 4.517578125 42.45458984375
13.32421875 16.677001953125 -7.39990234375
29.077392578125 -28.779052734375 -49.15380859375
22.980712890625 -25.748779296875 63.01025390625
-15.98974609375 6.177734375 21.441162109375
20.648681640625 -33.00830078125 75.555908203125
17.0498046875 27.9658203125 -52.815673828125
27.98583984375 35.42431640625 -60.46435546875
30.91748046875 -15.056884765625 -30.37255859375
25.265869140625 -10.8095703125 -44.044921875
-20.95361328125 -36.40234375 69.488525390625
-8.2509765625 20.605712890625 -29.9609375
35.760498046875 -8.12646484375 -35.259765625
20.838134765625 -26.277099609375 -56.16357421875
23.110107421875 -51.754638671875 13.973876953125
6.906494140625 -39.078125 -36.966796875
-5.720458984375 -35.44970703125 51.274658203125
15.791748046875 -48.526611328125 -33.4970703125
26.568359375 -23.632080078125 -46.53271484375
18.02685546875 2.943359375 -48.482177734375
28.03466796875 -28.623046875 -45.308837890625
19.556640625 -39.01416015625 79.609375
-8.947265625 5.732177734375 32.642822265625
2.29736328125 -28.718017578125 44.93408203125
15.7060546875 14.949951171875 -0.297119140625
20.74951171875 -23.964111328125 76.04638671875
14.177490234375 8.788818359375 25.23583984375
18.327880859375 -21.469482421875 35.19091796875
5.19482421875 25.696533203125 -48.335205078125
15.5712890625 -17.137939453125 -46.95556640625
26.3935546875 -33.69775390625 -40.22119140625
11.685302734375 13.294189453125 6.0947265625
12.759765625 27.4462890625 -52.378662109375
17.8095703125 23.1279296875 -22.09033203125
38.6162109375 19.425537109375 -55.399658203125
-17.47900390625 3.98876953125 31.1025390625
21.171142578125 -28.625 -33.601318359375
-13.629638671875 -18.72509765625 41.575439453125
27.149658203125 -3.043212890625 -44.76513671875
13.817626953125 -29.417724609375 -48.018798828125
16.42822265625 2.886962890625 47.010986328125
-5.4140625 5.05810546875 34.35791015625
-19.813720703125 -43.801513671875 60.288818359375
12.178466796875 20.84619140625 -24.873046875
13.05908203125 -21.254638671875 -53.396240234375
11.359130859375 21.798828125 -30.229736328125
-12.301025390625 -20.28955078125 41.144287109375
-8.80419921875 22.36083984375 -36.64892578125
27.859375 -12.449951171875 -40.455810546875
-18.753173828125 -0.51708984375 42.47314453125
29.344482421875 -5.51611328125 -39.667724609375
21.292236328125 -49.545166015625 -31.828369140625
29.374755859375 -3.62109375 -44.35888671875
-19.429931640625 -37.602294921875 70.33251953125
-18.15087890625 1.06982421875 29.344482421875
11.1416015625 24.170166015625 -41.22314453125
29.364990234375 -29.09716796875 -39.433837890625
-2.90380859375 -26.47119140625 41.775390625
21.0078125 -60.75244140625 9.68603515625
21.89599609375 -41.55615234375 -37.835693359375
10.126708984375 -24.993408203125 40.42333984375
-16.512939453125 -1.358154296875 17.72314453125
25.13720703125 -24.193115234375 -29.143310546875
9.215576171875 -62.632080078125 14.18359375
-19.14697265625 -45.626953125 60.870361328125
8.590087890625 -50.512939453125 29.651123046875
31.65087890625 -19.660400390625 -24.572509765625
30.283935546875 -9.966552734375 -34.588134765625
32.682861328125 -9.36328125 -33.21044921875
3.26708984375 9.687255859375 17.99658203125
-17.621826171875 0.45263671875 36.74462890625
-13.441650390625 -20.377197265625 11.9873046875
-2.884033203125 -29.560546875 45.3876953125
29.017822265625 -11.3681640625 -59.064697265625
15.368896484375 6.247314453125 34.910888671875
22.796142578125 -54.8896484375 7.96533203125
10.1279296875 11.666015625 12.023193359375
25.090087890625 0.181640625 -42.510986328125
17.82568359375 -36.727294921875 -24.20654296875
10.431396484375 -28.564453125 -46.17333984375
11.258056640625 -20.02587890625 44.1669921875
24.983154296875 -5.376708984375 -46.858642578125
29.697998046875 0.18017578125 -42.461181640625
28.361083984375 -6.531982421875 -59.787353515625
-18.57373046875 -6.26025390625 27.59716796875
32.845703125 -1.6767578125 -42.21240234375
7.324951171875 -32.666259765625 49.37939453125
21.22900390625 -41.298095703125 -44.87451171875
17.00048828125 4.902587890625 39.201171875
-1.561279296875 -39.9580078125 56.771484375
7.152587890625 -34.30322265625 -39.617431640625
-17.917724609375 -11.10009765625 29.2998046875
21.519287109375 -30.953369140625 -34.3935546875
19.890625 -17.373779296875 31.75927734375
-18.124755859375 -42.27197265625 63.66796875
12.458251953125 8.46875 26.544921875
-17.20556640625 -5.850830078125 33.860107421875
13.785400390625 12.542236328125 10.14306640625
4.421630859375 -33.306640625 -42.410400390625
21.1640625 -58.360595703125 7.269775390625
21.484619140625 -33.3056640625 -28.560546875
-16.410888671875 0.481201171875 45.38671875
17.48095703125 20.59375 -24.98291015625
4.342041015625 6.8837890625 29.29052734375
-14.69287109375 7.30419921875 22.32958984375
28.0576171875 -32.234619140625 -45.803466796875
31.710693359375 -10.1572265625 -30.6669921875
6.4501953125 -46.67578125 -41.02099609375
8.196533203125 21.564453125 -28.04248046875
17.70068359375 -21.60400390625 -51.088623046875
20.0078125 -39.4365234375 83.518310546875
28.877197265625 -31.01025390625 -41.278564453125
31.331298828125 -6.85400390625 -37.300048828125
20.77880859375 -24.610107421875 60.10546875
-7.327392578125 1.948486328125 47.040771484375
10.889404296875 23.60009765625 -37.07275390625
6.393310546875 21.391845703125 -33.621826171875
16.531982421875 28.07080078125 -54.648681640625
8.116455078125 20.640869140625 -23.580078125
22.123779296875 -18.098388671875 -44.568115234375
20.897216796875 -11.09228515625 -49.50537109375
-21.25732421875 -10.6005859375 23.51123046875
-9.390625 -35.9853515625 51.5966796875
17.641845703125 4.97314453125 44.06982421875
13.674560546875 -16.994384765625 -47.013671875
27.672119140625 -22.64404296875 -29.059814453125
42.4033203125 21.416259765625 -52.90869140625
-3.761962890625 20.964111328125 -30.1455078125
21.4423828125 -56.662109375 3.158935546875
17.15283203125 24.809814453125 -40.909912109375
10.114013671875 11.800537109375 5.3525390625
24.448974609375 -9.799072265625 -46.261962890625
27.484375 -14.108642578125 -64.811767578125
25.9921875 -30.530029296875 -48.767578125
19.704833984375 -68.82080078125 74.228759765625
0.45166015625 -28.646484375 44.328857421875
-7.00390625 -38.390625 54.826171875
14.764404296875 2.040771484375 -50.173828125
20.209228515625 -10.837890625 40.506591796875
13.3408203125 18.74267578125 -15.492919921875
28.27685546875 -26.16064453125 -45.010009765625
-17.225830078125 4.05615234375 24.025146484375
15.57958984375 -35.10400390625 47.091796875
13.7607421875 6.305419921875 36.079345703125
23.2607421875 -13.547119140625 -45.694580078125
17.41552734375 -18.041015625 42.544189453125
16.36279296875 25.3525390625 -43.04638671875
-7.13134765625 6.62890625 28.2509765625
21.113525390625 -56.827880859375 9.920654296875
15.080322265625 21.95068359375 -29.02685546875
-14.540283203125 -22.2939453125 76.225830078125
9.04443359375 21.380859375 -40.41552734375
-17.22412109375 -10.673583984375 20.243408203125
14.7421875 -36.453857421875 -26.695556640625
3.003173828125 -30.21044921875 46.4765625
42.94921875 22.238037109375 -54.56591796875
11.49755859375 4.646240234375 -3.241455078125
20.302978515625 -31.58203125 74.251953125
