10.30224609375 -61.486572265625 -12.61767578125
-5.88720703125 -32.261962890625 43.333740234375
-16.15087890625 -0.742431640625 21.037353515625
21.0126953125 -14.60791015625 35.30419921875
3.369140625 5.251220703125 39.484375
8.60400390625 29.6044921875 -58.4931640625
23.016357421875 -2.161865234375 28.219970703125
22.444580078125 3.439453125 -62.95361328125
13.998046875 -11.290771484375 -54.91064453125
-17.1640625 -25.5390625 24.681396484375
-3.3583984375 -26.0830078125 25.565673828125
6.149658203125 2.101806640625 38.9306640625
14.27685546875 10.189453125 18.77294921875
19.920654296875 -52.700439453125 -16.29931640625
-0.10595703125 -26.111083984375 36.757080078125
-8.97509765625 4.59375 39.416259765625
22.308349609375 -7.3955078125 18.737060546875
-23.99609375 -11.76220703125 36.1640625
19.675537109375 -28.177978515625 -64.2587890625
14.109619140625 23.613037109375 -34.930419921875
-15.30322265625 -38.031005859375 50.234375
-15.60693359375 5.59521484375 13.686279296875
-2.0390625 10.41552734375 15.33251953125
12.3779296875 -23.012451171875 31.295166015625
20.10888671875 25.824462890625 -46.76025390625
16.22802734375 -8.327392578125 -61.362548828125
-13.91162109375 -9.29833984375 33.101806640625
8.493896484375 12.459716796875 3.6826171875
15.52490234375 7.5087890625 -60.44921875
-8.701171875 -27.878662109375 66.34619140625
16.371826171875 8.325927734375 26.0517578125
18.589111328125 -30.139404296875 -56.92431640625
-16.8515625 -38.721435546875 58.049560546875
18.191162109375 2.241455078125 36.548095703125
8.727783203125 31.252197265625 -64.428955078125
15.17041015625 19.3642578125 -17.613037109375
-6.953857421875 8.828125 21.3681640625
-5.07666015625 6.76025390625 30.26611328125
13.161865234375 -50.83251953125 -23.471923828125
12.7158203125 9.65625 -78.16357421875
-4.131103515625 -26.19775390625 66.206787109375
3.44140625 24.00537109375 -37.98046875
15.89697265625 -47.40869140625 -14.834716796875
1.87060546875 6.5546875 32.3056640625
20.263427734375 -48.971435546875 -14.988037109375
10.943115234375 -61.0517578125 8.599365234375
4.713623046875 -22.832275390625 31.278076171875
-9.482421875 -21.45556640625 22.576416015625
27.358154296875 8.5908203125 -52.46826171875
-15.53076171875 -34.3408203125 62.926025390625
-15.557861328125 -72.217529296875 65.643310546875
-30.5458984375 -10.7548828125 38.102783203125
22.301513671875 -16.504150390625 16.129150390625
1.091064453125 -9.69091796875 21.368408203125
6.4345703125 -6.7041015625 -73.40283203125
-15.076904296875 -25.097412109375 69.1181640625
23.063232421875 -6.76416015625 33.16796875
14.35302734375 6.83642578125 31.893798828125
-19.010986328125 0.38427734375 36.8759765625
-18.49267578125 -1.08740234375 44.052734375
-0.062744140625 5.128662109375 38.08935546875
8.209228515625 20.35595703125 -30.431884765625
22.789794921875 -3.6279296875 -70.912841796875
2.30712890625 -15.689453125 -63.443603515625
-12.926513671875 -30.251708984375 41.650390625
21.458984375 -6.60107421875 -75.18115234375
-11.945068359375 -14.266845703125 30.002197265625
-18.21484375 -14.8408203125 32.5458984375
19.03369140625 8.253173828125 -75.15234375
25.48095703125 -1.36669921875 -53.024658203125
-12.088623046875 -2.214599609375 39.180419921875
17.056640625 -3.880126953125 -69.849609375
-12.529052734375 -12.572998046875 34.3359375
20.67724609375 -24.24755859375 -61.186767578125
11.574462890625 26.152099609375 -45.27099609375
17.33935546875 16.182373046875 -6.83642578125
-31.90087890625 -5.0341796875 43.2294921875
22.912109375 -17.809814453125 -53.96484375
-2.365966796875 -25.837158203125 29.028076171875
17.1220703125 -17.3984375 26.85205078125
11.0751953125 24.986083984375 -41.40869140625
24.177001953125 5.3994140625 -57.88232421875
11.47998046875 -37.7197265625 -49.440673828125
18.828857421875 3.003173828125 -60.881103515625
-14.560546875 4.819091796875 22.023681640625
10.705322265625 6.601318359375 -60.69287109375
3.63134765625 8.45556640625 26.7236328125
-6.8232421875 -25.474609375 19.260498046875
23.936767578125 -52.434814453125 -9.818603515625
-2.760009765625 8.78125 21.08447265625
15.069580078125 -49.392333984375 -20.67333984375
14.61376953125 27.09814453125 -49.76806640625
-13.701904296875 -20.15625 25.79833984375
20.85888671875 7.741943359375 -21.29345703125
14.817626953125 -58.14697265625 -15.66552734375
-16.204833984375 -29.101318359375 66.624755859375
-5.98779296875 -25.4736328125 35.2890625
-0.615478515625 27.043701171875 -50.1611328125
10.150634765625 -3.51171875 -68.522705078125
21.960693359375 -3.72607421875 -59.549560546875
9.0849609375 4.85107421875 36.6044921875
-0.343017578125 -31.488525390625 18.27490234375
-3.968505859375 -33.082275390625 14.700927734375
8.8837890625 17.547119140625 -23.146484375
-16.158935546875 -17.836669921875 29.42724609375
4.14306640625 9.427978515625 23.386474609375
-6.80859375 -13.078125 36.5859375
11.10595703125 5.427734375 -81.33984375
21.521728515625 -53.894775390625 -13.33056640625
16.466552734375 -53.4931640625 -26.06787109375
6.2919921875 32.288818359375 -67.30126953125
-9.3935546875 -18.56201171875 30.943359375
0.28662109375 29.38623046875 -58.894287109375
15.541259765625 -19.86669921875 -66.515380859375
4.977783203125 -37.9453125 -47.05224609375
-14.53662109375 3.2080078125 33.557373046875
21.45751953125 11.264404296875 -28.720947265625
2.833984375 -2.341552734375 -76.831298828125
23.39306640625 -15.117431640625 -48.721923828125
18.156982421875 6.894287109375 -67.072509765625
10.0009765625 -64.585205078125 4.589599609375
14.033447265625 -47.93505859375 -17.56787109375
0.49365234375 0.681640625 38.378662109375
-3.822021484375 -30.525146484375 22.419677734375
10.05224609375 -10.422119140625 -55.48046875
-17.692626953125 -36.732421875 48.3037109375
-12.651611328125 -67.73779296875 69.053466796875
14.743408203125 -0.06298828125 -65.051025390625
-14.728271484375 -31.5166015625 64.561767578125
6.474609375 10.79638671875 15.5048828125
4.533203125 23.579833984375 -34.888671875
-17.3046875 -40.57177734375 52.73828125
22.665771484375 -3.636474609375 24.5830078125
8.942626953125 7.153564453125 -79.456298828125
10.564208984375 5.56298828125 24.73828125
-0.5322265625 2.949462890625 40.5341796875
-14.98583984375 -19.88525390625 71.150390625
0.311767578125 9.5654296875 18.98779296875
3.241455078125 -32.21337890625 -47.15478515625
-14.2509765625 -33.895751953125 43.186767578125
10.956787109375 -31.6669921875 -49.74072265625
22.981201171875 -0.2578125 31.669921875
19.69873046875 24.682861328125 -41.46337890625
-16.902099609375 -11.62255859375 34.36572265625
-2.607421875 30.8271484375 -64.3388671875
-10.50390625 -36.5673828125 60.667236328125
-1.650146484375 -40.427490234375 56.664794921875
-5.04248046875 21.876708984375 -80.737548828125
25.392333984375 -10.281982421875 -48.793701171875
-13.52978515625 3.332763671875 36.886962890625
-10.33203125 9.778564453125 17.814697265625
15.36181640625 -29.903564453125 -58.733642578125
25.335205078125 -4.5849609375 -53.092041015625
-5.422607421875 27.775146484375 -54.157958984375
-14.7177734375 -38.7265625 54.588134765625
-7.765380859375 -38.800048828125 58.893798828125
14.095458984375 14.70166015625 0.41845703125
17.89990234375 5.0810546875 -58.44384765625
-3.260009765625 -30.384033203125 61.78662109375
-1.01904296875 -37.789794921875 59.1611328125
-14.025390625 -1.8505859375 25.604736328125
7.65087890625 8.697998046875 24.073974609375
-10.792724609375 -18.126220703125 25.354248046875
28.329833984375 -6.643798828125 -78.77734375
-4.9638671875 25.760986328125 -46.748046875
2.22998046875 1.9892578125 -83.40625
-34.658935546875 -2.411376953125 47.391845703125
20.590576171875 17.772216796875 -12.6845703125
-8.67333984375 -30.869873046875 64.281494140625
-0.212890625 -28.65673828125 39.38330078125
19.816162109375 -19.230224609375 -58.593994140625
8.5185546875 -21.713623046875 -60.11962890625
-0.988037109375 -15.2705078125 33.97900390625
-12.729248046875 -35.241455078125 46.98193359375
-6.375 21.026123046875 -36.02783203125
17.590576171875 -57.92236328125 -14.21826171875
11.3544921875 21.4482421875 -28.734375
9.553466796875 -35.162109375 -49.601318359375
2.494140625 -30.1767578125 22.163330078125
-26.511474609375 -16.178466796875 32.535888671875
18.789794921875 2.432373046875 -78.837158203125
5.216552734375 -8.2431640625 -70.748779296875
15.40966796875 -8.7666015625 -55.978759765625
11.621826171875 14.939697265625 -8.48486328125
-35.902587890625 -2.713134765625 51.133056640625
26.192626953125 7.19873046875 -54.953125
22.640380859375 -8.195556640625 25.015869140625
1.201904296875 -19.002685546875 36.16015625
11.6884765625 15.103515625 -4.8994140625
22.930908203125 8.52099609375 -62.376953125
15.5947265625 -17.880126953125 -59.628173828125
7.811279296875 1.8720703125 -83.54736328125
15.724609375 -44.805908203125 -12.140869140625
-20.5390625 -21.491943359375 27.71337890625
14.95849609375 -24.050537109375 32.56591796875
-4.350830078125 -37.226806640625 59.6533203125
-7.213134765625 -22.18798828125 26.309326171875
14.272705078125 13.295654296875 6.483154296875
12.125732421875 -15.826904296875 -56.66455078125
27.13134765625 7.2802734375 -60.447021484375
-23.16064453125 1.40625 44.08349609375
21.697021484375 0.5263671875 -66.30517578125
22.954345703125 -9.25244140625 27.889404296875
-1.607177734375 6.79541015625 30.283447265625
19.1484375 -54.77880859375 -29.201171875
7.557373046875 -26.498046875 -53.2158203125
18.642578125 -50.341796875 -20.416259765625
17.322998046875 5.31298828125 -80.6259765625
-3.078857421875 -32.965576171875 44.18115234375
12.515625 31.7568359375 -68.62255859375
6.363037109375 -1.449462890625 -78.89501953125
27.819091796875 1.206298828125 -52.154541015625
12.733642578125 4.2578125 39.6953125
-7.76416015625 -21.26318359375 71.039794921875
-6.34521484375 10.388427734375 14.33203125
-6.693603515625 -21.072509765625 29.790771484375
0.833740234375 -5.9501953125 21.29638671875
24.432861328125 3.044677734375 -50.288818359375
-10.33056640625 -15.52685546875 35.828125
-3.643310546875 0.809814453125 39.26318359375
-1.20166015625 -33.007080078125 62.152099609375
8.610107421875 -5.87890625 -71.535400390625
22.877197265625 3.324462890625 -56.136474609375
-5.4453125 -28.7080078125 39.681640625
17.5029296875 -19.1708984375 34.887939453125
21.7451171875 -14.5439453125 32.4208984375
-8.4736328125 -18.39599609375 33.766357421875
8.87255859375 0.3818359375 -67.837646484375
29.184326171875 -1.639892578125 -51.14111328125
23.63671875 -61.2275390625 29.416259765625
-24.65576171875 -1.618896484375 47.91455078125
7.0380859375 23.010498046875 -32.375
14.78662109375 -14.1328125 -54.709716796875
23.197998046875 -6.324462890625 -68.38134765625
22.067626953125 -19.44189453125 16.25
1.08349609375 -24.45947265625 34.626953125
-4.423828125 -33.76513671875 61.82080078125
3.615478515625 -34.651611328125 14.033447265625
25.097412109375 4.20703125 -61.018310546875
13.51513671875 -15.838623046875 34.243408203125
5.082763671875 -20.2529296875 -58.8759765625
26.455322265625 -8.72021484375 -51.018798828125
-13.07373046875 8.77734375 16.705810546875
12.765625 11.668701171875 12.61328125
-0.486328125 25.826171875 -46.35693359375
-15.987060546875 -29.042236328125 20.613525390625
-20.038818359375 -25.15576171875 24.602294921875
18.782958984375 23.626708984375 -35.487060546875
10.55810546875 2.989013671875 -59.980224609375
-7.75244140625 25.92236328125 -76.607421875
5.095458984375 10.37060546875 20.111572265625
-11.918701171875 4.1240234375 39.404052734375
10.83447265625 -11.046142578125 -74.71923828125
12.488037109375 6.365234375 34.26904296875
-8.363037109375 -27.724365234375 37.662841796875
4.8583984375 25.049072265625 -42.457275390625
22.612548828125 -9.839111328125 20.234375
-0.59765625 11.35498046875 12.690185546875
21.986083984375 -59.7724609375 17.316650390625
21.974853515625 -47.228759765625 -13.46533203125
0.398193359375 -30.50244140625 41.7568359375
13.47998046875 -12.828125 -75.5732421875
-14.44580078125 -32.623046875 16.7001953125
13.921875 25.17578125 -41.645263671875
11.92919921875 18.463623046875 -15.32666015625
20.18505859375 -55.990234375 -16.911865234375
20.6552734375 -25.42626953125 -63.789306640625
11.58642578125 18.7265625 -20.09326171875
-1.83544921875 -22.450439453125 30.585693359375
6.0947265625 -16.17138671875 33.901611328125
22.407470703125 -13.7333984375 23.642822265625
-7.5224609375 9.868408203125 17.361328125
5.04345703125 0.906494140625 -80.95068359375
19.243408203125 8.905029296875 -71.106689453125
18.64697265625 20.33349609375 -17.949462890625
15.655517578125 21.20361328125 -24.978759765625
26.685791015625 -1.98486328125 -68.154052734375
-1.384765625 -29.32763671875 21.254150390625
11.29150390625 24.229248046875 -37.02001953125
-9.949951171875 -34.898681640625 46.576171875
24.283203125 -49.376953125 -10.072265625
18.884521484375 -27.978271484375 -68.146240234375
-2.225830078125 -32.58935546875 10.162353515625
-6.264892578125 -28.639892578125 13.98779296875
-10.544189453125 -17.84619140625 28.478759765625
20.135498046875 13.846435546875 3.550048828125
6.6044921875 -13.66845703125 -66.578369140625
17.024658203125 24.887451171875 -42.282958984375
15.00634765625 5.751220703125 -68.291748046875
23.023193359375 -0.46630859375 -57.521484375
0.655517578125 23.82080078125 -37.755859375
17.325439453125 -13.265625 -75.520751953125
-3.33251953125 21.1259765625 -37.513916015625
8.659912109375 -13.60107421875 -57.0029296875
-14.092529296875 -2.686767578125 9.337890625
-15.78662109375 -71.6396484375 68.474853515625
22.4892578125 -57.968505859375 27.01806640625
12.432373046875 7.260986328125 -79.72509765625
-4.673828125 5.15283203125 36.970947265625
9.199951171875 -59.1884765625 7.50830078125
23.3544921875 -9.727783203125 -50.633544921875
16.168701171875 -14.908203125 -80.01123046875
18.701171875 -16.076904296875 34.205078125
21.313720703125 -7.3408203125 -72.443115234375
17.031982421875 26.479736328125 -48.582275390625
29.5302734375 4.818115234375 -50.2890625
6.542236328125 -35.452880859375 -47.54248046875
-18.72216796875 -29.86279296875 20.916015625
-22.63134765625 -18.93017578125 30.211181640625
16.5009765625 -29.248779296875 -55.37548828125
-2.845703125 26.406494140625 -48.371826171875
16.11279296875 -9.3037109375 -74.973876953125
5.567626953125 -26.4912109375 36.5908203125
10.01123046875 -19.413818359375 35.2353515625
3.63671875 28.7197265625 -56.67919921875
29.32373046875 -3.046630859375 -73.067138671875
14.8388671875 22.76513671875 -32.1591796875
16.539306640625 17.00390625 -9.32373046875
6.1591796875 25.916015625 -53.392578125
20.52392578125 -22.5419921875 -63.321533203125
22.15380859375 11.862548828125 -61.7314453125
6.221923828125 -30.513427734375 -49.064453125
12.921630859375 -42.84033203125 -10.332275390625
5.83544921875 -40.449951171875 -47.77001953125
-9.38818359375 5.8232421875 33.394775390625
18.012451171875 8.07421875 -62.5126953125
11.753173828125 27.2998046875 -51.13427734375
17.751953125 -28.0400390625 -60.49365234375
4.46484375 -14.218505859375 -64.983154296875
23.02783203125 -4.8828125 30.6923828125
-21.62548828125 -10.45458984375 36.319091796875
11.141357421875 -59.639404296875 -14.412109375
-15.17724609375 2.048828125 27.534912109375
11.991455078125 -2.213623046875 -66.972412109375
22.8212890625 0.247802734375 -61.30712890625
6.71875 5.859375 35.804931640625
-15.188720703125 -36.086181640625 56.025634765625
14.205810546875 -21.267578125 30.375732421875
22.1552734375 -54.9970703125 32.2861328125
-10.953125 22.399169921875 -45.0234375
-15.426025390625 -2.57373046875 14.1650390625
-9.76416015625 -34.09130859375 62.37255859375
-0.42578125 7.9423828125 24.694580078125
3.467529296875 11.240966796875 10.557861328125
20.595458984375 -5.1806640625 -62.64697265625
18.76220703125 -6.5380859375 -58.3349609375
-8.209716796875 -31.218994140625 42.53466796875
-12.593017578125 -29.74365234375 65.645263671875
20.78271484375 -5.09619140625 -67.99462890625
9.27880859375 -15.866943359375 -55.65966796875
-2.35986328125 29.158935546875 -58.927734375
12.72314453125 -20.23681640625 -63.919677734375
-12.750732421875 -12.0224609375 31.2880859375
22.54150390625 -10.4443359375 22.993896484375
20.110107421875 -20.067626953125 -62.46630859375
21.04736328125 9.8349609375 -22.908447265625
2.5380859375 -26.078857421875 36.599609375
-11.39404296875 22.22021484375 -39.389892578125
-8.606201171875 24.491455078125 -41.935791015625
19.45361328125 25.510498046875 -44.21728515625
-10.208251953125 6.791748046875 28.49658203125
-21.092529296875 -14.8125 33.177978515625
-18.380859375 -23.197021484375 25.898681640625
1.37646484375 5.60888671875 35.556396484375
16.94775390625 -21.823974609375 -65.449951171875
18.818603515625 -0.461669921875 -64.557861328125
7.92431640625 28.004150390625 -53.431640625
18.751220703125 -23.308349609375 28.4228515625
-11.96142578125 5.66796875 32.87841796875
-9.78076171875 -25.994384765625 67.826416015625
9.04345703125 6.31396484375 34.12109375
-4.368896484375 8.267822265625 23.266845703125
-5.470458984375 26.607177734375 -49.17626953125
-9.018798828125 -36.394775390625 48.507080078125
-13.333251953125 6.78515625 23.228271484375
23.087158203125 -7.81201171875 30.45166015625
7.868408203125 -4.54638671875 -73.708251953125
17.8671875 7.333984375 32.6826171875
11.46728515625 -7.7470703125 -73.62890625
22.15380859375 -63.048095703125 24.4453125
-17.27783203125 -32.386474609375 60.92919921875
12.31884765625 21.046875 -25.540283203125
27.015625 -4.2802734375 -73.972900390625
15.009033203125 8.482666015625 -78.4072265625
15.9853515625 -57.761962890625 -18.031494140625
9.757568359375 -19.619140625 -60.98046875
8.939453125 -7.0185546875 -73.921630859375
9.231201171875 1.041259765625 -64.047607421875
22.24267578125 -13.8671875 17.055908203125
20.962158203125 28.823974609375 -66.705810546875
4.0205078125 -32.222900390625 17.171142578125
5.514404296875 5.324462890625 37.997314453125
18.959228515625 -23.466796875 -65.271484375
15.174560546875 7.425537109375 29.5458984375
0.272705078125 -35.059326171875 60.18798828125
-14.559326171875 -0.3701171875 23.00146484375
-11.93212890625 -69.87158203125 71.10888671875
12.76513671875 28.85791015625 -56.657958984375
-19.876953125 -16.355712890625 31.337890625
17.733154296875 -6.72900390625 -62.659912109375
-6.624267578125 -32.528564453125 62.81787109375
20.95068359375 -10.78076171875 -74.807861328125
10.56103515625 12.49169921875 0.099365234375
-12.32861328125 -19.513427734375 70.829345703125
18.534912109375 -6.146728515625 -73.21826171875
-13.51708984375 -38.81396484375 52.348388671875
-14.071044921875 4.335205078125 27.5341796875
4.552734375 -10.3681640625 -69.045654296875
5.697509765625 11.533935546875 12.431396484375
0.15380859375 31.046875 -64.476318359375
-7.560546875 -33.454833984375 44.813232421875
20.5537109375 15.31494140625 -0.46826171875
4.7255859375 -29.201416015625 -51.635498046875
21.123291015625 12.354248046875 -34.350341796875
-8.072998046875 -23.443603515625 21.157470703125
-5.873291015625 5.838623046875 33.303466796875
12.615478515625 28.4931640625 -53.98095703125
19.655029296875 26.6875 -49.236572265625
-3.59423828125 -24.245361328125 30.7978515625
1.347412109375 28.494873046875 -55.61083984375
8.123046875 28.807861328125 -56.153564453125
18.023681640625 9.687744140625 23.99267578125
17.673095703125 13.68505859375 4.026123046875
22.404052734375 -15.66845703125 20.828125
-3.1474609375 7.239990234375 28.34912109375
10.21337890625 -62.9931640625 6.580078125
23.277587890625 3.94775390625 -52.575439453125
7.754150390625 -23.1630859375 31.954345703125
16.0859375 24.201171875 -38.5751953125
16.7431640625 -23.824951171875 -67.0361328125
12.281494140625 -0.2421875 -64.663818359375
10.107177734375 -24.720703125 -60.327392578125
2.653564453125 -23.240966796875 32.630615234375
-4.0830078125 -30.0751953125 15.090087890625
-17.0732421875 -27.3818359375 23.000244140625
21.303466796875 -9.19970703125 15.82470703125
22.39013671875 -61.404541015625 26.947265625
-15.0888671875 -23.84912109375 23.9765625
8.4404296875 -62.782470703125 3.225830078125
-15.197998046875 4.977294921875 17.31787109375
11.728759765625 29.75927734375 -59.977783203125
14.939453125 26.703369140625 -47.047119140625
22.78515625 -11.729736328125 27.9609375
22.341552734375 -53.113525390625 -16.653076171875
17.11474609375 -27.228271484375 -57.779052734375
-33.968017578125 -4.093505859375 42.23291015625
-10.743896484375 -29.45849609375 40.752197265625
-21.7412109375 -0.744384765625 48.543212890625
12.41357421875 3.798583984375 -58.5576171875
11.000244140625 31.47802734375 -66.273681640625
-8.314697265625 -25.0869140625 17.146484375
15.997802734375 5.75537109375 36.928466796875
12.5029296875 -46.0087890625 -18.302001953125
-17.890380859375 -24.392333984375 68.483154296875
-3.80029296875 -20.1416015625 64.901611328125
22.914306640625 -12.349609375 -49.403564453125
14.33203125 17.5830078125 -10.612548828125
-23.77685546875 -20.931884765625 28.90869140625
24.483154296875 3.618408203125 -64.32763671875
26.909912109375 5.531982421875 -50.457763671875
-15.33544921875 2.49365234375 22.239990234375
12.527099609375 -58.78076171875 -16.2978515625
14.93603515625 -7.9765625 -58.522216796875
6.529296875 30.54638671875 -63.5869140625
21.68603515625 -16.693115234375 27.071044921875
13.240966796875 12.698486328125 9.247802734375
-15.06201171875 0.6640625 30.69580078125
8.1875 11.343505859375 -81.332763671875
22.726806640625 -14.294189453125 -50.925537109375
21.8330078125 -58.656982421875 21.706298828125
-3.881103515625 -21.2763671875 31.392578125
-26.22314453125 -12.702880859375 35.84423828125
-14.498779296875 0.1083984375 13.048828125
4.44970703125 -12.0830078125 -67.3271484375
-5.4423828125 -26.71533203125 17.2412109375
13.827880859375 19.816162109375 -20.188232421875
17.9794921875 -14.446533203125 -77.530029296875
14.62060546875 -52.14599609375 -24.884521484375
21.031005859375 10.20068359375 -60.194580078125
4.771484375 24.258544921875 -39.980712890625
18.853515625 8.7666015625 -65.41552734375
21.96923828125 -49.43603515625 -16.622314453125
13.63623046875 -24.87646484375 34.86962890625
18.68310546875 -1.5322265625 -66.99658203125
-2.16455078125 5.278564453125 36.932861328125
20.439208984375 4.7470703125 -59.810791015625
5.86328125 23.830810546875 -36.871826171875
25.600341796875 9.15625 -62.983642578125
28.37890625 -4.422607421875 -52.640380859375
8.978271484375 24.3603515625 -39.11865234375
13.582763671875 22.09130859375 -29.606689453125
10.298583984375 12.2138671875 10.400634765625
2.5439453125 31.7041015625 -66.529541015625
9.69580078125 -4.29833984375 -81.011962890625
2.454345703125 1.163818359375 -81.17138671875
18.6201171875 5.783935546875 -78.23291015625
-15.12939453125 3.588623046875 14.9697265625
-3.84375 -30.721923828125 9.70361328125
18.529052734375 15.40283203125 -2.73095703125
-0.2109375 25.0673828125 -41.9560546875
11.037353515625 18.247314453125 -22.38671875
20.511474609375 -9.641357421875 -53.788330078125
19.023193359375 -26.966552734375 -62.3134765625
19.1142578125 7.142822265625 -69.370361328125
10.19873046875 19.366455078125 -28.774658203125
20.140625 -11.818115234375 -52.611328125
-15.149658203125 -68.98388671875 68.439697265625
12.869873046875 15.5107421875 -2.87744140625
19.88427734375 -8.344970703125 -75.52197265625
-13.37939453125 -0.0888671875 39.100830078125
13.178466796875 -3.1484375 -79.361083984375
28.5693359375 -0.41357421875 -69.99072265625
5.359375 -27.05859375 -52.40087890625
-4.850830078125 -15.892578125 35.0927734375
3.006591796875 -27.73779296875 -53.021728515625
11.946044921875 14.10107421875 1.181396484375
23.199462890625 6.18994140625 -62.161376953125
21.94140625 -18.10498046875 21.276123046875
23.17138671875 5.212646484375 -54.760009765625
22.63525390625 -11.654296875 18.734130859375
-0.862548828125 22.695556640625 -36.33935546875
3.961181640625 -1.17041015625 -78.531494140625
16.22802734375 10.758056640625 17.59765625
-8.890380859375 -23.62451171875 69.283447265625
16.1943359375 22.713134765625 -30.249267578125
5.913330078125 -24.970703125 -53.886474609375
12.68017578125 16.94921875 -9.079345703125
21.2958984375 -15.21826171875 -52.987548828125
23.139892578125 -16.723388671875 -51.746337890625
-10.04345703125 -21.74462890625 70.846923828125
18.77294921875 -7.758544921875 -55.97216796875
18.995849609375 -18.4833984375 -56.463623046875
22.513427734375 -56.587646484375 -8.923095703125
-18.155517578125 -28.57666015625 65.463134765625
18.515625 7.323486328125 -58.332275390625
22.753173828125 -2.380126953125 30.5224609375
0.90478515625 10.200439453125 16.828857421875
-7.187744140625 -19.093017578125 70.4375
-14.5732421875 3.37548828125 30.220947265625
18.35400390625 8.20556640625 27.485595703125
12.051025390625 -49.084228515625 -21.744140625
-16.02294921875 -0.57568359375 18.044189453125
-30.21435546875 -8.211669921875 40.55517578125
-14.4208984375 -36.797607421875 48.485107421875
17.378662109375 8.737060546875 -59.809326171875
-15.40185546875 3.073974609375 18.868408203125
20.307373046875 -16.111572265625 31.51171875
16.58154296875 12.11328125 12.394775390625
29.08349609375 7.1513671875 -59.2138671875
23.037109375 1.02587890625 -55.758056640625
16.712890625 2.700439453125 -61.88671875
22.29736328125 -1.4619140625 -59.845703125
8.536376953125 -1.88037109375 -67.5419921875
10.44677734375 29.034912109375 -57.229736328125
14.223388671875 10.88037109375 16.145263671875
26.6044921875 7.0390625 -57.214111328125
21.558349609375 -16.351806640625 -55.124267578125
-14.913818359375 0.271240234375 25.640625
23.142822265625 -3.939697265625 -53.894775390625
-2.70654296875 28.35693359375 -56.76171875
-22.727783203125 -16.733154296875 31.908447265625
25.673583984375 6.959716796875 -51.76708984375
17.112548828125 -7.813232421875 -59.30126953125
5.31787109375 3.881103515625 40.12060546875
-15.354248046875 -21.97021484375 25.89501953125
-15.0693359375 -40.163330078125 58.158203125
-32.293212890625 -1.591064453125 51.372314453125
1.945556640625 -10.951416015625 -68.425537109375
-15.335205078125 6.909423828125 15.546142578125
13.55810546875 17.972900390625 -13.197998046875
10.69287109375 13.0771484375 3.550048828125
20.863037109375 -56.15478515625 -14.0908203125
-33.55859375 -6.818359375 42.766357421875
2.52880859375 -17.1650390625 35.859130859375
19.089599609375 -21.863525390625 30.739013671875
10.16015625 -39.467041015625 -50.094970703125
11.879638671875 10.419189453125 18.55078125
16.797119140625 -0.786865234375 -65.732666015625
-5.15966796875 -25.911865234375 21.120361328125
-4.796875 -25.4794921875 33.010986328125
6.597900390625 25.25341796875 -45.095947265625
8.344970703125 30.432373046875 -62.215087890625
12.8408203125 -60.501708984375 -12.32568359375
15.015869140625 6.769775390625 -58.07080078125
28.9267578125 -4.563720703125 -75.17626953125
-14.96728515625 -7.317626953125 31.3154296875
-9.768798828125 7.742919921875 25.214111328125
8.749267578125 25.9306640625 -45.874267578125
-7.4716796875 -19.55517578125 31.6416015625
-2.755859375 -38.859130859375 58.15966796875
-17.21142578125 -32.8681640625 63.33056640625
-3.45947265625 24.110107421875 -78.6298828125
-4.447265625 29.30908203125 -59.807861328125
22.42822265625 -9.59716796875 17.763916015625
-25.083251953125 -0.56201171875 45.952392578125
-17.49365234375 -19.386962890625 28.421875
-16.14208984375 -9.393310546875 33.476806640625
19.471923828125 16.37646484375 -7.57666015625
13.03369140625 2.704345703125 -60.45654296875
16.266845703125 14.521240234375 1.013427734375
27.70849609375 -3.302001953125 -50.75830078125
16.451904296875 6.8955078125 -79.09228515625
-15.0615234375 -0.021240234375 15.9951171875
9.18701171875 -26.236083984375 35.882568359375
17.132080078125 18.789306640625 -16.685791015625
19.087646484375 5.932373046875 -74.602783203125
22.25537109375 -15.87939453125 18.28369140625
-6.97265625 24.43505859375 -78.093994140625
13.1904296875 25.6171875 -43.718505859375
-2.390869140625 29.990234375 -61.345947265625
2.329833984375 -7.49365234375 -71.29052734375
25.77587890625 -6.888671875 -52.3076171875
18.9384765625 11.54150390625 -65.278076171875
20.452880859375 -3.781982421875 -69.922607421875
-5.001220703125 2.2470703125 40.511474609375
-4.701416015625 23.807861328125 -39.1650390625
-22.399658203125 -24.275634765625 25.954833984375
22.529541015625 -57.277099609375 31.690673828125
12.41064453125 6.04833984375 29.05712890625
17.990234375 -15.966064453125 -55.5546875
17.400146484375 -11.5673828125 -53.4384765625
28.85400390625 6.6533203125 -51.57470703125
-4.73828125 24.603759765625 -41.46875
11.25537109375 9.40283203125 21.36328125
-14.147216796875 -21.84326171875 71.791015625
1.4169921875 -27.407958984375 37.985107421875
-1.939208984375 -29.90478515625 19.181396484375
17.97314453125 18.013427734375 -12.718994140625
14.432861328125 29.2138671875 -55.03466796875
4.878662109375 -21.907958984375 -57.03076171875
2.10791015625 -17.357177734375 -61.5849609375
24.5283203125 1.134033203125 -51.4072265625
6.4072265625 29.337646484375 -58.446044921875
6.118896484375 -23.325439453125 -55.721435546875
14.781982421875 4.80517578125 39.06494140625
9.89111328125 -36.759765625 -51.091796875
12.309326171875 -24.036376953125 33.3154296875
3.9072265625 30.350830078125 -62.005615234375
-4.86962890625 -33.799560546875 45.169189453125
14.602783203125 -1.54443359375 -66.682861328125
-7.734130859375 23.666015625 -38.494384765625
-11.13720703125 -19.4833984375 23.64697265625
11.1318359375 11.171875 -78.99951171875
-15.907958984375 -9.69775390625 30.39453125
21.93115234375 -17.888427734375 14.45751953125
15.678955078125 -50.614013671875 -22.400634765625
21.76513671875 -7.533935546875 -54.638671875
22.09765625 -4.053955078125 -57.294677734375
2.769287109375 -23.818603515625 -55.627685546875
4.569091796875 -33.643310546875 -46.017578125
-17.056396484375 -29.0703125 62.741943359375
-12.3515625 10.55859375 13.68505859375
8.55126953125 11.037353515625 16.173095703125
9.89794921875 -9.06396484375 -74.781494140625
8.2705078125 -4.335693359375 -69.96875
16.944580078125 13.099853515625 7.78857421875
9.60888671875 -9.121826171875 -57.18505859375
4.3115234375 -16.7685546875 -62.42822265625
12.216796875 13.4599609375 5.757080078125
-3.60595703125 -28.386474609375 19.489013671875
17.9638671875 -32.023681640625 -57.829345703125
2.943359375 29.6142578125 -58.8603515625
26.04638671875 -3.128662109375 -72.3955078125
9.15380859375 3.374267578125 -63.6904296875
12.169189453125 17.327392578125 -11.285888671875
-13.021240234375 -39.126708984375 59.355224609375
7.4814453125 4.798583984375 39.327880859375
-14.505615234375 -0.04931640625 10.886962890625
21.286376953125 12.069091796875 -30.724853515625
-9.002197265625 8.96337890625 20.07421875
-14.031494140625 -14.460205078125 29.4619140625
18.765869140625 -21.44189453125 -63.938232421875
-10.055419921875 -29.345703125 65.51513671875
14.17529296875 -45.779296875 -14.56591796875
-13.079833984375 -25.46533203125 68.378173828125
23.087646484375 -5.250244140625 25.955078125
-23.020751953125 -13.624755859375 34.633056640625
4.010009765625 -5.93701171875 -72.9462890625
17.579833984375 -25.79443359375 -66.798583984375
19.99365234375 -27.4755859375 -66.37255859375
-0.026123046875 24.68408203125 -39.847412109375
7.59326171875 24.8330078125 -41.796630859375
22.894287109375 -10.747314453125 29.867919921875
21.885986328125 -57.93212890625 23.726806640625
-3.9111328125 -25.393798828125 23.6103515625
20.77587890625 -5.98193359375 -60.48046875
10.79150390625 8.881591796875 -78.699951171875
-16.0830078125 -69.9755859375 66.456298828125
13.489501953125 30.970703125 -60.06640625
27.694580078125 -6.27490234375 -74.331298828125
15.96923828125 -18.018310546875 36.242431640625
4.621826171875 27.390869140625 -53.344970703125
22.593994140625 -13.130859375 30.772216796875
13.057373046875 19.125244140625 -17.63330078125
-3.297607421875 -25.310791015625 36.38232421875
2.30419921875 9.40234375 19.70458984375
21.44921875 9.08251953125 -19.755859375
14.979248046875 -26.92138671875 -67.197021484375
5.706298828125 -17.691650390625 -60.440185546875
25.928466796875 5.589599609375 -59.6416015625
3.9755859375 -27.353515625 37.94873046875
-12.8310546875 -11.561279296875 36.17431640625
-9.72705078125 8.373291015625 22.43896484375
-8.49169921875 -22.1962890625 24.61962890625
18.16259765625 -9.577392578125 -75.582275390625
6.851318359375 -33.13330078125 -46.966796875
31.083251953125 3.237548828125 -51.0546875
27.75732421875 -1.99365234375 -74.02392578125
12.3095703125 22.95458984375 -33.124267578125
19.9140625 -47.753662109375 -12.91650390625
11.582763671875 4.264892578125 37.92138671875
-15.21826171875 -38.7421875 59.7158203125
-6.44482421875 -29.11181640625 65.265380859375
16.097412109375 13.486083984375 5.436279296875
11.16796875 -43.383544921875 -13.171142578125
3.09375 2.937744140625 40.350341796875
11.0693359375 1.912353515625 -61.72265625
2.38037109375 0.124755859375 39.143798828125
-3.531982421875 -30.679443359375 17.8115234375
-12.290283203125 6.578369140625 27.958984375
-30.723876953125 -6.838623046875 42.071533203125
15.310302734375 3.435546875 -59.67529296875
-11.125 10.12744140625 15.443359375
22.407470703125 -9.29541015625 -52.46484375
16.01416015625 -21.88671875 -67.43994140625
-12.448486328125 8.4658203125 19.312255859375
-10.244384765625 4.976318359375 37.182861328125
-4.56787109375 -30.6220703125 41.696533203125
-8.1181640625 6.9609375 28.344970703125
12.049560546875 14.827392578125 -1.067626953125
23.06396484375 -4.207275390625 28.704345703125
9.95751953125 23.147216796875 -33.5576171875
-17.734130859375 -16.255126953125 31.07470703125
-5.733154296875 23.36474609375 -79.403076171875
8.80712890625 10.316650390625 18.537841796875
-1.173828125 10.047119140625 17.598388671875
15.506103515625 -55.078369140625 -28.72607421875
5.294677734375 -2.165771484375 -77.249755859375
-21.350341796875 -20.034423828125 28.987548828125
19.99072265625 -16.500244140625 35.82861328125
23.02685546875 -6.070556640625 20.60693359375
11.572021484375 12.799072265625 8.00439453125
-14.696044921875 4.583740234375 24.2880859375
28.018310546875 9.88037109375 -62.359375
11.96630859375 -33.276611328125 -50.58642578125
-2.78125 -28.0771484375 23.25341796875
22.189453125 -54.442626953125 30.277587890625
22.75537109375 -12.030029296875 14.44189453125
22.4052734375 -16.756103515625 22.791259765625
10.4365234375 -21.521240234375 31.234375
0.0810546875 -29.36279296875 22.72216796875
8.28857421875 5.781494140625 24.385009765625
-6.984619140625 6.239501953125 31.482421875
-4.64892578125 8.927490234375 20.247802734375
17.2998046875 -8.60400390625 -57.155517578125
-4.169677734375 -24.26123046875 26.115478515625
-6.851318359375 -40.303955078125 57.628173828125
19.843505859375 1.730712890625 37.680908203125
-2.431396484375 24.828369140625 -41.786865234375
-7.021484375 25.93896484375 -46.77734375
20.9658203125 -20.463134765625 -60.432373046875
1.254638671875 3.928955078125 40.209228515625
15.779541015625 -10.51953125 -54.21240234375
16.58154296875 -31.2412109375 -56.51416015625
21.49951171875 2.07177734375 -64.173095703125
20.388671875 15.014404296875 1.87158203125
11.224365234375 13.509033203125 -3.644775390625
-17.7373046875 -39.852294921875 48.80224609375
-14.198974609375 -2.08056640625 11.711181640625
22.01904296875 -8.57080078125 -75.3701171875
-1.4052734375 -31.10791015625 61.2724609375
22.909912109375 -0.519287109375 33.7080078125
23.68994140625 -51.78369140625 -22.210693359375
24.145263671875 -51.4423828125 -12.25732421875
11.95263671875 -45.632568359375 -15.969970703125
26.121826171875 -5.3505859375 -70.160888671875
17.550537109375 -46.81884765625 -11.830078125
21.229248046875 -26.212646484375 -61.357177734375
9.302734375 29.948486328125 -60.387451171875
-11.982421875 -9.169921875 37.199462890625
-26.2822265625 -0.713134765625 42.300537109375
-18.38916015625 -10.22412109375 34.51171875
17.46630859375 -7.51806640625 -74.294921875
-15.16064453125 4.75244140625 20.0703125
22.361572265625 -3.921142578125 -61.837646484375
-6.84228515625 -18.900390625 34.885009765625
-8.426513671875 -17.7958984375 35.7646484375
-0.909912109375 5.79345703125 34.630126953125
11.453857421875 -16.693359375 35.520263671875
21.0224609375 -6.327392578125 -58.383056640625
-8.673583984375 -37.3056640625 60.1513671875
7.452392578125 9.683349609375 -78.55419921875
-19.578857421875 0.525146484375 43.023681640625
-4.70947265625 10.290771484375 15.545654296875
17.012451171875 23.736083984375 -36.819580078125
-11.223388671875 -31.265625 64.4150390625
1.88232421875 30.513427734375 -62.170166015625
17.09521484375 -4.947998046875 -71.734619140625
-11.9658203125 -21.410888671875 71.475341796875
-13.82275390625 8.24951171875 13.472412109375
-14.915283203125 1.48779296875 14.483642578125
-6.9423828125 -26.351318359375 37.182861328125
2.58740234375 23.334228515625 -34.35302734375
11.49658203125 -9.766845703125 -56.79296875
14.8203125 12.229736328125 11.282470703125
21.02197265625 -53.990966796875 -17.920166015625
15.8564453125 14.232666015625 2.97900390625
4.407958984375 -33.70166015625 15.838623046875
-24.892578125 1.2978515625 45.1669921875
-0.492919921875 25.4658203125 -43.924072265625
14.24267578125 9.142822265625 22.15234375
-6.42529296875 23.18603515625 -36.539306640625
16.364013671875 27.370849609375 -50.74951171875
9.322998046875 21.18896484375 -28.88232421875
1.283447265625 7.82958984375 25.774169921875
18.561767578125 3.751708984375 -80.97509765625
-14.763427734375 0.943115234375 18.4833984375
15.974365234375 6.740234375 33.096435546875
13.383544921875 8.095458984375 23.890625
-9.830322265625 -19.899169921875 25.265380859375
-1.289794921875 7.740234375 26.53662109375
21.3876953125 -62.0751953125 15.868896484375
-17.513916015625 -24.8662109375 26.627685546875
4.338623046875 -31.149658203125 -48.733154296875
22.55322265625 2.165771484375 -60.728515625
-4.503173828125 -23.503173828125 32.75244140625
12.02490234375 15.233642578125 -10.5068359375
-14.29638671875 -31.9365234375 42.722900390625
15.786865234375 -31.055908203125 -60.328369140625
16.10546875 23.44482421875 -34.732421875
14.887451171875 18.60205078125 -15.774169921875
3.49951171875 -3.718994140625 -75.405029296875
-12.309326171875 -13.5693359375 32.603759765625
24.119140625 -48.7080078125 -12.02685546875
-11.556396484375 -16.685791015625 26.5283203125
21.452880859375 -46.058837890625 -11.91943359375
23.543701171875 -1.649658203125 -53.46484375
19.860595703125 -5.7216796875 -71.773681640625
4.16796875 2.338623046875 -82.048828125
9.898681640625 8.368408203125 22.4169921875
-6.58837890625 5.000732421875 37.547119140625
-18.817138671875 -26.268310546875 23.467041015625
0.755859375 -13.694091796875 35.768310546875
9.64111328125 27.052978515625 -50.393798828125
-20.87158203125 -23.18603515625 26.6552734375
-0.561767578125 0.949951171875 40.44287109375
-12.724853515625 -34.433349609375 62.412353515625
-4.7626953125 -26.60107421875 19.11962890625
22.48681640625 0.8818359375 -59.08349609375
-2.87744140625 9.498779296875 19.22119140625
9.131103515625 12.75732421875 -79.154296875
18.46142578125 -28.650634765625 -65.8583984375
18.131591796875 15.7607421875 -5.051513671875
-0.90478515625 9.379150390625 20.646484375
7.25830078125 11.450927734375 13.787841796875
21.977294921875 -52.982177734375 -9.419677734375
-4.240234375 -31.6767578125 62.951171875
-3.605224609375 -32.09228515625 16.396484375
6.7568359375 -21.99609375 29.984619140625
8.056884765625 1.855224609375 38.40380859375
-11.83740234375 -14.178955078125 35.29345703125
-6.044189453125 27.022705078125 -51.559326171875
1.799072265625 -4.87353515625 -74.546875
-8.467529296875 0.643798828125 40.437744140625
13.256103515625 -4.885986328125 -70.072021484375
5.185791015625 7.430419921875 25.925048828125
11.692138671875 -11.538818359375 -55.591064453125
21.1796875 -54.026123046875 -11.37841796875
-13.713134765625 -9.50830078125 35.518310546875
-2.43017578125 25.544189453125 -46.634765625
32.118408203125 4.571533203125 -50.019775390625
-4.672119140625 25.36181640625 -44.77392578125
15.734375 15.32177734375 -1.068359375
17.415283203125 9.982177734375 20.75537109375
22.499267578125 -48.40478515625 -15.019775390625
19.219482421875 7.41259765625 -72.9345703125
7.74072265625 -24.9521484375 34.523681640625
24.314697265625 5.275390625 -51.543701171875
11.926513671875 -39.359375 -51.0927734375
7.38623046875 -39.253662109375 -47.53173828125
13.4404296875 9.959228515625 20.547119140625
28.4111328125 -6.485107421875 -76.295166015625
6.23828125 -18.83251953125 36.197509765625
9.119873046875 25.803466796875 -48.8974609375
-4.139404296875 -35.529541015625 60.73486328125
-0.93359375 -27.387939453125 24.239990234375
-4.1826171875 -31.502685546875 20.7529296875
-14.741455078125 -19.455810546875 27.311767578125
-15.488037109375 0.3134765625 36.009521484375
22.86865234375 -13.4873046875 27.087890625
0.1728515625 26.15234375 -48.177978515625
4.48291015625 -16.99658203125 35.957763671875
21.258056640625 -55.661865234375 -10.11572265625
25.244140625 -4.61474609375 -74.74755859375
-16.111572265625 -33.1083984375 17.6162109375
21.92529296875 -5.301025390625 -55.499267578125
22.808349609375 -6.190185546875 -53.6005859375
2.3046875 -13.96484375 -64.98291015625
6.76220703125 21.325927734375 -31.33056640625
-14.31103515625 1.5556640625 38.499267578125
8.989501953125 5.383544921875 32.14990234375
-11.50048828125 -16.018798828125 29.254638671875
19.543212890625 -6.71435546875 -66.260498046875
13.272705078125 5.5263671875 -58.869873046875
28.96484375 2.52099609375 -51.278564453125
-17.28955078125 -34.66650390625 61.428955078125
19.355712890625 -5.495849609375 -69.262939453125
18.709716796875 -13.138671875 -53.891357421875
-1.87060546875 4.239501953125 39.766357421875
11.80712890625 14.158447265625 -6.60107421875
9.271728515625 -61.423095703125 7.25146484375
0.84375 -37.244873046875 59.349609375
-11.490478515625 24.880126953125 -50.57861328125
16.90673828125 -2.38037109375 -68.614013671875
16.967041015625 -19.459716796875 -65.251708984375
10.8623046875 7.5693359375 24.47607421875
-16.545654296875 -42.164794921875 53.560791015625
-9.640625 23.390625 -38.776611328125
8.75244140625 -10.840087890625 -56.874267578125
14.72021484375 -24.94775390625 -66.604736328125
15.625244140625 -11.09423828125 -74.394287109375
-24.67529296875 -16.809326171875 32.612548828125
16.74072265625 -50.463134765625 -20.050537109375
-14.8251953125 2.3212890625 31.85595703125
16.041259765625 -12.837646484375 -53.994140625
4.446044921875 32.012451171875 -66.104248046875
5.461669921875 -5.259765625 -74.324462890625
-15.316650390625 -4.13671875 15.305908203125
8.6494140625 12.1240234375 5.584716796875
6.18603515625 -9.68212890625 -69.830810546875
10.073974609375 -40.963134765625 -9.190673828125
4.369384765625 22.783447265625 -33.131103515625
24.548828125 5.930419921875 -55.916259765625
-2.970947265625 -31.842041015625 8.38720703125
10.5048828125 25.848876953125 -43.685791015625
15.31005859375 -4.21044921875 -70.615966796875
-0.998046875 27.46337890625 -52.01123046875
-2.1572265625 -27.316162109375 38.06201171875
-31.440673828125 -9.727294921875 39.475830078125
2.219970703125 -31.586181640625 16.865234375
7.104248046875 24.097412109375 -38.718994140625
17.050537109375 -23.212158203125 31.267333984375
-7.05322265625 4.385986328125 39.453857421875
10.26611328125 -59.478271484375 9.62353515625
10.53076171875 -25.288818359375 34.8681640625
-12.6923828125 -33.482177734375 45.081298828125
2.598876953125 -20.83251953125 -58.44775390625
31.392822265625 6.46142578125 -50.426513671875
21.728515625 -60.787109375 18.967529296875
18.57421875 -19.20751953125 -60.06884765625
18.610107421875 -28.421142578125 -58.467041015625
-5.25634765625 -29.3642578125 12.513916015625
-17.720703125 -31.427734375 19.349365234375
17.9619140625 -17.495849609375 35.7138671875
-16.549072265625 -2.22998046875 22.1875
-15.7451171875 -39.716796875 52.0107421875
7.6533203125 12.408203125 9.105224609375
-17.05126953125 -37.684814453125 59.65380859375
-4.92626953125 -17.372314453125 36.429443359375
22.512451171875 -12.463623046875 33.5419921875
14.33251953125 23.970947265625 -36.802001953125
11.574462890625 -63.839111328125 5.39453125
10.46923828125 26.197998046875 -46.83740234375
13.787109375 -18.681396484375 35.043701171875
15.0556640625 24.68115234375 -40.184326171875
-13.053466796875 -11.00830078125 33.143310546875
-16.597412109375 -30.778564453125 65.1640625
30.506103515625 8.38525390625 -59.55029296875
-14.5009765625 -29.86083984375 65.61474609375
14.194091796875 -58.158447265625 -13.281982421875
-35.255615234375 -3.413330078125 52.789306640625
-5.169677734375 7.052734375 28.3818359375
27.049072265625 -2.452880859375 -52.9716796875
-15.8203125 -36.473388671875 61.281005859375
-7.322021484375 -26.8125 67.120849609375
8.17333984375 31.69140625 -66.9208984375
14.9423828125 20.52197265625 -21.7255859375
18.9423828125 16.69482421875 -11.216552734375
8.423583984375 -18.244873046875 36.697998046875
-6.55078125 -24.410400390625 21.762939453125
-16.2509765625 -2.05419921875 19.663818359375
17.0849609375 -18.435302734375 -58.58544921875
23.8310546875 -14.095947265625 -46.84716796875
16.335693359375 -15.234375 -54.659423828125
16.589111328125 19.617431640625 -18.853271484375
5.6005859375 -31.63525390625 -47.397216796875
3.822998046875 -18.435791015625 -60.976318359375
6.92431640625 9.33447265625 19.6298828125
-3.3515625 22.678466796875 -79.872802734375
0.40478515625 -17.287353515625 35.99658203125
-25.8994140625 -14.9306640625 33.82861328125
21.007568359375 -18.159912109375 -55.29443359375
-12.735107421875 7.839599609375 21.7685546875
-13.97265625 -2.40087890625 39.0791015625
15.973876953125 8.0634765625 27.886474609375
0.118896484375 10.59619140625 15.150634765625
23.156982421875 -0.8017578125 -55.27734375
-14.849609375 -2.287841796875 23.95703125
14.527587890625 8.126953125 26.4296875
10.93408203125 24.640869140625 -38.832763671875
3.56982421875 27.878662109375 -54.98486328125
18.872314453125 -3.092529296875 -69.142578125
1.995849609375 30.885498046875 -64.87841796875
-14.5029296875 7.33447265625 17.222412109375
16.43115234375 -52.35009765625 -24.3759765625
20.273193359375 12.137451171875 -59.70361328125
21.221923828125 -54.101806640625 -15.184814453125
4.011962890625 9.331787109375 21.50537109375
19.26123046875 -25.4482421875 -60.84716796875
2.966796875 -24.35302734375 34.151123046875
9.1025390625 -9.66015625 -58.98193359375
18.86767578125 -56.899169921875 -15.156494140625
8.012939453125 -34.321533203125 -48.015869140625
-17.9775390625 -17.956298828125 29.907958984375
11.21044921875 4.757080078125 -59.970947265625
12.315185546875 6.947998046875 -59.77685546875
26.6796875 7.696533203125 -62.228271484375
10.988525390625 0.897216796875 -63.39404296875
-28.951171875 -11.045654296875 37.1513671875
-8.197021484375 -20.1201171875 29.1865234375
1.6826171875 24.114013671875 -39.3017578125
-3.412353515625 -24.17822265625 27.832763671875
4.441650390625 -24.42236328125 -54.91650390625
22.8798828125 -12.211181640625 22.454345703125
6.632080078125 10.470458984375 17.347412109375
-14.1005859375 6.711669921875 20.82177734375
-12.305419921875 -37.51220703125 60.42138671875
18.793212890625 6.791259765625 -76.659423828125
13.1806640625 -48.50390625 -19.461669921875
22.83349609375 -52.66845703125 -12.7939453125
7.67724609375 -9.494384765625 -71.306640625
-13.33447265625 5.79931640625 26.613525390625
29.56640625 0.553466796875 -52.319091796875
15.474853515625 16.377197265625 -6.427490234375
-15.070556640625 0.70458984375 20.313720703125
9.316162109375 2.0556640625 -62.375732421875
20.457763671875 -15.5478515625 33.329833984375
6.118896484375 30.1875 -61.279052734375
7.915283203125 -0.984619140625 -69.05859375
-14.9990234375 -16.379150390625 29.291748046875
22.0771484375 -55.561279296875 28.3486328125
11.45947265625 -19.5146484375 -62.750244140625
22.47314453125 -2.26904296875 -57.6923828125
-10.849365234375 -36.23095703125 47.681884765625
23.747802734375 -47.968994140625 -13.703369140625
-1.2734375 -16.296142578125 35.625732421875
10.081298828125 20.322509765625 -26.968017578125
17.753173828125 -28.68017578125 -62.241455078125
-3.630615234375 27.63720703125 -53.674072265625
-10.484130859375 -27.57275390625 66.783935546875
