24.177490234375 -26.09326171875 59.726318359375
12.66748046875 4.83935546875 41.848388671875
11.52294921875 -41.85107421875 -31.25244140625
-14.90478515625 -40.51123046875 58.644775390625
28.015869140625 -27.166748046875 -53.267578125
6.327392578125 -31.715087890625 -43.7158203125
6.1982421875 9.124755859375 20.875244140625
5.508056640625 -19.44091796875 -55.87841796875
-26.00927734375 -1.248291015625 48.995361328125
-8.998046875 4.0400390625 39.774658203125
9.359375 -61.926513671875 12.698974609375
14.54150390625 24.64892578125 -42.84716796875
35.256591796875 -12.786865234375 -25.69482421875
28.95556640625 -26.395751953125 -39.754150390625
22.09619140625 -51.45166015625 19.97509765625
30.34814453125 2.897216796875 -25.014404296875
5.398681640625 18.660400390625 -27.124755859375
12.0029296875 25.974609375 -49.380615234375
22.43505859375 -2.045654296875 -72.4267578125
-8.632080078125 6.459228515625 29.39453125
-1.355712890625 -28.66455078125 69.736328125
9.189208984375 -55.963134765625 19.47265625
-5.329345703125 5.369873046875 35.06201171875
12.991943359375 -0.34375 -79.427001953125
1.8330078125 -33.25341796875 49.934814453125
21.202880859375 -19.70703125 21.99462890625
2.835205078125 -39.493408203125 -39.289794921875
21.048583984375 -32.568603515625 61.859375
2.163330078125 -27.18994140625 -50.941162109375
41.802490234375 -4.51416015625 -38.215576171875
18.310302734375 -32.850341796875 -49.095458984375
13.205078125 2.54345703125 -56.074951171875
-7.519775390625 -18.468017578125 41.873046875
25.809326171875 -17.28759765625 -34.124267578125
-9.4404296875 9.665771484375 17.11572265625
-13.5419921875 -37.0419921875 53.49658203125
17.594482421875 28.12451171875 -57.728271484375
-11.64990234375 -15.50244140625 7.77392578125
29.42041015625 -27.027099609375 -58.09130859375
13.7724609375 28.78759765625 -62.68359375
24.43212890625 -33.53076171875 -53.0341796875
1.870361328125 -0.10205078125 -79.112548828125
9.672607421875 -1.5263671875 -74.55224609375
4.2080078125 5.48193359375 30.711669921875
-6.396484375 -24.109130859375 34.427490234375
-17.042724609375 -3.271484375 33.2578125
-16.777587890625 5.56103515625 19.386474609375
10.8857421875 22.602783203125 -34.613525390625
-17.532470703125 -30.867919921875 69.75048828125
31.110107421875 -11.710205078125 -39.83544921875
6.5439453125 -26.62744140625 42.125732421875
21.52880859375 -62.117919921875 74.265380859375
20.9697265625 -14.821533203125 32.690673828125
-12.519287109375 8.12451171875 22.09228515625
19.358154296875 -15.761474609375 42.52587890625
-0.9189453125 28.79541015625 -69.738525390625
26.799072265625 -10.571533203125 -35.243896484375
-8.490234375 21.056640625 -32.3125
-15.621826171875 -11.429931640625 14.8447265625
32.3994140625 37.719482421875 -68.356201171875
-10.22509765625 21.97021484375 -44.366455078125
22.759765625 -1.406005859375 -78.896240234375
5.2314453125 4.4365234375 43.036865234375
-14.20458984375 -21.347900390625 6.912353515625
21.658203125 -23.115478515625 64.484375
21.31298828125 -28.3974609375 55.360107421875
16.034912109375 9.795654296875 19.353515625
3.357177734375 27.484619140625 -57.621826171875
1.442626953125 -25.319580078125 40.548828125
21.622314453125 -22.891845703125 73.18212890625
21.4892578125 -33.389892578125 84.81787109375
34.0634765625 28.492431640625 -71.27001953125
20.463623046875 -19.21435546875 -47.843017578125
10.2822265625 3.410400390625 34.62451171875
10.851318359375 -28.3759765625 -48.883544921875
23.01806640625 -56.211669921875 77.634765625
24.149169921875 -22.1572265625 -47.24072265625
22.340576171875 -38.072021484375 -48.6904296875
21.966064453125 -59.650390625 3.654541015625
21.337646484375 -31.372314453125 76.136962890625
8.67529296875 -39.095703125 -39.54150390625
17.653564453125 0.84912109375 44.2607421875
23.763427734375 -3.00927734375 -58.38671875
1.56103515625 20.420166015625 -29.598388671875
17.289794921875 -43.77587890625 80.85986328125
16.000732421875 -13.027587890625 -53.21142578125
21.3408203125 -37.6435546875 59.675048828125
9.469970703125 20.906005859375 -26.658203125
-18.247314453125 -10.851806640625 29.124267578125
16.1435546875 4.400390625 -73.145263671875
28.664794921875 1.43017578125 -42.547607421875
5.732421875 22.848388671875 -37.107421875
22.0732421875 -23.99951171875 -18.198486328125
15.498046875 -36.202880859375 -29.52587890625
11.6123046875 -23.688720703125 38.36474609375
4.311279296875 -36.069091796875 52.45654296875
10.6220703125 -48.823974609375 -36.67138671875
23.28076171875 -9.839599609375 -49.97412109375
11.292724609375 0.50830078125 -83.4716796875
11.173828125 -17.481689453125 -48.341552734375
20.622314453125 -10.21923828125 36.643310546875
27.188232421875 2.254638671875 -18.583984375
21.54833984375 -67.20068359375 74.759521484375
9.996826171875 -33.33056640625 -40.281982421875
15.583740234375 26.78515625 -51.877685546875
-18.350830078125 -3.34619140625 24.683349609375
17.3388671875 20.162841796875 -17.98583984375
13.221435546875 -3.5927734375 -62.47802734375
-14.34423828125 5.330322265625 32.678955078125
-15.20654296875 -30.40283203125 9.24609375
11.883056640625 21.95703125 -45.099853515625
-6.315185546875 -24.7041015625 39.468505859375
21.353515625 -39.394775390625 80.7822265625
9.755126953125 -17.46484375 -53.06201171875
1.222412109375 18.28271484375 -77.548583984375
24.325927734375 -40.9296875 -46.029052734375
6.05419921875 -24.34716796875 -52.029541015625
20.304443359375 5.7021484375 -71.3720703125
21.8037109375 -25.40869140625 -23.030029296875
30.597900390625 -52.86474609375 5.144287109375
26.626708984375 -54.27294921875 2.61083984375
29.025146484375 -9.30908203125 -61.435546875
3.9169921875 -17.732177734375 41.240966796875
28.361328125 -34.73095703125 -54.47705078125
24.975341796875 -32.874267578125 -48.695068359375
16.708740234375 -19.41064453125 37.033935546875
-12.08544921875 -29.109375 42.93212890625
-5.21142578125 -38.31591796875 55.198486328125
-8.9404296875 25.634033203125 -53.630126953125
7.832275390625 10.21435546875 17.028564453125
29.009765625 -12.462646484375 -65.57421875
20.698486328125 -20.842529296875 28.188232421875
33.56396484375 4.934326171875 -46.115478515625
-3.501220703125 -34.6181640625 50.746337890625
21.35400390625 -33.04931640625 66.127197265625
23.91552734375 -54.199462890625 -1.510498046875
36.7744140625 -7.965576171875 -36.3857421875
-14.255615234375 -7.64990234375 12.5283203125
6.651611328125 29.10546875 -64.69287109375
19.2021484375 -22.93896484375 -55.009765625
13.28076171875 -37.073974609375 -25.37255859375
25.388671875 -31.29248046875 -43.130615234375
26.783203125 -23.583984375 -31.1181640625
21.876953125 -17.20263671875 -18.4140625
31.430419921875 -18.86181640625 -26.9619140625
18.37841796875 2.31298828125 -51.622314453125
14.5576171875 16.23876953125 -6.351318359375
15.59912109375 7.43701171875 40.12548828125
30.6982421875 25.862060546875 -69.50146484375
-8.243408203125 -26.704833984375 64.079833984375
-25.75390625 -10.7041015625 25.71484375
24.121826171875 -31.051025390625 -60.15380859375
20.77099609375 -11.821044921875 -68.24658203125
33.58837890625 -4.74072265625 -42.168701171875
18.784423828125 22.13037109375 -23.094970703125
27.990234375 -6.74462890625 -46.325439453125
-15.544189453125 -24.700927734375 13.435546875
6.7314453125 -30.620361328125 46.849365234375
-16.016845703125 -1.699951171875 18.207275390625
-21.63232421875 -9.619384765625 22.478515625
9.072021484375 16.310546875 -79.23681640625
23.151123046875 2.63818359375 -63.4609375
-6.968994140625 8.55712890625 20.431640625
-8.540283203125 26.13037109375 -63.919921875
-15.401611328125 -32.739013671875 47.073486328125
-36.22216796875 -8.406982421875 54.04541015625
37.839111328125 -9.62109375 -29.03125
17.177734375 -47.581298828125 -35.076904296875
22.104736328125 -55.66455078125 6.620849609375
33.06298828125 38.331787109375 -62.994140625
36.56396484375 -7.20849609375 -32.2001953125
9.25 -52.624267578125 -35.96533203125
-17.122314453125 -38.208251953125 55.122314453125
-5.68701171875 24.440673828125 -47.84912109375
-17.5703125 2.25634765625 29.288330078125
22.928466796875 -37.183837890625 71.876953125
-4.75634765625 26.340576171875 -55.644287109375
21.99951171875 -33.243896484375 -27.388671875
9.972412109375 6.77978515625 32.06396484375
2.2685546875 -35.50537109375 -41.296630859375
-20.1826171875 -42.923095703125 58.617919921875
11.78857421875 -56.868408203125 22.4560546875
-2.03857421875 28.641845703125 -63.98193359375
-6.10986328125 -22.870361328125 67.10302734375
16.965576171875 -42.328369140625 -26.95263671875
38.89892578125 -14.1865234375 -26.721435546875
11.837890625 19.677490234375 -20.2060546875
22.0302734375 -22.372802734375 -25.65380859375
-29.62646484375 -3.736083984375 49.391845703125
-18.169677734375 -5.664794921875 28.736572265625
19.995361328125 0.297607421875 -6.313232421875
15.6748046875 22.3994140625 -32.33740234375
21.3564453125 -30.36376953125 80.31640625
14.369384765625 -44.801025390625 -38.7763671875
14.252197265625 -54.275634765625 26.8857421875
13.25927734375 11.95947265625 11.351806640625
-17.3056640625 -35.663330078125 66.66845703125
16.233642578125 -9.90869140625 -66.154541015625
17.34228515625 8.092529296875 22.666748046875
9.96240234375 -13.905517578125 -55.738037109375
24.438232421875 2.45703125 -53.78955078125
20.721923828125 -59.60595703125 23.17431640625
6.774658203125 -47.26611328125 -40.591796875
18.1259765625 -24.257568359375 -58.87548828125
-7.736083984375 28.24658203125 -69.422607421875
4.05908203125 29.030517578125 -69.4931640625
38.458984375 2.02734375 -44.661865234375
28.16650390625 -11.411865234375 -31.675537109375
-17.2001953125 5.55419921875 23.263916015625
15.046630859375 20.93115234375 -26.16162109375
24.81591796875 -9.856689453125 -53.64404296875
10.339111328125 25.4794921875 -45.64599609375
10.73095703125 7.297119140625 -76.908203125
-8.01220703125 22.81494140625 -40.646728515625
17.982421875 -26.59033203125 54.402099609375
20.213134765625 -42.747314453125 77.992431640625
22.97607421875 -67.40478515625 65.924072265625
15.319091796875 -6.791259765625 -63.0166015625
15.78369140625 4.73974609375 -54.219482421875
-3.94873046875 7.33203125 26.9013671875
7.423583984375 1.0693359375 -78.082763671875
35.563720703125 -12.649658203125 -29.967041015625
21.945556640625 -23.775146484375 68.251953125
18.419189453125 -35.301513671875 -26.724609375
22.777099609375 -33.552490234375 -56.48193359375
-2.051513671875 22.21484375 -70.9794921875
35.849365234375 27.8955078125 -67.951904296875
21.77294921875 -53.00634765625 13.81982421875
32.76611328125 -18.88720703125 -77.2841796875
22.73828125 -58.1669921875 0.187255859375
31.18212890625 -10.4892578125 -45.832763671875
16.82861328125 -44.692626953125 -42.02099609375
-18.050537109375 -1.34716796875 36.854736328125
13.341064453125 10.85888671875 15.53515625
38.546630859375 -2.87060546875 -42.732666015625
2.17626953125 4.83447265625 39.6962890625
21.36083984375 -69.78173828125 71.6708984375
10.531494140625 6.594482421875 -72.4423828125
16.89208984375 18.055908203125 -14.232421875
-13.145751953125 -36.29443359375 65.81005859375
28.074462890625 -37.921875 -48.665283203125
27.0322265625 -21.006591796875 -33.767578125
25.251220703125 -27.681640625 -61.23388671875
-8.2900390625 -27.888916015625 36.0712890625
10.91064453125 13.19677734375 -1.228759765625
-13.757568359375 -34.857421875 50.520263671875
22.39990234375 -52.669921875 80.07666015625
10.0361328125 -65.46240234375 11.8701171875
32.360595703125 -15.76220703125 -72.04296875
21.722900390625 -56.224853515625 10.24755859375
17.49853515625 -21.45654296875 -51.809326171875
-21.722412109375 -29.353759765625 70.56982421875
25.685302734375 -14.10791015625 -43.521728515625
20.0302734375 -27.21728515625 61.517578125
-3.96533203125 8.330322265625 22.791259765625
20.971923828125 -22.769775390625 23.964599609375
26.615966796875 36.2978515625 -59.829833984375
32.177490234375 -54.0859375 1.833984375
-20.094482421875 -40.156982421875 61.255126953125
4.53271484375 26.345458984375 -49.90966796875
2.203369140625 8.663330078125 21.274658203125
-0.91357421875 -28.897705078125 44.99658203125
-8.796630859375 -27.596435546875 42.96435546875
28.1669921875 -24.86962890625 -50.47607421875
22.614013671875 -11.72900390625 -46.974365234375
9.142822265625 27.62451171875 -56.850341796875
36.01220703125 -1.96826171875 -29.748779296875
34.4423828125 -7.108154296875 -39.232177734375
10.884765625 -25.069091796875 -52.603759765625
-12.89306640625 -22.56982421875 10.192138671875
8.4677734375 -29.558349609375 -45.6171875
19.60107421875 -50.444580078125 52.449462890625
21.223388671875 -46.040771484375 54.5205078125
20.34326171875 26.044677734375 -50.0673828125
-9.80224609375 3.225341796875 43.3544921875
-4.12548828125 23.15869140625 -40.62109375
0.892578125 6.463623046875 32.0087890625
8.708251953125 10.52783203125 9.59521484375
2.052978515625 7.299072265625 27.07861328125
-12.0322265625 7.332763671875 25.822265625
39.96826171875 -6.672607421875 -35.48876953125
21.82568359375 0.49169921875 45.965576171875
11.287841796875 20.2890625 -23.660888671875
16.06396484375 13.605712890625 3.893310546875
2.18994140625 28.427001953125 -62.47265625
22.269287109375 -33.301025390625 -35.174072265625
20.4931640625 -3.264892578125 41.19775390625
20.890625 -8.020751953125 -77.69482421875
-21.120849609375 -22.76953125 72.419677734375
21.39892578125 -34.84765625 75.49267578125
12.417724609375 -19.361328125 -51.718505859375
9.14306640625 4.599365234375 41.807861328125
16.9287109375 6.196044921875 35.81494140625
-2.024658203125 -25.736572265625 41.016357421875
22.66064453125 4.479736328125 -5.325927734375
13.4775390625 -20.524169921875 -56.185791015625
10.857421875 12.007568359375 2.6103515625
-2.091796875 21.65087890625 -33.851318359375
-0.127197265625 -31.478271484375 47.65380859375
21.1806640625 -46.3115234375 84.475830078125
27.724609375 -28.623046875 -36.885986328125
29.75927734375 -26.45703125 -45.74560546875
11.8564453125 -17.902099609375 40.770751953125
24.7822265625 -17.716064453125 -44.983154296875
22.741943359375 0.088623046875 -69.697265625
28.192138671875 -20.865478515625 -27.178955078125
-13.01025390625 -14.944091796875 10.91796875
28.379638671875 -23.336181640625 -41.785888671875
-5.541259765625 27.68994140625 -60.216064453125
-6.8642578125 23.9052734375 -61.87646484375
34.086181640625 -4.67138671875 -22.400146484375
22.712646484375 -26.12255859375 -32.365234375
32.695556640625 34.081298828125 -67.28759765625
29.162841796875 -25.45556640625 -36.43701171875
22.654541015625 -42.563720703125 -43.376220703125
31.330810546875 3.057861328125 -28.63134765625
10.576416015625 28.38720703125 -59.880126953125
0.0537109375 9.60302734375 17.67431640625
1.366943359375 -23.589599609375 37.436279296875
11.489013671875 -40.916015625 -40.660400390625
-3.683837890625 3.3134765625 44.415283203125
18.92919921875 -14.017333984375 -70.864013671875
10.392333984375 -49.849609375 25.63525390625
14.366943359375 -15.474853515625 -48.171875
34.987548828125 -2.2158203125 -44.006103515625
32.041259765625 0.165283203125 -26.188232421875
-16.857666015625 1.26025390625 19.702880859375
-14.507568359375 3.414794921875 41.814208984375
21.073974609375 -17.49609375 30.2548828125
20.990966796875 -38.1572265625 -25.181640625
7.9951171875 7.487548828125 29.373046875
4.195556640625 -29.116943359375 -45.521484375
20.273681640625 -12.552978515625 39.10546875
8.765625 9.001708984375 23.11474609375
31.8779296875 -0.817626953125 -43.893798828125
14.837158203125 2.57861328125 45.516357421875
19.164794921875 -63.324951171875 18.077392578125
-19.72705078125 -37.684814453125 52.50830078125
16.0634765625 -4.7236328125 -60.113037109375
18.015869140625 -42.682373046875 -45.4833984375
22.240966796875 -31.462158203125 -23.0634765625
21.374267578125 -30.44775390625 68.29833984375
-16.518310546875 -8.05029296875 17.41845703125
14.214599609375 9.208740234375 23.2763671875
15.452880859375 14.697998046875 -1.038818359375
8.373046875 -18.27099609375 -57.220947265625
25.3525390625 -1.86376953125 -50.8349609375
24.5439453125 -5.984619140625 -54.15673828125
19.036865234375 -24.991455078125 22.356689453125
13.253662109375 -59.525634765625 19.4208984375
26.58935546875 -18.876708984375 -37.0087890625
-16.952880859375 -2.142822265625 21.51025390625
21.33349609375 -41.729736328125 60.061279296875
22.37744140625 0.43212890625 -76.12939453125
29.71875 -5.896484375 -62.751953125
21.37353515625 -36.79638671875 82.88037109375
9.061279296875 17.000244140625 -26.146728515625
27.860107421875 3.932373046875 -48.4365234375
-16.194580078125 1.078369140625 43.687255859375
29.9296875 -10.915283203125 -36.58740234375
-13.64892578125 -30.29052734375 45.637451171875
9.236572265625 -27.923828125 43.89794921875
21.669677734375 -27.4560546875 74.573974609375
25.21826171875 2.847900390625 -46.205810546875
2.853271484375 24.1962890625 -45.52001953125
4.71728515625 14.016357421875 -81.32666015625
20.85107421875 -9.255859375 39.953125
23.324951171875 -5.06787109375 -60.94775390625
25.6435546875 -2.8095703125 -46.908447265625
10.818603515625 5.483154296875 39.09033203125
27.8857421875 -15.1181640625 -31.26513671875
15.15576171875 9.911376953125 -77.279052734375
27.927490234375 -12.495361328125 -40.73046875
-7.320556640625 -29.07568359375 45.52294921875
27.190673828125 -10.545654296875 -67.741943359375
21.84521484375 -22.288330078125 -50.076904296875
21.260498046875 -39.947998046875 84.231201171875
22.1513671875 -20.8291015625 -17.302734375
25.1201171875 -33.850341796875 -45.183349609375
11.69970703125 15.702392578125 -7.888916015625
-8.83837890625 21.545654296875 -35.94775390625
15.034912109375 -50.01611328125 -35.566650390625
-20.610107421875 -11.21435546875 26.882080078125
0.154296875 27.0283203125 -57.114501953125
-14.6376953125 -16.4853515625 38.8818359375
11.47216796875 17.11083984375 -18.134521484375
11.775146484375 23.439208984375 -37.646484375
-1.92919921875 5.4755859375 34.6044921875
21.373779296875 -26.55126953125 58.124267578125
15.7099609375 -39.1279296875 -26.0888671875
24.99658203125 -8.437744140625 -46.72802734375
17.835693359375 -15.86865234375 -68.01025390625
20.984130859375 -6.328125 42.13134765625
-7.27099609375 -32.420654296875 47.738037109375
2.197509765625 22.917236328125 -38.654052734375
16.763916015625 -44.427734375 -36.640380859375
39.25146484375 -6.798583984375 -29.71337890625
-4.30712890625 -18.634521484375 42.095458984375
-5.7197265625 6.39892578125 30.77685546875
30.3916015625 -4.893798828125 -42.497802734375
-5.8974609375 -26.269775390625 28.588623046875
13.54736328125 12.885009765625 6.87744140625
-8.849609375 24.39111328125 -56.583984375
21.428955078125 -64.537841796875 76.533203125
21.50341796875 -34.996337890625 68.663330078125
22.62548828125 -39.1787109375 -37.554931640625
21.19189453125 -58.899658203125 11.91845703125
15.473876953125 17.35205078125 -11.453857421875
6.31689453125 10.686767578125 13.97509765625
20.972412109375 -3.240234375 -67.44775390625
18.016357421875 -2.002685546875 -57.09619140625
11.461181640625 26.748779296875 -52.419189453125
-20.337646484375 -40.01416015625 56.5498046875
40.044921875 -2.189453125 -36.949462890625
2.8466796875 -24.36376953125 -52.21484375
28.95068359375 -33.79248046875 -57.444091796875
16.803466796875 -17.434814453125 40.36376953125
24.719482421875 -29.608154296875 -36.750732421875
7.2314453125 -24.544189453125 39.45751953125
18.28759765625 -59.874267578125 21.175537109375
5.627685546875 2.368896484375 45.39501953125
-17.2041015625 3.879150390625 26.398681640625
22.1142578125 -25.97314453125 -26.11328125
8.67041015625 -42.6162109375 -41.1806640625
22.41796875 -34.262451171875 -31.741943359375
-9.963134765625 -36.822021484375 52.944580078125
-17.32373046875 0.334228515625 26.20751953125
22.4697265625 1.3662109375 -72.549560546875
-18.132568359375 -7.599365234375 22.739501953125
-13.473388671875 -38.86181640625 56.048583984375
-6.06201171875 19.239501953125 -31.522216796875
-11.33642578125 6.019287109375 30.9140625
8.836181640625 -25.17919921875 -50.237060546875
24.408447265625 -54.1787109375 4.810546875
17.302734375 24.202880859375 -39.982421875
21.432861328125 -30.184814453125 73.07470703125
26.19140625 -21.70849609375 -43.610595703125
28.678955078125 2.090576171875 -50.807373046875
-6.19189453125 3.736328125 41.734130859375
22.9736328125 -50.565673828125 12.22705078125
9.433349609375 -53.375 22.8623046875
22.63671875 -48.6259765625 18.842041015625
-2.863037109375 28.469482421875 -67.367431640625
20.65576171875 -19.049072265625 24.953369140625
11.181640625 -51.114501953125 28.3291015625
-8.04248046875 5.613037109375 33.023681640625
31.440185546875 -11.741455078125 -43.037353515625
34.25830078125 -15.370849609375 -30.52734375
22.324951171875 -37.6357421875 -40.927490234375
22.140380859375 -5.1669921875 -71.469970703125
3.746337890625 9.631591796875 18.532958984375
5.369384765625 -35.0517578125 -42.783447265625
22.92529296875 -2.9599609375 -75.294921875
-11.76123046875 -38.389404296875 64.082275390625
21.2802734375 -63.798095703125 79.482421875
21.45166015625 -37.001708984375 78.560791015625
17.4033203125 -16.106201171875 -47.1669921875
-6.0185546875 -29.099609375 24.21337890625
21.27197265625 -65.1796875 72.265869140625
10.795654296875 29.71142578125 -69.584716796875
38.495849609375 27.69921875 -70.190673828125
6.9677734375 17.601806640625 -29.484375
25.28466796875 -14.442626953125 -34.996826171875
11.76953125 -0.073486328125 -56.532470703125
20.23974609375 -17.572021484375 34.956787109375
3.382568359375 -26.79638671875 42.326904296875
12.392578125 6.579345703125 33.9052734375
3.368408203125 22.138916015625 -33.4111328125
8.71728515625 22.61328125 -36.767578125
-17.932373046875 0.208984375 32.19140625
29.90234375 2.146240234375 -56.58447265625
-2.388427734375 20.221435546875 -75.4501953125
-2.116455078125 24.182861328125 -45.23388671875
12.5732421875 -33.56640625 -43.034423828125
1.594970703125 -37.00537109375 53.39306640625
25.29931640625 -39.057861328125 -48.719482421875
4.3486328125 -0.275634765625 -80.78515625
4.05224609375 8.458984375 24.020263671875
-21.050048828125 -36.136474609375 64.96728515625
13.867919921875 22.69482421875 -34.81787109375
21.416015625 -14.064453125 28.193603515625
-6.041748046875 4.4833984375 38.613525390625
22.1650390625 -43.1728515625 80.199951171875
29.320556640625 -18.476318359375 -32.821533203125
3.865234375 22.73828125 -41.19775390625
25.216796875 -33.6357421875 -59.167724609375
31.06982421875 2.949951171875 -43.4091796875
3.8173828125 26.440673828125 -53.92041015625
29.350830078125 -8.565673828125 -44.41845703125
21.7197265625 -46.124755859375 -41.259521484375
-1.465576171875 4.145751953125 42.304443359375
-1.3525390625 4.62841796875 38.23583984375
14.268798828125 -47.968505859375 -33.25341796875
23.060546875 -22.657470703125 59.134521484375
15.609375 4.806396484375 41.830810546875
12.99072265625 -29.718994140625 43.991943359375
20.1337890625 3.251220703125 45.859375
14.3984375 1.86572265625 -80.74462890625
17.22900390625 -38.9150390625 -45.563720703125
25.220703125 -16.559814453125 -38.9248046875
5.200439453125 24.457763671875 -47.54541015625
-1.371337890625 22.0732421875 -36.725341796875
-11.85205078125 3.83740234375 40.362548828125
19.86328125 -12.728271484375 -48.180908203125
16.125244140625 27.358154296875 -54.6884765625
22.22705078125 -30.85546875 -30.5859375
37.3154296875 -10.014404296875 -34.3818359375
8.62939453125 0.7490234375 -81.6513671875
19.1171875 -45.1953125 82.751953125
-9.77490234375 22.96923828125 -47.072998046875
10.832763671875 -38.845458984375 -27.335693359375
11.662841796875 -29.89892578125 -46.54833984375
24.790771484375 -22.623779296875 -28.417724609375
5.90869140625 18.174560546875 -76.9892578125
10.532470703125 -19.713134765625 -54.86083984375
-14.246337890625 -12.718017578125 12.2822265625
26.158203125 1.254150390625 -43.989013671875
19.19140625 13.61669921875 -1.11962890625
4.70166015625 -22.6962890625 -54.482666015625
15.77880859375 -31.802490234375 -49.982666015625
-18.815673828125 -2.9560546875 41.958984375
1.77783203125 25.85546875 -50.966064453125
14.140869140625 0.956787109375 -53.867919921875
28.40576171875 -35.818603515625 -44.82470703125
-15.17919921875 -26.73876953125 6.3662109375
14.9541015625 -34.475830078125 -45.0078125
23.66650390625 -52.96728515625 7.491943359375
-17.3046875 -4.07080078125 35.995361328125
22.140380859375 -28.673095703125 -23.700927734375
38.345458984375 -15.697509765625 -29.0888671875
23.03125 -22.13037109375 62.048583984375
23.24072265625 -19.3798828125 -47.190185546875
14.95703125 28.17626953125 -60.1572265625
-21.789306640625 -22.393310546875 75.1669921875
-9.5224609375 -19.76708984375 39.907470703125
18.76123046875 -3.325927734375 -82.729248046875
5.88525390625 -41.287841796875 -40.05126953125
19.801513671875 -21.520263671875 30.944091796875
7.712646484375 4.12060546875 29.826416015625
-8.478759765625 -24.6044921875 65.972900390625
-3.105712890625 22.28662109375 -73.61083984375
-9.0458984375 -16.638916015625 40.336181640625
-0.253173828125 -34.846923828125 51.00390625
27.584228515625 -32.044921875 -44.90771484375
20.141357421875 -7.5830078125 35.740234375
21.947998046875 -53.539306640625 18.073974609375
4.103515625 -31.19775390625 47.703369140625
-10.34765625 19.590576171875 -34.5859375
15.551025390625 -63.512451171875 16.382080078125
-6.306640625 -26.600341796875 25.81884765625
-15.748291015625 -33.618408203125 67.826416015625
18.166015625 -10.915283203125 -52.153076171875
-0.97412109375 25.49853515625 -49.7080078125
-16.759521484375 4.2939453125 31.050048828125
-14.747314453125 -27.69873046875 10.86474609375
-16.220458984375 -6.17529296875 33.34228515625
4.033935546875 21.33056640625 -30.57275390625
13.95068359375 -0.03564453125 -82.7841796875
-15.46826171875 -21.370361328125 75.06103515625
14.558837890625 15.61083984375 -3.626708984375
-9.9990234375 -29.732421875 45.9775390625
25.538818359375 7.616943359375 -23.1943359375
17.5947265625 1.55126953125 -76.82666015625
25.46337890625 -5.6123046875 -46.642578125
20.18505859375 -50.761962890625 -33.861328125
33.060546875 26.9697265625 -68.552490234375
2.09423828125 3.88427734375 42.299560546875
7.70703125 4.03955078125 44.32275390625
24.16552734375 -34.188720703125 -40.812255859375
15.76416015625 -21.056884765625 -53.9345703125
35.02197265625 4.677734375 -43.77294921875
14.72802734375 -39.406494140625 -43.44189453125
23.0986328125 -20.77197265625 64.802490234375
10.516357421875 22.12939453125 -31.477294921875
2.0947265625 20.044677734375 -75.34716796875
10.400634765625 -31.674560546875 -42.452880859375
23.925048828125 -39.132080078125 -43.973876953125
15.28369140625 -57.863037109375 22.13037109375
27.041015625 -33.557373046875 -50.391845703125
27.80712890625 -23.69482421875 -33.677490234375
25.07470703125 -15.9453125 -47.0751953125
37.06396484375 -2.006103515625 -32.295654296875
21.897705078125 4.72802734375 -11.868896484375
-15.8486328125 -35.75 52.068603515625
31.003662109375 35.750732421875 -65.905029296875
-28.920166015625 -5.47021484375 51.403076171875
13.32177734375 -42.14990234375 -33.307373046875
-5.751220703125 -17.45458984375 40.03515625
-20.859375 -38.260986328125 63.0849609375
-9.260986328125 -33.24560546875 49.698974609375
0.89697265625 -27.9072265625 43.148193359375
22.031982421875 4.01513671875 -66.763427734375
-16.47119140625 2.57763671875 39.863525390625
24.858154296875 -56.828125 -3.746826171875
3.09912109375 -28.776611328125 -48.734130859375
4.3486328125 -25.91845703125 -49.310546875
5.487548828125 -37.72607421875 -38.6650390625
5.867431640625 22.598876953125 -34.391357421875
-4.560546875 -36.296142578125 52.607666015625
20.0166015625 -6.950439453125 -62.262939453125
6.6279296875 21.08544921875 -27.126953125
19.354248046875 -48.722412109375 -36.2265625
-5.916259765625 -26.323974609375 41.816162109375
11.201904296875 29.24267578125 -63.398193359375
14.4873046875 -51.578369140625 -33.27880859375
-19.55908203125 -40.75732421875 63.831298828125
-17.05712890625 -39.392578125 65.36962890625
21.660888671875 -58.361328125 76.744140625
32.021240234375 -6.201416015625 -40.248291015625
17.269287109375 26.40966796875 -49.811767578125
16.31494140625 -33.877197265625 43.587890625
14.285888671875 24.104736328125 -39.758544921875
13.419921875 25.720458984375 -47.112548828125
22.628173828125 8.88916015625 -21.53662109375
-18.296142578125 -33.22412109375 68.56884765625
-8.1875 4.861083984375 36.16650390625
22.0390625 2.03076171875 -6.337646484375
21.570556640625 4.5595703125 -2.8798828125
20.59912109375 -1.679443359375 44.987060546875
31.6005859375 38.46484375 -65.9130859375
9.87939453125 -58.1240234375 16.951904296875
-10.395263671875 8.3037109375 20.477294921875
9.264892578125 29.265869140625 -65.239990234375
18.298828125 22.728271484375 -35.621826171875
35.27880859375 -3.041015625 -27.39990234375
21.704833984375 -21.239013671875 70.082763671875
-16.898193359375 -0.400146484375 15.7255859375
-7.63330078125 -39.37548828125 55.968505859375
32.757080078125 -10.420166015625 -33.648681640625
20.305908203125 -16.83056640625 -46.6181640625
16.551513671875 6.61572265625 -71.732666015625
-29.674072265625 -0.965087890625 47.30810546875
27.16357421875 3.781982421875 -44.3408203125
6.239501953125 -28.757568359375 45.02734375
6.547119140625 27.470458984375 -56.334228515625
-17.49267578125 -8.169921875 20.235107421875
9.33056640625 -60.4541015625 15.346923828125
27.324951171875 0.527099609375 -56.147705078125
35.10205078125 -9.362548828125 -32.66748046875
28.945556640625 -1.4287109375 -45.575927734375
7.4609375 -53.966796875 -37.36962890625
-1.56298828125 23.103759765625 -39.987548828125
-7.689453125 24.19775390625 -45.513671875
7.154052734375 15.033935546875 -80.5205078125
-29.127197265625 -1.99072265625 51.302978515625
41.013671875 -10.92578125 -33.755859375
-17.880859375 -6.7744140625 31.107421875
22.507568359375 -21.97509765625 20.70703125
26.84814453125 -22.256591796875 -36.4755859375
20.59912109375 -12.79052734375 34.320556640625
20.23779296875 -35.869140625 -32.817626953125
11.87841796875 7.867919921875 28.610595703125
22.347900390625 -44.141357421875 -45.453125
28.623046875 -11.1005859375 -43.710205078125
21.1943359375 -58.630615234375 80.463623046875
7.03369140625 18.29345703125 -25.11083984375
4.396484375 -33.6630859375 50.203857421875
12.497314453125 -55.42529296875 24.510009765625
-5.381103515625 -32.991455078125 49.44140625
25.055908203125 -34.813232421875 -56.54931640625
22.04541015625 7.602294921875 -16.5625
24.281494140625 -53.77490234375 1.542236328125
-10.680908203125 -27.031982421875 41.269287109375
-11.948486328125 9.9609375 18.493408203125
38.0009765625 -3.760986328125 -30.632080078125
16.47412109375 -33.760498046875 -47.509765625
41.13671875 -2.8798828125 -40.111083984375
21.29345703125 -34.912109375 63.40185546875
12.599853515625 -6.9921875 -63.044189453125
-6.754638671875 -22.33642578125 36.587158203125
21.859619140625 -26.267578125 67.581787109375
19.83154296875 -23.14697265625 27.414794921875
-14.007080078125 -19.141357421875 8.232177734375
12.836669921875 10.35986328125 18.010009765625
7.437744140625 -0.700927734375 -75.607421875
22.4990234375 -26.5068359375 -19.53173828125
38.596435546875 -2.5830078125 -39.85888671875
-18.39697265625 -3.403076171875 27.251953125
13.91748046875 -18.6005859375 39.40478515625
14.68994140625 7.71435546875 -73.147216796875
24.697509765625 -15.015625 -40.908447265625
16.033935546875 2.7041015625 -52.592529296875
26.45458984375 27.0791015625 -70.693359375
-2.99658203125 -30.05029296875 46.04638671875
11.060546875 22.322509765625 -42.7001953125
11.620849609375 -43.39013671875 -38.901611328125
21.644287109375 -53.30859375 82.533447265625
13.205322265625 -4.3701171875 -60.039306640625
31.8134765625 -12.649658203125 -30.47314453125
9.791748046875 -63.476318359375 10.28271484375
-18.04638671875 -5.815673828125 25.61865234375
11.07421875 16.980712890625 -15.619384765625
-6.498291015625 24.855712890625 -68.729736328125
-16.86572265625 -39.87109375 57.030029296875
-13.65966796875 -17.315673828125 9.9755859375
14.76708984375 26.199462890625 -49.424560546875
9.850341796875 24.98388671875 -48.0888671875
-10.43994140625 4.62353515625 37.31591796875
-24.98681640625 -2.745849609375 50.770263671875
-8.6376953125 -25.431640625 40.184326171875
-18.285400390625 -40.626953125 59.54541015625
38.87744140625 -5.957275390625 -39.3271484375
20.8056640625 -11.7431640625 30.501953125
19.6650390625 -26.115234375 56.22900390625
-17.17578125 -19.560546875 74.63330078125
14.734619140625 -44.6015625 -33.194580078125
-12.871826171875 4.880126953125 35.600830078125
-4.90283203125 -32.019287109375 66.6298828125
-17.497802734375 2.355712890625 36.689697265625
-13.97314453125 -10.31640625 12.980712890625
21.48291015625 -58.08740234375 6.135986328125
23.060791015625 -28.810302734375 -60.54052734375
17.523681640625 21.25830078125 -25.9365234375
28.591796875 -10.74365234375 -63.445068359375
-14.463134765625 -20.617919921875 10.257080078125
26.720947265625 -5.970947265625 -55.39453125
32.009765625 27.04931640625 -71.27099609375
28.962890625 -31.423583984375 -49.66943359375
-10.277099609375 6.866455078125 27.567626953125
16.885986328125 4.16064453125 45.482666015625
8.681396484375 4.238037109375 37.182373046875
14.677001953125 8.079833984375 27.629638671875
-3.259521484375 23.66162109375 -43.087646484375
11.34765625 -62.43017578125 16.150146484375
22.4013671875 -36.756591796875 -38.068603515625
13.98876953125 4.607666015625 43.940185546875
0.219482421875 24.248291015625 -44.399169921875
23.08154296875 -3.713623046875 -79.748779296875
-1.609130859375 7.71826171875 26.171875
-17.119384765625 -1.26806640625 24.1279296875
20.289306640625 -18.404052734375 32.42138671875
21.121826171875 -42.197509765625 85.502685546875
23.34033203125 -5.156494140625 -77.46142578125
24.968017578125 -12.474853515625 -47.12890625
15.354248046875 10.928955078125 -75.033447265625
15.170166015625 -12.86474609375 -50.131103515625
22.03125 -41.083251953125 78.14453125
1.578369140625 16.371826171875 -79.068115234375
9.3056640625 -25.64404296875 41.13916015625
-13.94140625 8.4130859375 20.10400390625
26.16845703125 -37.6318359375 -46.494140625
-13.337158203125 6.469970703125 28.861328125
30.521728515625 -18.250732421875 -29.158447265625
29.0771484375 -6.962646484375 -42.504638671875
25.26708984375 -30.87548828125 -55.04833984375
21.494140625 -54.675048828125 15.772705078125
-12.19189453125 -40.124267578125 57.708984375
9.122314453125 -23.829833984375 38.07861328125
10.222412109375 22.93505859375 -46.605712890625
3.0048828125 4.24658203125 37.172119140625
-4.981689453125 23.66748046875 -71.899169921875
12.40380859375 2.51123046875 45.686279296875
11.181884765625 -45.896728515625 -37.84521484375
21.7509765625 -8.58447265625 34.205322265625
10.564208984375 8.664306640625 -73.732421875
12.86083984375 9.124267578125 -77.033203125
21.826171875 2.74609375 -0.794677734375
10.35400390625 -63.917236328125 13.72021484375
16.89306640625 15.6943359375 -5.95361328125
28.9296875 -11.704345703125 -38.656494140625
8.4609375 -35.046630859375 -39.511962890625
15.581787109375 25.44091796875 -46.044921875
-6.52099609375 8.599853515625 18.046630859375
13.834716796875 18.994384765625 -19.007568359375
19.800537109375 22.087646484375 -31.1650390625
10.69873046875 -58.073486328125 20.6552734375
22.78857421875 -19.160400390625 -20.72119140625
-7.492919921875 23.7392578125 -59.544677734375
14.700439453125 16.94482421875 -8.662109375
-0.373291015625 7.242431640625 28.841796875
26.64306640625 -12.680419921875 -29.24609375
10.37939453125 21.404541015625 -29.094482421875
21.502197265625 -68.11572265625 69.927978515625
35.17724609375 -52.997802734375 2.34912109375
21.599853515625 -29.544677734375 77.701171875
27.124755859375 -31.871337890625 -41.56298828125
27.767333984375 -22.2890625 -29.07470703125
4.98046875 28.458251953125 -61.4248046875
-0.69384765625 8.682373046875 21.364990234375
17.57763671875 14.09033203125 0.599365234375
11.954345703125 -39.40576171875 -29.386962890625
3.7802734375 19.621337890625 -28.617431640625
26.052734375 -29.592529296875 -60.020263671875
11.8681640625 24.56591796875 -44.037109375
21.85791015625 -54.291748046875 11.661865234375
12.603271484375 -5.72412109375 -65.49853515625
36.490478515625 -7.48974609375 -29.8212890625
-7.59228515625 -36.717529296875 53.260009765625
-10.254150390625 21.065673828125 -40.908447265625
24.73876953125 -18.900146484375 -39.011474609375
22.975830078125 4.5263671875 -71.247314453125
37.7919921875 -0.88427734375 -41.639404296875
5.33740234375 4.513671875 40.485595703125
12.31640625 5.04638671875 -72.7919921875
30.92919921875 -8.534423828125 -37.506591796875
-14.28955078125 7.3359375 23.47802734375
21.819091796875 -51.808349609375 15.876953125
16.55908203125 21.78857421875 -30.2177734375
17.66259765625 -6.87060546875 -62.640625
29.195556640625 -10.251708984375 -66.41796875
-10.37451171875 -39.714599609375 65.669677734375
20.9052734375 3.456298828125 -71.841064453125
-24.78369140625 -13.1376953125 22.04931640625
13.6865234375 13.5771484375 4.616943359375
29.912353515625 4.989501953125 -47.823974609375
-17.516845703125 2.87158203125 17.045166015625
23.071044921875 -24.703857421875 61.288818359375
40.895263671875 0.6689453125 -45.379150390625
21.049072265625 -13.488037109375 -46.189208984375
21.44384765625 -25.36474609375 76.4130859375
-14.3671875 -23.949462890625 11.420654296875
21.97900390625 -18.013427734375 -16.197265625
25.526123046875 -35.15625 -42.483154296875
21.606201171875 -10.76513671875 -51.50146484375
27.29736328125 -0.108642578125 -53.123291015625
28.36181640625 4.034423828125 -54.770263671875
-7.910400390625 27.4853515625 -61.5810546875
21.991455078125 -27.9736328125 -31.114013671875
26.928466796875 -12.10205078125 -37.017822265625
18.379150390625 4.56640625 -72.081787109375
14.8974609375 -1.1650390625 -80.51953125
-6.994140625 26.20849609375 -54.804443359375
19.7265625 -14.5693359375 -68.480224609375
11.771728515625 -42.71875 -29.091796875
-8.521484375 -26.622314453125 38.172607421875
16.26611328125 -43.0908203125 82.84912109375
17.3359375 -22.961669921875 -57.026611328125
22.652099609375 -55.859130859375 -0.45263671875
10.902587890625 29.30419921875 -67.285888671875
14.156982421875 12.419921875 9.084716796875
-14.748291015625 -23.3564453125 5.849609375
-23.481689453125 -10.239990234375 25.463623046875
-14.1494140625 -15.519287109375 40.947998046875
30.3232421875 -10.7666015625 -32.273193359375
22.412109375 -8.6201171875 -74.695556640625
9.726806640625 0.853515625 -78.3330078125
29.483154296875 -8.07763671875 -63.689453125
7.531494140625 -45.06982421875 -40.7197265625
-12.406494140625 -13.381103515625 9.30712890625
23.34521484375 -37.11279296875 -42.981689453125
-8.51904296875 8.21240234375 22.124755859375
32.10595703125 0.43896484375 -23.42041015625
21.052490234375 -23.9404296875 21.8916015625
-12.253662109375 -35.815185546875 52.002685546875
6.357666015625 8.605712890625 23.86474609375
-0.10693359375 -24.3525390625 39.046875
21.778564453125 -56.90087890625 4.174072265625
-29.6337890625 -4.16943359375 53.25927734375
13.4482421875 8.70166015625 25.396240234375
-20.540771484375 -9.716552734375 24.706298828125
3.462158203125 -0.425048828125 -76.886962890625
9.315673828125 -48.484619140625 -38.545654296875
29.414794921875 -10.15185546875 -34.47021484375
-3.623046875 4.7958984375 37.854248046875
27.658447265625 -8.998046875 -45.95556640625
22.291015625 -7.0595703125 -72.77978515625
7.045166015625 -22.4794921875 -52.946533203125
21.94921875 -8.157958984375 43.144775390625
18.250244140625 -36.358642578125 -31.760986328125
21.8115234375 5.05029296875 -52.26513671875
10.872314453125 -17.465087890625 -55.223876953125
21.40576171875 -62.31884765625 77.302734375
0.90673828125 -18.000244140625 41.366943359375
11.478759765625 13.172607421875 5.771728515625
25.552734375 -25.06005859375 -32.38134765625
21.445556640625 -32.554931640625 78.106201171875
-16.026611328125 -4.924560546875 17.88916015625
21.9677734375 -34.63623046875 -25.56103515625
25.908203125 -23.47998046875 -49.84716796875
10.51123046875 4.3427734375 -77.265625
28.859375 -7.413330078125 -60.15283203125
-6.15087890625 21.244140625 -32.635498046875
26.715576171875 34.797119140625 -58.096923828125
28.65625 -22.3203125 -31.51806640625
28.505859375 -26.980224609375 -55.50048828125
-18.001953125 -5.325927734375 23.012939453125
4.7490234375 29.262451171875 -65.958984375
28.088623046875 -23.94384765625 -47.45751953125
1.672119140625 21.5947265625 -31.97216796875
18.683349609375 -37.835693359375 -25.081787109375
36.207275390625 -3.318115234375 -41.419189453125
-16.835693359375 -4.049560546875 29.64697265625
-15.46044921875 -8.977783203125 15.619140625
25.216064453125 -16.290283203125 -43.04150390625
8.65869140625 8.467529296875 25.781494140625
28.8056640625 -12.541748046875 -67.845703125
18.824951171875 -17.673828125 37.47265625
16.169189453125 9.386474609375 -72.677978515625
-8.38427734375 27.007568359375 -67.620361328125
21.642822265625 -67.09814453125 67.747314453125
29.432861328125 -52.75732421875 7.10009765625
15.231201171875 11.41650390625 13.072509765625
28.84033203125 -5.396484375 -44.140869140625
21.062255859375 -12.703125 36.546630859375
32.10205078125 -3.344482421875 -43.96044921875
17.083251953125 20.331787109375 -21.099853515625
-17.92333984375 0.0537109375 38.64013671875
29.702392578125 35.168212890625 -63.58935546875
25.964111328125 -11.39453125 -32.220458984375
9.04296875 28.83740234375 -61.4892578125
8.712158203125 -50.5869140625 -37.958251953125
29.880615234375 -17.129638671875 -31.0185546875
5.201416015625 -24.88427734375 40.39892578125
10.286376953125 27.353515625 -54.91650390625
-2.11865234375 24.510498046875 -47.53173828125
33.5888671875 -3.625732421875 -24.34326171875
29.3046875 36.828125 -60.947021484375
40.33447265625 -1.02001953125 -41.323486328125
9.063232421875 -54.79443359375 -35.133056640625
20.1337890625 -61.340576171875 20.487060546875
16.481689453125 -2.993896484375 -58.73046875
-14.112548828125 -31.103759765625 11.083740234375
21.705810546875 -50.2255859375 17.470947265625
8.0693359375 27.022705078125 -54.73291015625
21.216796875 -38.534912109375 62.315673828125
21.678955078125 -38.191162109375 74.21044921875
16.239013671875 22.622314453125 -34.499267578125
28.462158203125 -54.80078125 0.159912109375
6.974609375 -23.87548828125 37.046142578125
21.90576171875 -23.400390625 70.654296875
7.601806640625 -36.976318359375 -38.71533203125
-20.130859375 -9.77490234375 20.8193359375
21.30615234375 -32.8974609375 74.389892578125
17.806396484375 16.6708984375 -11.591064453125
-0.5263671875 28.1962890625 -62.39013671875
10.5048828125 10.342529296875 18.67578125
-2.05322265625 27.031494140625 -57.486572265625
14.177978515625 27.17626953125 -53.599365234375
-14.577880859375 -5.53369140625 13.180908203125
11.671875 23.828125 -39.84765625
-16.824951171875 -34.055419921875 48.1904296875
8.542724609375 26.111083984375 -50.4716796875
25.020263671875 -8.475341796875 -50.29638671875
13.29931640625 21.03369140625 -27.543701171875
10.934814453125 -17.075439453125 -50.521240234375
-10.54443359375 -29.33447265625 41.33837890625
27.225830078125 -3.933837890625 -45.81591796875
34.89453125 -8.94140625 -34.843017578125
21.654541015625 -24.929443359375 63.197021484375
26.48291015625 1.744873046875 -50.7392578125
-2.564453125 26.3359375 -55.269775390625
4.990966796875 22.47314453125 -39.30078125
15.606201171875 21.149169921875 -28.296875
-1.220458984375 5.9619140625 32.560791015625
20.84375 -16.86181640625 24.65380859375
22.073486328125 -70.031494140625 76.6845703125
3.10107421875 -30.2314453125 -43.95361328125
14.862060546875 9.779296875 21.2294921875
-4.63525390625 8.9482421875 19.6796875
33.61474609375 34.35986328125 -69.27880859375
12.281982421875 15.379150390625 -3.478759765625
38.900390625 -8.559326171875 -36.292724609375
-36.908447265625 -3.8291015625 54.224609375
32.635498046875 -53.42431640625 4.242919921875
21.477294921875 -36.957275390625 76.1396484375
21.5478515625 -25.44970703125 69.634765625
12.620849609375 20.87646484375 -25.31787109375
14.81494140625 28.027099609375 -57.09375
-2.852783203125 22.51318359375 -38.298583984375
-3.854736328125 25.070068359375 -48.900146484375
14.505615234375 -36.2236328125 -27.5595703125
-8.146484375 25.4921875 -66.0400390625
26.5693359375 -20.528076171875 -39.25830078125
26.707763671875 -54.5419921875 4.7939453125
21.5048828125 -32.4521484375 64.01416015625
21.431884765625 -41.5029296875 81.431884765625
29.289306640625 -4.365234375 -61.23095703125
24.341796875 -20.899658203125 -44.485595703125
33.4384765625 -17.82861328125 -28.018798828125
-5.00146484375 5.899169921875 32.792724609375
-1.115234375 -32.946044921875 48.956298828125
3.566162109375 22.534423828125 -36.9697265625
18.6357421875 -45.90625 -42.288330078125
12.61962890625 24.476806640625 -41.804931640625
-3.829345703125 -24.33837890625 39.173095703125
18.634521484375 7.34228515625 -70.55322265625
23.74951171875 -31.98974609375 -47.108642578125
16.6708984375 24.700439453125 -42.33544921875
33.04736328125 1.9658203125 -43.216552734375
-17.443359375 -22.2021484375 75.51123046875
22.072509765625 -70.289794921875 63.762939453125
9.352294921875 4.899169921875 31.13232421875
-5.75439453125 -34.6435546875 50.82568359375
15.4453125 18.951171875 -17.52978515625
-18.009521484375 -0.422607421875 34.2822265625
21.321533203125 -69.278564453125 74.12158203125
-25.324462890625 -11.885009765625 23.927734375
20.23388671875 -36.123291015625 -25.83203125
11.061767578125 -52.289306640625 -34.538818359375
9.761474609375 7.909912109375 28.082763671875
5.2734375 0.7255859375 -77.953369140625
-16.548583984375 0.905517578125 17.4375
10.232666015625 19.72021484375 -21.67919921875
-21.64599609375 -30.504638671875 68.724365234375
21.86279296875 -40.980224609375 -48.779541015625
2.457275390625 23.449951171875 -43.440673828125
21.2314453125 -30.426025390625 61.538818359375
11.17578125 10.759033203125 14.5322265625
17.169677734375 9.9892578125 16.44775390625
-2.28173828125 -30.621826171875 69.56591796875
-15.009521484375 4.85302734375 34.690673828125
-17.17431640625 2.919677734375 21.8837890625
3.58837890625 6.810546875 28.53466796875
22.27392578125 -54.482666015625 78.888427734375
12.508544921875 22.56103515625 -33.131591796875
-17.420166015625 -10.0859375 30.97802734375
-4.0859375 24.400146484375 -46.385986328125
23.244873046875 -37.97509765625 -50.65869140625
30.14453125 27.778076171875 -72.10205078125
39.708251953125 -4.760498046875 -37.712890625
6.012939453125 26.768310546875 -54.101318359375
20.099609375 -19.5654296875 30.064208984375
5.9306640625 -33.36572265625 -41.55029296875
9.818359375 -56.3662109375 21.719482421875
14.79638671875 10.42333984375 17.099609375
-10.842529296875 20.594970703125 -36.434814453125
21.595458984375 -56.9658203125 79.075927734375
17.29833984375 23.364013671875 -26.974609375
20.865478515625 -44.380859375 56.114013671875
19.519287109375 -15.584228515625 40.3798828125
21.81103515625 -56.48779296875 12.39453125
7.06591796875 22.982666015625 -38.798095703125
2.15478515625 26.811767578125 -55.9619140625
36.79248046875 2.357666015625 -43.335693359375
-4.5556640625 7.776123046875 24.788330078125
22.6357421875 1.118896484375 -67.80859375
2.199462890625 -32.193603515625 48.097900390625
22.268310546875 -54.393798828125 4.755126953125
15.373291015625 12.10400390625 10.82958984375
-8.776611328125 1.560791015625 44.709716796875
28.552001953125 26.57470703125 -70.6875
26.22265625 -8.4853515625 -56.078369140625
22.469970703125 -43.385009765625 -41.398681640625
32.16259765625 24.830322265625 -68.31396484375
13.3984375 17.315185546875 -12.010498046875
22.436279296875 -32.64697265625 -37.689453125
18.285400390625 -10.173095703125 -66.728515625
25.131103515625 -12.579833984375 -33.802978515625
-16.198486328125 -10.606689453125 16.8017578125
-7.2685546875 -21.701904296875 65.38720703125
11.68896484375 12.00537109375 9.895263671875
4.95361328125 26.171875 -52.002685546875
-6.07861328125 7.13134765625 26.96630859375
19.750732421875 -24.557861328125 24.4423828125
12.635986328125 -0.3701171875 -58.466064453125
22.516845703125 -57.81982421875 -1.9111328125
-4.1240234375 28.5830078125 -64.450927734375
