-8.145263671875 -46.82421875 45.8359375
3.114501953125 -110.5361328125 19.3228759765625
34.16064453125 86.311279296875 -49.1845703125
35.166259765625 -11.856689453125 -90.2567138671875
-8.27294921875 -61.18505859375 29.559814453125
-39.3984375 77.916015625 82.9189453125
-8.0244140625 -98.213134765625 45.6942138671875
65.83837890625 101.791259765625 -26.9130859375
39.632080078125 74.85693359375 88.2669677734375
42.664794921875 -55.63427734375 57.87890625
-13.54638671875 77.814697265625 37.4105224609375
40.373046875 -35.750732421875 61.098388671875
2.7939453125 -29.17431640625 31.3533935546875
-66.797119140625 -50.404296875 53.1192626953125
57.394287109375 55.5068359375 -56.2056884765625
29.953125 -3.913818359375 -60.8074951171875
-6.974609375 21.75634765625 49.2344970703125
55.93359375 63.35400390625 84.23486328125
65.708251953125 20.28515625 -56.640625
22.49609375 95.19970703125 -61.763427734375
-12.8212890625 66.885498046875 60.872314453125
-64.7197265625 -5.48681640625 61.4334716796875
-25.977294921875 42.437744140625 73.0958251953125
-23.0205078125 -32.96875 55.921630859375
-49.766357421875 -104.134033203125 44.7010498046875
14.964599609375 -93.92138671875 31.7442626953125
44.075927734375 -86.223388671875 53.8048095703125
-52.113037109375 -72.812744140625 49.0010986328125
45.716552734375 5.71728515625 -128.6961669921875
-19.9306640625 -108.5673828125 45.1612548828125
-12.401611328125 51.15869140625 58.1416015625
-48.692138671875 32.898193359375 69.530029296875
-10.1220703125 65.82763671875 12.2147216796875
-39.501708984375 14.668212890625 65.2530517578125
-23.486328125 58.515625 77.32177734375
32.447021484375 -2.30615234375 -106.6356201171875
1.171630859375 13.40478515625 38.5950927734375
53.070556640625 7.567626953125 -106.89892578125
-22.65478515625 19.303955078125 65.625
42.869384765625 -101.055419921875 52.0218505859375
29.3349609375 42.53271484375 -64.194580078125
27.791015625 21.1611328125 -69.9825439453125
-21.1884765625 -70.017333984375 49.7838134765625
15.20166015625 60.55419921875 -57.236572265625
-8.855224609375 -33.2490234375 39.3082275390625
43.45947265625 -116.040771484375 50.275634765625
25.52587890625 -18.7373046875 -82.01171875
54.903564453125 26.313232421875 74.141845703125
-13.060302734375 29.417724609375 21.513671875
-8.882568359375 -19.06005859375 45.0860595703125
-35.423583984375 -84.650390625 47.8526611328125
30.302978515625 57.366943359375 -59.919921875
-37.41796875 -55.2958984375 51.851806640625
38.209228515625 44.736572265625 79.203369140625
57.115966796875 -59.374267578125 57.85009765625
40.902587890625 -21.436767578125 -80.46044921875
-7.1650390625 -82.769775390625 47.89892578125
-17.82763671875 84.4033203125 67.416259765625
-65.4892578125 -121.860107421875 44.1767578125
-20.81787109375 -6.845947265625 61.560302734375
44.5634765625 61.79833984375 -51.4202880859375
11.658203125 99.267822265625 -54.18896484375
57.15234375 -56.453857421875 -88.7423095703125
25.03564453125 -65.711181640625 -89.8966064453125
1.302734375 -0.123046875 35.6270751953125
-43.89599609375 65.724609375 78.954345703125
-13.800537109375 76.701171875 50.941162109375
35.6240234375 -42.777099609375 -87.9794921875
55.390869140625 -31.4677734375 61.25
20.79052734375 112.663818359375 -30.3624267578125
-24.939697265625 80.11865234375 83.3953857421875
56.22900390625 112.544189453125 -28.2152099609375
22.40185546875 82.3115234375 -58.6949462890625
-16.6787109375 -21.406982421875 58.1361083984375
39.1884765625 113.94921875 -45.9010009765625
45.344970703125 86.433837890625 -55.8685302734375
-35.936279296875 -42.558349609375 53.9776611328125
57.000732421875 -82.418212890625 54.105224609375
56.92041015625 -109.76904296875 51.583740234375
40.707275390625 7.668701171875 -110.2857666015625
14.213623046875 73.580810546875 -54.3040771484375
-39.761474609375 -111.9287109375 43.71630859375
-13.394775390625 51.951171875 34.7857666015625
59.244140625 43.08447265625 -57.639892578125
-39.994873046875 -8.855224609375 60.1470947265625
-63.67529296875 10.747802734375 65.017822265625
35.833740234375 3.875732421875 -86.855224609375
-48.53759765625 44.998291015625 72.8812255859375
-10.29345703125 39.776123046875 8.207763671875
-55.67236328125 -60.953369140625 50.9261474609375
-55.795166015625 -38.0068359375 54.7952880859375
-60.185302734375 -97.47802734375 46.31298828125
36.26025390625 -3.5654296875 -129.5399169921875
-6.50830078125 -75.544921875 23.24609375
-20.867431640625 31.68701171875 70.020263671875
-6.722900390625 -95.02783203125 27.4246826171875
-16.450439453125 13.59521484375 53.4375
7.669921875 -11.739990234375 36.68603515625
-13.051025390625 -40.232666015625 55.1199951171875
-14.852294921875 -57.23095703125 52.0576171875
33.2470703125 -80.078369140625 54.8343505859375
-62.832275390625 -17.878173828125 59.206298828125
38.008056640625 74.019287109375 -52.4598388671875
-37.6708984375 40.00048828125 72.0645751953125
58.930419921875 -45.636962890625 -77.0556640625
9.020263671875 -83.112060546875 25.66162109375
34.796630859375 -99.244384765625 42.9913330078125
-11.89501953125 90.796142578125 58.1292724609375
-13.412841796875 48.2861328125 45.947265625
25.5712890625 106.00341796875 -56.7479248046875
48.50146484375 9.749755859375 -88.477294921875
28.863525390625 -33.810302734375 61.3043212890625
-49.983642578125 21.609375 66.927001953125
-53.456298828125 -25.4482421875 56.7076416015625
-12.7275390625 29.86572265625 40.0140380859375
27.3388671875 9.677734375 -74.416259765625
36.566650390625 6.4423828125 -62.2947998046875
-18.633544921875 70.443359375 80.6708984375
-8.830078125 -7.284912109375 43.9012451171875
50.000732421875 16.086181640625 65.9144287109375
-9.814208984375 38.830322265625 61.9613037109375
-31.464111328125 66.732177734375 79.5623779296875
40.695556640625 19.994384765625 74.0284423828125
-8.41259765625 -23.952880859375 32.634765625
-6.156982421875 20.406494140625 20.041748046875
9.982666015625 -103.119384765625 25.65673828125
-16.8896484375 25.543701171875 53.11767578125
-27.409423828125 -60.52294921875 51.7430419921875
30.316650390625 -60.99462890625 -99.2269287109375
-16.14892578125 -99.72998046875 37.38916015625
-5.897705078125 -103.651611328125 20.2281494140625
25.486328125 -38.437255859375 -85.8212890625
31.652099609375 -57.762451171875 57.59521484375
38.274169921875 -55.801513671875 -87.926513671875
-8.2412109375 -72.11376953125 37.736328125
25.06591796875 -98.507080078125 30.487060546875
-13.268798828125 40.46435546875 20.0516357421875
11.119873046875 109.936767578125 -51.02734375
-7.94580078125 -56.46728515625 39.930908203125
23.87548828125 100.126708984375 -37.7733154296875
-9.25439453125 0.255615234375 55.2239990234375
-9.3115234375 56.51318359375 69.0892333984375
67.453369140625 107.314453125 -36.3707275390625
51.97705078125 37.038818359375 77.1383056640625
-23.58642578125 -96.97216796875 46.4278564453125
37.16650390625 -25.379150390625 62.691162109375
-41.0234375 -19.77587890625 58.09521484375
-62.335205078125 -77.274658203125 48.8330078125
30.026611328125 30.76025390625 -64.3018798828125
53.517822265625 4.783447265625 -62.9385986328125
39.62841796875 -66.018310546875 56.48583984375
6.600341796875 -42.784912109375 31.5234375
-24.450439453125 8.15380859375 64.0474853515625
-58.015869140625 -112.08349609375 44.3333740234375
33.34130859375 -2.68408203125 -95.63525390625
46.349609375 -45.237548828125 59.3511962890625
-7.2041015625 -116.927490234375 34.4925537109375
32.074462890625 -11.084716796875 -113.1414794921875
49.504150390625 71.406494140625 86.9700927734375
39.1845703125 -1.3486328125 -77.3463134765625
-10.261474609375 87.811767578125 37.2410888671875
46.904296875 51.378662109375 80.8223876953125
-16.12744140625 73.23095703125 69.9998779296875
-10.0546875 15.009765625 41.8433837890625
42.931396484375 -38.306884765625 -81.625
-20.399169921875 -119.521240234375 44.1031494140625
50.14697265625 44.852294921875 -52.8323974609375
30.03271484375 -9.772705078125 -73.8262939453125
57.728759765625 13.483642578125 -52.115234375
-6.583984375 -86.17724609375 21.938232421875
-45.1650390625 -64.210205078125 49.751953125
1.065185546875 -61.19970703125 25.0703125
31.0224609375 22.0712890625 -58.0701904296875
68.294677734375 -58.439697265625 -87.2813720703125
38.663818359375 -17.368408203125 -117.944091796875
-13.875 85.12060546875 27.2857666015625
-53.666748046875 -3.9248046875 61.2119140625
-2.009765625 -51.384033203125 26.3656005859375
-43.34326171875 -77.953125 48.0189208984375
-33.32080078125 -31.162353515625 56.161865234375
40.906005859375 -17.68798828125 -97.417236328125
-42.3525390625 3.281982421875 62.583984375
-26.9873046875 -78.34765625 48.813232421875
-58.818359375 32.342529296875 69.9007568359375
20.732666015625 52.85302734375 -60.797607421875
-18.627197265625 49.98681640625 74.9111328125
-54.181396484375 70.07861328125 80.6070556640625
-27.763427734375 83.493408203125 68.7764892578125
-66.280029296875 -40.583984375 55.061279296875
-29.658447265625 -111.617431640625 45.2276611328125
-13.641845703125 52.955322265625 24.8372802734375
27.64306640625 41.218017578125 -52.7464599609375
-7.821044921875 -92.746337890625 37.01318359375
-41.450439453125 -94.48291015625 46.11083984375
-58.40185546875 51.2236328125 75.3701171875
37.162109375 23.28369140625 -73.39697265625
-47.93212890625 57.1591796875 76.1544189453125
33.706787109375 -11.005126953125 -100.87548828125
39.224609375 -16.33642578125 -128.8497314453125
-13.422119140625 68.09130859375 36.5308837890625
35.026611328125 66.70263671875 -58.704833984375
-11.584716796875 34.380126953125 70.904052734375
53.750732421875 -64.7353515625 -83.418701171875
25.44921875 -29.406982421875 -82.2901611328125
30.653076171875 111.927001953125 -50.001953125
-13.557861328125 73.084228515625 28.0189208984375
-7.137939453125 -112.665283203125 23.9644775390625
-12.114990234375 -73.091552734375 49.606689453125
47.796630859375 -55.2607421875 -88.62890625
28.759033203125 -4.896728515625 -121.1500244140625
-7.7666015625 -20.15185546875 55.462158203125
37.017578125 -44.755126953125 60.2291259765625
38.305908203125 93.235595703125 -53.9005126953125
42.341552734375 -76.569091796875 54.9642333984375
-7.890380859375 -1.23974609375 35.985107421875
57.77197265625 23.438720703125 -52.0078125
-6.509765625 -32.51318359375 29.70849609375
24.849609375 57.18798828125 -47.7679443359375
-11.295166015625 -111.11181640625 43.326171875
35.11083984375 49.951171875 -65.0357666015625
-58.192138671875 -87.02734375 47.362060546875
33.4736328125 -20.1640625 -86.8126220703125
29.7509765625 -8.753662109375 -83.016357421875
29.43896484375 79.55419921875 -53.155029296875
-39.89794921875 -121.06591796875 43.4642333984375
-4.011962890625 -54.27490234375 49.1329345703125
-7.570068359375 -42.5400390625 37.8033447265625
-8.5185546875 -50.849853515625 32.833251953125
19.14453125 68.19384765625 -60.1220703125
34.339111328125 15.313232421875 -63.116943359375
49.44091796875 -1.720703125 -132.248291015625
-30.358154296875 -10.0966796875 60.850830078125
-42.0908203125 25.852294921875 68.094482421875
37.714599609375 41.52783203125 -67.3834228515625
52.558349609375 64.44384765625 -57.9510498046875
48.560302734375 53.669921875 -53.47802734375
-13.313720703125 79.48876953125 61.4139404296875
2.4912109375 -18.584228515625 32.908203125
-28.000732421875 51.134765625 74.9754638671875
62.335205078125 33.819580078125 -57.3067626953125
-27.194091796875 -40.9931640625 55.0537109375
-46.81005859375 -40.608154296875 53.6942138671875
-60.728759765625 2.280029296875 63.322265625
47.98046875 -62.94189453125 57.0833740234375
-13.98583984375 71.3125 18.5047607421875
-12.757080078125 -90.365966796875 47.56884765625
36.31640625 5.913330078125 -128.1839599609375
0.927001953125 -80.326904296875 22.69189453125
-32.532470703125 19.691650390625 67.334228515625
-55.607177734375 14.89453125 65.911865234375
-58.205810546875 -52.262451171875 52.573974609375
-13.087646484375 69.853271484375 45.4920654296875
-7.252685546875 -35.769775390625 48.4967041015625
-66.061767578125 -59.03662109375 51.8472900390625
-48.651123046875 76.634765625 82.357421875
-13.002197265625 61.22216796875 53.951416015625
28.507568359375 -106.505126953125 31.2884521484375
-11.928955078125 30.401123046875 58.4190673828125
-17.450439453125 40.737548828125 72.356201171875
-31.70458984375 -92.517578125 47.249755859375
-13.785400390625 -1.3486328125 62.4886474609375
39.927001953125 66.412109375 86.0032958984375
-4.56982421875 6.697021484375 37.1368408203125
-12.84521484375 22.993408203125 14.7996826171875
-12.799560546875 31.168701171875 30.164794921875
27.8515625 91.7392578125 -55.9078369140625
42.541015625 -47.719482421875 -86.2828369140625
-26.04052734375 15.204345703125 57.537841796875
37.8828125 -92.22265625 53.4403076171875
-10.947021484375 57.523193359375 10.0196533203125
-12.006591796875 -48.726806640625 53.292236328125
57.55224609375 -23.46533203125 63.5740966796875
47.043212890625 -29.632080078125 62.1844482421875
-11.572998046875 60.708984375 19.45947265625
31.70947265625 98.091552734375 -51.1612548828125
51.5771484375 -103.1328125 52.415771484375
58.98583984375 -48.471435546875 -85.1309814453125
30.508544921875 -0.43896484375 -71.4527587890625
34.087890625 8.27978515625 -79.428466796875
-16.086669921875 -101.1005859375 46.1893310546875
54.44775390625 55.192626953125 81.13330078125
16.535400390625 89.74658203125 -59.2762451171875
-9.364013671875 10.498291015625 50.1053466796875
-13.7880859375 84.265869140625 44.288818359375
47.733642578125 61.818603515625 83.2542724609375
34.56298828125 -100.22802734375 52.7509765625
37.625244140625 -13.953125 -82.533935546875
52.11474609375 -52.000732421875 58.3758544921875
2.2861328125 -102.282470703125 19.8175048828125
-12.91455078125 38.04443359375 41.4454345703125
28.21435546875 102.892578125 -30.1259765625
-32.2236328125 57.872314453125 77.292236328125
-13.102294921875 57.044189453125 77.01953125
-22.04150390625 -15.248291015625 59.4686279296875
25.21923828125 -46.579345703125 -87.190185546875
-15.63525390625 95.156494140625 35.202880859375
-15.427490234375 -29.441162109375 56.7239990234375
8.214599609375 -64.540283203125 27.38671875
-15.986572265625 24.050048828125 65.91748046875
0.333251953125 -36.970458984375 29.147705078125
38.501708984375 -122.542724609375 49.976806640625
47.810791015625 -94.642578125 53.1131591796875
-20.65478515625 77.14013671875 64.471435546875
35.4677734375 3.709228515625 -101.49560546875
-3.28662109375 -68.141357421875 24.1455078125
9.7890625 -91.973388671875 25.81103515625
40.5126953125 10.940673828125 -85.9962158203125
46.181640625 43.3232421875 78.8243408203125
-31.796630859375 11.413330078125 65.059814453125
14.6357421875 80.068115234375 -59.1439208984375
18.814697265625 102.68359375 -62.74267578125
-31.835693359375 75.080810546875 82.51611328125
-47.63525390625 13.94140625 64.9825439453125
-58.451416015625 -10.461669921875 59.8905029296875
-13.185546875 34.3544921875 14.77734375
22.986328125 60.757568359375 -60.160400390625
-13.128173828125 60.047119140625 36.1072998046875
-8.670166015625 49.057373046875 64.9598388671875
28.265625 4.343017578125 -58.6163330078125
22.705078125 44.311279296875 -58.2872314453125
-47.590576171875 -113.713134765625 44.0570068359375
18.64453125 -102.1376953125 27.186279296875
40.2802734375 59.593017578125 -57.8526611328125
49.87255859375 -38.21484375 61.018798828125
-52.35546875 -95.69580078125 46.2996826171875
33.6943359375 -8.10107421875 -66.90673828125
-52.479248046875 -81.0537109375 47.5048828125
-42.094970703125 -48.0849609375 52.3765869140625
-25.2041015625 -25.447509765625 57.4295654296875
-11.921142578125 66.521484375 69.321044921875
-59.068115234375 -69.188720703125 50.2332763671875
-17.05029296875 -79.21484375 48.6837158203125
-8.247314453125 -64.19140625 36.88427734375
-48.444580078125 -57.126953125 50.8802490234375
-67.7177734375 -100.20947265625 46.6304931640625
-42.0810546875 -102.446044921875 45.08447265625
-8.952880859375 -27.45703125 47.4969482421875
28.34619140625 49.765625 -58.9061279296875
-24.616943359375 0.16015625 62.925537109375
51.29443359375 -115.16796875 50.591064453125
-9.16455078125 -13.29736328125 50.4239501953125
35.47802734375 -3.4716796875 -84.135009765625
-12.2158203125 19.45263671875 24.921142578125
-25.9853515625 25.6962890625 68.6192626953125
-12.481201171875 58.571533203125 62.2764892578125
-19.19384765625 18.702880859375 47.6776123046875
57.008544921875 -67.909423828125 55.84228515625
26.57470703125 23.523681640625 -51.8685302734375
-14.61962890625 -64.866943359375 50.7425537109375
-10.95947265625 71.956787109375 77.74853515625
33.78125 2.825439453125 -112.186279296875
44.18115234375 78.05908203125 -56.4674072265625
-9.808349609375 74.17236328125 65.7852783203125
-12.866943359375 43.27294921875 55.6573486328125
-8.24755859375 -70.810791015625 30.2144775390625
-45.87744140625 -3.294189453125 60.9764404296875
31.12744140625 18.16162109375 -76.1429443359375
-13.002197265625 83.696044921875 53.85009765625
29.364990234375 62.324462890625 -54.226318359375
48.24755859375 22.668701171875 74.3070068359375
-9.290283203125 -16.433837890625 37.084228515625
35.9296875 -21.096435546875 -123.912841796875
-39.886474609375 32.908935546875 70.07470703125
-14.83251953125 -12.0810546875 60.46875
49.1416015625 -79.796630859375 55.07421875
54.17529296875 -89.59765625 53.478515625
-15.579833984375 -107.392822265625 38.385009765625
-57.854248046875 -104.63623046875 45.3624267578125
-31.494384765625 -50.149658203125 52.89990234375
42.963134765625 68.8759765625 -54.7918701171875
-10.076416015625 9.0703125 57.4400634765625
29.77734375 28.04541015625 -72.21435546875
29.060791015625 -41.986083984375 -91.7000732421875
-32.859619140625 45.5322265625 73.9693603515625
35.09033203125 -0.5546875 -65.5377197265625
54.378173828125 48.904296875 -57.9852294921875
30.98193359375 36.551025390625 -69.11767578125
-9.70751953125 23.332275390625 42.4791259765625
-27.083984375 -104.072265625 45.963134765625
56.880615234375 70.5634765625 86.447509765625
61.88623046875 108.946044921875 -31.734619140625
-28.87841796875 -68.437255859375 50.1649169921875
46.76416015625 -122.68310546875 50.0152587890625
-7.755615234375 -79.041748046875 40.349609375
-12.990234375 46.987548828125 29.197021484375
-53.62353515625 38.223388671875 71.0208740234375
-13.60400390625 -99.79052734375 30.303466796875
45.125732421875 8.751220703125 -104.484130859375
14.2529296875 105.86865234375 -56.31640625
49.1162109375 78.4931640625 89.8123779296875
-38.147216796875 71.01025390625 80.8033447265625
-59.076416015625 -44.4267578125 53.5406494140625
38.67431640625 81.550537109375 -53.1666259765625
31.228515625 10.814453125 -67.9344482421875
-28.1328125 35.70654296875 71.327392578125
-13.000244140625 53.867919921875 50.6051025390625
-6.863525390625 -88.466552734375 43.3802490234375
21.337890625 74.9208984375 -58.468994140625
30.27001953125 0.11767578125 -126.27490234375
-8.583740234375 -24.328857421875 39.8780517578125
36.455078125 36.213134765625 77.3192138671875
-34.3466796875 -62.502685546875 51.1253662109375
-12.51513671875 30.353271484375 48.8367919921875
-12.8994140625 70.3408203125 54.259521484375
42.144287109375 -15.94970703125 -75.9537353515625
-35.80224609375 -76.619873046875 48.9127197265625
48.70703125 30.24853515625 75.861572265625
28.279052734375 -86.095947265625 54.4423828125
26.999755859375 36.38037109375 -60.9920654296875
39.171630859375 7.15673828125 -117.2890625
-9.144287109375 -6.159912109375 51.2337646484375
-19.702880859375 -42.797119140625 54.3006591796875
-3.955810546875 -92.99609375 21.13720703125
-35.39453125 -24.16748046875 57.736083984375
-37.412353515625 62.74560546875 78.5328369140625
35.329345703125 -51.73193359375 58.630126953125
36.14794921875 24.892578125 76.42431640625
-10.931884765625 47.612060546875 8.907470703125
-64.9814453125 -114.840576171875 44.8765869140625
-41.40234375 45.883544921875 73.2181396484375
-16.66943359375 63.91748046875 78.8507080078125
-43.119873046875 -70.93017578125 49.1318359375
-25.8251953125 70.731201171875 80.8568115234375
63.248779296875 -52.956787109375 -88.8741455078125
-26.710205078125 80.273681640625 76.6036376953125
-42.520751953125 -85.932861328125 46.8717041015625
61.786865234375 -61.9677734375 -86.9254150390625
57.169189453125 -38.193359375 60.4429931640625
25.40478515625 -58.25244140625 -89.09765625
-45.490478515625 -24.9873046875 56.760009765625
53.32763671875 39.006591796875 -54.9517822265625
-58.1416015625 -31.48828125 55.638427734375
-35.971923828125 -14.521484375 59.510986328125
62.7890625 26.87060546875 -57.732666015625
-3.286376953125 -41.82958984375 45.6077880859375
-51.21142578125 -32.822021484375 55.5498046875
-12.8798828125 45.507080078125 37.3525390625
-0.017822265625 -44.86572265625 27.7142333984375
-11.8671875 16.73779296875 48.4130859375
-12.13623046875 86.608154296875 64.1348876953125
28.043701171875 -24.358642578125 -87.5904541015625
-27.547607421875 -86.876220703125 47.8541259765625
39.569580078125 13.449462890625 71.600830078125
57.0693359375 -75.518798828125 54.181884765625
11.107177734375 92.404052734375 -53.8826904296875
-51.117919921875 64.27392578125 78.3388671875
-8.964111328125 -7.9716796875 36.86474609375
39.945068359375 50.913818359375 81.6492919921875
51.30224609375 12.567626953125 -102.5523681640625
41.796630859375 0.302490234375 -130.7176513671875
30.5517578125 -40.404541015625 60.5137939453125
-58.3955078125 -120.088134765625 43.7808837890625
60.51806640625 117.28173828125 -32.1925048828125
-21.81787109375 -56.582275390625 51.916259765625
-8.119140625 -81.552978515625 26.70556640625
2.16943359375 -8.45654296875 34.3798828125
-54.858154296875 26.103271484375 68.428955078125
-13.540771484375 43.58056640625 13.7188720703125
35.826904296875 -71.53515625 55.366943359375
-7.391845703125 -42.16845703125 51.9351806640625
-23.81787109375 23.535400390625 60.47119140625
28.09521484375 -27.397216796875 63.4600830078125
32.539794921875 -55.726806640625 -93.7215576171875
30.38671875 -2.953369140625 -114.9049072265625
-61.354736328125 -24.265869140625 57.6817626953125
-10.97314453125 90.6884765625 23.7762451171875
-8.41015625 2.962646484375 61.2978515625
53.51611328125 -50.624267578125 -88.315673828125
-10.0166015625 -40.219970703125 44.3701171875
-44.46875 -14.1142578125 58.802734375
-7.622802734375 -71.974853515625 44.814453125
45.89599609375 17.040283203125 71.0738525390625
-44.209228515625 39.207275390625 71.072998046875
27.689208984375 99.001220703125 -56.3758544921875
40.64501953125 -10.122802734375 -130.7220458984375
-13.324951171875 46.71533203125 22.24951171875
-8.7451171875 32.9697265625 64.85693359375
-37.284423828125 7.31298828125 63.9410400390625
41.260009765625 -16.99267578125 -87.1485595703125
51.347412109375 57.9560546875 -57.7314453125
-13.001953125 77.10693359375 43.9405517578125
30.49853515625 -6.34912109375 -127.9638671875
-50.878662109375 50.890380859375 74.661865234375
-43.706298828125 19.719970703125 66.3551025390625
-13.35400390625 54.421630859375 40.877197265625
23.83740234375 88.9130859375 -60.393310546875
-13.751953125 83.19287109375 33.6400146484375
36.333251953125 3.0458984375 -94.4610595703125
32.6025390625 1.73779296875 -81.37109375
-8.048095703125 -49.146240234375 39.7137451171875
31.69677734375 -47.8212890625 -93.0333251953125
-8.026611328125 -59.379638671875 49.90283203125
-8.14892578125 -88.720947265625 28.3887939453125
28.507080078125 -75.72900390625 55.972412109375
30.940185546875 104.577880859375 -51.2265625
30.010498046875 -14.73046875 -85.869873046875
43.16064453125 7.128662109375 -91.1077880859375
-65.749267578125 -93.756103515625 47.27880859375
36.0234375 -85.886962890625 53.997802734375
-12.785888671875 36.04736328125 25.88330078125
-4.223876953125 -19.009033203125 32.3245849609375
36.68212890625 56.662841796875 -62.358642578125
36.652587890625 109.862548828125 -51.2076416015625
-65.0849609375 -11.8935546875 60.111328125
-20.776123046875 -62.919677734375 51.238037109375
-38.545654296875 -2.736572265625 61.558837890625
-10.592529296875 75.760009765625 56.9239501953125
-35.40771484375 -107.128662109375 45.5804443359375
42.74072265625 37.490966796875 77.36474609375
32.959228515625 -64.462646484375 57.0621337890625
-16.652099609375 -114.32080078125 44.7216796875
-18.724853515625 4.310791015625 63.633544921875
-34.623779296875 -116.56787109375 44.175537109375
-54.888427734375 44.1591796875 72.947021484375
30.266357421875 -35.823486328125 -90.708251953125
-9.1240234375 51.54541015625 73.307373046875
-8.6240234375 -111.340087890625 37.14404296875
7.143310546875 -97.85595703125 23.6051025390625
42.900146484375 7.78857421875 -123.4371337890625
22.338623046875 106.144287109375 -38.906494140625
51.9609375 -60.01611328125 -88.297607421875
35.7568359375 -31.4765625 61.604736328125
-6.370361328125 -102.182373046875 26.345458984375
-7.973876953125 -54.10986328125 27.481201171875
-22.810302734375 65.21484375 79.2044677734375
34.652099609375 -11.047119140625 -129.074462890625
-51.09619140625 -66.249267578125 49.686279296875
-40.998779296875 -37.6435546875 54.5030517578125
33.159912109375 72.035888671875 -55.9036865234375
-50.1201171875 -20.267578125 57.8975830078125
26.704833984375 -12.740234375 -79.270263671875
-17.811279296875 -94.56787109375 46.6572265625
-63.08642578125 16.722900390625 66.7408447265625
8.680419921875 -108.626220703125 21.4071044921875
-14.11572265625 23.287353515625 48.004638671875
-12.927978515625 25.31787109375 26.8782958984375
-8.350341796875 -4.702392578125 60.57080078125
34.748046875 -19.80419921875 64.01806640625
43.212158203125 -55.44970703125 -84.1773681640625
-17.845458984375 24.748779296875 59.2894287109375
16.42822265625 98.45166015625 -58.898681640625
-22.737548828125 13.876708984375 52.4752197265625
-12.810302734375 89.897216796875 31.071533203125
-46.363525390625 71.17822265625 80.4930419921875
13.911865234375 106.323974609375 -46.7796630859375
31.509765625 20.954345703125 -65.06689453125
-56.69189453125 -18.21142578125 58.75634765625
-19.004150390625 11.03564453125 63.8629150390625
-10.794921875 -34.3935546875 55.9656982421875
-27.617431640625 76.55029296875 66.5296630859375
41.03271484375 -49.43701171875 58.7694091796875
-8.5986328125 39.131591796875 68.4127197265625
64.5927734375 -45.157958984375 -81.102294921875
-3.543212890625 -5.923828125 34.8553466796875
-67.45361328125 -81.50341796875 48.90673828125
-7.443115234375 -111.7763671875 30.3704833984375
5.25244140625 -87.423583984375 22.7435302734375
-4.4541015625 -109.517578125 19.33447265625
2.847900390625 -55.062744140625 26.03857421875
30.25 28.08544921875 -58.8326416015625
30.648193359375 -13.375244140625 -66.8223876953125
-12.67578125 32.974609375 8.426025390625
-13.74560546875 78.449462890625 25.1600341796875
40.56689453125 -100.83154296875 41.952392578125
51.73779296875 -25.8076171875 62.6182861328125
25.933837890625 -32.634765625 -87.5272216796875
-42.880615234375 9.771728515625 64.109375
-24.95361328125 -115.595947265625 44.82666015625
-0.6875 -73.561767578125 23.439453125
-13.205322265625 57.140625 29.187255859375
-10.375244140625 73.6474609375 14.2557373046875
41.428466796875 -18.4775390625 -112.5452880859375
-17.43994140625 -51.309814453125 52.777587890625
62.580078125 10.417236328125 -53.9677734375
-15.992431640625 -104.7548828125 32.7506103515625
-42.22900390625 -59.103515625 51.02392578125
-13.44677734375 92.20166015625 39.9759521484375
-67.36767578125 -74.12060546875 49.7684326171875
31.18017578125 -98.101318359375 33.682373046875
-62.23046875 -35.88818359375 55.822265625
-8.715576171875 -39.17431640625 32.9710693359375
32.764404296875 -9.86767578125 -107.3118896484375
30.591796875 99.829833984375 -23.623046875
-13.17041015625 -84.4462890625 48.4039306640625
-47.37353515625 -8.923583984375 59.495361328125
28.44189453125 5.390869140625 -79.09423828125
-42.06103515625 58.0244140625 76.93408203125
-52.755859375 -43.61572265625 53.4534912109375
-6.849609375 -114.965576171875 42.2698974609375
40.64794921875 -20.725341796875 64.10107421875
30.761962890625 3.255615234375 -63.918212890625
-5.37451171875 -36.489501953125 54.10400390625
-9.105712890625 -12.9150390625 41.98876953125
-1.5068359375 -25.08642578125 30.9300537109375
25.56103515625 46.87939453125 -46.939208984375
25.187255859375 36.59130859375 -49.9801025390625
-11.06640625 -16.91455078125 59.163330078125
-20.6796875 72.435302734375 73.699951171875
-13.695068359375 67.62158203125 23.233642578125
-12.941650390625 41.801513671875 46.00390625
67.142333984375 102.08642578125 -33.6527099609375
34.297607421875 -6.07958984375 -89.291259765625
38.20849609375 87.365478515625 -54.1690673828125
-27.168701171875 23.248046875 54.6602783203125
-11.250732421875 84.829345703125 21.9078369140625
7.86865234375 -77.030029296875 25.43603515625
-10.617919921875 -98.858642578125 40.48388671875
33.568115234375 -8.956787109375 -95.0811767578125
-14.2529296875 60.551025390625 13.7774658203125
-4.644775390625 13.209716796875 38.573974609375
-5.4072265625 -62.749267578125 24.748046875
-53.679931640625 56.299072265625 76.4439697265625
50.418701171875 -57.74169921875 57.8094482421875
-26.529541015625 -5.173095703125 61.7452392578125
44.863037109375 -5.54443359375 -131.5966796875
-12.755859375 27.51220703125 34.73779296875
-9.071044921875 1.6103515625 49.6126708984375
-8.302001953125 10.41796875 64.935791015625
39.36572265625 -60.36572265625 57.6103515625
-13.762451171875 55.566162109375 17.8486328125
-57.013427734375 8.83642578125 64.5137939453125
45.5126953125 67.31494140625 84.91943359375
-9.011474609375 -0.866943359375 41.77294921875
-38.61181640625 -28.90185546875 56.0418701171875
-36.37353515625 23.9091796875 68.1890869140625
-56.41357421875 -77.0947265625 48.890380859375
-7.88525390625 -76.739990234375 48.2520751953125
26.983642578125 15.010009765625 -72.32568359375
29.23876953125 -63.862060546875 -94.3758544921875
27.203125 18.2099609375 -56.222900390625
48.860595703125 5.40185546875 -66.2247314453125
-46.13720703125 -97.728759765625 45.5418701171875
23.5966796875 -104.32666015625 29.3017578125
-48.986328125 1.374755859375 62.148681640625
-8.317626953125 -56.489013671875 34.2191162109375
-13.260009765625 89.205322265625 52.3455810546875
-15.388916015625 30.198486328125 69.3779296875
13.8994140625 68.1630859375 -57.8621826171875
19.373291015625 -97.0537109375 29.6817626953125
34.175537109375 -106.10546875 32.126953125
15.01806640625 -104.971923828125 30.5592041015625
-9.014892578125 8.92041015625 41.1624755859375
36.188232421875 -14.65380859375 -96.4090576171875
41.25732421875 -30.11376953125 62.19970703125
68.197998046875 -64.28955078125 -82.8480224609375
32.333984375 10.635986328125 -60.49169921875
-61.020263671875 -63.877197265625 50.762939453125
-52.655029296875 -110.20654296875 44.3133544921875
49.80078125 12.4560546875 70.25927734375
-12.81787109375 48.1708984375 52.8367919921875
28.51123046875 84.881103515625 -54.7939453125
33.74658203125 92.094970703125 -50.7757568359375
-28.813720703125 -35.604736328125 55.492919921875
-48.234375 26.88037109375 67.9306640625
27.587158203125 4.092529296875 -73.647216796875
51.142333984375 66.3251953125 84.4793701171875
32.396728515625 -4.39453125 -101.407470703125
-26.963623046875 14.218017578125 65.7117919921875
-45.802734375 -108.387939453125 44.1650390625
2.541015625 -66.559814453125 24.263671875
27.478515625 -6.919921875 -78.2197265625
1.02734375 6.439453125 36.763671875
-45.099853515625 49.988037109375 74.2108154296875
-46.2890625 -119.09130859375 43.1300048828125
6.986328125 -59.083740234375 27.788330078125
-12.829833984375 33.924560546875 36.15283203125
-22.929931640625 37.766845703125 71.5931396484375
-13.3583984375 -106.144775390625 44.87158203125
47.162109375 65.62939453125 -56.552978515625
-57.136962890625 -92.838134765625 46.9288330078125
56.85302734375 -117.063232421875 50.6217041015625
-8.201416015625 -55.50244140625 45.6658935546875
57.67529296875 28.2041015625 -55.8302001953125
30.24462890625 -10.71826171875 -119.3248291015625
36.087158203125 30.580810546875 76.119873046875
-9.750244140625 -53.664306640625 52.085205078125
45.183349609375 56.4462890625 82.3121337890625
43.424560546875 26.262451171875 74.4996337890625
-47.161376953125 -82.5654296875 47.0208740234375
-58.810546875 67.1005859375 79.9071044921875
-7.9208984375 -77.318115234375 33.405029296875
-9.066650390625 -22.25732421875 49.6092529296875
-10.9111328125 -26.33203125 57.5247802734375
57.584716796875 -52.486083984375 57.6483154296875
14.344482421875 -99.374755859375 31.0179443359375
46.340087890625 -50.965576171875 58.665771484375
-13.048583984375 36.188720703125 56.3192138671875
40.145263671875 -82.258544921875 54.5020751953125
-31.151611328125 -73.67822265625 49.26025390625
51.143798828125 47.86962890625 79.758056640625
-31.031982421875 -56.398681640625 52.1630859375
-53.04931640625 -54.04736328125 51.8804931640625
-34.56494140625 -36.436767578125 55.2281494140625
-19.1376953125 55.28076171875 76.393310546875
-60.814697265625 -57.396484375 51.7799072265625
-6.83740234375 -48.73583984375 27.382080078125
-19.349609375 -37.02978515625 55.5130615234375
-14.7822265625 79.880126953125 66.820068359375
36.48681640625 -15.47509765625 -102.417724609375
-7.40771484375 -87.29248046875 37.41650390625
-34.555908203125 34.052978515625 70.66357421875
-14.99658203125 -120.43212890625 44.1685791015625
-8.99609375 -96.768310546875 32.095947265625
21.515869140625 110.896484375 -35.4903564453125
33.883544921875 61.535400390625 -60.09130859375
-53.636962890625 -115.9228515625 43.7838134765625
-62.597412109375 -109.247802734375 45.2763671875
-22.468017578125 -20.54345703125 58.1776123046875
51.521240234375 -109.59716796875 52.42333984375
5.461181640625 -48.450927734375 29.9635009765625
-34.32275390625 -6.200927734375 61.4876708984375
-22.974609375 -91.593505859375 47.1441650390625
43.847900390625 -71.43798828125 56.053955078125
39.586669921875 7.16357421875 -104.9744873046875
-21.648681640625 -76.346435546875 49.22607421875
35.079833984375 3.463134765625 -106.919189453125
47.40576171875 -49.6845703125 -87.72119140625
-21.692138671875 73.616455078125 68.5009765625
48.327880859375 -58.51708984375 -84.323486328125
30.503662109375 12.760498046875 -77.5609130859375
-1.2138671875 -97.654541015625 20.731201171875
-23.140380859375 24.04638671875 51.126708984375
-8.9306640625 61.86181640625 72.0673828125
-13.092041015625 65.589111328125 17.6781005859375
66.68505859375 112.9736328125 -35.2293701171875
52.365234375 -43.050537109375 60.6351318359375
-13.0224609375 41.576171875 25.330078125
25.60791015625 64.8134765625 -57.748291015625
0.22265625 -85.605712890625 21.8338623046875
-28.732177734375 -98.95849609375 46.34423828125
-59.429443359375 -4.5029296875 61.4063720703125
-55.338623046875 20.935546875 67.0086669921875
-13.322998046875 56.371826171875 57.1806640625
-28.022216796875 -30.3134765625 56.523681640625
-12.98681640625 63.4423828125 40.808837890625
34.568359375 -118.931640625 50.600830078125
-14.228759765625 27.731689453125 11.6441650390625
57.155029296875 -104.48876953125 52.5423583984375
53.125244140625 42.77734375 78.618896484375
-58.93359375 -81.800537109375 48.33349609375
16.880859375 110.6640625 -56.7899169921875
-29.4482421875 6.204345703125 64.1385498046875
-8.89013671875 -29.873046875 33.722900390625
-30.87890625 40.39111328125 72.406982421875
46.026611328125 7.704345703125 -109.69189453125
23.003662109375 53.598388671875 -52.365234375
41.865478515625 1.10302734375 -73.4188232421875
45.74462890625 -15.48681640625 -130.05517578125
54.7373046875 31.51611328125 75.3643798828125
-22.353515625 82.20458984375 65.6158447265625
-13.23779296875 68.514892578125 31.208251953125
48.841552734375 -89.346435546875 53.519287109375
43.855712890625 78.038818359375 88.8843994140625
-53.781982421875 75.302001953125 81.8807373046875
-38.333740234375 -90.205322265625 46.65576171875
13.906005859375 78.93505859375 -54.0032958984375
-12.984130859375 69.9501953125 65.275390625
21.6650390625 22.80224609375 51.881103515625
-26.12060546875 30.980224609375 69.837158203125
-19.419921875 -25.88916015625 57.465087890625
-13.4521484375 83.758056640625 39.03271484375
32.24560546875 16.923095703125 -58.536376953125
-9.59130859375 44.060302734375 66.403564453125
-13.173583984375 52.413330078125 9.8865966796875
16.5546875 72.974853515625 -59.5650634765625
-33.93115234375 79.742919921875 83.8228759765625
41.80712890625 16.03857421875 -85.640869140625
-13.244140625 73.171142578125 34.941650390625
33.078857421875 45.182861328125 -66.783935546875
-12.50439453125 33.18310546875 44.087158203125
35.31640625 -14.43994140625 -110.726318359375
38.6328125 2.914306640625 -80.3665771484375
54.782958984375 -45.83203125 -82.76416015625
43.54736328125 -24.884765625 62.7548828125
-11.3310546875 20.254638671875 19.1953125
28.933349609375 26.156494140625 -67.3958740234375
27.709716796875 -52.62353515625 59.1329345703125
-12.083251953125 17.851318359375 37.228759765625
35.0244140625 -0.57275390625 -89.495849609375
-2.163818359375 -57.10302734375 25.4825439453125
-63.377685546875 -103.104248046875 46.2515869140625
-24.886474609375 -9.9755859375 60.4971923828125
-23.404052734375 47.8984375 74.5426025390625
-41.1435546875 -42.90771484375 53.7093505859375
-8.0537109375 -70.7607421875 24.669189453125
-36.17041015625 -47.826416015625 53.0211181640625
-8.586181640625 -62.21630859375 41.7066650390625
59.960205078125 19.0791015625 -53.870849609375
-12.9384765625 -96.699462890625 46.58642578125
-61.64208984375 36.449951171875 71.4425048828125
25.149169921875 -24.205322265625 -82.559814453125
44.397705078125 72.4169921875 87.3104248046875
-15.350830078125 45.30419921875 73.73681640625
-13.817138671875 58.000244140625 23.5421142578125
31.518798828125 -6.034912109375 -110.867919921875
-28.416748046875 62.562744140625 79.0792236328125
-12.3935546875 39.7001953125 71.8919677734375
-7.1748046875 -47.99365234375 50.781494140625
-8.896728515625 81.67431640625 63.7724609375
35.21240234375 -9.476806640625 -83.4583740234375
37.503173828125 1.096923828125 -61.2779541015625
5.705078125 -6.4599609375 37.573486328125
29.534423828125 -98.251708984375 54.0826416015625
-44.81591796875 -52.395263671875 51.5740966796875
-20.88623046875 25.049072265625 68.3896484375
-39.393798828125 -81.207275390625 47.4967041015625
42.629638671875 62.390380859375 83.52197265625
35.357177734375 38.418212890625 -71.064697265625
-8.92041015625 -31.63134765625 44.5078125
36.779541015625 7.169677734375 -121.8280029296875
-54.98779296875 0.720947265625 62.9034423828125
41.720947265625 -42.810791015625 59.6973876953125
37.505615234375 -47.810302734375 -87.1348876953125
-8.884033203125 4.21630859375 39.1767578125
-47.840576171875 -75.5595703125 48.31640625
27.754638671875 -19.349365234375 -86.671875
-31.445556640625 -44.93408203125 54.43212890625
-30.436767578125 -82.75390625 48.6702880859375
-12.765380859375 84.703369140625 59.4486083984375
52.21142578125 -84.1435546875 53.86962890625
-9.917236328125 81.022216796875 56.8995361328125
-36.153564453125 -94.8525390625 46.4217529296875
52.535400390625 75.446533203125 87.575927734375
-24.959716796875 -109.220458984375 45.484130859375
-20.731201171875 -103.13427734375 46.16943359375
11.46142578125 -108.358642578125 25.63671875
-13.5595703125 78.545166015625 30.220703125
-63.463134765625 -84.6142578125 47.843017578125
-0.265380859375 -106.645751953125 19.527099609375
41.3505859375 -43.665771484375 -83.4935302734375
31.901611328125 -24.06298828125 63.558349609375
13.513427734375 94.3994140625 -58.0670166015625
-14.199462890625 -6.241943359375 61.26806640625
31.267578125 -102.12744140625 30.0440673828125
-7.424072265625 -94.1962890625 41.842041015625
-39.971435546875 -63.523681640625 50.0804443359375
-13.15771484375 66.419189453125 49.1844482421875
-19.134765625 -0.565185546875 62.4173583984375
51.68212890625 -120.6650390625 50.4959716796875
-53.9150390625 -100.451416015625 45.7120361328125
42.23779296875 70.003662109375 -49.9345703125
-10.980224609375 68.820556640625 73.8070068359375
35.6064453125 -15.864501953125 -123.52978515625
24.77734375 55.834228515625 -60.5047607421875
-37.493408203125 19.084716796875 66.5899658203125
37.268310546875 -19.080322265625 -83.0166015625
-6.528076171875 -98.28662109375 23.17138671875
-24.26806640625 -82.56396484375 48.5689697265625
-34.09716796875 50.720458984375 75.0247802734375
-14.28271484375 75.856201171875 20.8963623046875
56.7724609375 36.007080078125 -57.031982421875
65.4833984375 8.50830078125 -50.3690185546875
54.203857421875 44.008056640625 -56.9959716796875
25.952392578125 79.197509765625 -56.7142333984375
23.563232421875 48.362548828125 -61.067138671875
-17.125 -16.484375 58.793701171875
42.08056640625 -96.146240234375 52.2984619140625
1.63427734375 -13.6796875 32.9647216796875
-12.645751953125 66.91357421875 79.7457275390625
30.737060546875 67.538818359375 -56.2548828125
47.24951171875 58.43212890625 -54.95556640625
29.208251953125 36.5390625 -53.356201171875
53.085693359375 -64.955810546875 56.5386962890625
-8.289306640625 -75.556640625 28.7802734375
-31.212158203125 24.578369140625 68.3631591796875
-7.89794921875 -87.584716796875 48.82421875
30.482421875 16.71875 -67.4251708984375
-5.51806640625 -80.8984375 22.5411376953125
28.060791015625 -63.912353515625 57.5120849609375
34.875244140625 78.475830078125 -52.450439453125
-27.675048828125 19.033935546875 66.7734375
-8.694091796875 -45.928955078125 33.09765625
-59.681884765625 56.711669921875 77.212646484375
-47.261962890625 -92.728515625 45.8232421875
51.4541015625 -5.990234375 -130.9085693359375
-13.14306640625 35.001953125 19.6319580078125
-6.8203125 -37.287109375 28.6871337890625
-28.24169921875 -14.43408203125 59.5946044921875
47.380126953125 35.370849609375 77.0863037109375
17.3828125 108.7744140625 -37.06982421875
-10.471923828125 26.26953125 18.8267822265625
28.282958984375 -59.25439453125 -93.0791015625
25.02099609375 -53.177734375 -88.27880859375
37.13330078125 8.315673828125 -83.666015625
30.753662109375 48.082763671875 -63.64697265625
-13.35693359375 38.2275390625 11.842529296875
33.552978515625 -90.021240234375 53.2845458984375
45.43798828125 -36.32470703125 61.620361328125
40.87451171875 5.765380859375 -129.8470458984375
-54.021728515625 33.03857421875 69.757568359375
31.71435546875 52.826904296875 -63.1298828125
-9.783203125 30.003662109375 69.89794921875
-9.25732421875 11.71923828125 45.2969970703125
-11.77197265625 98.063232421875 35.2091064453125
-62.3671875 27.437255859375 69.1656494140625
-7.224853515625 15.542236328125 48.9990234375
31.091552734375 -4.209716796875 -65.7357177734375
43.125 46.90234375 79.8828125
-63.686279296875 6.08056640625 63.6019287109375
47.156494140625 -75.339111328125 55.28759765625
27.916015625 75.1240234375 -54.2965087890625
3.798828125 -24.916015625 33.3795166015625
-34.561767578125 15.252197265625 65.989013671875
46.903564453125 -41.7626953125 -83.66162109375
-42.526123046875 74.564208984375 81.451171875
-25.239013671875 -72.61572265625 49.736572265625
-13.57958984375 71.48779296875 39.924560546875
-44.932861328125 79.587646484375 83.075439453125
31.023193359375 23.9130859375 -74.317138671875
-12.403564453125 23.492919921875 37.337646484375
-20.7734375 44.085693359375 73.288818359375
58.461669921875 -64.7197265625 -82.5142822265625
37.82958984375 28.029541015625 -73.2127685546875
-12.62158203125 29.688720703125 53.73046875
-12.308837890625 63.40673828125 65.7022705078125
-25.866455078125 -121.504638671875 44.4423828125
-66.587890625 -45.697509765625 53.973876953125
-9.0166015625 -2.6904296875 47.515625
15.458251953125 85.0849609375 -59.3424072265625
-7.2646484375 -108.66357421875 26.7420654296875
-26.761962890625 -54.291259765625 52.6158447265625
28.25732421875 -81.34375 54.9530029296875
-61.474365234375 -90.872314453125 47.303955078125
-58.332763671875 72.310302734375 81.3389892578125
-13.192138671875 72.014892578125 49.7392578125
-6.85302734375 -38.9091796875 41.0556640625
-25.25146484375 75.214599609375 82.3380126953125
-22.62060546875 14.0791015625 63.337890625
32.659912109375 -46.52685546875 59.537353515625
-31.469970703125 -26.78466796875 57.166015625
42.598388671875 73.595458984375 -55.202392578125
24.8271484375 40.583251953125 -60.5623779296875
61.01708984375 38.30322265625 -58.1552734375
24.207763671875 18.793212890625 51.901123046875
-13.283203125 62.60498046875 32.0885009765625
-47.5693359375 9.203369140625 63.7076416015625
30.159423828125 -2.524658203125 -82.328125
34.99462890625 113.3046875 -48.410888671875
50.900146484375 -32.9345703125 61.4237060546875
-14.722900390625 -102.02294921875 41.2684326171875
47.318115234375 -63.427734375 -84.2889404296875
-13.3056640625 52.041748046875 30.0694580078125
-11.36279296875 30.164794921875 16.322998046875
32.960693359375 24.3720703125 -61.69970703125
-9.051513671875 23.723388671875 12.09814453125
-53.127197265625 -9.92626953125 59.778076171875
-1.818115234375 -32.087158203125 29.658935546875
-2.573974609375 -40.8671875 28.3204345703125
29.763427734375 -0.594482421875 -119.523193359375
-16.0849609375 -46.436767578125 53.80419921875
-8.295166015625 -67.791015625 33.85595703125
-63.151123046875 -72.04833984375 49.6446533203125
60.67236328125 109.837890625 -27.28271484375
53.68896484375 59.395263671875 83.0902099609375
-8.091064453125 -66.871337890625 42.0023193359375
-43.206787109375 -115.31298828125 43.587890625
46.6083984375 -67.653076171875 56.247802734375
52.490478515625 -94.867919921875 52.9989013671875
-38.36962890625 -33.70556640625 55.0762939453125
-8.8447265625 57.826416015625 74.44775390625
-13.131103515625 48.853271484375 40.62255859375
25.9443359375 31.807373046875 -49.6668701171875
19.72265625 55.03857421875 -56.7861328125
-38.705078125 -98.5576171875 45.1392822265625
56.062744140625 -61.482177734375 -85.8551025390625
-8.1220703125 -91.9248046875 47.0994873046875
37.49365234375 97.830322265625 -53.62841796875
-38.256591796875 28.63916015625 68.9290771484375
-11.551513671875 92.25537109375 35.708251953125
7.13623046875 -104.018310546875 22.0670166015625
53.414306640625 53.6767578125 -57.8170166015625
-16.23486328125 36.362060546875 71.2794189453125
52.42626953125 -76.48388671875 55.0814208984375
28.949462890625 -9.323486328125 -124.7239990234375
-11.162109375 -68.541748046875 49.908447265625
27.202392578125 -46.2451171875 -92.004638671875
-8.27587890625 -31.37939453125 49.911376953125
45.48681640625 12.637451171875 72.522216796875
48.222412109375 -99.9267578125 52.2342529296875
-40.65966796875 -107.42626953125 44.39208984375
-5.979736328125 -44.029541015625 41.8961181640625
-3.134033203125 1.05322265625 36.277099609375
32.654296875 -24.7890625 -87.75146484375
-27.973388671875 78.77685546875 72.4051513671875
-14.30615234375 51.610107421875 75.2891845703125
-22.644287109375 52.37939453125 75.4288330078125
-24.7783203125 -66.309814453125 50.292236328125
25.00048828125 103.578125 -33.37451171875
-65.640380859375 -22.574462890625 58.01318359375
23.816650390625 51.968017578125 -47.787353515625
-50.86474609375 -61.04443359375 50.6312255859375
37.31884765625 -15.60498046875 -91.8603515625
-55.68896484375 -47.517822265625 53.1368408203125
-64.4111328125 -0.361328125 62.523193359375
37.744873046875 -76.4111328125 55.0704345703125
-61.11865234375 -48.7265625 52.966552734375
-15.70703125 -70.26904296875 50.1181640625
-52.7236328125 11.599853515625 64.5118408203125
62.790771484375 -57.91748046875 -88.852783203125
12.336669921875 88.61572265625 -57.7879638671875
37.219970703125 -14.59033203125 -87.1865234375
42.932861328125 45.117919921875 -60.3792724609375
-7.97607421875 -88.2470703125 32.964111328125
-12.934814453125 62.947021484375 58.532958984375
-18.08447265625 -90.083740234375 47.5660400390625
-51.8203125 79.81689453125 83.2437744140625
-9.04296875 4.4521484375 53.4193115234375
-13.734619140625 86.559814453125 68.4189453125
-8.4462890625 -25.798095703125 52.855712890625
4.771484375 -82.923828125 23.3455810546875
-12.412353515625 -115.996826171875 44.5
-13.46826171875 80.9931640625 49.4334716796875
20.225830078125 86.310546875 -58.9462890625
-43.432373046875 30.141357421875 68.8258056640625
-12.620849609375 31.379150390625 25.6201171875
-13.27392578125 85.710693359375 49.428955078125
