-11.2576904296875 5.037353515625 29.65771484375
61.091552734375 75.607421875 -20.318603515625
13.810302734375 16.03857421875 -1.01611328125
33.9425048828125 -59.482421875 11.642333984375
60.342529296875 -28.623291015625 5.78076171875
59.799560546875 3.41015625 -1.14501953125
-7.23388671875 -56.76171875 27.505615234375
-16.746826171875 -33.734375 37.788330078125
-4.2593994140625 98.434814453125 -0.666259765625
-6.0035400390625 -7.9267578125 21.501220703125
-4.12255859375 102.924072265625 5.501953125
44.699951171875 91.5537109375 46.177490234375
59.668701171875 12.675048828125 -3.304443359375
-14.711669921875 16.817138671875 26.9541015625
-6.638427734375 -46.5712890625 38.275390625
-1.714111328125 125.13232421875 -30.3916015625
-8.7269287109375 -13.436767578125 8.92578125
10.9117431640625 -73.50390625 16.1484375
-15.583740234375 44.66259765625 20.058837890625
56.7021484375 88.028076171875 -24.29541015625
48.902587890625 15.418212890625 -3.738525390625
8.6318359375 33.647216796875 -5.608154296875
47.348388671875 22.18359375 -5.29638671875
3.9627685546875 -11.400634765625 4.490966796875
-7.3145751953125 -83.8525390625 36.760498046875
10.1552734375 43.7685546875 -8.603515625
26.2076416015625 -29.284912109375 6.430419921875
43.49169921875 -83.776123046875 14.570556640625
-7.055419921875 -65.78369140625 38.179443359375
-4.17431640625 -43.836669921875 11.580810546875
45.29296875 29.5595703125 -7.26904296875
42.7877197265625 42.899169921875 -10.882568359375
62.069091796875 -20.125 4.224609375
48.6456298828125 -19.1240234375 4.010498046875
-7.50048828125 -87.59619140625 30.2099609375
-2.630126953125 64.195068359375 3.08251953125
38.897705078125 56.7880859375 -14.69384765625
60.7244873046875 82.829833984375 -22.802978515625
46.782470703125 -9.03564453125 1.84375
50.1978759765625 -41.177490234375 8.39111328125
-6.5543212890625 -38.980224609375 33.167724609375
25.843994140625 42.211669921875 -10.372314453125
7.384521484375 55.754638671875 -11.9765625
58.1446533203125 45.63427734375 -11.54541015625
-9.0247802734375 -81.3447265625 19.278076171875
54.9110107421875 24.86181640625 -5.98095703125
38.8748779296875 78.89794921875 14.268310546875
-19.6593017578125 45.347412109375 22.51953125
44.566162109375 -35.805419921875 7.332275390625
46.3836669921875 -0.01953125 -0.1103515625
39.9329833984375 -18.7490234375 4.116455078125
25.7120361328125 68.73779296875 68.69189453125
28.443359375 -47.1533203125 9.625732421875
37.9227294921875 -30.2138671875 6.487548828125
70.53759765625 82.395263671875 -22.505859375
0.46923828125 14.593994140625 -1.01025390625
36.8460693359375 15.283203125 -3.633544921875
71.75244140625 88.736083984375 -24.48193359375
50.4102783203125 -33.43896484375 6.90625
-5.7958984375 59.2734375 -2.025390625
38.4044189453125 -68.962158203125 12.93798828125
-14.0589599609375 52.781005859375 17.423095703125
15.512939453125 32.43115234375 -5.6435546875
4.8350830078125 -84.49267578125 17.815185546875
0.152099609375 -3.525390625 3.287841796875
30.727294921875 59.752197265625 -15.1103515625
21.5260009765625 27.448486328125 -5.434814453125
-6.1480712890625 22.413330078125 13.2158203125
31.17529296875 -8.2724609375 1.722412109375
42.6954345703125 -14.454345703125 3.123291015625
50.1251220703125 33.739501953125 -8.327880859375
-7.53857421875 -81.48779296875 24.349365234375
26.5003662109375 37.76416015625 -8.979248046875
-7.5826416015625 -64.557861328125 19.664794921875
-13.759033203125 0.817626953125 30.728515625
-10.943115234375 30.666748046875 23.109375
-0.9759521484375 37.0263671875 -6.5537109375
-11.544921875 -48.7626953125 28.0419921875
-15.493408203125 -6.01904296875 32.307861328125
-5.41845703125 45.07080078125 15.77001953125
13.27294921875 6.7685546875 0.767578125
18.96728515625 20.67431640625 -3.23779296875
-6.0968017578125 -16.89453125 20.7529296875
-5.8026123046875 40.679931640625 16.848876953125
3.9091796875 -32.676513671875 9.40185546875
40.502685546875 65.048828125 -16.947509765625
-5.005615234375 52.2353515625 14.292724609375
55.2750244140625 -66.723388671875 12.6396484375
7.5831298828125 -70.2138671875 15.718994140625
-6.4251708984375 -15.255859375 32.699462890625
7.349853515625 40.447265625 -7.430419921875
11.9942626953125 -87.07470703125 18.114013671875
66.1190185546875 31.711669921875 -7.933349609375
45.6390380859375 46.1748046875 -11.7373046875
65.756591796875 56.10791015625 -14.46923828125
8.81494140625 -80.130615234375 16.89453125
44.4085693359375 -65.854248046875 12.505126953125
-2.711669921875 31.039794921875 -5.04443359375
16.0528564453125 -34.963134765625 9.189697265625
14.7215576171875 -79.89453125 16.875732421875
57.361083984375 69.381591796875 -18.59326171875
-5.892578125 28.21435546875 13.051513671875
60.4644775390625 100.923828125 13.628173828125
17.455322265625 60.826904296875 -13.655029296875
-3.5809326171875 117.451904296875 -27.032470703125
-8.4036865234375 42.90283203125 19.37451171875
51.22705078125 -28.20947265625 5.837646484375
-6.22998046875 -11.5009765625 24.686279296875
43.855712890625 94.634033203125 39.439697265625
17.0560302734375 -19.561279296875 5.94677734375
43.125 21.5029296875 -4.99951171875
-5.8797607421875 10.561279296875 24.89306640625
42.005615234375 94.325439453125 6.49560546875
-17.6624755859375 -41.25634765625 39.47509765625
-5.89501953125 20.54736328125 18.768798828125
-8.4517822265625 -92.91650390625 22.474365234375
48.1575927734375 -72.693115234375 13.36767578125
15.5054931640625 -57.701904296875 13.097412109375
24.1072998046875 106.68505859375 16.5546875
44.9132080078125 85.90673828125 58.712890625
10.2010498046875 52.766357421875 -11.30712890625
62.69140625 104.073974609375 12.907958984375
8.294677734375 26.00341796875 -4.103759765625
20.2310791015625 -24.67822265625 6.299560546875
61.1773681640625 91.32080078125 -25.45068359375
20.1793212890625 -4.1884765625 1.918701171875
-6.295166015625 46.488525390625 -10.473876953125
61.8563232421875 57.830810546875 -15.01513671875
4.849609375 -76.94140625 17.007080078125
-10.2646484375 53.14892578125 17.266357421875
51.4384765625 -51.172607421875 10.02587890625
6.06689453125 -58.449462890625 13.874755859375
4.4202880859375 27.10693359375 -4.11376953125
-6.406982421875 120.5068359375 -31.393798828125
0.228515625 -51.896728515625 12.659423828125
-26.3218994140625 6.83154296875 34.732666015625
0.3868408203125 50.57373046875 -12.205322265625
-8.44482421875 -52.775390625 16.280517578125
-9.62939453125 -33.389404296875 10.80712890625
38.2152099609375 112.16796875 23.322021484375
-16.51416015625 -15.0869140625 34.35888671875
-8.0621337890625 15.938720703125 2.595703125
-2.9749755859375 128.142578125 -31.866943359375
-6.6534423828125 -21.321044921875 12.7939453125
18.02001953125 67.87744140625 -15.968017578125
-6.2618408203125 22.688232421875 7.665771484375
-7.1817626953125 -48.452880859375 31.5986328125
-16.9515380859375 27.80859375 24.6025390625
53.074951171875 31.06396484375 -7.828369140625
17.2269287109375 -93.09423828125 17.9296875
26.20556640625 12.14990234375 -2.6357421875
19.288330078125 38.247802734375 -7.899169921875
10.3072509765625 68.103515625 -15.259521484375
-6.3465576171875 -6.75439453125 13.3662109375
50.958740234375 88.92919921875 -24.545654296875
-11.55517578125 -3.00927734375 31.238525390625
-6.0233154296875 7.5693359375 17.895263671875
49.973388671875 70.582275390625 -18.7744140625
7.4093017578125 -2.766357421875 2.888427734375
-9.27197265625 11.73486328125 27.32373046875
44.0146484375 80.321044921875 -21.697998046875
-22.6611328125 23.9619140625 27.337890625
36.8865966796875 -45.049072265625 9.070556640625
-6.1915283203125 -9.416748046875 28.635986328125
15.686279296875 86.49169921875 -21.3076171875
-6.8387451171875 -46.281982421875 21.081787109375
45.4620361328125 40.11669921875 -10.159912109375
-20.344970703125 -0.488525390625 31.46533203125
23.4840087890625 30.551513671875 -6.727783203125
31.661376953125 -41.34033203125 8.429443359375
37.9488525390625 49.046630859375 -12.329345703125
67.19091796875 45.46533203125 -11.698974609375
41.8907470703125 12.423583984375 -2.947265625
-14.142578125 -56.869140625 41.646484375
-6.8873291015625 -55.54443359375 31.683349609375
44.4005126953125 -52.500732421875 10.5205078125
24.367919921875 48.878173828125 -11.863037109375
39.572998046875 74.3408203125 12.77099609375
42.5416259765625 -21.385009765625 4.708984375
40.611328125 -48.062255859375 9.536376953125
66.9788818359375 66.8896484375 -17.743408203125
-12.790283203125 -41.21533203125 11.334716796875
68.2296142578125 92.107666015625 -25.700439453125
38.8095703125 32.179443359375 -7.774658203125
-23.68701171875 6.98583984375 31.702392578125
68.1888427734375 50.43408203125 -12.9931640625
57.96875 -24.123779296875 4.899658203125
-14.737548828125 9.28173828125 28.739501953125
24.3232421875 104.095947265625 38.28759765625
-6.4644775390625 -31.05029296875 20.185546875
-4.698486328125 60.927978515625 2.891357421875
-7.4398193359375 -76.771240234375 25.504150390625
65.49951171875 22.00927734375 -5.518798828125
30.6004638671875 -86.873046875 15.53662109375
34.5087890625 -7.292724609375 1.5234375
-5.973876953125 15.943359375 6.70556640625
-6.9080810546875 -49.6025390625 39.957275390625
40.0947265625 25.68701171875 -5.935546875
41.2462158203125 77.20263671875 -20.792724609375
49.7034912109375 -1.328857421875 0.209716796875
-5.95556640625 39.024658203125 -2.239990234375
33.2515869140625 -75.304443359375 14.03759765625
61.1728515625 -8.77783203125 1.9814453125
39.1748046875 -26.734619140625 5.666259765625
64.661865234375 52.557373046875 -13.6826171875
50.6983642578125 84.06640625 -23.004150390625
2.5899658203125 8.986083984375 -0.535888671875
-6.7347412109375 -64.004638671875 23.77490234375
-17.9332275390625 7.704345703125 29.3876953125
27.946044921875 -16.172119140625 3.7919921875
37.1107177734375 -57.950439453125 11.279541015625
20.567626953125 70.205810546875 -17.292236328125
22.658203125 -59.911865234375 12.109619140625
29.1890869140625 26.0341796875 -6.163818359375
44.2388916015625 60.889404296875 -15.831787109375
7.8692626953125 -40.7607421875 10.702392578125
13.6123046875 71.001220703125 -16.4892578125
-5.8548583984375 10.614990234375 11.659912109375
32.4444580078125 -48.539794921875 9.8115234375
26.47021484375 -66.19287109375 12.92333984375
-5.9735107421875 11.9716796875 28.22900390625
18.1451416015625 -12.186279296875 4.0390625
40.2657470703125 83.403564453125 -22.91259765625
15.05908203125 54.52978515625 -11.818115234375
50.3594970703125 -76.89990234375 14.046630859375
2.1202392578125 -72.226806640625 16.0888671875
8.6575927734375 -51.0419921875 12.529296875
-6.4876708984375 -20.889892578125 18.406982421875
37.1114501953125 77.994140625 -20.898681640625
32.457275390625 34.8544921875 -8.587890625
-21.646728515625 -28.230712890625 37.441162109375
34.982421875 -14.08154296875 3.159912109375
-2.00146484375 -79.9814453125 17.380126953125
30.916259765625 16.084716796875 -3.5888671875
-19.1292724609375 -36.040283203125 38.55419921875
27.3450927734375 -55.52294921875 10.96630859375
46.724853515625 33.6689453125 -8.33349609375
-9.0220947265625 -89.29833984375 20.62890625
21.2039794921875 -53.864501953125 11.65283203125
-0.095703125 -36.77685546875 10.281005859375
-5.5426025390625 50.513427734375 17.26708984375
59.010986328125 -61.06884765625 11.609619140625
6.9591064453125 20.109619140625 -2.826171875
54.1142578125 72.46337890625 -19.423828125
20.3936767578125 41.585693359375 -8.88330078125
41.9736328125 51.385498046875 -13.234130859375
-5.78564453125 26.92041015625 19.96484375
-2.091064453125 -87.2080078125 18.15771484375
13.3133544921875 -13.842529296875 5.176513671875
50.4808349609375 37.167724609375 -9.355224609375
51.2283935546875 -21.308349609375 4.642333984375
58.25244140625 -41.836181640625 8.32373046875
48.261962890625 -64.373779296875 12.286376953125
19.1201171875 -28.12890625 7.310546875
18.34423828125 48.1728515625 -10.34130859375
-10.3397216796875 125.548095703125 -35.57568359375
37.6995849609375 18.992919921875 -4.2578125
-3.770751953125 98.790771484375 2.70068359375
-6.390869140625 -24.55078125 18.893310546875
-6.2305908203125 -20.516845703125 25.483154296875
-2.477294921875 -7.051025390625 4.20751953125
9.14697265625 -35.8955078125 9.812744140625
67.7958984375 61.21875 -16.280029296875
37.4979248046875 -65.358154296875 12.328125
6.8583984375 -13.738525390625 5.157470703125
-7.192626953125 -10.93115234375 10.635498046875
-6.7235107421875 -50.691650390625 13.56298828125
-15.385498046875 43.173095703125 -2.25146484375
26.9853515625 71.6279296875 -18.87158203125
39.065673828125 -41.12744140625 8.5185546875
3.4854736328125 -89.993896484375 18.68798828125
-6.07666015625 32.82177734375 -4.559326171875
18.1881103515625 -88.600341796875 17.289794921875
-11.1949462890625 46.75048828125 19.371826171875
24.3841552734375 -25.84765625 6.079345703125
9.722900390625 36.607666015625 -6.6591796875
26.238525390625 -34.733642578125 7.77197265625
46.146484375 82.81494140625 57.416748046875
24.415283203125 -9.73779296875 2.646484375
46.0616455078125 98.366455078125 51.72021484375
36.1256103515625 3.215087890625 -0.71728515625
47.6201171875 26.782958984375 -6.352294921875
-16.4093017578125 -30.408203125 37.100830078125
55.1844482421875 41.633544921875 -10.42822265625
-7.5430908203125 -60.505615234375 15.25927734375
-5.985107421875 0.43212890625 28.002197265625
-6.735595703125 -59.81591796875 34.630615234375
61.8670654296875 50.82177734375 -13.368896484375
6.4014892578125 49.701904296875 -9.921630859375
41.7364501953125 -62.97998046875 11.900146484375
51.851806640625 27.061279296875 -6.604248046875
-9.6717529296875 -38.944580078125 14.682373046875
-9.279541015625 -30.25341796875 36.702880859375
57.4013671875 6.10400390625 -1.65966796875
-7.53564453125 -27.557373046875 8.96337890625
2.0831298828125 2.10595703125 1.400146484375
54.73046875 -57.68701171875 11.06494140625
-21.56396484375 13.296875 28.8994140625
51.9544677734375 -55.210693359375 10.793701171875
-15.0264892578125 40.405517578125 20.861328125
27.19091796875 -3.90771484375 1.106689453125
-20.5726318359375 48.753662109375 21.935791015625
4.256103515625 -94.7548828125 19.14697265625
40.38134765625 87.445068359375 7.728271484375
57.2327880859375 -31.145263671875 6.42431640625
8.974365234375 -28.715576171875 8.37744140625
52.536376953125 3.996337890625 -1.0693359375
-21.5810546875 17.288818359375 27.98095703125
-6.028076171875 6.001708984375 22.751220703125
23.452880859375 2.48095703125 -0.22021484375
18.9366455078125 -0.107177734375 1.55859375
-5.7957763671875 17.65087890625 23.16064453125
-15.806640625 48.48193359375 18.512939453125
-6.969482421875 -52.20263671875 19.868896484375
-7.7001953125 -70.185546875 21.464111328125
62.8785400390625 40.80517578125 -10.450439453125
15.918212890625 74.123291015625 -17.498291015625
11.81591796875 9.4619140625 -0.3095703125
25.5145263671875 -18.90185546875 4.222900390625
-8.1556396484375 49.391845703125 1.418212890625
-0.5550537109375 -59.463623046875 14.404296875
-6.1005859375 -4.8642578125 24.4248046875
5.43896484375 32.880615234375 -5.656982421875
25.028564453125 -41.58837890625 8.57373046875
-13.5152587890625 -2.698486328125 16.65869140625
-5.5538330078125 59.031494140625 11.6005859375
-3.5677490234375 119.694580078125 -30.082275390625
3.1361083984375 44.66162109375 -8.64501953125
34.930419921875 30.11767578125 -7.171630859375
-1.5999755859375 -10.154541015625 4.286865234375
25.0352783203125 -13.56884765625 3.015869140625
-13.008544921875 -15.369140625 33.879150390625
13.05224609375 -65.746826171875 14.986328125
31.0916748046875 -60.95556640625 11.788330078125
20.75341796875 35.4541015625 -7.29443359375
6.1810302734375 5.19140625 0.649169921875
-6.3511962890625 7.295654296875 1.126220703125
26.595947265625 62.764892578125 -16.0087890625
32.25439453125 55.471923828125 -13.9697265625
30.7728271484375 -24.741455078125 5.295166015625
28.7923583984375 43.61767578125 -10.852294921875
-6.6820068359375 -52.597900390625 27.973876953125
13.9647216796875 37.1796875 -6.740966796875
30.845703125 73.46435546875 -19.50830078125
-9.2130126953125 -13.106201171875 33.185546875
36.0882568359375 55.07470703125 -14.19873046875
35.2249755859375 21.435546875 -4.760498046875
24.419677734375 20.689208984375 -4.300537109375
-7.0816650390625 -57.281005859375 23.65869140625
29.40087890625 106.852783203125 18.415771484375
6.9908447265625 -17.673828125 6.1533203125
9.9813232421875 21.783203125 -2.3828125
58.217041015625 85.33642578125 -23.518798828125
-15.0013427734375 -26.792724609375 36.187255859375
-6.0208740234375 12.4091796875 19.475830078125
52.4801025390625 48.796875 -12.525390625
-4.2117919921875 41.48095703125 -7.95166015625
-0.037109375 6.121337890625 1.391845703125
-6.00439453125 25.611083984375 14.87890625
-2.61279296875 8.60595703125 0.482421875
31.2698974609375 82.68408203125 -22.3017578125
67.0413818359375 80.311279296875 -21.967529296875
40.9608154296875 -8.849609375 1.882080078125
10.8084716796875 -19.0107421875 6.067626953125
42.9683837890625 67.400146484375 -17.67578125
23.211181640625 45.94775390625 -10.92431640625
-9.0302734375 -72.6904296875 18.949462890625
37.3170166015625 8.521240234375 -2.00341796875
-6.6055908203125 25.546142578125 22.738525390625
42.828125 72.9755859375 -19.56884765625
-1.2896728515625 -47.850830078125 12.125732421875
9.5762939453125 -8.16748046875 3.920166015625
59.880615234375 29.431640625 -7.275146484375
59.2470703125 19.6416015625 -4.838623046875
53.1190185546875 21.394287109375 -5.243896484375
32.17724609375 -0.96142578125 0.323486328125
5.1693115234375 -49.7685546875 12.41796875
24.1180419921875 -47.755859375 10.148193359375
30.5740966796875 46.68359375 -11.735107421875
-7.94970703125 -19.50146484375 34.440185546875
-11.84814453125 8.0166015625 28.81298828125
60.543701171875 105.911865234375 17.176025390625
-7.9603271484375 -45.463134765625 13.77978515625
-22.5159912109375 2.708740234375 33.883544921875
-5.051513671875 19.338134765625 -1.605712890625
17.2750244140625 3.795166015625 0.85498046875
-23.500244140625 11.98779296875 31.41650390625
-7.00439453125 -83.489501953125 18.17724609375
-17.357666015625 11.82958984375 28.40380859375
-6.1427001953125 52.698486328125 7.539794921875
53.884033203125 -35.70654296875 7.301513671875
-9.280517578125 -1.802490234375 4.245849609375
-6.109130859375 14.120849609375 13.0458984375
13.118408203125 42.040283203125 -8.277587890625
-10.0531005859375 -47.67041015625 25.1806640625
43.0068359375 98.85498046875 9.441162109375
38.404541015625 69.903076171875 -18.59326171875
-13.2171630859375 -61.056640625 42.21630859375
43.2950439453125 96.8349609375 37.28662109375
-10.1427001953125 -54.7177734375 41.025146484375
42.1912841796875 36.421875 -8.67236328125
45.326171875 86.951904296875 51.751708984375
9.8941650390625 -60.344970703125 14.223388671875
13.3660888671875 -26.985595703125 7.82861328125
-5.7894287109375 10.839599609375 8.218017578125
23.828125 9.645263671875 -1.66748046875
41.7259521484375 30.21630859375 -7.341552734375
46.411865234375 3.3935546875 -0.93798828125
57.551025390625 63.551025390625 -16.702392578125
1.076904296875 -17.826904296875 6.1279296875
-7.0079345703125 6.93017578125 4.676025390625
13.0518798828125 -2.388916015625 2.815185546875
42.1158447265625 -42.06298828125 8.52294921875
-9.295166015625 -101.1376953125 22.716064453125
-9.968505859375 -61.169677734375 42.013427734375
22.3931884765625 -36.800537109375 8.129150390625
50.2540283203125 -14.81982421875 3.087646484375
-5.74169921875 -55.933837890625 13.662109375
51.7353515625 76.819091796875 -20.89453125
-11.4970703125 -95.179931640625 33.702392578125
-14.1839599609375 56.908935546875 14.975830078125
-13.2142333984375 -45.62353515625 39.543212890625
14.990966796875 -69.56689453125 15.3662109375
1.719970703125 20.505126953125 -2.390380859375
39.6634521484375 81.100341796875 9.27685546875
-8.4805908203125 57.01953125 16.224853515625
62.5557861328125 -11.718994140625 2.57470703125
12.8714599609375 13.03369140625 -0.35595703125
20.6463623046875 110.486572265625 18.658447265625
25.8248291015625 74.8828125 -19.73974609375
28.5076904296875 92.096923828125 -25.870849609375
13.850341796875 28.11474609375 -4.618408203125
60.9063720703125 48.06982421875 -12.393798828125
34.0128173828125 -43.291015625 8.777099609375
-7.1038818359375 -66.229736328125 30.36962890625
4.2958984375 -5.974853515625 3.897705078125
-7.8238525390625 13.23095703125 1.179931640625
62.15869140625 108.774169921875 18.6923828125
-6.548583984375 -42.118896484375 34.08447265625
50.898193359375 42.8876953125 -10.71728515625
38.0030517578125 -52.13232421875 10.2265625
36.3194580078125 -80.905029296875 14.818603515625
19.9678955078125 -75.761474609375 15.030029296875
-7.101318359375 -66.574951171875 25.938232421875
17.7034912109375 23.533203125 -3.66357421875
4.7783203125 61.164306640625 -13.404541015625
-5.537841796875 -97.308349609375 19.95849609375
43.1053466796875 57.646484375 -14.9736328125
-6.0570068359375 -16.86083984375 28.593017578125
66.0374755859375 28.7626953125 -7.16552734375
3.9320068359375 55.349609375 -12.7626953125
-5.9970703125 -20.179931640625 28.57373046875
-6.365966796875 10.21044921875 14.743896484375
-3.4798583984375 14.06201171875 -0.540283203125
16.225341796875 14.19921875 -1.150146484375
-6.5052490234375 -24.016357421875 25.2177734375
24.974609375 17.748291015625 -3.4453125
-5.8575439453125 -14.994140625 13.533935546875
11.3941650390625 60.89306640625 -13.089599609375
-6.5714111328125 -14.480224609375 18.97998046875
32.4061279296875 -19.93701171875 4.309814453125
-21.8350830078125 -7.588623046875 33.726806640625
47.2713623046875 55.50927734375 -14.378173828125
30.507080078125 19.466796875 -4.303466796875
28.814453125 31.374755859375 -7.27734375
-6.9801025390625 -60.455078125 26.140625
-0.236328125 47.896484375 -9.709716796875
48.8138427734375 40.527587890625 -10.181640625
-6.741943359375 -9.684326171875 14.00146484375
7.3795166015625 -24.7509765625 7.760498046875
40.477783203125 91.605712890625 7.975341796875
54.9251708984375 106.96044921875 18.439697265625
20.8480224609375 16.03125 -2.369140625
34.5987548828125 -52.11669921875 10.4375
49.8450927734375 8.4912109375 -2.2255859375
-6.5347900390625 -42.09375 27.294921875
68.005126953125 72.527099609375 -19.467041015625
-6.1986083984375 -5.5830078125 18.95263671875
38.7115478515625 84.9326171875 11.50244140625
66.917236328125 37.397216796875 -9.38818359375
-6.7659912109375 -39.29638671875 16.30322265625
47.4521484375 72.711669921875 -19.450927734375
-9.05224609375 19.381591796875 26.176025390625
39.9461669921875 41.516357421875 -10.411376953125
16.59423828125 44.3583984375 -8.88720703125
26.9825439453125 51.275146484375 -13.100830078125
-3.25048828125 -50.439697265625 13.118408203125
28.77294921875 112.178955078125 21.355712890625
55.1737060546875 47.5419921875 -12.1533203125
58.8514404296875 78.488525390625 -21.262939453125
40.0555419921875 54.021484375 -13.796875
46.0872802734375 52.641845703125 -13.556640625
19.796630859375 -9.33251953125 3.44775390625
0.4490966796875 25.693603515625 -4.251220703125
50.97412109375 -4.003662109375 0.697265625
21.7518310546875 83.863525390625 -21.861328125
17.3514404296875 -63.9892578125 13.84423828125
-7.4737548828125 -85.689697265625 23.31640625
46.41748046875 -25.16650390625 5.34326171875
46.2967529296875 100.302978515625 7.524658203125
27.1138916015625 56.324462890625 -14.3046875
-8.162353515625 -89.162353515625 33.162109375
52.0745849609375 16.26904296875 -3.908447265625
-8.10986328125 -98.28662109375 24.619384765625
-25.7890625 16.713134765625 33.29443359375
39.2843017578125 -71.739990234375 13.555419921875
8.5384521484375 -76.11669921875 16.287841796875
1.5223388671875 60.572021484375 -12.996337890625
1.4029541015625 39.550537109375 -7.135498046875
-7.199462890625 -24.180908203125 8.2861328125
-0.7764892578125 -72.818359375 16.437255859375
-24.0091552734375 55.041748046875 19.135498046875
64.5137939453125 86.06591796875 -23.560791015625
-7.1802978515625 -73.655029296875 33.1220703125
55.6724853515625 -16.865966796875 3.718017578125
-5.95068359375 -24.731689453125 32.388427734375
8.6484375 -82.976318359375 17.698974609375
66.56982421875 69.72900390625 -18.47607421875
61.363525390625 0.534423828125 -0.383056640625
-6.463623046875 -32.458984375 30.44287109375
56.2646484375 13.650390625 -3.31005859375
-1.3616943359375 -66.03466796875 15.15673828125
39.5242919921875 -85.2548828125 15.26611328125
61.17333984375 10.14599609375 -2.573486328125
33.9857177734375 -84.2431640625 15.324951171875
-10.0679931640625 40.33349609375 21.025146484375
19.7186279296875 -42.310546875 9.841064453125
50.5223388671875 -61.983154296875 11.79345703125
-6.1826171875 5.139404296875 16.2451171875
29.62255859375 2.546142578125 -0.664794921875
18.048583984375 -73.5341796875 15.108642578125
25.8359375 68.739501953125 -17.94580078125
62.1927490234375 32.6015625 -8.003173828125
3.6104736328125 -56.86767578125 13.5673828125
32.3348388671875 9.08984375 -2.169189453125
-6.5006103515625 -31.231201171875 23.1162109375
58.793212890625 -48.10595703125 9.507080078125
9.312744140625 16.9033203125 -1.05224609375
21.6510009765625 60.736328125 -14.709716796875
-7.603515625 -88.253662109375 26.662353515625
47.1978759765625 63.3447265625 -16.593505859375
-6.2515869140625 -25.08935546875 21.945556640625
55.0794677734375 67.111328125 -17.796142578125
21.107421875 -31.6279296875 7.27294921875
-7.1778564453125 -83.618408203125 32.958984375
21.6427001953125 65.364990234375 -16.061279296875
23.815673828125 5.322021484375 -0.82763671875
-7.228271484375 22.400390625 4.9189453125
1.7830810546875 -42.345703125 11.052978515625
-0.3912353515625 -20.21533203125 6.96142578125
-8.8795166015625 -44.19677734375 39.16357421875
54.671142578125 -72.4365234375 13.3818359375
45.5799560546875 11.10546875 -2.823486328125
42.59521484375 18.66455078125 -4.57958984375
-6.0115966796875 -38.626953125 10.84228515625
27.2659912109375 -74.02685546875 13.803955078125
61.6021728515625 35.372314453125 -8.90283203125
58.440185546875 -53.9951171875 10.432861328125
-5.7537841796875 7.633056640625 28.7841796875
-20.7110595703125 42.127197265625 21.72021484375
-6.982421875 4.869140625 2.611572265625
14.15771484375 19.207763671875 -2.14501953125
50.80078125 64.05615234375 -16.826416015625
45.5347900390625 95.10400390625 48.2119140625
25.6591796875 88.273193359375 -23.9208984375
-3.809814453125 -71.873291015625 16.2333984375
-6.406005859375 -27.207763671875 27.666015625
-7.9249267578125 -1.2734375 15.8076171875
36.104248046875 -24.217041015625 5.20654296875
-6.982177734375 0.716796875 9.5732421875
-6.19921875 -37.8134765625 30.533935546875
62.377197265625 27.12158203125 -6.616455078125
22.8304443359375 -89.06201171875 16.363037109375
-7.3975830078125 -76.886962890625 41.63134765625
16.9569091796875 -22.728515625 6.771728515625
31.081298828125 -11.3818359375 2.53173828125
2.5284423828125 -78.658447265625 17.24267578125
-6.017822265625 16.21484375 10.680419921875
9.779052734375 -22.436767578125 7.17431640625
23.0125732421875 42.793212890625 -10.199951171875
13.9912109375 -46.796875 11.739990234375
-13.420166015625 124.01513671875 -35.032958984375
8.480712890625 11.020751953125 -0.386474609375
8.5460205078125 46.57568359375 -9.30712890625
-9.248779296875 -39.564697265625 38.021240234375
-6.9395751953125 -76.842041015625 35.185791015625
-18.7196044921875 40.483642578125 -1.28076171875
-6.7396240234375 -31.13818359375 16.5048828125
-8.0738525390625 -5.259521484375 8.607421875
-9.565673828125 -44.531982421875 25.093017578125
43.514404296875 -78.468505859375 14.283935546875
-6.7215576171875 -65.238525390625 35.037353515625
-21.685546875 31.796142578125 25.717041015625
-14.251953125 93.236572265625 -25.206298828125
39.53662109375 -55.488037109375 10.864501953125
44.2767333984375 84.63916015625 45.6728515625
18.207763671875 76.76806640625 -19.0390625
-18.0723876953125 43.38525390625 20.69189453125
40.2769775390625 -15.948486328125 3.517822265625
-19.93310546875 27.96240234375 24.93701171875
-20.7464599609375 7.44287109375 29.857666015625
58.3009033203125 -67.486328125 12.708251953125
56.1270751953125 104.02197265625 15.6240234375
61.3778076171875 63.9775390625 -16.6416015625
49.27783203125 -56.19921875 10.977294921875
-8.536376953125 1.29931640625 3.87451171875
24.9052734375 -51.928466796875 10.639404296875
24.5146484375 57.759765625 -14.432861328125
15.650390625 -28.684814453125 8.0634765625
-8.109130859375 -16.35693359375 8.305419921875
-7.7120361328125 -18.950439453125 9.548583984375
-4.6871337890625 -61.74169921875 14.81103515625
53.146728515625 -7.118408203125 1.45458984375
26.8260498046875 81.9287109375 -22.150146484375
-21.7276611328125 -2.78759765625 32.418701171875
6.1759033203125 15.159912109375 -1.5771484375
28.8251953125 61.13671875 -16.708251953125
-14.628662109375 -12.9677734375 33.760498046875
-21.9293212890625 -11.7646484375 36.013671875
-7.3453369140625 -85.459228515625 40.10400390625
49.8785400390625 -66.912841796875 12.546630859375
-10.8515625 -8.393798828125 5.43408203125
45.339599609375 6.89306640625 -1.713134765625
-7.47216796875 -79.295654296875 30.373779296875
-6.83740234375 -10.106201171875 5.877197265625
-8.05322265625 -70.73486328125 43.18359375
29.0531005859375 -22.513916015625 4.970703125
-3.2518310546875 -2.08154296875 2.73583984375
-6.2724609375 -19.077880859375 22.546142578125
19.9718017578125 -62.394287109375 12.92822265625
-6.532470703125 -36.39501953125 35.15185546875
18.8004150390625 8.92822265625 -0.255126953125
32.0440673828125 41.27978515625 -10.191650390625
-7.5084228515625 -79.398681640625 43.4384765625
25.5008544921875 66.62890625 66.826171875
52.8331298828125 -42.164306640625 8.608154296875
56.5189208984375 -2.01220703125 0.166015625
21.328369140625 -14.510009765625 4.00244140625
-8.7821044921875 -5.100830078125 31.220458984375
15.24658203125 -41.952880859375 10.854248046875
-6.8448486328125 -37.36181640625 22.744384765625
-6.3331298828125 5.623046875 10.18115234375
3.285888671875 31.252197265625 -4.8828125
25.381591796875 70.53515625 66.373046875
24.8660888671875 -31.722412109375 6.769287109375
57.43798828125 0.900390625 -0.378173828125
25.5579833984375 65.244873046875 -16.799560546875
13.4837646484375 49.552734375 -10.24951171875
-6.9630126953125 -61.678955078125 29.56982421875
57.1475830078125 73.0302734375 -19.610107421875
43.8902587890625 -59.009765625 11.340087890625
-7.9832763671875 -43.253173828125 15.82373046875
-5.7279052734375 -6.184814453125 27.576904296875
22.2508544921875 79.710693359375 -20.578125
35.356201171875 36.276611328125 -9.07080078125
29.2965087890625 -39.378173828125 8.07958984375
57.31494140625 -78.0771484375 13.905029296875
51.556640625 59.71337890625 -15.850341796875
16.5355224609375 29.54443359375 -4.909912109375
56.414794921875 35.269287109375 -8.62548828125
-6.17236328125 -94.16796875 19.564208984375
3.7330322265625 -63.0029296875 14.509033203125
53.8284912109375 -63.02001953125 12.061279296875
57.146728515625 -38.061767578125 7.53271484375
34.52783203125 64.999755859375 -17.15966796875
55.49462890625 32.4140625 -8.0947265625
48.1751708984375 -58.942138671875 11.433349609375
-2.7479248046875 2.499267578125 1.728271484375
-5.6781005859375 53.80908203125 2.939208984375
-21.25439453125 55.980224609375 15.727294921875
-24.48583984375 0.87255859375 35.891357421875
57.5411376953125 -45.50830078125 9.034912109375
6.88232421875 -10.88671875 4.756103515625
-0.2025146484375 -84.864013671875 17.58740234375
11.270263671875 -37.981689453125 10.389404296875
-6.86083984375 -71.9365234375 26.502685546875
14.8079833984375 -86.442138671875 17.7646484375
53.720947265625 88.635986328125 -24.525390625
53.7498779296875 -11.08984375 2.300537109375
-12.388427734375 -20.00439453125 34.71630859375
27.828369140625 -87.1103515625 15.8349609375
63.8077392578125 74.61474609375 -20.32958984375
59.2628173828125 -14.664794921875 2.99365234375
52.864501953125 82.196044921875 -22.615478515625
8.9833984375 -57.73779296875 14.10107421875
43.2030029296875 83.1533203125 -22.8095703125
-9.04736328125 -8.75830078125 31.933349609375
26.4439697265625 67.014404296875 70.84912109375
26.5350341796875 -58.546142578125 11.721435546875
-6.7745361328125 1.90380859375 30.35595703125
-7.7711181640625 -98.183349609375 27.35595703125
25.076171875 -75.689453125 14.0234375
-19.012451171875 -25.092041015625 36.369384765625
-6.2872314453125 34.52685546875 -6.7236328125
31.801513671875 -69.065673828125 13.083740234375
-23.9039306640625 21.49951171875 29.346435546875
12.8807373046875 -60.133056640625 14.009521484375
-24.01318359375 26.780517578125 28.865966796875
-2.7520751953125 -27.8369140625 8.5048828125
14.9111328125 61.242431640625 -12.7041015625
19.361083984375 5.464599609375 0.07861328125
39.0994873046875 -78.27392578125 14.17041015625
47.777099609375 75.73486328125 -20.528076171875
-6.9171142578125 63.121337890625 7.721435546875
14.729736328125 -52.1943359375 12.65625
25.9073486328125 -1.529541015625 0.64111328125
-7.3853759765625 -27.635986328125 14.109619140625
13.21484375 0.394775390625 2.026123046875
9.2308349609375 -43.982666015625 11.15576171875
34.1627197265625 -46.3974609375 9.28759765625
54.57958984375 78.076904296875 -21.23291015625
25.92236328125 32.613037109375 -7.64404296875
19.622314453125 -83.256591796875 16.045654296875
-16.8447265625 54.235595703125 17.393310546875
-14.35205078125 -42.39453125 38.815185546875
3.076171875 52.67236328125 -13.041748046875
-12.2713623046875 -93.477294921875 31.71630859375
21.5126953125 11.0751953125 -1.4990234375
1.8448486328125 -14.287109375 5.805908203125
4.8936767578125 -45.761962890625 11.812255859375
15.5003662109375 -4.48876953125 3.185546875
4.9910888671875 47.3935546875 -9.61279296875
21.290771484375 32.808349609375 -6.948486328125
12.7164306640625 78.606689453125 -19.002197265625
42.5443115234375 1.57421875 -0.3408203125
21.679931640625 21.2412109375 -4.02099609375
59.9896240234375 68.817138671875 -18.1865234375
-5.417724609375 49.658447265625 8.00927734375
63.215576171875 14.427734375 -3.503662109375
-6.4691162109375 -43.20556640625 20.917236328125
-15.6500244140625 -20.469970703125 35.353271484375
53.223388671875 -46.673828125 9.24853515625
15.70849609375 63.994384765625 -14.48828125
0.9237060546875 -11.432861328125 4.671142578125
40.581787109375 8.204833984375 -2.24365234375
47.85009765625 -77.84716796875 14.404052734375
21.1051025390625 -57.59765625 11.960205078125
6.6102294921875 63.09521484375 -13.885498046875
55.7227783203125 56.143798828125 -14.740478515625
44.59375 -68.494873046875 13.0556640625
12.0313720703125 66.047607421875 -14.927001953125
-6.92041015625 -18.457763671875 14.663818359375
24.939208984375 -79.318359375 14.8037109375
-7.1002197265625 -62.036865234375 41.08203125
-9.55224609375 92.02587890625 -23.513427734375
-7.7357177734375 -100.329345703125 20.32421875
55.6630859375 19.089599609375 -4.585693359375
12.4306640625 85.177978515625 -21.0439453125
56.73779296875 -51.952392578125 10.048583984375
-6.53564453125 -59.05712890625 37.195556640625
42.1607666015625 -34.623046875 7.3544921875
42.815673828125 -55.81640625 11.06787109375
20.2177734375 81.7314453125 -20.704833984375
37.0863037109375 58.696044921875 -15.18994140625
-5.831298828125 18.25146484375 17.29443359375
19.63818359375 50.34716796875 -11.211669921875
59.27099609375 89.55029296875 -24.8271484375
13.5191650390625 -92.736328125 18.61962890625
30.5906982421875 37.523193359375 -9.060302734375
0.1923828125 114.951416015625 -22.925048828125
62.9647216796875 89.422607421875 -24.8603515625
-10.148193359375 -65.404052734375 42.31494140625
35.4229736328125 0.65625 -0.408203125
18.9765625 28.10400390625 -4.984130859375
-0.9215087890625 -97.615234375 19.790283203125
-18.9974365234375 19.00830078125 26.8955078125
-7.8885498046875 -0.860595703125 30.481201171875
69.8211669921875 67.440185546875 -18.017333984375
47.158447265625 89.8857421875 -23.935546875
33.6192626953125 -71.145263671875 13.4755859375
2.890869140625 24.698486328125 -3.87939453125
-5.451171875 57.266845703125 7.192626953125
13.2862548828125 -75.4833984375 16.400390625
34.6719970703125 -30.1474609375 6.299560546875
-26.36669921875 23.407958984375 32.030517578125
22.4349365234375 112.031982421875 21.036865234375
-2.87451171875 -33.2412109375 9.2841796875
68.1007080078125 83.414794921875 -22.787353515625
-9.624755859375 -93.291748046875 31.5849609375
37.1817626953125 -21.130126953125 4.720703125
39.5504150390625 34.61181640625 -8.538330078125
1.706787109375 -25.6923828125 7.909423828125
29.065185546875 -44.548095703125 9.215087890625
69.2105712890625 89.3681640625 -24.906494140625
45.806396484375 85.092041015625 -23.392333984375
66.589599609375 74.79443359375 -20.189453125
-12.6658935546875 126.4853515625 -36.43603515625
50.0191650390625 45.296630859375 -11.390869140625
-12.0750732421875 17.07958984375 26.884033203125
50.0218505859375 21.387451171875 -4.98388671875
-6.44580078125 0.458984375 13.960693359375
-7.6124267578125 -3.734619140625 4.949951171875
-10.4268798828125 -1.86181640625 16.44140625
-8.0670166015625 -54.081298828125 14.009521484375
28.3182373046875 8.800048828125 -2.01513671875
-7.5760498046875 -49.704833984375 16.982177734375
16.3966064453125 38.076416015625 -7.25048828125
23.7603759765625 -54.30517578125 11.155517578125
-12.8118896484375 -28.904296875 36.693115234375
50.2718505859375 54.633056640625 -14.238525390625
23.51416015625 25.123779296875 -5.39111328125
48.9210205078125 -30.105224609375 6.27294921875
42.417236328125 23.993896484375 -5.504638671875
-7.7720947265625 -91.87548828125 26.475830078125
43.3548583984375 -44.343505859375 8.969482421875
-6.775146484375 -69.259521484375 25.13037109375
11.163330078125 46.3486328125 -9.216064453125
-8.2071533203125 -0.29443359375 6.109130859375
-6.287353515625 22.39453125 25.319580078125
-6.8720703125 -1.326904296875 22.477783203125
43.776123046875 -23.687744140625 5.159423828125
20.248779296875 86.326171875 -22.5439453125
-23.8116455078125 5.29345703125 34.001953125
56.6959228515625 26.835693359375 -6.283447265625
-6.2059326171875 -14.525634765625 24.155029296875
-5.996337890625 27.2578125 17.377197265625
62.6968994140625 61.293212890625 -16.0556640625
63.3741455078125 24.448486328125 -5.842041015625
-8.850341796875 -78.44140625 18.456787109375
30.675048828125 -77.93212890625 14.386962890625
14.512451171875 -38.12744140625 10.39599609375
47.823486328125 -6.024658203125 1.37158203125
-6.2828369140625 -32.977783203125 26.1806640625
62.2933349609375 101.2841796875 10.551025390625
1.616455078125 -1.170654296875 2.462158203125
-4.88623046875 54.305908203125 11.49169921875
-0.9771728515625 114.236328125 -25.4951171875
49.3154296875 80.48193359375 -21.924560546875
2.14208984375 -30.783935546875 9.112548828125
-6.9130859375 -24.431884765625 35.081298828125
12.26025390625 -10.1611328125 4.46044921875
5.9674072265625 10.344970703125 -0.372314453125
54.087158203125 -19.658447265625 4.2021484375
29.7783203125 21.99853515625 -4.816650390625
9.89794921875 27.931884765625 -4.78173828125
36.46337890625 75.624267578125 -20.055908203125
57.5545654296875 -72.870849609375 13.33251953125
45.3895263671875 66.34130859375 -17.57666015625
19.3143310546875 -50.885986328125 11.260986328125
17.47509765625 -61.07080078125 13.52490234375
38.23583984375 43.421630859375 -10.810546875
48.156494140625 -11.6640625 2.41357421875
-1.9893798828125 24.27197265625 -4.17431640625
56.96337890625 60.473388671875 -15.89453125
-7.1304931640625 -58.95556640625 20.608154296875
-6.2052001953125 5.43603515625 6.75927734375
2.3646240234375 11.828369140625 -0.62548828125
47.385009765625 -46.83642578125 9.2626953125
-10.48046875 -33.450927734375 37.265869140625
17.45703125 80.92724609375 -20.02294921875
-8.6712646484375 -9.030029296875 7.56103515625
-5.95361328125 15.544921875 16.1591796875
-2.2364501953125 21.078857421875 -2.9326171875
34.1849365234375 79.367919921875 -21.402099609375
47.0499267578125 60.6982421875 -15.84375
25.158935546875 83.981201171875 -22.490966796875
56.5587158203125 -11.380615234375 2.257080078125
58.149658203125 -26.702880859375 5.4375
-20.91943359375 22.53076171875 26.099609375
-9.8360595703125 -39.1953125 12.0361328125
-7.359130859375 -81.283447265625 36.76904296875
-13.99462890625 -9.222412109375 32.812255859375
67.9638671875 47.826416015625 -12.346923828125
-17.4144287109375 25.3203125 25.20263671875
-6.1517333984375 -34.418701171875 19.845947265625
30.11669921875 -13.47265625 3.664794921875
-9.885986328125 -24.900146484375 35.408447265625
44.58349609375 35.046630859375 -8.649658203125
44.88818359375 83.22021484375 50.899658203125
51.0362548828125 68.202880859375 -17.919677734375
33.392578125 -36.433837890625 7.517822265625
-8.0465087890625 -14.18701171875 6.381103515625
-8.301513671875 -3.047607421875 17.966064453125
-6.359130859375 -10.592529296875 19.21923828125
7.2476806640625 37.26904296875 -6.60205078125
-7.3707275390625 61.971435546875 -4.185302734375
-0.269775390625 3.688232421875 2.1552734375
38.22900390625 -74.230224609375 13.605712890625
21.1202392578125 -68.078369140625 13.654541015625
0.9384765625 17.6240234375 -1.05859375
39.688232421875 -2.697509765625 0.5537109375
12.65869140625 52.06201171875 -11.35009765625
-13.8822021484375 -35.30712890625 37.791015625
-9.4344482421875 -95.46435546875 21.217041015625
-5.92578125 24.078125 20.287353515625
39.4990234375 -11.578369140625 2.537353515625
-2.2958984375 -23.67529296875 7.44189453125
41.3267822265625 -50.525146484375 10.035400390625
-6.4033203125 57.126220703125 4.474609375
-0.953125 -26.009033203125 8.399658203125
36.3480224609375 -33.05859375 7.073974609375
-11.2667236328125 58.27587890625 14.693603515625
56.1201171875 51.08203125 -13.122314453125
-10.55224609375 -49.12548828125 40.3447265625
55.5833740234375 7.80810546875 -2.196533203125
-7.62939453125 -94.4140625 28.020751953125
-3.0771484375 -12.53662109375 5.11962890625
28.742919921875 -53.41748046875 10.655517578125
-14.4923095703125 -3.79052734375 31.59033203125
-7.43359375 17.4599609375 26.8115234375
52.6903076171875 66.279052734375 -17.5126953125
40.4737548828125 74.4140625 -20.094482421875
-18.168701171875 5.28857421875 30.15283203125
34.831298828125 84.780029296875 -23.133544921875
-12.720947265625 -23.30322265625 35.398193359375
26.322265625 71.311279296875 70.81982421875
49.323486328125 -70.29150390625 12.943115234375
20.054931640625 -78.556396484375 15.51611328125
47.55712890625 -82.06103515625 14.500244140625
-19.887451171875 49.385009765625 19.51318359375
43.99267578125 85.286865234375 42.386474609375
59.1092529296875 -35.80224609375 7.3525390625
-14.541015625 19.6083984375 26.15576171875
36.5787353515625 -16.35595703125 3.40185546875
-18.3333740234375 -18.446044921875 34.994873046875
-22.34619140625 -16.9091796875 36.149169921875
29.0152587890625 -79.841796875 14.5048828125
-5.3907470703125 -69.8984375 16.1240234375
-5.6192626953125 42.922607421875 18.009765625
62.1795654296875 72.892578125 -19.439208984375
61.1639404296875 97.44189453125 13.614013671875
65.2574462890625 43.95703125 -11.08154296875
-7.658935546875 -57.73388671875 17.750244140625
34.9200439453125 -4.860595703125 0.958984375
33.4044189453125 -66.10302734375 12.4765625
1.303955078125 41.852783203125 -8.162841796875
-6.275634765625 -49.72119140625 33.66552734375
-13.38134765625 22.27294921875 25.5712890625
6.1075439453125 57.881103515625 -12.43359375
64.8028564453125 38.711669921875 -9.78125
7.19873046875 -6.01220703125 3.635009765625
28.493896484375 -7.08984375 1.5595703125
-6.0428466796875 16.64404296875 13.15576171875
-22.0152587890625 53.9921875 20.525146484375
35.2525634765625 68.19775390625 -17.903076171875
-6.804443359375 -87.00439453125 37.064208984375
45.0318603515625 23.146240234375 -5.27392578125
24.7784423828125 108.06298828125 18.54052734375
-0.9783935546875 -30.492919921875 9.272216796875
-6.062744140625 27.66455078125 9.937744140625
-8.72216796875 46.935302734375 19.71435546875
0.8955078125 -61.50341796875 14.430908203125
44.8494873046875 89.6416015625 47.988037109375
18.462646484375 -68.00732421875 14.588623046875
-6.9921875 -17.18115234375 34.1875
26.28076171875 -44.36279296875 8.983642578125
-7.134033203125 -71.57275390625 40.4453125
58.82958984375 22.4931640625 -5.57421875
-6.369384765625 7.893310546875 11.208984375
49.845458984375 57.533203125 -14.98681640625
52.003173828125 -9.371337890625 1.852294921875
-7.9263916015625 9.366455078125 5.560302734375
-6.82177734375 -30.968994140625 35.51806640625
-10.356689453125 120.7421875 -33.653076171875
31.0225830078125 88.330322265625 -24.317626953125
-6.1549072265625 -64.354736328125 15.182861328125
-6.07763671875 -15.630126953125 6.814697265625
-8.330810546875 -96.07763671875 23.50244140625
30.787353515625 -75.04296875 14.071533203125
-1.4090576171875 -41.700927734375 11.18212890625
14.397705078125 -54.671630859375 13.3291015625
21.897216796875 49.205078125 -11.39404296875
-7.786865234375 -97.6767578125 33.28515625
33.6402587890625 -25.75830078125 5.61181640625
-2.4334716796875 -15.112060546875 6.0478515625
19.4593505859375 -33.99658203125 8.39501953125
14.113037109375 -19.623046875 6.12939453125
39.251220703125 79.803466796875 11.755859375
-6.7132568359375 124.413330078125 -33.612548828125
46.1990966796875 -17.247802734375 3.492431640625
58.3515625 -21.751708984375 4.349609375
-14.07080078125 46.579345703125 19.723388671875
24.0213623046875 60.3466796875 -15.259033203125
39.9267578125 72.08056640625 -19.166748046875
37.3797607421875 82.947021484375 -22.468505859375
-6.9293212890625 -69.921875 33.845703125
-6.4537353515625 -4.689453125 31.903564453125
29.371826171875 57.1201171875 -14.873046875
-6.25537109375 63.859130859375 2.776123046875
57.743408203125 17.775634765625 -4.28515625
47.02099609375 -38.856689453125 7.784912109375
53.2752685546875 -26.059326171875 5.207275390625
-20.6243896484375 52.4453125 19.04638671875
-6.916259765625 -76.3310546875 27.863525390625
67.1287841796875 63.652587890625 -16.77587890625
21.58251953125 75.75341796875 -19.268310546875
38.782958984375 -38.53271484375 7.8837890625
-6.8724365234375 -74.893798828125 17.449951171875
44.1396484375 92.37060546875 51.4306640625
45.2738037109375 78.288330078125 -21.160888671875
9.8292236328125 -47.787841796875 12.010986328125
15.574951171875 -14.74951171875 5.428466796875
13.7802734375 80.7412109375 -19.560302734375
33.5006103515625 73.5419921875 -19.720703125
-5.212646484375 30.536865234375 -4.46435546875
9.3538818359375 1.679443359375 1.5263671875
-5.280517578125 25.38671875 -2.626708984375
53.3404541015625 -29.40478515625 6.112060546875
26.6402587890625 -68.62841796875 12.98046875
4.094482421875 50.806396484375 -10.220947265625
-9.7149658203125 50.4755859375 17.609375
34.0579833984375 -81.807373046875 14.96533203125
-14.5281982421875 27.95263671875 24.378662109375
-7.5726318359375 -47.85791015625 14.010498046875
-1.963623046875 28.721923828125 -5.0390625
-0.1273193359375 30.822509765625 -5.055908203125
9.7744140625 6.5732421875 0.49853515625
51.384765625 13.078125 -3.16455078125
48.0042724609375 -35.408935546875 7.264404296875
8.610595703125 51.37255859375 -10.104736328125
-6.4718017578125 -14.643310546875 16.0771484375
39.0692138671875 14.36376953125 -3.279541015625
13.16162109375 32.369873046875 -5.0283203125
44.78662109375 -28.0185546875 5.838134765625
-6.7698974609375 37.94482421875 -5.458740234375
-6.2548828125 21.488525390625 -1.9658203125
57.280517578125 -58.243896484375 11.236328125
30.9776611328125 -34.082275390625 7.129638671875
52.2596435546875 -48.896484375 9.823486328125
40.4072265625 45.02294921875 -11.36572265625
1.7601318359375 112.719970703125 -23.254150390625
-7.4666748046875 20.624267578125 2.163818359375
2.515625 -45.38623046875 11.52783203125
0.8592529296875 8.829345703125 1.154052734375
-6.7281494140625 24.928466796875 6.870849609375
2.6380615234375 -34.679931640625 9.889404296875
-4.1175537109375 -36.40966796875 10.29150390625
-8.52490234375 -34.91552734375 37.152099609375
55.40234375 10.38916015625 -2.734619140625
-8.383544921875 6.088134765625 28.8134765625
-5.9925537109375 20.289794921875 7.80712890625
-5.4976806640625 48.09765625 17.24462890625
9.7410888671875 -66.172607421875 14.953125
