-12.0791015625 -1.2177734375 7.518798828125
17.591064453125 38.623291015625 43.383544921875
-28.181640625 -45.236572265625 9.052734375
58.665771484375 5.617919921875 0.1148681640625
37.524658203125 -21.22216796875 18.8568115234375
22.880859375 -33.870361328125 -4.442138671875
18.837646484375 29.503173828125 37.2930908203125
-11.30908203125 -18.7041015625 13.812255859375
59.177001953125 1.550537109375 -1.3262939453125
41.705810546875 -39.56396484375 -2.76806640625
-60.2861328125 -14.69677734375 6.9705810546875
25.4345703125 -35.323486328125 -6.763671875
-16.29296875 -23.755126953125 20.2598876953125
41.294921875 -32.259033203125 8.89453125
-55.65673828125 35.863525390625 25.840087890625
24.91845703125 -36.6396484375 12.2437744140625
8.95166015625 29.333251953125 38.638671875
10.626708984375 38.7373046875 43.8392333984375
49.502685546875 -28.985595703125 16.4169921875
11.3017578125 24.162109375 38.0159912109375
-6.347412109375 -21.900390625 18.7967529296875
-6.86279296875 21.483154296875 12.34228515625
28.741943359375 36.521728515625 44.099609375
17.0029296875 17.355712890625 9.8167724609375
-17.444580078125 24.69580078125 14.024658203125
-21.32177734375 -2.594970703125 12.861572265625
-16.507568359375 -32.858642578125 -1.8323974609375
47.560546875 -26.609130859375 -1.221923828125
40.091064453125 -33.1220703125 13.7059326171875
-45.070068359375 -36.098388671875 -1.55078125
1.9853515625 -35.059326171875 12.6771240234375
28.369873046875 18.50537109375 13.9071044921875
4.28173828125 15.942138671875 10.9683837890625
-17.7373046875 -34.04296875 -5.712646484375
31.3984375 -42.539306640625 -5.39697265625
6.37939453125 17.69775390625 11.0821533203125
53.859619140625 8.92041015625 2.3927001953125
-2.711669921875 42.1611328125 49.69140625
40.907958984375 3.490478515625 3.517578125
52.692626953125 -27.005859375 11.0113525390625
14.67236328125 -1.92724609375 26.5025634765625
27.477294921875 -21.764892578125 17.8935546875
-35.375732421875 14.1259765625 16.52197265625
36.48095703125 -40.00927734375 -4.9317626953125
50.5830078125 6.71728515625 0.7501220703125
52.341796875 -25.62158203125 8.57275390625
-22.244140625 -9.394775390625 14.454345703125
34.082275390625 -34.6904296875 -5.21728515625
18.940185546875 19.260498046875 35.1258544921875
31.0654296875 -25.693603515625 16.9622802734375
-19.972900390625 -2.863037109375 32.851318359375
-8.915771484375 14.98486328125 10.644287109375
20.1181640625 -5.40771484375 24.547607421875
29.110595703125 -41.376953125 -6.981689453125
-53.22216796875 -13.7255859375 16.6827392578125
23.632080078125 19.359619140625 15.2652587890625
-53.39453125 34.59033203125 21.3973388671875
45.458251953125 -20.892822265625 19.1492919921875
40.66357421875 -31.32080078125 -2.1319580078125
4.967041015625 25.799072265625 38.0826416015625
49.955078125 -37.28662109375 -4.1297607421875
37.77392578125 7.996337890625 3.459228515625
5.4072265625 39.01416015625 43.864501953125
-21.465576171875 18.83740234375 14.5626220703125
0.84521484375 -26.621337890625 16.341796875
50.578857421875 -33.26416015625 -2.3651123046875
2.583740234375 44.0625 48.1412353515625
-9.750244140625 -31.2021484375 15.1962890625
46.569580078125 2.66357421875 1.995849609375
-45.3916015625 34.253173828125 23.4256591796875
-51.59326171875 26.794677734375 17.6766357421875
9.21826171875 7.2158203125 20.5906982421875
55.240966796875 -23.44384765625 3.9014892578125
7.400634765625 -31.59521484375 14.471435546875
19.7568359375 -1.771728515625 26.1297607421875
-33.4697265625 32.02294921875 20.2474365234375
-52.6494140625 -14.62353515625 7.915283203125
-17.674560546875 -15.927734375 18.913818359375
-9.998046875 -2.276611328125 5.4073486328125
-12.1513671875 -23.74951171875 20.1712646484375
8.4013671875 -7.658203125 24.2374267578125
-29.466064453125 21.07177734375 15.321533203125
29.195556640625 7.043701171875 6.1990966796875
-8.581298828125 3.88623046875 30.5479736328125
4.72607421875 -34.195068359375 13.9952392578125
62.264404296875 -28.23486328125 1.354248046875
38.32177734375 -43.6357421875 -4.23681640625
-44.333251953125 -18.03466796875 2.543701171875
55.5625 -23.39453125 8.87841796875
-32.7431640625 -36.54443359375 -3.277587890625
27.556396484375 31.3359375 34.7021484375
-57.56689453125 33.982421875 20.1351318359375
52.90576171875 11.127197265625 12.55517578125
38.79345703125 1.860595703125 5.673095703125
43.25390625 -0.164794921875 6.3487548828125
-0.724609375 25.600830078125 12.0296630859375
-61.59130859375 28.65478515625 17.7799072265625
-4.561767578125 32.9912109375 45.29150390625
-0.904052734375 44.5380859375 52.9119873046875
11.357421875 7.52197265625 15.42529296875
-14.951171875 -33.106689453125 14.26220703125
34.62255859375 14.383544921875 33.998291015625
-49.20263671875 34.82470703125 22.503662109375
45.43359375 12.784912109375 8.4481201171875
-3.236083984375 -23.010986328125 19.257080078125
57.03857421875 -31.29052734375 -0.3876953125
-20.89306640625 -39.178955078125 -7.4849853515625
-15.08642578125 -3.771484375 4.5535888671875
-4.359130859375 11.6162109375 13.1903076171875
4.53125 -5.5400390625 24.736328125
-24.444580078125 21.782470703125 14.6798095703125
-23.098876953125 -8.658203125 18.87744140625
47.459228515625 -25.070068359375 18.8165283203125
22.904541015625 3.775390625 14.7618408203125
-27.560546875 14.87548828125 21.60546875
-5.935791015625 31.33447265625 15.832275390625
-21.958984375 -6.027099609375 9.84130859375
-27.805419921875 32.66015625 21.5513916015625
11.726318359375 -18.431884765625 19.237060546875
33.676513671875 -44.131591796875 -6.2425537109375
17.741943359375 -27.431396484375 15.5950927734375
-9.758056640625 27.51513671875 41.9066162109375
18.0966796875 -34.966796875 -6.156005859375
-61.343994140625 31.517822265625 18.070556640625
9.956787109375 33.000732421875 40.0821533203125
21.23486328125 20.160888671875 15.4302978515625
-23.676025390625 31.088134765625 21.3900146484375
47.022216796875 13.853271484375 12.332275390625
-57.34033203125 25.27880859375 18.1070556640625
66.257080078125 -32.19384765625 4.1046142578125
-59.754150390625 -9.536376953125 13.539794921875
16.99658203125 -6.417724609375 24.761962890625
9.49609375 -35.875 -6.9619140625
-20.951904296875 15.638916015625 13.662841796875
36.287353515625 -26.463134765625 16.3636474609375
32.354248046875 23.267578125 36.4031982421875
34.512451171875 -32.13671875 -2.201416015625
43.2607421875 2.31103515625 3.0113525390625
-34.240966796875 -38.66552734375 0.987548828125
12.244384765625 -15.16064453125 20.4981689453125
24.1474609375 17.347412109375 10.1787109375
31.038818359375 -35.316650390625 -5.8602294921875
8.748779296875 -3.390869140625 26.6412353515625
49.367431640625 0.39208984375 2.027587890625
-11.0078125 25.482421875 14.7296142578125
-26.3740234375 18.8095703125 15.83544921875
29.30419921875 -33.358642578125 -3.646240234375
58.715087890625 -25.364501953125 0.1182861328125
6.821044921875 45.018798828125 48.4639892578125
33.720947265625 5.193359375 5.0743408203125
6.397216796875 42.28076171875 45.133056640625
-11.576171875 -0.853515625 29.654052734375
19.381103515625 34.634521484375 41.673095703125
-40.5625 20.64990234375 18.9970703125
-50.52685546875 -10.6162109375 9.0281982421875
-47.900146484375 -20.37646484375 2.969970703125
-33.262939453125 -21.82666015625 4.153564453125
26.87841796875 -29.58984375 14.8223876953125
18.82080078125 -41.279296875 10.9964599609375
25.285888671875 16.81787109375 34.5311279296875
-43.99951171875 -21.9462890625 2.3232421875
21.593505859375 -22.036865234375 18.7396240234375
-25.965087890625 -17.2373046875 26.614013671875
-5.77001953125 17.808349609375 11.5655517578125
41.303466796875 -24.071533203125 17.501953125
-40.332763671875 -35.252685546875 -1.6273193359375
-43.63671875 -29.71142578125 -1.8946533203125
11.84033203125 22.8642578125 16.2127685546875
-4.814697265625 -35.217529296875 -6.7890625
39.986328125 13.55029296875 7.2396240234375
40.87353515625 10.174560546875 3.7503662109375
32.392822265625 -27.69189453125 15.9342041015625
-0.871337890625 17.416748046875 8.7783203125
53.83056640625 3.27392578125 0.2596435546875
37.01220703125 -3.47607421875 21.7606201171875
19.582763671875 -34.454345703125 12.9185791015625
63.77587890625 -20.616943359375 6.2900390625
16.046630859375 -22.617919921875 17.8448486328125
56.787109375 9.845947265625 3.817138671875
-25.77734375 16.6923828125 14.2542724609375
-0.260498046875 0.4658203125 32.9595947265625
30.40478515625 27.78759765625 37.9862060546875
-18.1181640625 -0.693115234375 7.203857421875
-55.793701171875 -28.922119140625 -0.02294921875
-56.933837890625 22.185546875 21.485595703125
59.8544921875 -25.453857421875 19.62548828125
30.49267578125 -32.728515625 14.2379150390625
59.199951171875 -21.184814453125 7.9366455078125
12.63232421875 45.26123046875 50.1121826171875
12.789794921875 9.246826171875 11.442626953125
-30.323974609375 -27.6552734375 1.6383056640625
-37.912841796875 21.835693359375 18.0567626953125
16.4365234375 -10.909912109375 22.96728515625
-34.558349609375 27.043701171875 16.5927734375
36.562744140625 -6.601806640625 24.145751953125
-20.912109375 -18.875732421875 26.01416015625
-14.83056640625 -0.3994140625 7.689208984375
-29.518798828125 30.79052734375 15.817626953125
35.5830078125 20.644287109375 36.2117919921875
-13.395263671875 -7.245361328125 3.0458984375
5.024169921875 -19.156005859375 20.037841796875
21.644287109375 -9.61279296875 23.27392578125
-41.4384765625 -31.16357421875 -5.1455078125
19.51513671875 -25.66796875 15.8631591796875
-28.995849609375 -39.995849609375 -3.909423828125
3.0341796875 -24.020751953125 16.8111572265625
9.783203125 -35.7734375 11.80224609375
27.661376953125 13.044921875 6.97265625
-13.9423828125 -19.667236328125 19.0985107421875
-21.993896484375 -30.71484375 -1.2872314453125
24.099365234375 31.612548828125 33.3682861328125
-23.05517578125 -10.355712890625 23.866943359375
-7.715576171875 0.785400390625 17.73193359375
-60.813232421875 36.858154296875 23.14501953125
39.628173828125 -7.939453125 23.9774169921875
-6.242431640625 -1.39794921875 30.0570068359375
22.810302734375 8.151123046875 8.1644287109375
-14.31591796875 -33.619140625 -2.310791015625
25.168212890625 19.006103515625 12.08349609375
-16.42626953125 17.197021484375 13.0533447265625
-18.457763671875 -38.55712890625 -8.025634765625
-24.609130859375 -9.422119140625 29.1717529296875
-35.52490234375 22.083740234375 17.362548828125
25.951171875 33.2412109375 40.8258056640625
49.65576171875 -39.61572265625 -7.7569580078125
12.726806640625 -23.44287109375 17.6002197265625
-4.923583984375 37.607177734375 49.795654296875
27.265380859375 4.159912109375 9.4930419921875
37.134033203125 15.33837890625 10.03369140625
1.864990234375 -18.453857421875 19.3984375
16.66796875 21.316650390625 17.255615234375
23.817626953125 -35.8056640625 2.8489990234375
12.20751953125 0.184326171875 27.024169921875
-58.486328125 -13.77099609375 10.54052734375
0.47607421875 37.6044921875 45.27880859375
-60.196044921875 -21.897216796875 4.978515625
28.603759765625 -12.72900390625 21.503662109375
41.067626953125 -16.2890625 20.8975830078125
39.3740234375 -32.34130859375 6.6944580078125
12.538818359375 -29.0859375 15.13134765625
19.70703125 25.68115234375 38.123046875
-37.9501953125 -36.359375 -0.0751953125
-18.623291015625 -29.921142578125 19.4644775390625
-8.0869140625 -34.71826171875 -5.5914306640625
-5.2412109375 -4.542236328125 18.8824462890625
29.7412109375 -34.7724609375 4.7861328125
60.638671875 -34.474853515625 -3.3221435546875
-18.92236328125 -34.0615234375 14.469970703125
11.84423828125 34.390380859375 41.784912109375
64.390625 -27.035400390625 3.1373291015625
-3.662841796875 -35.822021484375 13.6519775390625
-49.01220703125 32.28369140625 19.4459228515625
-61.217529296875 -11.076904296875 7.885009765625
-14.7998046875 -9.962158203125 7.017578125
-20.110107421875 -32.7333984375 -4.3265380859375
-7.02685546875 31.14404296875 46.926025390625
43.211181640625 -35.201416015625 -4.324462890625
55.63134765625 -5.093994140625 2.04248046875
-44.899658203125 -31.82373046875 -1.0098876953125
22.29736328125 27.23193359375 34.414306640625
-14.044677734375 -14.23876953125 10.22998046875
-57.447509765625 -26.33837890625 2.5733642578125
-20.002197265625 -2.123291015625 18.1759033203125
-36.992431640625 -21.112548828125 1.1005859375
-29.40234375 -43.977783203125 7.140625
22.395751953125 -39.431884765625 10.9759521484375
-36.0439453125 17.89208984375 19.8201904296875
60.17333984375 7.214111328125 0.815673828125
24.591552734375 38.07861328125 46.3165283203125
3.10986328125 -36.634033203125 -9.3607177734375
40.786376953125 -12.248046875 22.838623046875
66.3701171875 -18.115234375 8.4781494140625
34.20556640625 -32.20654296875 13.9957275390625
49.243896484375 -23.5439453125 21.16259765625
-39.97021484375 30.99462890625 18.7764892578125
7.385498046875 -37.2119140625 -10.4227294921875
-8.69140625 -16.142822265625 14.27978515625
32.01953125 7.785888671875 5.35986328125
-12.651123046875 -33.86376953125 -4.08349609375
37.48974609375 -35.525390625 11.3455810546875
36.48974609375 15.18896484375 32.94677734375
35.52685546875 -12.821044921875 21.7694091796875
7.819091796875 36.07470703125 41.7406005859375
43.891357421875 -27.96728515625 16.3917236328125
20.657958984375 5.8154296875 11.1866455078125
34.260986328125 29.665283203125 39.7701416015625
1.943359375 -38.32666015625 11.4261474609375
-46.532470703125 31.65966796875 18.8646240234375
37.48193359375 -31.269287109375 2.7322998046875
66.07373046875 -29.966796875 4.5401611328125
22.251220703125 -37.010986328125 -8.2069091796875
14.095947265625 20.0498046875 35.20556640625
-4.1611328125 22.72119140625 12.7318115234375
-26.013916015625 14.244873046875 17.9931640625
-40.251220703125 -33.977294921875 -3.72705078125
14.5712890625 -34.19482421875 13.6513671875
-6.781005859375 33.532958984375 49.7655029296875
-30.03125 23.8623046875 14.5751953125
-46.241455078125 -17.132080078125 3.74462890625
36.48828125 -31.311279296875 0.4334716796875
33.080078125 -19.490234375 19.3502197265625
-12.388427734375 21.875732421875 12.159423828125
-39.421630859375 -20.18505859375 3.4716796875
20.87353515625 31.408447265625 37.098876953125
-42.482177734375 25.017578125 17.1231689453125
25.183349609375 -33.853271484375 -4.58544921875
7.8916015625 -29.131103515625 15.3795166015625
5.26904296875 -32.193115234375 14.88037109375
-22.480224609375 30.37060546875 19.4344482421875
-33.14306640625 32.79345703125 17.48828125
60.9150390625 -21.3251953125 3.130615234375
-34.532470703125 -32.049072265625 -3.1610107421875
18.528564453125 -13.9921875 21.12451171875
16.12158203125 -38.907470703125 -10.0968017578125
51.43310546875 -2.44287109375 2.3265380859375
-22.927978515625 -5.170654296875 12.560302734375
19.618896484375 -37.455078125 3.6446533203125
-35.64794921875 31.17724609375 20.0263671875
14.166748046875 -35.96240234375 -6.962646484375
-61.3525390625 -8.103271484375 14.4775390625
12.074951171875 -34.8994140625 13.1173095703125
50.90673828125 -31.13818359375 -2.9990234375
-18.250732421875 29.8486328125 18.574462890625
10.2607421875 -33.7109375 12.53466796875
12.590087890625 21.70654296875 14.202392578125
-37.98583984375 -29.636962890625 -3.46142578125
7.7490234375 -21.13818359375 19.0465087890625
51.921875 1.735107421875 0.7625732421875
-60.277099609375 -25.752685546875 3.45751953125
-54.1689453125 -28.128662109375 1.33203125
-33.091064453125 33.695556640625 21.9654541015625
-26.64453125 -13.359130859375 28.6470947265625
25.737548828125 -43.310791015625 -6.6551513671875
-25.526123046875 -40.26953125 -5.6676025390625
-22.80810546875 -4.8759765625 19.6741943359375
62.0966796875 -7.342529296875 4.54541015625
-2.672607421875 25.104248046875 15.103759765625
4.151123046875 27.742431640625 39.0933837890625
23.874755859375 15.521728515625 8.876953125
26.992919921875 25.257080078125 36.9990234375
-27.5009765625 -30.010986328125 16.2425537109375
-1.948974609375 -36.536865234375 -9.352783203125
37.9912109375 -32.1513671875 13.729736328125
67.81640625 -6.1904296875 -1.4619140625
-23.581787109375 -12.330322265625 22.9940185546875
1.59033203125 15.8681640625 11.087646484375
-15.931396484375 -2.033447265625 22.0616455078125
34.23779296875 -9.607177734375 23.329833984375
27.603515625 -35.990478515625 -6.354736328125
-14.513916015625 -28.2197265625 18.5234375
54.397705078125 -27.82958984375 14.46826171875
68.6083984375 2.467041015625 -2.5997314453125
-18.769287109375 -2.70654296875 30.9937744140625
-57.119384765625 36.33642578125 23.9166259765625
20.091552734375 11.595947265625 8.4814453125
28.30078125 -4.96142578125 24.7127685546875
24.092041015625 -15.4599609375 21.3018798828125
38.21630859375 -32.9384765625 -3.898681640625
-4.000244140625 31.21484375 43.639404296875
-25.302734375 -16.148681640625 24.80419921875
4.981689453125 -24.490966796875 18.061767578125
32.92822265625 33.703369140625 41.5103759765625
-19.482421875 -8.61474609375 5.7239990234375
30.218994140625 -32.467041015625 -1.178955078125
57.806396484375 -20.519287109375 1.0081787109375
-1.962158203125 13.372314453125 10.474365234375
58.89501953125 -29.987060546875 -0.1500244140625
20.888671875 19.3896484375 12.0615234375
8.462646484375 -24.253662109375 17.3433837890625
-16.307861328125 1.737060546875 35.65771484375
-56.177001953125 2.249267578125 29.9296875
-25.683349609375 -29.77197265625 -1.2469482421875
2.447021484375 -13.197265625 21.529052734375
22.62548828125 22.720947265625 35.991943359375
-10.2236328125 -33.246337890625 14.470458984375
44.572021484375 -24.52001953125 -1.7161865234375
28.031494140625 -39.630615234375 -7.771728515625
-62.760986328125 -26.916748046875 1.93017578125
45.14013671875 -35.18359375 -3.2572021484375
-48.605224609375 -28.86767578125 0.7396240234375
-49.857177734375 35.05517578125 24.720703125
-55.684326171875 -22.7333984375 2.354248046875
-6.46337890625 35.3818359375 51.2989501953125
-19.1640625 -17.090087890625 22.2308349609375
9.830810546875 43.371826171875 48.3375244140625
-1.640380859375 29.763916015625 39.3419189453125
-33.191162109375 13.4052734375 17.5548095703125
3.718994140625 37.20947265625 43.7518310546875
-3.18896484375 37.54833984375 46.777587890625
-0.463623046875 -39.480224609375 10.8760986328125
-6.0009765625 -40.125244140625 -10.449462890625
-46.02197265625 -26.7822265625 -0.141845703125
29.9189453125 12.32666015625 6.49951171875
9.1474609375 41.306396484375 45.8209228515625
-1.28369140625 -23.501708984375 18.0179443359375
-10.7373046875 -7.201904296875 2.9166259765625
-32.0146484375 -43.871337890625 4.7205810546875
37.52392578125 10.261962890625 4.7847900390625
11.044677734375 28.84033203125 38.9912109375
-7.81298828125 -35.793701171875 12.5223388671875
-16.419677734375 -0.263427734375 31.9344482421875
-44.061279296875 29.1044921875 17.5999755859375
-1.9677734375 32.105712890625 40.5350341796875
27.561279296875 29.2822265625 33.9808349609375
-41.771728515625 -16.34521484375 1.4952392578125
-52.630615234375 -9.44580078125 8.195068359375
69.02001953125 6.81591796875 0.8258056640625
-60.643798828125 23.93310546875 19.6015625
7.583740234375 2.53369140625 28.14306640625
-41.33447265625 -25.8203125 -1.656982421875
67.987060546875 -15.18310546875 10.847900390625
21.70556640625 -33.629150390625 -2.6341552734375
62.523681640625 -8.507080078125 -0.1002197265625
-21.759765625 -9.053955078125 22.7138671875
-0.901611328125 9.919921875 14.4927978515625
-36.9482421875 -38.362548828125 3.796142578125
-53.02880859375 32.695556640625 19.11669921875
-4.0771484375 41.078125 52.046630859375
-8.16259765625 25.829345703125 15.22607421875
38.1640625 12.976806640625 6.14208984375
-3.4365234375 -38.005859375 -10.1722412109375
-58.595458984375 -14.3544921875 8.4598388671875
-41.781982421875 29.065673828125 17.921630859375
-56.5009765625 28.790283203125 17.7100830078125
1.0546875 20.52734375 10.14599609375
-25.758056640625 -31.168701171875 15.5966796875
15.288330078125 0.03857421875 27.5509033203125
46.099365234375 -37.172119140625 -1.848876953125
-19.345458984375 -3.47119140625 23.63037109375
47.4541015625 -25.8896484375 3.09814453125
10.376953125 -39.066650390625 -10.542724609375
11.4375 17.291748046875 9.7650146484375
-20.365234375 -3.778564453125 25.917724609375
24.89697265625 24.909423828125 36.4539794921875
-23.58837890625 -35.53662109375 -6.24853515625
65.7392578125 -31.542724609375 1.18212890625
-37.638671875 30.539794921875 19.0809326171875
1.26025390625 -38.981689453125 -11.4027099609375
50.507568359375 -25.77783203125 0.2103271484375
10.755859375 10.15576171875 11.3204345703125
-0.934326171875 -37.827392578125 -10.7449951171875
24.507080078125 9.810546875 7.2191162109375
52.01123046875 -3.9501953125 4.064208984375
-32.826904296875 19.6728515625 14.032958984375
5.0595703125 -39.5654296875 -11.2994384765625
-31.23583984375 -33.421630859375 -4.394287109375
64.34912109375 -31.46142578125 3.5089111328125
-22.349853515625 -2.071533203125 16.632080078125
-30.48046875 12.570068359375 14.726806640625
-42.98095703125 -29.39599609375 -3.892578125
16.14453125 7.27197265625 12.1268310546875
0.06640625 13.642578125 11.1031494140625
-23.976318359375 31.555908203125 25.916015625
-11.383544921875 18.72021484375 12.5943603515625
-3.346923828125 -17.576171875 18.2760009765625
-13.904296875 -8.7685546875 4.8697509765625
-37.28515625 -23.91748046875 -2.1080322265625
18.8837890625 13.77099609375 8.5908203125
3.265869140625 20.762451171875 12.406982421875
-27.187255859375 24.542724609375 15.3790283203125
-49.079833984375 27.298095703125 17.58935546875
-20.822509765625 -5.006103515625 24.151123046875
60.962646484375 -24.751220703125 0.93212890625
-57.2763671875 -16.96826171875 4.693603515625
29.0517578125 30.759521484375 36.9478759765625
34.507568359375 -39.95458984375 -6.137451171875
-28.407958984375 -34.0244140625 -4.1331787109375
-53.930908203125 30.00634765625 18.096435546875
-34.788818359375 -35.9033203125 -2.5181884765625
-8.856201171875 -4.917724609375 1.4454345703125
-5.19140625 -17.1845703125 17.1875
-28.782470703125 -36.884765625 -4.8875732421875
-22.947509765625 -5.97705078125 28.4158935546875
3.33203125 24.68212890625 13.955810546875
3.398193359375 -41.30419921875 11.7535400390625
-21.666259765625 16.59033203125 11.933349609375
24.704345703125 -7.244140625 24.5445556640625
-24.385009765625 31.392333984375 23.3402099609375
13.289794921875 -27.250244140625 16.4822998046875
-16.39208984375 30.55615234375 17.7423095703125
-33.248046875 33.190185546875 25.3736572265625
-2.769287109375 28.8955078125 18.587646484375
20.61669921875 -34.336181640625 -5.51904296875
17.3349609375 -34.283203125 -4.3306884765625
-31.76220703125 34.7392578125 27.728759765625
26.459228515625 -27.55224609375 15.7047119140625
-15.09228515625 -34.421875 -6.02294921875
-35.83544921875 15.796875 23.926025390625
48.17822265625 9.23095703125 2.684326171875
-43.75439453125 -34.031005859375 -2.29443359375
-51.543212890625 -21.757080078125 2.0001220703125
19.270751953125 22.759765625 37.195068359375
-58.294189453125 -22.796875 3.781494140625
-44.496826171875 -37.55517578125 -0.1766357421875
-54.220458984375 -10.98974609375 12.6458740234375
-3.991455078125 -33.470703125 14.8499755859375
20.841796875 18.476806640625 34.8179931640625
-47.116943359375 -24.158203125 0.00537109375
-41.11181640625 -26.70556640625 -4.0137939453125
38.6005859375 -30.65576171875 1.091552734375
39.51416015625 -13.71484375 21.6324462890625
48.687255859375 -29.20654296875 -1.8270263671875
-23.166259765625 18.311767578125 13.3341064453125
-13.254150390625 1.8857421875 12.885009765625
-21.245849609375 -7.451171875 6.2176513671875
36.40966796875 -34.674072265625 -5.3621826171875
-53.148681640625 36.025634765625 27.08154296875
28.579833984375 -8.96826171875 22.7882080078125
-35.795166015625 -20.749267578125 4.9307861328125
55.427734375 -22.956787109375 1.3153076171875
-6.364501953125 1.9482421875 29.5682373046875
-0.239990234375 -16.59619140625 20.7008056640625
-12.500732421875 -15.609619140625 11.5301513671875
-52.703857421875 23.51220703125 18.669921875
40.9013671875 -38.093017578125 -4.0496826171875
20.49072265625 -42.36181640625 -8.6881103515625
-12.015869140625 -17.662353515625 12.1854248046875
31.425537109375 -12.6064453125 22.5067138671875
23.16064453125 -5.515869140625 24.9132080078125
-17.490966796875 15.736572265625 12.0782470703125
20.928466796875 -14.411865234375 20.9853515625
33.32861328125 -3.894287109375 24.3736572265625
-44.9091796875 32.20849609375 20.088623046875
37.2275390625 -38.234375 -5.8779296875
32.8837890625 -23.1005859375 17.58935546875
-4.62939453125 24.77197265625 14.6170654296875
40.65869140625 -28.568115234375 15.525390625
-2.92333984375 1.060546875 31.0216064453125
-7.99462890625 26.88525390625 42.73046875
3.2529296875 -38.358154296875 -10.783203125
-58.41015625 -12.7509765625 12.6539306640625
-33.617919921875 -27.779541015625 -0.2882080078125
48.1015625 -28.582763671875 8.99951171875
56.18310546875 8.586669921875 2.0830078125
-4.598876953125 36.384033203125 47.6622314453125
21.855224609375 -24.35986328125 17.37158203125
12.144287109375 -39.114990234375 11.8121337890625
-6.866943359375 19.51318359375 11.6455078125
-1.802978515625 43.548095703125 51.386474609375
-58.790771484375 36.6630859375 25.671875
14.4697265625 -5.906005859375 24.58251953125
13.335205078125 -9.07373046875 23.0
-0.052490234375 27.226318359375 38.966796875
48.101806640625 -0.8525390625 3.005859375
49.688232421875 -38.3623046875 -6.1683349609375
-6.471923828125 28.39013671875 17.016357421875
18.644775390625 20.09912109375 12.5279541015625
-7.730712890625 -3.716552734375 12.353759765625
62.513916015625 4.734619140625 -1.2767333984375
11.00244140625 37.873046875 42.0528564453125
10.010986328125 -28.934326171875 14.7945556640625
37.341796875 -29.044921875 15.6162109375
26.371826171875 32.143310546875 33.2816162109375
33.17626953125 -35.920654296875 12.533935546875
57.91552734375 -34.60302734375 -2.87890625
42.7412109375 5.071044921875 2.8671875
62.453125 -30.384521484375 2.0052490234375
41.177978515625 -30.633056640625 5.8731689453125
65.689208984375 -20.245849609375 5.2357177734375
-28.961669921875 -28.837646484375 -0.035888671875
40.55517578125 -32.920166015625 -4.0426025390625
-12.97265625 -12.369384765625 10.0394287109375
-34.151611328125 15.8037109375 16.770263671875
52.88818359375 -25.2822265625 1.3216552734375
-50.57861328125 28.605712890625 17.3427734375
-22.46337890625 32.060791015625 22.65283203125
-13.892333984375 29.244140625 18.0072021484375
31.706298828125 2.445068359375 9.28759765625
23.594970703125 -9.215087890625 23.48388671875
55.048583984375 -23.095703125 19.8272705078125
44.365478515625 -38.62255859375 -4.072265625
29.411376953125 -38.06640625 12.0654296875
30.413330078125 -30.5732421875 14.818115234375
58.46435546875 -24.179931640625 21.4417724609375
33.9833984375 -33.924072265625 4.8646240234375
12.99169921875 41.638916015625 48.537109375
38.30419921875 -22.753173828125 17.841552734375
18.310302734375 1.40087890625 24.827880859375
1.9375 32.6015625 42.412841796875
1.738525390625 28.631103515625 18.33447265625
51.52392578125 -28.665283203125 15.5035400390625
61.727783203125 -31.94482421875 -0.09716796875
64.1611328125 -5.537353515625 -0.67724609375
25.1513671875 19.384521484375 35.114013671875
18.65234375 -29.06201171875 14.899658203125
12.9287109375 -36.487548828125 -9.060791015625
33.070556640625 -36.26611328125 -5.9149169921875
3.791748046875 -11.49609375 21.9434814453125
-25.803466796875 32.331787109375 26.069580078125
41.830322265625 -20.744384765625 18.7845458984375
32.255615234375 -17.093017578125 20.5621337890625
58.54248046875 9.157958984375 3.1826171875
64.896484375 -33.155029296875 -3.231201171875
42.854248046875 10.141845703125 3.9090576171875
13.103515625 31.244873046875 40.2562255859375
-35.82080078125 17.27197265625 17.5626220703125
-32.41650390625 24.708740234375 12.9825439453125
-41.40478515625 -38.90283203125 0.7867431640625
-49.01220703125 -15.84130859375 5.1064453125
4.669921875 41.3154296875 45.2098388671875
24.2021484375 -39.538330078125 -8.95703125
20.139404296875 -36.60791015625 12.3460693359375
4.724609375 -36.264892578125 13.2689208984375
-5.045166015625 3.70361328125 31.2457275390625
18.42578125 -4.752685546875 25.337646484375
-15.228271484375 -19.7822265625 22.0174560546875
43.908203125 -28.329345703125 -0.2725830078125
-39.341064453125 -29.508056640625 -4.8974609375
28.20703125 32.5634765625 40.2127685546875
16.088134765625 -4.8017578125 25.4510498046875
68.37548828125 -2.870361328125 -3.073486328125
-57.6767578125 3.170166015625 31.1624755859375
-7.96142578125 29.4794921875 46.3568115234375
26.814208984375 17.075927734375 9.736572265625
21.016845703125 23.72802734375 37.115478515625
44.216064453125 -31.257080078125 13.693115234375
-35.574951171875 19.4052734375 17.6719970703125
-18.563720703125 -14.31396484375 18.2115478515625
22.448974609375 18.412841796875 10.9718017578125
16.6123046875 25.76416015625 37.5699462890625
-19.49609375 -0.26171875 8.5439453125
8.88525390625 31.420166015625 39.1962890625
24.826904296875 28.202880859375 32.7652587890625
-3.73486328125 27.328369140625 17.896240234375
41.484130859375 12.61181640625 5.9931640625
5.24560546875 -26.7939453125 16.705322265625
23.123291015625 33.237060546875 33.8896484375
-10.53515625 14.37744140625 9.7108154296875
9.70751953125 -25.766845703125 16.350341796875
8.76611328125 -27.42041015625 15.7879638671875
8.418701171875 -1.028564453125 27.8447265625
25.23388671875 -36.190673828125 4.981201171875
9.686767578125 24.7626953125 38.958740234375
-0.521484375 -5.71630859375 22.4542236328125
-23.41748046875 -9.16943359375 16.415771484375
24.138671875 34.778076171875 41.6431884765625
61.69091796875 -6.55126953125 0.9224853515625
-11.72412109375 -27.856201171875 19.9832763671875
18.100830078125 20.81689453125 35.9686279296875
51.9150390625 3.66357421875 0.425537109375
-24.270751953125 -14.171142578125 23.0518798828125
-14.391845703125 -40.63623046875 -8.734375
0.35595703125 34.000244140625 43.701904296875
-2.507080078125 -39.73388671875 11.611328125
-2.082763671875 34.096435546875 44.759521484375
34.622802734375 15.798828125 9.885498046875
-21.775390625 -2.51025390625 31.72216796875
-30.4345703125 33.189697265625 17.837646484375
-24.985595703125 27.33544921875 16.28564453125
33.05615234375 -41.53759765625 -5.63427734375
59.52490234375 9.388427734375 5.322021484375
0.171630859375 28.248046875 16.4940185546875
16.807373046875 -40.728271484375 -10.2119140625
18.6982421875 28.5751953125 39.0133056640625
-8.188720703125 -32.993896484375 13.73828125
-1.95361328125 -19.619140625 18.81787109375
-9.1875 -2.145263671875 28.07763671875
-22.8232421875 -29.29345703125 15.4232177734375
-14.572998046875 -0.593505859375 9.6075439453125
-50.7138671875 24.0888671875 18.2862548828125
20.452880859375 28.902587890625 36.350341796875
6.1240234375 -12.681396484375 22.7098388671875
-9.295654296875 -0.296875 15.53076171875
41.0830078125 13.980224609375 8.781982421875
6.67724609375 -40.612548828125 -11.075927734375
-17.966552734375 -29.593505859375 16.089111328125
-22.615966796875 26.821044921875 15.25537109375
-15.18017578125 -12.827880859375 8.7955322265625
53.1298828125 -28.061767578125 -1.2862548828125
1.519775390625 36.235107421875 43.8154296875
24.708251953125 3.775390625 13.404541015625
-9.58349609375 -12.930419921875 12.91259765625
-50.50048828125 -18.478759765625 5.0947265625
-22.578125 -14.8408203125 21.0426025390625
-2.72021484375 32.46484375 42.440673828125
36.627197265625 11.829345703125 5.4674072265625
14.012939453125 20.8193359375 12.819091796875
14.55029296875 7.133056640625 13.9219970703125
-21.97412109375 -16.64794921875 23.598876953125
20.533447265625 -7.42919921875 23.6719970703125
-13.455322265625 -21.75390625 19.77978515625
-22.3564453125 -8.53466796875 25.20166015625
17.054443359375 -8.94580078125 24.015380859375
-50.071044921875 30.874755859375 18.338134765625
-19.7451171875 27.5107421875 16.0634765625
22.2392578125 31.13330078125 33.3077392578125
31.697265625 -37.166748046875 10.883056640625
-21.977294921875 -11.276611328125 18.6146240234375
-20.728271484375 -3.04296875 27.8084716796875
-57.288818359375 35.294677734375 21.51708984375
-55.582275390625 -12.440673828125 10.494140625
-18.0400390625 -3.415283203125 22.1156005859375
-58.975830078125 36.40966796875 23.44775390625
-20.577392578125 -9.673828125 16.5809326171875
65.30224609375 -21.6484375 3.9127197265625
-54.0400390625 -8.151611328125 8.2523193359375
65.12060546875 7.193603515625 0.984130859375
55.583984375 -32.946044921875 -0.9510498046875
21.0263671875 28.632568359375 34.12646484375
-22.5986328125 -7.46484375 12.74462890625
53.59326171875 1.09326171875 -0.0201416015625
-42.4208984375 23.03857421875 18.0546875
39.8076171875 -5.634521484375 24.087158203125
1.864501953125 11.483642578125 13.8525390625
37.774169921875 15.627685546875 31.548583984375
9.531494140625 23.220947265625 16.3536376953125
54.0107421875 -21.469970703125 -0.1336669921875
33.439208984375 17.408935546875 34.5797119140625
43.93310546875 -20.07568359375 18.2119140625
-28.680419921875 -42.49853515625 -1.121337890625
-56.2578125 -18.238037109375 3.3277587890625
12.4521484375 13.735107421875 9.879638671875
-0.22900390625 -28.14794921875 16.717529296875
-19.739013671875 -34.611572265625 -6.477294921875
27.23291015625 -7.799560546875 23.453369140625
-18.618408203125 -40.4453125 -7.85205078125
-12.764404296875 -4.635009765625 3.1983642578125
29.112548828125 -21.080322265625 18.5816650390625
-49.499755859375 22.6357421875 18.9664306640625
51.816650390625 -24.59619140625 18.74365234375
2.357666015625 45.539794921875 49.314697265625
22.92822265625 13.117919921875 7.98876953125
29.22705078125 16.664794921875 9.7349853515625
27.58837890625 -42.894775390625 -6.627197265625
1.007568359375 27.4384765625 14.819091796875
44.728515625 11.89599609375 5.5223388671875
-56.05517578125 30.7158203125 18.393798828125
-21.15869140625 -31.640869140625 15.482666015625
6.055419921875 12.1640625 11.8306884765625
-11.802978515625 24.14501953125 13.3187255859375
41.640380859375 -32.44287109375 11.866455078125
-33.524169921875 22.96435546875 13.0252685546875
57.97412109375 -26.09521484375 17.4761962890625
-32.022216796875 14.285888671875 13.321533203125
-20.1220703125 -30.126953125 16.340576171875
27.9453125 23.741943359375 37.60498046875
7.054443359375 -35.330078125 -5.898193359375
45.886474609375 -24.491455078125 -3.0706787109375
5.92236328125 -20.7724609375 19.3489990234375
45.8330078125 -24.113037109375 18.8389892578125
37.542236328125 -33.23779296875 6.6302490234375
-8.176513671875 -3.679931640625 14.9189453125
-8.334228515625 28.783935546875 17.0126953125
15.849853515625 -16.20947265625 20.8192138671875
-4.445556640625 10.19091796875 14.9163818359375
-14.367431640625 17.814453125 13.997802734375
-7.244873046875 29.567138671875 44.450439453125
27.41455078125 -25.883056640625 16.2724609375
2.2451171875 23.11767578125 11.7781982421875
-0.08203125 32.645263671875 42.0399169921875
13.970458984375 -39.9013671875 11.325439453125
20.9658203125 -11.12255859375 22.2447509765625
-36.135986328125 16.031494140625 21.674072265625
25.603515625 -21.80078125 18.0224609375
29.052490234375 19.8388671875 35.383056640625
-55.28466796875 -26.74951171875 2.4185791015625
-3.574462890625 25.951904296875 16.63037109375
42.535888671875 -37.438720703125 -3.3992919921875
29.62548828125 18.92626953125 12.5772705078125
61.31689453125 -26.660888671875 0.9774169921875
39.8515625 -30.56201171875 -0.4205322265625
-19.3720703125 -1.52392578125 12.3409423828125
55.9052734375 -25.846435546875 0.2308349609375
66.01318359375 -25.889404296875 3.83349609375
-16.922607421875 -10.882080078125 7.098388671875
17.332275390625 -12.93408203125 22.0997314453125
42.85986328125 -31.18359375 -2.5711669921875
-6.51416015625 -20.51513671875 16.2342529296875
-7.65771484375 22.968994140625 13.153076171875
-44.38427734375 30.947509765625 18.5662841796875
47.958984375 -38.457275390625 -4.660888671875
-43.239501953125 20.26904296875 20.1253662109375
25.659423828125 26.174072265625 35.2435302734375
65.946533203125 -5.837890625 -1.1436767578125
-19.593505859375 19.933837890625 13.90087890625
26.92236328125 10.5009765625 6.5262451171875
-35.20361328125 23.65478515625 13.4813232421875
-32.8974609375 -44.46533203125 7.3831787109375
-14.895263671875 -15.902587890625 9.832763671875
-40.93359375 26.767333984375 17.0843505859375
64.44775390625 -3.87744140625 -1.4849853515625
14.2119140625 42.880126953125 50.89990234375
45.865234375 -39.01953125 -1.9583740234375
53.8681640625 -4.39453125 2.68115234375
-5.1435546875 -2.216064453125 18.6904296875
-19.0087890625 -10.23095703125 6.5245361328125
-37.010498046875 -25.724365234375 -3.224853515625
36.820556640625 6.476318359375 3.9656982421875
-55.107666015625 24.856201171875 18.26318359375
-30.062744140625 14.93701171875 14.1142578125
11.77734375 32.381103515625 40.9058837890625
32.556396484375 24.804443359375 37.4364013671875
-37.611083984375 -22.056396484375 -1.13232421875
22.6083984375 37.515869140625 44.7762451171875
66.03662109375 -2.122802734375 -2.58154296875
-30.211181640625 -44.306396484375 4.5611572265625
34.396240234375 -31.564453125 -0.04736328125
-15.170166015625 23.922607421875 13.86181640625
-42.44287109375 -32.675537109375 -4.6639404296875
-28.50390625 16.796875 18.0850830078125
-14.012939453125 -34.772705078125 13.728759765625
59.540283203125 -20.297607421875 1.642822265625
-39.5830078125 -27.274169921875 -4.90625
-28.742919921875 22.780517578125 15.4176025390625
36.027587890625 -35.95849609375 10.052734375
-18.540771484375 -2.141845703125 25.095703125
52.9560546875 -23.015380859375 19.638916015625
35.7744140625 -24.76611328125 16.915283203125
26.274658203125 21.782470703125 36.3607177734375
9.1787109375 38.18994140625 42.3358154296875
60.552734375 8.7255859375 3.167724609375
-38.438232421875 32.49951171875 22.7152099609375
16.650634765625 29.028564453125 38.8193359375
46.5078125 -28.942138671875 16.378662109375
18.845947265625 33.01123046875 40.9542236328125
49.15380859375 -24.44970703125 18.391845703125
41.841064453125 -30.639404296875 9.6109619140625
44.404296875 -1.011962890625 7.529052734375
28.51025390625 -33.509765625 13.85888671875
23.185791015625 5.96142578125 9.4033203125
17.12353515625 22.4609375 36.4913330078125
35.04541015625 -34.203125 12.9588623046875
-9.055908203125 -34.689697265625 13.3333740234375
-28.206787109375 -16.874755859375 26.8983154296875
-26.79150390625 28.108154296875 16.449951171875
52.8408203125 9.865478515625 3.6463623046875
-13.027587890625 -20.093505859375 21.5732421875
10.330810546875 13.578125 10.300537109375
56.80859375 5.560791015625 0.255126953125
30.746337890625 -44.42431640625 -5.3614501953125
-22.454345703125 -32.070068359375 14.2174072265625
-35.537353515625 21.2822265625 15.7003173828125
-11.798095703125 -31.853515625 15.7540283203125
22.733642578125 -29.294677734375 15.4112548828125
-33.15966796875 31.976806640625 15.8343505859375
12.885009765625 -12.399169921875 21.894287109375
1.37646484375 18.722900390625 10.34765625
34.601806640625 25.19775390625 37.8243408203125
-55.07275390625 -17.418212890625 4.684326171875
39.94287109375 -20.37255859375 19.0926513671875
39.33447265625 -26.1513671875 16.7373046875
41.5078125 -17.930419921875 20.188720703125
39.105224609375 9.674072265625 3.86181640625
0.10986328125 40.79638671875 46.666015625
-48.16845703125 23.79248046875 18.01318359375
-35.58935546875 -33.516357421875 -2.8160400390625
-58.584228515625 -28.4951171875 2.4443359375
-4.854248046875 34.501708984375 46.3006591796875
37.99609375 -19.535888671875 19.421875
39.15673828125 -9.625732421875 23.412353515625
32.992431640625 32.296142578125 40.00146484375
-46.916259765625 -33.9794921875 -1.1444091796875
21.092529296875 -20.354736328125 19.285888671875
3.990234375 -7.54248046875 23.851318359375
-36.02197265625 29.512451171875 18.3157958984375
58.2080078125 -28.24658203125 -0.9716796875
44.411865234375 -28.14501953125 4.1822509765625
34.246337890625 -26.379150390625 16.1822509765625
38.57177734375 16.385498046875 33.68603515625
48.09228515625 -32.415283203125 -3.2353515625
-46.558837890625 -30.3203125 -0.2047119140625
17.227294921875 -1.623779296875 27.0390625
0.75390625 43.9736328125 48.243896484375
11.552734375 -25.734375 16.22119140625
11.114013671875 -22.451904296875 17.469482421875
29.12353515625 -25.26171875 17.1143798828125
32.75439453125 -29.270263671875 15.0714111328125
38.541015625 -35.141845703125 12.79443359375
9.094482421875 20.1513671875 11.8359375
59.30029296875 -20.31396484375 4.258544921875
-3.99755859375 -0.894775390625 29.9677734375
59.25390625 -6.363525390625 3.0535888671875
28.98486328125 17.810302734375 34.4954833984375
58.53564453125 -23.4384765625 2.533935546875
41.271240234375 -7.13916015625 25.8037109375
23.552490234375 -17.07861328125 20.5845947265625
34.518310546875 -42.38720703125 -4.77734375
56.404541015625 -1.5859375 -0.1683349609375
55.239990234375 2.088134765625 -0.255859375
36.01953125 19.020751953125 35.510498046875
14.268798828125 -14.3955078125 22.29541015625
55.006103515625 4.66259765625 0.19580078125
20.398681640625 -30.996337890625 14.981689453125
20.46875 20.248046875 13.609619140625
16.871826171875 -41.220458984375 9.73291015625
54.026123046875 -35.40185546875 -3.09130859375
-41.49462890625 -23.016845703125 1.5491943359375
34.95361328125 14.986572265625 8.18505859375
-62.365966796875 37.45654296875 23.8797607421875
45.0048828125 -32.65087890625 -3.7127685546875
18.2509765625 -10.00390625 23.0401611328125
-4.187744140625 -37.4140625 12.9461669921875
22.243896484375 -1.060546875 25.4163818359375
15.247802734375 -38.535888671875 11.41064453125
0.154541015625 28.916748046875 20.287109375
49.94384765625 -1.198486328125 2.6932373046875
41.422119140625 -29.253173828125 4.7159423828125
13.185302734375 -35.902099609375 -4.735595703125
50.5751953125 12.40966796875 6.94970703125
-21.072998046875 -31.50341796875 -2.795166015625
47.303466796875 -26.85009765625 5.6649169921875
-11.86279296875 0.776611328125 17.6739501953125
0.68505859375 -31.42822265625 14.23876953125
33.638916015625 12.798095703125 6.551513671875
13.338623046875 28.12158203125 38.541259765625
48.7119140625 -37.389892578125 -2.61572265625
26.156005859375 33.16552734375 37.7752685546875
56.9462890625 -4.686767578125 0.8594970703125
-54.905029296875 -21.064697265625 2.59814453125
-23.704833984375 -6.53759765625 30.0975341796875
-22.750732421875 -3.327880859375 13.70556640625
19.45556640625 -17.286865234375 19.880615234375
43.4052734375 -29.156494140625 8.145263671875
-22.67333984375 21.4248046875 14.5341796875
17.115234375 30.68994140625 39.3760986328125
18.0625 -15.6591796875 20.56591796875
-27.10205078125 15.211669921875 19.0731201171875
65.814208984375 -19.412109375 6.83984375
-21.19921875 32.659912109375 17.489013671875
30.60205078125 2.298828125 11.096923828125
-13.04443359375 3.729248046875 32.3331298828125
41.686279296875 8.257568359375 2.746337890625
10.3994140625 -15.20166015625 20.623779296875
8.373779296875 -14.652099609375 21.7142333984375
7.253173828125 -36.019287109375 12.5357666015625
8.37744140625 -39.083984375 10.6849365234375
12.95703125 24.76806640625 37.6011962890625
-28.6435546875 34.111083984375 20.864990234375
30.841064453125 34.15185546875 41.310791015625
64.623291015625 2.209228515625 -1.873046875
48.793701171875 1.975830078125 1.36474609375
-19.951171875 -3.439697265625 6.155029296875
-2.125244140625 -2.90283203125 30.5540771484375
0.103271484375 -35.58544921875 -7.24658203125
-8.200927734375 28.00244140625 45.1708984375
-55.8203125 -13.76318359375 9.248779296875
-16.12841796875 1.1337890625 33.260986328125
-46.566650390625 -22.311767578125 0.982421875
5.961669921875 43.590576171875 46.93603515625
53.9775390625 7.52734375 1.110595703125
22.5751953125 19.040283203125 34.5609130859375
49.757568359375 -29.288330078125 14.654296875
15.7802734375 18.421875 10.611083984375
23.596923828125 -2.578857421875 25.8470458984375
1.52294921875 -36.713623046875 12.122802734375
-25.390625 30.095947265625 18.6376953125
32.671875 30.5361328125 39.763671875
9.28271484375 -36.083740234375 -8.7413330078125
3.783447265625 -36.045166015625 -7.4189453125
-34.630126953125 20.07275390625 14.033203125
4.168212890625 44.704345703125 47.56591796875
21.47509765625 32.633544921875 34.302734375
-1.172119140625 37.0009765625 45.6917724609375
2.6796875 42.66357421875 46.6458740234375
24.65380859375 -25.554931640625 16.722900390625
-2.96240234375 -3.65869140625 20.3443603515625
47.408203125 11.9609375 8.2666015625
35.75830078125 9.76171875 4.8955078125
0.4677734375 -21.753662109375 18.2841796875
8.16015625 -16.955810546875 20.348388671875
-23.701416015625 29.021240234375 18.01416015625
39.4853515625 17.3837890625 35.03857421875
8.10595703125 -22.696044921875 18.1949462890625
-45.85302734375 21.38037109375 19.104736328125
32.89501953125 -31.939697265625 -1.4398193359375
-4.10009765625 39.756591796875 50.21630859375
7.0185546875 15.193603515625 10.6556396484375
-21.8056640625 -4.174560546875 8.3116455078125
-3.294921875 28.764404296875 39.5787353515625
28.059326171875 -36.877685546875 12.7388916015625
33.828369140625 7.45068359375 5.052490234375
-12.356201171875 -40.44970703125 -9.3040771484375
-22.4404296875 -22.850341796875 24.2432861328125
-13.190673828125 -0.65673828125 30.4141845703125
31.62646484375 14.560302734375 7.985595703125
51.508544921875 -37.425048828125 -5.046630859375
31.054931640625 9.399658203125 5.8939208984375
-25.25830078125 20.57470703125 15.790771484375
8.9248046875 26.48486328125 37.5703125
17.646240234375 9.404296875 9.6915283203125
12.98193359375 29.6787109375 39.392333984375
-15.83349609375 -22.112060546875 20.8104248046875
15.260498046875 42.987548828125 52.4127197265625
-14.373291015625 16.583984375 12.3028564453125
-25.850341796875 -13.630859375 26.7750244140625
8.489013671875 9.765869140625 12.4803466796875
-16.925048828125 -24.3876953125 18.2081298828125
57.966796875 -26.228515625 15.2310791015625
27.080322265625 -16.833251953125 19.86181640625
-35.448486328125 23.525146484375 15.3748779296875
-54.87939453125 -24.7421875 2.9697265625
8.11181640625 40.803466796875 44.165283203125
50.7685546875 -2.54833984375 3.984375
25.81982421875 -15.309326171875 20.862548828125
23.990234375 29.748779296875 33.6043701171875
-24.96923828125 13.3720703125 19.464599609375
-50.272216796875 -22.913818359375 1.507080078125
-17.608154296875 -32.77783203125 14.7052001953125
-22.789306640625 -29.006103515625 18.35986328125
-15.962158203125 -17.878662109375 20.5433349609375
58.207763671875 3.9794921875 -0.43408203125
24.995849609375 13.320556640625 7.4173583984375
32.607421875 16.656494140625 9.9144287109375
20.669921875 -39.575927734375 11.4178466796875
24.2724609375 4.405517578125 11.450927734375
7.263916015625 33.661376953125 40.67626953125
-4.2646484375 -15.5478515625 17.74365234375
-15.92333984375 2.158447265625 9.2982177734375
29.28466796875 -1.453369140625 22.5206298828125
-39.547119140625 -23.49755859375 -0.7906494140625
-62.33984375 35.86474609375 20.44677734375
5.33056640625 -16.13037109375 20.65576171875
-13.686279296875 -37.652099609375 -8.258056640625
21.136474609375 4.748046875 13.1104736328125
2.548095703125 40.7001953125 45.6087646484375
-16.0419921875 28.737060546875 18.102294921875
-9.21337890625 -38.836181640625 -10.0753173828125
-18.486328125 1.235595703125 9.3731689453125
30.87646484375 16.033203125 8.9622802734375
3.633056640625 -14.246337890625 20.562255859375
44.650390625 9.01806640625 3.2542724609375
9.86376953125 -37.503173828125 11.4034423828125
19.69384765625 -35.161376953125 -6.9080810546875
-50.68408203125 -26.980712890625 1.7071533203125
7.226806640625 9.727783203125 13.97314453125
35.506103515625 -11.13623046875 22.3253173828125
62.8583984375 -22.56298828125 2.6085205078125
-37.94482421875 29.21923828125 17.6868896484375
27.44873046875 6.938720703125 6.4810791015625
-39.857421875 -25.472900390625 -3.79296875
-60.50634765625 27.307373046875 18.163818359375
68.013916015625 -4.47607421875 -2.4173583984375
19.9970703125 -9.044189453125 22.9566650390625
-7.76611328125 -40.14501953125 -10.3040771484375
15.136474609375 39.009033203125 43.3304443359375
