105.49169921875 -12.1488037109375 7.751953125
71.93603515625 -5.703857421875 -75.170166015625
-56.097900390625 96.062255859375 -31.866455078125
73.31201171875 74.490234375 113.665283203125
-90.13525390625 -10.3328857421875 -26.077392578125
-42.079833984375 -17.18798828125 -55.18603515625
79.96826171875 22.524658203125 -66.712890625
29.697509765625 87.9908447265625 37.598876953125
-20.889404296875 74.018310546875 -25.769287109375
46.145263671875 72.811279296875 59.421875
15.466796875 89.84423828125 36.430419921875
78.66552734375 93.3302001953125 46.73583984375
-61.900634765625 -12.726318359375 -52.054443359375
-32.903076171875 32.4281005859375 -65.97705078125
87.906494140625 78.0780029296875 -50.301025390625
17.241455078125 -4.7880859375 -94.2294921875
-122.779541015625 79.59423828125 82.932861328125
-135.833984375 84.7601318359375 98.736083984375
51.4775390625 87.7694091796875 20.387451171875
10.925048828125 44.1531982421875 -52.079833984375
19.12744140625 90.6358642578125 -10.821533203125
-10.3505859375 58.2833251953125 -38.125732421875
59.245361328125 88.5291748046875 -15.71630859375
38.13916015625 28.171142578125 -69.270263671875
-54.064697265625 -12.4671630859375 -76.50146484375
88.45458984375 107.8514404296875 -45.06103515625
25.339599609375 80.555908203125 16.43603515625
-72.805908203125 99.52880859375 -44.5625
63.788818359375 31.5882568359375 -60.671875
-74.614013671875 -3.3037109375 -85.13818359375
-126.97509765625 78.2034912109375 72.02783203125
97.18115234375 -51.0523681640625 0.870849609375
70.3935546875 68.025390625 123.628662109375
62.9736328125 81.5555419921875 53.39990234375
-47.685791015625 68.3662109375 -37.6611328125
-16.20751953125 90.742919921875 -4.07958984375
63.7099609375 38.3160400390625 -55.422119140625
37.0166015625 85.4954833984375 0.878173828125
-16.9677734375 -14.4246826171875 -63.37060546875
-51.875244140625 -16.56982421875 -49.136962890625
-16.406005859375 57.0323486328125 -40.97314453125
-36.813720703125 65.4217529296875 -37.921142578125
33.184814453125 87.0623779296875 -4.767578125
42.47412109375 80.0438232421875 19.68505859375
-63.578857421875 75.250732421875 -41.882080078125
-30.67138671875 73.8997802734375 -26.06884765625
-30.79833984375 84.1646728515625 -21.624267578125
-15.817138671875 -4.99951171875 -93.245849609375
-107.505859375 75.8343505859375 69.59765625
89.024658203125 98.275390625 45.3837890625
-51.55224609375 73.93115234375 65.601318359375
41.908203125 70.9322509765625 78.173828125
14.037353515625 69.4088134765625 64.597900390625
-5.848388671875 44.0523681640625 -53.14111328125
8.92822265625 38.6043701171875 -40.376708984375
-112.2802734375 81.99072265625 63.38427734375
-5.69677734375 -6.87353515625 -98.652099609375
-38.6572265625 72.67578125 66.16845703125
-17.330322265625 17.501953125 -84.53466796875
32.675048828125 78.9315185546875 12.448486328125
-79.3544921875 -11.9005126953125 -39.01611328125
-72.9638671875 73.9532470703125 65.69482421875
-26.5947265625 89.92041015625 -14.43212890625
24.92626953125 81.609130859375 3.83984375
-45.358642578125 0.9044189453125 -49.864990234375
-68.52880859375 -0.79150390625 -63.400390625
14.763671875 11.8009033203125 -96.59814453125
22.2138671875 71.600341796875 75.471923828125
12.28857421875 47.4522705078125 -32.406982421875
5.760986328125 15.0972900390625 -87.4140625
38.90478515625 75.30029296875 -25.576416015625
-7.257568359375 48.57373046875 -45.127685546875
12.5517578125 87.3985595703125 5.533935546875
72.041015625 39.8575439453125 -49.9404296875
-55.861328125 -14.876220703125 -53.5673828125
66.121826171875 89.8857421875 -11.73095703125
21.598388671875 35.728759765625 -59.830322265625
-55.621337890625 66.419189453125 -39.8212890625
-117.1337890625 75.4468994140625 72.352783203125
28.82763671875 41.218017578125 -43.911376953125
9.634765625 90.6546630859375 -13.635986328125
11.7099609375 -10.0394287109375 -64.848388671875
-18.22314453125 97.057373046875 18.66748046875
29.815673828125 70.9674072265625 74.6318359375
22.05859375 41.2786865234375 -44.27587890625
25.368408203125 78.989990234375 22.89111328125
16.93408203125 -9.67626953125 -68.23095703125
60.861083984375 26.3035888671875 -72.389404296875
69.148193359375 80.3839111328125 55.397216796875
57.653564453125 71.979248046875 64.931396484375
-8.3359375 97.638427734375 -3.869384765625
-5.978759765625 -4.1689453125 -88.385986328125
56.003173828125 -12.4075927734375 -90.630126953125
77.0146484375 93.02783203125 -12.162353515625
15.636962890625 70.6656494140625 -28.27978515625
77.887939453125 83.06884765625 61.41796875
-1.20751953125 71.4296875 74.234130859375
-18.861572265625 85.8712158203125 -20.30419921875
63.1533203125 -6.050048828125 -73.91259765625
-40.0673828125 85.8121337890625 -27.78369140625
68.998779296875 -11.619384765625 -80.416015625
23.083251953125 -7.8353271484375 -65.068359375
-15.267333984375 35.4317626953125 -61.31689453125
-25.6787109375 -4.6683349609375 -85.841796875
-80.569580078125 84.30126953125 8.6884765625
57.681396484375 -11.673095703125 -76.950439453125
35.1484375 -7.4737548828125 -67.728271484375
65.010986328125 84.069580078125 72.834716796875
-24.279541015625 -2.21240234375 -76.0166015625
0.672607421875 37.6944580078125 -58.668212890625
-7.14697265625 -12.568603515625 -63.87646484375
41.46728515625 32.194580078125 -65.1376953125
43.83984375 83.198486328125 10.92138671875
50.46533203125 65.0599365234375 -34.45458984375
30.261962890625 83.550537109375 -22.337646484375
17.95703125 49.18798828125 -30.671630859375
-64.81787109375 93.682861328125 -41.966796875
74.808349609375 -0.4422607421875 -71.383056640625
90.336669921875 24.6990966796875 -72.454345703125
78.69287109375 -9.43505859375 -74.306640625
-40.861083984375 -3.7017822265625 -86.758056640625
-66.251708984375 81.245849609375 -56.452392578125
11.720947265625 57.227783203125 -24.892822265625
-64.943359375 -17.339599609375 -49.4326171875
61.389404296875 -11.6680908203125 -82.916015625
-58.50146484375 84.97607421875 -39.0107421875
-7.97021484375 90.583984375 -16.806884765625
-63.23828125 -13.4755859375 -79.403564453125
-32.877685546875 -15.683349609375 -59.4482421875
-100.072021484375 -5.88671875 -13.2783203125
31.207763671875 42.53955078125 -54.30712890625
-10.521484375 29.053955078125 -68.52099609375
52.552734375 76.97900390625 57.84716796875
-12.448974609375 -4.6973876953125 -88.448486328125
78.077392578125 86.5809326171875 -14.979736328125
119.738037109375 32.822509765625 -59.41455078125
25.023681640625 86.3560791015625 27.560546875
-25.05712890625 73.79052734375 61.44970703125
-46.69921875 61.5333251953125 -46.62109375
-26.0126953125 -13.90625 -65.99951171875
25.341552734375 69.4481201171875 64.539306640625
36.68896484375 46.121337890625 -35.237548828125
42.424072265625 70.9215087890625 -27.800048828125
88.243408203125 17.8397216796875 68.2939453125
5.47900390625 70.8673095703125 73.389892578125
52.137451171875 90.2489013671875 28.478759765625
-115.307373046875 77.4166259765625 78.3017578125
-53.38525390625 72.9847412109375 71.547607421875
114.4814453125 112.629638671875 -45.8251953125
9.881103515625 39.2916259765625 -57.04443359375
65.23291015625 78.495361328125 71.273193359375
-30.28662109375 92.9462890625 5.718994140625
80.866455078125 3.81591796875 -74.092529296875
-3.29150390625 92.7677001953125 30.83642578125
-58.664794921875 -13.8155517578125 -43.07763671875
77.58837890625 71.7213134765625 105.08935546875
-43.00390625 -3.4486083984375 -78.664306640625
-4.5322265625 74.2015380859375 -25.5859375
-15.531005859375 -4.8160400390625 -83.322021484375
4.870849609375 53.9622802734375 -25.270263671875
60.451904296875 52.3043212890625 -47.081298828125
33.41064453125 -6.10546875 -95.016845703125
-19.9541015625 27.9853515625 -69.793212890625
9.14404296875 86.3857421875 -17.90625
23.6103515625 -5.3909912109375 -94.6005859375
-53.35595703125 -14.8062744140625 -87.115966796875
72.89208984375 86.6671142578125 14.662841796875
-42.793212890625 -16.200927734375 -60.76708984375
1.0654296875 90.4281005859375 8.82763671875
33.27978515625 15.3238525390625 -88.666015625
-58.3310546875 -6.165771484375 -91.142333984375
19.037841796875 74.985595703125 -25.675537109375
-50.887939453125 104.346435546875 -28.747314453125
-32.843017578125 -4.111328125 -85.88818359375
52.3173828125 89.3355712890625 -6.526123046875
64.655029296875 75.829833984375 -26.10888671875
44.204345703125 81.19873046875 -23.8603515625
0.458740234375 27.583251953125 -70.099609375
-39.46533203125 53.3935546875 -49.879638671875
-12.044677734375 -6.3800048828125 -98.693115234375
60.494384765625 -48.24365234375 97.12060546875
20.417236328125 80.8453369140625 9.7841796875
-14.11962890625 71.048095703125 64.494384765625
11.483154296875 72.25048828125 75.425537109375
45.28125 -6.1119384765625 -68.493896484375
7.299560546875 69.947998046875 66.79541015625
12.468994140625 90.006591796875 25.059814453125
53.261962890625 78.5621337890625 -24.740234375
-57.28955078125 101.6053466796875 -31.897216796875
82.459716796875 93.0450439453125 65.1015625
-23.01953125 -9.0833740234375 -96.74169921875
112.91015625 24.9571533203125 -61.71826171875
75.181884765625 71.6907958984375 -47.60107421875
4.287109375 45.658447265625 -50.554443359375
7.399658203125 -11.2552490234375 -68.27783203125
76.491455078125 88.0384521484375 5.647216796875
-30.2060546875 87.342529296875 57.177001953125
0.626708984375 -10.769287109375 -63.421875
-72.251708984375 -12.67724609375 -69.772216796875
-13.362060546875 75.711181640625 78.2041015625
53.79443359375 75.318359375 75.797607421875
36.889404296875 80.1673583984375 19.240966796875
-67.8525390625 103.1417236328125 -37.66943359375
-80.02099609375 -8.4013671875 -29.45263671875
43.92724609375 89.6739501953125 -11.880615234375
61.862060546875 47.341552734375 -51.250732421875
25.4091796875 44.0401611328125 -34.880126953125
-59.56982421875 61.0010986328125 -54.8623046875
-2.456787109375 49.11767578125 -31.250732421875
-20.973388671875 89.006103515625 -16.22265625
39.035888671875 67.917724609375 66.490966796875
72.518798828125 88.11279296875 71.369384765625
-0.812744140625 42.353515625 -44.198486328125
-77.551513671875 -11.6201171875 -66.1005859375
4.8193359375 48.7127685546875 -35.008056640625
6.4150390625 79.1527099609375 -24.6953125
-33.46240234375 70.6484375 68.662353515625
49.521240234375 86.2626953125 14.025634765625
-17.891357421875 65.85888671875 -33.571533203125
25.657958984375 13.365478515625 -97.07568359375
21.056884765625 31.760498046875 -63.604736328125
56.54638671875 89.00732421875 18.650634765625
-39.697509765625 -8.897216796875 -68.5166015625
-38.792236328125 -14.9066162109375 -87.464599609375
-9.727783203125 37.008544921875 -60.101806640625
-17.218994140625 43.246337890625 -54.53955078125
70.48876953125 26.288330078125 -56.615234375
-26.344482421875 -11.9207763671875 -56.637939453125
-5.847900390625 69.83544921875 71.78271484375
60.842529296875 77.6829833984375 125.6982421875
21.0595703125 86.1585693359375 34.2333984375
51.32421875 -6.451904296875 -71.209228515625
-73.09814453125 -7.3831787109375 -33.786376953125
-34.879638671875 -19.189208984375 -54.599609375
-33.916259765625 -17.009033203125 -93.40087890625
19.5546875 44.1295166015625 -51.7646484375
-61.6015625 67.025146484375 -48.571044921875
-62.88671875 -17.2269287109375 -41.788818359375
31.972412109375 35.5062255859375 -60.438720703125
-35.310546875 48.26708984375 -51.1298828125
-43.092041015625 73.744140625 75.420166015625
-24.616943359375 41.14990234375 -56.04248046875
74.916748046875 -31.6851806640625 52.001953125
-51.056640625 -4.0709228515625 -80.91259765625
24.805419921875 82.037109375 -23.31640625
-65.611083984375 70.494384765625 -44.268798828125
53.6337890625 23.2979736328125 -76.75732421875
-34.484375 -2.6138916015625 -77.409423828125
87.23291015625 10.67822265625 65.6298828125
66.453857421875 89.368408203125 11.744384765625
13.892578125 42.3165283203125 -36.95849609375
-55.28466796875 64.025390625 -45.811279296875
-6.180419921875 43.9775390625 -35.250732421875
-42.6396484375 -18.4979248046875 -46.48486328125
65.36865234375 68.7041015625 129.60546875
9.491455078125 25.1925048828125 -70.8212890625
40.36669921875 87.458984375 -3.4951171875
9.463134765625 32.205078125 -63.9873046875
28.052978515625 88.8631591796875 -14.893310546875
46.617431640625 70.6424560546875 71.923828125
60.87890625 -9.473876953125 -88.364013671875
65.329345703125 96.815185546875 30.960693359375
-48.703125 -17.6761474609375 -42.784423828125
-78.7333984375 74.514404296875 66.088623046875
64.4765625 75.2684326171875 61.698486328125
-39.192626953125 -17.807373046875 -64.59814453125
81.073974609375 78.0528564453125 -49.17724609375
-30.892578125 89.061279296875 -19.02685546875
-25.52685546875 75.3248291015625 77.39501953125
-35.8779296875 74.6890869140625 76.16845703125
49.691162109375 29.78759765625 -68.226806640625
-51.2578125 53.605224609375 -56.40283203125
-121.680908203125 77.3424072265625 70.341552734375
65.106689453125 61.976318359375 -41.025146484375
-43.8642578125 -15.9637451171875 -88.660400390625
43.744384765625 85.0172119140625 23.395263671875
-7.682373046875 17.580078125 -81.998779296875
73.831787109375 96.292724609375 10.175048828125
70.64599609375 78.6207275390625 -28.928466796875
42.513671875 46.9215087890625 -40.774169921875
-73.4609375 -10.053466796875 -75.6640625
36.850830078125 86.1412353515625 -20.18408203125
35.792236328125 86.4990234375 29.80615234375
-2.89990234375 -12.592041015625 -67.06494140625
18.491455078125 84.97998046875 17.943359375
-57.464111328125 -13.98681640625 -80.228271484375
34.060546875 77.3509521484375 -25.583740234375
67.974853515625 37.6063232421875 -52.42724609375
99.4365234375 58.6802978515625 34.11962890625
72.7578125 22.8529052734375 -64.80078125
-35.119384765625 -12.033203125 -49.846435546875
29.322998046875 52.051025390625 -28.874755859375
-40.762939453125 75.3731689453125 -32.11669921875
81.03173828125 85.4752197265625 56.87451171875
20.263671875 39.730712890625 -37.669677734375
95.067626953125 23.9771728515625 -55.850341796875
62.606201171875 85.0987548828125 -21.25244140625
31.7890625 90.1051025390625 42.39111328125
-0.24658203125 41.52392578125 -55.239013671875
11.775146484375 41.8516845703125 -45.20947265625
-71.2783203125 -12.8131103515625 -44.891845703125
-8.6474609375 89.5592041015625 -11.1689453125
51.237060546875 -5.9222412109375 -76.391357421875
73.054931640625 70.3284912109375 117.00048828125
-52.21484375 -2.0654296875 -73.588623046875
43.690185546875 -10.62255859375 -94.712890625
11.810302734375 91.1876220703125 40.460205078125
-5.3544921875 55.6817626953125 -27.013427734375
-6.78369140625 83.5509033203125 -22.291748046875
42.097412109375 90.677978515625 46.92919921875
54.643798828125 59.2216796875 -40.00634765625
64.8134765625 77.88720703125 56.7255859375
-75.2919921875 39.7054443359375 -74.7939453125
91.426025390625 68.371826171875 -53.751953125
-14.45947265625 90.9217529296875 8.404052734375
18.270263671875 27.2177734375 -70.361572265625
16.607177734375 84.891357421875 -20.546142578125
-19.822509765625 54.5579833984375 -43.94970703125
59.9990234375 60.3487548828125 -39.4775390625
-95.171142578125 75.7923583984375 65.982177734375
-14.224853515625 -13.1282958984375 -68.797119140625
-23.08837890625 -3.6942138671875 -81.325927734375
-67.9384765625 -4.567626953125 -87.946044921875
-53.729248046875 75.169921875 60.93896484375
-80.56005859375 -8.202880859375 -42.861572265625
55.181640625 90.375 -13.184326171875
36.8330078125 69.5306396484375 73.449951171875
0.228271484375 70.8389892578125 -27.608642578125
72.73291015625 52.612060546875 -49.80859375
33.264892578125 25.60400390625 -71.979248046875
-22.446044921875 -15.070556640625 -62.553466796875
18.37353515625 85.778076171875 27.2578125
87.888427734375 12.504150390625 70.33544921875
-58.62841796875 75.820068359375 62.6689453125
67.108154296875 91.676513671875 30.46923828125
-69.28857421875 72.1065673828125 -48.583984375
67.387939453125 90.27294921875 5.73046875
-51.296875 -13.64111328125 -45.019775390625
-24.962158203125 95.2708740234375 13.818115234375
29.59228515625 49.886474609375 -34.842529296875
-11.105224609375 50.272705078125 -47.972412109375
-82.226318359375 74.6815185546875 71.43310546875
-98.992431640625 76.4942626953125 76.148193359375
-103.5966796875 76.196044921875 66.40966796875
78.533203125 68.7601318359375 -52.160400390625
71.47900390625 24.9156494140625 -74.473388671875
34.54443359375 -3.436279296875 -64.7685546875
18.311767578125 89.175048828125 -6.066162109375
22.38623046875 89.423583984375 -14.47119140625
63.203369140625 13.41162109375 98.1845703125
83.968505859375 88.5340576171875 -47.421875
-13.686279296875 90.4254150390625 17.120849609375
75.7919921875 -11.6741943359375 -79.208984375
-82.7626953125 76.6651611328125 62.213134765625
79.11865234375 23.122314453125 -56.15966796875
-72.038818359375 73.5264892578125 71.547119140625
48.470703125 70.1724853515625 -29.616943359375
67.8310546875 76.6092529296875 65.59619140625
-13.11328125 52.95849609375 13.609619140625
-44.4462890625 46.3321533203125 -58.360107421875
79.272216796875 24.1279296875 -71.521240234375
95.12939453125 77.795166015625 -50.83935546875
-89.05224609375 -6.953857421875 -35.77294921875
76.37255859375 88.919677734375 -8.191162109375
65.398193359375 27.86328125 -65.0400390625
73.913818359375 80.32958984375 62.752685546875
-44.886962890625 -16.081787109375 -51.1982421875
36.8994140625 81.0001220703125 9.095703125
-36.66357421875 94.139892578125 -21.754150390625
27.086181640625 93.86376953125 47.442138671875
16.660888671875 70.3646240234375 73.414794921875
-66.159423828125 -3.8514404296875 -71.19921875
71.59521484375 29.72802734375 -53.1396484375
-74.621337890625 75.7606201171875 75.7158203125
34.747802734375 68.787353515625 64.140380859375
-49.433837890625 86.8817138671875 -33.817138671875
21.671630859375 78.536376953125 19.2568359375
24.352294921875 75.8502197265625 -25.510009765625
33.1943359375 -6.1923828125 -89.4765625
-65.93408203125 -12.3226318359375 -39.5732421875
14.44873046875 17.455078125 -84.83056640625
-97.70703125 -7.053955078125 -17.6259765625
47.849853515625 40.853515625 -56.44140625
-67.974609375 -4.599365234375 -95.190673828125
-48.82666015625 -15.369384765625 -84.766845703125
-132.77392578125 35.34619140625 123.765869140625
62.15966796875 90.8607177734375 30.66259765625
-0.85400390625 90.3504638671875 -16.353759765625
-54.720458984375 85.0467529296875 -35.16845703125
-5.532470703125 34.3900146484375 -61.623779296875
-128.551025390625 77.2740478515625 76.589599609375
40.351318359375 -4.396240234375 -75.826171875
46.434814453125 88.0726318359375 30.3662109375
-27.38232421875 -10.02734375 -93.93701171875
36.786865234375 43.22412109375 -53.69580078125
73.953125 92.3323974609375 -1.63671875
11.66357421875 89.6904296875 -3.680908203125
-25.633056640625 61.54150390625 -37.89794921875
-5.114501953125 44.1966552734375 -42.830078125
-13.66064453125 101.640869140625 -4.261962890625
-71.13818359375 -7.516845703125 -47.210205078125
-53.410888671875 -8.5546875 -89.796875
83.454345703125 -9.5565185546875 -75.279052734375
89.144775390625 93.66455078125 -47.53515625
-12.27294921875 -13.565673828125 -64.253662109375
0.066650390625 88.8448486328125 26.345703125
14.62939453125 -5.7703857421875 -98.783203125
-22.331298828125 31.2119140625 -66.7041015625
24.61083984375 17.274169921875 -84.538818359375
-26.52490234375 67.51123046875 -32.955810546875
-3.855712890625 15.6805419921875 -87.40966796875
-28.2216796875 52.12646484375 -46.82666015625
89.50146484375 82.7745361328125 -49.280517578125
4.5263671875 89.6005859375 19.501220703125
-62.7314453125 -3.03173828125 -55.593994140625
4.641845703125 33.03662109375 -63.7109375
64.45068359375 56.0152587890625 -45.444091796875
-75.13671875 109.7508544921875 -59.303466796875
-20.57373046875 -5.551025390625 -92.8798828125
-57.681396484375 71.7296142578125 -39.466064453125
-8.963134765625 71.9337158203125 -27.775390625
-55.9521484375 -16.673828125 -75.174072265625
105.744384765625 109.5418701171875 -49.453857421875
1.544921875 94.329345703125 34.304443359375
19.9892578125 10.8948974609375 -99.173095703125
101.820556640625 81.211181640625 -59.05908203125
68.2265625 47.0767822265625 -50.328857421875
-13.67724609375 74.64013671875 60.815673828125
-48.972412109375 72.1917724609375 69.853759765625
-51.273193359375 61.7257080078125 -48.03857421875
27.166259765625 88.0079345703125 -5.4072265625
-60.7802734375 -4.2904052734375 -95.067138671875
31.799560546875 53.79638671875 -25.175048828125
-63.1982421875 72.8043212890625 67.15283203125
56.157958984375 30.435302734375 -68.13037109375
59.905029296875 94.2750244140625 33.3876953125
-37.28955078125 74.095947265625 80.69384765625
-12.8603515625 79.4853515625 -24.50048828125
-5.22021484375 91.185791015625 22.605224609375
-74.878173828125 -12.4151611328125 -37.213134765625
-24.3642578125 82.214111328125 -23.13427734375
-9.516845703125 53.4554443359375 -39.040771484375
28.445556640625 15.366455078125 -89.972412109375
-83.878173828125 78.956298828125 79.35595703125
24.8359375 25.977294921875 -72.39892578125
99.01171875 111.4765625 -46.800048828125
-30.458251953125 70.5579833984375 -29.453857421875
-95.024169921875 -8.8153076171875 -27.754150390625
37.0849609375 36.156982421875 -60.771484375
96.072021484375 99.341796875 -48.840087890625
-59.517333984375 -5.0186767578125 -74.92333984375
29.587646484375 41.2344970703125 -39.239013671875
51.6298828125 49.784912109375 -48.027587890625
71.126708984375 62.607177734375 -46.1748046875
57.6669921875 78.2723388671875 129.145751953125
4.409423828125 71.287353515625 63.0234375
-36.1962890625 61.184814453125 -40.952392578125
-4.599609375 89.7601318359375 3.74560546875
96.196533203125 88.160400390625 -48.525146484375
97.851318359375 59.79345703125 43.044677734375
70.9052734375 92.678955078125 14.375244140625
88.234619140625 93.0782470703125 54.27734375
-42.65673828125 67.55517578125 -38.464111328125
68.62646484375 -11.885498046875 -74.435791015625
-111.203857421875 77.837646484375 65.318359375
-44.724853515625 71.469482421875 -35.743896484375
10.487060546875 88.5850830078125 20.605224609375
61.252197265625 80.3466796875 -24.367431640625
73.603515625 80.2080078125 -33.353515625
-29.51806640625 64.691162109375 -35.429443359375
41.08984375 45.585205078125 -33.740234375
-43.868896484375 74.92724609375 62.277099609375
43.715576171875 80.8314208984375 15.244384765625
-17.005859375 89.6195068359375 13.02734375
-44.2197265625 79.6021728515625 -32.79248046875
37.337158203125 79.983642578125 4.550048828125
-9.4169921875 91.9443359375 25.822509765625
43.431640625 47.5560302734375 -50.017333984375
93.914794921875 31.023681640625 -49.326904296875
-18.2802734375 46.473876953125 -51.33837890625
113.7958984375 28.613037109375 -58.30810546875
11.61181640625 90.0899658203125 1.070556640625
69.8017578125 73.4404296875 86.75
1.8974609375 85.1654052734375 -19.923095703125
27.148681640625 90.4658203125 42.361083984375
-20.336669921875 69.6544189453125 -29.835205078125
62.60107421875 72.436767578125 -28.53662109375
-52.391357421875 -5.690673828125 -97.875732421875
-42.96533203125 -2.4652099609375 -72.306884765625
-35.413330078125 73.83154296875 62.845703125
22.8193359375 85.8489990234375 1.92431640625
41.486328125 85.1424560546875 -20.965087890625
85.180419921875 89.3980712890625 59.066650390625
66.140869140625 91.74169921875 19.921875
43.941162109375 69.4761962890625 64.448486328125
-55.071533203125 59.16455078125 -52.902099609375
-53.697021484375 50.4293212890625 -59.576171875
-7.389892578125 46.7943115234375 -49.75732421875
-39.41162109375 102.6939697265625 -23.979248046875
48.395751953125 26.9886474609375 -72.836669921875
62.1640625 89.0841064453125 21.4560546875
67.32177734375 65.926513671875 -39.348876953125
-4.854736328125 88.989990234375 13.51611328125
86.010498046875 74.0552978515625 -51.496826171875
32.490478515625 87.1082763671875 33.496826171875
-20.633544921875 60.968505859375 -37.809814453125
69.79931640625 84.663818359375 72.7421875
81.658447265625 90.4910888671875 49.538330078125
84.44140625 29.34326171875 -49.988037109375
-21.66162109375 90.0997314453125 13.449462890625
-16.33203125 92.565185546875 20.522705078125
-37.3662109375 44.69921875 -55.1044921875
73.68359375 85.26806640625 52.289794921875
29.276123046875 38.6103515625 -58.148193359375
-76.068115234375 76.074462890625 62.716064453125
19.181640625 15.9228515625 -88.555419921875
-20.3134765625 73.3662109375 75.83740234375
-42.168212890625 89.730712890625 -28.8369140625
41.573486328125 17.064697265625 -87.224853515625
87.82763671875 112.1649169921875 -42.162841796875
91.634765625 97.82080078125 -47.291748046875
-29.09521484375 -5.257568359375 -89.135986328125
-69.410888671875 -12.72412109375 -77.78076171875
58.700439453125 73.5267333984375 69.6904296875
-94.975341796875 79.4947509765625 80.212158203125
75.050048828125 78.5335693359375 -41.77783203125
1.54443359375 29.63818359375 -66.1826171875
-20.146484375 88.98779296875 -5.544921875
-72.09765625 -7.378662109375 -68.777587890625
47.15625 -11.4932861328125 -79.46240234375
69.555908203125 -12.1788330078125 -85.63427734375
-132.364990234375 27.3876953125 130.915283203125
58.388916015625 89.9525146484375 13.147705078125
-37.11328125 -4.8480224609375 -90.005859375
-10.489990234375 42.785888671875 -54.989990234375
95.075927734375 107.9525146484375 -46.22802734375
-119.248779296875 78.102294921875 80.443603515625
-32.822998046875 57.4158935546875 -42.231689453125
-128.444091796875 80.0927734375 85.981689453125
1.890380859375 51.2684326171875 -30.55126953125
-80.848388671875 -10.1229248046875 -68.81201171875
-76.93408203125 81.761474609375 7.803466796875
75.796875 -5.1439208984375 -71.853515625
100.762939453125 90.84228515625 -56.52490234375
-51.411376953125 94.287353515625 -31.4423828125
-120.336181640625 83.44140625 65.018798828125
-87.638427734375 76.3277587890625 64.529296875
51.3427734375 -11.984375 -89.777099609375
-83.380859375 -10.679931640625 -36.776123046875
80.50341796875 99.391357421875 -45.533935546875
-4.4111328125 72.73876953125 61.501953125
47.2373046875 88.7772216796875 -15.1279296875
64.28564453125 24.9073486328125 -75.251953125
-104.7587890625 78.9610595703125 78.08203125
78.35595703125 97.88232421875 45.515869140625
52.977783203125 88.1434326171875 7.81298828125
77.5537109375 68.032958984375 114.550048828125
-33.138427734375 91.2642822265625 -11.27783203125
62.26171875 35.292236328125 -58.621826171875
97.118896484375 23.7818603515625 -60.969482421875
-61.92919921875 -13.1358642578125 -56.6904296875
-58.533935546875 -11.237548828125 -39.236083984375
73.7001953125 65.3978271484375 125.068115234375
-56.022216796875 77.4144287109375 -36.825927734375
55.476806640625 -4.95361328125 -70.0859375
30.550537109375 68.3511962890625 65.5703125
-0.778076171875 44.885498046875 -52.0966796875
47.35009765625 15.34033203125 -84.3251953125
-42.317626953125 71.67431640625 69.896728515625
17.8486328125 85.5712890625 9.7197265625
-8.63671875 25.6500244140625 -72.457275390625
-29.2255859375 94.7305908203125 9.647705078125
67.868896484375 85.1300048828125 -20.352783203125
-57.85107421875 88.993408203125 -37.24267578125
-112.711181640625 80.2545166015625 80.61474609375
88.30712890625 21.515869140625 -59.514892578125
53.89306640625 46.5299072265625 -52.265625
58.708740234375 32.862060546875 -62.4306640625
46.20458984375 44.5736083984375 -53.853759765625
52.205810546875 -12.159423828125 -81.12158203125
46.502685546875 87.3399658203125 -2.085205078125
15.112548828125 37.844970703125 -58.070556640625
16.567626953125 85.6673583984375 4.92138671875
46.7314453125 62.26806640625 -36.940185546875
59.5322265625 65.6837158203125 -34.785888671875
-36.128173828125 68.6583251953125 -34.575439453125
104.7666015625 25.07373046875 -61.588134765625
91.623291015625 22.0751953125 -67.7431640625
-69.3603515625 76.357421875 62.192626953125
5.716552734375 89.2694091796875 28.109130859375
33.94921875 41.992431640625 -43.78271484375
-15.57958984375 70.53271484375 68.603271484375
3.133056640625 90.3916015625 -0.352783203125
21.716552734375 46.670166015625 -33.269287109375
71.18896484375 91.9603271484375 4.337158203125
72.295654296875 2.8201904296875 -74.420654296875
-77.93115234375 87.1810302734375 -57.649658203125
-23.9111328125 72.0352783203125 65.2958984375
51.277099609375 88.28125 2.96923828125
20.86083984375 84.52001953125 -21.48486328125
7.128662109375 -5.4024658203125 -89.12255859375
-84.90380859375 -10.5308837890625 -28.240234375
-72.249755859375 86.7393798828125 -57.61279296875
94.650634765625 63.693115234375 -56.2421875
53.212890625 89.97509765625 23.750732421875
40.639404296875 -8.782958984375 -84.03125
-23.119384765625 48.131103515625 -49.4228515625
93.36962890625 26.88232421875 -51.673095703125
6.08642578125 72.94970703125 -26.36328125
26.209228515625 71.2403564453125 60.666015625
15.098876953125 77.0753173828125 -25.224365234375
31.275390625 30.8006591796875 -64.89208984375
114.31982421875 34.369140625 -53.669189453125
7.397216796875 89.425537109375 -5.991943359375
7.0556640625 89.6834716796875 11.808349609375
54.037109375 39.4473876953125 -58.4619140625
-5.721435546875 91.519287109375 -1.966552734375
-100.84375 84.3743896484375 79.650146484375
-21.540771484375 89.810302734375 -0.409912109375
-9.692138671875 87.4515380859375 -20.364501953125
-10.70947265625 68.3673095703125 -31.058837890625
-132.484130859375 33.3546142578125 128.259765625
70.4736328125 80.937744140625 -24.17333984375
79.774169921875 83.2071533203125 -47.2431640625
68.04443359375 54.9688720703125 -47.5869140625
10.17431640625 15.0833740234375 -87.51904296875
10.958984375 -6.4085693359375 -62.653076171875
-34.837158203125 -14.9017333984375 -63.20458984375
24.18408203125 51.594482421875 -27.71728515625
-13.4296875 16.7564697265625 -86.2021484375
100.263916015625 25.285400390625 -68.636474609375
79.924560546875 90.442626953125 -14.5107421875
56.340087890625 72.0748291015625 -27.853515625
-44.6494140625 95.6942138671875 -28.965087890625
-52.244384765625 69.3994140625 -37.41259765625
-56.400390625 -1.5272216796875 -72.80126953125
-11.4716796875 89.3408203125 -14.486572265625
-50.398193359375 -13.738037109375 -79.625732421875
-44.521240234375 -7.984375 -93.904052734375
25.247802734375 -6.70361328125 -99.126953125
-27.059814453125 44.1248779296875 -54.1689453125
81.401611328125 107.8763427734375 -44.4404296875
-17.333740234375 72.1314697265625 -27.220703125
-8.531494140625 49.878662109375 -41.26171875
44.634765625 89.39306640625 34.87255859375
-31.246826171875 78.3594970703125 -24.8857421875
-130.26611328125 83.29150390625 90.501220703125
18.234130859375 90.0592041015625 39.669921875
39.904541015625 39.7115478515625 -57.318115234375
74.62744140625 87.74072265625 -18.18017578125
-134.362060546875 84.3756103515625 102.718017578125
14.96875 54.4927978515625 -24.638671875
6.6650390625 88.9637451171875 3.318359375
84.950927734375 105.59326171875 -45.890380859375
-86.942138671875 76.8082275390625 83.164794921875
-61.60009765625 56.416259765625 -58.58251953125
109.933837890625 112.6365966796875 -46.27392578125
56.9599609375 86.1375732421875 -18.992919921875
9.171142578125 -6.956298828125 -94.44873046875
56.81103515625 26.1094970703125 -73.64306640625
65.75732421875 -11.3956298828125 -83.141357421875
-6.289794921875 47.1844482421875 -32.482421875
23.0908203125 43.10693359375 -53.864013671875
17.4775390625 40.931640625 -44.080078125
-30.936279296875 34.88330078125 -63.1435546875
-68.96044921875 -16.1046142578125 -48.93359375
-46.45556640625 -15.543212890625 -58.751708984375
72.500732421875 83.6419677734375 69.652587890625
59.383056640625 90.100341796875 1.002685546875
-40.591552734375 -6.60791015625 -97.799560546875
67.487548828125 28.4144287109375 -58.69775390625
-34.599853515625 -10.123046875 -90.080810546875
-57.5576171875 -15.9852294921875 -58.32763671875
-107.813720703125 76.3856201171875 76.633544921875
-17.18408203125 89.1888427734375 -14.371337890625
72.099609375 90.951416015625 21.94873046875
-45.5888671875 57.130859375 -50.979736328125
11.70751953125 35.8629150390625 -60.144775390625
5.86181640625 -6.788330078125 -98.09375
54.896484375 55.2528076171875 -43.592529296875
-15.911376953125 28.6251220703125 -68.24462890625
-1.499267578125 41.64794921875 -36.947998046875
86.09716796875 63.7823486328125 -56.10986328125
-15.945068359375 93.790771484375 -0.439208984375
7.38134765625 -9.28173828125 -72.17822265625
-120.095947265625 79.3455810546875 66.937255859375
74.302734375 -26.0633544921875 48.5517578125
3.742431640625 44.0855712890625 -35.455810546875
14.02294921875 71.746337890625 61.1044921875
-88.7841796875 78.08447265625 78.14111328125
12.824462890625 41.26318359375 -54.4638671875
8.96923828125 43.91064453125 -47.70703125
-92.1123046875 -8.82275390625 -22.695068359375
90.5478515625 97.4827880859375 49.316162109375
28.523681640625 79.371337890625 12.8701171875
84.523681640625 21.5411376953125 -64.11328125
44.318603515625 89.1309814453125 42.47216796875
4.00048828125 18.7103271484375 -84.60595703125
-16.687255859375 -11.4168701171875 -59.242919921875
-17.7998046875 77.0037841796875 -25.196533203125
-24.715087890625 90.451171875 -7.78271484375
-87.5400390625 75.3887939453125 71.804931640625
76.46826171875 73.8267822265625 110.641845703125
-79.96435546875 75.22314453125 74.91259765625
74.720703125 23.4642333984375 -56.188232421875
89.88232421875 96.5166015625 57.52685546875
-56.947021484375 67.78271484375 -45.02978515625
-56.72412109375 -15.6773681640625 -83.981201171875
95.791259765625 72.30224609375 -53.6005859375
70.329345703125 73.794677734375 -35.384765625
-49.76708984375 72.4287109375 -35.94384765625
-54.01611328125 78.1046142578125 79.373046875
-39.47998046875 -15.1551513671875 -52.091796875
52.13720703125 69.847900390625 66.1611328125
59.417724609375 -4.9605712890625 -71.53369140625
37.162109375 13.91162109375 -92.890869140625
64.299560546875 -4.92919921875 91.362060546875
-20.712890625 34.4320068359375 -63.19970703125
-24.134033203125 70.148193359375 69.583984375
-20.22900390625 39.94580078125 -57.13330078125
83.3994140625 23.0601806640625 -69.333740234375
3.376708984375 90.3134765625 34.550537109375
31.43017578125 -6.4993896484375 -65.7744140625
-61.718994140625 64.45068359375 -53.056396484375
67.662109375 71.245849609375 121.712890625
65.03369140625 83.4605712890625 121.448974609375
72.20703125 80.0726318359375 58.196533203125
89.92529296875 33.24169921875 -48.575927734375
-24.97021484375 89.213134765625 7.458251953125
11.6201171875 68.7711181640625 -28.16259765625
77.8076171875 85.102783203125 53.6904296875
-113.278564453125 76.35205078125 69.105712890625
41.627685546875 24.3939208984375 -74.068603515625
-53.3583984375 -6.7164306640625 -43.07080078125
0.163818359375 70.3897705078125 66.316650390625
-47.25732421875 -3.940673828125 -79.2587890625
116.226318359375 32.3160400390625 -57.271728515625
-59.306396484375 -0.788330078125 -67.637451171875
1.349853515625 44.5029296875 -47.75634765625
-62.065673828125 -16.782470703125 -45.82470703125
49.776123046875 86.1756591796875 -19.393310546875
-34.635986328125 -15.3121337890625 -89.640380859375
9.028076171875 54.2486572265625 -25.887939453125
33.31201171875 72.9871826171875 -25.820556640625
-64.219482421875 96.49609375 -36.827392578125
44.73974609375 30.052734375 -67.2705078125
33.770263671875 78.872314453125 21.895751953125
4.375732421875 14.045654296875 -91.16455078125
72.811279296875 68.0394287109375 -45.44921875
97.133056640625 24.59619140625 -65.017578125
36.434814453125 78.712646484375 25.194091796875
-40.611083984375 43.1656494140625 -58.298828125
47.672607421875 79.193115234375 -24.830078125
85.45849609375 93.1021728515625 62.27392578125
29.9765625 90.22998046875 -7.441650390625
40.89013671875 85.47509765625 26.648193359375
50.393798828125 56.36767578125 -41.4599609375
-15.205322265625 99.028076171875 20.644287109375
10.484130859375 86.8515625 9.99462890625
33.797607421875 81.7322998046875 -23.36474609375
108.539306640625 30.7161865234375 -51.856689453125
99.2529296875 61.885009765625 36.7197265625
-33.74951171875 -3.5008544921875 -73.46923828125
-31.74755859375 91.39501953125 -5.500244140625
27.173583984375 43.0811767578125 -53.460693359375
54.208251953125 90.344482421875 -0.453369140625
-64.872802734375 74.7081298828125 75.371337890625
62.58349609375 -2.112060546875 -69.540771484375
-59.401123046875 77.603759765625 79.448486328125
-69.964599609375 97.4339599609375 -42.4892578125
-23.8994140625 54.875 -43.97607421875
-15.745849609375 54.2410888671875 -43.92333984375
34.79736328125 70.943115234375 60.66650390625
46.652099609375 53.336181640625 -44.283203125
33.638916015625 49.3431396484375 -35.691650390625
-21.607666015625 96.0048828125 16.033935546875
33.388671875 45.06689453125 -51.390625
34.312255859375 90.5343017578125 -6.593994140625
75.54541015625 60.2864990234375 -51.359375
106.90625 27.68212890625 -54.555419921875
4.36181640625 38.5576171875 -57.15380859375
17.052001953125 12.946044921875 -92.91162109375
-64.6220703125 -16.7930908203125 -81.96923828125
59.81640625 38.9854736328125 -56.9951171875
-19.19384765625 70.7337646484375 72.606201171875
-70.77197265625 -11.30908203125 -35.955078125
96.24560546875 51.5550537109375 47.209228515625
55.940673828125 73.7777099609375 60.13720703125
68.8681640625 83.46142578125 77.013671875
68.030517578125 77.9998779296875 118.25634765625
21.573974609375 90.7816162109375 41.87451171875
19.791259765625 43.537353515625 -47.317138671875
27.708984375 85.85546875 -19.980224609375
-1.103759765625 89.4898681640625 -8.330322265625
84.894287109375 23.0660400390625 -55.327392578125
1.270751953125 73.5677490234375 76.634765625
115.413330078125 108.8299560546875 -44.743896484375
-25.051513671875 74.341796875 -25.796142578125
63.747802734375 90.71044921875 -8.470703125
10.09912109375 90.42529296875 28.32373046875
-8.308837890625 70.9354248046875 65.829345703125
-3.520751953125 98.6925048828125 30.2041015625
74.12890625 92.895751953125 7.98974609375
46.5849609375 90.3839111328125 38.46484375
-13.72021484375 32.864990234375 -64.198974609375
84.705078125 -12.3809814453125 -80.50244140625
-29.7294921875 -16.8927001953125 -93.568603515625
-40.186279296875 98.2591552734375 -25.27001953125
-25.860595703125 37.0509033203125 -59.783203125
56.576416015625 89.6207275390625 8.896240234375
-43.253173828125 50.92578125 -53.755859375
-63.60205078125 -12.5904541015625 -74.880126953125
34.55322265625 90.43701171875 46.077392578125
29.513916015625 44.217529296875 -49.140380859375
34.2314453125 16.6932373046875 -83.13525390625
11.75830078125 12.9189453125 -93.232421875
-64.364990234375 -1.203125 -66.9111328125
-34.728271484375 71.984375 73.390625
25.152587890625 71.175048828125 -30.5048828125
13.849365234375 90.28564453125 -12.131591796875
-130.622802734375 39.2518310546875 123.549072265625
26.76953125 30.6943359375 -65.228271484375
12.921142578125 27.4053955078125 -69.841796875
54.14208984375 89.5262451171875 34.301025390625
-40.8740234375 39.264892578125 -61.659423828125
-45.108642578125 65.1837158203125 -40.5859375
54.266845703125 84.228515625 -21.3935546875
-10.7353515625 70.370849609375 73.06787109375
76.833251953125 81.5052490234375 -44.682861328125
60.19580078125 -8.009765625 -75.777587890625
70.0166015625 23.813232421875 -68.374267578125
22.626220703125 79.4649658203125 6.740966796875
-3.817626953125 -3.4783935546875 -85.086181640625
13.103271484375 89.204345703125 33.262451171875
-34.282470703125 37.87841796875 -59.89794921875
1.256103515625 88.8687744140625 -11.611572265625
25.702392578125 -8.7786865234375 -72.375244140625
-41.96484375 -15.1512451171875 -48.5703125
15.508544921875 44.444091796875 -51.790771484375
18.948974609375 69.1400146484375 65.0625
-50.940673828125 -14.9871826171875 -57.9873046875
-31.823974609375 40.734130859375 -57.64111328125
38.18115234375 50.5726318359375 -28.11669921875
55.769287109375 89.3924560546875 -8.537109375
50.328857421875 90.4471435546875 39.8447265625
-2.491455078125 89.67333984375 17.645751953125
-37.393310546875 83.888916015625 -23.884033203125
-48.58154296875 -5.666259765625 -96.6240234375
-30.751953125 -15.4697265625 -63.52001953125
-19.663818359375 90.416748046875 5.68994140625
-42.431396484375 -7.699951171875 -86.3916015625
-121.506103515625 82.1055908203125 85.746337890625
-47.954833984375 74.185302734375 63.304443359375
-31.8681640625 74.4901123046875 76.626220703125
28.79638671875 25.83544921875 -71.0244140625
58.240478515625 27.2947998046875 -69.39208984375
70.822265625 77.5128173828125 114.334716796875
-39.207275390625 -3.3638916015625 -76.53955078125
57.802734375 -47.9149169921875 100.018310546875
-66.8125 78.9766845703125 -59.659423828125
-74.91455078125 -12.57421875 -41.452880859375
50.915283203125 71.7188720703125 72.215576171875
76.412841796875 21.3829345703125 -64.34814453125
79.69091796875 -13.854248046875 -82.4814453125
19.387451171875 88.137451171875 -17.036376953125
67.992919921875 -5.9716796875 -75.421630859375
56.898193359375 -12.2197265625 -81.216552734375
88.657958984375 104.197509765625 -46.56884765625
-60.8173828125 74.2911376953125 -39.214599609375
47.17578125 -11.2939453125 -89.05126953125
79.8212890625 94.3790283203125 -45.0595703125
5.785888671875 90.3134765625 -14.4765625
80.0185546875 27.6888427734375 -51.214599609375
-11.798583984375 95.74658203125 23.666259765625
26.121337890625 88.6629638671875 35.148193359375
-65.25439453125 67.8455810546875 -47.315185546875
0.126953125 24.68896484375 -72.763916015625
54.081787109375 -8.7318115234375 -77.145263671875
26.20947265625 14.652099609375 -93.38671875
-3.025634765625 36.77392578125 -59.68701171875
83.128173828125 94.1070556640625 47.054931640625
-83.594970703125 -6.2154541015625 -59.676025390625
-38.4345703125 82.2418212890625 -27.3056640625
7.95556640625 89.42333984375 -9.888916015625
46.6728515625 84.61962890625 -21.3896484375
68.615234375 89.5943603515625 -3.85888671875
-4.155517578125 73.3243408203125 76.23583984375
-41.285400390625 60.2406005859375 -45.352294921875
68.97216796875 89.0235595703125 -14.98974609375
14.7841796875 31.79150390625 -63.952880859375
40.442626953125 47.0828857421875 -46.001708984375
51.480712890625 35.22314453125 -62.163818359375
79.537109375 92.1639404296875 -8.04052734375
-50.173095703125 90.708251953125 -32.43212890625
13.613037109375 74.9093017578125 78.220947265625
-8.95458984375 -9.78173828125 -60.03564453125
18.071533203125 86.229248046875 23.385986328125
-91.4990234375 75.056640625 73.6416015625
82.6767578125 67.7689208984375 -53.890625
8.17919921875 46.9615478515625 -34.065673828125
-17.489013671875 90.3258056640625 -19.055908203125
71.146240234375 -12.673828125 -77.332275390625
39.09765625 80.04150390625 22.5498046875
66.12353515625 70.1651611328125 -33.775634765625
-60.40283203125 75.2025146484375 75.739013671875
3.849365234375 -11.9945068359375 -65.24169921875
-12.54736328125 -4.4068603515625 -80.8486328125
-21.874755859375 -4.7503662109375 -84.9990234375
38.568115234375 15.0784912109375 -88.69921875
79.52783203125 86.833740234375 65.50341796875
6.48193359375 40.689453125 -38.190185546875
15.4521484375 -9.1517333984375 -72.426513671875
-40.66455078125 -5.2589111328125 -69.47314453125
55.2333984375 51.7926025390625 -46.82275390625
35.24072265625 89.18505859375 -13.11279296875
-81.728515625 -12.339111328125 -32.397705078125
38.977294921875 -9.58447265625 -89.56005859375
-26.218017578125 90.2926025390625 0.014404296875
39.509033203125 -7.046875 -67.99609375
46.00732421875 58.146728515625 -39.050537109375
-18.563720703125 71.61962890625 65.33056640625
-17.21533203125 38.4501953125 -59.03564453125
25.329833984375 36.5364990234375 -59.243408203125
-78.28759765625 -7.588134765625 -64.56640625
38.81005859375 41.8782958984375 -40.543701171875
71.599853515625 24.5789794921875 -78.6103515625
17.483642578125 83.921630859375 14.37451171875
35.9677734375 -7.8258056640625 -91.597900390625
-31.02880859375 72.814697265625 66.11474609375
-45.3876953125 72.5880126953125 72.46044921875
17.025634765625 58.8326416015625 -25.43017578125
5.643798828125 26.390869140625 -70.242919921875
-11.267333984375 92.5516357421875 -4.572998046875
97.116943359375 34.43603515625 -49.107177734375
29.42529296875 78.4398193359375 8.797607421875
70.98388671875 -2.214111328125 -73.338134765625
97.024169921875 103.013916015625 -49.438720703125
53.4248046875 87.38330078125 17.101318359375
-55.337646484375 -12.6881103515625 -41.38623046875
-108.50439453125 75.244873046875 63.440185546875
-88.5810546875 -10.4276123046875 -30.764404296875
21.85546875 90.37939453125 -6.889404296875
-31.94677734375 -3.0521240234375 -80.911376953125
-38.799560546875 90.62548828125 -25.203857421875
103.834716796875 25.92578125 -57.17236328125
63.12060546875 26.9154052734375 -69.360595703125
-64.485595703125 89.579833984375 -42.740234375
-71.041259765625 -12.6422119140625 -74.22998046875
-47.7734375 51.013427734375 -57.03125
-63.57861328125 -4.71435546875 -37.895751953125
20.62646484375 69.647216796875 72.600341796875
-10.677978515625 90.9052734375 7.886474609375
-73.917724609375 -10.66650390625 -79.4033203125
62.310791015625 74.021240234375 125.020263671875
66.65087890625 91.1492919921875 16.186767578125
-53.891357421875 102.1544189453125 -29.6044921875
-38.970458984375 -19.3238525390625 -55.7548828125
80.07275390625 73.128173828125 107.6181640625
2.2275390625 89.94677734375 -5.568603515625
-56.90478515625 73.8209228515625 73.677734375
71.410400390625 90.038330078125 -10.3642578125
18.244140625 30.6168212890625 -65.958251953125
-71.7099609375 -4.16796875 -87.563232421875
-46.7255859375 -1.8536376953125 -71.109375
-126.301025390625 77.8831787109375 79.60498046875
-76.38037109375 -8.7628173828125 -31.546630859375
12.5712890625 86.2227783203125 17.741943359375
62.436767578125 71.470458984375 129.470458984375
3.144287109375 90.61328125 24.54736328125
98.2294921875 83.557373046875 -53.693603515625
34.591552734375 41.763427734375 -37.150634765625
12.84912109375 85.3028564453125 -20.11376953125
-40.810546875 -2.743896484375 -83.07666015625
75.21875 71.2078857421875 113.893798828125
-47.6962890625 100.9737548828125 -28.875244140625
-4.010009765625 31.8265380859375 -64.50439453125
-55.695068359375 -4.1514892578125 -92.989013671875
1.59912109375 -5.5091552734375 -91.2119140625
43.003662109375 71.23388671875 74.552001953125
-1.24951171875 39.5694580078125 -40.49755859375
-87.25341796875 -6.919189453125 -22.955322265625
63.015380859375 43.969482421875 -52.548828125
-21.452880859375 77.9835205078125 -24.928466796875
2.627197265625 79.0582275390625 -24.613037109375
59.4482421875 89.0819091796875 6.084228515625
-41.1337890625 105.80810546875 -25.279052734375
-76.305908203125 -7.5860595703125 -75.258544921875
9.936767578125 28.9857177734375 -66.12841796875
19.163818359375 86.6068115234375 1.30908203125
17.388427734375 24.13232421875 -72.478515625
46.81103515625 71.8946533203125 -26.688720703125
30.027099609375 78.8953857421875 22.396728515625
-30.359130859375 90.2130126953125 -14.45654296875
28.882080078125 80.0582275390625 4.629150390625
67.63330078125 68.182861328125 126.1982421875
104.58349609375 33.0511474609375 -50.6767578125
-65.564208984375 -0.2801513671875 -60.5419921875
-8.508544921875 90.9686279296875 20.774169921875
70.722412109375 87.3997802734375 -19.02197265625
-74.656005859375 102.3291015625 -42.84765625
34.051025390625 27.9752197265625 -69.1083984375
40.87060546875 34.3619384765625 -62.113037109375
19.556640625 87.87890625 30.1513671875
-8.993896484375 39.8837890625 -56.8671875
38.096435546875 86.9862060546875 33.947021484375
60.41845703125 89.266845703125 -5.145263671875
-133.6240234375 47.9193115234375 112.801025390625
19.2470703125 38.2236328125 -58.284912109375
46.00732421875 85.1146240234375 13.350341796875
-54.685791015625 -15.7333984375 -46.7900390625
75.204833984375 41.7364501953125 -49.1943359375
-102.117431640625 74.1673583984375 72.021240234375
-51.02734375 75.4300537109375 76.570556640625
79.904296875 21.2769775390625 -62.98388671875
-100.021728515625 75.597900390625 67.370361328125
90.62451171875 10.10888671875 69.431640625
98.700439453125 27.4039306640625 -55.233154296875
111.44677734375 33.0445556640625 -50.8076171875
