14.084716796875 98.6795654296875 -15.474609375
48.3134765625 81.660400390625 63.4453125
-24.236572265625 -6.1253662109375 -62.701171875
-47.955810546875 62.5218505859375 -53.63818359375
31.085205078125 89.447021484375 3.240966796875
67.900146484375 32.4638671875 -62.723388671875
23.158447265625 90.2908935546875 9.521240234375
10.81396484375 60.4635009765625 -27.537841796875
-43.783935546875 5.0283203125 -104.386474609375
-3.518798828125 102.7335205078125 1.152587890625
107.21240234375 31.3529052734375 -59.345458984375
11.790283203125 85.8961181640625 75.308837890625
-23.58740234375 100.7354736328125 0.95849609375
-76.04150390625 -4.78271484375 -62.455322265625
-11.67041015625 88.1131591796875 60.5791015625
-69.62548828125 2.39111328125 -28.251953125
75.038818359375 81.9404296875 122.490234375
1.6240234375 -3.7269287109375 -67.373046875
70.51708984375 99.2117919921875 -5.83447265625
101.364013671875 40.753662109375 -49.9267578125
-35.2470703125 -8.5216064453125 -57.046142578125
-15.710205078125 -12.840576171875 -115.76611328125
-72.104736328125 -0.974365234375 -40.809814453125
-50.1806640625 -7.3331298828125 -44.901123046875
-25.04248046875 59.671142578125 -45.8291015625
-67.68017578125 6.2767333984375 -65.198486328125
-43.95849609375 88.9305419921875 62.1845703125
-4.742919921875 -6.6492919921875 -102.42822265625
-4.411865234375 51.1220703125 -52.09619140625
-58.2060546875 104.7542724609375 -37.082763671875
5.474365234375 98.8760986328125 -7.83447265625
-37.685791015625 78.48681640625 -34.7373046875
81.468505859375 103.450927734375 -47.919677734375
102.176513671875 75.689697265625 32.92431640625
72.926025390625 32.255126953125 -55.26416015625
52.976806640625 96.406982421875 -18.695556640625
65.882568359375 66.142578125 -43.92333984375
26.487548828125 89.0780029296875 19.74560546875
3.1484375 63.244873046875 -35.37451171875
29.341064453125 99.2703857421875 -8.32177734375
-11.834228515625 39.307373046875 -62.267333984375
14.478515625 97.47265625 12.665771484375
-68.8076171875 87.8123779296875 70.700927734375
-17.240234375 56.7230224609375 -47.93408203125
38.487060546875 -1.4820556640625 -68.0029296875
-41.133544921875 -6.452392578125 -47.033935546875
-25.00390625 0.6544189453125 -115.025634765625
-69.31298828125 -9.932861328125 -101.598388671875
-47.686279296875 104.0667724609375 -31.249755859375
97.34814453125 -38.0224609375 4.359375
-100.05322265625 88.8035888671875 71.75732421875
-47.236572265625 90.095458984375 77.80224609375
48.27099609375 -6.3985595703125 -87.37939453125
-61.889892578125 -5.7314453125 -46.3359375
-33.5703125 3.5855712890625 -77.167236328125
-29.185791015625 50.98291015625 -53.793212890625
-22.185791015625 90.4439697265625 78.47900390625
53.12451171875 68.3226318359375 -38.801025390625
65.15283203125 30.006103515625 -76.87255859375
42.54638671875 57.1546630859375 -28.63525390625
95.007080078125 107.3714599609375 -50.371826171875
38.778076171875 94.5885009765625 -1.40869140625
4.531005859375 100.4219970703125 18.468994140625
58.788818359375 32.728515625 -70.05322265625
-18.2470703125 -8.9915771484375 -93.94970703125
55.427978515625 86.591552734375 74.565673828125
24.514892578125 45.2471923828125 -57.318603515625
-12.147216796875 101.9229736328125 7.51708984375
62.046142578125 -0.4517822265625 -72.434326171875
-35.79248046875 -11.9595947265625 -107.11328125
70.681396484375 102.0360107421875 8.109375
68.23388671875 55.7977294921875 -49.907470703125
10.559326171875 39.72705078125 -62.072509765625
18.91650390625 96.7386474609375 22.30419921875
37.48828125 95.5625 -19.82958984375
50.09423828125 50.5374755859375 -53.845947265625
-2.989013671875 55.826171875 -31.03466796875
48.4892578125 95.8773193359375 17.743896484375
-61.81201171875 -15.634033203125 -101.2998046875
-84.449462890625 2.5809326171875 -34.656494140625
36.910400390625 89.2640380859375 13.643310546875
-64.953369140625 106.4886474609375 -45.4912109375
0.18603515625 98.091552734375 -13.299072265625
-6.153076171875 1.8504638671875 -86.59521484375
-18.53271484375 -6.7545166015625 -57.781005859375
75.927490234375 71.241455078125 -51.66357421875
38.890869140625 41.9910888671875 -60.98583984375
43.19775390625 52.9730224609375 -50.6201171875
-95.113037109375 2.59521484375 -25.014892578125
-30.5478515625 -3.50146484375 -51.475830078125
31.2177734375 84.372314453125 -26.319580078125
-56.146728515625 -10.8843994140625 -106.02490234375
-64.447998046875 -14.2802734375 -116.200927734375
46.586669921875 78.3111572265625 -29.798828125
98.03173828125 77.3831787109375 -59.958984375
-31.6513671875 89.8172607421875 77.920166015625
-68.69677734375 -3.3668212890625 -47.457763671875
78.096923828125 82.00244140625 -49.749755859375
-51.64208984375 86.3538818359375 68.7451171875
-49.71630859375 -9.8701171875 -57.487548828125
45.199462890625 97.391845703125 28.9521484375
-58.407470703125 -6.9503173828125 -80.8388671875
-47.67724609375 1.9571533203125 -81.16748046875
-21.4990234375 74.4674072265625 -33.020751953125
-40.257080078125 3.994384765625 -72.413818359375
81.23095703125 88.633544921875 -49.77294921875
15.195068359375 -3.0904541015625 -66.086669921875
-62.995849609375 8.603515625 -118.504638671875
55.50634765625 99.1805419921875 -2.833251953125
15.797119140625 47.26123046875 -55.325439453125
-91.3671875 89.5396728515625 68.265869140625
84.478271484375 -3.9578857421875 -74.746337890625
-63.259521484375 6.3408203125 -51.87646484375
56.818115234375 100.218017578125 24.06884765625
74.87109375 -16.6661376953125 48.489990234375
40.36376953125 49.6612548828125 -39.6533203125
-4.823486328125 49.02880859375 -37.473388671875
61.994384765625 98.7598876953125 -13.30712890625
-30.86669921875 72.9598388671875 -35.493896484375
-42.24755859375 100.55322265625 -29.793701171875
13.01953125 88.383544921875 -24.9658203125
70.760986328125 96.2239990234375 -18.80859375
26.46484375 81.1727294921875 64.56591796875
-43.295166015625 88.34912109375 -32.552734375
-42.6064453125 56.318115234375 -54.338134765625
-43.759765625 73.0130615234375 -41.766845703125
-23.98486328125 -11.2623291015625 -97.065185546875
-32.333740234375 -7.6959228515625 -86.0048828125
6.7763671875 -1.5389404296875 -102.459716796875
37.10791015625 80.45556640625 66.681396484375
2.6083984375 47.6937255859375 -40.133056640625
7.066650390625 52.5250244140625 -47.87939453125
-43.97705078125 12.5513916015625 -108.759033203125
-8.59033203125 100.4310302734375 14.566162109375
-6.466796875 56.159423828125 -43.39453125
38.16552734375 89.9267578125 25.3134765625
-12.58837890625 -10.690673828125 -96.62841796875
-21.62939453125 101.125732421875 12.8857421875
-46.153076171875 -4.5374755859375 -79.48974609375
41.397705078125 98.8980712890625 -15.565673828125
-23.684814453125 100.2705078125 -12.1025390625
-66.03955078125 -5.392822265625 -73.92822265625
72.570556640625 101.578125 18.8837890625
36.852294921875 98.387451171875 32.300048828125
-30.933349609375 -13.31640625 -116.451904296875
-14.3193359375 1.6295166015625 -80.94970703125
-53.86865234375 0.52734375 -96.333740234375
-75.728515625 94.614013671875 15.95361328125
-129.29443359375 61.647216796875 122.52978515625
89.472412109375 69.39990234375 -57.52587890625
89.14306640625 98.3046875 -50.52392578125
5.29150390625 -7.9232177734375 -105.1455078125
-30.008544921875 68.19140625 -39.619873046875
72.036376953125 76.6217041015625 31.3037109375
-60.277587890625 88.5396728515625 74.376708984375
-38.23583984375 9.6854248046875 -116.22509765625
-18.605224609375 67.9063720703125 -39.03271484375
17.155517578125 60.341552734375 -27.278076171875
46.41357421875 -0.702392578125 -69.677978515625
0.865234375 0.044189453125 -90.28173828125
-26.981689453125 91.871826171875 -23.07763671875
18.183349609375 82.65087890625 63.138916015625
0.346435546875 -0.4842529296875 -57.896240234375
19.408935546875 95.698486328125 9.12548828125
-39.65869140625 -11.680908203125 -53.64990234375
49.646484375 99.462646484375 -14.059814453125
-27.263916015625 3.246337890625 -79.64599609375
113.572265625 34.765625 -56.2470703125
109.87646484375 41.4866943359375 -50.59228515625
-68.48388671875 82.697509765625 -44.259521484375
-3.25244140625 -13.387939453125 -104.085205078125
7.130615234375 83.7607421875 -26.14794921875
45.960693359375 33.7908935546875 -69.885009765625
73.315185546875 -5.8121337890625 -77.447998046875
7.076904296875 19.138671875 -90.94140625
26.0771484375 18.7718505859375 -94.66015625
-14.48291015625 -0.1453857421875 -94.9365234375
70.623779296875 69.921875 -45.509521484375
-100.027099609375 8.6580810546875 -5.022216796875
62.471923828125 82.0484619140625 -27.760498046875
74.67919921875 90.385009765625 62.888671875
52.834716796875 85.818359375 -26.661865234375
51.424560546875 -5.791015625 -76.30712890625
2.249267578125 100.2646484375 6.515380859375
-0.24609375 87.8548583984375 -25.255615234375
16.47900390625 97.1436767578125 0.099365234375
-11.847900390625 -8.971923828125 -105.462646484375
-71.08447265625 -2.59716796875 -65.954345703125
-72.11865234375 89.7972412109375 76.67626953125
95.019775390625 29.555419921875 -69.974365234375
31.39404296875 96.3729248046875 -18.369873046875
-6.304931640625 24.405029296875 -79.830322265625
8.762939453125 94.694580078125 -20.934814453125
31.921630859375 96.4046630859375 25.79345703125
-55.81494140625 -5.9736328125 -47.8486328125
71.808837890625 29.4786376953125 -66.902099609375
72.135009765625 40.3275146484375 -50.8359375
-28.61083984375 -8.0452880859375 -57.147216796875
-31.166748046875 100.987548828125 -12.04638671875
-22.0361328125 -12.76220703125 -113.08740234375
63.4267578125 99.4478759765625 20.199951171875
-51.10107421875 2.3946533203125 -89.51904296875
-31.04296875 -10.8836669921875 -93.178466796875
-71.757080078125 -11.9140625 -94.4482421875
-57.136474609375 -3.8245849609375 -37.268310546875
72.796142578125 89.48486328125 -26.666748046875
69.677734375 89.6351318359375 55.791015625
-9.717529296875 86.15087890625 75.791748046875
-72.995849609375 2.0098876953125 -88.5849609375
65.4970703125 -6.2052001953125 -77.7724609375
6.7705078125 57.443359375 -33.445556640625
-8.184326171875 83.9056396484375 65.3916015625
51.3251953125 99.821533203125 30.56640625
35.167236328125 58.230224609375 -34.91748046875
-32.25 81.6810302734375 -28.759765625
-50.04296875 79.7642822265625 -35.65185546875
-36.52197265625 62.6605224609375 -45.9765625
-129.365966796875 70.464599609375 121.523681640625
66.513427734375 84.6138916015625 129.685546875
-9.63427734375 49.1470947265625 -54.4345703125
-76.227783203125 94.5562744140625 -57.8193359375
-54.1591796875 -1.4818115234375 -73.691162109375
-80.188232421875 1.572021484375 -57.943603515625
-12.36669921875 99.8946533203125 -18.81884765625
74.72216796875 80.9886474609375 -43.73828125
60.552490234375 63.3316650390625 -44.1279296875
-48.154052734375 -7.7957763671875 -84.17041015625
-30.85302734375 44.0203857421875 -59.5068359375
31.473388671875 51.0208740234375 -35.494873046875
-57.919921875 87.345458984375 -39.48388671875
48.70263671875 45.6737060546875 -58.6064453125
-60.349365234375 78.650634765625 -41.656494140625
28.98974609375 62.93505859375 -24.8349609375
-50.435791015625 4.204345703125 -119.735595703125
-57.09521484375 3.5877685546875 -72.26416015625
-12.822021484375 66.54443359375 -39.749267578125
-23.956298828125 65.1536865234375 -41.179443359375
109.268798828125 29.6072998046875 -64.931396484375
-91.368408203125 0.5013427734375 -20.486328125
-45.785400390625 3.6497802734375 -75.17529296875
-13.200439453125 59.9913330078125 -45.02392578125
53.33203125 1.7181396484375 -66.9873046875
-14.152587890625 81.6981201171875 -26.5673828125
-14.3515625 76.338134765625 -32.024169921875
6.803466796875 78.446044921875 -28.739501953125
-7.0146484375 -1.847900390625 -56.484375
-7.5126953125 -3.0789794921875 -111.677978515625
81.308349609375 31.6529541015625 -74.058349609375
-24.9326171875 -2.1068115234375 -102.699951171875
74.38427734375 98.561767578125 -10.229736328125
-58.24951171875 88.7603759765625 63.501953125
62.571533203125 53.09130859375 -52.012939453125
14.9326171875 82.5704345703125 68.650390625
-15.538330078125 86.0841064453125 75.0517578125
38.03515625 19.119140625 -91.145751953125
-44.8212890625 66.81005859375 -49.124755859375
64.714111328125 3.8133544921875 -68.49951171875
-63.99267578125 89.8990478515625 62.976806640625
-44.303955078125 76.88232421875 -37.302978515625
2.236083984375 95.5465087890625 -19.4775390625
-75.772705078125 -3.1650390625 -36.6669921875
45.81689453125 84.2138671875 58.455078125
-4.1923828125 79.63720703125 -28.21630859375
-39.630859375 1.4532470703125 -65.805908203125
1.941650390625 45.1026611328125 -57.17578125
36.354736328125 81.890625 72.27880859375
10.358642578125 100.3421630859375 0.373291015625
-58.892822265625 6.648681640625 -122.969970703125
1.3466796875 53.592529296875 -48.035888671875
20.021728515625 96.790771484375 -19.0625
88.40625 27.01806640625 -61.426025390625
-18.861572265625 47.2288818359375 -56.593994140625
46.217041015625 59.1263427734375 -45.835693359375
-34.497314453125 96.437744140625 -20.8251953125
-5.66748046875 -1.3800048828125 -99.016357421875
26.39208984375 29.7860107421875 -72.928955078125
10.542236328125 49.9208984375 -36.09765625
59.35107421875 -3.1494140625 -86.3125
38.704345703125 86.4072265625 -26.302978515625
-47.5419921875 86.92333984375 73.011962890625
-37.119873046875 84.7447509765625 67.331787109375
-61.34130859375 -8.4593505859375 -51.3466796875
66.8486328125 98.65625 -1.115234375
30.693115234375 -1.6805419921875 -95.746826171875
64.777587890625 86.2332763671875 66.227294921875
27.38427734375 89.3907470703125 -24.87060546875
66.862060546875 77.4263916015625 -35.223876953125
50.19677734375 98.3389892578125 -7.810791015625
-82.1103515625 1.4871826171875 -22.13134765625
41.295166015625 99.557861328125 -5.882080078125
33.39892578125 -0.9879150390625 -65.2265625
36.061767578125 -1.1634521484375 -84.158447265625
-41.642822265625 -0.01708984375 -94.415283203125
-10.077392578125 -5.7823486328125 -59.982421875
-8.99072265625 74.864990234375 -33.18798828125
65.397216796875 -27.1004638671875 103.044677734375
-78.643310546875 90.9423828125 63.15869140625
-59.45703125 -5.5760498046875 -74.6435546875
-56.331298828125 -8.6888427734375 -70.6259765625
46.617431640625 90.4736328125 -24.487548828125
-7.337890625 98.3201904296875 -20.984375
-75.50048828125 -1.5001220703125 -28.20556640625
5.1982421875 -4.5577392578125 -63.10400390625
35.528076171875 96.805908203125 -6.829833984375
26.2294921875 -2.9716796875 -66.702880859375
11.968017578125 19.7080078125 -87.65087890625
101.209716796875 35.0887451171875 -53.423095703125
45.423828125 95.51904296875 23.681640625
-58.0791015625 99.9449462890625 -39.94140625
-69.01123046875 -4.9779052734375 -38.422119140625
-62.08935546875 1.824462890625 -88.631103515625
-20.447998046875 83.4583740234375 -25.4462890625
-41.6318359375 -8.816162109375 -88.13330078125
73.489501953125 -1.0198974609375 -71.37841796875
22.183837890625 81.2415771484375 -26.390869140625
16.98876953125 99.4447021484375 -9.404052734375
-58.656982421875 66.0108642578125 -56.470947265625
37.438232421875 51.361328125 -53.115234375
-65.84375 -1.092529296875 -33.161865234375
-44.7685546875 -13.7628173828125 -110.242431640625
-75.4658203125 95.4913330078125 7.14111328125
17.789306640625 17.073974609375 -94.349609375
-40.88525390625 86.775390625 73.319580078125
-77.32470703125 -3.1837158203125 -67.609130859375
-22.98291015625 0.0762939453125 -88.524169921875
70.787353515625 90.2874755859375 67.139404296875
-38.82958984375 3.3173828125 -106.14404296875
4.656982421875 64.8201904296875 -25.453857421875
58.512451171875 92.5631103515625 -23.1435546875
76.641357421875 101.004638671875 -3.11376953125
-29.2177734375 88.291015625 61.46630859375
41.678466796875 83.8548583984375 74.03857421875
-30.914306640625 84.3675537109375 68.589111328125
37.926513671875 -3.358154296875 -90.634521484375
91.5185546875 86.741943359375 -52.052734375
81.47900390625 2.2139892578125 -74.18994140625
27.33642578125 98.08251953125 -14.7939453125
-36.197998046875 2.927490234375 -82.25048828125
-61.40087890625 6.04833984375 -64.049072265625
80.19580078125 94.169921875 54.11572265625
-34.420166015625 -14.5576171875 -111.822021484375
88.93359375 27.8375244140625 -67.031005859375
52.84912109375 31.9083251953125 -73.2490234375
14.3818359375 50.4595947265625 -45.49755859375
78.184326171875 92.888427734375 -44.076416015625
50.438720703125 38.36962890625 -64.83740234375
-40.796630859375 47.0870361328125 -59.344482421875
95.155029296875 28.9429931640625 -59.219482421875
59.462158203125 -30.442138671875 104.458740234375
-33.480224609375 40.357421875 -63.581787109375
70.952392578125 30.4373779296875 -72.539306640625
57.01171875 37.3055419921875 -65.66650390625
2.47705078125 99.610595703125 25.919921875
5.227294921875 24.77685546875 -81.069580078125
31.029052734375 51.6954345703125 -49.585205078125
-1.45556640625 99.716552734375 -18.18408203125
-6.060546875 83.3060302734375 72.63427734375
44.138427734375 23.470458984375 -84.869384765625
22.2109375 92.5123291015625 -23.2177734375
25.75341796875 88.665771484375 5.08984375
-15.204833984375 85.108642578125 67.143798828125
48.34521484375 82.8302001953125 70.906005859375
-24.95263671875 80.61181640625 -28.688720703125
-16.873291015625 97.9268798828125 -20.989990234375
-52.304931640625 93.29541015625 -34.8779296875
-33.635498046875 -0.1766357421875 -101.327880859375
29.05322265625 37.5941162109375 -63.974609375
-22.029296875 90.0302734375 -24.139404296875
-55.02294921875 70.431396484375 -47.619873046875
55.61865234375 97.043701171875 9.476318359375
-15.680419921875 33.522216796875 -70.574462890625
-35.516357421875 68.042236328125 -41.74853515625
24.6337890625 21.185302734375 -88.53857421875
-56.4921875 -5.6419677734375 -99.510986328125
-15.334716796875 98.9063720703125 -5.13720703125
71.34228515625 77.49560546875 -40.36865234375
-28.717529296875 101.1961669921875 -0.4541015625
5.099853515625 -14.2813720703125 -108.747314453125
-19.457275390625 -2.8040771484375 -111.594970703125
60.302978515625 73.572265625 -35.578857421875
-35.0068359375 -6.6552734375 -46.36181640625
-47.11767578125 56.6395263671875 -57.154296875
-7.197265625 103.418701171875 -5.28662109375
98.715576171875 30.8826904296875 -64.005615234375
-55.25927734375 62.155517578125 -55.10400390625
-15.641845703125 37.32861328125 -65.54150390625
19.749267578125 52.3492431640625 -48.37451171875
-33.146240234375 86.49462890625 -25.4697265625
-0.1162109375 83.8902587890625 66.536376953125
-37.428955078125 106.2498779296875 -25.36376953125
-67.04296875 90.15625 -59.5634765625
21.84033203125 83.9923095703125 74.054931640625
5.882568359375 85.3890380859375 73.75
16.418701171875 83.837646484375 73.7685546875
89.310302734375 40.3297119140625 -48.745849609375
9.912109375 35.541748046875 -66.014892578125
49.793701171875 95.9573974609375 5.603271484375
-43.396728515625 -0.085693359375 -101.75439453125
-29.87646484375 -0.682861328125 -110.69873046875
76.509033203125 96.153564453125 -18.00732421875
56.1552734375 57.7177734375 -48.649658203125
10.47900390625 -3.111083984375 -62.21142578125
-67.19384765625 -5.6405029296875 -68.791748046875
-6.15234375 41.724609375 -60.67724609375
-0.707275390625 86.502685546875 75.95654296875
-81.157470703125 -2.1014404296875 -27.28076171875
-75.283203125 47.63232421875 -72.820556640625
41.559814453125 1.3685302734375 -63.947021484375
117.035888671875 37.9215087890625 -58.635498046875
-52.209228515625 6.1705322265625 -66.849365234375
-21.52978515625 98.5240478515625 -17.054931640625
-50.35302734375 -5.1810302734375 -40.093505859375
61.383544921875 100.2081298828125 15.233642578125
-51.4521484375 -7.08056640625 -51.1142578125
33.587646484375 22.4124755859375 -81.922119140625
-9.42822265625 -6.5994873046875 -99.85302734375
38.806884765625 90.1107177734375 19.55322265625
58.89990234375 42.4073486328125 -59.203125
-52.671142578125 12.1556396484375 -41.318359375
8.31689453125 99.822509765625 6.91650390625
30.797119140625 90.307373046875 24.9775390625
19.91162109375 46.639404296875 -39.543212890625
-37.276123046875 55.2662353515625 -51.75927734375
75.201904296875 7.056640625 -69.549560546875
56.950439453125 -0.0128173828125 -71.451416015625
-11.559814453125 98.82861328125 -13.09130859375
-52.738037109375 -8.451171875 -81.320556640625
56.222900390625 65.109130859375 -41.671142578125
84.074951171875 28.28173828125 -57.480224609375
66.405517578125 61.9970703125 -47.29931640625
19.9345703125 -2.397216796875 -101.824951171875
-26.159423828125 -15.4873046875 -115.5341796875
37.827392578125 90.9759521484375 8.835693359375
66.042724609375 98.8680419921875 9.60693359375
-56.124267578125 -11.5177001953125 -100.605712890625
71.8779296875 82.4752197265625 126.794677734375
36.286865234375 45.1453857421875 -57.82080078125
27.2119140625 47.0372314453125 -40.95654296875
-27.27783203125 55.9346923828125 -49.106201171875
53.429443359375 82.2132568359375 63.65673828125
74.79248046875 86.3424072265625 -36.14111328125
82.3642578125 28.3697509765625 -67.89501953125
26.695068359375 95.630126953125 -3.7216796875
-82.115966796875 89.056884765625 67.67041015625
41.01953125 -3.4228515625 -80.561767578125
14.51708984375 -1.142333984375 -98.868896484375
57.766357421875 84.441162109375 -26.89306640625
20.74951171875 51.703857421875 -35.28857421875
34.241455078125 20.5252685546875 -87.775390625
36.07080078125 0.5595703125 -72.02197265625
-36.346435546875 1.7333984375 -87.217529296875
9.208740234375 83.0067138671875 64.660400390625
71.401123046875 99.728515625 12.6044921875
-63.61865234375 74.128173828125 -54.52294921875
-69.4794921875 3.1719970703125 -83.806396484375
8.201904296875 50.7744140625 -52.529541015625
-0.22998046875 99.623779296875 11.130126953125
-11.758544921875 89.61572265625 -24.40380859375
-66.153076171875 -4.7635498046875 -104.99169921875
78.364990234375 94.0274658203125 63.478271484375
-40.936279296875 2.1849365234375 -84.41015625
77.224609375 96.4788818359375 49.507080078125
66.34130859375 35.7734375 -59.244140625
64.091064453125 -5.755615234375 -72.398193359375
35.582275390625 50.1290283203125 -43.913818359375
9.20166015625 100.0543212890625 16.008056640625
-97.13623046875 3.21875 -13.50439453125
78.21484375 98.2904052734375 -23.232177734375
31.892822265625 87.3643798828125 76.80810546875
62.9423828125 33.68603515625 -66.346435546875
18.680419921875 50.97998046875 -53.083740234375
16.47802734375 95.69873046875 16.91259765625
-22.604736328125 38.4581298828125 -65.20849609375
57.942138671875 84.7967529296875 68.94384765625
10.445556640625 100.0123291015625 -12.293212890625
68.104736328125 99.3616943359375 22.001953125
92.604736328125 102.06982421875 -50.46630859375
-95.72216796875 8.7313232421875 -9.094482421875
-3.1875 -4.8660888671875 -66.60498046875
75.119384765625 100.254638671875 6.48681640625
66.1123046875 -47.0233154296875 30.0126953125
-34.08642578125 47.1058349609375 -57.273681640625
86.3017578125 110.52001953125 -49.56103515625
-60.619384765625 75.802734375 -46.953857421875
22.160888671875 -1.7337646484375 -63.415283203125
-0.28271484375 98.75 0.2255859375
69.33349609375 99.767578125 3.880126953125
-1.793701171875 21.9351806640625 -84.6357421875
17.993896484375 38.4864501953125 -63.8212890625
25.022705078125 90.8155517578125 15.054443359375
67.071533203125 43.1846923828125 -53.644775390625
84.316650390625 98.8525390625 -49.492919921875
96.5673828125 85.4407958984375 -53.310546875
-47.486572265625 -12.234375 -103.49755859375
-33.614501953125 100.56689453125 -18.228759765625
-73.08935546875 6.6478271484375 -65.09130859375
66.09130859375 97.095458984375 -17.41455078125
-74.564453125 86.6697998046875 71.953857421875
31.409423828125 81.0595703125 64.458251953125
95.8193359375 77.2750244140625 -54.787109375
-92.8212890625 91.3538818359375 63.904296875
30.28173828125 59.6044921875 -29.464599609375
-84.495849609375 89.826904296875 76.083984375
37.983154296875 34.4857177734375 -68.836181640625
-29.547607421875 -1.5760498046875 -104.5888671875
80.746337890625 -6.719970703125 -76.490966796875
79.21923828125 28.3543701171875 -58.702392578125
84.641357421875 -7.226806640625 -79.683837890625
66.00732421875 80.4080810546875 -31.286865234375
58.000244140625 -5.79296875 -80.335693359375
13.353759765625 31.919677734375 -69.39892578125
44.748779296875 -6.242431640625 -83.563720703125
-17.353515625 0.8160400390625 -91.059814453125
-47.898193359375 0.833251953125 -93.56396484375
-21.757080078125 3.220458984375 -78.0791015625
-50.434814453125 3.5955810546875 -76.741943359375
25.717041015625 82.608154296875 70.167724609375
-56.509033203125 86.6883544921875 68.3583984375
100.166015625 99.898193359375 -55.161376953125
-61.4970703125 -7.3997802734375 -40.39111328125
-5.578369140625 32.94677734375 -69.391845703125
-8.87841796875 44.7266845703125 -57.95654296875
30.424560546875 32.5244140625 -69.540283203125
-14.03369140625 -6.1177978515625 -97.5126953125
-36.921875 -7.7470703125 -84.355224609375
38.214599609375 57.954833984375 -31.12109375
-16.64453125 91.922119140625 -22.512451171875
19.90185546875 33.664306640625 -69.039794921875
-62.53173828125 104.8541259765625 -39.458251953125
63.51123046875 90.7586669921875 54.340087890625
-38.909912109375 -8.8912353515625 -43.467529296875
34.4296875 94.402587890625 0.742919921875
-3.92919921875 54.71240234375 -47.272216796875
-0.897705078125 -1.1488037109375 -101.283203125
-20.80322265625 86.90087890625 75.483154296875
59.58544921875 49.8427734375 -54.485107421875
49.4013671875 -7.738525390625 -91.883544921875
43.95361328125 44.791748046875 -58.51318359375
-26.1962890625 73.6453857421875 -34.476806640625
23.4443359375 95.6990966796875 20.99169921875
-50.7138671875 -1.3841552734375 -102.0634765625
-24.330078125 -3.946044921875 -92.00732421875
43.99072265625 54.708740234375 -33.54736328125
41.416015625 81.03955078125 -26.59375
5.809326171875 -1.3114013671875 -93.1455078125
38.795654296875 98.5316162109375 -9.9208984375
3.391357421875 30.6153564453125 -71.199462890625
-33.218017578125 76.913330078125 -33.8818359375
27.781005859375 94.268310546875 1.013671875
35.61767578125 38.9097900390625 -63.87841796875
-68.185546875 106.4384765625 -40.281494140625
-37.5869140625 -1.2716064453125 -103.81494140625
76.7451171875 82.6177978515625 118.06298828125
15.1474609375 99.5765380859375 23.61962890625
71.278076171875 45.87646484375 -50.5703125
-8.19091796875 56.9659423828125 -38.837890625
52.552734375 96.8692626953125 15.427490234375
-58.525146484375 6.1053466796875 -67.866943359375
2.76171875 100.006103515625 -3.66162109375
18.058349609375 84.54833984375 -26.350830078125
-23.53466796875 86.7923583984375 62.06689453125
-2.162353515625 52.049072265625 -34.916015625
79.90185546875 40.8900146484375 -48.542724609375
-65.30908203125 -12.4215087890625 -100.971435546875
72.94775390625 97.880615234375 -14.93017578125
-16.570556640625 100.4287109375 -9.463623046875
-24.936279296875 97.73046875 -20.619384765625
-46.1806640625 99.1134033203125 -32.143310546875
-69.1337890625 -10.5162353515625 -90.75341796875
-16.962158203125 0.77685546875 -85.02294921875
-61.478515625 -11.6812744140625 -97.450439453125
50.53173828125 76.681640625 -31.849609375
71.421630859375 92.425537109375 52.3857421875
93.251708984375 31.0341796875 -54.288330078125
5.2294921875 49.84765625 -43.43212890625
81.831787109375 34.31396484375 -50.80859375
46.178466796875 37.271484375 -66.57568359375
-20.548828125 85.355712890625 66.33447265625
-46.239013671875 -8.5765380859375 -47.19677734375
-50.232177734375 67.770263671875 -50.225341796875
13.9267578125 -0.1204833984375 -59.63427734375
-32.9677734375 53.3814697265625 -52.17333984375
77.484619140625 101.2867431640625 13.94189453125
-13.818115234375 103.6339111328125 -3.150634765625
56.229736328125 98.4644775390625 -15.9814453125
62.19140625 31.34619140625 -73.464599609375
-43.78271484375 -7.7230224609375 -56.529052734375
49.20849609375 94.0721435546875 -21.783447265625
69.527099609375 -6.029296875 -80.374267578125
53.79345703125 89.04736328125 56.80126953125
31.728271484375 79.4005126953125 -28.1064453125
66.787841796875 99.3167724609375 -8.6962890625
57.77001953125 84.70703125 59.86279296875
59.320068359375 99.461669921875 -0.100830078125
-51.574951171875 73.0810546875 -43.890869140625
-5.380859375 99.076416015625 -10.4453125
-36.444091796875 96.13671875 -25.08984375
-14.87255859375 -12.22802734375 -101.705078125
27.44775390625 97.7698974609375 27.502197265625
-11.7626953125 22.8905029296875 -84.560791015625
-32.263427734375 0.4189453125 -89.112060546875
-0.154052734375 -9.8837890625 -103.795654296875
92.524169921875 94.327880859375 -50.775634765625
-9.000244140625 37.1544189453125 -65.310791015625
75.21728515625 66.6290283203125 -51.3837890625
86.26123046875 31.966796875 -53.393310546875
60.9169921875 100.1834716796875 29.23046875
-91.189453125 3.055908203125 -16.279541015625
78.673583984375 -1.2911376953125 -72.90478515625
-58.364990234375 0.99658203125 -33.464599609375
-99.99072265625 13.2899169921875 -4.47265625
-25.575927734375 43.4183349609375 -60.4619140625
10.371826171875 23.732177734375 -82.2861328125
-24.251953125 84.1251220703125 69.80859375
46.94189453125 92.6097412109375 14.81103515625
-40.70556640625 10.771484375 -112.332275390625
97.21337890625 38.9085693359375 -50.93310546875
25.384521484375 52.481689453125 -33.86865234375
-73.371337890625 -4.9505615234375 -71.041748046875
0.02880859375 34.8739013671875 -68.114013671875
31.0205078125 90.60107421875 16.821533203125
34.4189453125 87.8533935546875 8.375244140625
48.49609375 68.4464111328125 -39.139404296875
-19.150390625 -12.687744140625 -97.52294921875
75.96826171875 49.92626953125 -49.9375
-3.1298828125 2.37109375 -82.36474609375
-103.247802734375 90.4534912109375 68.84619140625
-40.548828125 86.5623779296875 64.82080078125
-71.9853515625 88.583984375 66.150634765625
-59.290283203125 96.4169921875 -42.652587890625
72.387939453125 35.8297119140625 -52.40283203125
-8.831298828125 83.2781982421875 -25.84521484375
-7.528564453125 93.2423095703125 -22.308349609375
3.198486328125 82.2105712890625 69.467529296875
39.30224609375 59.4605712890625 -25.96875
27.507080078125 41.591796875 -60.7685546875
-54.098876953125 75.1385498046875 -38.6982421875
-6.900390625 86.6121826171875 60.298095703125
-66.01171875 9.577392578125 -53.580078125
-47.145751953125 87.686767578125 65.224853515625
-10.615966796875 0.6705322265625 -83.4619140625
-46.829345703125 5.498779296875 -69.561279296875
-77.769775390625 47.135498046875 -64.793701171875
64.57373046875 39.779541015625 -57.921630859375
43.011474609375 94.68603515625 0.8486328125
2.32861328125 57.95068359375 -34.39453125
18.0986328125 95.922607421875 4.7587890625
-67.116943359375 1.84326171875 -87.901123046875
-1.28125 61.4886474609375 -27.876220703125
-17.6982421875 71.606689453125 -36.52978515625
19.912353515625 44.7401123046875 -57.86083984375
-35.958984375 -3.505859375 -61.492431640625
69.48681640625 32.330322265625 -58.457275390625
78.440185546875 27.846435546875 -64.147705078125
14.791259765625 47.9625244140625 -41.71240234375
41.839599609375 78.066650390625 -30.014892578125
-30.2255859375 3.18115234375 -72.55810546875
56.41259765625 89.254638671875 -25.45947265625
-84.462890625 -0.761962890625 -31.568115234375
30.800537109375 83.67626953125 73.889892578125
-70.994140625 94.861572265625 -56.6513671875
-80.4658203125 -0.284912109375 -66.08349609375
-45.970703125 -6.0062255859375 -43.46826171875
-20.208740234375 50.9017333984375 -53.21142578125
67.223388671875 -7.5648193359375 -85.986328125
27.831298828125 48.7041015625 -54.52587890625
-46.087646484375 8.7523193359375 -112.389892578125
-68.3349609375 -8.8443603515625 -75.760009765625
-1.7734375 41.0408935546875 -61.556640625
-20.622802734375 43.807373046875 -58.9443359375
-19.47705078125 99.698974609375 -1.807861328125
-0.241455078125 48.626953125 -55.136474609375
-38.43603515625 -11.4732666015625 -58.223388671875
18.863037109375 98.75390625 -15.180908203125
65.906982421875 87.648681640625 57.21875
-80.79150390625 6.2327880859375 -24.4326171875
-26.641845703125 90.6407470703125 79.00048828125
64.86767578125 86.3406982421875 -26.811279296875
75.5927734375 30.5970458984375 -74.280029296875
104.9560546875 38.7166748046875 -51.6845703125
-37.0126953125 90.217041015625 -28.030517578125
-57.9453125 69.1241455078125 -53.32861328125
-1.775634765625 83.6756591796875 -25.768310546875
79.226318359375 44.2154541015625 13.9853515625
63.344970703125 85.2628173828125 61.432373046875
-33.05517578125 -7.392822265625 -52.771240234375
-29.15576171875 47.236083984375 -56.59912109375
-5.17919921875 52.6326904296875 -40.696044921875
-54.325927734375 4.240966796875 -121.917724609375
46.813720703125 98.8680419921875 32.836669921875
6.938720703125 42.4761962890625 -59.21044921875
56.187255859375 -4.9749755859375 -72.8076171875
40.493896484375 -3.99169921875 -94.663330078125
90.73681640625 35.5352783203125 -50.270263671875
-39.05517578125 -9.990478515625 -49.576416015625
51.9736328125 97.0950927734375 20.68115234375
-26.017578125 35.82177734375 -66.30126953125
-88.789794921875 1.4879150390625 -29.21484375
66.248779296875 -1.0816650390625 -73.745849609375
58.893310546875 98.432861328125 6.069580078125
48.869140625 -6.4776611328125 -80.904541015625
61.70166015625 -7.662841796875 -87.955078125
-44.968017578125 9.800048828125 -46.560302734375
-84.7451171875 -0.286865234375 -56.890625
6.730224609375 38.097412109375 -63.599365234375
7.945556640625 99.75927734375 -4.26318359375
25.65283203125 -0.9444580078125 -94.89794921875
-63.880859375 88.4510498046875 71.799560546875
73.677001953125 60.70703125 -50.551513671875
64.423583984375 70.503173828125 -39.56396484375
-19.76025390625 101.259033203125 3.107666015625
-24.5927734375 100.451416015625 -7.708251953125
-24.393310546875 49.7081298828125 -53.983642578125
-54.144287109375 0.8280029296875 -86.724853515625
15.6474609375 78.340576171875 -29.05810546875
40.992919921875 97.7691650390625 30.894775390625
-75.44921875 99.8504638671875 -53.78076171875
17.381103515625 89.0599365234375 -24.86572265625
44.668701171875 59.02490234375 -40.895263671875
-10.299072265625 -0.775390625 -96.25439453125
103.645263671875 31.0704345703125 -61.926513671875
-97.293701171875 89.5908203125 75.107421875
85.203857421875 94.572021484375 -50.046142578125
72.052734375 85.6505126953125 120.417724609375
-9.65380859375 1.05224609375 -90.20263671875
-30.49072265625 59.5750732421875 -46.515625
-54.890380859375 103.76708984375 -34.369140625
-48.232421875 91.192138671875 -34.317626953125
42.525390625 -5.6085205078125 -89.309814453125
29.79541015625 20.16943359375 -90.248291015625
2.55126953125 21.548583984375 -85.1591796875
56.7900390625 77.431884765625 -30.888671875
-13.4169921875 -2.3275146484375 -109.368896484375
71.94287109375 67.7042236328125 34.40869140625
43.936279296875 96.1702880859375 -4.982666015625
2.139404296875 37.27587890625 -63.989501953125
-23.54345703125 -7.1099853515625 -57.818115234375
-18.51611328125 -4.792236328125 -95.150390625
21.6845703125 41.8114013671875 -60.585693359375
79.912353515625 97.3529052734375 -11.058349609375
-43.32177734375 -0.8455810546875 -82.34765625
29.234619140625 22.82958984375 -81.889404296875
11.751708984375 92.409423828125 -23.275146484375
28.41357421875 0.6883544921875 -88.836669921875
-48.797119140625 83.8416748046875 -34.69287109375
13.150146484375 95.556396484375 -18.907470703125
11.435302734375 -0.8753662109375 -92.273681640625
23.51806640625 98.7933349609375 -7.478515625
26.153076171875 85.0472412109375 -26.34423828125
-7.6787109375 -12.1859130859375 -105.85986328125
-39.180419921875 82.219482421875 -33.0537109375
78.181396484375 83.998291015625 113.9658203125
-38.839111328125 101.266357421875 -27.176025390625
13.32861328125 62.1756591796875 -24.423095703125
36.099853515625 49.052490234375 -37.344482421875
10.1015625 99.4920654296875 11.787109375
104.290283203125 32.72509765625 -56.4296875
-43.4755859375 8.5345458984375 -107.17578125
1.2158203125 98.8642578125 -9.148681640625
4.476318359375 -2.7554931640625 -105.935302734375
84.5146484375 39.4637451171875 -48.672119140625
-63.804931640625 -10.209228515625 -93.95654296875
-14.14990234375 63.27685546875 -42.3544921875
50.9091796875 71.3306884765625 -36.361572265625
-60.87255859375 2.2020263671875 -93.064453125
-27.517333984375 1.13818359375 -86.479736328125
15.512451171875 0.0272216796875 -94.82177734375
20.280517578125 0.582275390625 -91.61376953125
-30.120849609375 -10.1661376953125 -89.010986328125
69.951904296875 82.7469482421875 -32.732421875
-53.427001953125 83.9619140625 -35.03466796875
63.7099609375 92.1197509765625 -23.696533203125
-29.49853515625 94.667236328125 -20.939453125
45.85205078125 49.8441162109375 -54.83056640625
112.2431640625 37.0699462890625 -52.32275390625
-94.815185546875 88.74853515625 70.74169921875
33.63525390625 96.085205078125 30.57373046875
65.799072265625 95.2601318359375 -21.301513671875
21.244140625 22.2921142578125 -86.006591796875
-57.461669921875 90.2708740234375 77.12646484375
21.831298828125 97.61767578125 25.33154296875
-15.055908203125 101.226318359375 4.412353515625
-16.6318359375 99.8145751953125 10.180419921875
98.535888671875 109.034912109375 -52.14306640625
49.09912109375 81.6240234375 -27.091552734375
-66.242919921875 88.03369140625 66.107421875
88.75439453125 81.6802978515625 -53.10400390625
42.821533203125 51.10302734375 -35.530517578125
40.52783203125 54.006103515625 -45.59423828125
34.392333984375 92.2135009765625 26.28173828125
76.3076171875 33.6485595703125 -52.18798828125
15.7763671875 18.564453125 -90.175048828125
31.402099609375 60.1895751953125 -33.543212890625
33.554931640625 98.7061767578125 35.64697265625
-35.011962890625 -1.2357177734375 -97.4306640625
85.596435546875 78.726806640625 -53.88232421875
-11.8759765625 52.65966796875 -51.8828125
3.132080078125 85.2236328125 -25.987548828125
16.79736328125 98.6309814453125 -5.227294921875
81.097412109375 88.572998046875 105.88232421875
57.760498046875 97.8109130859375 -7.926025390625
-48.325439453125 90.4368896484375 62.0009765625
44.18603515625 81.59619140625 64.4716796875
86.904296875 87.7186279296875 -51.706298828125
-40.575927734375 -13.7064208984375 -107.74072265625
63.869140625 48.6942138671875 -53.744384765625
-81.735595703125 -0.2557373046875 -36.264404296875
-35.36962890625 88.3812255859375 76.472900390625
35.287841796875 82.14599609375 62.333984375
71.19775390625 52.8043212890625 -50.34814453125
-55.929443359375 -7.6087646484375 -77.47705078125
-61.876220703125 -4.265625 -51.384033203125
-2.62060546875 -0.62939453125 -93.48583984375
-98.510498046875 16.84521484375 -9.23388671875
-5.03125 -11.0911865234375 -101.018798828125
68.6123046875 88.138916015625 -26.063720703125
-7.70849609375 57.5438232421875 -30.02685546875
-12.14794921875 84.4276123046875 64.041015625
-86.164306640625 0.46484375 -21.563720703125
-89.935791015625 88.3203125 72.03662109375
20.669189453125 96.7420654296875 0.06787109375
-11.68603515625 2.3807373046875 -77.752685546875
74.91455078125 -7.04736328125 -82.023193359375
53.312744140625 -6.7562255859375 -87.015380859375
-22.2177734375 56.7183837890625 -48.1923828125
79.22705078125 93.09912109375 59.469970703125
-77.568115234375 89.630615234375 71.4794921875
-77.01953125 -0.3309326171875 -59.9443359375
21.486572265625 35.359375 -65.540283203125
-75.358154296875 95.4024658203125 11.453857421875
-67.738037109375 86.592041015625 -61.6669921875
68.26416015625 -30.13525390625 103.46875
-39.774658203125 71.4122314453125 -41.8359375
72.8056640625 72.5509033203125 32.27783203125
-75.19287109375 5.2972412109375 -27.8203125
28.51904296875 93.2965087890625 -22.230224609375
22.912109375 94.04052734375 7.533935546875
50.903564453125 59.39111328125 -46.138427734375
1.007568359375 -4.388427734375 -61.16357421875
31.4169921875 49.704345703125 -44.048828125
-50.919189453125 -2.2449951171875 -76.232666015625
72.648193359375 98.6087646484375 -2.286865234375
14.993408203125 58.0740966796875 -30.203857421875
-69.186767578125 7.642333984375 -60.734130859375
21.972412109375 18.206298828125 -94.16552734375
82.418701171875 73.67919921875 -55.353515625
50.63427734375 85.36669921875 73.546630859375
30.345458984375 44.89697265625 -57.9267578125
95.932373046875 112.8310546875 -49.720458984375
43.583251953125 91.43212890625 8.03369140625
-56.193359375 78.755615234375 -41.3818359375
8.3037109375 100.615234375 20.218994140625
-50.125 97.2406005859375 -33.838134765625
-41.22802734375 51.8135986328125 -55.970947265625
7.951171875 53.50146484375 -33.976806640625
-31.64501953125 86.2486572265625 64.648193359375
85.23046875 69.4808349609375 -57.8671875
-48.2080078125 -8.7490234375 -38.71533203125
51.714599609375 63.6383056640625 -41.91650390625
-33.5791015625 -3.856689453125 -86.92236328125
-12.635498046875 -6.37646484375 -63.1787109375
23.105224609375 1.2232666015625 -60.68115234375
42.81787109375 88.0166015625 -26.0078125
75.37744140625 29.2801513671875 -57.482421875
-20.313232421875 -4.4786376953125 -54.676025390625
78.815185546875 100.5908203125 0.379150390625
34.666015625 53.498779296875 -34.62646484375
-40.2109375 76.3077392578125 -37.2685546875
71.482666015625 73.6488037109375 -43.942626953125
-36.560791015625 3.1405029296875 -74.04345703125
-28.571044921875 102.382080078125 4.067138671875
50.197265625 41.663330078125 -62.34326171875
-20.929443359375 59.9366455078125 -45.628662109375
-51.7529296875 -13.2935791015625 -104.988037109375
42.7626953125 91.589599609375 22.85107421875
46.31591796875 0.10107421875 -73.72216796875
-65.34765625 80.322265625 -43.032958984375
17.396728515625 64.579833984375 -24.9296875
-18.071044921875 53.65380859375 -50.552490234375
9.455322265625 88.3702392578125 77.625732421875
-48.892822265625 -7.409423828125 -78.40625
20.3720703125 47.603515625 -54.710693359375
72.73876953125 86.36083984375 -32.580078125
-10.28173828125 68.50439453125 -37.181396484375
-71.421630859375 -7.1103515625 -90.53271484375
-16.88671875 24.0302734375 -82.442626953125
1.789306640625 -13.6495361328125 -106.098876953125
-17.803955078125 89.5771484375 77.62646484375
44.272705078125 93.2880859375 -22.33544921875
75.402099609375 93.3740234375 52.0791015625
101.68798828125 71.0418701171875 33.6005859375
81.486328125 101.3035888671875 -13.296630859375
11.00048828125 58.5391845703125 -31.15478515625
90.618896484375 23.816650390625 72.397216796875
44.0029296875 30.6334228515625 -72.736328125
-23.266845703125 99.5047607421875 -3.566162109375
10.291748046875 50.335693359375 -45.27001953125
112.165771484375 31.442138671875 -58.181640625
-68.284423828125 87.52197265625 74.76025390625
42.921875 -0.6376953125 -67.237060546875
98.50390625 30.8870849609375 -68.31103515625
45.673095703125 98.7705078125 -14.693359375
-45.509765625 107.333984375 -29.91357421875
117.936767578125 42.3994140625 -57.093017578125
-9.22998046875 59.084228515625 -44.855224609375
41.074951171875 89.139892578125 14.4931640625
27.866455078125 83.413818359375 60.464111328125
75.746337890625 85.479248046875 -41.374755859375
-5.2529296875 82.4918212890625 67.83642578125
-2.5048828125 99.8841552734375 3.87109375
52.76123046875 45.4571533203125 -58.70654296875
-44.5537109375 59.8226318359375 -53.701416015625
-35.591064453125 80.85546875 -31.751220703125
23.3603515625 47.9951171875 -42.0986328125
41.796875 86.964111328125 76.6376953125
-3.31103515625 -3.0965576171875 -104.3662109375
75.844482421875 99.9251708984375 10.45849609375
25.18359375 56.6142578125 -30.585693359375
11.530029296875 48.8890380859375 -53.857666015625
-23.021240234375 -3.982666015625 -113.112548828125
0.42333984375 92.67236328125 -22.430419921875
12.802490234375 42.5894775390625 -59.531005859375
83.456298828125 96.1282958984375 55.49658203125
-54.839599609375 -5.1583251953125 -71.9208984375
24.2021484375 51.7886962890625 -48.8369140625
17.916748046875 23.9141845703125 -81.80419921875
-31.528076171875 86.71826171875 75.3330078125
-38.59423828125 88.7786865234375 62.072265625
4.79736328125 93.495361328125 -21.87841796875
-60.448486328125 83.7183837890625 -38.579345703125
68.246826171875 101.4576416015625 18.56787109375
22.162353515625 82.2216796875 63.570556640625
-37.708740234375 59.9453125 -48.74560546875
-74.657958984375 90.3802490234375 63.164306640625
-60.750732421875 -11.7962646484375 -103.41455078125
36.0703125 31.45751953125 -71.268310546875
90.681640625 77.90771484375 -54.298828125
15.153076171875 87.3271484375 77.22021484375
-22.439697265625 -2.6351318359375 -105.853759765625
-13.81494140625 55.1644287109375 -49.408447265625
73.138671875 3.9276123046875 -71.7568359375
90.662841796875 29.910888671875 -71.35546875
-59.8955078125 107.745361328125 -35.013916015625
4.83154296875 1.1756591796875 -85.46630859375
-0.592529296875 52.5360107421875 -51.3818359375
20.57666015625 58.9505615234375 -28.837890625
5.9873046875 -0.7742919921875 -98.575927734375
83.342529296875 106.768798828125 -49.16162109375
17.416015625 53.418212890625 -33.87109375
-11.9326171875 99.9190673828125 11.923583984375
72.927001953125 -6.204345703125 -71.73193359375
-32.954833984375 70.5855712890625 -37.945556640625
-4.281494140625 103.982177734375 -2.606689453125
7.198974609375 48.5565185546875 -37.81591796875
51.849365234375 97.9019775390625 -1.845947265625
-55.428955078125 88.9678955078125 -36.212890625
8.624267578125 87.3846435546875 -25.44775390625
-102.462646484375 5.2861328125 -5.4580078125
-87.89208984375 89.75048828125 66.33984375
97.572509765625 103.7078857421875 -51.770751953125
-4.535888671875 99.071533203125 11.42333984375
49.4619140625 2.23876953125 -75.334228515625
-53.834716796875 78.4344482421875 -36.485107421875
43.261474609375 55.8028564453125 -47.841552734375
-65.659423828125 -9.48095703125 -39.75830078125
31.353759765625 1.924560546875 -61.3994140625
54.717529296875 99.9144287109375 28.52734375
71.667724609375 93.3465576171875 -22.904541015625
55.154541015625 50.57666015625 -54.089599609375
-81.098388671875 88.0457763671875 73.2021484375
108.346435546875 32.7686767578125 -55.681396484375
-74.711669921875 3.2318115234375 -74.3740234375
31.195068359375 98.556640625 -12.117919921875
-18.749267578125 -0.2403564453125 -96.51904296875
11.879150390625 46.994384765625 -38.382568359375
-3.24169921875 90.0294189453125 -23.888916015625
6.0380859375 61.4248046875 -33.406005859375
30.697021484375 87.7977294921875 7.08154296875
26.080322265625 35.91748046875 -65.99755859375
60.67919921875 100.6573486328125 25.28271484375
-60.20751953125 -7.2950439453125 -36.13916015625
-1.712158203125 48.7493896484375 -39.867919921875
7.6796875 32.594482421875 -68.93603515625
-44.265625 -5.895751953125 -88.076171875
47.964111328125 22.1875 -87.8349609375
-73.4111328125 -0.962158203125 -62.98486328125
94.06298828125 90.8165283203125 -51.6123046875
2.12646484375 84.3065185546875 74.03857421875
6.388427734375 47.7825927734375 -54.623291015625
-18.648681640625 -3.2767333984375 -115.64892578125
-79.703857421875 -3.399658203125 -63.794677734375
-36.84033203125 10.37548828125 -111.8681640625
51.150146484375 -0.581787109375 -69.515380859375
65.427734375 89.55615234375 70.15234375
-23.184326171875 99.9638671875 6.013671875
71.60009765625 92.2288818359375 70.426513671875
-18.2685546875 -16.170166015625 -117.502685546875
101.172119140625 -37.3533935546875 3.973388671875
-3.733154296875 0.73681640625 -89.439697265625
-3.65087890625 21.0750732421875 -87.94921875
58.55224609375 60.4061279296875 -46.364013671875
-39.483642578125 65.0634765625 -46.756103515625
-12.187744140625 62.2830810546875 12.476806640625
6.10205078125 99.6455078125 -12.0224609375
33.789794921875 -0.9412841796875 -93.006591796875
35.076171875 84.76171875 -26.600341796875
97.73779296875 33.881103515625 -54.6875
11.51611328125 84.7974853515625 -26.176025390625
-40.245849609375 90.969970703125 -30.6162109375
-26.00537109375 -0.3865966796875 -90.9140625
41.516357421875 92.3001708984375 3.518310546875
-22.756591796875 -11.39208984375 -93.38720703125
48.913818359375 97.8104248046875 -17.49267578125
50.14306640625 88.9423828125 -25.608642578125
23.524169921875 77.9573974609375 -29.24365234375
42.002197265625 34.3992919921875 -68.5146484375
36.712158203125 91.035888671875 -24.287353515625
