-48.573974609375 -22.3970947265625 24.4365234375
16.532470703125 -11.6375732421875 12.560791015625
-2.126708984375 -17.8277587890625 16.7393798828125
58.943359375 13.47119140625 -11.3287353515625
36.804931640625 -13.27978515625 13.4530029296875
-40.4931640625 -18.4193115234375 11.4195556640625
-14.307373046875 -17.5377197265625 16.794921875
-10.62548828125 -41.5057373046875 33.197265625
-20.308349609375 9.9188232421875 -0.1131591796875
-50.132080078125 20.1728515625 12.82275390625
11.475830078125 -19.450439453125 21.0145263671875
60.602294921875 -25.98193359375 8.6304931640625
-13.91796875 -33.3131103515625 27.9139404296875
81.667236328125 -13.203857421875 -16.9373779296875
78.1181640625 -6.1265869140625 -17.6790771484375
56.451171875 43.7376708984375 -12.1627197265625
-37.557373046875 -28.5338134765625 31.2501220703125
48.28125 -13.085693359375 13.253173828125
46.3037109375 -5.5233154296875 5.1427001953125
73.018798828125 -24.27197265625 11.9896240234375
-40.178955078125 0.41748046875 8.01953125
-2.100341796875 18.0888671875 -3.6800537109375
62.511474609375 -42.66796875 11.7423095703125
39.80224609375 28.4404296875 -11.36572265625
-47.97900390625 7.6778564453125 14.8944091796875
83.375244140625 -9.92431640625 -17.491455078125
-1.240478515625 3.4510498046875 -1.8304443359375
26.97314453125 -13.0848388671875 13.6123046875
75.650390625 -5.2213134765625 -11.6907958984375
58.4462890625 9.372314453125 -11.1995849609375
-48.760498046875 -15.9371337890625 17.6556396484375
74.00390625 -44.383056640625 2.0626220703125
58.998779296875 19.624267578125 -11.4322509765625
49.50244140625 -25.0269775390625 18.30615234375
61.688720703125 -4.4769287109375 5.25634765625
-67.204833984375 -22.671875 25.01220703125
61.45458984375 -26.2230224609375 18.4417724609375
71.225341796875 -26.5782470703125 2.7027587890625
-9.96533203125 -14.3704833984375 13.7142333984375
42.822021484375 34.5557861328125 -11.45361328125
-20.364990234375 3.63427734375 -0.0074462890625
-42.893798828125 -14.4586181640625 14.34326171875
84.80322265625 -31.1754150390625 0.6728515625
51.605712890625 -1.5155029296875 -2.369384765625
70.43115234375 -10.0965576171875 8.81591796875
-77.685791015625 -42.2149658203125 16.8524169921875
19.347412109375 -32.8023681640625 27.79638671875
5.31787109375 -12.2117919921875 5.437255859375
71.523681640625 -14.8314208984375 13.9544677734375
-26.24462890625 11.1043701171875 -0.2769775390625
-12.74267578125 -44.9849853515625 38.059814453125
-11.707275390625 -23.3902587890625 22.350341796875
38.16796875 15.896240234375 -11.223876953125
53.015869140625 28.1693115234375 -11.605224609375
60.826416015625 -36.382080078125 15.6878662109375
89.353759765625 13.5595703125 -32.239013671875
18.082275390625 -20.8974609375 23.037109375
-87.683349609375 -38.705078125 24.63525390625
-68.406982421875 -17.48876953125 22.23291015625
77.991943359375 -24.4012451171875 -10.154541015625
79.43408203125 -6.8427734375 5.3321533203125
48.910400390625 -16.93115234375 17.2099609375
86.70849609375 -34.6339111328125 0.4930419921875
-31.8544921875 -11.1142578125 12.2454833984375
23.340087890625 -14.68359375 15.6510009765625
79.254638671875 -16.074462890625 -13.384765625
-81.8359375 -43.7340087890625 19.8914794921875
-72.167724609375 -21.2481689453125 19.8038330078125
-83.794189453125 -40.7647705078125 16.29052734375
12.787353515625 -38.1873779296875 31.73583984375
-34.92138671875 -8.288330078125 8.1529541015625
51.540283203125 6.133056640625 -10.9300537109375
-48.0185546875 2.5938720703125 16.732177734375
-21.253173828125 -3.39013671875 4.1990966796875
76.578369140625 -24.8765869140625 -5.305419921875
77.97412109375 3.333740234375 -18.768310546875
80.325439453125 -20.6304931640625 -15.814208984375
-25.64404296875 -12.424072265625 11.2225341796875
70.2119140625 -19.087890625 13.726318359375
-23.41162109375 -27.2259521484375 26.6171875
82.017822265625 23.4727783203125 -28.301025390625
5.29833984375 -25.9146728515625 21.4034423828125
90.080078125 7.0218505859375 -33.03759765625
100.670654296875 -28.9312744140625 11.0892333984375
48.115234375 19.9881591796875 -11.2430419921875
27.7431640625 -21.1396484375 22.66796875
-38.57421875 11.0970458984375 11.5205078125
56.4765625 3.2647705078125 -9.60693359375
67.923583984375 -37.663818359375 -2.022705078125
46.354248046875 -1.8642578125 -1.97900390625
-34.80908203125 -24.8741455078125 27.6142578125
-88.4736328125 -33.5272216796875 21.604736328125
55.53955078125 33.9208984375 -11.75244140625
-5.82470703125 -3.5970458984375 3.8463134765625
43.280029296875 46.4188232421875 -10.4764404296875
-12.849853515625 -5.478759765625 6.1201171875
6.419921875 -32.2967529296875 25.866455078125
-87.575927734375 -33.7464599609375 7.4434814453125
44.624755859375 24.4315185546875 -11.3973388671875
50.7177734375 46.4876708984375 -11.86328125
84.00146484375 12.845458984375 -29.3468017578125
-47.046875 -0.633056640625 11.829345703125
75.913330078125 -4.6746826171875 4.1123046875
-43.424560546875 -6.1866455078125 8.8009033203125
70.016357421875 -48.2823486328125 7.265380859375
-39.2451171875 -10.947021484375 5.172119140625
82.249267578125 27.4537353515625 -29.9979248046875
-47.71875 16.60595703125 11.64306640625
44.46728515625 -24.1734619140625 25.143798828125
-86.37060546875 -33.1072998046875 18.711669921875
-12.31591796875 12.2291259765625 -1.323974609375
-82.219970703125 -34.40771484375 9.2899169921875
-3.49365234375 28.804443359375 -3.2664794921875
-76.320556640625 -47.811279296875 19.140869140625
13.64697265625 -10.7564697265625 9.5150146484375
73.56640625 -49.709716796875 7.1536865234375
-30.04443359375 -24.1710205078125 26.202880859375
31.98095703125 32.4112548828125 -10.798095703125
46.2763671875 18.53662109375 -6.8682861328125
-9.302001953125 25.9949951171875 -2.8603515625
10.096435546875 -7.4376220703125 6.8350830078125
25.314453125 -17.254638671875 18.787353515625
69.218017578125 -22.0638427734375 13.88916015625
45.078369140625 -21.9658203125 19.9547119140625
28.601318359375 -18.1737060546875 19.2938232421875
-77.476806640625 -33.0087890625 7.75732421875
-2.071533203125 -38.853759765625 31.3218994140625
75.76513671875 -27.4063720703125 -3.596435546875
54.457275390625 25.72998046875 -11.619384765625
34.237548828125 -9.474609375 9.53125
5.386962890625 -4.5404052734375 5.3082275390625
84.796875 30.835205078125 -35.043701171875
-7.861328125 -45.58203125 37.3909912109375
-19.3037109375 -36.0771484375 30.1566162109375
34.567626953125 42.078125 -11.5609130859375
-82.498046875 -30.4305419921875 15.0546875
73.55126953125 -6.328125 5.8863525390625
34.745361328125 21.9290771484375 -11.404052734375
66.67041015625 -39.4190673828125 1.1610107421875
-2.061767578125 -8.8514404296875 9.472412109375
10.01171875 -40.271240234375 33.71728515625
-21.514404296875 16.9295654296875 -1.6441650390625
-42.118896484375 17.784912109375 11.3228759765625
15.612548828125 -40.0821533203125 34.0030517578125
48.737548828125 -26.3900146484375 23.1942138671875
-43.87646484375 14.642333984375 11.4588623046875
48.0712890625 15.2064208984375 -8.4251708984375
67.591064453125 -33.5887451171875 1.52978515625
-15.816162109375 17.716552734375 -2.0093994140625
2.56103515625 -29.188232421875 23.3583984375
47.369140625 37.88818359375 -11.4249267578125
5.959716796875 -20.561767578125 21.52978515625
-75.228515625 -38.9124755859375 10.120849609375
62.7470703125 -15.94287109375 15.5888671875
58.802978515625 -14.572998046875 14.3929443359375
-42.376220703125 -25.4627685546875 27.93701171875
-11.92626953125 8.2808837890625 -1.31298828125
12.42822265625 -18.972900390625 14.731201171875
-47.86669921875 -31.1224365234375 34.309814453125
98.269287109375 -2.4559326171875 -2.019287109375
-7.21826171875 -37.346435546875 29.8258056640625
57.333740234375 -6.9315185546875 6.4027099609375
48.05224609375 43.4215087890625 -8.5894775390625
-77.343017578125 -26.693603515625 12.395751953125
23.533447265625 -31.2406005859375 27.30224609375
0.165771484375 -39.836669921875 32.711181640625
73.36865234375 -4.6046142578125 8.3792724609375
1.00830078125 1.4530029296875 -1.1531982421875
76.354248046875 -40.482421875 -2.464599609375
78.234619140625 -8.9501953125 7.27685546875
-43.84814453125 -28.73876953125 31.402099609375
-10.52392578125 -18.846923828125 16.9193115234375
61.11279296875 -46.9805908203125 31.167236328125
20.75439453125 -10.0657958984375 10.7496337890625
71.392578125 -30.0443115234375 5.7891845703125
41.4677734375 -17.189453125 17.489013671875
21.63330078125 -5.979248046875 7.4765625
-42.1142578125 -18.5107421875 20.2977294921875
-46.9755859375 -4.9615478515625 8.7044677734375
65.451171875 -42.551513671875 6.5592041015625
75.7294921875 -16.989013671875 4.912841796875
61.03759765625 -34.9443359375 10.91357421875
36.48388671875 -18.3572998046875 19.115234375
52.409423828125 -26.7216796875 14.4482421875
62.466552734375 -37.400146484375 7.275390625
-7.337158203125 -29.74755859375 25.23095703125
19.62353515625 -15.86474609375 17.5494384765625
73.458251953125 -14.776123046875 -2.219482421875
-38.357177734375 -21.8760986328125 24.1922607421875
28.60107421875 -11.03466796875 11.522705078125
-17.863037109375 -26.9652099609375 25.6865234375
-77.17626953125 -30.3812255859375 8.3154296875
83.1630859375 -12.802001953125 -22.764404296875
-45.9404296875 20.099365234375 10.6988525390625
22.7431640625 -33.443359375 30.86181640625
47.90283203125 47.24853515625 -6.8377685546875
0.86328125 -7.6885986328125 8.815673828125
80.20849609375 -11.111083984375 -14.2830810546875
-44.677490234375 -0.306884765625 8.735595703125
71.68896484375 -19.805908203125 0.375
86.281982421875 35.657470703125 -35.855712890625
50.849853515625 20.8011474609375 -11.615478515625
-6.647216796875 -33.5516357421875 27.376708984375
-81.622802734375 -33.0006103515625 11.4952392578125
-17.895263671875 20.5050048828125 -0.9896240234375
77.550048828125 -19.0238037109375 -6.2305908203125
-15.15283203125 -26.2037353515625 24.647216796875
41.711669921875 21.1722412109375 -11.2333984375
-11.156494140625 -3.13232421875 3.4393310546875
60.793212890625 -32.154541015625 16.9656982421875
99.207763671875 -30.7664794921875 16.181396484375
2.48583984375 -11.3680419921875 11.59033203125
85.16162109375 27.2305908203125 -34.5123291015625
-13.122802734375 -19.21728515625 18.9193115234375
-45.222412109375 -12.4368896484375 14.0621337890625
87.036376953125 -5.0615234375 -23.955078125
-12.589599609375 23.9903564453125 -2.9263916015625
-25.072021484375 -4.9073486328125 5.5123291015625
81.65478515625 15.870361328125 -24.769287109375
-32.3291015625 -7.1512451171875 7.9398193359375
-29.7578125 6.0048828125 15.53271484375
-76.750244140625 -47.691650390625 23.8526611328125
-43.10888671875 2.871337890625 12.484619140625
48.354736328125 16.34033203125 -10.808349609375
46.384033203125 -14.7435302734375 14.966796875
79.58544921875 -16.1048583984375 -10.349853515625
34.0166015625 30.39306640625 -11.30517578125
70.962646484375 -36.93505859375 -2.1304931640625
-5.857177734375 18.5306396484375 -2.2652587890625
52.92431640625 48.197509765625 -11.6326904296875
-22.489990234375 -30.57421875 28.419921875
80.710205078125 -41.6239013671875 0.46923828125
-17.59423828125 14.995849609375 -1.07470703125
41.02734375 5.797119140625 -10.3604736328125
2.117431640625 -22.4957275390625 20.0009765625
37.38525390625 18.73095703125 -11.0296630859375
38.85205078125 -20.990234375 21.9886474609375
82.306640625 -0.8675537109375 -21.60888671875
-14.237548828125 2.395751953125 -0.3895263671875
40.7607421875 15.5042724609375 -11.019287109375
54.495361328125 -3.5792236328125 1.6793212890625
74.8603515625 -21.775634765625 13.67578125
-14.44384765625 -38.3360595703125 30.510986328125
59.152587890625 2.8375244140625 -9.3955078125
-13.970947265625 27.90576171875 -3.0697021484375
-63.706787109375 -27.25 29.885986328125
-11.33349609375 -33.38916015625 27.4757080078125
-78.12841796875 -32.7625732421875 11.8155517578125
33.417724609375 5.4442138671875 -10.02783203125
15.406982421875 -27.9600830078125 24.479736328125
79.32763671875 8.152099609375 -22.978515625
14.6787109375 -5.072998046875 5.6727294921875
14.345703125 11.7486572265625 9.917724609375
50.59326171875 42.807373046875 -11.9259033203125
-35.299072265625 6.78955078125 13.6104736328125
-8.75146484375 21.308837890625 -1.79833984375
-13.5654296875 21.7283935546875 -0.6468505859375
70.625244140625 -24.226318359375 13.0137939453125
81.1162109375 -4.3243408203125 3.328857421875
-78.059326171875 -43.8515625 18.8978271484375
55.940185546875 -29.46923828125 18.0799560546875
-4.80322265625 -12.849853515625 12.0880126953125
77.40087890625 -1.9432373046875 -13.5025634765625
47.06298828125 4.152587890625 -9.4918212890625
-6.04248046875 -40.427734375 32.818359375
87.2880859375 -0.17626953125 -26.91162109375
-3.53466796875 4.6600341796875 -1.8179931640625
82.27099609375 30.1839599609375 -31.9039306640625
42.730712890625 -3.8331298828125 2.8612060546875
51.577880859375 -13.5745849609375 13.60400390625
-57.211181640625 -29.5377197265625 32.5185546875
44.27734375 -17.2646484375 18.638916015625
-26.22900390625 -19.7025146484375 19.5145263671875
78.679443359375 2.8580322265625 -21.7220458984375
106.764404296875 -26.3321533203125 3.6910400390625
3.492431640625 -13.8048095703125 7.8946533203125
-32.95068359375 14.23681640625 11.0380859375
37.54541015625 36.500732421875 -11.32861328125
33.669921875 11.053466796875 -11.2259521484375
79.41650390625 -0.0137939453125 -21.36865234375
104.318603515625 -21.83154296875 -3.34033203125
-59.666015625 -31.10400390625 33.947509765625
-48.024658203125 11.1097412109375 11.2353515625
35.3955078125 -0.5445556640625 -4.20263671875
101.69921875 -20.014892578125 -6.539794921875
7.081787109375 -40.5770263671875 33.7442626953125
34.15380859375 36.04150390625 -11.277099609375
-1.393310546875 -41.5162353515625 34.2427978515625
16.8154296875 -19.5821533203125 20.975830078125
22.022705078125 -39.90478515625 33.906494140625
-43.720947265625 -14.7874755859375 9.37109375
-36.83447265625 18.18994140625 11.1917724609375
-45.69580078125 -7.3223876953125 8.710693359375
-49.734619140625 -0.0902099609375 21.335693359375
-31.881103515625 9.9154052734375 12.3248291015625
70.724853515625 -45.638671875 4.658935546875
-75.8486328125 -22.2342529296875 16.4400634765625
89.871337890625 1.1165771484375 -21.974609375
-2.119384765625 24.4219970703125 -3.909423828125
78.3779296875 -33.9283447265625 0.635986328125
-86.26611328125 -47.081298828125 21.4140625
38.47412109375 40.144775390625 -11.5084228515625
76.485595703125 -32.5406494140625 -1.1708984375
-40.149169921875 -29.2696533203125 31.556640625
-49.536376953125 -5.67529296875 14.89404296875
44.668701171875 29.3021240234375 -11.479248046875
80.366455078125 -16.0791015625 -15.8907470703125
-17.28271484375 10.6658935546875 -1.1795654296875
-87.4931640625 -36.6640625 22.0611572265625
-9.1181640625 17.915283203125 2.3109130859375
-25.808349609375 -1.371826171875 3.2896728515625
-2.357177734375 9.0096435546875 -2.30615234375
-87.1064453125 -31.4810791015625 16.9520263671875
-9.782470703125 -24.693115234375 23.285400390625
81.337890625 17.7125244140625 -29.586181640625
-55.78955078125 -14.979736328125 16.7528076171875
-32.13525390625 -20.8157958984375 23.0224609375
73.946044921875 -17.6861572265625 -6.2183837890625
15.04052734375 9.7530517578125 11.838134765625
-15.294921875 12.6124267578125 -1.7340087890625
-11.2578125 -10.2977294921875 8.988525390625
-38.40478515625 15.0484619140625 11.7061767578125
-50.40380859375 14.6446533203125 11.6121826171875
-8.280029296875 -7.9425048828125 8.443359375
-62.546630859375 -17.575927734375 18.162353515625
11.88916015625 -31.2105712890625 25.2254638671875
-7.8974609375 -11.9744873046875 10.794677734375
-9.47509765625 -16.8076171875 13.831787109375
56.317138671875 39.2259521484375 -12.211669921875
54.760009765625 8.5592041015625 -11.3905029296875
78.90087890625 -21.86962890625 -13.665283203125
56.82373046875 -3.20166015625 0.6729736328125
49.037353515625 11.4398193359375 -11.09423828125
-45.517333984375 -16.41162109375 17.9449462890625
-37.62060546875 -19.4229736328125 20.322265625
49.228271484375 32.6201171875 -11.45068359375
60.83935546875 -24.0045166015625 15.3424072265625
13.73193359375 7.358642578125 14.44482421875
36.277099609375 -3.3590087890625 0.7135009765625
86.635986328125 5.9468994140625 -27.860595703125
-24.22412109375 26.3331298828125 -1.17333984375
77.26025390625 -43.646728515625 1.5057373046875
-33.075927734375 2.7911376953125 12.85595703125
61.03515625 -24.343017578125 10.60009765625
-57.3515625 -34.0789794921875 36.1343994140625
70.25732421875 -24.90625 4.8258056640625
6.7724609375 -18.7630615234375 9.508056640625
38.18994140625 8.628173828125 -10.9781494140625
30.2041015625 -19.914794921875 21.041259765625
69.658447265625 -33.304931640625 3.5794677734375
83.70556640625 8.4310302734375 -27.0919189453125
82.29443359375 47.7750244140625 -34.8209228515625
-5.059814453125 -24.811279296875 22.4508056640625
56.275146484375 13.873046875 -11.5352783203125
-88.40087890625 -37.6156005859375 10.39794921875
83.9765625 -34.5361328125 0.390869140625
67.232177734375 -7.923828125 7.257568359375
11.483154296875 14.2313232421875 10.6495361328125
104.866455078125 -28.01953125 4.0946044921875
94.435791015625 -10.5313720703125 -21.8558349609375
74.9716796875 -15.7701416015625 15.06884765625
-42.5751953125 -1.5244140625 6.901123046875
65.412353515625 -26.1558837890625 10.2550048828125
-45.26513671875 -11.244384765625 11.3721923828125
84.892578125 -7.5084228515625 -26.4681396484375
-48.88623046875 -3.7364501953125 12.6419677734375
4.142333984375 -8.1490478515625 8.00146484375
-41.291259765625 4.8262939453125 12.49560546875
74.599853515625 -31.3023681640625 1.78369140625
61.165283203125 -36.3062744140625 13.275634765625
-4.246826171875 23.6668701171875 -2.82177734375
-60.289794921875 -23.6806640625 25.8447265625
-7.952880859375 -19.3231201171875 17.3197021484375
-19.057861328125 -30.6453857421875 27.025390625
-29.7646484375 -28.785400390625 31.2266845703125
68.498046875 -42.9346923828125 3.00537109375
75.868408203125 -11.0350341796875 -11.9071044921875
-6.931396484375 8.6534423828125 -1.4383544921875
42.315185546875 38.189453125 -11.5792236328125
81.267333984375 -33.1680908203125 0.2677001953125
31.94140625 0.6871337890625 -5.6920166015625
40.839111328125 43.8211669921875 -11.7431640625
75.001220703125 -30.40771484375 -0.444580078125
84.42431640625 16.45361328125 -30.7958984375
97.24853515625 -19.9390869140625 -4.097900390625
5.263671875 -17.205078125 18.6895751953125
58.431884765625 28.63037109375 -11.774169921875
37.765380859375 3.813720703125 -9.357666015625
81.265625 20.6357421875 -27.885009765625
79.6142578125 -38.05908203125 -3.05419921875
63.513916015625 -30.175537109375 4.2818603515625
8.46240234375 -14.2955322265625 5.212890625
40.66357421875 -5.854736328125 5.6982421875
78.695556640625 5.3623046875 -19.854736328125
60.818603515625 -31.1741943359375 12.645263671875
-15.83056640625 -31.161376953125 26.948974609375
81.7236328125 -14.0206298828125 -19.4100341796875
-20.942138671875 -9.322509765625 6.5301513671875
-37.95361328125 -0.0089111328125 7.212158203125
-49.784423828125 -19.929931640625 21.9278564453125
80.183837890625 3.6259765625 -23.7015380859375
7.703857421875 -0.509033203125 6.60888671875
-23.707763671875 21.652587890625 -0.9053955078125
83.6826171875 22.4949951171875 -31.849609375
77.0341796875 -14.802001953125 -10.3214111328125
82.043212890625 -35.396484375 2.6812744140625
-20.46923828125 -1.060791015625 1.5343017578125
-64.1181640625 -30.9136962890625 32.9112548828125
31.424560546875 -6.1317138671875 5.9906005859375
-8.6162109375 15.7276611328125 -2.921875
-47.465087890625 -13.1824951171875 14.8896484375
22.0986328125 -32.910888671875 28.2333984375
18.86328125 -28.9715576171875 26.901123046875
81.97705078125 -24.013916015625 -14.313232421875
-27.82275390625 -20.891357421875 20.8372802734375
80.382080078125 -18.1353759765625 -17.10400390625
41.089111328125 11.8541259765625 -11.1409912109375
-69.71826171875 -20.1767578125 21.35888671875
33.442138671875 -20.4222412109375 21.413818359375
-20.931884765625 -26.8797607421875 26.040283203125
80.48486328125 -36.1201171875 0.7005615234375
45.33984375 45.428955078125 -8.2686767578125
2.87255859375 -43.9083251953125 36.6490478515625
-59.876220703125 -18.45556640625 20.1334228515625
71.091064453125 -22.31494140625 0.3446044921875
78.748046875 -18.866943359375 14.53076171875
64.650634765625 -39.87939453125 4.006591796875
45.89404296875 35.0205078125 -11.322265625
99.25390625 -26.09619140625 2.505126953125
-33.347412109375 -26.9967041015625 29.6063232421875
103.770751953125 -35.8056640625 17.9097900390625
100.320068359375 -15.69091796875 -12.17919921875
-6.791259765625 -21.0301513671875 20.1732177734375
-37.9794921875 -17.64404296875 7.75732421875
63.564453125 -39.078125 6.007080078125
-61.96533203125 -34.2589111328125 34.8212890625
8.345947265625 -4.9847412109375 5.49462890625
33.260009765625 45.2830810546875 -11.437744140625
-13.79443359375 -8.2529296875 6.9600830078125
2.388916015625 -20.4261474609375 18.794677734375
11.280029296875 -27.760986328125 21.7471923828125
99.84814453125 -27.559814453125 9.3443603515625
-17.207763671875 -19.92822265625 19.13720703125
57.189697265625 -17.5435791015625 17.3004150390625
-59.58740234375 -27.7911376953125 30.2489013671875
59.176513671875 -4.054931640625 1.819580078125
-49.908447265625 13.1722412109375 14.3758544921875
79.87353515625 -46.436279296875 4.28857421875
41.445068359375 -8.3494873046875 8.353271484375
61.94189453125 -12.4991455078125 12.2183837890625
74.309326171875 -22.7637939453125 -2.915283203125
-23.6103515625 16.96630859375 -0.582275390625
-77.3349609375 -34.9674072265625 9.047607421875
-0.6015625 -5.657958984375 6.3515625
55.931396484375 -14.08349609375 13.2462158203125
48.970947265625 -8.8907470703125 8.312744140625
27.758056640625 -35.7474365234375 30.9482421875
-12.439697265625 -28.764892578125 25.373779296875
34.625732421875 48.523681640625 -11.6693115234375
99.813720703125 -24.7816162109375 0.493896484375
75.628662109375 -47.5611572265625 4.967529296875
78.08154296875 -15.3988037109375 14.2520751953125
2.25634765625 -3.7020263671875 4.04638671875
58.073974609375 -5.6934814453125 4.5623779296875
-28.754150390625 -6.8145751953125 7.883056640625
71.93359375 -17.6890869140625 -1.4107666015625
-27.89111328125 -25.0601806640625 26.8167724609375
-69.6787109375 -24.5955810546875 26.2899169921875
-66.497802734375 -27.9715576171875 30.4986572265625
-80.90673828125 -33.239013671875 16.8531494140625
23.189208984375 -10.1090087890625 10.7384033203125
-86.587646484375 -41.473876953125 17.5643310546875
-46.45263671875 -25.8326416015625 31.5120849609375
-9.508056640625 22.2899169921875 2.292236328125
-5.1953125 -15.698486328125 14.68798828125
57.408935546875 48.251953125 -12.3590087890625
17.897705078125 -12.9058837890625 13.9801025390625
-7.1953125 -26.42138671875 23.7265625
53.009521484375 -5.2037353515625 4.6005859375
64.849365234375 -20.279296875 16.459228515625
-10.056640625 -45.0413818359375 36.8782958984375
-46.3974609375 -24.5390625 27.968994140625
62.4599609375 -27.264404296875 6.9713134765625
-30.13427734375 14.215576171875 10.416748046875
67.599609375 -18.5986328125 13.725341796875
31.941162109375 3.063720703125 -8.5809326171875
64.36474609375 -42.686279296875 29.6617431640625
-25.099365234375 -28.837158203125 27.83447265625
-43.0625 -14.766357421875 5.5928955078125
-0.239501953125 -25.34716796875 21.75341796875
-26.88818359375 2.1424560546875 1.260986328125
3.349365234375 -34.31787109375 27.26953125
-63.982177734375 -19.55078125 21.5943603515625
80.050048828125 10.5152587890625 -25.9493408203125
-28.299560546875 -4.8614501953125 5.390869140625
35.841796875 1.8316650390625 -7.8521728515625
-17.5009765625 -0.310546875 1.1380615234375
72.074951171875 -13.120849609375 12.52001953125
67.78173828125 -30.818359375 7.259521484375
8.2001953125 -36.7073974609375 30.5860595703125
83.32763671875 -3.5272216796875 0.7105712890625
21.288330078125 -29.51171875 28.4190673828125
-49.845947265625 -8.0281982421875 13.4967041015625
31.871826171875 -14.442138671875 15.06982421875
72.85498046875 -14.7432861328125 -5.7012939453125
-20.676025390625 -32.2716064453125 28.382568359375
53.755126953125 -14.47021484375 14.5390625
83.19873046875 41.929931640625 -32.349365234375
-18.828857421875 27.125732421875 -2.0247802734375
-28.04638671875 -16.80126953125 16.0943603515625
-36.281005859375 -6.696533203125 7.2364501953125
-87.333740234375 -36.04296875 8.0787353515625
102.934326171875 -31.642822265625 11.9359130859375
80.142333984375 -4.104736328125 -19.0789794921875
98.774169921875 -14.387939453125 -13.4212646484375
-21.122802734375 21.6220703125 -1.900146484375
84.948974609375 -7.8988037109375 -21.9921875
-19.662353515625 -13.35009765625 12.1314697265625
10.60986328125 -29.8778076171875 23.89111328125
59.1923828125 -25.357666015625 21.0924072265625
43.383544921875 -20.6678466796875 21.1689453125
-66.4521484375 -17.8818359375 19.048583984375
-84.301025390625 -38.7242431640625 14.1182861328125
38.23388671875 -19.25732421875 20.254150390625
32.114990234375 7.452880859375 -10.5601806640625
16.641357421875 -7.945068359375 8.822998046875
37.4619140625 -9.114501953125 9.134765625
74.0634765625 -8.88232421875 7.3326416015625
61.9697265625 -40.55029296875 12.3623046875
47.3720703125 48.6292724609375 -9.6805419921875
75.61767578125 47.8387451171875 -27.394775390625
-0.08935546875 -13.3651123046875 14.4542236328125
23.3564453125 -18.053955078125 19.610107421875
-57.942138671875 -14.156494140625 17.6759033203125
-56.416748046875 -23.3929443359375 25.656494140625
-0.781982421875 21.2587890625 -3.90234375
88.4033203125 4.265625 -29.422119140625
44.39990234375 9.4105224609375 -11.2685546875
-42.207275390625 8.022705078125 14.0399169921875
49.3505859375 5.7471923828125 -10.5
-9.647216796875 -22.619140625 21.8123779296875
-51.107666015625 -17.084228515625 19.179931640625
76.667724609375 -21.548828125 -3.944580078125
75.26708984375 -12.7510986328125 11.842041015625
-61.490234375 -22.028564453125 24.18310546875
98.748291015625 -16.934326171875 -10.8170166015625
48.7294921875 -3.91748046875 2.116943359375
44.5830078125 -3.458740234375 1.21435546875
-40.1552734375 -4.28125 8.2227783203125
-1.23046875 16.1357421875 -2.964599609375
43.6103515625 42.2978515625 -11.2713623046875
-4.384765625 0.3280029296875 -0.03564453125
48.99853515625 27.309326171875 -11.610107421875
60.996337890625 -31.8642578125 7.2205810546875
19.782958984375 -20.08544921875 21.8055419921875
52.178466796875 -22.5245361328125 16.9189453125
-21.930908203125 -22.6812744140625 21.565185546875
99.5595703125 -22.590087890625 -1.86181640625
52.9892578125 -0.725341796875 -3.95751953125
54.655517578125 -23.026123046875 17.53076171875
50.855712890625 -6.418701171875 5.8868408203125
-6.838623046875 2.319580078125 -1.0849609375
4.060791015625 -14.2064208984375 5.763671875
69.216796875 -27.08984375 9.081298828125
51.25390625 15.0928955078125 -11.579345703125
-37.4013671875 -30.638671875 33.408935546875
65.80810546875 -32.27978515625 1.8731689453125
98.6943359375 -22.103271484375 -4.2440185546875
83.516357421875 38.4112548828125 -36.16162109375
-35.4775390625 0.374755859375 8.4876708984375
82.341796875 -9.4896240234375 -15.561279296875
57.535400390625 -10.296875 9.6260986328125
53.076171875 -18.3016357421875 17.341552734375
-15.916015625 5.548828125 -1.01416015625
37.01416015625 27.2105712890625 -11.1131591796875
49.615234375 -22.89453125 17.6663818359375
-67.96826171875 -21.4364013671875 23.321533203125
61.0908203125 -28.8466796875 20.932373046875
4.381591796875 -14.2659912109375 13.2252197265625
-19.878173828125 19.3052978515625 -1.23876953125
-83.116455078125 -45.2723388671875 20.8656005859375
63.068603515625 -44.8197021484375 11.8575439453125
7.271728515625 -16.404541015625 16.4439697265625
-86.740478515625 -40.695068359375 24.951904296875
-28.468994140625 11.109619140625 -0.2476806640625
-26.58154296875 -13.6092529296875 12.8536376953125
58.025634765625 24.1280517578125 -11.512939453125
38.499755859375 -12.0538330078125 12.2193603515625
60.71142578125 -19.3238525390625 16.4742431640625
81.380615234375 -9.856689453125 7.95166015625
61.983642578125 -42.3173828125 13.8658447265625
101.861572265625 -34.8255615234375 16.8702392578125
-48.7490234375 18.5821533203125 12.14111328125
-26.04345703125 -28.0626220703125 30.3626708984375
-30.403076171875 -8.76025390625 9.867431640625
66.176513671875 -46.4498291015625 24.89892578125
91.879638671875 16.5091552734375 -29.9603271484375
6.461669921875 -36.17431640625 29.2947998046875
104.49267578125 -18.375244140625 -6.4805908203125
-57.434326171875 -31.1826171875 33.976806640625
9.69677734375 -2.1690673828125 5.28125
59.2744140625 0.826904296875 -6.4610595703125
47.443115234375 -3.0902099609375 0.2872314453125
-17.965576171875 4.7841796875 -0.6024169921875
22.4755859375 -22.31005859375 25.3525390625
-16.224609375 -3.067138671875 3.4161376953125
-5.197509765625 21.6796875 -2.7994384765625
48.10693359375 -1.073486328125 -3.051513671875
43.0390625 48.757080078125 -11.568603515625
-57.30419921875 -16.5289306640625 18.1722412109375
83.497314453125 1.9794921875 -22.7681884765625
-43.35302734375 -16.064697265625 17.8116455078125
-17.09326171875 -34.8829345703125 29.0213623046875
101.8720703125 -18.29736328125 -8.3231201171875
43.498291015625 19.98583984375 -10.7718505859375
67.307861328125 -43.39501953125 4.8946533203125
57.64892578125 -19.6876220703125 17.28125
51.515380859375 -3.9500732421875 2.4814453125
65.794921875 -31.0997314453125 4.595947265625
81.5927734375 -9.012939453125 4.07763671875
-11.849853515625 -15.1441650390625 14.51123046875
-19.781005859375 -4.990234375 4.436767578125
0.645751953125 -31.6590576171875 25.06396484375
84.8193359375 25.2506103515625 -33.6412353515625
-16.150634765625 -10.60791015625 9.3309326171875
61.251220703125 -37.7847900390625 18.4976806640625
12.5048828125 -34.69775390625 28.7415771484375
-15.127685546875 -13.8509521484375 12.8167724609375
63.420654296875 -9.5531005859375 8.4716796875
39.210205078125 32.0599365234375 -11.6143798828125
36.97412109375 32.450439453125 -11.32470703125
39.745361328125 0.2144775390625 -5.0498046875
76.971435546875 -6.5111083984375 -15.8681640625
8.196533203125 -8.2198486328125 6.115966796875
28.930908203125 -14.3812255859375 15.1278076171875
-22.105712890625 -15.7269287109375 15.2158203125
64.64892578125 -48.239013671875 27.2464599609375
69.108154296875 -46.9935302734375 24.5821533203125
-23.75439453125 0.924560546875 0.4769287109375
41.01904296875 -3.0101318359375 0.3907470703125
33.8564453125 -2.1070556640625 0.02490234375
-55.4794921875 -28.76123046875 31.4661865234375
-77.2275390625 -31.7215576171875 13.7572021484375
87.29833984375 -3.4444580078125 -26.1865234375
24.304443359375 -30.9031982421875 29.2998046875
26.583251953125 -22.3951416015625 24.0008544921875
45.489013671875 -26.3758544921875 26.7257080078125
7.4384765625 -24.743408203125 21.712158203125
38.431396484375 -3.7818603515625 2.409912109375
48.854736328125 41.575927734375 -11.5416259765625
-27.322265625 -10.796630859375 9.782470703125
-45.48779296875 -22.0823974609375 24.3427734375
97.174560546875 -6.02685546875 -24.3580322265625
-48.60107421875 -6.4918212890625 9.860107421875
82.375732421875 34.6046142578125 -32.51708984375
60.637939453125 -26.455078125 10.8272705078125
-1.65966796875 -2.0665283203125 2.2091064453125
98.287109375 -0.7645263671875 -3.3634033203125
44.451904296875 -0.6363525390625 -3.9830322265625
-13.770263671875 -30.8038330078125 26.41943359375
101.648681640625 -29.22412109375 4.199951171875
2.701171875 -17.55322265625 18.427734375
-54.840087890625 -27.13671875 29.9676513671875
-19.5517578125 25.1356201171875 -2.424072265625
-38.907958984375 -8.2210693359375 6.5362548828125
-41.638427734375 -17.30517578125 18.577392578125
-22.8095703125 -4.1494140625 5.479248046875
-9.320068359375 -6.328125 6.6380615234375
14.76953125 -38.2967529296875 32.565673828125
-36.1455078125 -12.95703125 4.4088134765625
8.964599609375 -19.38623046875 20.8729248046875
101.800537109375 -12.3385009765625 -13.702880859375
38.328857421875 -15.421142578125 15.7774658203125
-41.67919921875 -19.745849609375 22.0552978515625
-15.8701171875 -8.615966796875 7.36279296875
75.182373046875 -8.1160888671875 -10.8863525390625
-10.8916015625 5.8946533203125 -1.8082275390625
-7.460205078125 26.7607421875 -3.64306640625
104.32666015625 -24.93359375 2.0223388671875
-36.1484375 10.3123779296875 11.903076171875
62.85546875 -34.7037353515625 2.1324462890625
65.76708984375 -44.6343994140625 23.5396728515625
22.5625 -21.433349609375 23.1182861328125
-53.091064453125 -22.266845703125 24.28125
76.768798828125 -3.81884765625 5.8992919921875
-30.341552734375 -13.1416015625 14.2642822265625
-31.851318359375 19.792724609375 11.21875
10.598876953125 -26.10888671875 22.960205078125
49.6376953125 -20.794189453125 19.1151123046875
17.600830078125 -41.4720458984375 34.8646240234375
-89.55615234375 -35.60107421875 8.6158447265625
-49.81982421875 8.8609619140625 14.700927734375
-60.02783203125 -20.85498046875 22.6275634765625
-83.2392578125 -33.552001953125 17.28125
-85.52978515625 -29.9320068359375 14.7830810546875
71.7861328125 -5.865966796875 7.704833984375
-49.736328125 -30.618408203125 33.2352294921875
50.989501953125 -29.3623046875 19.8402099609375
82.633056640625 42.027587890625 -36.0921630859375
-63.485595703125 -23.99755859375 26.5023193359375
12.4169921875 1.521240234375 9.472900390625
-23.119873046875 -7.3062744140625 5.8359375
85.5419921875 37.64208984375 -36.175537109375
65.2744140625 -44.2916259765625 7.7734375
43.315185546875 -18.9466552734375 19.5164794921875
-8.855712890625 11.79443359375 -2.4317626953125
-22.658935546875 -11.6754150390625 8.400634765625
-52.286376953125 -30.5406494140625 33.5234375
45.02392578125 19.6502685546875 -9.3309326171875
56.87890625 19.6082763671875 -11.56689453125
-16.428955078125 27.5557861328125 -1.8193359375
33.744140625 -4.9398193359375 4.276611328125
-48.4580078125 0.6024169921875 15.0648193359375
47.650146484375 -20.3099365234375 18.445556640625
19.697021484375 -5.5458984375 6.7281494140625
-15.05126953125 7.5098876953125 -1.15771484375
-15.061767578125 23.6004638671875 -2.4638671875
5.11328125 -41.3765869140625 34.569580078125
50.919677734375 28.5460205078125 -11.7457275390625
20.436279296875 -14.2081298828125 15.7005615234375
83.89599609375 -8.711181640625 -23.8787841796875
43.657470703125 7.394287109375 -10.8675537109375
54.64892578125 46.985107421875 -11.97705078125
55.449951171875 -19.2059326171875 17.081298828125
40.595947265625 1.3919677734375 -7.3739013671875
-19.400390625 1.270263671875 0.16796875
-36.82421875 4.3826904296875 11.6763916015625
73.990478515625 -34.6597900390625 1.7667236328125
30.78076171875 -11.49072265625 11.840087890625
-50.583984375 -12.3260498046875 13.9234619140625
-23.712646484375 5.6112060546875 -0.39111328125
-77.338623046875 -38.57275390625 12.84033203125
46.692138671875 13.0753173828125 -10.9478759765625
-19.0 -33.9896240234375 28.9364013671875
39.414794921875 -16.7210693359375 17.4268798828125
60.630615234375 -32.36572265625 24.07177734375
5.17529296875 -17.8984375 8.4417724609375
-6.774169921875 11.8040771484375 -2.040283203125
-68.712890625 -17.4453125 19.72021484375
61.312744140625 -35.7236328125 20.714111328125
82.272216796875 26.8768310546875 -33.0433349609375
32.591796875 -0.50244140625 -3.2933349609375
71.450439453125 -40.7855224609375 -0.7015380859375
7.151611328125 -17.1258544921875 7.7689208984375
21.3271484375 -12.9742431640625 13.9989013671875
2.281494140625 -36.86669921875 29.627685546875
79.0078125 -4.71630859375 4.030029296875
35.2919921875 44.1337890625 -11.2847900390625
-4.252685546875 -39.20166015625 31.7176513671875
100.0048828125 -21.2496337890625 -6.5970458984375
49.8544921875 -27.0870361328125 15.195068359375
31.644287109375 1.93505859375 -4.032958984375
-26.248046875 -9.6251220703125 8.416259765625
5.65380859375 -10.19921875 5.91357421875
63.2109375 -44.9208984375 31.8419189453125
-2.658203125 -42.776611328125 35.4410400390625
52.831787109375 7.7523193359375 -11.26171875
-2.924560546875 -0.869873046875 0.868896484375
-49.517333984375 3.02587890625 18.1273193359375
87.046142578125 4.77294921875 -25.4678955078125
81.76806640625 -38.16796875 -2.316162109375
9.5126953125 -33.2750244140625 26.99365234375
85.443603515625 33.640869140625 -35.57373046875
42.737548828125 15.939697265625 -10.3365478515625
71.144287109375 -32.549560546875 4.83837890625
69.489990234375 -14.3616943359375 14.034423828125
-77.037841796875 -34.8905029296875 6.9649658203125
-72.839599609375 -18.88818359375 19.1842041015625
85.037841796875 19.2496337890625 -31.989013671875
48.019775390625 9.406005859375 -11.0650634765625
33.239990234375 1.862548828125 -7.376708984375
75.06103515625 -28.6905517578125 -1.7716064453125
-25.564453125 24.32861328125 -1.8819580078125
2.35107421875 -10.1436767578125 9.7784423828125
68.497314453125 -9.214111328125 8.2979736328125
-39.787109375 2.0054931640625 9.5406494140625
91.637939453125 15.6077880859375 -32.0567626953125
-62.192626953125 -30.1925048828125 33.23876953125
97.809326171875 -19.45703125 -9.94287109375
-49.496826171875 -2.0888671875 20.10888671875
39.888671875 -25.359375 26.7283935546875
-24.6123046875 -8.4659423828125 7.2506103515625
81.823974609375 -7.0013427734375 -16.9169921875
-26.28076171875 -29.7318115234375 31.7103271484375
21.176025390625 -17.9986572265625 19.2818603515625
-6.821044921875 -0.433349609375 0.558837890625
36.781494140625 41.348388671875 -11.16845703125
-48.341796875 14.636474609375 11.3529052734375
39.513671875 -0.9644775390625 -1.821533203125
-86.376708984375 -38.6370849609375 14.1231689453125
4.840087890625 -6.1328125 8.298583984375
-9.98974609375 -13.1478271484375 12.0367431640625
80.5625 -31.3641357421875 -2.7039794921875
72.2666015625 -22.3143310546875 -1.52294921875
82.086669921875 12.8731689453125 -28.546875
5.61181640625 -30.978515625 24.482666015625
24.826416015625 -15.9764404296875 17.22802734375
1.42138671875 6.195068359375 -2.88818359375
10.0283203125 -13.9151611328125 3.9097900390625
45.488037109375 -11.344970703125 11.37353515625
87.945556640625 9.5557861328125 -30.1109619140625
76.926513671875 -17.738525390625 -7.728515625
44.304931640625 39.0389404296875 -11.5836181640625
-52.333984375 -23.5162353515625 25.8660888671875
90.751953125 12.290771484375 -33.6126708984375
18.955078125 -37.1663818359375 32.088134765625
-3.6162109375 -30.27783203125 25.0987548828125
55.284912109375 1.6650390625 -7.768310546875
-61.614013671875 -27.7364501953125 30.621826171875
30.511474609375 -4.46435546875 6.782470703125
79.480224609375 1.3421630859375 -14.243408203125
54.40576171875 20.0074462890625 -11.5230712890625
-4.125 -17.3701171875 16.5489501953125
52.11767578125 39.99072265625 -11.8089599609375
-48.846923828125 -24.857177734375 27.5609130859375
-79.591552734375 -37.6971435546875 12.4676513671875
-36.7265625 -14.9027099609375 5.0411376953125
16.085693359375 13.0152587890625 11.0948486328125
48.738525390625 18.1920166015625 -5.520751953125
84.61669921875 -14.0592041015625 -23.4859619140625
57.9521484375 4.47021484375 -10.3697509765625
12.478759765625 -8.6942138671875 8.36767578125
30.659423828125 -3.6597900390625 4.77978515625
-12.50732421875 15.3712158203125 -1.745361328125
61.164306640625 -22.3258056640625 16.46923828125
-7.8525390625 -3.5726318359375 3.5635986328125
-50.104248046875 12.711181640625 12.2698974609375
29.44287109375 -8.1546630859375 8.2447509765625
1.6845703125 -24.56103515625 20.94287109375
33.006103515625 17.1043701171875 -10.963623046875
56.469482421875 45.783447265625 -12.1971435546875
85.749755859375 10.85595703125 -27.8148193359375
14.63232421875 -11.5972900390625 11.09423828125
82.310546875 18.7152099609375 -25.3087158203125
88.1787109375 15.2015380859375 -31.833740234375
3.69970703125 -38.658447265625 31.265625
85.262451171875 39.6273193359375 -36.560302734375
-80.51904296875 -46.623046875 22.0250244140625
15.6552734375 -6.708740234375 7.2464599609375
74.810791015625 -14.3468017578125 -9.199951171875
18.310546875 -6.747802734375 7.6177978515625
-44.435791015625 -25.007568359375 28.30908203125
51.2353515625 13.0543212890625 -11.5450439453125
73.02587890625 -27.4671630859375 2.35107421875
-19.6513671875 -7.7581787109375 6.342041015625
10.382568359375 -41.6190185546875 35.1978759765625
26.4609375 -38.3319091796875 32.94482421875
53.44921875 4.5003662109375 -10.332275390625
-59.9765625 -25.3160400390625 27.4844970703125
2.127197265625 -2.111328125 2.2684326171875
77.375732421875 -5.96533203125 4.6865234375
-0.076904296875 -33.3331298828125 26.333251953125
62.3388671875 -35.6241455078125 4.9442138671875
-24.61865234375 -16.4854736328125 16.4989013671875
4.795166015625 -13.4033203125 3.8775634765625
-86.037109375 -43.9259033203125 19.888671875
-67.026123046875 -26.334716796875 29.2919921875
0.27490234375 14.1590576171875 -2.729736328125
27.4453125 -16.8795166015625 18.241455078125
-20.818115234375 7.955322265625 -0.1478271484375
67.370849609375 -47.8116455078125 8.6007080078125
64.076904296875 -44.33251953125 9.6727294921875
72.037353515625 -8.84912109375 7.427978515625
60.84326171875 -23.242431640625 20.4193115234375
-28.008056640625 -18.8414306640625 18.7430419921875
101.063232421875 -17.415283203125 -9.960205078125
35.484375 25.5777587890625 -11.155029296875
-8.173583984375 19.3773193359375 -0.7786865234375
-24.612548828125 -23.4554443359375 23.4407958984375
-24.21435546875 19.6905517578125 -0.9395751953125
47.409912109375 -15.62109375 16.4779052734375
65.97509765625 -47.8360595703125 10.2354736328125
64.65087890625 -14.262939453125 13.852783203125
-41.743408203125 20.5302734375 11.098876953125
-23.951904296875 -22.19775390625 20.396728515625
-39.36572265625 -26.8048095703125 29.4425048828125
63.140869140625 -43.4306640625 27.9517822265625
9.164306640625 -11.877197265625 3.9866943359375
33.134521484375 -24.296142578125 25.667236328125
-52.67041015625 -14.2574462890625 15.9537353515625
-77.48681640625 -27.17333984375 15.805419921875
82.337646484375 7.2347412109375 -26.2122802734375
64.009521484375 -21.0767822265625 13.88671875
-2.643798828125 10.979736328125 -2.8326416015625
71.25244140625 -23.2509765625 5.4073486328125
35.31005859375 46.150146484375 -11.3187255859375
71.880615234375 -42.9940185546875 1.29150390625
34.81396484375 19.920654296875 -11.2471923828125
-27.520263671875 15.7646484375 -1.098876953125
82.727783203125 37.384033203125 -33.4029541015625
-49.8740234375 6.1695556640625 17.3089599609375
-60.920166015625 -32.3028564453125 35.094482421875
26.250732421875 -6.8751220703125 6.359375
54.978271484375 22.4669189453125 -11.4996337890625
-76.455078125 -38.0140380859375 8.341064453125
73.696533203125 -32.2498779296875 6.13037109375
-42.48876953125 6.0400390625 13.56689453125
11.58642578125 -33.7730712890625 27.207763671875
63.891357421875 -24.8394775390625 10.2681884765625
18.20166015625 -8.788818359375 9.76953125
-32.311279296875 4.814697265625 15.042724609375
-47.71435546875 9.216796875 13.6292724609375
58.61181640625 -12.8638916015625 13.3538818359375
41.29931640625 -21.05029296875 21.8592529296875
-12.673095703125 3.5579833984375 -0.8765869140625
-43.501220703125 -5.4124755859375 6.9488525390625
-13.036865234375 -0.756591796875 0.96630859375
65.265380859375 -27.3883056640625 8.6778564453125
-27.996826171875 -22.9483642578125 23.1279296875
-62.984619140625 -28.9129638671875 31.4945068359375
43.099365234375 -14.6776123046875 15.3515625
-56.0751953125 -25.854248046875 28.2813720703125
16.268310546875 -32.6646728515625 26.808837890625
-32.701904296875 -23.69287109375 26.3631591796875
81.559814453125 9.2498779296875 -27.2120361328125
54.051513671875 31.4500732421875 -11.6556396484375
74.33642578125 -33.0172119140625 2.8575439453125
-56.4501953125 -32.4647216796875 35.1571044921875
-30.82275390625 -20.0135498046875 21.180908203125
12.39208984375 -0.1339111328125 7.9649658203125
32.842529296875 -21.69580078125 22.833251953125
53.759765625 -7.2938232421875 7.1307373046875
25.909423828125 -35.23583984375 30.390869140625
75.8857421875 -11.04541015625 9.808837890625
53.67529296875 -24.67529296875 16.1866455078125
-20.755859375 23.57373046875 -2.110107421875
17.41357421875 -35.3233642578125 29.53857421875
85.5712890625 -19.0609130859375 -19.0205078125
-46.15673828125 -2.62646484375 9.3570556640625
-50.291015625 16.638916015625 12.63134765625
-27.592529296875 -14.7958984375 14.3621826171875
26.53857421875 -32.2373046875 28.923095703125
-58.689208984375 -32.3836669921875 35.125732421875
12.83251953125 -3.4208984375 5.7384033203125
-6.124267578125 -11.203857421875 11.392822265625
-40.304931640625 -14.8221435546875 4.9752197265625
73.163818359375 -25.740478515625 0.4295654296875
13.286376953125 10.564453125 11.33203125
36.591796875 -21.3626708984375 22.4007568359375
-40.988525390625 -11.306640625 6.0601806640625
-29.565673828125 20.4818115234375 -0.1197509765625
1.096923828125 18.1270751953125 -3.0325927734375
-29.600830078125 16.581298828125 -0.05419921875
-40.65185546875 -18.3858642578125 9.4371337890625
-15.288330078125 -4.2564697265625 5.0601806640625
-6.79541015625 20.0738525390625 -3.0960693359375
-34.702392578125 -23.6280517578125 26.0316162109375
71.25048828125 -21.0799560546875 1.890380859375
-53.662109375 -12.65380859375 13.9124755859375
17.631103515625 10.1636962890625 12.0849609375
-11.174072265625 -1.56005859375 1.8070068359375
-35.600341796875 22.919677734375 10.8287353515625
69.13037109375 -46.48486328125 6.030029296875
84.697509765625 7.234375 -25.861572265625
81.192138671875 -25.271728515625 -12.65673828125
14.258056640625 -29.56640625 23.467041015625
-45.51904296875 3.718505859375 14.6522216796875
15.31201171875 -36.9879150390625 30.990234375
-85.38623046875 -33.8489990234375 17.1636962890625
-9.6826171875 22.84423828125 -2.62890625
49.11474609375 -27.305908203125 25.2774658203125
87.605224609375 27.283203125 -34.065673828125
83.808349609375 -9.110595703125 -20.1773681640625
-36.148193359375 16.2044677734375 10.8682861328125
-26.399658203125 -3.69873046875 6.3306884765625
-49.062744140625 -4.0689697265625 21.0439453125
-21.84619140625 11.06591796875 -1.246337890625
19.24560546875 -31.4798583984375 26.0108642578125
79.048095703125 -40.170166015625 -2.3763427734375
-19.16796875 -19.8748779296875 18.950927734375
-41.014892578125 16.198974609375 10.9417724609375
76.23583984375 -23.2432861328125 -2.433837890625
71.21728515625 -24.13671875 7.473388671875
-12.644775390625 25.950927734375 -3.0816650390625
76.893310546875 -12.714111328125 -11.8746337890625
78.581298828125 -26.1011962890625 -9.360595703125
-25.59814453125 5.63720703125 0.2491455078125
37.068603515625 -6.6273193359375 6.2939453125
-34.939208984375 -10.254150390625 8.18603515625
-19.074951171875 6.372802734375 -0.218505859375
-16.829345703125 22.058837890625 -1.549072265625
-43.00634765625 -23.383056640625 25.73876953125
-16.883544921875 24.0174560546875 -1.7044677734375
-2.8466796875 13.7425537109375 -3.2484130859375
75.079833984375 -11.02392578125 -5.6168212890625
96.083740234375 -8.899169921875 -21.826416015625
-37.2431640625 -11.3748779296875 4.7890625
60.241943359375 -4.888427734375 3.9964599609375
20.443115234375 -33.347412109375 30.364990234375
-49.761962890625 11.6385498046875 15.590576171875
35.932373046875 -14.52734375 15.171630859375
57.504638671875 6.9190673828125 -11.0380859375
31.685546875 -35.9119873046875 31.5789794921875
-76.91552734375 -31.5875244140625 9.838134765625
73.68701171875 -13.9326171875 -3.973876953125
-22.950439453125 12.64697265625 -0.86376953125
73.315185546875 -20.01904296875 13.67822265625
-47.265869140625 -19.593505859375 21.620361328125
-26.178955078125 -3.32421875 4.2969970703125
-85.26123046875 -27.9906005859375 13.42724609375
-82.299072265625 -41.6766357421875 17.8143310546875
48.62744140625 -5.1466064453125 4.13818359375
56.404296875 0.04296875 -5.5228271484375
-49.9794921875 -8.418212890625 9.801025390625
-43.76123046875 -12.0472412109375 9.20068359375
-40.9638671875 -8.5762939453125 6.01416015625
38.49951171875 -24.013427734375 25.3594970703125
