77.494873046875 10.9830322265625 -25.8284912109375
73.6513671875 -3.316650390625 -14.9957275390625
-3.780029296875 -28.31884765625 25.8582763671875
-40.417724609375 14.75244140625 11.92578125
103.9287109375 -22.7752685546875 2.7767333984375
39.220703125 -12.3236083984375 15.6383056640625
-2.51904296875 6.2020263671875 -0.785400390625
9.4111328125 -34.3878173828125 30.928466796875
-19.399169921875 -20.00634765625 23.296630859375
-50.462890625 1.4141845703125 14.186767578125
-16.576904296875 -30.515380859375 28.4830322265625
-18.2861328125 -22.9560546875 25.32275390625
36.326416015625 14.0745849609375 -10.3800048828125
54.158935546875 -8.2745361328125 11.3392333984375
-20.642578125 -0.4193115234375 4.60986328125
-57.409423828125 -13.4757080078125 19.006591796875
-16.984619140625 11.3883056640625 -0.2723388671875
85.22509765625 5.1995849609375 -28.9622802734375
-22.256591796875 -5.9776611328125 8.255126953125
60.116943359375 -42.4976806640625 28.262939453125
58.7998046875 -31.5472412109375 7.376708984375
73.482177734375 -44.662841796875 4.81689453125
3.923828125 1.392578125 6.5794677734375
-84.4873046875 -30.6312255859375 18.3424072265625
-25.435546875 3.554443359375 1.767333984375
80.357666015625 -4.2047119140625 -18.3096923828125
35.44921875 5.190185546875 -7.3182373046875
-36.120849609375 -6.2147216796875 11.0885009765625
-37.28076171875 10.067626953125 15.34716796875
40.019287109375 3.1488037109375 -4.343505859375
66.932861328125 -24.560546875 7.00146484375
28.53466796875 -10.0269775390625 13.9200439453125
-47.837890625 -17.3338623046875 23.129638671875
66.3662109375 -37.821044921875 0.88818359375
64.20556640625 -18.7188720703125 13.8514404296875
32.19677734375 9.2225341796875 -9.8953857421875
44.43896484375 -20.1568603515625 20.389892578125
42.15283203125 11.6458740234375 -10.5048828125
-39.190185546875 -14.802978515625 8.8756103515625
-51.620849609375 6.1778564453125 18.77978515625
67.045166015625 -27.5712890625 7.894287109375
-25.9267578125 -24.4658203125 27.584716796875
-36.623046875 1.2978515625 9.214599609375
67.46533203125 -9.321044921875 11.722900390625
-59.67236328125 -15.0406494140625 20.6754150390625
60.570556640625 -29.2738037109375 2.034423828125
97.393310546875 -13.307373046875 -11.7291259765625
-19.801513671875 10.216064453125 0.39794921875
75.56689453125 6.5894775390625 -17.285888671875
20.9208984375 -13.7216796875 18.2691650390625
-3.632568359375 1.0343017578125 2.7969970703125
86.8916015625 11.6812744140625 -32.626953125
-80.2685546875 -33.09375 10.99560546875
52.558349609375 -21.9434814453125 16.542236328125
46.713623046875 19.0020751953125 -10.5150146484375
-36.019775390625 4.0780029296875 12.764892578125
-9.717529296875 -30.261962890625 27.193603515625
-25.290283203125 -0.7742919921875 6.06103515625
81.7998046875 14.2275390625 -27.571044921875
83.9599609375 -1.7476806640625 -29.131103515625
72.399658203125 -38.79443359375 -0.7813720703125
28.7470703125 -12.5772705078125 16.5340576171875
5.8984375 -15.31640625 9.224365234375
71.986083984375 -30.456298828125 1.97802734375
60.83154296875 -35.774169921875 5.970703125
-50.73291015625 12.4013671875 13.4720458984375
73.390380859375 -24.796630859375 -3.7589111328125
23.169921875 -12.0601806640625 16.36767578125
-7.068603515625 -2.14453125 6.4361572265625
-30.62255859375 -12.3226318359375 15.447998046875
83.602294921875 -29.9500732421875 1.907470703125
64.2265625 -40.533203125 5.7060546875
41.636962890625 0.688232421875 0.08056640625
35.41015625 -5.9075927734375 9.235107421875
18.3857421875 -30.3837890625 29.3641357421875
-34.1318359375 -3.849609375 8.10400390625
-67.044677734375 -16.895751953125 22.6094970703125
64.352783203125 -45.1483154296875 26.06884765625
75.5107421875 -20.0047607421875 -11.7742919921875
-41.066162109375 -6.510986328125 7.7379150390625
-58.945068359375 -18.298828125 24.0233154296875
61.01318359375 -38.2177734375 20.585693359375
-1.466796875 -9.5635986328125 14.237060546875
-66.4228515625 -24.267822265625 30.5587158203125
-0.38525390625 -26.6983642578125 24.2574462890625
83.67578125 8.5487060546875 -23.9881591796875
-28.09228515625 2.3961181640625 2.678955078125
0.553466796875 -11.5185546875 6.711181640625
-0.3955078125 1.8101806640625 1.9365234375
53.356201171875 4.703857421875 -7.459228515625
-6.844970703125 -16.923583984375 19.67333984375
29.58837890625 -15.5999755859375 20.1263427734375
60.961669921875 -20.297607421875 11.58935546875
-60.9189453125 -25.671875 31.9744873046875
-6.88916015625 -12.753173828125 15.5340576171875
2.75048828125 -1.8387451171875 7.03857421875
97.58740234375 -23.949462890625 3.758544921875
48.850830078125 8.7928466796875 -10.192138671875
-20.395751953125 -26.662109375 27.4842529296875
29.638427734375 -1.6839599609375 5.8192138671875
-42.4013671875 -24.1165771484375 30.3560791015625
71.212158203125 -19.6275634765625 9.824462890625
-49.7939453125 -3.2862548828125 9.58154296875
75.789794921875 5.301513671875 -22.1324462890625
12.186279296875 -1.9283447265625 6.046875
96.182861328125 -27.797607421875 15.71533203125
60.802734375 -7.9339599609375 10.4825439453125
77.267333984375 -13.3741455078125 13.52197265625
78.942138671875 -2.142578125 3.05859375
-66.903076171875 -18.9241943359375 24.7864990234375
54.633056640625 15.7459716796875 -11.3330078125
66.282958984375 -29.1571044921875 5.50146484375
73.1064453125 -34.090087890625 -2.6453857421875
61.386962890625 -43.66015625 10.3680419921875
-56.830810546875 -21.6324462890625 27.51171875
-41.096923828125 19.0999755859375 12.2568359375
-71.158447265625 -23.28271484375 28.7987060546875
-4.872802734375 18.5260009765625 -1.7559814453125
-44.653564453125 -12.8743896484375 16.2198486328125
58.11669921875 -17.791015625 16.2628173828125
-52.44287109375 -23.8685302734375 31.0416259765625
-50.081787109375 -21.40771484375 27.6295166015625
55.98681640625 -4.038818359375 6.6700439453125
-79.343017578125 -29.5703125 8.3931884765625
-31.379150390625 -9.0838623046875 13.19140625
4.139892578125 -31.138671875 27.831787109375
57.7421875 -7.0380859375 9.836181640625
61.698974609375 -47.8885498046875 29.82861328125
58.873046875 -23.087646484375 21.04443359375
63.307861328125 -34.287353515625 -0.4591064453125
71.130126953125 -12.19775390625 -0.076904296875
-50.8046875 -18.4954833984375 24.3533935546875
-42.773193359375 -19.103759765625 25.1397705078125
1.77001953125 -6.2950439453125 8.5933837890625
72.668701171875 -24.8818359375 -0.627197265625
34.897705078125 -14.836669921875 19.010009765625
84.13525390625 12.2164306640625 -25.996826171875
-50.091796875 -10.404296875 15.97705078125
88.68798828125 15.2586669921875 -36.66259765625
-52.79833984375 -6.775634765625 11.4815673828125
85.776123046875 5.16796875 -32.0107421875
69.85009765625 -17.7642822265625 4.5115966796875
-22.351806640625 3.5361328125 1.602294921875
74.36279296875 -9.42236328125 11.746337890625
-46.0146484375 16.3157958984375 12.267822265625
-44.39501953125 -7.2603759765625 9.001220703125
38.859130859375 4.36572265625 -6.6873779296875
75.4404296875 -6.239501953125 -14.6695556640625
30.5283203125 12.0440673828125 -10.2215576171875
-25.00732421875 -18.1385498046875 19.05908203125
-26.6484375 -20.2506103515625 23.653076171875
75.151611328125 -32.67578125 2.0135498046875
72.452880859375 -15.052978515625 15.6546630859375
7.67822265625 -16.027099609375 21.42041015625
-34.4072265625 18.3475341796875 12.1737060546875
70.80908203125 -8.75390625 -5.957763671875
-46.245361328125 -3.7177734375 9.6298828125
39.564453125 16.1065673828125 -10.7174072265625
-49.16357421875 10.47509765625 15.703369140625
69.758544921875 -24.9300537109375 3.10986328125
44.65283203125 -10.7001953125 13.9024658203125
-31.795654296875 -16.826904296875 20.910400390625
-17.588134765625 -35.1334228515625 30.9696044921875
39.229736328125 -0.9422607421875 5.2486572265625
95.955322265625 -15.98193359375 -3.6619873046875
51.353271484375 3.4918212890625 -5.3524169921875
77.589599609375 -10.8116455078125 -16.4765625
27.165283203125 11.638916015625 -10.14599609375
75.231689453125 -30.0238037109375 -0.642822265625
61.299560546875 -3.67431640625 6.850341796875
-5.25830078125 5.41650390625 -0.6668701171875
-15.76513671875 -39.102294921875 34.2999267578125
69.732177734375 -12.9539794921875 -3.921630859375
-9.467041015625 15.7271728515625 -1.6268310546875
-0.354248046875 -1.8079833984375 6.6259765625
67.47314453125 -23.4295654296875 11.225830078125
94.8505859375 -19.7735595703125 -4.9527587890625
-39.586181640625 -16.6568603515625 20.8055419921875
-25.53759765625 11.8074951171875 1.4569091796875
-4.41259765625 8.984619140625 -1.6180419921875
99.17626953125 -3.995361328125 -16.7628173828125
-12.24462890625 -36.16064453125 31.201171875
-32.32666015625 13.60302734375 12.745849609375
103.180908203125 -15.6439208984375 -6.103759765625
6.098876953125 -9.955078125 4.1500244140625
74.753662109375 -16.361328125 -6.1572265625
50.729248046875 -5.6690673828125 7.952880859375
-52.7451171875 16.3028564453125 12.911865234375
-33.880859375 -23.9278564453125 30.0076904296875
77.250732421875 -30.586669921875 1.28125
12.022705078125 -30.548828125 27.8978271484375
36.259033203125 -17.463623046875 21.8353271484375
85.026123046875 18.305419921875 -28.7548828125
79.567626953125 5.276611328125 -23.2293701171875
-35.995361328125 -1.0718994140625 7.9371337890625
23.2041015625 -30.51904296875 29.0831298828125
-15.924072265625 -17.9886474609375 21.1302490234375
-27.168701171875 6.314208984375 1.8575439453125
36.62060546875 0.314208984375 0.0604248046875
84.293212890625 -11.6551513671875 -22.9725341796875
-85.550537109375 -30.728759765625 13.1348876953125
87.85009765625 16.13525390625 -34.0086669921875
-89.790283203125 -32.14599609375 21.5743408203125
-1.0458984375 -36.6553955078125 33.1021728515625
-11.3193359375 -23.102783203125 24.3023681640625
-36.896240234375 12.8155517578125 13.5006103515625
-10.55078125 -9.8035888671875 12.4908447265625
7.341796875 -5.9527587890625 7.56494140625
11.66357421875 -25.3607177734375 24.0594482421875
-43.563720703125 -13.5081787109375 7.334716796875
34.4990234375 7.6068115234375 -9.392822265625
80.3603515625 -13.6864013671875 -20.7352294921875
64.231201171875 -47.4989013671875 28.901611328125
46.72216796875 -12.8848876953125 16.170166015625
1.4453125 -34.52783203125 30.702392578125
17.53564453125 -2.802734375 7.5830078125
42.728759765625 18.6885986328125 -6.3597412109375
4.62646484375 -35.537353515625 31.962890625
96.53759765625 -20.308837890625 -2.235595703125
57.968994140625 -31.5045166015625 16.9810791015625
18.210205078125 -15.37890625 20.232177734375
98.09423828125 -8.2021484375 -15.442626953125
-23.968505859375 -21.5816650390625 25.1712646484375
-22.405517578125 -16.9957275390625 19.55517578125
48.11865234375 -20.6102294921875 18.2862548828125
68.862060546875 -7.61279296875 10.03955078125
56.636474609375 0.1588134765625 0.478515625
17.810546875 -11.969970703125 16.4735107421875
31.11572265625 -17.794189453125 22.4755859375
-22.76806640625 1.178955078125 3.2806396484375
58.76904296875 -31.330078125 22.4892578125
44.257568359375 -17.114013671875 17.849853515625
-42.269775390625 -1.7945556640625 7.072021484375
-27.812255859375 0.0401611328125 8.020263671875
97.941650390625 -16.8026123046875 -7.1441650390625
-12.640380859375 13.3778076171875 0.0399169921875
-67.6962890625 -27.132568359375 33.5343017578125
62.59765625 -37.47021484375 4.8743896484375
-55.49853515625 -11.909912109375 17.52197265625
-79.61767578125 -43.6474609375 20.0308837890625
93.367431640625 -4.3280029296875 -22.9560546875
-50.250732421875 7.7349853515625 17.0892333984375
16.427978515625 -8.5848388671875 12.74267578125
96.503662109375 -18.6705322265625 1.0196533203125
7.745361328125 5.4708251953125 11.081298828125
74.65283203125 -16.688720703125 -10.2666015625
77.823974609375 -9.867431640625 8.60693359375
-47.356201171875 -9.2095947265625 11.82666015625
96.593017578125 -22.98388671875 1.1878662109375
-29.54443359375 -23.6170654296875 29.4661865234375
-41.21337890625 5.673095703125 11.423828125
58.148193359375 -31.7325439453125 12.1800537109375
58.52880859375 -35.3809814453125 17.08935546875
70.34130859375 -15.847900390625 14.260009765625
80.166259765625 1.1724853515625 -20.536865234375
44.847412109375 -4.7579345703125 7.55517578125
95.8271484375 -16.7200927734375 -9.0362548828125
-23.99853515625 -13.67138671875 16.6612548828125
-29.5966796875 8.2783203125 1.521240234375
-21.6171875 14.9210205078125 -0.4434814453125
80.595703125 0.3988037109375 1.0560302734375
-21.637939453125 -31.22412109375 29.5501708984375
72.216796875 -16.74658203125 -5.378662109375
77.47509765625 -33.095947265625 0.24560546875
75.274658203125 -42.9649658203125 3.68603515625
40.7509765625 -7.2393798828125 10.4293212890625
-62.38671875 -27.29296875 33.5772705078125
-3.563232421875 -18.24365234375 20.40771484375
42.41064453125 -9.80859375 12.86083984375
77.58642578125 -25.1923828125 -7.76904296875
-51.814453125 -3.2889404296875 15.0760498046875
36.791748046875 -12.7177734375 16.539306640625
-17.4228515625 5.082763671875 0.6346435546875
62.210205078125 -14.46728515625 17.53466796875
-8.763671875 10.5838623046875 -1.1534423828125
66.09228515625 -21.3052978515625 12.8817138671875
26.987548828125 -15.982666015625 20.750732421875
60.81884765625 -40.5924072265625 24.761474609375
-0.0830078125 -8.72119140625 10.254150390625
62.270263671875 -38.6168212890625 27.51220703125
-87.9052734375 -36.486328125 15.44677734375
72.115966796875 -24.5333251953125 2.064453125
74.743896484375 -39.35595703125 0.216796875
47.66552734375 6.7630615234375 -9.04345703125
-39.92333984375 8.0653076171875 13.804443359375
-85.462890625 -30.986572265625 10.5458984375
-50.331787109375 -6.0247802734375 11.1392822265625
6.871826171875 -2.284423828125 6.7647705078125
-88.310302734375 -32.7906494140625 10.700927734375
101.604736328125 -17.3565673828125 -4.7027587890625
48.595703125 -9.050048828125 12.207275390625
70.5009765625 -19.283447265625 13.8121337890625
62.814453125 -23.272216796875 9.8895263671875
22.58154296875 -4.9229736328125 9.339111328125
30.642333984375 -6.2657470703125 9.5753173828125
-39.7099609375 -25.0303955078125 31.169677734375
-76.862548828125 -28.6258544921875 11.008056640625
-14.305908203125 -6.0897216796875 9.2301025390625
71.785400390625 -27.9757080078125 3.743408203125
-54.97998046875 -17.1748046875 23.087646484375
25.316650390625 -19.8291015625 24.4002685546875
-14.829345703125 0.722412109375 3.529296875
87.153564453125 9.6180419921875 -34.1248779296875
-4.842529296875 -14.4588623046875 17.403564453125
45.48046875 -22.830810546875 23.4454345703125
-35.170166015625 -8.6240234375 12.8778076171875
102.77587890625 -13.880859375 -8.5506591796875
67.300048828125 -13.2384033203125 15.83154296875
-51.968017578125 1.0408935546875 18.1812744140625
-13.51318359375 -13.8165283203125 13.8875732421875
36.034912109375 -20.07763671875 24.582763671875
30.146728515625 4.4139404296875 -5.74560546875
49.404052734375 -24.3936767578125 15.76513671875
-21.782958984375 8.2454833984375 0.1583251953125
40.9833984375 -0.54296875 3.4410400390625
-90.023193359375 -43.337646484375 22.21533203125
-12.091552734375 3.475341796875 1.1080322265625
-26.0048828125 -11.1773681640625 13.86181640625
51.424560546875 -9.94287109375 12.587890625
57.939208984375 -27.4083251953125 10.3997802734375
9.78369140625 0.5367431640625 6.7716064453125
-45.76318359375 -20.272705078125 26.37109375
-42.693115234375 -10.7596435546875 5.6046142578125
-21.513671875 -10.4361572265625 12.844482421875
94.2978515625 -9.424560546875 -14.190673828125
-44.740478515625 4.9019775390625 11.50439453125
-85.441650390625 -25.859375 15.1629638671875
-4.009765625 -37.382568359375 33.0177001953125
85.018798828125 5.240478515625 -24.845947265625
66.832763671875 -3.3072509765625 6.567138671875
54.239501953125 -1.0738525390625 2.820556640625
-39.752197265625 -8.4801025390625 6.90478515625
72.24755859375 -1.65625 4.6697998046875
-73.975830078125 -16.3040771484375 20.6856689453125
-20.163330078125 -35.066650390625 31.430908203125
-29.350830078125 16.1044921875 1.0340576171875
63.819580078125 -13.182373046875 16.1160888671875
-81.0947265625 -36.7109375 14.775146484375
13.557373046875 14.075439453125 10.961181640625
-14.182861328125 -15.8885498046875 16.790771484375
74.674072265625 -19.210205078125 -9.543701171875
79.274658203125 -28.43798828125 -0.9033203125
-40.36767578125 -2.9930419921875 8.1502685546875
79.037353515625 -10.771728515625 -21.1162109375
83.70751953125 8.876220703125 -29.5740966796875
84.538330078125 13.392578125 -28.647705078125
-9.3583984375 2.26953125 1.8150634765625
-79.242919921875 -39.8807373046875 15.198974609375
34.1044921875 -12.246337890625 16.2889404296875
30.036376953125 7.2203369140625 -8.758544921875
66.414794921875 -6.7176513671875 8.8619384765625
75.579833984375 -12.969482421875 -9.146240234375
68.30224609375 -44.4512939453125 26.367919921875
-88.82568359375 -40.11376953125 19.1280517578125
81.18896484375 -7.47119140625 -24.8792724609375
-86.10888671875 -42.3072509765625 21.55322265625
-77.91796875 -24.12158203125 14.118896484375
46.15283203125 -9.43798828125 12.3770751953125
-42.16015625 16.3465576171875 12.82568359375
0.00390625 -11.24609375 15.899169921875
30.631591796875 0.774169921875 1.43310546875
-68.2431640625 -15.6318359375 20.0537109375
4.49609375 -38.17578125 34.2462158203125
82.749755859375 -32.013916015625 0.8565673828125
-56.177734375 -25.3944091796875 31.6610107421875
-18.98095703125 -6.0213623046875 8.35546875
75.811767578125 2.8426513671875 -21.4332275390625
101.036865234375 -21.7789306640625 0.5963134765625
-22.512939453125 -28.700927734375 28.772705078125
-41.162109375 1.3272705078125 7.4287109375
79.712646484375 -31.8988037109375 0.378173828125
38.120849609375 -10.59765625 14.003662109375
-26.948974609375 -26.947265625 29.1673583984375
10.38134765625 4.64306640625 11.447021484375
-15.574462890625 -36.5001220703125 32.05029296875
45.497314453125 -6.4530029296875 9.223876953125
-90.317138671875 -29.7608642578125 20.3076171875
-33.56103515625 -20.9962158203125 27.09033203125
78.4951171875 -6.8658447265625 8.050537109375
60.494140625 -40.28125 27.2706298828125
74.72119140625 -0.398681640625 5.814453125
-85.176025390625 -36.6749267578125 16.9027099609375
14.314453125 -3.998046875 7.8802490234375
69.502197265625 -20.403076171875 8.26513671875
69.282470703125 -2.4832763671875 7.7200927734375
-28.990478515625 18.8426513671875 0.8316650390625
-37.087158203125 -22.56591796875 28.2564697265625
74.343505859375 -6.819091796875 8.8826904296875
33.600830078125 -9.2606201171875 13.2611083984375
73.447265625 -20.5560302734375 -5.0894775390625
81.441162109375 7.7354736328125 -23.5196533203125
53.04248046875 -27.1517333984375 18.7685546875
75.1396484375 7.7886962890625 -20.4100341796875
18.008056640625 -7.35546875 11.3841552734375
70.92138671875 -11.1129150390625 13.5494384765625
-45.65234375 2.53857421875 8.970703125
49.36669921875 -12.0711669921875 15.532470703125
51.772705078125 -24.019775390625 15.4627685546875
-5.66943359375 -26.578857421875 25.063720703125
2.3251953125 -23.3900146484375 22.29443359375
-12.342529296875 -18.059814453125 20.814208984375
70.506103515625 -5.052490234375 7.2838134765625
63.9150390625 -30.9835205078125 0.300048828125
29.31689453125 16.467529296875 -10.622314453125
83.83154296875 -0.1068115234375 -26.8184814453125
67.601806640625 -33.503173828125 -2.337646484375
75.079345703125 -33.364990234375 -1.4697265625
26.45849609375 -8.73486328125 13.0205078125
-17.287109375 -9.6917724609375 12.1373291015625
-5.1572265625 -0.9559326171875 4.93310546875
-0.81982421875 -13.3121337890625 17.72998046875
14.03466796875 -34.595458984375 32.025634765625
-15.409423828125 -2.8624267578125 7.3013916015625
-52.23828125 -5.6416015625 15.14990234375
-8.556884765625 -10.65966796875 13.4898681640625
98.977783203125 -32.866943359375 19.309326171875
45.123291015625 8.3948974609375 -9.802001953125
47.44921875 -24.9197998046875 20.3507080078125
-91.279296875 -43.9190673828125 20.275146484375
77.626220703125 -18.30517578125 -15.0323486328125
-16.388671875 -12.16015625 14.5341796875
61.893310546875 -24.4613037109375 7.95068359375
11.9189453125 -3.971435546875 7.918701171875
74.397705078125 -26.90185546875 -4.455810546875
0.7265625 -1.412109375 4.5452880859375
-51.5673828125 3.8067626953125 18.926025390625
61.218994140625 -33.0848388671875 2.2645263671875
44.536865234375 17.8150634765625 -8.683349609375
-10.220703125 -5.7513427734375 10.611572265625
71.093505859375 -8.3162841796875 -8.275634765625
8.0302734375 -33.0108642578125 29.4444580078125
34.656494140625 18.9173583984375 -10.721923828125
59.322021484375 -30.6297607421875 5.256591796875
-80.77197265625 -38.3570556640625 16.4466552734375
68.282470703125 -19.410400390625 3.85009765625
27.771240234375 -0.430908203125 4.5025634765625
79.163330078125 -27.5067138671875 -3.0758056640625
-7.475341796875 6.2220458984375 -0.497314453125
-46.033203125 -13.0770263671875 7.673095703125
-51.3994140625 -0.5411376953125 13.2520751953125
-44.04052734375 -15.90185546875 9.8154296875
-13.28173828125 18.8878173828125 -1.113037109375
-80.77490234375 -27.1956787109375 16.23583984375
27.805419921875 8.450439453125 -7.77099609375
-28.121826171875 -6.3052978515625 9.19091796875
82.65576171875 16.2388916015625 -29.06494140625
-21.625 -8.37939453125 8.5948486328125
-44.52392578125 -0.6007080078125 6.9775390625
85.126953125 11.7100830078125 -31.0189208984375
6.867919921875 -30.3726806640625 27.4908447265625
20.9765625 -19.7366943359375 24.6376953125
74.074462890625 1.6513671875 -14.5328369140625
98.951416015625 -27.7510986328125 12.2811279296875
-54.34814453125 -9.1348876953125 14.517333984375
-80.558837890625 -29.875244140625 15.8316650390625
63.31982421875 -29.3636474609375 2.2479248046875
75.2119140625 -13.3751220703125 15.7542724609375
13.9951171875 -31.486572265625 28.7071533203125
-51.1357421875 -14.410888671875 20.0936279296875
-41.381591796875 -16.1783447265625 19.10009765625
-11.217529296875 -27.700439453125 26.20068359375
-15.008056640625 9.021484375 0.0010986328125
69.421875 -17.6153564453125 -1.5452880859375
-48.157958984375 14.34765625 12.4378662109375
-45.276123046875 -22.7864990234375 29.145263671875
96.927490234375 -20.8123779296875 0.235107421875
42.172119140625 15.7154541015625 -10.53662109375
-41.916748046875 -16.224365234375 21.521728515625
-7.536865234375 -5.783935546875 10.3916015625
27.903564453125 2.42041015625 -1.1380615234375
78.722900390625 -9.9775390625 -18.3126220703125
58.220947265625 -27.2938232421875 18.7283935546875
-18.8896484375 -7.6380615234375 10.1336669921875
8.50048828125 -36.129638671875 32.7001953125
-68.75048828125 -22.541259765625 28.3475341796875
-45.220703125 7.2996826171875 14.791748046875
38.6435546875 -5.10595703125 8.0841064453125
-90.085205078125 -34.226318359375 10.4483642578125
-41.55712890625 13.197021484375 13.1729736328125
43.8359375 -1.399169921875 4.6392822265625
-16.310546875 -16.3148193359375 19.608154296875
95.400146484375 -17.636962890625 -5.626953125
-68.14013671875 -14.919189453125 23.0106201171875
40.590576171875 6.382080078125 -8.4613037109375
43.2265625 9.6123046875 -10.3680419921875
-45.686279296875 5.341796875 16.4991455078125
-1.8720703125 -33.50830078125 29.177001953125
6.868896484375 -12.45556640625 7.675048828125
55.395751953125 3.874267578125 -6.7559814453125
58.88037109375 -36.41796875 11.8233642578125
79.5859375 -6.6922607421875 -16.6502685546875
-69.996826171875 -20.8719482421875 26.5701904296875
75.6376953125 -2.966796875 4.9737548828125
75.944091796875 -13.7738037109375 -11.3150634765625
75.93798828125 -5.54443359375 7.4754638671875
99.798583984375 -30.968505859375 15.4473876953125
59.153076171875 -10.9317626953125 13.9864501953125
-9.58251953125 -15.1651611328125 16.608154296875
58.22216796875 -26.709228515625 14.3673095703125
58.37255859375 -4.9154052734375 7.8275146484375
-17.926513671875 -38.579833984375 33.8204345703125
-78.155517578125 -27.73779296875 9.113525390625
-75.37060546875 -18.6011962890625 20.485595703125
100.33349609375 -13.8431396484375 -8.2188720703125
51.264404296875 -16.8253173828125 17.5655517578125
64.982177734375 -10.150634765625 12.64306640625
-7.730224609375 -39.44189453125 34.9681396484375
-32.921142578125 10.4722900390625 15.864501953125
47.765869140625 -14.2044677734375 17.6864013671875
65.52880859375 -44.9725341796875 8.2158203125
69.35107421875 -40.9500732421875 2.1109619140625
-42.146484375 8.4656982421875 13.828369140625
79.02392578125 -35.1072998046875 -3.1474609375
-11.895263671875 6.63720703125 -0.1502685546875
-36.50537109375 19.1356201171875 12.4505615234375
-84.717041015625 -44.7745361328125 22.850341796875
55.559326171875 17.79931640625 -11.4781494140625
22.704345703125 -7.0030517578125 11.0518798828125
71.654052734375 -10.4993896484375 -1.463134765625
-11.53857421875 -32.7662353515625 29.0404052734375
-90.159423828125 -34.1160888671875 22.6978759765625
-80.25341796875 -30.760986328125 10.072998046875
33.203369140625 -5.883056640625 9.6683349609375
30.388671875 -9.2088623046875 12.94921875
-61.18408203125 -21.525634765625 27.6495361328125
75.536376953125 0.385009765625 -19.1748046875
-5.869873046875 1.051513671875 2.9688720703125
-64.9140625 -21.84228515625 28.12841796875
-27.22998046875 -17.6680908203125 18.3671875
-11.244384765625 11.3843994140625 -0.6771240234375
-36.522216796875 15.5697021484375 12.478271484375
-64.403564453125 -16.562255859375 22.6690673828125
-17.906982421875 -28.798828125 27.766845703125
65.064697265625 -35.1329345703125 -1.55224609375
-46.736083984375 10.8614501953125 15.2403564453125
-77.3798828125 -30.4268798828125 9.0240478515625
-82.10498046875 -30.310791015625 18.01806640625
-4.744873046875 -23.240966796875 23.3302001953125
54.017822265625 -4.863525390625 7.517333984375
-79.347900390625 -24.59228515625 17.472412109375
9.72998046875 -7.22021484375 9.0771484375
40.631103515625 -10.647216796875 14.7103271484375
1.733642578125 -19.600341796875 20.461669921875
43.06494140625 13.68017578125 -10.6484375
-91.68798828125 -36.5496826171875 12.481689453125
69.645263671875 -15.57666015625 1.4532470703125
9.282470703125 -1.49365234375 6.016357421875
-65.43701171875 -15.7017822265625 20.4918212890625
59.78857421875 -13.985595703125 17.0787353515625
12.03515625 -15.135986328125 14.3634033203125
45.936767578125 4.33349609375 -6.5645751953125
-65.124755859375 -19.7852783203125 25.796142578125
7.403076171875 -28.65283203125 25.9366455078125
-38.205078125 -20.878173828125 26.96630859375
-90.07275390625 -38.794921875 17.192626953125
77.0390625 -36.7713623046875 -2.28857421875
77.133056640625 -9.58544921875 -14.4649658203125
-1.557373046875 -15.3575439453125 18.1253662109375
-22.25048828125 -19.0765380859375 21.5242919921875
15.6533203125 -12.3427734375 16.1751708984375
53.646728515625 -16.0128173828125 17.260986328125
-79.5302734375 -45.9351806640625 24.9954833984375
-77.390625 -32.7144775390625 9.0418701171875
20.428955078125 -5.3076171875 9.05712890625
102.071044921875 -28.7061767578125 12.05224609375
48.1328125 11.65087890625 -10.5252685546875
-20.345947265625 -11.6937255859375 14.9141845703125
47.01025390625 -24.656494140625 25.7041015625
-17.66015625 -18.7933349609375 22.211669921875
45.14501953125 14.0804443359375 -11.22021484375
71.843505859375 -6.236572265625 -8.6776123046875
71.687255859375 -22.7899169921875 0.796630859375
11.4375 6.3050537109375 13.8582763671875
51.2509765625 16.55615234375 -11.1380615234375
37.58251953125 -8.8914794921875 12.453125
77.77783203125 16.6494140625 -28.0740966796875
-48.3916015625 1.3914794921875 11.35595703125
12.39501953125 -6.8641357421875 10.9808349609375
15.5947265625 -5.2493896484375 9.1300048828125
4.988525390625 -1.4534912109375 6.0396728515625
-60.70166015625 -16.2364501953125 22.1820068359375
63.562255859375 -27.0067138671875 6.7225341796875
35.139404296875 9.6246337890625 -9.9071044921875
78.906494140625 -3.8526611328125 4.4053955078125
52.515380859375 12.0611572265625 -10.7315673828125
81.84619140625 -9.5355224609375 -24.6876220703125
70.22021484375 -12.5098876953125 -5.992919921875
76.19677734375 -11.1959228515625 13.489501953125
48.68603515625 -7.349609375 10.861328125
13.013916015625 -17.4219970703125 22.9520263671875
53.69775390625 9.193359375 -10.4620361328125
-14.9306640625 -14.22509765625 15.4742431640625
83.914306640625 1.116455078125 -28.6036376953125
-26.07763671875 -7.131591796875 9.598388671875
77.852294921875 -24.2845458984375 -10.0899658203125
57.75341796875 -25.2728271484375 10.11328125
-56.3408203125 -9.8916015625 14.9256591796875
104.94287109375 -19.673583984375 -0.678955078125
-34.983154296875 6.083251953125 15.4818115234375
58.375 -32.0546875 9.639404296875
-16.9619140625 16.124267578125 -0.309326171875
2.68310546875 -16.747802734375 21.187255859375
-4.52685546875 -11.1636962890625 15.4964599609375
3.434326171875 -8.7142333984375 5.1943359375
49.358154296875 -18.49609375 17.8165283203125
85.09033203125 7.236572265625 -29.7681884765625
-26.722900390625 -27.0364990234375 31.306640625
-30.70458984375 -3.0970458984375 7.763671875
82.80078125 -4.1925048828125 -27.9947509765625
-57.48828125 -19.556640625 25.22265625
59.291748046875 -3.2286376953125 6.231201171875
58.133544921875 -24.5687255859375 14.2138671875
-54.99462890625 -20.856201171875 26.71484375
52.347900390625 -7.815673828125 10.24462890625
60.0546875 -24.80126953125 6.8714599609375
77.808349609375 -13.2845458984375 -17.464111328125
52.490234375 -20.2730712890625 17.886474609375
104.88671875 -25.4644775390625 4.636962890625
60.335205078125 -16.9840087890625 16.429443359375
-44.22119140625 -2.16943359375 8.407958984375
97.156005859375 -24.4393310546875 5.9268798828125
-50.198974609375 19.0531005859375 12.680908203125
78.913818359375 -0.0113525390625 2.310302734375
22.848388671875 -18.91064453125 23.6575927734375
60.49609375 -22.758544921875 8.8560791015625
-82.429931640625 -28.3414306640625 17.2576904296875
10.327880859375 -9.683349609375 9.296630859375
71.3291015625 -40.554931640625 1.2628173828125
-10.16015625 17.7144775390625 -1.2760009765625
-1.7119140625 0.620361328125 3.62890625
70.9130859375 -10.4056396484375 -7.8101806640625
-53.281982421875 -16.392333984375 22.035400390625
59.738037109375 -30.9698486328125 3.025390625
-60.704833984375 -19.075439453125 24.9447021484375
50.83740234375 -27.05712890625 17.842529296875
64.392822265625 -23.3558349609375 11.3209228515625
47.8515625 -16.336669921875 17.8404541015625
-18.78271484375 -25.0484619140625 26.982666015625
84.760498046875 -31.3284912109375 3.3927001953125
-34.36376953125 -5.4393310546875 10.16845703125
72.49365234375 -17.9486083984375 10.09619140625
58.296630859375 -21.6539306640625 16.5684814453125
-85.25537109375 -35.023681640625 14.812255859375
67.8564453125 -29.9962158203125 4.12841796875
58.0126953125 -29.2528076171875 14.1136474609375
-58.63525390625 -25.7425537109375 32.111572265625
67.8046875 -39.5880126953125 1.43408203125
82.279296875 -3.3973388671875 -17.893798828125
-13.48486328125 -41.8272705078125 36.715576171875
-32.41162109375 12.0406494140625 14.273681640625
78.934814453125 -5.994140625 5.157958984375
-83.171875 -39.1610107421875 18.621337890625
58.1240234375 -33.5953369140625 15.7757568359375
-24.779052734375 9.8380126953125 1.2318115234375
42.74609375 -18.3741455078125 18.6446533203125
73.851806640625 -9.1490478515625 -12.0419921875
60.784423828125 -37.1441650390625 8.0389404296875
28.063720703125 -3.322998046875 7.177734375
95.825439453125 -22.0391845703125 -1.093994140625
-46.56982421875 -12.720947265625 10.0054931640625
72.80908203125 -3.7293701171875 -12.77685546875
7.677490234375 -3.9244384765625 8.0648193359375
58.10107421875 -31.3939208984375 14.26708984375
78.9296875 -14.5125732421875 -19.2799072265625
59.7158203125 -34.0743408203125 6.5433349609375
64.08984375 -38.75048828125 4.1033935546875
0.77197265625 -30.5831298828125 27.0650634765625
5.2578125 -16.3929443359375 21.4383544921875
19.5390625 -9.4705810546875 13.7789306640625
81.174560546875 -28.1075439453125 0.1568603515625
-10.65283203125 -13.8880615234375 14.769775390625
-46.1318359375 -16.5469970703125 22.071533203125
-27.138427734375 -8.324951171875 10.9765625
-49.082275390625 3.76416015625 14.2535400390625
49.544677734375 -10.349853515625 13.5701904296875
-32.19921875 -5.8685302734375 10.826171875
49.8740234375 14.5091552734375 -10.9290771484375
-2.2568359375 -21.6077880859375 21.8485107421875
57.7275390625 -20.239013671875 12.1512451171875
9.304443359375 3.8170166015625 9.75830078125
21.982421875 -9.507568359375 13.75048828125
99.347900390625 -11.66015625 -10.712158203125
13.190185546875 -5.2203369140625 9.1663818359375
69.753662109375 -28.8502197265625 5.9276123046875
79.16259765625 -2.5372314453125 -17.8729248046875
28.85498046875 1.1937255859375 0.2723388671875
81.600830078125 -5.031982421875 -21.2518310546875
-28.214599609375 -14.0064697265625 17.356201171875
-38.913330078125 13.2001953125 13.088623046875
-61.8408203125 -12.637451171875 20.672119140625
68.296142578125 -20.625732421875 1.814208984375
65.157958984375 -29.46044921875 3.3126220703125
-43.638671875 -25.3392333984375 31.5167236328125
13.940185546875 -25.495361328125 26.1409912109375
-28.663330078125 -19.7882080078125 23.3408203125
-39.7607421875 -4.96484375 8.48193359375
-34.79443359375 -22.218994140625 28.2508544921875
-79.180419921875 -46.19482421875 22.9312744140625
34.03466796875 -0.897216796875 3.523193359375
35.369140625 -8.4373779296875 12.15380859375
22.840576171875 -3.6773681640625 6.740478515625
7.70849609375 2.591796875 8.013916015625
73.49267578125 -12.9332275390625 -9.1414794921875
-30.523681640625 -18.910888671875 22.44482421875
-12.19091796875 -16.359130859375 17.8031005859375
83.462646484375 6.4873046875 -24.216552734375
94.12060546875 -0.59912109375 -25.8583984375
69.354248046875 -35.1883544921875 -3.4244384765625
62.49365234375 -40.9345703125 21.9503173828125
-34.76220703125 -19.7103271484375 25.6727294921875
-85.810791015625 -38.59619140625 17.39599609375
71.05615234375 -21.46337890625 -0.7254638671875
-19.811279296875 -15.4034423828125 18.36376953125
25.249755859375 -30.1585693359375 29.1351318359375
-65.213623046875 -18.146728515625 23.7410888671875
4.09033203125 -15.707763671875 10.1690673828125
80.301513671875 9.35009765625 -25.550048828125
75.6005859375 7.3511962890625 -22.3931884765625
32.742919921875 3.9913330078125 -6.2431640625
3.166259765625 -27.2254638671875 24.546142578125
58.045166015625 -22.4293212890625 14.0604248046875
-86.7802734375 -33.307861328125 12.290283203125
13.2138671875 -27.9805908203125 25.80419921875
-35.254638671875 -13.3658447265625 11.9713134765625
-9.9853515625 -40.207763671875 35.24365234375
30.083984375 -14.3162841796875 18.5787353515625
-25.635009765625 -22.8009033203125 26.3902587890625
72.8564453125 -1.6536865234375 -14.057861328125
5.148193359375 -12.0364990234375 8.740966796875
66.21044921875 -44.3282470703125 25.6849365234375
17.031494140625 -27.27099609375 26.3675537109375
-18.711669921875 18.8787841796875 -0.2164306640625
50.481201171875 -20.63623046875 17.242431640625
6.902587890625 -26.4600830078125 23.48876953125
76.95849609375 -1.6888427734375 -18.6732177734375
-29.60986328125 -22.3031005859375 26.744384765625
33.651611328125 13.65625 -10.6773681640625
74.639892578125 -16.7508544921875 12.215576171875
47.147705078125 -25.6998291015625 18.4444580078125
-51.84423828125 -11.5709228515625 16.89697265625
58.40576171875 -28.52783203125 6.0909423828125
-16.295654296875 -25.09521484375 26.3834228515625
-25.487548828125 7.4854736328125 1.6136474609375
-5.911865234375 -19.0357666015625 21.287109375
73.580322265625 -19.7939453125 -2.2340087890625
51.355712890625 19.01708984375 -11.0323486328125
-29.58447265625 -17.274169921875 20.767333984375
37.683837890625 16.912841796875 -10.5928955078125
10.235595703125 -32.2227783203125 29.021240234375
-23.748046875 -0.3922119140625 4.769287109375
-13.35693359375 -7.716796875 10.0780029296875
-52.40234375 12.0594482421875 16.260498046875
53.998291015625 1.009033203125 -1.030029296875
49.07763671875 19.0115966796875 -10.7109375
75.3896484375 -24.711181640625 -7.898193359375
83.3388671875 10.5894775390625 -25.049072265625
-46.138671875 -19.0137939453125 24.7310791015625
-49.0146484375 -15.26220703125 20.7823486328125
59.215087890625 -39.5494384765625 14.4833984375
-13.336181640625 -2.4830322265625 6.8800048828125
51.73828125 -12.9693603515625 15.983642578125
79.579833984375 13.005126953125 -27.098876953125
-52.1923828125 -13.178466796875 18.857666015625
75.008544921875 -41.15576171875 1.9468994140625
-80.08056640625 -27.0860595703125 13.132080078125
-89.557373046875 -36.64404296875 26.106689453125
-87.12939453125 -29.7607421875 18.036376953125
75.135498046875 -28.6683349609375 -2.813720703125
-69.9658203125 -23.372802734375 30.445068359375
99.39892578125 -25.3013916015625 3.984619140625
59.199462890625 -33.7320556640625 8.661376953125
-51.277099609375 1.4251708984375 16.0509033203125
96.1787109375 -23.6341552734375 8.77490234375
55.378662109375 -17.351806640625 18.2562255859375
26.95361328125 -7.479248046875 11.5047607421875
-8.14990234375 -38.086181640625 33.3736572265625
84.852783203125 -0.120849609375 -29.95068359375
-4.05029296875 10.9703369140625 -1.8175048828125
95.49365234375 -21.5172119140625 -4.1478271484375
98.078125 -31.466796875 18.1556396484375
31.43994140625 -2.9422607421875 6.2991943359375
88.80322265625 18.1036376953125 -36.5673828125
71.138671875 -0.7935791015625 8.0611572265625
76.238525390625 -14.9991455078125 -12.897216796875
69.791015625 -33.5809326171875 -2.201416015625
-10.338623046875 -4.5299072265625 8.82177734375
9.494873046875 -4.7640380859375 8.669189453125
-52.38525390625 -9.5643310546875 14.92822265625
31.7080078125 -7.5413818359375 11.173828125
79.6181640625 -2.5726318359375 1.206787109375
27.990966796875 -6.235595703125 10.066650390625
100.65625 -33.7752685546875 18.6414794921875
-14.70947265625 17.297119140625 -1.1676025390625
-17.3251953125 13.36474609375 -0.1053466796875
69.365478515625 -32.0390625 1.3175048828125
85.332275390625 15.41943359375 -29.5919189453125
83.0068359375 -7.897705078125 -25.82470703125
-89.677490234375 -26.9501953125 16.923583984375
-36.42822265625 2.88330078125 11.200439453125
-38.5341796875 -6.9522705078125 9.1318359375
99.39501953125 -9.9404296875 -12.6053466796875
70.190185546875 -12.9942626953125 -1.9703369140625
-49.958984375 -20.1617431640625 26.0660400390625
8.859619140625 -23.6226806640625 24.249267578125
19.02197265625 -4.05322265625 8.3836669921875
-43.93896484375 16.7113037109375 11.983642578125
-43.80859375 -9.58837890625 6.81005859375
76.514404296875 11.06396484375 -21.3189697265625
-3.6748046875 15.7403564453125 -2.03857421875
82.626953125 -2.9739990234375 -23.2044677734375
-31.4326171875 16.514404296875 2.1171875
-43.67578125 9.66015625 14.29638671875
41.443359375 -15.3837890625 18.935302734375
86.714599609375 14.50048828125 -34.09326171875
-37.96533203125 -16.5592041015625 15.35546875
-31.19873046875 -13.5394287109375 16.91357421875
-19.488525390625 -2.4189453125 6.62939453125
-71.830078125 -16.3739013671875 21.6119384765625
58.242919921875 -8.3309326171875 11.258544921875
66.871826171875 -42.2928466796875 5.0784912109375
-40.282958984375 -10.4029541015625 5.1341552734375
-27.43359375 -15.6612548828125 18.7978515625
-11.378662109375 14.5479736328125 -0.9486083984375
-49.5009765625 -0.9468994140625 9.2589111328125
43.02099609375 3.5382080078125 -5.040283203125
-43.592041015625 -14.125244140625 18.2757568359375
44.744140625 -12.85205078125 16.271728515625
33.20263671875 -10.951416015625 14.92919921875
70.000244140625 -37.8436279296875 -1.189453125
-49.2734375 6.1461181640625 16.4271240234375
-81.892333984375 -30.4156494140625 11.9783935546875
-46.8603515625 -10.4229736328125 13.651123046875
84.7509765625 3.1558837890625 -28.8775634765625
-18.277099609375 -16.2698974609375 19.4381103515625
-87.87841796875 -43.053466796875 22.32568359375
-44.577392578125 -4.1229248046875 8.6041259765625
-45.0009765625 13.5716552734375 12.5540771484375
32.570556640625 -14.798095703125 19.30224609375
-58.916015625 -21.587646484375 27.7772216796875
-81.90283203125 -42.4862060546875 21.5262451171875
-46.369384765625 -14.9169921875 20.709228515625
-78.136474609375 -22.209228515625 14.528076171875
31.64208984375 -19.539794921875 24.0670166015625
77.45458984375 -29.672119140625 -0.505615234375
11.503173828125 -34.467529296875 31.1259765625
-27.18408203125 18.8314208984375 0.0487060546875
-71.474609375 -17.9912109375 23.333984375
-46.30517578125 5.31982421875 13.5985107421875
-28.546875 9.8363037109375 0.9656982421875
-31.10400390625 12.5953369140625 1.9666748046875
5.650634765625 2.1937255859375 7.036376953125
-82.662841796875 -44.46923828125 22.7095947265625
68.375732421875 -16.2293701171875 13.757080078125
65.440185546875 -14.05908203125 15.4666748046875
-84.512939453125 -41.20263671875 21.3323974609375
101.712646484375 -23.58837890625 2.7694091796875
-79.61962890625 -23.7222900390625 15.0037841796875
-57.615234375 -23.27734375 29.577880859375
-14.5205078125 -30.556396484375 27.9378662109375
44.642822265625 18.7369384765625 -5.09423828125
67.289306640625 -44.506103515625 6.3616943359375
23.1240234375 -13.33642578125 17.84033203125
26.075439453125 -12.5386962890625 17.0205078125
74.328857421875 -20.8975830078125 -8.6326904296875
57.934326171875 -28.3223876953125 23.4869384765625
70.643310546875 -0.3662109375 5.312255859375
-89.489013671875 -35.5657958984375 13.71435546875
45.676025390625 0.657958984375 0.099365234375
0.980712890625 -15.859375 19.954345703125
68.746337890625 -14.5531005859375 15.6600341796875
44.985107421875 18.1663818359375 -10.81494140625
17.083740234375 -28.9921875 27.267333984375
51.511962890625 5.1195068359375 -7.9033203125
50.521240234375 -2.2969970703125 4.7655029296875
58.3642578125 -25.205810546875 20.362060546875
100.736083984375 -29.5875244140625 13.151611328125
69.280029296875 -31.3031005859375 3.950439453125
-6.13671875 -24.884765625 24.240478515625
58.2236328125 -12.64892578125 15.6123046875
-48.00048828125 -3.6932373046875 8.806396484375
59.965576171875 -21.5133056640625 10.2440185546875
43.9306640625 1.494873046875 -0.9429931640625
67.7060546875 -24.92431640625 4.5511474609375
5.469482421875 -23.8731689453125 21.901123046875
-91.26708984375 -34.6905517578125 26.987548828125
62.14111328125 -11.4144287109375 14.5096435546875
67.44677734375 -21.536865234375 4.8541259765625
-31.33544921875 -21.453125 26.95556640625
54.979736328125 -13.029052734375 16.1732177734375
63.0634765625 -10.124267578125 12.88671875
76.8046875 -14.97265625 -14.800048828125
-77.20751953125 -18.1353759765625 19.2593994140625
-50.8125 -1.7198486328125 11.8416748046875
-42.14599609375 -14.339599609375 8.342529296875
75.117919921875 -10.845458984375 -11.07958984375
66.66455078125 -23.4635009765625 12.9744873046875
75.0009765625 -21.2803955078125 -10.4237060546875
45.486572265625 2.3013916015625 -2.9920654296875
-78.0361328125 -25.5723876953125 12.0582275390625
73.236328125 -40.61279296875 1.009521484375
54.70556640625 11.2342529296875 -11.172607421875
-59.94140625 -13.82373046875 19.209228515625
59.136474609375 -36.765625 18.682861328125
82.62255859375 -12.4599609375 -22.4490966796875
72.822265625 -7.4718017578125 -12.05029296875
74.588623046875 -22.984375 -8.9376220703125
76.6923828125 -39.4527587890625 0.6875
43.488037109375 -22.8304443359375 25.0533447265625
-17.01220703125 -39.95263671875 35.49072265625
97.049560546875 -22.2252197265625 4.417236328125
61.53759765625 -38.5001220703125 25.7396240234375
41.896240234375 -18.453125 22.6461181640625
62.172607421875 -27.32275390625 4.8575439453125
45.957275390625 -16.2880859375 17.332275390625
-67.02978515625 -23.013427734375 29.2376708984375
-27.1875 -0.3619384765625 5.91552734375
20.12646484375 -15.41455078125 20.13720703125
-88.7763671875 -29.7532958984375 19.0472412109375
74.693359375 4.935791015625 -17.703857421875
63.428466796875 -15.3265380859375 16.3314208984375
19.603515625 -12.4249267578125 16.9720458984375
41.43505859375 -1.7933349609375 4.8182373046875
73.967529296875 -25.1666259765625 -5.7005615234375
-26.216064453125 -14.453369140625 17.6539306640625
-9.29052734375 -28.5843505859375 26.2564697265625
-11.89111328125 -34.4613037109375 30.119384765625
-79.042236328125 -20.3468017578125 17.1365966796875
0.340576171875 -21.6573486328125 21.3751220703125
84.26220703125 -28.240234375 1.3656005859375
73.4677734375 -0.0032958984375 -15.27197265625
-39.02197265625 9.66064453125 14.6256103515625
-12.259033203125 -6.1256103515625 10.33349609375
-23.7529296875 -7.14892578125 8.0596923828125
47.994384765625 -1.019287109375 2.64892578125
58.82177734375 -18.17138671875 13.6329345703125
34.71484375 0.329345703125 0.179443359375
73.439697265625 -35.7418212890625 -3.5433349609375
-51.244873046875 -22.2210693359375 28.9058837890625
-36.3212890625 -23.853271484375 29.7384033203125
26.908935546875 -19.0028076171875 23.75048828125
-19.70458984375 -18.7386474609375 21.9039306640625
-89.0537109375 -32.299072265625 9.0140380859375
4.8916015625 -13.842529296875 18.4324951171875
-46.016357421875 9.6978759765625 16.648193359375
98.22607421875 -25.92626953125 10.669677734375
65.17919921875 -16.1656494140625 13.7099609375
-25.28125 -27.80078125 28.822021484375
70.931884765625 -42.7850341796875 3.522216796875
-10.124755859375 -37.1304931640625 32.422119140625
77.4052734375 13.0242919921875 -25.9654541015625
-38.23828125 5.2706298828125 11.9696044921875
1.400634765625 -8.320556640625 8.7967529296875
78.918212890625 -9.1341552734375 -20.0076904296875
30.31494140625 -20.38671875 25.1357421875
1.978759765625 -11.6787109375 15.218994140625
79.49658203125 -17.4625244140625 -17.2578125
72.922607421875 -7.665283203125 9.81787109375
42.076171875 -20.21142578125 24.4486083984375
-15.611328125 -19.66552734375 22.52685546875
58.179443359375 -35.669677734375 14.437255859375
25.328125 -9.982421875 14.3333740234375
71.62939453125 -7.08251953125 -6.9373779296875
-69.6796875 -16.0291748046875 21.5953369140625
-38.160400390625 -18.3857421875 24.4044189453125
35.058349609375 3.5804443359375 -5.0462646484375
4.3388671875 -34.2037353515625 30.64599609375
80.233154296875 -33.917724609375 -2.3028564453125
65.023681640625 -3.7142333984375 6.952880859375
-21.76123046875 -14.9561767578125 18.193359375
72.451416015625 -10.2659912109375 12.747314453125
-34.134033203125 16.3575439453125 11.879150390625
48.3154296875 3.914794921875 -6.055419921875
58.235107421875 -24.288818359375 18.7049560546875
41.791748046875 -3.8843994140625 6.7962646484375
84.035400390625 8.909912109375 -27.3204345703125
14.656494140625 -8.1414794921875 12.2569580078125
-9.0107421875 -19.3861083984375 21.6842041015625
-53.566650390625 -14.767822265625 20.552490234375
101.808837890625 -14.7435302734375 -7.0982666015625
-3.675048828125 -30.0218505859375 26.879150390625
-5.54345703125 -15.698486328125 18.641357421875
62.515380859375 -16.9991455078125 15.10302734375
71.14208984375 -26.2781982421875 4.2562255859375
76.947509765625 -2.124755859375 3.91015625
56.4296875 -7.8778076171875 10.896728515625
72.3076171875 -9.141357421875 -10.7000732421875
-24.5029296875 -11.62109375 14.9085693359375
-30.61181640625 -10.698486328125 13.78515625
48.5732421875 -4.37890625 7.0631103515625
40.518310546875 9.2132568359375 -9.982177734375
-53.909912109375 -25.0252685546875 30.8101806640625
13.519775390625 -29.3009033203125 27.1107177734375
65.949951171875 -36.480712890625 -0.3663330078125
33.508056640625 2.3726806640625 -3.71484375
3.9326171875 -5.5025634765625 7.4617919921875
-55.24462890625 -26.6658935546875 32.6844482421875
0.4306640625 -38.013671875 33.980712890625
-38.543701171875 -13.6099853515625 7.574462890625
-4.2021484375 -5.4166259765625 9.6651611328125
59.83251953125 -40.3162841796875 12.47216796875
-15.991455078125 -28.8587646484375 27.818359375
-52.415283203125 -20.5150146484375 26.52197265625
68.39599609375 -43.6220703125 5.0347900390625
77.974365234375 -8.1600341796875 9.4742431640625
26.58251953125 -20.73681640625 25.595947265625
72.599853515625 -26.096435546875 -2.056884765625
-22.74072265625 -20.761962890625 24.0118408203125
