81.27587890625 10.2833251953125 -2.2864990234375
88.03515625 27.7340087890625 -11.29296875
-76.6328125 -39.356689453125 23.9500732421875
-4.786376953125 -12.4814453125 22.39013671875
9.206787109375 -6.754638671875 15.3211669921875
13.9765625 5.5826416015625 12.000244140625
51.76953125 16.2950439453125 -26.7333984375
8.23583984375 3.939697265625 13.5535888671875
-24.663818359375 16.1004638671875 7.908203125
-81.48779296875 -29.3714599609375 22.239501953125
101.468994140625 -25.84716796875 23.3197021484375
64.424560546875 -35.6881103515625 24.8326416015625
1.3701171875 11.913330078125 6.3681640625
37.748779296875 19.0291748046875 -0.9671630859375
-49.727783203125 -8.088134765625 20.2626953125
2.499267578125 25.224365234375 5.0028076171875
-1.279296875 -10.0269775390625 21.9205322265625
4.68212890625 -6.3271484375 18.1893310546875
47.9423828125 20.1326904296875 2.6527099609375
-85.44189453125 -41.503662109375 25.0623779296875
57.221923828125 6.83935546875 1.010986328125
-24.040771484375 28.4190673828125 7.295166015625
-23.063720703125 -18.1199951171875 27.383544921875
101.30029296875 -1.9840087890625 0.099365234375
-37.391357421875 1.41748046875 13.6942138671875
-8.531494140625 9.0411376953125 7.64599609375
52.20556640625 24.638916015625 -0.6236572265625
-81.572265625 -31.1829833984375 18.89013671875
1.456298828125 17.55517578125 5.6650390625
64.14208984375 -31.7857666015625 25.1632080078125
-4.4404296875 18.31982421875 6.676513671875
57.806884765625 -2.2877197265625 14.6685791015625
46.924072265625 -2.69482421875 14.9461669921875
11.6396484375 -15.946044921875 21.313720703125
-81.401123046875 -40.4315185546875 24.67724609375
92.73486328125 -24.656494140625 17.22900390625
19.46044921875 0.2491455078125 14.0498046875
38.730224609375 -6.0504150390625 18.5186767578125
-17.744140625 -2.996826171875 13.55322265625
82.9130859375 23.126220703125 -9.1912841796875
77.6884765625 -7.9053955078125 7.1453857421875
84.313232421875 -18.280029296875 9.1959228515625
-73.1591796875 -34.6630859375 13.92529296875
-33.99072265625 5.8787841796875 17.91015625
81.253662109375 -27.8836669921875 15.2161865234375
78.413330078125 -20.8870849609375 14.1114501953125
-19.7587890625 19.750732421875 7.8167724609375
-21.60400390625 5.380615234375 8.69384765625
-67.86376953125 -15.9788818359375 28.4920654296875
37.7763671875 27.6558837890625 -0.9742431640625
-74.8544921875 -26.0458984375 24.0467529296875
71.850341796875 -29.3291015625 12.17431640625
83.14404296875 16.524658203125 -6.076904296875
62.202392578125 2.320068359375 6.8770751953125
-5.94140625 -6.69189453125 18.47607421875
-86.214599609375 -34.0162353515625 32.8218994140625
43.1318359375 0.6353759765625 9.02490234375
86.997314453125 21.0650634765625 -9.9036865234375
73.2900390625 -7.4774169921875 14.8802490234375
65.172119140625 -29.3746337890625 17.447998046875
7.518310546875 -12.9110107421875 14.05859375
-45.03125 1.849365234375 18.0118408203125
78.4189453125 -32.3822021484375 9.7633056640625
9.8125 -9.6258544921875 12.2708740234375
98.47802734375 2.427001953125 10.4129638671875
-5.0341796875 14.7037353515625 7.2901611328125
-39.70654296875 5.85546875 18.046142578125
46.17822265625 2.2901611328125 6.8497314453125
76.78515625 16.9508056640625 -3.56005859375
-82.03955078125 -43.3746337890625 28.4337158203125
-34.2099609375 2.630126953125 14.751953125
101.700439453125 -3.22998046875 13.324462890625
33.226806640625 8.75732421875 0.342041015625
101.52294921875 -4.5499267578125 9.5234375
56.957275390625 29.7039794921875 -0.9693603515625
-84.85498046875 -29.3359375 23.239501953125
60.5830078125 27.285400390625 -0.7679443359375
-75.77490234375 -43.4998779296875 27.16162109375
46.791748046875 30.333740234375 -0.638427734375
104.172119140625 -16.836181640625 13.1046142578125
16.665283203125 -5.1297607421875 17.4947509765625
-52.905517578125 -10.076171875 22.9200439453125
-39.18505859375 -13.3992919921875 23.0262451171875
31.769775390625 -4.3416748046875 16.807373046875
43.9560546875 24.4688720703125 -1.1888427734375
40.843994140625 25.669921875 -0.72900390625
58.217529296875 18.4937744140625 -0.52294921875
-27.875244140625 -13.9271240234375 24.094482421875
-36.35400390625 -12.5394287109375 15.9342041015625
44.959228515625 -4.8021240234375 17.3497314453125
-23.066162109375 25.2633056640625 7.4691162109375
36.445068359375 11.22021484375 -0.6890869140625
-19.384765625 24.142333984375 7.64013671875
82.1904296875 21.1168212890625 -6.6953125
-26.5703125 22.0635986328125 8.5068359375
49.83544921875 17.2901611328125 4.0369873046875
71.213623046875 -23.9921875 21.7691650390625
14.674560546875 -12.5711669921875 14.9453125
3.692626953125 -3.03173828125 15.5609130859375
99.47119140625 -14.9537353515625 6.8499755859375
-85.609130859375 -31.8006591796875 26.706298828125
71.619140625 -11.758056640625 13.234130859375
-22.70703125 0.638671875 14.45458984375
-17.608642578125 -9.06591796875 16.4781494140625
-73.707275390625 -43.3114013671875 22.854736328125
73.75830078125 7.8193359375 3.6971435546875
51.01708984375 -4.396240234375 16.64013671875
86.484130859375 -7.512939453125 4.2208251953125
63.98828125 -26.9039306640625 21.801513671875
-53.036376953125 -12.886962890625 24.603759765625
33.194091796875 27.5467529296875 -1.33740234375
102.760986328125 -8.010986328125 -0.0421142578125
72.30126953125 -5.3221435546875 8.9945068359375
39.93115234375 -1.014404296875 12.5277099609375
73.66845703125 3.19775390625 7.232177734375
76.48876953125 30.5413818359375 -8.94384765625
75.357666015625 20.2470703125 -4.8460693359375
101.003662109375 -21.5562744140625 10.3414306640625
84.7607421875 -16.0980224609375 6.91357421875
34.543701171875 5.576416015625 6.2783203125
84.96337890625 27.2237548828125 -11.95556640625
101.122802734375 -12.7445068359375 1.3077392578125
42.1875 17.033447265625 -0.86279296875
-81.61572265625 -37.1578369140625 21.9859619140625
20.908447265625 5.19189453125 11.61279296875
88.95556640625 -24.175048828125 17.8773193359375
-37.613037109375 -16.2308349609375 22.5992431640625
4.14208984375 4.246337890625 7.203125
-85.36376953125 -37.938720703125 31.775146484375
104.752685546875 -18.66357421875 16.7625732421875
104.837890625 -26.1685791015625 16.914306640625
101.3037109375 -15.915283203125 12.1416015625
34.847900390625 -3.930908203125 16.225830078125
68.513916015625 -42.197021484375 22.4786376953125
75.74658203125 27.7261962890625 -6.456787109375
50.326904296875 18.1971435546875 -28.784423828125
-23.4130859375 -10.2685546875 20.271728515625
82.318603515625 -42.7301025390625 16.8017578125
-35.24853515625 -4.5543212890625 15.4083251953125
48.17041015625 22.7679443359375 -32.5343017578125
93.2529296875 -27.6640625 15.031982421875
-7.153076171875 -2.2039794921875 13.635986328125
-41.166748046875 -9.717041015625 16.95361328125
-40.515380859375 -5.7318115234375 15.51318359375
100.62109375 -11.483154296875 5.5352783203125
68.841064453125 -33.6429443359375 14.5543212890625
54.171630859375 8.0577392578125 0.17822265625
-9.639892578125 25.138671875 8.0252685546875
87.04052734375 -32.58447265625 10.145751953125
-14.45556640625 -12.399658203125 22.5650634765625
81.199462890625 5.666259765625 -0.2474365234375
20.961181640625 -1.81640625 15.7840576171875
50.434814453125 22.1326904296875 -0.300048828125
88.834716796875 -29.2930908203125 14.063232421875
50.7158203125 0.2342529296875 10.76513671875
-17.56884765625 29.327392578125 6.770751953125
73.926025390625 -17.78955078125 12.871826171875
-78.56494140625 -35.15380859375 19.1314697265625
61.59521484375 0.2298583984375 9.721923828125
98.33740234375 -9.26708984375 -1.6651611328125
-5.892333984375 20.808837890625 9.03369140625
52.6591796875 3.53271484375 4.6251220703125
66.3466796875 -29.7061767578125 13.8857421875
85.46826171875 -21.39453125 13.003662109375
10.189453125 -15.864990234375 17.09912109375
76.93798828125 -16.519775390625 11.989013671875
50.31396484375 21.4691162109375 3.9871826171875
75.8310546875 9.8438720703125 -1.3017578125
51.466064453125 1.8857421875 7.343017578125
-10.61962890625 11.8492431640625 7.9930419921875
-10.655517578125 3.4154052734375 8.8280029296875
42.714111328125 11.6822509765625 -0.7738037109375
52.322265625 17.5989990234375 -23.9022216796875
73.067626953125 -2.7720947265625 6.4093017578125
65.726806640625 -33.3499755859375 19.8221435546875
105.631591796875 -23.9105224609375 14.36181640625
102.140380859375 -10.705810546875 16.837890625
-28.13720703125 2.6922607421875 18.8848876953125
101.625732421875 -24.8125 17.66796875
64.979736328125 -19.1480712890625 22.4730224609375
73.848876953125 11.5689697265625 0.9212646484375
74.822998046875 24.5523681640625 -2.0711669921875
81.236328125 13.1639404296875 -5.1622314453125
-15.454345703125 7.4053955078125 8.345458984375
66.960205078125 -39.55078125 22.4615478515625
79.427978515625 -10.9117431640625 7.4239501953125
-45.374755859375 -12.1474609375 24.0263671875
-85.54638671875 -25.8258056640625 23.5743408203125
0.26318359375 7.870849609375 6.8974609375
75.001220703125 -23.4705810546875 15.939697265625
83.270751953125 30.13671875 -11.4949951171875
-11.561767578125 -5.847412109375 15.7529296875
34.999267578125 -1.42578125 13.28955078125
2.314697265625 2.6390380859375 8.9197998046875
46.037109375 7.603271484375 0.5799560546875
-74.462158203125 -38.0347900390625 19.94189453125
11.048828125 5.568115234375 11.8587646484375
-10.820068359375 15.4537353515625 7.5986328125
-19.71484375 3.4027099609375 9.7371826171875
89.122314453125 -36.2763671875 14.4976806640625
100.57763671875 -15.52587890625 16.20703125
68.1865234375 -25.5313720703125 16.5662841796875
50.569091796875 30.4027099609375 -0.8839111328125
-9.12158203125 -16.1986083984375 25.6861572265625
-4.4912109375 24.725341796875 5.7147216796875
81.47265625 -17.81005859375 8.8682861328125
71.99853515625 -18.266357421875 16.8177490234375
-14.357666015625 11.4107666015625 7.821044921875
-84.499755859375 -33.63525390625 14.67626953125
-24.0078125 -2.5789794921875 14.58349609375
4.70556640625 -8.8172607421875 20.786865234375
-59.750732421875 -14.838134765625 26.2073974609375
100.421875 -17.985595703125 6.0084228515625
-39.580322265625 3.4248046875 15.553955078125
2.925048828125 21.1881103515625 4.9615478515625
77.485595703125 -31.186279296875 12.8466796875
78.985595703125 11.9639892578125 -1.9107666015625
84.615478515625 3.52490234375 -2.6217041015625
14.648681640625 -3.052734375 15.661865234375
-47.97802734375 -2.918701171875 19.2637939453125
46.37841796875 -0.601318359375 11.765625
104.992431640625 -28.54345703125 22.2266845703125
-50.560302734375 -8.49658203125 23.25390625
-16.656005859375 13.815185546875 8.6007080078125
73.7841796875 -44.7989501953125 19.5601806640625
89.91455078125 -31.793701171875 10.477294921875
-0.914306640625 28.856689453125 6.3140869140625
100.67724609375 -11.09375 11.280517578125
99.366943359375 -3.7027587890625 -1.0357666015625
-29.33154296875 -9.4229736328125 21.1123046875
38.811767578125 6.7415771484375 0.7528076171875
73.060546875 -10.88623046875 10.1123046875
80.112060546875 -32.078369140625 12.1502685546875
75.921630859375 -41.20263671875 15.8646240234375
77.427001953125 -29.1259765625 15.7200927734375
-42.4794921875 -15.4456787109375 27.4287109375
72.513671875 -40.29833984375 16.933837890625
48.120849609375 20.3433837890625 -33.935546875
61.887939453125 5.621337890625 1.9771728515625
36.47900390625 21.8955078125 -0.6978759765625
-21.59521484375 8.176025390625 8.6915283203125
106.92041015625 -19.0 9.634033203125
48.269775390625 5.1566162109375 2.48486328125
-33.427978515625 -9.748046875 13.71875
-74.77587890625 -33.55615234375 16.081298828125
-51.054443359375 -14.1268310546875 26.09912109375
-34.733154296875 -0.17333984375 13.705810546875
52.210205078125 -2.280517578125 14.5982666015625
24.849853515625 1.4930419921875 13.388916015625
51.231201171875 5.16796875 2.4725341796875
50.138916015625 12.5771484375 -0.6895751953125
-8.158447265625 -8.72900390625 18.686767578125
12.117431640625 -8.0047607421875 14.61376953125
86.2216796875 -18.769775390625 11.118896484375
79.793212890625 -38.087158203125 11.732421875
6.294677734375 -11.6942138671875 16.8907470703125
98.186767578125 -15.743408203125 2.33984375
-85.96630859375 -34.6915283203125 30.169677734375
83.164794921875 -31.734619140625 12.76953125
-84.477783203125 -42.460205078125 27.5625
-24.7841796875 20.0682373046875 7.646728515625
14.788330078125 2.69970703125 11.780517578125
72.315673828125 -32.2542724609375 9.8970947265625
79.197265625 -25.682861328125 15.2523193359375
91.297119140625 3.1953125 3.597412109375
4.01513671875 11.545654296875 6.93408203125
40.435302734375 0.6370849609375 9.431640625
-16.911376953125 3.8021240234375 9.0433349609375
80.159423828125 -2.37353515625 2.6319580078125
-0.79931640625 18.7698974609375 6.583984375
-12.73291015625 5.412109375 8.346923828125
58.073486328125 0.23486328125 10.5006103515625
33.7421875 1.08056640625 12.8272705078125
26.557373046875 -5.582275390625 17.8802490234375
99.372314453125 -5.8477783203125 3.856689453125
54.490966796875 13.85986328125 -0.8516845703125
-11.482666015625 -9.945068359375 20.2840576171875
-41.19287109375 -12.8948974609375 15.9951171875
99.48681640625 -20.172119140625 7.6046142578125
82.29541015625 -34.14306640625 8.649169921875
86.980224609375 12.7799072265625 -5.75341796875
-30.114990234375 -5.775146484375 17.6817626953125
86.942138671875 -25.872802734375 17.2916259765625
-60.573974609375 -17.679931640625 29.364501953125
-21.91455078125 -13.1585693359375 23.2569580078125
92.27392578125 -31.9356689453125 12.9857177734375
46.91748046875 3.511474609375 4.1917724609375
-43.0498046875 -0.5692138671875 13.84716796875
-10.33447265625 26.6319580078125 5.897705078125
-42.672607421875 -9.7364501953125 21.2545166015625
70.378173828125 -42.470703125 26.795166015625
-43.023681640625 -4.9268798828125 16.719482421875
-11.69140625 1.0126953125 10.3154296875
-41.22119140625 -13.4083251953125 25.3292236328125
77.0771484375 5.2371826171875 0.456298828125
-74.29931640625 -40.5771484375 23.455322265625
-0.68896484375 -1.3963623046875 13.5703125
85.217041015625 14.8228759765625 -7.43505859375
100.13818359375 -9.7359619140625 3.48583984375
-6.455810546875 3.4285888671875 8.9603271484375
5.83154296875 -1.4017333984375 13.5045166015625
24.114990234375 6.0689697265625 13.7454833984375
72.853271484375 -43.5281982421875 28.926025390625
74.149658203125 21.1942138671875 -1.5694580078125
34.1015625 3.129638671875 9.470458984375
89.11669921875 17.33935546875 -9.1278076171875
77.203125 -44.8006591796875 17.7252197265625
85.75146484375 6.0494384765625 -3.895263671875
52.91845703125 18.8482666015625 -0.26806640625
-76.492919921875 -45.6693115234375 30.6922607421875
17.28955078125 5.595947265625 11.963623046875
17.005615234375 -15.1822509765625 22.2867431640625
-73.956298828125 -29.2989501953125 15.9971923828125
56.05615234375 1.894287109375 7.47607421875
74.129638671875 14.87841796875 -1.564208984375
-76.198486328125 -30.727783203125 23.9041748046875
-5.485107421875 9.861572265625 7.338134765625
70.0478515625 -21.3988037109375 23.10009765625
49.0771484375 24.5731201171875 -0.8695068359375
100.01904296875 -6.2791748046875 0.5242919921875
94.13623046875 -22.9896240234375 19.8885498046875
77.092529296875 -2.362548828125 4.1063232421875
85.008056640625 -42.849609375 17.6290283203125
-9.230224609375 -13.6712646484375 21.9376220703125
58.79443359375 24.345703125 -0.4420166015625
86.8271484375 18.5848388671875 -8.746337890625
43.6025390625 30.2447509765625 -1.014892578125
83.33251953125 9.391357421875 -5.089111328125
-6.53076171875 23.9783935546875 7.8505859375
37.738525390625 15.7427978515625 -0.9644775390625
-79.254638671875 -31.4317626953125 23.6517333984375
-23.64501953125 13.755615234375 9.0323486328125
100.618408203125 1.979736328125 8.9981689453125
-18.846923828125 -15.2681884765625 25.701171875
103.69677734375 -16.74462890625 7.505126953125
55.8125 19.272705078125 -1.1312255859375
80.2490234375 1.8660888671875 1.3055419921875
19.453125 -4.3074951171875 16.5072021484375
-1.13330078125 3.43798828125 8.5667724609375
-13.35693359375 -8.696533203125 18.4691162109375
84.37451171875 -23.9752197265625 12.955322265625
0.279052734375 14.320556640625 6.0623779296875
-16.809326171875 -10.3123779296875 19.78955078125
48.299072265625 14.635986328125 -0.50244140625
83.114013671875 -29.6429443359375 14.894287109375
71.2041015625 -25.2320556640625 19.4764404296875
82.439453125 -37.7257080078125 11.7847900390625
1.0888671875 -3.0283203125 15.0989990234375
-85.945556640625 -39.2921142578125 20.5274658203125
44.83984375 22.032958984375 -0.5751953125
-12.13623046875 28.2421875 6.764892578125
-13.60302734375 21.4315185546875 7.46533203125
96.751220703125 4.58544921875 9.5125732421875
-20.98828125 -0.1876220703125 11.6553955078125
-47.50537109375 -9.703369140625 21.296875
72.98388671875 3.59033203125 4.79931640625
-2.2744140625 13.1173095703125 7.2890625
87.205322265625 -22.34326171875 15.428955078125
-22.0556640625 18.9483642578125 8.5960693359375
88.786376953125 -18.3670654296875 11.029052734375
99.936767578125 -11.854248046875 -0.941162109375
-39.188720703125 -0.167236328125 14.5572509765625
38.637939453125 12.4622802734375 -1.0555419921875
-30.4287109375 -1.3636474609375 15.2109375
54.1611328125 27.9967041015625 -0.6832275390625
-31.867431640625 -8.97802734375 16.879150390625
44.511962890625 -2.2713623046875 14.2889404296875
5.199462890625 -8.8074951171875 18.2857666015625
-38.27587890625 -4.5447998046875 15.5675048828125
6.712646484375 3.091064453125 11.7166748046875
6.529541015625 -6.3323974609375 16.4354248046875
7.506103515625 -12.1719970703125 22.421142578125
49.93408203125 10.0982666015625 -0.242919921875
83.21044921875 -26.5906982421875 14.2763671875
56.188232421875 23.877197265625 -0.603759765625
-31.696533203125 2.2420654296875 15.3331298828125
72.79248046875 -2.33447265625 8.94580078125
-23.8515625 -14.38525390625 24.8658447265625
43.073974609375 6.359375 1.30615234375
84.439208984375 -12.2138671875 5.0140380859375
102.15771484375 -6.298095703125 12.5169677734375
56.016845703125 -24.271728515625 25.25537109375
40.82568359375 19.9041748046875 -0.7242431640625
-74.614990234375 -25.544189453125 20.490478515625
-79.01220703125 -29.0306396484375 22.135498046875
2.921875 0.2230224609375 11.6658935546875
-48.62451171875 -2.9093017578125 21.677490234375
-44.3916015625 -6.9149169921875 18.505859375
104.662109375 -13.673828125 4.546630859375
-23.94775390625 10.56884765625 9.337646484375
37.914306640625 5.114990234375 2.3951416015625
-78.56787109375 -31.6072998046875 18.058837890625
-29.1396484375 -11.8564453125 21.5185546875
-14.472412109375 19.0169677734375 7.5546875
74.2421875 26.1229248046875 -4.3056640625
-55.283447265625 -16.525390625 28.45849609375
68.764892578125 -27.197265625 14.4078369140625
100.301025390625 -1.960693359375 4.3624267578125
38.59228515625 24.7850341796875 -1.1968994140625
34.339599609375 21.088623046875 0.50146484375
46.57568359375 24.12158203125 -36.7994384765625
73.450927734375 1.0360107421875 4.0230712890625
78.213134765625 14.037109375 -2.986328125
59.310791015625 11.0001220703125 -0.3450927734375
61.7431640625 10.5989990234375 -0.4490966796875
-6.3203125 19.9014892578125 6.5906982421875
-0.0830078125 -11.702392578125 23.2615966796875
-15.3193359375 -5.0218505859375 14.7127685546875
-80.888916015625 -33.0787353515625 17.489501953125
88.17724609375 -35.2989501953125 12.4561767578125
62.402099609375 -1.870361328125 13.941162109375
-28.266845703125 -7.4002685546875 19.6038818359375
-2.10009765625 22.39111328125 6.713623046875
74.986083984375 -13.468505859375 9.9305419921875
-19.158203125 9.779541015625 8.1707763671875
-22.30419921875 -7.4227294921875 17.06982421875
-9.853271484375 -2.1998291015625 13.7589111328125
-8.217041015625 -6.2711181640625 17.6954345703125
-4.4248046875 -14.98291015625 23.9510498046875
103.514404296875 -18.96630859375 10.105224609375
82.788818359375 -40.927001953125 15.234130859375
-13.849853515625 -15.3192138671875 25.5350341796875
23.73388671875 -3.0679931640625 16.393310546875
-4.52685546875 -4.24072265625 15.9228515625
72.00048828125 -14.3446044921875 13.7999267578125
80.33349609375 -21.72314453125 11.673095703125
-39.154296875 -10.885009765625 11.96728515625
-2.151123046875 5.847900390625 7.5572509765625
-39.9375 -10.109130859375 14.91015625
-81.421630859375 -35.1363525390625 20.350830078125
80.029296875 -16.0894775390625 9.751220703125
21.17041015625 1.4832763671875 12.8790283203125
81.23046875 26.500732421875 -8.022705078125
-10.13232421875 6.625732421875 8.084228515625
-0.388427734375 10.2855224609375 6.5467529296875
76.51123046875 1.4493408203125 2.55224609375
74.537353515625 -36.6602783203125 11.6263427734375
-49.4248046875 -12.9228515625 24.8253173828125
10.3115234375 1.0601806640625 13.0697021484375
29.49658203125 -5.17333984375 17.8994140625
-7.39208984375 -14.935302734375 22.7762451171875
45.436279296875 10.47607421875 -0.3486328125
46.14404296875 26.1754150390625 -0.851806640625
-43.262451171875 -2.14306640625 16.1923828125
68.28759765625 -21.766357421875 21.2625732421875
66.348876953125 -23.808349609375 17.639404296875
50.271240234375 17.2183837890625 1.707275390625
-47.065673828125 -13.3507080078125 25.1669921875
72.507568359375 -5.3216552734375 12.2493896484375
63.715087890625 -24.274169921875 20.6060791015625
77.81494140625 24.3858642578125 -7.0966796875
26.251220703125 -7.261962890625 19.8170166015625
75.366455078125 -3.6314697265625 5.3035888671875
100.422119140625 -5.41845703125 7.3570556640625
32.95849609375 17.3280029296875 -0.890380859375
101.589111328125 -10.5888671875 0.519287109375
-14.2275390625 26.2137451171875 7.1153564453125
-22.5556640625 3.3914794921875 9.4744873046875
-8.512451171875 15.0789794921875 7.6409912109375
-7.138671875 -0.589599609375 11.95263671875
96.06640625 2.418212890625 10.0323486328125
-76.66943359375 -28.7110595703125 22.72314453125
79.543701171875 16.1279296875 -3.9857177734375
63.8271484375 -32.3123779296875 27.8187255859375
74.18017578125 -5.7578125 16.156982421875
100.32958984375 -11.5008544921875 7.9730224609375
96.607666015625 -27.403564453125 18.8944091796875
80.008056640625 -8.7718505859375 6.77392578125
-16.1455078125 -1.386962890625 13.1173095703125
54.75 10.545166015625 -0.4505615234375
-84.4453125 -34.8958740234375 16.915283203125
-82.998046875 -27.7562255859375 21.5760498046875
100.89990234375 -18.9749755859375 12.3336181640625
90.96630859375 -0.6505126953125 6.0101318359375
102.2724609375 -25.3465576171875 20.732666015625
-53.58544921875 -14.5052490234375 26.333740234375
-73.366943359375 -37.8880615234375 16.4766845703125
-17.005859375 -11.963623046875 22.08642578125
103.535400390625 -29.0147705078125 23.9334716796875
63.96533203125 -30.415283203125 23.3343505859375
-15.899169921875 -9.08544921875 18.00390625
58.884521484375 5.6090087890625 1.9906005859375
-83.134765625 -36.640625 20.2508544921875
-56.71337890625 -15.285400390625 27.18408203125
20.722900390625 -7.6551513671875 20.3265380859375
-39.680419921875 -2.553466796875 14.4700927734375
106.558349609375 -27.19189453125 20.6715087890625
-82.103759765625 -42.0582275390625 26.108154296875
-75.950927734375 -34.7955322265625 18.3375244140625
70.573974609375 -37.16748046875 15.598876953125
-3.931396484375 -2.6126708984375 14.449951171875
101.24951171875 -15.370361328125 4.277587890625
82.839111328125 30.6588134765625 -9.3291015625
48.4169921875 2.290283203125 6.4854736328125
82.78369140625 5.2054443359375 -3.014892578125
-81.896484375 -25.7838134765625 20.1240234375
-34.43408203125 -15.347412109375 15.3341064453125
-69.504638671875 -19.1214599609375 27.671875
65.85888671875 -20.8544921875 20.71630859375
18.37060546875 -9.739501953125 21.2774658203125
13.118408203125 -1.4007568359375 14.65771484375
81.86279296875 1.0059814453125 -0.020751953125
84.798583984375 22.281494140625 -10.0982666015625
84.236328125 26.0379638671875 -10.1824951171875
102.164794921875 -7.572021484375 -2.1964111328125
99.62646484375 -18.62060546875 17.8436279296875
-24.851806640625 -16.0347900390625 26.5362548828125
99.97607421875 -23.0057373046875 16.8843994140625
64.288818359375 -28.1475830078125 19.948974609375
79.157470703125 -12.210693359375 9.2349853515625
91.390380859375 -24.2440185546875 19.048095703125
11.79248046875 -11.7122802734375 14.0745849609375
17.541015625 1.068603515625 13.2286376953125
-17.785400390625 -14.0272216796875 24.1646728515625
82.658447265625 -6.6378173828125 2.533935546875
34.76025390625 1.045166015625 8.976318359375
48.130126953125 16.7928466796875 2.2081298828125
12.298828125 -12.9822998046875 16.6099853515625
101.14453125 -9.35693359375 12.612060546875
74.7431640625 -38.9307861328125 14.1595458984375
80.700927734375 7.333251953125 -1.6484375
78.864990234375 19.8480224609375 -5.63623046875
83.10986328125 -3.2379150390625 0.293701171875
65.768310546875 -35.904541015625 29.21044921875
-12.1220703125 10.6048583984375 6.9093017578125
93.27001953125 -21.61474609375 17.95068359375
74.611083984375 -44.7034912109375 25.3426513671875
74.071533203125 -30.6431884765625 11.6669921875
104.26220703125 -22.544677734375 13.253173828125
82.84326171875 19.0067138671875 -7.1903076171875
10.271728515625 -3.45751953125 15.5042724609375
100.793701171875 -1.083251953125 6.415283203125
99.195556640625 4.60986328125 10.648681640625
-79.345703125 -43.421630859375 27.7701416015625
39.037841796875 2.67919921875 5.69091796875
49.162109375 22.21533203125 2.243896484375
72.8623046875 -22.1583251953125 16.58935546875
67.17138671875 -37.264892578125 19.6939697265625
49.078125 -3.121337890625 15.1878662109375
84.34765625 -14.36083984375 5.6162109375
75.94775390625 -9.179443359375 7.60986328125
107.36376953125 -25.2630615234375 14.51416015625
57.982421875 3.1331787109375 5.1092529296875
-19.701904296875 -3.7974853515625 14.162841796875
-40.305908203125 -12.16552734375 21.589599609375
41.143798828125 3.9029541015625 3.6285400390625
-6.634765625 -11.633544921875 21.5518798828125
97.348388671875 -24.417724609375 22.104248046875
81.827392578125 -36.3468017578125 10.1898193359375
-3.772705078125 0.6239013671875 11.3408203125
57.2412109375 8.912841796875 0.2938232421875
62.508544921875 3.5657958984375 5.098388671875
-2.888916015625 26.384765625 6.1015625
72.767578125 -19.980224609375 15.689453125
72.29736328125 -7.458740234375 9.7374267578125
6.032470703125 1.039794921875 11.3607177734375
63.8857421875 -25.211181640625 23.1854248046875
36.60009765625 -5.6195068359375 18.2713623046875
100.126953125 -14.1617431640625 12.7086181640625
65.036865234375 -32.981689453125 21.864013671875
44.16796875 3.9136962890625 3.7523193359375
-24.435302734375 -6.6031494140625 16.4364013671875
79.713134765625 -14.772705078125 7.8438720703125
72.395263671875 -18.7415771484375 18.9083251953125
-42.281005859375 3.0301513671875 16.3681640625
72.096435546875 -21.7930908203125 20.0048828125
1.050048828125 27.654296875 5.701171875
-46.63037109375 -14.99169921875 27.100341796875
-12.447021484375 -0.9901123046875 12.3358154296875
23.581298828125 -6.4085693359375 18.5966796875
-9.9521484375 18.7069091796875 8.335693359375
100.49169921875 -23.3465576171875 12.5267333984375
-6.329345703125 17.0838623046875 6.593017578125
73.276611328125 5.709228515625 4.4766845703125
84.1533203125 -39.6121826171875 14.1962890625
-2.763916015625 19.57275390625 7.1968994140625
69.9208984375 -28.4647216796875 13.102294921875
65.4482421875 -31.573974609375 18.633056640625
-25.580078125 -10.2545166015625 20.4765625
101.4091796875 -17.632568359375 10.149169921875
-19.7802734375 12.9617919921875 7.8223876953125
-18.691650390625 15.75341796875 7.301025390625
-17.225341796875 24.134521484375 6.60205078125
90.4384765625 -20.6787109375 16.972412109375
99.0849609375 -13.5733642578125 0.029296875
-74.124267578125 -43.0277099609375 24.9443359375
-77.979248046875 -33.9261474609375 17.467529296875
78.2373046875 -28.336669921875 17.62255859375
76.502197265625 7.7572021484375 -0.3568115234375
-40.467041015625 -15.6995849609375 16.613037109375
61.01806640625 16.8502197265625 -0.806884765625
48.0830078125 8.8458251953125 -0.053466796875
67.96484375 -34.55224609375 16.2899169921875
59.807861328125 20.1893310546875 -0.4002685546875
89.72900390625 -20.15283203125 13.0628662109375
65.09375 -36.6507568359375 26.6273193359375
57.744140625 16.4046630859375 -0.4737548828125
-20.69189453125 -11.109130859375 21.14892578125
87.9248046875 30.2032470703125 -12.1309814453125
9.61376953125 4.3779296875 15.13330078125
36.00927734375 16.96435546875 -0.6470947265625
57.191650390625 -4.4134521484375 16.8155517578125
101.38525390625 -1.0419921875 12.8919677734375
79.17041015625 -43.9814453125 17.5462646484375
78.978759765625 -34.0556640625 8.3702392578125
40.851806640625 28.140869140625 -0.7310791015625
67.763671875 -35.4913330078125 18.2733154296875
85.57421875 -30.98681640625 14.668701171875
73.39501953125 -2.7442626953125 13.5137939453125
35.28125 2.6739501953125 5.9217529296875
51.201171875 27.9385986328125 -0.6644287109375
-37.22314453125 -11.6971435546875 12.31884765625
16.194580078125 -10.1171875 17.54150390625
-48.5048828125 -6.9093017578125 23.896728515625
-1.056640625 -5.069580078125 17.156005859375
22.969482421875 5.6177978515625 11.8424072265625
33.05859375 -0.5989990234375 11.7353515625
47.190185546875 22.6617431640625 -34.5892333984375
64.225830078125 -33.99609375 26.08251953125
-24.47021484375 -4.5877685546875 15.4635009765625
79.322021484375 -39.44091796875 13.2822265625
73.090087890625 -37.1260986328125 13.2601318359375
64.72998046875 -33.9140625 23.72900390625
-79.321533203125 -40.09814453125 24.615478515625
33.40283203125 14.8748779296875 -0.93505859375
1.62890625 -6.7286376953125 19.4835205078125
-75.741455078125 -30.6177978515625 20.8729248046875
-78.72119140625 -27.42529296875 20.7559814453125
109.001708984375 -23.085205078125 14.518798828125
51.797119140625 13.8446044921875 -0.4349365234375
-24.771484375 24.0460205078125 7.6434326171875
35.2109375 5.0977783203125 1.9644775390625
49.93115234375 19.383056640625 4.1697998046875
-75.054931640625 -31.9244384765625 14.3804931640625
103.453369140625 -17.297607421875 15.02001953125
-27.13671875 -9.84814453125 21.8946533203125
-23.359375 -9.0416259765625 18.5750732421875
7.96044921875 -10.030029296875 13.160888671875
-16.689697265625 19.7891845703125 7.64208984375
-5.864501953125 5.844482421875 8.3458251953125
9.6962890625 -7.988037109375 13.70361328125
71.541259765625 -41.215576171875 18.541015625
69.927978515625 -26.8399658203125 16.1053466796875
-10.48583984375 9.4432373046875 8.2562255859375
-41.79248046875 -9.7294921875 19.3634033203125
87.9482421875 25.66259765625 -10.7158203125
33.021484375 25.485595703125 -1.5965576171875
8.833740234375 -2.22119140625 14.6395263671875
-3.0634765625 -8.3563232421875 20.3546142578125
10.870361328125 5.6021728515625 14.0113525390625
33.156494140625 3.8956298828125 4.85498046875
-12.747802734375 -11.173095703125 21.4033203125
49.91064453125 20.55224609375 -29.3858642578125
-36.448974609375 -7.7374267578125 13.87939453125
99.686279296875 -20.4139404296875 19.3948974609375
67.589599609375 -31.914306640625 14.9696044921875
74.430419921875 -34.41455078125 9.2509765625
-46.612060546875 -2.9273681640625 17.4805908203125
-36.687255859375 3.0283203125 15.1326904296875
73.932861328125 11.94091796875 -1.1107177734375
-37.318115234375 -16.136474609375 16.719970703125
65.406982421875 -36.5103759765625 23.21044921875
100.33154296875 -9.2818603515625 -1.129150390625
80.562255859375 19.8287353515625 -6.81103515625
76.384521484375 -37.5845947265625 12.0521240234375
0.6728515625 23.6142578125 5.879638671875
103.285400390625 -25.74365234375 18.4542236328125
52.6943359375 15.5711669921875 -24.736572265625
74.686767578125 5.2315673828125 0.6956787109375
102.34033203125 -4.9837646484375 14.189453125
-15.228271484375 -3.000244140625 14.0040283203125
-73.28173828125 -25.5093994140625 18.607177734375
35.67578125 28.459228515625 -0.478759765625
55.98388671875 5.5992431640625 2.13818359375
-40.25830078125 -3.7413330078125 16.0362548828125
-19.5927734375 7.7791748046875 8.2156982421875
41.132568359375 8.7977294921875 -0.1885986328125
38.176513671875 -2.2620849609375 14.447021484375
-30.061279296875 0.6387939453125 15.0357666015625
-54.291015625 -11.2784423828125 24.7203369140625
45.054931640625 0.6427001953125 9.7076416015625
-26.83740234375 -12.301513671875 23.4283447265625
63.05419921875 -2.7186279296875 15.6741943359375
-20.619873046875 -7.4276123046875 15.927734375
85.140380859375 -3.2420654296875 0.23681640625
-26.23583984375 14.5045166015625 8.3406982421875
88.73681640625 -33.954345703125 11.0418701171875
42.60595703125 -4.7945556640625 17.5675048828125
51.2451171875 18.281494140625 -26.80419921875
-5.81787109375 0.619384765625 10.98388671875
-51.71142578125 -11.6888427734375 23.6424560546875
-24.365478515625 18.0836181640625 7.6051025390625
-38.80908203125 -13.2974853515625 14.5264892578125
28.3974609375 -6.8507080078125 19.3245849609375
-18.648193359375 -11.120849609375 20.6729736328125
-84.958984375 -35.4232177734375 28.4261474609375
60.196533203125 -1.8653564453125 14.4453125
100.09130859375 -22.959228515625 14.8663330078125
19.90576171875 6.868408203125 13.1414794921875
64.31640625 -24.6365966796875 17.674560546875
-33.63037109375 -12.53466796875 13.32861328125
54.966064453125 -1.861083984375 14.191650390625
65.185302734375 -28.0369873046875 15.940673828125
-14.33984375 17.0238037109375 7.81640625
41.182861328125 6.751708984375 0.651611328125
-47.332763671875 -6.50341796875 18.7900390625
-61.375244140625 -14.8394775390625 27.474365234375
-5.207763671875 27.5455322265625 6.0611572265625
-40.646728515625 -7.719970703125 15.2528076171875
19.06640625 4.7615966796875 10.935546875
56.390625 0.6484375 9.4879150390625
40.362548828125 17.840576171875 -0.6756591796875
17.5107421875 -0.1597900390625 14.8118896484375
-17.856689453125 -0.583984375 12.451904296875
81.3515625 -32.4638671875 10.2327880859375
-31.957275390625 3.8603515625 16.6036376953125
81.1572265625 22.80908203125 -6.0177001953125
72.794677734375 -34.431640625 10.59619140625
81.796875 24.418212890625 -7.938720703125
63.936767578125 -30.1134033203125 27.18798828125
-36.424072265625 -14.5340576171875 15.80419921875
100.796630859375 -8.9024658203125 9.290283203125
48.90234375 -0.6014404296875 11.8173828125
-20.828369140625 22.9493408203125 8.333251953125
46.22900390625 26.0809326171875 -36.63134765625
51.707275390625 -0.5987548828125 12.2840576171875
63.76708984375 -26.5718994140625 25.3470458984375
73.192626953125 -19.685791015625 22.35986328125
100.635986328125 -15.4202880859375 8.3997802734375
102.52783203125 -2.80029296875 11.5623779296875
-74.74951171875 -27.8404541015625 19.1561279296875
-3.939208984375 16.340087890625 7.593505859375
54.616455078125 25.0926513671875 -0.7281494140625
77.213134765625 -13.0540771484375 9.420654296875
74.88330078125 2.717041015625 2.42138671875
-44.69970703125 -3.3306884765625 16.8824462890625
69.802978515625 -35.3795166015625 14.4658203125
52.75634765625 6.817138671875 1.0340576171875
15.5751953125 1.478759765625 13.131591796875
90.08349609375 -20.1971435546875 15.01171875
62.1865234375 7.2822265625 0.9400634765625
-84.953369140625 -27.3385009765625 21.900146484375
100.73095703125 0.2054443359375 4.918701171875
42.66748046875 -1.850341796875 13.7291259765625
-84.080810546875 -40.3280029296875 24.2535400390625
-85.45654296875 -30.167724609375 24.922119140625
56.71533203125 14.7249755859375 -0.5106201171875
98.747314453125 0.701416015625 12.216552734375
-44.935546875 -0.154052734375 16.355224609375
-43.76171875 -3.7344970703125 15.1470947265625
42.676513671875 26.9317626953125 -0.91796875
67.89453125 -28.42724609375 13.1427001953125
84.824951171875 1.8419189453125 -1.6270751953125
81.777587890625 -20.4158935546875 10.036376953125
-13.2333984375 -13.6590576171875 24.033935546875
77.442626953125 -36.6871337890625 10.604736328125
-21.23046875 2.20458984375 10.3017578125
-11.378662109375 17.018798828125 6.5565185546875
38.22265625 8.36767578125 -0.170654296875
76.9697265625 -26.5909423828125 18.04150390625
-22.823486328125 -0.978515625 13.357421875
22.271484375 0.2491455078125 13.9248046875
100.821533203125 0.6956787109375 11.4134521484375
72.180908203125 -23.474853515625 17.865478515625
71.446044921875 -36.2525634765625 13.8631591796875
107.117919921875 -29.072509765625 23.625
79.191162109375 5.67041015625 0.53515625
-85.954345703125 -27.767578125 23.614501953125
69.647216796875 -23.927490234375 20.225830078125
63.516845703125 -20.4298095703125 22.6033935546875
-16.071044921875 2.2083740234375 9.78515625
-50.02978515625 -10.0865478515625 21.53759765625
66.87158203125 -37.7730712890625 21.5504150390625
66.56103515625 -38.389404296875 25.7276611328125
90.7373046875 -25.0662841796875 17.409423828125
75.644775390625 -45.2713623046875 19.240234375
-4.17138671875 -7.1123046875 19.1666259765625
87.496337890625 -19.5718994140625 7.0994873046875
32.89794921875 7.13330078125 1.3564453125
64.799072265625 -26.34130859375 16.8778076171875
98.314453125 3.711181640625 8.760498046875
-80.949462890625 -38.8258056640625 23.6820068359375
-81.1923828125 -27.7681884765625 20.8621826171875
14.613037109375 4.3304443359375 10.6600341796875
80.201416015625 -3.2144775390625 5.569091796875
10.594482421875 3.5135498046875 11.9041748046875
-85.84423828125 -40.202880859375 22.935546875
-75.91162109375 -40.9906005859375 24.7017822265625
3.628173828125 -5.0855712890625 17.1400146484375
73.4755859375 4.8870849609375 6.2186279296875
54.4560546875 3.9423828125 3.5833740234375
-82.646240234375 -45.8240966796875 30.146240234375
92.599609375 -26.379638671875 16.318603515625
105.94482421875 -15.8795166015625 6.2322998046875
87.883056640625 -29.763427734375 15.6766357421875
100.845947265625 -14.5823974609375 10.8092041015625
82.92041015625 21.058837890625 -8.4810791015625
79.609130859375 -6.2021484375 5.480712890625
36.565673828125 0.63525390625 9.5194091796875
84.891845703125 -7.5013427734375 2.7548828125
68.709228515625 -41.46435546875 25.078857421875
50.824951171875 20.24658203125 -27.409912109375
77.1396484375 -33.598388671875 8.694580078125
14.073486328125 -9.6695556640625 14.714111328125
102.77490234375 -27.190185546875 22.8917236328125
-68.892578125 -16.736572265625 27.0589599609375
65.75 -31.0831298828125 16.79296875
72.28515625 -17.806396484375 14.9786376953125
70.19140625 -34.46044921875 12.7811279296875
81.2607421875 -29.642822265625 15.9765625
79.872802734375 -20.0247802734375 13.220703125
82.72314453125 -16.9464111328125 7.7049560546875
41.96923828125 -0.19189453125 10.2965087890625
88.19384765625 -30.0948486328125 12.451904296875
77.35498046875 -23.0843505859375 16.3304443359375
99.338134765625 -16.6405029296875 3.8656005859375
74.046142578125 23.2025146484375 -3.8553466796875
73.39453125 -43.022216796875 18.983642578125
50.85986328125 2.7042236328125 5.667724609375
1.6591796875 1.43212890625 10.244384765625
32.82958984375 -6.8709716796875 19.3585205078125
-74.19873046875 -46.2991943359375 26.8779296875
81.34375 0.61279296875 3.5406494140625
101.60791015625 -0.6322021484375 8.90625
102.899658203125 -21.1854248046875 12.14990234375
-9.66064453125 -4.226318359375 15.8507080078125
39.26611328125 -4.7847900390625 16.9903564453125
74.596435546875 -7.8895263671875 7.148193359375
85.91259765625 -1.5433349609375 -0.1331787109375
-48.697021484375 -14.5576171875 26.44384765625
-46.472900390625 -0.1363525390625 18.70361328125
38.585693359375 22.7305908203125 -1.1951904296875
53.567626953125 15.515380859375 -0.7581787109375
-18.677001953125 -10.291748046875 18.8341064453125
-85.258544921875 -33.41650390625 27.6307373046875
83.781494140625 -1.5421142578125 -0.2115478515625
36.037841796875 25.9949951171875 -0.654541015625
52.598388671875 0.2333984375 10.5845947265625
100.024169921875 -20.7781982421875 15.48779296875
-18.310302734375 22.541015625 7.1224365234375
33.28662109375 -0.160888671875 14.4705810546875
47.726806640625 -3.9635009765625 16.202880859375
103.21630859375 -9.3114013671875 1.2486572265625
78.093505859375 -30.392822265625 14.4482421875
85.16357421875 -32.096435546875 9.721923828125
53.34130859375 1.8865966796875 7.1597900390625
101.291748046875 -14.0572509765625 2.92822265625
-3.1474609375 -11.6654052734375 21.949462890625
11.8291015625 -0.1661376953125 14.0650634765625
72.397705078125 -16.997314453125 18.146240234375
106.49755859375 -22.580078125 13.356201171875
61.5654296875 12.6807861328125 -0.7177734375
82.63134765625 -44.5428466796875 17.9979248046875
69.54541015625 -25.157958984375 17.8026123046875
90.744384765625 -30.5509033203125 11.6083984375
21.726806640625 2.7098388671875 11.3916015625
51.1396484375 20.52392578125 0.7640380859375
33.047607421875 1.8701171875 8.570068359375
100.0771484375 -22.62158203125 19.20556640625
12.729736328125 6.4195556640625 13.1180419921875
81.81494140625 -25.233154296875 13.0428466796875
100.617431640625 -19.374267578125 10.528564453125
99.923828125 -0.6771240234375 2.459228515625
-85.105712890625 -38.4322509765625 33.5592041015625
89.376708984375 -28.044677734375 15.539306640625
73.19482421875 -5.323486328125 13.9844970703125
77.169189453125 11.1129150390625 -1.58203125
-48.458740234375 -6.5030517578125 21.1087646484375
-35.29736328125 -12.1334228515625 14.4539794921875
-77.04345703125 -36.00439453125 19.7886962890625
12.8154296875 3.505615234375 10.8365478515625
15.72509765625 6.4239501953125 12.54296875
-17.8935546875 8.6031494140625 8.865234375
44.46728515625 1.4638671875 8.02734375
60.60546875 2.7291259765625 6.0125732421875
15.990478515625 -6.7911376953125 17.9940185546875
47.187255859375 18.4715576171875 3.0145263671875
58.614990234375 -0.6015625 12.0709228515625
79.623291015625 23.5947265625 -6.71533203125
12.91259765625 8.091064453125 14.2427978515625
72.022216796875 -44.296630859375 19.2606201171875
-29.92333984375 2.667236328125 17.101806640625
-1.50146484375 -7.538818359375 19.77685546875
2.915283203125 13.1494140625 6.6273193359375
79.037841796875 28.5074462890625 -8.9283447265625
34.05517578125 10.3995361328125 0.1163330078125
-15.79443359375 -13.2186279296875 23.550048828125
-57.126708984375 -13.2802734375 27.22119140625
52.55322265625 -3.551025390625 15.9022216796875
-45.56640625 -10.9287109375 22.644775390625
79.813720703125 25.6754150390625 -7.163330078125
9.728271484375 -13.78173828125 16.27880859375
58.804931640625 27.6837158203125 -0.4447021484375
55.53564453125 21.7764892578125 -0.8203125
-3.7568359375 5.039794921875 7.99609375
26.2744140625 -3.908447265625 16.5914306640625
82.2783203125 -9.6229248046875 3.4541015625
1.076171875 0.22265625 11.7060546875
3.265625 5.86767578125 7.290283203125
86.449951171875 -39.7208251953125 15.2022705078125
66.7333984375 -22.140869140625 19.725341796875
66.08251953125 -38.2733154296875 23.4586181640625
-46.489990234375 -8.1041259765625 19.6754150390625
74.02880859375 -26.979736328125 18.30810546875
-21.02490234375 24.924560546875 7.942626953125
14.58056640625 -6.7813720703125 16.3907470703125
85.93505859375 -33.82373046875 9.3497314453125
-6.668212890625 -5.4593505859375 17.121337890625
81.37939453125 -3.6575927734375 0.75830078125
6.038818359375 -12.08349609375 14.7703857421875
35.00927734375 -2.67529296875 14.892578125
-34.82373046875 -8.5421142578125 13.5819091796875
58.920166015625 -3.9915771484375 16.3565673828125
-6.213134765625 -3.4210205078125 15.3770751953125
84.063720703125 -33.334228515625 8.9283447265625
-65.22900390625 -18.025390625 29.649169921875
-33.82666015625 -1.768310546875 13.754150390625
69.017822265625 -38.126708984375 18.615966796875
-4.534912109375 -5.8770751953125 17.629638671875
100.72900390625 -14.19384765625 14.95751953125
-0.316650390625 -3.8426513671875 15.945068359375
-37.740478515625 -8.9190673828125 13.0509033203125
-15.60009765625 -11.1495361328125 21.2410888671875
32.06640625 -5.6026611328125 18.1015625
58.51953125 2.310791015625 6.6534423828125
36.40234375 8.3602294921875 0.0162353515625
107.283203125 -20.34130859375 10.823974609375
-4.3896484375 11.895263671875 7.64111328125
77.71728515625 -35.328857421875 8.7889404296875
85.739990234375 7.7276611328125 -4.6160888671875
2.101318359375 10.3116455078125 6.849609375
79.80712890625 -13.053466796875 7.240234375
-86.8671875 -31.0318603515625 27.780029296875
72.768310546875 -16.49609375 13.4293212890625
72.96142578125 -12.602783203125 10.7178955078125
82.212158203125 -31.3399658203125 14.37109375
-80.28271484375 -41.6812744140625 25.3896484375
-50.75439453125 -15.76220703125 27.761474609375
-38.61376953125 -14.6312255859375 24.2408447265625
101.49853515625 -27.64794921875 24.10791015625
-3.0537109375 -4.653076171875 16.91845703125
-64.542724609375 -16.410888671875 28.1864013671875
76.89599609375 -0.2435302734375 3.0994873046875
77.691650390625 -9.6192626953125 7.8868408203125
-2.088623046875 -0.18408203125 11.876220703125
-85.392578125 -37.7193603515625 19.803955078125
-35.51123046875 -6.54931640625 14.884521484375
-10.164306640625 1.8155517578125 9.747314453125
-28.16015625 -1.3651123046875 15.26611328125
-0.472900390625 2.23681640625 9.7557373046875
96.6005859375 -29.603759765625 18.896240234375
101.195556640625 -11.033447265625 2.7869873046875
-80.1328125 -34.6878662109375 18.348876953125
-72.19482421875 -19.427734375 25.2989501953125
-83.108154296875 -32.1015625 14.00830078125
0.442138671875 -10.042724609375 22.486328125
85.78759765625 -22.7274169921875 14.1884765625
52.27099609375 17.1705322265625 -0.48486328125
59.72412109375 22.6878662109375 -0.53564453125
-47.980224609375 -11.314697265625 23.151611328125
-19.674072265625 -1.3829345703125 13.3250732421875
74.30810546875 -1.93212890625 4.52587890625
-75.70947265625 -37.2720947265625 21.0084228515625
-21.995361328125 -3.791748046875 14.1094970703125
-8.032958984375 27.5230712890625 6.760498046875
-14.0263671875 23.8314208984375 7.507080078125
-1.490478515625 7.459716796875 7.0745849609375
61.775390625 4.380859375 3.286865234375
-2.287109375 9.075927734375 7.2923583984375
-47.923583984375 -4.9091796875 19.3975830078125
-36.968505859375 -5.3466796875 14.6151123046875
36.01708984375 19.42724609375 -0.649169921875
0.2138671875 -7.549560546875 20.33642578125
-25.84228515625 -11.4805908203125 21.7740478515625
-21.2060546875 17.3597412109375 8.5108642578125
-80.559814453125 -44.24365234375 28.9859619140625
-13.11572265625 -7.4703369140625 17.172119140625
43.119873046875 22.4024658203125 -0.9613037109375
-5.201416015625 29.5582275390625 6.0594482421875
-7.073974609375 11.048583984375 6.94677734375
-7.0830078125 8.2308349609375 6.9490966796875
84.05859375 17.7236328125 -8.31396484375
100.781005859375 -3.2445068359375 8.531005859375
102.88671875 -25.68212890625 16.4686279296875
97.010986328125 1.563232421875 11.310546875
-6.3115234375 22.7191162109375 6.58837890625
-37.59716796875 -10.1005859375 11.5389404296875
83.583251953125 -35.508056640625 9.7235107421875
99.7421875 -11.8931884765625 3.6746826171875
79.196533203125 -29.1700439453125 16.01318359375
7.759521484375 -14.1630859375 15.3203125
84.280029296875 11.0657958984375 -5.9049072265625
-40.031494140625 -14.1595458984375 20.308837890625
-16.18359375 5.4033203125 8.694580078125
-12.89697265625 16.216796875 7.1221923828125
-47.3046875 -2.1168212890625 20.71923828125
9.917236328125 -11.697509765625 14.112060546875
101.964599609375 -9.814208984375 15.1513671875
-76.539306640625 -26.69482421875 20.9483642578125
18.352294921875 -5.552001953125 17.9173583984375
49.8583984375 18.513916015625 -30.8028564453125
94.07861328125 -24.2686767578125 18.343505859375
-44.767578125 -5.318359375 16.7528076171875
58.822998046875 8.0902099609375 0.419677734375
99.6806640625 -20.2667236328125 12.1412353515625
101.342041015625 -24.3199462890625 15.8333740234375
82.756591796875 14.00048828125 -5.8924560546875
-21.3310546875 20.5423583984375 8.248779296875
-24.672119140625 8.9752197265625 9.684814453125
68.56689453125 -29.6822509765625 11.886962890625
-41.888916015625 -1.353759765625 15.371826171875
78.702880859375 9.0281982421875 -0.86865234375
13.886962890625 -11.724609375 13.587158203125
54.128173828125 17.6029052734375 -0.6746826171875
-2.40478515625 -12.9259033203125 23.32958984375
