46.088623046875 1.5916748046875 -0.4661865234375
44.218505859375 -2.5389404296875 8.0814208984375
73.755615234375 -11.742919921875 1.310546875
-47.30712890625 0.0621337890625 21.1697998046875
16.610107421875 -34.95361328125 31.9833984375
-8.152099609375 -1.9527587890625 8.9202880859375
-40.410400390625 -8.337890625 13.5863037109375
-26.862548828125 15.6953125 6.5006103515625
56.043701171875 34.2197265625 -4.6075439453125
74.2958984375 -29.9739990234375 12.63525390625
84.494873046875 0.4049072265625 -6.76416015625
-15.523681640625 3.7255859375 6.118896484375
101.725830078125 -19.5213623046875 17.4886474609375
-52.600341796875 -23.68603515625 31.4317626953125
-78.25390625 -34.2333984375 19.7408447265625
80.3798828125 -26.1348876953125 8.67529296875
43.427001953125 31.57861328125 -4.286376953125
39.411376953125 24.150146484375 -4.34423828125
37.330322265625 36.826416015625 -4.0418701171875
101.13916015625 -26.1717529296875 18.9952392578125
69.859375 -45.1976318359375 18.4844970703125
46.215576171875 27.9052734375 -4.4417724609375
-4.19775390625 25.2764892578125 3.0792236328125
-57.814453125 -22.70751953125 30.52392578125
77.722900390625 -4.225830078125 15.620849609375
-75.40771484375 -46.4722900390625 26.0400390625
10.787109375 -17.2347412109375 23.91748046875
47.81103515625 13.94287109375 -3.27587890625
78.655517578125 -17.8807373046875 6.1220703125
-19.09765625 2.1617431640625 7.07373046875
-43.637451171875 -19.7630615234375 27.6612548828125
32.514404296875 -15.566650390625 22.7828369140625
71.420166015625 -35.559326171875 5.6639404296875
1.826416015625 7.6253662109375 4.29638671875
103.001220703125 -33.82421875 20.9061279296875
82.4375 14.6593017578125 -9.765869140625
72.470458984375 -1.15771484375 -3.5361328125
-22.30029296875 -18.5562744140625 24.2060546875
-74.429931640625 -43.9622802734375 23.1834716796875
42.72998046875 9.40234375 -4.217041015625
67.3232421875 -35.24169921875 10.8387451171875
13.57568359375 8.1055908203125 13.296142578125
-33.04638671875 -16.802978515625 12.55908203125
80.2626953125 1.7158203125 -4.1337890625
58.131103515625 -1.8489990234375 5.714111328125
-86.02197265625 -36.0535888671875 29.825439453125
0.557373046875 -6.1405029296875 13.0526123046875
-9.6328125 -33.6878662109375 32.9805908203125
-27.572265625 0.663818359375 16.0145263671875
37.36376953125 6.1534423828125 -3.4478759765625
-14.473388671875 -33.96923828125 33.59521484375
100.065673828125 -14.7314453125 -1.8330078125
-79.985595703125 -41.6827392578125 21.8585205078125
51.7138671875 32.5120849609375 -4.3897705078125
88.8193359375 -24.7784423828125 13.0936279296875
82.995361328125 21.2738037109375 -12.56640625
-9.64599609375 -42.257080078125 36.773681640625
82.799560546875 -6.3363037109375 -3.3543701171875
49.877197265625 7.3267822265625 -3.7523193359375
36.33203125 1.7125244140625 8.7547607421875
4.947509765625 -1.6920166015625 8.3233642578125
29.834716796875 -9.5181884765625 16.639404296875
3.471435546875 -18.7523193359375 24.5108642578125
94.964599609375 -34.9361572265625 12.222900390625
58.927978515625 -11.7296142578125 18.466796875
72.691162109375 24.5181884765625 -12.795654296875
-55.370361328125 -18.228515625 26.0233154296875
5.309326171875 -10.3653564453125 17.435546875
61.420654296875 -6.1461181640625 12.1734619140625
-36.123046875 -10.74853515625 10.6746826171875
66.626708984375 -24.6607666015625 14.1427001953125
21.217529296875 -12.3514404296875 20.1844482421875
70.98486328125 -31.422607421875 8.6466064453125
61.816162109375 13.923583984375 -4.573486328125
-25.494873046875 8.152587890625 5.8492431640625
50.71435546875 -0.93359375 4.3328857421875
-80.37109375 -33.9281005859375 22.8011474609375
101.519287109375 -2.3082275390625 1.95556640625
101.29443359375 -9.238525390625 4.5750732421875
44.13037109375 -8.041748046875 15.0107421875
102.46435546875 -16.4097900390625 15.525634765625
68.08740234375 -8.3984375 14.4993896484375
-45.982666015625 -10.678466796875 17.6328125
103.40087890625 -21.421875 4.7269287109375
50.5517578125 18.110107421875 -2.1961669921875
-11.798095703125 24.05419921875 4.21533203125
78.150390625 15.0145263671875 -12.1097412109375
64.47021484375 -29.8267822265625 16.3529052734375
96.298095703125 -29.4014892578125 14.6695556640625
81.15283203125 -29.6375732421875 9.8167724609375
16.70849609375 -12.1842041015625 14.95849609375
92.495361328125 -33.866455078125 9.5731201171875
-41.530029296875 -17.735107421875 25.4483642578125
65.30029296875 -17.953125 21.98876953125
65.001953125 -34.6776123046875 18.75439453125
-46.98193359375 -14.328125 22.1961669921875
34.154296875 3.7548828125 1.4158935546875
55.73681640625 -3.511962890625 8.1728515625
-83.7177734375 -30.5892333984375 20.576904296875
98.26611328125 -24.292236328125 3.6312255859375
56.998291015625 3.9859619140625 -2.694091796875
-16.941650390625 -7.908203125 13.1121826171875
88.169677734375 13.8428955078125 -8.98388671875
89.439697265625 -35.802734375 6.8831787109375
5.58056640625 -4.5712890625 12.7916259765625
77.685302734375 -34.1373291015625 7.2132568359375
-13.837646484375 -10.8223876953125 15.6016845703125
-35.424072265625 -5.2308349609375 12.8873291015625
72.42578125 10.0875244140625 -8.73583984375
34.7578125 -13.45556640625 20.7518310546875
-23.54638671875 13.6866455078125 5.1910400390625
-10.072265625 8.0970458984375 6.03369140625
15.292236328125 3.528076171875 9.0028076171875
64.028076171875 -31.8603515625 24.1978759765625
12.46875 -7.5400390625 12.5037841796875
-74.63720703125 -30.786376953125 18.253662109375
-6.400390625 18.88427734375 4.186767578125
-84.85009765625 -45.1490478515625 24.42626953125
36.17431640625 12.6942138671875 -3.907958984375
-5.098388671875 -18.0704345703125 21.729736328125
103.127197265625 -11.7501220703125 -4.1058349609375
34.605712890625 -4.5247802734375 11.5828857421875
44.182373046875 22.1304931640625 -4.4569091796875
59.6845703125 27.64306640625 -4.271728515625
46.632080078125 -4.2513427734375 10.3125
6.017578125 -28.5540771484375 28.457763671875
13.932861328125 -13.699462890625 10.2451171875
27.892578125 -12.4703369140625 19.95166015625
8.586181640625 -23.933837890625 26.098388671875
99.66943359375 -6.9949951171875 -3.1640625
-6.38916015625 -39.3343505859375 34.796630859375
-6.187255859375 -23.6214599609375 28.5872802734375
-17.4970703125 -23.3414306640625 29.258056640625
70.07373046875 -39.6688232421875 11.92529296875
84.781005859375 -18.79931640625 3.1009521484375
-73.894287109375 -39.3709716796875 18.2237548828125
-83.793701171875 -37.702392578125 16.361572265625
-43.060546875 -9.1221923828125 16.3466796875
79.287109375 -40.1929931640625 7.3782958984375
103.0263671875 -17.853271484375 0.689453125
-27.24365234375 -7.767333984375 15.0546875
82.45947265625 -38.0556640625 5.2430419921875
-8.549560546875 -4.7860107421875 11.6290283203125
20.773193359375 5.1552734375 10.9718017578125
83.03076171875 28.339599609375 -13.318359375
102.671142578125 -12.4447021484375 15.0150146484375
80.173583984375 -21.76416015625 6.1328125
-25.07763671875 -4.5693359375 12.1690673828125
75.529296875 -35.6644287109375 4.9306640625
-73.95654296875 -31.0341796875 14.83837890625
-7.308349609375 2.8597412109375 5.343994140625
87.625732421875 -39.3218994140625 9.50390625
70.45947265625 -44.591552734375 22.413330078125
-3.76611328125 4.8424072265625 5.0748291015625
-31.863037109375 -5.280517578125 12.9117431640625
65.43701171875 -31.380615234375 11.7578125
28.313232421875 -5.6925048828125 11.6748046875
-10.358154296875 15.2572021484375 3.6954345703125
4.052978515625 14.0760498046875 4.010009765625
21.546875 1.0089111328125 8.341552734375
84.657958984375 -34.3472900390625 6.7779541015625
-11.427734375 19.738525390625 6.666015625
35.32373046875 -1.6070556640625 6.4376220703125
-79.234375 -35.0623779296875 14.2540283203125
73.74072265625 -22.1090087890625 8.7486572265625
-6.181396484375 -15.5321044921875 19.6644287109375
-71.047119140625 -20.9388427734375 23.648193359375
12.173828125 -2.1844482421875 11.0771484375
35.358642578125 -1.610595703125 13.528076171875
-36.751220703125 -14.74658203125 13.0882568359375
50.098388671875 35.7767333984375 -4.6480712890625
77.284423828125 -7.9674072265625 -0.9920654296875
-20.459716796875 15.6929931640625 5.9185791015625
-0.81103515625 24.9171142578125 3.386962890625
57.250732421875 -26.37646484375 21.6065673828125
19.513427734375 -6.0018310546875 13.9052734375
85.532470703125 8.365966796875 -9.654296875
21.635009765625 -33.818115234375 31.3465576171875
37.543212890625 27.0 -4.287109375
72.81787109375 32.2232666015625 -16.2010498046875
6.67041015625 -13.3226318359375 19.917724609375
81.210205078125 -8.45361328125 -0.5450439453125
100.547119140625 -10.489501953125 1.5096435546875
82.332275390625 3.373046875 -6.250244140625
73.50146484375 -12.8663330078125 19.4609375
-32.2822265625 -17.70361328125 15.931396484375
-9.516357421875 -29.4500732421875 31.3109130859375
2.356201171875 -14.527587890625 22.4027099609375
52.365966796875 -3.4727783203125 8.3841552734375
-24.291748046875 -11.874267578125 17.4188232421875
73.4423828125 28.5294189453125 -15.9759521484375
-82.072998046875 -33.973876953125 17.4781494140625
79.23779296875 36.3277587890625 -18.5133056640625
73.499267578125 21.177978515625 -13.710205078125
-80.868896484375 -45.049560546875 26.051513671875
11.020751953125 -14.5245361328125 13.4139404296875
100.33544921875 -19.2900390625 9.1336669921875
1.7216796875 1.17626953125 5.8699951171875
62.19091796875 -11.35009765625 17.9857177734375
51.5654296875 4.0213623046875 -2.652099609375
54.187255859375 -29.8853759765625 25.600830078125
93.8447265625 -27.5140380859375 12.7523193359375
-74.618408203125 -35.185302734375 13.3441162109375
82.44921875 -14.8731689453125 1.263427734375
-8.432861328125 -18.88232421875 24.2469482421875
73.4111328125 -5.45556640625 13.18359375
33.265380859375 17.58642578125 -4.0213623046875
-31.68310546875 -11.6842041015625 14.3084716796875
21.754150390625 -30.77783203125 29.7994384765625
-39.178466796875 -16.135009765625 23.7840576171875
33.828369140625 22.0782470703125 -3.97314453125
-66.27490234375 -19.9761962890625 26.87451171875
57.332275390625 -6.5203857421875 12.896728515625
-34.14794921875 0.7174072265625 11.754150390625
-35.17724609375 4.3233642578125 15.0052490234375
-14.013427734375 -38.6689453125 35.5152587890625
-10.785888671875 -23.08935546875 28.7421875
-75.486328125 -28.1217041015625 20.2156982421875
17.8359375 -29.737548828125 28.060546875
76.151611328125 -47.485107421875 16.3416748046875
106.63134765625 -26.888916015625 9.75634765625
-23.975341796875 22.0050048828125 5.05517578125
100.621826171875 -23.044677734375 18.243896484375
102.22509765625 -17.48779296875 4.525634765625
-16.910888671875 -2.65771484375 9.6082763671875
72.741455078125 -4.526611328125 -1.6717529296875
78.717041015625 -2.9071044921875 -3.356201171875
40.421142578125 3.2783203125 -1.676513671875
6.88720703125 1.953369140625 8.37109375
72.505126953125 6.7734375 -7.1634521484375
85.82958984375 26.2396240234375 -14.3375244140625
86.46923828125 -24.181396484375 9.836181640625
-18.53662109375 -18.6495361328125 24.3994140625
3.210693359375 -35.7684326171875 32.21044921875
-41.4404296875 3.173828125 14.8629150390625
46.85888671875 -9.7994384765625 16.970458984375
65.013427734375 -19.5908203125 18.5111083984375
49.4677734375 11.443603515625 -4.433837890625
-1.7119140625 -4.0587158203125 10.604736328125
-2.022705078125 -10.2440185546875 17.7667236328125
87.61376953125 -44.335205078125 13.9437255859375
66.02001953125 -39.2275390625 22.66064453125
108.111083984375 -33.015625 18.9849853515625
54.291015625 2.76611328125 -1.5302734375
72.5107421875 -17.765869140625 6.9207763671875
6.855224609375 -16.5157470703125 14.4385986328125
46.638427734375 -6.3701171875 12.6737060546875
58.8828125 -13.913330078125 20.7613525390625
102.82763671875 -16.9266357421875 18.9320068359375
10.543701171875 -18.387451171875 20.1341552734375
60.097412109375 -25.2789306640625 25.1561279296875
100.57421875 -25.455078125 10.9814453125
102.5458984375 -7.9822998046875 7.6185302734375
-40.35595703125 -13.5880126953125 18.43310546875
60.09814453125 20.580078125 -4.27685546875
-15.808837890625 19.6475830078125 4.4200439453125
72.82373046875 -23.6251220703125 17.1439208984375
4.507080078125 5.9959716796875 4.145263671875
-12.734619140625 -1.0972900390625 8.035400390625
1.440673828125 -23.800537109375 27.8387451171875
-18.554443359375 -14.054443359375 19.7958984375
69.138916015625 -35.1810302734375 8.269287109375
-57.202880859375 -15.8089599609375 26.7572021484375
-14.753662109375 11.305419921875 5.7147216796875
84.426025390625 -44.120361328125 12.4376220703125
100.05615234375 -3.6029052734375 9.2218017578125
74.530517578125 -20.28857421875 20.3267822265625
83.608154296875 -31.05517578125 11.07958984375
40.61767578125 -5.86572265625 12.5645751953125
-22.65625 7.760009765625 7.028076171875
-21.92919921875 -3.404296875 11.2667236328125
-75.1044921875 -41.47314453125 21.471923828125
-39.7841796875 -0.0203857421875 11.967529296875
8.86279296875 -37.7386474609375 33.7958984375
58.581787109375 15.59033203125 -4.218505859375
33.71728515625 -4.109619140625 14.88525390625
44.06005859375 3.25 -2.0859375
75.81494140625 -47.34130859375 21.1336669921875
42.62744140625 -0.8526611328125 4.062744140625
-44.672119140625 0.823974609375 15.5006103515625
39.98388671875 -13.123779296875 20.375
53.003662109375 0.29296875 1.772216796875
-85.28759765625 -40.045166015625 17.86572265625
-36.103515625 -20.3787841796875 28.479736328125
72.76025390625 1.3507080078125 -5.304931640625
-2.900390625 -22.8468017578125 27.66943359375
-15.320068359375 -4.697021484375 11.80322265625
54.603271484375 13.51318359375 -4.181884765625
102.46435546875 -10.6522216796875 12.5474853515625
40.61328125 -2.079345703125 6.2987060546875
73.638671875 -26.0518798828125 11.6260986328125
88.309814453125 20.0565185546875 -12.3226318359375
-4.588134765625 10.8494873046875 3.48193359375
72.99267578125 -15.1756591796875 4.6385498046875
-87.34521484375 -37.39892578125 13.595947265625
56.897216796875 -9.090576171875 15.3448486328125
-12.156494140625 -13.3486328125 18.841064453125
-19.81982421875 -8.674560546875 13.70556640625
10.2509765625 2.3427734375 10.1209716796875
6.705078125 -20.515380859375 25.2293701171875
5.032470703125 -25.10888671875 26.604736328125
44.35595703125 34.4620361328125 -4.408935546875
76.3349609375 2.9862060546875 -7.4334716796875
-79.751220703125 -47.191162109375 27.8701171875
98.283203125 -25.2490234375 6.496337890625
-75.037353515625 -33.5533447265625 19.389892578125
62.096435546875 -19.1951904296875 22.6170654296875
0.043212890625 -12.36962890625 19.867919921875
79.9931640625 33.5382080078125 -16.7799072265625
90.223388671875 -28.668701171875 11.4481201171875
40.937744140625 12.2806396484375 -4.0299072265625
53.79443359375 29.2403564453125 -4.1827392578125
-47.1552734375 -18.8450927734375 26.73583984375
58.94970703125 0.238525390625 1.6959228515625
72.12890625 4.29638671875 -4.104736328125
-72.55712890625 -24.654541015625 19.06982421875
-83.041748046875 -41.53125 21.509765625
2.318115234375 -29.743408203125 29.56982421875
14.995361328125 -0.9818115234375 10.1981201171875
64.725830078125 -8.3509521484375 14.8419189453125
-2.24169921875 -38.167724609375 33.645751953125
77.386962890625 10.0511474609375 -10.29638671875
98.19970703125 1.6165771484375 4.5362548828125
7.21435546875 -7.0645751953125 14.0587158203125
-2.36279296875 -33.0281982421875 31.5325927734375
-87.2353515625 -29.3333740234375 21.082275390625
34.75390625 0.8709716796875 1.6485595703125
-3.910888671875 -6.0731201171875 12.541259765625
-5.260986328125 -1.9842529296875 8.325439453125
1.627685546875 10.84619140625 3.8853759765625
-16.9931640625 -21.2103271484375 26.57275390625
101.121337890625 -13.8468017578125 -4.6080322265625
35.468505859375 2.12109375 5.8271484375
-33.330810546875 -11.6126708984375 11.8741455078125
-10.68115234375 -7.201904296875 13.6956787109375
65.1455078125 -13.5894775390625 20.1392822265625
-20.77734375 -16.083984375 21.7464599609375
86.312255859375 -28.599365234375 12.6090087890625
85.220458984375 -12.3402099609375 -0.6680908203125
-35.374267578125 -3.6588134765625 16.5953369140625
58.705810546875 33.02880859375 -4.3348388671875
36.775634765625 33.9510498046875 -4.10107421875
-73.254638671875 -40.7977294921875 15.751220703125
0.566650390625 -33.510986328125 30.8052978515625
-80.5263671875 -30.6810302734375 20.2337646484375
76.72412109375 -21.3004150390625 7.8343505859375
-12.625 8.48779296875 4.6728515625
-3.5302734375 18.0526123046875 2.7724609375
41.590087890625 16.38818359375 -3.8486328125
-38.922607421875 -16.686279296875 13.19970703125
-20.28515625 25.180908203125 4.3492431640625
-26.002685546875 -13.0887451171875 19.43505859375
-15.74658203125 26.38427734375 3.5579833984375
-7.896484375 -11.3475341796875 16.3912353515625
79.158203125 -31.45654296875 13.659423828125
36.588134765625 31.0748291015625 -4.3409423828125
39.02734375 17.583740234375 -4.8189697265625
12.166015625 -29.9954833984375 28.314208984375
-64.102294921875 -24.5950927734375 32.1541748046875
-18.5859375 9.313720703125 5.33740234375
101.27099609375 -17.6243896484375 11.7855224609375
53.2861328125 -23.7945556640625 24.8839111328125
-16.614013671875 16.4654541015625 4.66552734375
-6.812255859375 -36.2938232421875 33.0238037109375
72.23828125 -8.899658203125 15.2904052734375
51.394775390625 -6.43896484375 13.06591796875
-62.04736328125 -20.1075439453125 27.6978759765625
55.28466796875 -27.7027587890625 24.099853515625
34.762939453125 36.8531494140625 -2.7745361328125
37.9560546875 21.685302734375 -4.3031005859375
67.4619140625 -29.2457275390625 10.1927490234375
6.91552734375 -14.10009765625 17.00244140625
25.181396484375 -3.5799560546875 12.86083984375
99.81298828125 -26.0528564453125 16.468994140625
63.962890625 -28.7567138671875 22.4915771484375
47.154541015625 16.447998046875 -2.088134765625
-50.172119140625 -21.279541015625 29.892578125
0.58984375 28.551025390625 3.3460693359375
55.593994140625 10.61376953125 -4.1353759765625
85.745361328125 2.92138671875 -7.2078857421875
-13.55078125 1.713134765625 6.4586181640625
47.83154296875 -11.9622802734375 18.5299072265625
68.33056640625 -42.027099609375 16.9444580078125
74.044189453125 29.1717529296875 -11.012451171875
-11.822509765625 -36.177734375 34.24755859375
87.756591796875 34.1475830078125 -15.3138427734375
-18.042724609375 -12.7823486328125 16.341064453125
37.915283203125 -9.6539306640625 16.9906005859375
94.33349609375 -26.828369140625 17.7938232421875
99.8623046875 -21.7978515625 5.7056884765625
23.442626953125 5.9720458984375 11.4010009765625
101.786865234375 -4.4761962890625 3.741455078125
80.4755859375 -42.519287109375 9.8131103515625
24.326904296875 0.5714111328125 8.186279296875
62.778076171875 -22.97412109375 18.29931640625
57.540771484375 24.7093505859375 -4.43798828125
-39.521484375 -6.385009765625 15.3990478515625
-6.38037109375 21.690673828125 4.1680908203125
-13.65673828125 14.4888916015625 5.1632080078125
87.19189453125 10.477294921875 -8.8531494140625
-25.421630859375 18.4539794921875 5.780517578125
-30.617919921875 -17.805908203125 18.4027099609375
78.35107421875 19.1431884765625 -13.2835693359375
-69.36181640625 -21.837646484375 25.6795654296875
-22.529541015625 -21.8890380859375 26.552490234375
-73.231201171875 -46.9974365234375 21.0333251953125
47.335205078125 20.5157470703125 -4.1046142578125
8.974853515625 -2.9683837890625 11.282470703125
72.268310546875 -44.61865234375 14.4395751953125
82.401611328125 7.5465087890625 -9.0067138671875
107.483154296875 -31.572265625 16.679931640625
-83.533203125 -35.00634765625 23.278564453125
75.836181640625 26.4559326171875 -16.802734375
101.060302734375 -12.29345703125 6.4317626953125
-26.257080078125 -9.4151611328125 17.0517578125
64.192626953125 -35.78564453125 24.514404296875
39.484375 34.3858642578125 -4.4124755859375
70.57275390625 -25.692626953125 16.1656494140625
82.779052734375 -47.652099609375 14.6058349609375
75.561279296875 -6.6632080078125 -2.6943359375
-48.192138671875 -6.7081298828125 21.3028564453125
26.1015625 -15.873779296875 23.5711669921875
-6.7001953125 18.5634765625 6.9766845703125
86.6904296875 -33.2464599609375 9.56494140625
82.278076171875 33.659423828125 -15.091552734375
101.935546875 -23.58203125 5.64990234375
-85.40869140625 -34.02294921875 28.1009521484375
-7.546875 0.4564208984375 6.6243896484375
-1.2587890625 0.80029296875 6.3408203125
-34.037841796875 -19.1708984375 27.1180419921875
70.676025390625 -45.475341796875 29.7296142578125
5.265380859375 -37.58642578125 33.3798828125
-33.02685546875 6.73388671875 17.5347900390625
-76.47998046875 -36.8062744140625 15.9490966796875
63.891845703125 -27.7713623046875 19.2806396484375
-85.03955078125 -40.509765625 31.41015625
75.94677734375 -16.93359375 4.4801025390625
91.63818359375 -23.05224609375 11.117431640625
57.713623046875 36.331787109375 -4.384033203125
52.801025390625 18.8939208984375 -4.009765625
3.44580078125 24.0933837890625 1.9501953125
15.2666015625 -10.0771484375 14.0877685546875
76.516357421875 -11.7847900390625 0.864013671875
56.291015625 -21.2547607421875 23.963134765625
75.214111328125 31.76904296875 -17.730224609375
-9.1181640625 10.4871826171875 5.2265625
56.223388671875 -13.4173583984375 19.807373046875
-9.010986328125 5.6802978515625 5.517333984375
99.424072265625 -10.208984375 16.4130859375
5.93212890625 -31.5191650390625 29.22900390625
-20.96142578125 -11.1043701171875 15.938720703125
29.968505859375 -7.4044189453125 14.416748046875
-3.22802734375 -27.4954833984375 29.799072265625
-47.731201171875 -5.092529296875 17.5118408203125
105.311767578125 -36.6422119140625 22.601806640625
91.42626953125 -31.2303466796875 9.516357421875
65.27099609375 -37.29443359375 19.199951171875
59.00634765625 10.19091796875 -4.2347412109375
75.806396484375 -6.766845703125 11.438232421875
80.63818359375 6.745849609375 -6.5106201171875
100.169677734375 -21.993896484375 12.5389404296875
-17.92333984375 21.2357177734375 4.64892578125
-12.89501953125 20.8707275390625 4.7669677734375
61.870849609375 -3.1575927734375 6.784912109375
70.219970703125 -21.874267578125 18.614990234375
-41.0185546875 -19.4193115234375 27.537353515625
11.84130859375 -27.82470703125 26.8406982421875
-41.832275390625 -1.5791015625 11.38671875
56.30224609375 -0.5706787109375 3.7239990234375
13.927490234375 -5.5076904296875 13.339599609375
78.955322265625 -27.039306640625 11.082763671875
-29.955078125 -6.914794921875 14.0936279296875
19.718505859375 3.4984130859375 9.236328125
53.739990234375 -9.908447265625 16.7200927734375
60.840087890625 7.2735595703125 -4.4244384765625
60.265869140625 -28.328369140625 25.4669189453125
78.65625 28.981689453125 -16.4559326171875
98.42236328125 -27.52490234375 21.9415283203125
40.55224609375 21.710693359375 -4.041259765625
51.619384765625 -14.2139892578125 21.3309326171875
-27.267578125 -18.0350341796875 24.279296875
101.94287109375 -16.4937744140625 -1.4344482421875
-10.684814453125 -16.732177734375 22.5806884765625
78.330078125 1.721435546875 -6.07763671875
15.25 1.0640869140625 8.1717529296875
100.863525390625 -14.9422607421875 9.0533447265625
-0.552978515625 20.109619140625 3.93701171875
-3.147216796875 -13.10498046875 18.330810546875
84.707763671875 -4.6644287109375 -4.3016357421875
103.820068359375 -23.6829833984375 7.4271240234375
82.32470703125 10.4801025390625 -9.157958984375
-82.053466796875 -35.794921875 15.4964599609375
-18.3486328125 -0.238525390625 7.689208984375
45.274658203125 -14.0975341796875 21.656982421875
-5.7646484375 27.2835693359375 3.517822265625
85.91357421875 19.1939697265625 -12.7506103515625
-10.695556640625 28.036376953125 3.658447265625
-76.748291015625 -33.6484375 22.4149169921875
-50.84912109375 -11.0460205078125 21.329833984375
5.875732421875 -9.5205078125 15.0728759765625
82.852783203125 -20.48876953125 4.0582275390625
99.79052734375 -8.7371826171875 -0.2073974609375
48.2021484375 26.2811279296875 -4.377197265625
76.29150390625 -38.3035888671875 6.0484619140625
-81.177978515625 -43.343017578125 24.1640625
71.9833984375 -6.638916015625 0.890625
-8.1953125 -31.6085205078125 32.0863037109375
81.8037109375 -24.3780517578125 6.2735595703125
36.84033203125 -3.2906494140625 8.87451171875
66.059814453125 -36.2923583984375 15.7769775390625
-36.990478515625 -7.1988525390625 13.3438720703125
-27.356201171875 -14.311279296875 21.279052734375
100.6845703125 -11.68359375 -5.89208984375
51.10546875 23.830078125 -4.4107666015625
-73.7958984375 -48.5032958984375 25.884521484375
41.455322265625 -11.851806640625 18.7244873046875
47.30322265625 0.3441162109375 1.397705078125
108.906982421875 -26.101806640625 10.5968017578125
77.774169921875 -13.1072998046875 2.640869140625
-22.69580078125 2.1912841796875 7.065185546875
-52.956298828125 -14.609375 22.5433349609375
-2.412109375 12.480712890625 4.87890625
33.773681640625 -6.1966552734375 13.428466796875
49.76123046875 -0.0928955078125 2.1307373046875
100.601318359375 -21.200927734375 15.2738037109375
-25.734619140625 24.4007568359375 5.916259765625
103.200439453125 -30.1776123046875 18.1900634765625
39.464111328125 0.82861328125 1.4090576171875
79.60791015625 -16.1583251953125 4.5274658203125
80.30908203125 -34.259033203125 7.982421875
105.05908203125 -33.8194580078125 19.287109375
74.081787109375 -11.111572265625 17.24853515625
104.874755859375 -28.198486328125 11.0201416015625
56.919189453125 27.5970458984375 -4.667724609375
39.545654296875 7.3675537109375 -3.8426513671875
80.555908203125 28.257080078125 -14.5775146484375
75.05712890625 16.235595703125 -12.8828125
86.8916015625 15.482421875 -10.708251953125
-17.903564453125 24.02001953125 4.6302490234375
82.6181640625 18.7940673828125 -11.65869140625
-23.4326171875 -0.585205078125 10.037109375
101.330810546875 -4.016357421875 -3.8062744140625
-45.55078125 -13.125244140625 20.5072021484375
41.740234375 -7.578125 14.36865234375
54.76123046875 -26.74072265625 21.7022705078125
69.21044921875 -26.4481201171875 14.1904296875
-4.512451171875 -8.5396728515625 15.7337646484375
33.173828125 -1.99951171875 7.6761474609375
-43.6845703125 -21.435791015625 29.5303955078125
-31.08154296875 -0.505859375 11.699462890625
79.14501953125 -45.6795654296875 13.138671875
35.65869140625 15.1436767578125 -4.00244140625
46.3291015625 7.339111328125 -3.9132080078125
-21.389404296875 20.032470703125 4.91064453125
73.310302734375 -19.6484375 13.2783203125
-38.158935546875 5.1492919921875 16.1495361328125
73.111572265625 34.6845703125 -16.527587890625
1.72705078125 -1.2509765625 8.392333984375
102.669921875 -19.1649169921875 20.219482421875
45.969970703125 -1.7197265625 5.4290771484375
99.955810546875 -15.9727783203125 -4.0260009765625
72.887451171875 23.77880859375 -10.42431640625
75.95166015625 -27.84814453125 12.0001220703125
84.56640625 -33.673095703125 10.9964599609375
63.43359375 -23.06640625 20.82373046875
36.296630859375 3.7147216796875 -2.0552978515625
24.4013671875 -7.325927734375 14.850830078125
72.614990234375 26.997314453125 -12.9412841796875
-3.5302734375 7.6513671875 4.61865234375
14.616943359375 -36.1971435546875 32.787109375
33.953125 11.462158203125 -4.341552734375
34.867919921875 6.9813232421875 -3.5863037109375
-37.999267578125 -10.3426513671875 12.241455078125
83.388427734375 30.3548583984375 -14.92138671875
101.9921875 -20.0234375 2.1595458984375
0.4013671875 -15.7091064453125 21.4442138671875
-7.720703125 14.876953125 4.3583984375
68.642578125 -11.8985595703125 18.407470703125
-84.888916015625 -37.112060546875 13.5809326171875
73.195556640625 -31.9599609375 9.610107421875
10.00439453125 -7.501220703125 12.3375244140625
-24.49365234375 -6.9903564453125 13.365478515625
5.421630859375 -14.1651611328125 21.9439697265625
55.108154296875 19.724365234375 -4.275390625
42.466796875 24.1829833984375 -4.1339111328125
49.414306640625 14.8094482421875 -1.624267578125
-2.179443359375 14.8857421875 4.4251708984375
100.854736328125 -16.555908203125 2.7100830078125
-36.80224609375 -18.4925537109375 19.478515625
-12.796142578125 -20.054443359375 25.7098388671875
11.282958984375 -34.30810546875 31.1275634765625
83.411865234375 -17.0352783203125 1.9080810546875
-49.0224609375 -17.5633544921875 25.508544921875
68.45654296875 -37.463134765625 11.7799072265625
99.704345703125 -26.8504638671875 14.1578369140625
51.51953125 30.019287109375 -4.6348876953125
31.335205078125 -13.3914794921875 20.7972412109375
42.13671875 29.5228271484375 -3.98779296875
94.759033203125 -25.007568359375 15.41552734375
67.508544921875 -21.781494140625 17.666015625
77.759765625 7.1455078125 -9.044677734375
80.463134765625 -2.929443359375 -1.6624755859375
63.7861328125 -25.3299560546875 23.719482421875
64.005126953125 -32.023193359375 28.08154296875
100.521240234375 -4.4478759765625 -0.0142822265625
84.00634765625 -36.3599853515625 4.4739990234375
72.250732421875 -14.798095703125 7.9691162109375
81.6630859375 -4.207275390625 -3.5308837890625
-20.119873046875 13.302734375 5.7584228515625
45.694091796875 30.7744140625 -4.53955078125
-11.782958984375 -39.5771484375 35.309326171875
22.16064453125 -1.46923828125 11.0064697265625
100.880615234375 -13.0679931640625 0.5936279296875
7.126953125 -15.245849609375 12.4053955078125
74.044677734375 -4.150390625 6.677734375
-85.969482421875 -36.57958984375 32.1741943359375
61.57177734375 0.213134765625 1.1199951171875
39.2109375 -4.5810546875 11.097412109375
72.781982421875 -23.8675537109375 11.1014404296875
-3.532470703125 -16.03125 21.123779296875
17.90478515625 -3.90478515625 12.7657470703125
-53.09326171875 -17.0374755859375 24.2431640625
-34.486572265625 -14.777099609375 12.293212890625
100.160888671875 -15.6337890625 0.3883056640625
71.995361328125 15.902099609375 -9.42822265625
101.350830078125 -11.566650390625 16.853515625
-40.552734375 -13.6312255859375 20.8216552734375
-7.84228515625 26.4091796875 2.2550048828125
14.2060546875 -11.6707763671875 11.4859619140625
-30.49169921875 -13.7359619140625 15.85498046875
36.2529296875 23.729248046875 -3.9815673828125
-77.474365234375 -46.8555908203125 27.2198486328125
106.5576171875 -21.041259765625 3.9384765625
16.7783203125 -5.959716796875 13.328369140625
92.56396484375 -2.213134765625 2.0191650390625
32.936279296875 -3.2490234375 10.4468994140625
57.87890625 -3.9630126953125 9.124267578125
-53.842529296875 -13.434814453125 24.43896484375
-23.843017578125 -17.265380859375 22.9248046875
-61.57373046875 -17.252197265625 24.7060546875
45.13671875 19.6932373046875 -3.7100830078125
73.244384765625 25.6851806640625 -14.8231201171875
-10.37451171875 -1.5245361328125 8.19189453125
78.279296875 30.988037109375 -17.674560546875
-47.990234375 -5.9329833984375 23.6490478515625
-77.776123046875 -30.753662109375 19.8033447265625
80.075439453125 24.958251953125 -13.7998046875
77.751953125 -41.5040283203125 8.8914794921875
13.113037109375 2.7215576171875 8.535400390625
20.67822265625 -10.2144775390625 17.586181640625
-7.187744140625 9.2698974609375 4.60595703125
3.331298828125 -0.05078125 7.091552734375
84.504638671875 22.9281005859375 -13.3167724609375
-15.5224609375 -40.3232421875 36.2655029296875
44.212890625 5.708740234375 -3.383056640625
101.3759765625 -2.7418212890625 5.28271484375
8.8271484375 -15.9375 23.81103515625
97.680419921875 -29.0733642578125 16.543212890625
-46.8056640625 -7.8748779296875 16.7420654296875
-84.894775390625 -28.2305908203125 20.689697265625
86.08251953125 -26.7957763671875 10.7994384765625
-8.021728515625 -9.2923583984375 15.2581787109375
50.03076171875 -3.44580078125 8.632080078125
1.572509765625 14.4520263671875 2.905517578125
95.423095703125 -27.196533203125 14.898681640625
55.5732421875 7.71337890625 -4.115966796875
49.078369140625 19.7816162109375 -1.47412109375
-20.1982421875 -7.0428466796875 12.0684814453125
-74.2333984375 -32.509765625 21.3260498046875
14.663330078125 -33.9981689453125 31.1036376953125
-42.250732421875 -6.32666015625 13.3653564453125
64.324951171875 -24.612548828125 14.5281982421875
53.74951171875 -12.9444580078125 19.89990234375
66.16845703125 -35.3363037109375 13.6519775390625
74.109619140625 -21.9578857421875 18.2279052734375
-73.053955078125 -45.3260498046875 19.3804931640625
34.1181640625 -11.7236328125 18.8717041015625
63.830810546875 -30.6343994140625 26.2220458984375
1.14404296875 -19.5316162109375 24.6016845703125
-46.780517578125 -3.1141357421875 15.751708984375
0.300048828125 -26.29345703125 28.4097900390625
-22.316650390625 5.3697509765625 6.867919921875
-23.661865234375 10.130615234375 5.9027099609375
-4.21484375 22.8709716796875 3.09521484375
53.750244140625 23.0330810546875 -4.141357421875
12.068359375 -17.8670654296875 14.470458984375
45.015380859375 11.4473876953125 -4.489013671875
-46.028564453125 0.0462646484375 17.299072265625
32.13720703125 -9.5528564453125 16.4024658203125
73.70703125 -20.5728759765625 15.3629150390625
-72.753173828125 -35.17138671875 11.8143310546875
105.24462890625 -22.3634033203125 5.7503662109375
-15.598388671875 -14.5299072265625 20.2037353515625
92.512939453125 -27.9781494140625 14.5791015625
50.337158203125 -9.8553466796875 16.9156494140625
58.514892578125 18.90771484375 -4.3721923828125
71.797607421875 -19.7864990234375 20.1314697265625
92.022705078125 0.7869873046875 -0.162353515625
59.05224609375 5.215087890625 -3.3583984375
62.027099609375 -9.6083984375 16.17822265625
53.28076171875 34.1937255859375 -4.294921875
-5.468505859375 -27.021240234375 30.0145263671875
81.451416015625 -31.8482666015625 11.0045166015625
3.525390625 -9.091064453125 16.750732421875
87.023681640625 -1.7279052734375 -4.7218017578125
-30.22705078125 -3.70556640625 12.5867919921875
-49.36865234375 -10.6357421875 18.820556640625
82.813232421875 16.731201171875 -10.6751708984375
13.505615234375 -9.6171875 12.6920166015625
-21.0888671875 -14.4176025390625 20.20361328125
-45.53564453125 -15.5869140625 23.4521484375
2.3212890625 4.402099609375 5.2293701171875
72.458251953125 -10.9365234375 5.9981689453125
43.83203125 0.7899169921875 1.3514404296875
16.2666015625 7.6785888671875 13.01416015625
69.90380859375 -43.271240234375 30.103759765625
-23.957763671875 -22.3165283203125 28.2896728515625
86.86279296875 -7.2498779296875 -2.04931640625
85.332763671875 -41.3424072265625 8.5484619140625
-30.69873046875 3.0928955078125 15.0838623046875
100.933837890625 -20.1236572265625 7.09814453125
-10.30810546875 -11.7220458984375 17.0732421875
75.239013671875 14.18359375 -11.908203125
79.578369140625 9.6552734375 -8.6973876953125
-78.3359375 -34.110107421875 17.4703369140625
-74.518310546875 -37.699462890625 16.6732177734375
-11.322509765625 3.6973876953125 6.3363037109375
59.442626953125 -5.264892578125 11.4814453125
0.434326171875 -28.8140869140625 28.7081298828125
100.834716796875 -18.5755615234375 15.54541015625
68.89306640625 -18.0299072265625 21.945068359375
43.134765625 -9.311279296875 16.60302734375
-13.70068359375 -3.097900390625 9.6737060546875
-85.234375 -37.523193359375 27.5555419921875
16.7119140625 -31.8785400390625 29.5361328125
62.393798828125 -4.873291015625 10.57763671875
47.779296875 -0.9046630859375 3.64404296875
-52.40576171875 -21.6226806640625 29.833740234375
-86.036376953125 -38.4742431640625 30.945556640625
-3.916259765625 -29.58203125 30.323486328125
45.10595703125 24.18798828125 -4.573974609375
-1.90576171875 -16.9210205078125 22.4124755859375
10.574462890625 -11.9805908203125 9.3214111328125
-64.526123046875 -22.5108642578125 30.0677490234375
64.3203125 -33.0892333984375 22.328857421875
71.534912109375 -33.4776611328125 6.5252685546875
103.06494140625 -35.6727294921875 22.4935302734375
18.048095703125 -15.1591796875 17.30322265625
37.55859375 -7.9405517578125 14.8037109375
55.196533203125 32.1485595703125 -4.3582763671875
93.27294921875 -23.5732421875 12.6337890625
2.119384765625 -21.6881103515625 26.42919921875
48.606689453125 2.8056640625 -1.88818359375
26.701416015625 -9.891357421875 17.11083984375
100.182373046875 -8.7020263671875 -4.5345458984375
38.474365234375 4.107421875 -2.4437255859375
80.64404296875 -10.582275390625 0.8468017578125
-84.496826171875 -46.0870361328125 26.4359130859375
-68.1259765625 -22.331787109375 27.6348876953125
-17.04150390625 1.3446044921875 6.712646484375
-48.542236328125 -20.474853515625 28.5865478515625
74.0595703125 -2.013427734375 -4.8580322265625
78.326416015625 -34.9205322265625 5.21923828125
103.155517578125 -32.0023193359375 19.6190185546875
80.169677734375 21.267578125 -12.2391357421875
-7.786865234375 -13.86767578125 20.1075439453125
77.98095703125 23.64111328125 -15.228759765625
-58.161376953125 -18.1512451171875 25.61083984375
-13.09375 -4.72607421875 11.701416015625
71.923583984375 0.530517578125 -2.188720703125
-6.577392578125 24.079833984375 3.7650146484375
100.669921875 -17.1273193359375 9.5443115234375
73.6416015625 -6.273193359375 6.1405029296875
-36.372314453125 0.73828125 11.7247314453125
83.417236328125 36.5579833984375 -15.6630859375
21.6728515625 6.82080078125 12.447509765625
77.76611328125 12.11865234375 -11.201171875
50.24755859375 19.70458984375 -4.1485595703125
-2.841552734375 2.8243408203125 5.1214599609375
38.375244140625 29.043701171875 -4.533203125
-72.576904296875 -22.4854736328125 24.092041015625
-84.5029296875 -34.7213134765625 18.68017578125
5.488525390625 -3.334716796875 10.9505615234375
100.76171875 -14.465087890625 6.779052734375
83.854248046875 -24.8828125 6.9560546875
100.96142578125 -11.3936767578125 4.1708984375
-35.217041015625 -15.6048583984375 14.437744140625
17.274169921875 4.754638671875 9.9193115234375
-81.224609375 -48.737060546875 28.4443359375
73.23193359375 -40.5274658203125 9.806396484375
103.803466796875 -30.5556640625 16.10009765625
-73.967529296875 -26.2003173828125 19.77099609375
53.013427734375 -27.595703125 22.9456787109375
37.10546875 0.849853515625 1.5289306640625
100.780517578125 -21.5150146484375 10.47705078125
37.187744140625 16.7847900390625 -3.908203125
73.347412109375 7.9998779296875 -8.8291015625
-75.69873046875 -48.1363525390625 27.457763671875
42.653076171875 -4.201904296875 10.294189453125
-72.743896484375 -28.83349609375 16.6944580078125
-79.62158203125 -32.3292236328125 21.4940185546875
-18.163818359375 4.1500244140625 7.094970703125
44.23193359375 29.11376953125 -4.50341796875
88.49365234375 -37.5740966796875 8.497802734375
72.538330078125 -8.759765625 0.9881591796875
72.424560546875 -45.7177734375 25.3331298828125
102.517333984375 -14.2227783203125 16.2861328125
-43.85693359375 3.2052001953125 17.185546875
40.680908203125 27.866455078125 -3.952392578125
2.64599609375 -16.6190185546875 22.9697265625
80.003173828125 -19.6326904296875 6.5848388671875
102.865234375 -8.88232421875 10.1885986328125
67.692138671875 -9.6993408203125 16.2098388671875
73.09130859375 -13.455810546875 3.2950439453125
7.76123046875 -25.625 27.228515625
-86.03759765625 -41.6390380859375 19.154541015625
98.658935546875 -16.4097900390625 -2.260498046875
71.330322265625 -27.3973388671875 15.0379638671875
72.94580078125 -38.2783203125 7.8863525390625
12.859130859375 6.4462890625 12.0936279296875
64.199462890625 -28.8858642578125 14.4161376953125
85.776123046875 -20.14013671875 4.48681640625
-2.408935546875 24.0550537109375 2.199951171875
66.398681640625 -31.3123779296875 9.424560546875
79.634033203125 -24.4334716796875 9.7933349609375
100.226318359375 -25.269287109375 5.5369873046875
8.919677734375 -10.75341796875 11.33447265625
48.273681640625 1.5750732421875 -0.1414794921875
103.63623046875 -26.891357421875 12.2169189453125
-38.928955078125 3.153076171875 14.591064453125
35.290283203125 26.5792236328125 -4.0274658203125
16.749267578125 -18.110595703125 20.0848388671875
84.968994140625 14.6287841796875 -11.195068359375
-8.956787109375 13.2977294921875 5.466552734375
-25.049560546875 -8.6044921875 14.96337890625
-38.248779296875 -20.3316650390625 28.694091796875
-34.0224609375 -0.8720703125 10.248291015625
-23.9228515625 -13.5274658203125 19.0787353515625
-73.787353515625 -42.5772705078125 19.5782470703125
-26.0283203125 -11.0516357421875 18.4400634765625
-3.15869140625 -2.0086669921875 8.791259765625
-48.337158203125 -9.0821533203125 20.08349609375
-77.12451171875 -42.1829833984375 21.6915283203125
67.192626953125 -39.3502197265625 15.982666015625
-24.37548828125 15.66943359375 5.27294921875
-15.45263671875 13.7088623046875 6.0523681640625
73.1513671875 -28.2420654296875 13.19482421875
46.205322265625 -7.64404296875 14.350341796875
80.834228515625 -15.292724609375 2.6181640625
72.1005859375 17.96630859375 -10.017333984375
-40.538330078125 -13.9193115234375 15.2781982421875
61.198974609375 -7.8641357421875 14.1484375
18.707763671875 -7.6580810546875 15.0118408203125
-33.495849609375 2.3065185546875 13.044677734375
-47.641357421875 -15.9466552734375 23.67236328125
-0.885498046875 -23.740966796875 27.919189453125
56.029541015625 -29.89697265625 24.5006103515625
14.5947265625 -7.9964599609375 13.7147216796875
-71.454345703125 -20.9952392578125 25.753662109375
18.396728515625 6.002685546875 11.79345703125
76.225830078125 -30.885009765625 12.4423828125
-60.1376953125 -22.6336669921875 30.1905517578125
100.76708984375 -18.7774658203125 5.4417724609375
101.606689453125 -9.12158203125 -7.470947265625
-83.8447265625 -43.1282958984375 22.6837158203125
50.397705078125 13.50341796875 -4.551513671875
72.4248046875 6.3878173828125 -4.4371337890625
99.727783203125 -22.9666748046875 16.3035888671875
53.158203125 -2.63671875 6.543701171875
-0.248046875 -8.199462890625 15.8524169921875
-23.25048828125 23.9786376953125 4.6912841796875
-24.403076171875 -18.516357421875 24.5631103515625
69.4638671875 -30.126953125 9.393310546875
-59.029052734375 -23.922607421875 31.7872314453125
37.35302734375 -1.6282958984375 5.7877197265625
91.175048828125 -22.9796142578125 9.0389404296875
-76.056640625 -38.884765625 18.052978515625
-29.34033203125 1.477294921875 14.2545166015625
-38.72509765625 -18.31396484375 14.558349609375
-61.175537109375 -23.4639892578125 31.8560791015625
73.633056640625 10.4697265625 -10.573486328125
72.322509765625 -22.6378173828125 13.397216796875
87.55859375 31.245849609375 -14.8507080078125
59.83740234375 -1.4456787109375 4.5079345703125
82.205078125 -26.1474609375 7.5858154296875
49.269287109375 -5.9803466796875 12.102294921875
86.695068359375 12.9736328125 -10.2427978515625
84.520751953125 34.4676513671875 -16.2012939453125
0.775390625 -3.2745361328125 10.0498046875
6.73486328125 -0.0814208984375 8.9622802734375
90.876953125 -27.44189453125 13.05322265625
99.68603515625 -25.8055419921875 9.086669921875
8.75927734375 -33.7911376953125 30.9154052734375
21.883544921875 3.0684814453125 8.863037109375
49.360595703125 18.202880859375 1.2083740234375
-53.46728515625 -19.084228515625 26.39453125
-73.455322265625 -46.85205078125 24.6026611328125
-9.467041015625 -39.661376953125 35.2401123046875
52.205810546875 12.27490234375 -4.0447998046875
80.642822265625 3.8145751953125 -5.0548095703125
-1.1611328125 26.8968505859375 2.727783203125
-22.155029296875 -20.5838623046875 23.6298828125
34.5634765625 20.4879150390625 -2.79541015625
10.93994140625 6.875732421875 12.86669921875
81.104736328125 -46.2264404296875 13.700927734375
1.994140625 -40.526611328125 35.368408203125
1.96435546875 -8.231689453125 15.619873046875
14.142578125 4.77685546875 10.255615234375
74.935546875 -5.03076171875 10.1666259765625
102.76416015625 -13.901611328125 -3.1678466796875
76.701904296875 -10.70361328125 15.7623291015625
13.680419921875 -3.8494873046875 12.067138671875
84.225341796875 -38.5992431640625 6.2509765625
3.53369140625 -10.7618408203125 18.487548828125
87.60107421875 0.804931640625 -5.38134765625
48.234375 30.8134765625 -4.407470703125
-39.009765625 -19.0494384765625 27.0472412109375
-39.925537109375 -2.3919677734375 11.724853515625
86.689697265625 17.5531005859375 -11.694580078125
-33.6494140625 -19.022216796875 21.3956298828125
37.129638671875 8.6044921875 -3.8536376953125
-14.0771484375 5.707275390625 5.3985595703125
98.26123046875 -15.0687255859375 -4.87109375
78.25927734375 -44.273193359375 11.860107421875
51.891357421875 2.36962890625 -1.40234375
81.208740234375 12.1690673828125 -8.6123046875
43.916259765625 36.5115966796875 -4.3709716796875
-10.509033203125 -5.168212890625 12.2626953125
-28.529052734375 -9.7783203125 17.015380859375
6.462158203125 -23.864501953125 25.716552734375
82.81494140625 -8.4649658203125 -1.8887939453125
-29.416259765625 3.895751953125 16.7496337890625
53.73388671875 -4.3370361328125 9.710693359375
34.7470703125 2.5302734375 3.9068603515625
7.06787109375 -12.782958984375 12.2550048828125
72.749755859375 19.5517578125 -12.63330078125
70.738037109375 -41.462646484375 12.91845703125
74.129638671875 -17.77001953125 5.5650634765625
83.9375 -1.6961669921875 -5.3912353515625
-1.206298828125 -27.5302734375 29.1573486328125
72.826416015625 12.612548828125 -7.5186767578125
3.312255859375 -23.8199462890625 26.914794921875
-84.071044921875 -33.022216796875 22.918212890625
56.68017578125 2.3355712890625 -0.93798828125
72.382568359375 -4.9608154296875 2.150146484375
3.12451171875 19.2713623046875 2.289794921875
21.596923828125 -14.49755859375 22.52392578125
16.986572265625 -10.54931640625 16.222900390625
-32.6884765625 -6.8724365234375 13.9747314453125
-41.806640625 -11.54345703125 17.1912841796875
-78.319091796875 -28.7755126953125 19.44677734375
98.961669921875 -6.6563720703125 12.108642578125
70.2177734375 -6.7059326171875 13.8194580078125
-47.803466796875 -2.32568359375 21.0970458984375
-19.538330078125 -23.2742919921875 28.875
72.031005859375 -19.071044921875 8.4635009765625
102.693603515625 -29.1181640625 13.87109375
74.460205078125 5.9119873046875 -8.660400390625
-52.6953125 -19.95556640625 28.1527099609375
-6.730712890625 -18.890869140625 23.05908203125
34.1435546875 31.4840087890625 -3.6474609375
24.667236328125 -5.65576171875 13.6514892578125
-6.060791015625 16.07421875 4.028076171875
-63.25732421875 -21.31103515625 28.9490966796875
34.6640625 -10.026123046875 17.3253173828125
101.57177734375 -10.6663818359375 14.9588623046875
54.700439453125 27.1763916015625 -4.2730712890625
-6.131591796875 -9.74365234375 16.19580078125
-11.843505859375 17.6649169921875 4.258056640625
76.43505859375 -23.0369873046875 8.9197998046875
11.175048828125 -9.1583251953125 11.9373779296875
-43.94287109375 4.8094482421875 18.843505859375
84.701416015625 -28.9290771484375 11.105712890625
91.352294921875 -34.6253662109375 8.0313720703125
72.5380859375 13.80810546875 -10.04345703125
86.39208984375 -43.3194580078125 12.231689453125
43.63525390625 -6.755126953125 13.430419921875
-20.47998046875 3.3626708984375 6.12939453125
-27.995361328125 -18.8914794921875 26.5078125
35.3857421875 0.0452880859375 3.4249267578125
72.848388671875 -36.9136962890625 6.2581787109375
87.364990234375 -35.7000732421875 6.2012939453125
60.5380859375 -12.6307373046875 19.3724365234375
99.110107421875 -19.9501953125 1.868896484375
-26.337646484375 -21.8387451171875 28.08935546875
-85.416748046875 -35.15771484375 13.235595703125
72.26953125 -21.9659423828125 20.0980224609375
-46.406005859375 1.64697265625 20.2320556640625
39.426025390625 26.197265625 -4.35791015625
104.512939453125 -35.19775390625 20.7681884765625
-40.033447265625 4.363037109375 15.9415283203125
-16.6494140625 6.1317138671875 6.5040283203125
-39.460205078125 -4.3759765625 11.821533203125
-16.400390625 10.116455078125 6.04248046875
-44.401611328125 -0.763671875 14.24951171875
-20.741943359375 0.5823974609375 7.40283203125
12.587890625 -15.7982177734375 13.685546875
-40.193603515625 -10.3175048828125 13.1641845703125
-82.463134765625 -28.255859375 19.4893798828125
11.0009765625 -26.0970458984375 26.1695556640625
26.651123046875 -6.0997314453125 13.736328125
-77.288818359375 -45.5665283203125 25.5440673828125
80.443359375 -33.0479736328125 9.6099853515625
90.4111328125 -23.514404296875 13.0772705078125
-65.966552734375 -21.231201171875 28.663330078125
76.1572265625 35.0369873046875 -18.55322265625
-42.5654296875 -5.1236572265625 11.759765625
-24.48193359375 1.8121337890625 7.9482421875
86.12060546875 -39.196533203125 8.1527099609375
-28.1435546875 -0.135498046875 13.9964599609375
-85.4150390625 -33.908203125 25.9141845703125
