-9.392578125 -26.582275390625 21.9932861328125
69.67919921875 39.406494140625 -22.649169921875
-37.353271484375 -0.7442626953125 4.798583984375
-40.894287109375 -5.0167236328125 7.9072265625
1.28076171875 -29.554443359375 23.9097900390625
40.462646484375 -17.7972412109375 18.5035400390625
27.95849609375 28.569091796875 -10.981689453125
-44.386474609375 -7.3651123046875 12.2357177734375
41.610595703125 -22.8956298828125 17.9326171875
96.340576171875 -16.423583984375 -5.9197998046875
74.322509765625 25.2420654296875 -20.00927734375
10.458251953125 -40.127197265625 32.0924072265625
34.447509765625 44.877685546875 -9.16845703125
90.169677734375 -40.882080078125 22.7291259765625
63.118896484375 -30.7056884765625 2.2791748046875
73.16748046875 -21.83203125 8.3355712890625
34.226318359375 -13.0511474609375 16.1375732421875
97.759521484375 -12.8824462890625 8.84228515625
-24.876953125 -26.5982666015625 25.032958984375
9.7265625 -2.3248291015625 8.9425048828125
2.974609375 14.965087890625 10.478759765625
-0.999755859375 -14.845458984375 19.7174072265625
-49.896728515625 7.3233642578125 9.3060302734375
-58.660888671875 -21.3765869140625 30.834716796875
66.9140625 -29.500732421875 3.050048828125
31.54248046875 12.5675048828125 -10.873046875
-83.7998046875 -26.4403076171875 32.4644775390625
66.43505859375 5.6470947265625 -9.4415283203125
86.75439453125 -40.7481689453125 19.4482421875
99.001708984375 -8.7530517578125 -9.4595947265625
78.776123046875 56.1673583984375 -26.05126953125
98.25927734375 -0.1341552734375 -2.001953125
40.970458984375 20.1219482421875 -11.2052001953125
-26.75244140625 24.651123046875 -2.3990478515625
44.529296875 44.29052734375 -11.2138671875
84.850830078125 -25.333740234375 1.820068359375
19.980224609375 20.9288330078125 -11.0965576171875
33.118408203125 46.74267578125 -6.9063720703125
92.4345703125 -36.2130126953125 20.759765625
-28.938232421875 1.281005859375 2.509521484375
52.050048828125 -24.884765625 9.8076171875
-23.69140625 0.32177734375 3.4052734375
16.52197265625 -37.858642578125 30.412109375
46.03955078125 11.3348388671875 -10.9652099609375
45.30517578125 -11.540771484375 13.7548828125
-18.19384765625 -12.7498779296875 15.1685791015625
-52.322509765625 17.4453125 9.985595703125
75.01953125 -38.8232421875 8.8001708984375
-67.06982421875 -11.055908203125 16.9749755859375
-9.773681640625 9.9664306640625 0.1878662109375
-90.81640625 -26.31396484375 6.2044677734375
-59.300048828125 -3.5421142578125 8.8641357421875
94.71337890625 -11.542724609375 -13.973876953125
19.212158203125 -5.4544677734375 8.4932861328125
-46.435302734375 -16.49853515625 21.9862060546875
-5.5810546875 -14.0526123046875 18.6873779296875
-12.439453125 3.2685546875 0.1351318359375
68.036865234375 -10.7777099609375 10.7066650390625
27.083740234375 6.504638671875 -9.301025390625
-67.765869140625 -22.0806884765625 28.3951416015625
7.84228515625 -31.110595703125 26.230224609375
-42.134521484375 -23.266845703125 29.1700439453125
55.65771484375 -37.3143310546875 2.7191162109375
91.213623046875 -7.83203125 -14.7125244140625
37.456787109375 16.304443359375 -11.196533203125
-86.55859375 -24.11279296875 26.84326171875
34.775146484375 24.44921875 -11.165283203125
98.23681640625 -7.06103515625 -11.95703125
36.862060546875 35.14599609375 -10.9769287109375
-31.04931640625 -17.443603515625 20.705322265625
-51.435791015625 -18.003662109375 24.115478515625
99.056884765625 -8.138427734375 -4.343017578125
-73.079833984375 -22.29931640625 28.5140380859375
17.158935546875 -19.2353515625 23.7314453125
-27.346923828125 18.474853515625 -1.9658203125
85.98486328125 -31.543701171875 11.9932861328125
70.422607421875 -4.2869873046875 3.6922607421875
-9.099609375 -4.9149169921875 7.6119384765625
-54.757568359375 -2.082763671875 6.77197265625
62.220458984375 -12.48828125 -1.0941162109375
-45.124755859375 4.1778564453125 9.86376953125
76.986572265625 -25.9124755859375 4.566650390625
-30.96728515625 22.07275390625 -1.867919921875
56.964111328125 -47.19287109375 21.953857421875
69.165283203125 -13.7955322265625 15.12353515625
90.28515625 1.48046875 -22.132568359375
54.366455078125 -39.409912109375 6.69775390625
-5.681884765625 6.123046875 8.6295166015625
-9.979248046875 -35.889404296875 29.193115234375
25.207763671875 0.6099853515625 -0.871826171875
32.171630859375 -23.6217041015625 23.75439453125
58.4658203125 -33.084716796875 -0.889404296875
11.291748046875 -7.3958740234375 10.9993896484375
-50.181884765625 -23.7447509765625 30.5689697265625
-6.75 -24.2584228515625 20.7706298828125
43.540771484375 16.0931396484375 -11.1279296875
-62.155029296875 -26.18408203125 33.0728759765625
-35.014404296875 0.7216796875 3.51171875
40.6953125 7.32470703125 -9.98388671875
78.817626953125 50.6922607421875 -24.704345703125
46.564697265625 -5.060791015625 6.7022705078125
-32.146240234375 15.5958251953125 -1.279296875
-80.93603515625 -10.5059814453125 21.391357421875
63.84228515625 -0.2900390625 -7.0594482421875
-19.774658203125 14.6593017578125 -2.2164306640625
-52.97705078125 11.6634521484375 12.6136474609375
-71.473388671875 -11.2850341796875 17.309814453125
-85.06640625 -12.19287109375 19.284423828125
67.02490234375 -26.4764404296875 2.9423828125
-13.1513671875 0.0579833984375 3.470947265625
78.6982421875 44.5738525390625 -23.069091796875
-21.267578125 -14.5306396484375 14.757080078125
-57.09423828125 -14.6182861328125 20.434814453125
68.114013671875 -43.336181640625 6.7098388671875
63.216796875 -44.9219970703125 17.230224609375
66.5126953125 -45.6646728515625 17.335693359375
96.077392578125 -14.344970703125 -0.8701171875
84.34716796875 -43.034912109375 21.86669921875
-32.32861328125 -28.6126708984375 27.435302734375
-60.956787109375 -16.3304443359375 22.30810546875
33.025390625 -15.226806640625 18.267333984375
51.501220703125 -5.26025390625 7.2296142578125
-79.26025390625 -12.6209716796875 18.660888671875
76.00390625 25.3087158203125 -15.2491455078125
-48.03173828125 -10.017333984375 15.3680419921875
-3.29833984375 13.671875 11.4212646484375
-88.24365234375 -24.7314453125 18.1121826171875
71.0859375 -13.2646484375 -2.1087646484375
60.064208984375 -37.890380859375 0.7139892578125
-4.831787109375 16.4984130859375 10.0086669921875
-3.99658203125 -4.894775390625 5.56884765625
64.966796875 35.3516845703125 -20.984130859375
-68.291748046875 -26.6722412109375 33.65966796875
-88.288818359375 -18.803955078125 15.0491943359375
-26.804931640625 -0.651611328125 4.4453125
-15.45166015625 -34.66845703125 27.94921875
97.565185546875 -2.7076416015625 -10.215087890625
40.82958984375 25.47021484375 -10.95458984375
84.0966796875 -31.5611572265625 14.2977294921875
-3.234619140625 -24.7598876953125 20.462646484375
-6.005615234375 -10.2025146484375 8.104736328125
88.2216796875 -23.5732421875 1.62890625
78.860595703125 46.9271240234375 -20.8887939453125
75.661865234375 -33.787841796875 6.049072265625
94.83447265625 -12.2467041015625 -10.9166259765625
-37.996826171875 -19.908447265625 22.995849609375
-1.093994140625 -36.8524169921875 29.4444580078125
71.773193359375 -4.7254638671875 -8.834228515625
65.394287109375 7.9932861328125 -11.380859375
72.727294921875 38.191162109375 -22.1373291015625
-2.052978515625 -11.1434326171875 15.2755126953125
0.078369140625 3.600830078125 7.078125
73.298828125 -21.64111328125 22.7762451171875
64.249267578125 29.421630859375 -18.987060546875
60.03955078125 -16.6256103515625 1.34423828125
61.076416015625 2.98291015625 -8.1162109375
50.031494140625 -28.052734375 3.1124267578125
-20.971923828125 25.840576171875 -2.3455810546875
-32.03271484375 0.0394287109375 4.199462890625
-60.75390625 18.7919921875 10.1724853515625
-41.110107421875 3.1666259765625 6.396728515625
-16.741943359375 -6.789306640625 12.7672119140625
70.7392578125 5.655517578125 -13.7044677734375
50.03662109375 -23.85693359375 7.958251953125
66.003662109375 19.206298828125 -15.421142578125
-71.65771484375 -18.0853271484375 24.240234375
41.233642578125 0.1383056640625 -0.9803466796875
-37.51806640625 11.53857421875 -0.4608154296875
22.906982421875 31.9766845703125 -10.87255859375
59.201904296875 0.137451171875 -3.864990234375
57.455078125 -9.566162109375 -0.0067138671875
-13.454345703125 -4.7578125 9.1622314453125
-54.220703125 -11.7261962890625 15.6099853515625
71.12890625 -10.2462158203125 -5.3414306640625
-64.0498046875 -5.3751220703125 11.2119140625
90.9755859375 -40.80322265625 25.518798828125
69.05712890625 -20.535888671875 -0.017822265625
39.955078125 9.95263671875 -10.9678955078125
98.423583984375 -11.27197265625 2.10595703125
-28.977783203125 -4.7568359375 7.0706787109375
-36.767333984375 21.8736572265625 -1.34765625
47.6044921875 -1.06201171875 7.2685546875
3.56494140625 -15.3948974609375 19.9647216796875
-51.307861328125 -6.6856689453125 3.7305908203125
-37.562255859375 -3.825439453125 5.945068359375
-11.294921875 29.4722900390625 -3.235107421875
-23.06396484375 -36.7576904296875 30.0418701171875
-68.72119140625 -7.7135009765625 13.44140625
62.81298828125 14.62255859375 -14.26513671875
13.54541015625 -33.3138427734375 26.7977294921875
3.0703125 5.6845703125 12.0198974609375
-35.134765625 2.77294921875 1.48974609375
78.3701171875 40.361572265625 -21.768310546875
64.269287109375 -20.3521728515625 1.1925048828125
-14.39208984375 -22.7437744140625 21.47509765625
-80.470703125 -27.32421875 34.4674072265625
-20.81640625 -31.419189453125 26.42529296875
-9.30322265625 -32.3289794921875 26.517333984375
41.857666015625 31.292724609375 -11.20458984375
96.166259765625 -26.1846923828125 11.353271484375
-21.210693359375 20.314453125 -2.473876953125
-92.158203125 -24.0185546875 8.3367919921875
42.611083984375 -27.0794677734375 17.636962890625
69.705078125 -6.751220703125 5.85791015625
45.37744140625 -2.5556640625 3.3271484375
-70.717041015625 -15.2982177734375 21.413330078125
27.02392578125 25.0838623046875 -10.8834228515625
-50.636962890625 22.8929443359375 11.6016845703125
-38.97900390625 -11.7891845703125 14.6978759765625
86.93212890625 -33.2777099609375 -2.177490234375
13.32470703125 -37.91259765625 30.35400390625
-101.233154296875 -22.9300537109375 12.828369140625
-90.7529296875 -13.1094970703125 15.723876953125
-87.203857421875 -15.2254638671875 16.110595703125
-57.189208984375 21.0596923828125 10.81396484375
25.235107421875 37.2791748046875 -11.04833984375
68.12890625 -43.1180419921875 17.5755615234375
43.06298828125 12.9974365234375 -11.0634765625
-88.20751953125 -29.5255126953125 15.7252197265625
0.3046875 -6.8717041015625 8.4476318359375
-58.66796875 -9.59423828125 9.0634765625
26.890380859375 -7.385498046875 10.0989990234375
85.5986328125 -22.4144287109375 -2.9666748046875
86.192138671875 -9.5057373046875 -12.65966796875
88.47265625 -37.1085205078125 15.9368896484375
72.4716796875 -36.637451171875 3.2239990234375
-31.86328125 4.5115966796875 0.2474365234375
35.483154296875 -3.3795166015625 5.2666015625
-19.330810546875 23.1876220703125 -3.2181396484375
-83.057861328125 -19.2283935546875 24.736083984375
-47.650390625 -9.900634765625 8.5303955078125
49.42138671875 -19.6029052734375 12.4320068359375
75.2216796875 13.3978271484375 -12.519775390625
60.698974609375 -19.763427734375 3.2266845703125
38.360107421875 -6.53515625 8.7974853515625
-15.456787109375 -17.488037109375 19.9923095703125
72.59716796875 20.466064453125 -17.6292724609375
67.91943359375 12.5950927734375 -12.8792724609375
68.317138671875 -16.273681640625 14.1568603515625
-6.592041015625 -0.266357421875 4.34375
-1.5205078125 -34.231201171875 27.7861328125
-35.203369140625 19.4814453125 -1.3341064453125
77.351318359375 -2.0030517578125 1.6077880859375
-17.37890625 -0.4249267578125 4.085693359375
-33.87841796875 -10.983642578125 13.7392578125
-2.782470703125 -13.384033203125 10.5118408203125
6.768310546875 -33.1473388671875 31.97998046875
32.332275390625 -3.9085693359375 6.1065673828125
68.560546875 -44.331787109375 11.5838623046875
-5.135009765625 -17.001220703125 22.5889892578125
22.034423828125 44.5145263671875 -11.1162109375
-56.429931640625 8.2388916015625 12.6180419921875
72.712646484375 -18.583740234375 11.9696044921875
-88.51611328125 -30.498779296875 24.3017578125
37.92236328125 5.6683349609375 -8.963134765625
-33.421630859375 10.864990234375 -0.6353759765625
-12.66259765625 -14.062744140625 16.3184814453125
-54.054443359375 -20.9248046875 27.2314453125
72.121826171875 -7.157470703125 -4.7392578125
-11.947509765625 -27.7215576171875 23.0335693359375
2.244140625 -27.528076171875 22.3050537109375
-88.499755859375 -21.3656005859375 19.55126953125
76.770751953125 29.1448974609375 -19.833740234375
98.102294921875 -4.982421875 -0.249267578125
75.52197265625 55.209716796875 -26.2066650390625
29.4150390625 17.7049560546875 -11.0699462890625
-15.105224609375 -9.7315673828125 15.51171875
89.89208984375 -17.70361328125 -5.8165283203125
89.102783203125 -20.3551025390625 -1.7581787109375
46.87890625 -8.8568115234375 10.8919677734375
-1.900146484375 -12.6248779296875 5.4305419921875
16.623046875 -9.33740234375 12.8731689453125
68.65869140625 -40.521484375 4.0972900390625
-80.406494140625 -15.482421875 21.0322265625
-93.625732421875 -13.8648681640625 16.6947021484375
-24.216552734375 29.9034423828125 -3.4700927734375
91.421875 12.41748046875 -28.7540283203125
21.666259765625 6.9869384765625 -9.2188720703125
-11.639404296875 22.9783935546875 -3.9188232421875
27.901611328125 -2.4530029296875 4.479248046875
65.244873046875 43.505126953125 -23.6837158203125
27.054931640625 32.416015625 -11.0147705078125
21.621337890625 39.1771240234375 -11.1055908203125
-44.9951171875 -20.1561279296875 25.874755859375
65.49560546875 -10.059326171875 -4.890625
67.757568359375 17.3636474609375 -14.03369140625
85.806884765625 -19.6998291015625 -4.0908203125
-0.6669921875 19.690185546875 10.135009765625
-61.165283203125 25.726806640625 11.0118408203125
-27.57861328125 28.104248046875 -2.7789306640625
-45.985107421875 -2.4407958984375 8.6053466796875
81.886474609375 -35.25341796875 11.7896728515625
-49.134033203125 0.1708984375 5.1776123046875
-40.96435546875 22.19921875 -1.0689697265625
-8.208251953125 1.9713134765625 2.398681640625
-20.974609375 -0.65625 4.4285888671875
-9.3251953125 -12.6849365234375 13.3284912109375
37.238037109375 49.828857421875 -10.1214599609375
63.300048828125 33.1265869140625 -17.9365234375
95.796142578125 -24.7183837890625 6.027587890625
48.263671875 5.814697265625 -9.5889892578125
8.959716796875 -16.0272216796875 20.3328857421875
-75.313232421875 -14.7637939453125 21.2216796875
89.7109375 -40.1983642578125 20.1656494140625
-16.54150390625 28.445556640625 -3.979736328125
-52.426025390625 3.090576171875 4.6829833984375
0.722900390625 17.3741455078125 10.2430419921875
3.6474609375 -38.075927734375 30.17822265625
23.014404296875 3.5601806640625 -6.2232666015625
92.1181640625 -27.4515380859375 5.107421875
59.29931640625 -45.3466796875 20.783935546875
29.796875 3.0694580078125 -5.617431640625
95.729248046875 0.42236328125 -6.9024658203125
-63.1630859375 -20.45361328125 30.5628662109375
-26.77490234375 -8.0623779296875 10.4110107421875
70.838134765625 51.739013671875 -25.328125
-1.39208984375 2.03662109375 4.9913330078125
-10.30859375 4.2403564453125 1.9107666015625
51.467041015625 -22.00244140625 11.7877197265625
-10.756103515625 19.1148681640625 -3.672119140625
-87.84716796875 -27.8756103515625 6.56005859375
42.37158203125 -2.1270751953125 3.228271484375
-36.87060546875 15.170654296875 -0.8599853515625
73.59765625 -7.3572998046875 7.289794921875
65.1328125 38.5411376953125 -22.010986328125
30.180908203125 -10.3984375 12.9888916015625
5.5 -2.2532958984375 6.765869140625
33.58203125 49.722900390625 -7.708740234375
91.997802734375 -15.1368408203125 -9.27490234375
-64.588623046875 -24.0665283203125 31.2918701171875
-8.015625 -29.3160400390625 23.6468505859375
-87.19384765625 -10.7705078125 18.495361328125
14.347412109375 -13.0408935546875 16.724853515625
3.649658203125 -33.445556640625 28.5657958984375
22.134765625 -18.5667724609375 22.2752685546875
57.659423828125 -20.8839111328125 4.955078125
76.692138671875 49.273193359375 -25.4373779296875
48.249755859375 -12.509765625 14.7867431640625
29.75146484375 20.935302734375 -10.916015625
23.40625 -4.6690673828125 7.54345703125
31.9912109375 4.5247802734375 -7.842041015625
71.282958984375 -17.49169921875 14.081787109375
45.297119140625 22.20654296875 -11.126708984375
63.17431640625 -4.3311767578125 -5.0970458984375
97.79931640625 -10.333740234375 5.3531494140625
96.382568359375 3.7464599609375 -22.3970947265625
-79.01953125 -22.4366455078125 28.7037353515625
-24.123779296875 26.442138671875 -0.618896484375
62.22802734375 -45.50830078125 7.578125
54.181884765625 -30.061767578125 1.6881103515625
53.4208984375 -34.84521484375 2.216552734375
-53.896484375 -5.4251708984375 5.80078125
99.593505859375 -26.0888671875 -0.7562255859375
-13.121337890625 25.3333740234375 -3.937744140625
-17.594482421875 -3.7603759765625 7.40625
37.321533203125 13.1881103515625 -10.957763671875
-27.371337890625 -13.74658203125 16.569091796875
76.968505859375 -28.220458984375 7.8707275390625
44.993896484375 39.252685546875 -11.2791748046875
-63.01806640625 -15.0843505859375 20.8245849609375
4.5546875 -18.1689453125 23.0037841796875
71.070556640625 12.7574462890625 -15.7203369140625
-89.223876953125 -22.0516357421875 9.145263671875
-63.825927734375 -8.269775390625 13.846923828125
62.94970703125 -6.7144775390625 -3.932861328125
87.11767578125 -16.1610107421875 -5.791015625
22.323974609375 -14.2430419921875 17.9898681640625
32.365234375 21.194580078125 -8.563720703125
7.5146484375 -35.5343017578125 30.7366943359375
95.050048828125 -3.2274169921875 -17.5205078125
11.19482421875 -30.6312255859375 24.49462890625
70.481201171875 18.7623291015625 -16.802490234375
98.14892578125 -14.2467041015625 0.7186279296875
67.63330078125 -13.51220703125 -5.1036376953125
70.995849609375 46.54443359375 -24.172607421875
30.392578125 -16.1551513671875 19.74560546875
92.751953125 -0.65576171875 -21.6280517578125
-75.424072265625 -18.761474609375 25.10400390625
30.079345703125 7.073974609375 -9.8604736328125
74.53125 47.6766357421875 -24.5242919921875
4.76953125 -11.160400390625 15.6417236328125
-36.515625 24.7021484375 -1.844970703125
-6.6591796875 -36.2593994140625 29.2330322265625
-98.2431640625 -25.809326171875 -6.5445556640625
70.53369140625 -16.2213134765625 -1.9483642578125
54.798095703125 -41.4569091796875 8.2357177734375
-57.08935546875 -20.28759765625 26.4232177734375
59.7783203125 8.3480224609375 -7.94384765625
81.8095703125 -32.7073974609375 14.726318359375
77.893798828125 37.4783935546875 -20.1336669921875
75.305419921875 -31.4332275390625 2.7076416015625
-10.5859375 -18.711181640625 19.172119140625
27.1572265625 -13.5704345703125 16.697265625
-96.83984375 -26.1026611328125 10.3309326171875
-11.554443359375 6.3187255859375 -2.015869140625
-48.792236328125 -11.6488037109375 17.22509765625
-17.37841796875 -25.3634033203125 23.1881103515625
-12.720458984375 -9.16162109375 10.372314453125
98.955322265625 -9.66552734375 -1.6031494140625
-67.86474609375 -15.5736083984375 21.799560546875
17.308349609375 -2.646484375 5.55078125
75.2412109375 16.4591064453125 -16.4810791015625
7.60595703125 -31.3592529296875 28.9788818359375
72.214599609375 48.917236328125 -22.4647216796875
11.775146484375 -14.7030029296875 18.72509765625
-98.73876953125 -27.241943359375 -3.328369140625
77.04638671875 -32.153564453125 10.9149169921875
36.722412109375 -21.261474609375 18.78955078125
-88.813720703125 -30.8336181640625 19.9483642578125
-27.365478515625 -2.531494140625 6.760986328125
94.1728515625 -23.4427490234375 0.9049072265625
68.459228515625 3.875 -11.767578125
-55.313720703125 13.402587890625 12.9088134765625
65.228515625 -32.4368896484375 -2.655029296875
-24.095703125 19.087890625 -2.4625244140625
89.275146484375 -13.072265625 -10.1265869140625
-24.097900390625 -20.3914794921875 22.9034423828125
-9.490478515625 8.1883544921875 -1.6165771484375
68.017333984375 -8.7471923828125 -7.301513671875
-9.2333984375 13.8551025390625 -3.630859375
69.570068359375 34.3338623046875 -20.2027587890625
70.2529296875 -20.2476806640625 10.0787353515625
10.3779296875 -10.237548828125 14.0673828125
83.873779296875 -14.146728515625 -13.0599365234375
-4.5693359375 -12.2322998046875 16.2900390625
-15.0361328125 -1.3922119140625 4.920654296875
92.19921875 4.9169921875 -25.87939453125
-84.930419921875 -19.3455810546875 23.0313720703125
35.422607421875 -0.5260009765625 0.7208251953125
-62.093017578125 -19.726806640625 26.1851806640625
75.23876953125 -5.09228515625 4.9122314453125
-55.368896484375 17.4637451171875 9.9437255859375
-29.19970703125 -10.84716796875 13.367431640625
-19.488525390625 2.7880859375 0.6768798828125
60.0537109375 -10.7783203125 -1.7413330078125
19.943115234375 17.3011474609375 -10.9755859375
20.584716796875 -6.9061279296875 10.0302734375
6.678955078125 -13.1429443359375 17.1324462890625
72.21142578125 -28.995849609375 1.596923828125
-67.20166015625 -24.6246337890625 31.333251953125
43.651611328125 49.8358154296875 -11.203369140625
-30.4970703125 -25.7154541015625 26.0687255859375
67.79736328125 -45.2303466796875 22.435791015625
-90.189697265625 -9.873779296875 18.8382568359375
24.23486328125 19.923583984375 -10.6650390625
-8.1357421875 -18.39599609375 22.0791015625
-39.64306640625 15.705810546875 -0.4822998046875
63.839599609375 -42.11962890625 4.552001953125
92.656005859375 2.114013671875 -23.725341796875
5.804443359375 0.25634765625 15.3033447265625
96.150146484375 -19.719970703125 0.330810546875
47.281005859375 -13.9539794921875 16.5701904296875
-23.704345703125 -11.61767578125 13.213134765625
25.708251953125 -1.1212158203125 2.0870361328125
-39.255615234375 9.789306640625 -0.019775390625
20.781494140625 11.5390625 -10.778076171875
-34.421142578125 -4.1546630859375 6.4056396484375
35.5166015625 -10.325439453125 13.0548095703125
-29.279296875 20.0322265625 -2.075927734375
30.091064453125 30.28759765625 -10.815185546875
94.1201171875 -18.4111328125 -4.6807861328125
-14.9638671875 -32.5272216796875 26.3768310546875
-0.170166015625 5.3675537109375 8.9205322265625
22.64501953125 1.5496826171875 -1.8590087890625
72.235107421875 35.0274658203125 -21.2855224609375
24.74658203125 23.8675537109375 -10.8182373046875
94.302734375 -28.4808349609375 13.5430908203125
-9.214599609375 3.5213623046875 4.6136474609375
53.521728515625 -42.759765625 10.6240234375
59.137939453125 -42.1170654296875 5.567626953125
72.331298828125 -42.0191650390625 8.2506103515625
-87.575927734375 -23.3673095703125 23.28369140625
48.9208984375 -5.6903076171875 7.1710205078125
76.09326171875 -23.408203125 9.9237060546875
83.982421875 -37.9207763671875 18.5472412109375
-85.740478515625 -13.796142578125 17.5328369140625
26.60693359375 42.8017578125 -11.135986328125
61.794189453125 -1.73974609375 -6.404052734375
30.660400390625 35.0345458984375 -11.056884765625
-52.112060546875 7.879150390625 10.226318359375
-9.32373046875 -0.3248291015625 4.1749267578125
24.743896484375 15.7626953125 -10.7100830078125
-62.27099609375 -12.693359375 18.269775390625
42.6953125 -12.8135986328125 15.2962646484375
74.068359375 4.848388671875 -10.5650634765625
-16.24462890625 -20.875 21.3070068359375
46.3408203125 48.0343017578125 -11.278564453125
-46.75927734375 -18.88818359375 24.7232666015625
11.190673828125 -35.57666015625 28.4534912109375
27.852294921875 39.3199462890625 -10.913818359375
-34.30712890625 28.923583984375 -2.3717041015625
33.72509765625 27.156982421875 -10.9024658203125
-32.3466796875 24.3687744140625 -2.1201171875
-19.09033203125 32.728515625 -3.9638671875
-88.63916015625 -31.63134765625 6.524658203125
-42.938232421875 -11.548095703125 15.35009765625
-47.796630859375 -21.5731201171875 27.7816162109375
72.204833984375 14.87744140625 -17.041748046875
32.181396484375 -6.46630859375 8.7071533203125
59.86083984375 -29.0430908203125 6.184814453125
-87.23876953125 -27.860595703125 13.713134765625
89.663818359375 -2.43115234375 -17.797119140625
2.775390625 -1.475830078125 6.6336669921875
44.4072265625 24.7938232421875 -11.0836181640625
41.620361328125 -9.5177001953125 11.657958984375
-23.695556640625 22.795166015625 0.3365478515625
-37.60400390625 5.0494384765625 0.685302734375
25.551513671875 -18.286376953125 21.885009765625
91.68505859375 -3.7821044921875 -18.76708984375
95.97509765625 -11.9534912109375 -0.47509765625
-76.913330078125 -12.11767578125 18.3157958984375
92.4560546875 -34.102783203125 16.3270263671875
-78.094970703125 -25.0081787109375 31.863037109375
13.5224609375 -21.156982421875 26.0001220703125
-15.742431640625 25.0245361328125 -3.6014404296875
32.1875 45.7349853515625 -9.154296875
-24.274658203125 6.4378662109375 -0.94580078125
46.29150390625 -17.5855712890625 15.88037109375
37.879638671875 26.328369140625 -11.1851806640625
-30.9619140625 -3.5572509765625 5.6424560546875
47.162109375 4.2276611328125 -4.5313720703125
-3.2041015625 19.3194580078125 10.384521484375
35.68310546875 2.0987548828125 -4.3321533203125
27.537109375 0.4156494140625 -0.2620849609375
59.783935546875 -26.48095703125 7.2252197265625
-16.1123046875 14.7996826171875 -2.6552734375
-5.338623046875 -32.427001953125 26.27001953125
-45.604248046875 -11.686767578125 16.9998779296875
-3.263671875 -26.902587890625 22.06689453125
19.218505859375 6.8603515625 -9.6246337890625
39.146728515625 42.487548828125 -11.0960693359375
29.97265625 0.3575439453125 -0.6060791015625
-16.025390625 -37.4725341796875 30.4324951171875
-50.89404296875 -11.2762451171875 13.7926025390625
82.740478515625 -41.514892578125 22.784423828125
-50.67822265625 13.140869140625 12.8902587890625
77.091064453125 -35.474365234375 11.4996337890625
86.801513671875 -37.9095458984375 -1.33203125
-25.821533203125 3.9730224609375 -0.001708984375
60.61669921875 -7.031005859375 -3.51220703125
72.721435546875 -0.5989990234375 -7.3065185546875
68.46728515625 14.942138671875 -13.8597412109375
67.787353515625 -31.687744140625 -1.1768798828125
96.79736328125 1.4471435546875 -15.9298095703125
-23.46630859375 -14.8316650390625 15.8819580078125
-23.879638671875 -16.51123046875 19.4903564453125
75.617919921875 51.3892822265625 -25.7025146484375
67.542236328125 28.18212890625 -19.678955078125
-36.04541015625 -18.2159423828125 20.0794677734375
-20.207275390625 -37.0576171875 30.1474609375
33.26953125 39.9404296875 -10.955810546875
4.6611328125 0.00439453125 10.3212890625
-53.45654296875 -17.0545654296875 23.3255615234375
67.10302734375 24.6866455078125 -17.361083984375
98.274658203125 -17.225341796875 5.5406494140625
0.025634765625 -9.189453125 8.942626953125
32.339111328125 18.01171875 -6.9903564453125
-53.358642578125 -12.881591796875 18.7049560546875
-5.275146484375 -7.5731201171875 3.98095703125
41.223388671875 -20.051025390625 17.8814697265625
-88.87353515625 -14.291748046875 17.486328125
-46.638427734375 4.304931640625 7.758056640625
96.19921875 -17.551025390625 3.0184326171875
77.25439453125 33.2139892578125 -21.439208984375
71.3623046875 -27.1534423828125 4.20068359375
94.827880859375 -20.490966796875 -2.0509033203125
26.48193359375 2.0665283203125 -3.7779541015625
74.040771484375 44.91259765625 -23.664794921875
-39.50146484375 -24.46533203125 29.0435791015625
-11.625244140625 -20.87841796875 20.10498046875
-1.197509765625 -38.9896240234375 31.194580078125
70.037109375 -12.2764892578125 -4.89697265625
-40.44140625 -18.927978515625 22.151611328125
68.998046875 -5.9080810546875 -9.1065673828125
5.994140625 -14.6824951171875 19.0455322265625
-68.37158203125 -20.2518310546875 26.2779541015625
-35.84521484375 -7.40869140625 7.8885498046875
-91.10791015625 -20.083251953125 11.3446044921875
-1.0830078125 8.778076171875 11.7930908203125
30.264404296875 -21.7060546875 23.9598388671875
47.987060546875 44.4774169921875 -11.102294921875
73.416015625 1.4134521484375 -9.40869140625
-11.5439453125 15.2119140625 10.7679443359375
-2.26025390625 -29.872802734375 24.3121337890625
64.133544921875 -37.172119140625 -0.688720703125
69.789306640625 32.2969970703125 -19.0872802734375
68.8642578125 49.76123046875 -26.378662109375
-34.98828125 -15.048095703125 17.6824951171875
-90.557373046875 -18.4698486328125 13.1943359375
-43.2529296875 -8.9268798828125 13.5406494140625
19.618896484375 -10.937744140625 14.7879638671875
70.141845703125 -0.4761962890625 -11.1455078125
-19.614501953125 -13.9117431640625 16.6292724609375
-20.21728515625 -35.2530517578125 28.6083984375
-41.44873046875 0.379150390625 7.013916015625
-80.139404296875 -18.345703125 24.3314208984375
-8.231201171875 -17.3448486328125 19.1893310546875
73.836181640625 22.8792724609375 -19.1444091796875
96.350830078125 -0.316162109375 -9.1494140625
67.052978515625 34.68505859375 -21.753662109375
-52.190673828125 -12.692138671875 6.6453857421875
-2.244384765625 -2.219482421875 5.69921875
-14.6845703125 -3.3519287109375 7.347900390625
75.625732421875 13.7667236328125 -14.9132080078125
86.533447265625 -35.49267578125 -0.62353515625
77.261474609375 -28.0084228515625 5.5841064453125
-55.674560546875 0.22802734375 5.1309814453125
-71.833740234375 -23.8140869140625 30.46533203125
17.332763671875 -15.9193115234375 20.2691650390625
47.400146484375 23.564453125 -9.4425048828125
18.2216796875 -13.0540771484375 17.1754150390625
-32.836181640625 -32.4678955078125 29.0743408203125
88.4560546875 -38.6539306640625 17.651123046875
-1.530029296875 -8.5028076171875 4.0140380859375
36.98388671875 -17.7646484375 18.361083984375
89.9501953125 -27.0960693359375 3.7364501953125
34.954833984375 6.681884765625 -9.8953857421875
67.333984375 51.5909423828125 -26.6187744140625
66.1748046875 30.6331787109375 -20.200439453125
7.486572265625 -28.0460205078125 22.9090576171875
-7.44970703125 -3.7596435546875 6.497802734375
-9.43505859375 17.7689208984375 10.4156494140625
-11.80078125 -14.0606689453125 18.7025146484375
-27.18603515625 -28.5830078125 26.3709716796875
45.802978515625 4.1982421875 -8.2923583984375
91.673095703125 -38.2803955078125 21.39111328125
-14.615966796875 -27.7308349609375 23.4549560546875
21.37744140625 -2.2069091796875 4.8302001953125
-5.042724609375 -12.1495361328125 7.393798828125
-28.189208984375 -36.2601318359375 29.63330078125
1.8828125 -14.1761474609375 18.8575439453125
-59.99169921875 23.7474365234375 10.9476318359375
66.7509765625 -36.4173583984375 -0.9288330078125
92.34375 -21.99072265625 -1.9471435546875
-10.5419921875 11.89111328125 -0.8740234375
63.64013671875 27.52001953125 -17.8934326171875
41.41259765625 47.3917236328125 -11.1717529296875
-1.021728515625 -24.1634521484375 20.6851806640625
-12.7841796875 -17.50439453125 19.579345703125
76.3056640625 22.6806640625 -15.93115234375
-98.6357421875 -26.59375 6.7021484375
-63.908203125 -20.5841064453125 27.3038330078125
-26.028564453125 22.9267578125 -0.54150390625
86.531494140625 -34.3861083984375 13.2620849609375
19.893310546875 1.79150390625 -2.5360107421875
64.20947265625 -25.959716796875 3.5643310546875
-20.828857421875 -23.2584228515625 23.2142333984375
35.83251953125 44.064697265625 -10.7662353515625
-22.796142578125 14.7615966796875 -2.046142578125
4.78173828125 3.6107177734375 13.0928955078125
74.334228515625 33.5294189453125 -22.1676025390625
7.964599609375 -7.30419921875 11.1365966796875
22.915771484375 10.43994140625 -10.5802001953125
-15.79736328125 19.6195068359375 -3.30908203125
47.674560546875 -0.5341796875 4.73974609375
67.164306640625 39.233642578125 -23.4288330078125
66.981201171875 -4.2425537109375 -8.3721923828125
68.95068359375 -27.838134765625 4.8431396484375
91.60400390625 9.8551025390625 -28.44189453125
-0.04345703125 -9.5106201171875 12.7886962890625
72.576416015625 -1.53857421875 2.0167236328125
65.013671875 12.84423828125 -13.7081298828125
65.3447265625 17.0911865234375 -15.01953125
-5.53564453125 -37.8017578125 30.52001953125
-85.29638671875 -28.962158203125 34.5992431640625
78.252197265625 42.2867431640625 -23.07958984375
-11.113525390625 -3.1129150390625 6.9969482421875
44.524658203125 34.858642578125 -11.24658203125
-14.609619140625 2.8646240234375 0.54443359375
-28.378662109375 -22.1146240234375 24.2413330078125
-11.627197265625 13.6058349609375 -2.8822021484375
-25.768310546875 -11.5596923828125 14.1068115234375
-15.079345703125 11.2882080078125 -2.630126953125
-35.1103515625 16.479248046875 -1.314208984375
45.759521484375 26.9541015625 -11.14794921875
-36.5849609375 27.2896728515625 -1.8798828125
-31.5009765625 -6.9722900390625 8.6953125
26.01513671875 -16.032958984375 19.4837646484375
-29.900634765625 -34.886474609375 29.2005615234375
70.684814453125 3.5855712890625 -12.86572265625
74.725830078125 40.07177734375 -23.522705078125
-31.529052734375 -14.652587890625 17.66552734375
71.3818359375 40.8079833984375 -21.0950927734375
33.686279296875 9.0457763671875 -10.742431640625
-45.50244140625 0.5445556640625 7.0789794921875
96.918701171875 3.6673583984375 -18.5618896484375
96.87646484375 -1.571533203125 -5.1982421875
13.17138671875 -16.4212646484375 21.0643310546875
49.08203125 -9.18505859375 10.851318359375
63.642822265625 20.4765625 -16.474609375
28.778564453125 -6.6690673828125 9.1685791015625
72.273193359375 52.20458984375 -23.284912109375
-30.069091796875 -9.4210205078125 11.709716796875
74.533935546875 19.5450439453125 -18.2054443359375
15.6455078125 -20.7039794921875 25.5389404296875
55.13818359375 -34.4208984375 -0.192138671875
-59.196044921875 -19.591064453125 26.45458984375
-19.531494140625 -5.46240234375 9.6483154296875
75.61572265625 -36.4700927734375 7.6947021484375
70.270263671875 -18.166259765625 0.9571533203125
67.643798828125 8.7059326171875 -11.6644287109375
-20.78759765625 -9.0106201171875 11.65869140625
7.021728515625 -9.5020751953125 13.4664306640625
-8.197265625 13.635009765625 11.596435546875
-43.307861328125 -2.774169921875 6.984619140625
14.2041015625 -10.635498046875 14.6258544921875
72.458740234375 -11.100341796875 11.9912109375
-16.364013671875 31.2843017578125 -4.354248046875
88.595703125 -6.13720703125 -14.14306640625
-32.806640625 -23.383544921875 25.739013671875
61.736572265625 -45.743408203125 20.1468505859375
73.8779296875 -32.671630859375 1.394287109375
28.142822265625 -4.6453857421875 7.158203125
-39.86376953125 20.2890625 -1.1097412109375
-88.677001953125 -29.5667724609375 29.26416015625
74.3896484375 53.55517578125 -24.8878173828125
34.33740234375 -8.588623046875 11.196044921875
88.81787109375 -35.5743408203125 14.398193359375
-49.874755859375 10.943115234375 13.3084716796875
38.272216796875 -14.8658447265625 17.67822265625
55.3828125 -22.5264892578125 10.0611572265625
-38.898193359375 -27.8116455078125 29.7655029296875
73.11962890625 10.455078125 -15.758056640625
-2.073486328125 11.88525390625 11.7864990234375
-65.96240234375 -18.3333740234375 24.3101806640625
76.188720703125 -38.5882568359375 10.642333984375
52.37109375 -28.09228515625 4.3173828125
-20.912353515625 -2.6568603515625 6.559814453125
99.246826171875 -6.4498291015625 -6.3790283203125
-22.808349609375 -27.2974853515625 24.8787841796875
98.538330078125 -23.0621337890625 -4.2939453125
61.4072265625 -43.442138671875 5.994384765625
-89.09619140625 -25.5867919921875 19.9329833984375
88.927734375 -10.88330078125 -13.4305419921875
-22.39306640625 -6.5777587890625 10.347900390625
-48.902587890625 -9.9908447265625 13.0625
-23.955078125 -24.75146484375 24.31396484375
-83.729736328125 -22.4766845703125 27.9127197265625
-12.3935546875 16.554443359375 -3.269775390625
96.4296875 -6.72265625 -13.1324462890625
66.1865234375 -44.7066650390625 12.1519775390625
63.019287109375 2.139404296875 -8.62255859375
21.254638671875 -4.40478515625 7.3455810546875
98.8857421875 -11.2720947265625 -11.9442138671875
-10.600830078125 -37.70263671875 30.2227783203125
-3.90576171875 -14.8543701171875 19.8197021484375
58.758544921875 -35.1524658203125 -1.493408203125
63.967529296875 9.8299560546875 -12.599365234375
76.001708984375 26.88134765625 -20.0146484375
22.652099609375 15.2303466796875 -10.9527587890625
-69.939208984375 -22.2342529296875 28.517578125
-48.131591796875 -9.5162353515625 4.345458984375
-24.921875 -8.9486083984375 11.30712890625
2.250732421875 7.8232421875 13.2979736328125
96.960205078125 -2.0574951171875 -12.278076171875
-24.417236328125 -34.831298828125 28.3177490234375
39.61083984375 30.5059814453125 -11.12939453125
4.15283203125 -32.328125 26.16455078125
-56.2607421875 -24.62109375 31.2467041015625
67.740478515625 -22.25341796875 0.0579833984375
97.428466796875 -18.9530029296875 7.2989501953125
30.77978515625 1.2764892578125 -2.748291015625
-52.056884765625 -20.44287109375 26.551513671875
66.802978515625 -39.1905517578125 2.103515625
-84.101806640625 -21.0067138671875 26.2147216796875
72.6064453125 30.48486328125 -20.5340576171875
56.923095703125 -39.4459228515625 4.25537109375
74.86865234375 29.1337890625 -20.9427490234375
75.755615234375 -24.3895263671875 5.4742431640625
94.95068359375 6.0836181640625 -26.63232421875
81.86376953125 -33.6871337890625 10.2001953125
-9.51708984375 -15.6531982421875 20.4200439453125
2.4384765625 12.75244140625 12.9024658203125
68.649658203125 -10.1990966796875 8.662353515625
43.48486328125 0.159912109375 -1.0963134765625
6.833740234375 -30.2017822265625 24.0172119140625
-52.56787109375 22.523193359375 10.7474365234375
-87.989501953125 -20.4686279296875 13.453125
-50.196044921875 2.4498291015625 5.123779296875
-88.386474609375 -24.0416259765625 14.8831787109375
-24.46875 10.9332275390625 -1.5635986328125
98.0166015625 -10.3946533203125 11.191650390625
-19.099609375 28.0938720703125 -3.7593994140625
-16.306884765625 -8.1573486328125 14.3514404296875
-27.076416015625 -26.68212890625 25.3994140625
-49.994140625 15.135986328125 12.543212890625
-0.818359375 -26.40771484375 21.918701171875
-35.76953125 -24.5711669921875 26.496337890625
98.840576171875 -13.4410400390625 2.7877197265625
50.94384765625 -8.10986328125 9.8355712890625
-44.6962890625 2.356689453125 7.956298828125
-21.569580078125 -17.4427490234375 20.4500732421875
65.164794921875 -4.7994384765625 -5.7066650390625
46.242919921875 30.082275390625 -11.2127685546875
67.796630859375 -16.8824462890625 -3.111572265625
64.1650390625 -11.5439453125 -2.377685546875
42.76708984375 18.9815673828125 -11.290771484375
-49.34814453125 -2.93896484375 6.3350830078125
-93.09814453125 -32.4725341796875 10.80419921875
-16.324951171875 5.5714111328125 -1.2720947265625
-19.669189453125 -10.5443115234375 12.939697265625
41.73876953125 1.992919921875 -4.185302734375
58.288330078125 -43.226318359375 7.165283203125
71.742431640625 -32.6959228515625 -1.7113037109375
-75.953125 -26.7283935546875 33.353271484375
86.019775390625 -11.234619140625 -10.74462890625
-91.085693359375 -6.7659912109375 14.328857421875
76.2919921875 24.143798828125 -17.4652099609375
-34.226318359375 -27.1529541015625 27.2547607421875
63.04833984375 -35.156005859375 -2.5264892578125
-13.514404296875 19.77783203125 10.6810302734375
23.69384765625 38.9007568359375 -10.7708740234375
38.3837890625 -25.408447265625 17.3277587890625
39.6474609375 48.560302734375 -11.19482421875
-26.257080078125 9.24658203125 -1.0108642578125
92.853759765625 -6.834228515625 -15.6015625
-22.3037109375 25.352783203125 -0.378662109375
95.8837890625 1.2694091796875 -13.152587890625
20.968505859375 32.7999267578125 -10.68408203125
-61.82421875 -8.940185546875 13.9647216796875
-34.38232421875 -9.55810546875 12.2623291015625
96.656494140625 2.747802734375 -20.554931640625
92.1455078125 -35.845703125 18.6993408203125
69.385986328125 7.5076904296875 -13.438232421875
-55.64453125 -6.226806640625 6.8428955078125
42.7646484375 8.0186767578125 -10.556884765625
91.43310546875 -18.8316650390625 -4.9200439453125
-9.7802734375 -13.1148681640625 18.5157470703125
47.84423828125 10.421875 -10.340087890625
-26.957275390625 13.4237060546875 -1.5938720703125
-11.0068359375 -24.4141845703125 21.4749755859375
75.385009765625 -39.6844482421875 12.2469482421875
85.991455078125 -35.9019775390625 -4.540283203125
-39.3701171875 -23.1162109375 27.32666015625
22.00390625 27.218994140625 -10.807373046875
-6.47900390625 -11.0567626953125 5.941162109375
96.623291015625 -15.8912353515625 -2.176025390625
-88.9619140625 -17.23974609375 13.7723388671875
-43.430419921875 -17.7164306640625 22.069091796875
-58.682861328125 18.4776611328125 10.1884765625
-60.73974609375 -6.30908203125 10.965576171875
96.722900390625 -1.452392578125 -14.268798828125
35.544677734375 46.3228759765625 -7.9757080078125
11.19189453125 -3.76416015625 7.3262939453125
75.25732421875 -21.7371826171875 8.3160400390625
60.58447265625 -34.85400390625 -2.573486328125
-24.106201171875 20.74609375 -1.107421875
-25.178466796875 -2.99658203125 7.859130859375
-19.187744140625 11.6138916015625 -2.245361328125
17.974609375 -1.995361328125 3.681884765625
-45.80029296875 -7.102294921875 10.6903076171875
-32.063232421875 -8.21533203125 10.2742919921875
-20.27587890625 -19.0665283203125 21.494384765625
76.9296875 35.3232421875 -22.3394775390625
45.676025390625 1.178955078125 -3.4512939453125
72.537109375 -38.822509765625 5.479736328125
-11.68359375 17.207275390625 10.18017578125
-47.8857421875 7.989990234375 11.4034423828125
-15.627197265625 -13.6444091796875 16.43212890625
93.845458984375 -10.2972412109375 -15.3968505859375
91.714599609375 -33.470947265625 13.5245361328125
57.036376953125 -16.3812255859375 3.8323974609375
-28.11376953125 -30.43896484375 27.0938720703125
88.323486328125 -29.9034423828125 7.0584716796875
57.15966796875 -44.36376953125 8.4886474609375
-79.0693359375 -26.3917236328125 33.249267578125
-54.958984375 -9.9296875 4.0916748046875
69.67529296875 -21.0914306640625 4.5009765625
40.521240234375 23.431884765625 -11.1837158203125
47.860107421875 31.32958984375 -10.1995849609375
-48.12109375 -6.8563232421875 4.8690185546875
71.736328125 26.0533447265625 -18.995849609375
32.755126953125 -9.686279296875 12.4083251953125
16.79345703125 -14.53125 18.8297119140625
36.953125 29.76904296875 -11.1199951171875
-43.8876953125 -13.7781982421875 18.2314453125
-25.081298828125 -22.6278076171875 23.7271728515625
37.830810546875 36.9696044921875 -11.119140625
37.25537109375 39.617919921875 -10.8990478515625
-5.7509765625 7.9937744140625 10.91845703125
64.07275390625 -38.7073974609375 0.98388671875
23.352294921875 36.0140380859375 -10.916015625
-24.649169921875 16.68896484375 -2.2596435546875
45.885986328125 9.052490234375 -10.70703125
92.54248046875 -26.3992919921875 3.3819580078125
-99.898193359375 -27.0284423828125 -5.1094970703125
42.35009765625 38.11572265625 -11.2808837890625
5.031982421875 -32.7310791015625 30.9510498046875
14.077880859375 -18.2423095703125 22.67626953125
-80.414794921875 -23.3568115234375 29.9071044921875
93.15625 -4.86474609375 -17.7774658203125
4.913818359375 14.8447265625 11.158935546875
-44.576416015625 -15.02001953125 19.9866943359375
68.38134765625 -35.2696533203125 -1.6585693359375
21.716552734375 -0.5521240234375 1.970458984375
31.9609375 31.133544921875 -10.95751953125
93.128662109375 -29.227783203125 4.5233154296875
48.03369140625 15.074951171875 -10.6402587890625
68.22021484375 -37.706787109375 0.995361328125
-48.292236328125 -12.28955078125 8.8538818359375
-62.5 -19.277587890625 28.148681640625
-97.594482421875 -25.895263671875 -2.2822265625
-21.0517578125 30.53515625 -3.8458251953125
-19.089111328125 -8.5750732421875 12.725830078125
75.3125 -28.1734619140625 2.0125732421875
39.561279296875 21.625 -11.042724609375
25.928466796875 5.00830078125 -8.1044921875
76.8525390625 -37.11474609375 14.48681640625
39.79345703125 2.9630126953125 -6.13623046875
-29.03125 6.454345703125 -0.3970947265625
-52.767822265625 -10.119140625 4.5465087890625
46.435302734375 16.476806640625 -10.8670654296875
73.80224609375 -39.0281982421875 7.0750732421875
65.824462890625 -13.3594970703125 -4.0166015625
22.50439453125 -8.066650390625 11.4119873046875
23.83837890625 -0.6025390625 1.4410400390625
72.439453125 -4.6947021484375 -6.9013671875
-24.7939453125 -17.7738037109375 20.911376953125
-25.898681640625 0.56005859375 3.075927734375
50.10791015625 -16.8521728515625 16.1221923828125
-47.248291015625 -5.4586181640625 7.7342529296875
-98.21142578125 -27.097900390625 8.8223876953125
30.83837890625 -1.782958984375 2.5064697265625
39.2314453125 -27.959228515625 18.972900390625
57.189697265625 -21.990966796875 6.630615234375
-33.419677734375 20.3489990234375 -1.8018798828125
-48.098876953125 -23.2938232421875 29.7508544921875
93.5673828125 -30.3553466796875 13.2357177734375
98.486083984375 -6.9388427734375 4.0850830078125
-93.40869140625 -21.7381591796875 10.3636474609375
-12.94140625 29.83740234375 -4.3743896484375
8.783935546875 -3.3768310546875 7.478515625
22.64990234375 -10.03125 13.5029296875
18.45068359375 -38.212890625 31.8614501953125
27.896240234375 34.346435546875 -10.9366455078125
37.367919921875 21.599609375 -11.0548095703125
-4.656005859375 -33.9241943359375 27.4920654296875
-6.472900390625 -21.242919921875 19.5103759765625
-44.32568359375 -22.2491455078125 28.6458740234375
-81.985107421875 -21.1162109375 26.9327392578125
-0.05712890625 -11.0679931640625 6.16357421875
-24.337646484375 -4.5643310546875 8.83349609375
-39.84130859375 -13.0892333984375 15.993408203125
-4.976806640625 -28.504150390625 23.328369140625
90.089599609375 -15.05517578125 -8.60205078125
-3.814697265625 1.595458984375 5.1090087890625
57.843994140625 -11.371337890625 0.8203125
-2.02734375 5.4403076171875 8.122802734375
43.35009765625 -14.8427734375 17.3121337890625
65.159912109375 -18.368896484375 -1.2774658203125
-5.0068359375 14.6953125 11.078125
0.14208984375 12.234619140625 12.7926025390625
-5.155517578125 18.8018798828125 10.456787109375
75.66015625 -2.6763916015625 2.4788818359375
53.781982421875 -31.9063720703125 0.02880859375
65.127685546875 -44.557373046875 14.2723388671875
-53.562744140625 -13.5137939453125 7.874267578125
-56.0185546875 -18.5804443359375 24.840576171875
57.215087890625 -43.1007080078125 19.0958251953125
7.7294921875 -18.2996826171875 22.40234375
-38.80126953125 27.3153076171875 -1.569091796875
-75.85205078125 -25.2967529296875 31.710693359375
-77.8701171875 -19.539306640625 26.2977294921875
90.9951171875 -31.6988525390625 10.7877197265625
23.89453125 -13.495849609375 16.8489990234375
15.71728515625 -32.4586181640625 26.234619140625
97.436279296875 -24.2071533203125 -1.9521484375
71.335693359375 54.4051513671875 -25.414794921875
-29.953369140625 -19.2537841796875 22.8089599609375
-20.218994140625 -16.2283935546875 19.096435546875
95.259521484375 -0.824951171875 -19.4775390625
64.95703125 -35.7127685546875 -2.23291015625
23.380615234375 43.024658203125 -11.059814453125
1.733642578125 1.6025390625 6.7337646484375
70.109619140625 -9.8682861328125 10.8280029296875
39.452392578125 -9.2254638671875 11.5841064453125
-51.91259765625 -5.4190673828125 5.163330078125
39.9951171875 -15.888916015625 17.7642822265625
-20.73583984375 3.9610595703125 -0.3668212890625
-15.81103515625 9.4300537109375 -2.1829833984375
54.993896484375 -27.5740966796875 8.225341796875
18.75537109375 -8.3092041015625 11.58837890625
-49.51513671875 -17.9298095703125 23.552734375
-53.8876953125 -14.209716796875 20.21923828125
96.400146484375 -4.1124267578125 -0.845458984375
76.52880859375 -27.9493408203125 3.722900390625
27.28076171875 46.54052734375 -10.790283203125
30.7197265625 -13.0068359375 15.98876953125
4.727783203125 -5.5762939453125 9.566650390625
29.12109375 43.6785888671875 -10.8126220703125
20.848388671875 5.070556640625 -7.852294921875
61.5439453125 -15.3873291015625 0.924560546875
66.443603515625 22.033935546875 -16.182373046875
-57.725830078125 11.0250244140625 14.22900390625
-88.720947265625 -27.7401123046875 20.2862548828125
79.7578125 52.3270263671875 -24.0675048828125
-26.308837890625 -6.7840576171875 8.958251953125
7.246337890625 -2.087890625 8.4442138671875
74.890380859375 -35.6282958984375 5.857666015625
55.115478515625 -35.6103515625 1.4014892578125
85.0615234375 -25.1031494140625 -0.306396484375
33.9580078125 0.1578369140625 -0.5814208984375
98.189697265625 0.28955078125 0.8365478515625
-17.528076171875 18.763916015625 -2.8507080078125
39.136474609375 15.2564697265625 -11.0653076171875
-48.50048828125 4.9432373046875 7.5091552734375
