76.254150390625 -34.4010009765625 15.1552734375
41.78271484375 -13.56884765625 21.45263671875
-47.481689453125 -8.904296875 20.7967529296875
61.218505859375 -10.9263916015625 17.3358154296875
-7.563232421875 -32.2352294921875 32.414794921875
77.974365234375 -46.4500732421875 14.1719970703125
-53.940185546875 -22.5126953125 30.3114013671875
102.434326171875 -15.0621337890625 7.4779052734375
-44.999267578125 -10.4996337890625 17.672607421875
16.953857421875 -19.2919921875 21.50244140625
77.163818359375 12.8134765625 -6.4808349609375
52.546142578125 2.2469482421875 -1.494873046875
95.359619140625 -28.596923828125 16.9423828125
82.888671875 -24.0634765625 8.1429443359375
-36.164306640625 -21.7890625 29.6170654296875
4.995361328125 -5.32568359375 12.4017333984375
34.955322265625 -15.1285400390625 22.4085693359375
-2.574462890625 25.1875 2.8746337890625
68.02783203125 -30.26220703125 15.0206298828125
87.60986328125 -24.5830078125 6.78173828125
-41.916748046875 -2.2269287109375 11.860595703125
78.4208984375 6.156005859375 -4.575927734375
85.65380859375 35.3331298828125 -16.1463623046875
99.714599609375 -15.6500244140625 -5.2537841796875
91.05810546875 -34.4013671875 13.2701416015625
57.5400390625 21.611328125 -3.295166015625
73.01904296875 -41.3720703125 11.329833984375
81.18896484375 -18.8516845703125 6.350830078125
7.384033203125 -10.281494140625 14.315673828125
22.049560546875 1.3973388671875 9.19580078125
-45.76025390625 -3.3623046875 16.7427978515625
8.853759765625 -0.4892578125 10.846435546875
95.776123046875 -36.9073486328125 16.963134765625
74.36865234375 -29.6185302734375 15.3028564453125
40.560302734375 18.28173828125 -3.1146240234375
49.50927734375 4.7381591796875 -2.451416015625
2.521484375 25.2269287109375 3.008056640625
63.172119140625 5.0411376953125 -2.6512451171875
92.47021484375 -30.7042236328125 17.384521484375
33.66796875 -3.694580078125 10.32666015625
-86.109619140625 -31.8544921875 24.2923583984375
6.520263671875 -21.628662109375 25.879638671875
52.515869140625 15.4725341796875 -30.3316650390625
103.023193359375 -22.7823486328125 4.17236328125
86.370361328125 -15.056884765625 1.9710693359375
34.147705078125 -12.115966796875 19.3551025390625
-33.076904296875 -14.1988525390625 10.61083984375
87.510498046875 -38.8243408203125 9.1302490234375
-13.265380859375 -9.8853759765625 14.4354248046875
-33.1982421875 -8.3040771484375 13.8465576171875
-3.439208984375 5.2601318359375 5.976806640625
-42.9501953125 -15.8138427734375 23.30859375
73.3671875 -34.608642578125 12.4385986328125
-83.54736328125 -38.4554443359375 16.0985107421875
-83.654052734375 -42.0184326171875 30.1021728515625
73.678955078125 -13.6072998046875 7.95556640625
2.336669921875 -28.709716796875 29.70751953125
81.298095703125 -3.5140380859375 1.0997314453125
103.42529296875 -12.5703125 14.521728515625
43.119873046875 -2.165283203125 5.1983642578125
-19.133056640625 -16.3526611328125 21.8170166015625
-20.0654296875 0.649169921875 7.9095458984375
-10.197509765625 -22.4669189453125 27.897216796875
52.14208984375 20.7669677734375 -3.2696533203125
87.929443359375 4.78173828125 -8.3017578125
-22.5234375 -1.7008056640625 9.274169921875
-39.7568359375 -13.3211669921875 14.0162353515625
101.651611328125 -19.52587890625 14.4339599609375
72.994873046875 -23.079345703125 13.1387939453125
-9.585693359375 -16.5797119140625 21.7398681640625
82.634765625 -40.30029296875 8.1363525390625
-74.042724609375 -32.9296875 21.1959228515625
35.035888671875 -7.47509765625 14.259765625
42.025146484375 -5.90625 12.099365234375
-5.49072265625 16.91552734375 6.934326171875
107.721923828125 -33.443115234375 18.607421875
100.1767578125 -17.83837890625 -2.518798828125
7.17919921875 -34.8216552734375 31.83349609375
-47.7568359375 -5.73828125 23.0146484375
3.036376953125 18.8466796875 4.09375
79.728515625 -43.787841796875 11.430908203125
81.99169921875 -9.86083984375 0.0555419921875
-38.5419921875 -18.9317626953125 15.8409423828125
104.73828125 -30.0054931640625 11.6083984375
45.19775390625 13.7764892578125 -3.307373046875
30.329833984375 -15.03369140625 22.845703125
101.647705078125 -11.9449462890625 1.408203125
-73.602783203125 -49.186767578125 30.2867431640625
36.76904296875 31.7071533203125 -3.35205078125
51.18701171875 -1.028564453125 2.496826171875
78.248291015625 18.9815673828125 -9.3289794921875
80.67138671875 -25.3453369140625 10.1595458984375
81.114990234375 12.801513671875 -6.6239013671875
107.69189453125 -26.9798583984375 9.7734375
75.71630859375 18.2119140625 -7.212158203125
-22.142333984375 21.591064453125 5.0084228515625
88.057373046875 -22.0789794921875 8.8060302734375
73.32421875 -26.297119140625 19.7706298828125
-11.37939453125 -38.4652099609375 35.1748046875
78.23876953125 -4.3143310546875 -0.3155517578125
102.35205078125 -8.5936279296875 11.532958984375
-2.69921875 -15.9215087890625 21.638427734375
85.714111328125 -1.4739990234375 -6.3052978515625
102.586181640625 -4.238037109375 6.0306396484375
-9.54296875 10.1058349609375 6.3167724609375
-8.5078125 5.69873046875 5.8284912109375
77.032958984375 -23.1236572265625 10.8017578125
2.4091796875 6.418212890625 5.76123046875
72.6787109375 -38.233642578125 8.5277099609375
17.91259765625 -31.7310791015625 29.4866943359375
-14.248046875 6.541259765625 6.0260009765625
-14.179443359375 13.70068359375 5.9677734375
-36.180419921875 2.8525390625 15.5799560546875
-77.229736328125 -34.608154296875 18.4541015625
45.625 19.915771484375 -3.53662109375
-56.83837890625 -24.076416015625 31.7265625
-73.073486328125 -39.1871337890625 14.47216796875
-6.434814453125 -36.504150390625 33.8240966796875
86.537841796875 29.9578857421875 -16.208251953125
76.3857421875 9.91748046875 -5.3818359375
-70.661865234375 -29.0625 19.0745849609375
17.9443359375 -1.4212646484375 10.344970703125
63.978515625 -38.7034912109375 24.5499267578125
37.477294921875 12.1593017578125 -3.2904052734375
-50.026611328125 -17.677001953125 25.1317138671875
42.43310546875 25.6368408203125 -3.3701171875
86.324462890625 10.1793212890625 -11.2825927734375
48.926025390625 -7.71142578125 14.4981689453125
74.775146484375 -0.0531005859375 1.8975830078125
-75.896728515625 -46.836669921875 26.5020751953125
35.1279296875 4.8558349609375 -2.2913818359375
42.095947265625 37.48779296875 -3.4176025390625
73.94580078125 -21.20947265625 22.889892578125
-0.34521484375 -1.1920166015625 7.62353515625
-7.013916015625 11.6689453125 5.0810546875
-77.095947265625 -43.3687744140625 22.2540283203125
35.378662109375 -2.47509765625 7.568603515625
73.914306640625 -18.3270263671875 9.8876953125
-19.561767578125 -13.84326171875 18.175537109375
21.4716796875 -9.335693359375 16.629638671875
64.466552734375 -30.8756103515625 22.7664794921875
59.56005859375 12.5184326171875 -3.024658203125
67.54296875 -28.1912841796875 17.30419921875
102.981689453125 -34.2947998046875 21.7113037109375
-77.5751953125 -40.0914306640625 19.86328125
-31.152587890625 -0.7894287109375 13.3077392578125
11.631591796875 -11.9708251953125 11.9140625
-0.348388671875 -34.55224609375 31.92138671875
101.38916015625 -27.304931640625 12.066162109375
103.770263671875 -30.1922607421875 17.5523681640625
-6.12890625 -19.5660400390625 23.1474609375
70.223876953125 -24.9827880859375 22.0355224609375
-17.046630859375 -4.174072265625 11.3199462890625
61.844970703125 -6.217529296875 12.0340576171875
83.093994140625 2.3275146484375 -6.478271484375
105.16162109375 -24.6925048828125 8.4862060546875
81.706787109375 16.52685546875 -7.9931640625
70.969970703125 -11.112548828125 17.4564208984375
42.747314453125 -8.87646484375 15.700927734375
65.246826171875 -26.445556640625 18.4150390625
89.037353515625 -43.5123291015625 15.0506591796875
38.066650390625 -0.460205078125 1.7545166015625
75.874267578125 5.8212890625 0.4378662109375
46.66748046875 -0.150146484375 1.5469970703125
83.875732421875 20.984130859375 -12.073486328125
-81.096435546875 -43.6729736328125 23.738525390625
-22.533203125 -10.1121826171875 14.826904296875
12.615478515625 4.793701171875 12.4019775390625
84.721435546875 -32.945068359375 14.630126953125
-33.0673828125 -20.0897216796875 23.7720947265625
-29.750732421875 -3.5889892578125 12.635498046875
-5.8017578125 -3.53515625 10.2860107421875
-1.0263671875 -28.5963134765625 29.5748291015625
-31.126708984375 2.0068359375 16.0318603515625
60.53515625 36.521484375 -3.582275390625
-16.1357421875 10.1409912109375 6.609130859375
51.29443359375 33.8890380859375 -4.11083984375
86.378173828125 -17.6513671875 4.1927490234375
50.459716796875 14.232177734375 -1.2161865234375
-40.067138671875 -20.0130615234375 27.8397216796875
84.59765625 -46.8162841796875 15.5006103515625
-85.42236328125 -35.9810791015625 14.3155517578125
87.544921875 -33.8880615234375 14.212890625
-26.194580078125 19.6610107421875 6.66845703125
100.322265625 -21.3814697265625 2.6492919921875
102.990234375 -11.6162109375 8.1527099609375
73.17529296875 -44.0843505859375 13.8709716796875
41.5341796875 3.579345703125 -2.0029296875
14.586181640625 0.2501220703125 8.5638427734375
73.8779296875 -11.9425048828125 10.4388427734375
43.382568359375 30.5469970703125 -3.5079345703125
12.575927734375 -29.83056640625 28.473388671875
-26.210693359375 -15.380859375 22.080078125
35.17822265625 2.0377197265625 2.4638671875
102.22412109375 -12.58056640625 17.260009765625
23.968994140625 -12.757568359375 20.1944580078125
-14.88330078125 -1.404052734375 8.4669189453125
102.192626953125 -30.7205810546875 21.28759765625
23.65625 4.283203125 11.8565673828125
-74.292236328125 -30.0697021484375 18.3846435546875
66.790283203125 -32.2825927734375 13.2164306640625
38.862060546875 7.6695556640625 -3.270751953125
10.001708984375 1.9566650390625 12.8291015625
-82.6826171875 -29.0340576171875 19.1112060546875
4.000244140625 -35.5574951171875 32.127685546875
84.4990234375 3.5489501953125 -8.7724609375
46.274658203125 22.794189453125 -3.3487548828125
-15.073974609375 25.1488037109375 3.95166015625
7.9541015625 -31.399658203125 29.653564453125
-38.1328125 -16.4967041015625 12.9190673828125
61.331298828125 23.2738037109375 -3.57373046875
12.749267578125 -5.039794921875 12.884521484375
-19.572021484375 8.9571533203125 6.0357666015625
101.845947265625 -27.020263671875 16.317626953125
75.875732421875 5.774169921875 -3.1578369140625
81.882080078125 0.6883544921875 -2.4666748046875
-74.08740234375 -36.4749755859375 14.9560546875
-1.9755859375 14.85888671875 5.0677490234375
5.36669921875 12.8189697265625 4.3004150390625
48.250732421875 39.619873046875 -3.6822509765625
5.423583984375 -18.681640625 25.522216796875
74.4296875 -22.4202880859375 19.0291748046875
12.887451171875 -15.7254638671875 14.2276611328125
-44.90380859375 -19.884033203125 27.8775634765625
-2.90283203125 28.3868408203125 3.0233154296875
-13.61279296875 19.24658203125 5.1890869140625
73.142333984375 -26.9937744140625 14.951171875
87.559326171875 -36.3173828125 10.6060791015625
70.404052734375 -30.41650390625 17.046142578125
-8.9013671875 2.109619140625 6.032470703125
74.916748046875 -5.1121826171875 1.4842529296875
17.75244140625 -6.7708740234375 14.2467041015625
62.14794921875 30.7198486328125 -3.996826171875
11.489990234375 -0.93212890625 9.7349853515625
63.746337890625 -37.966552734375 27.333984375
-5.372314453125 19.671875 5.3951416015625
-11.921875 -2.2427978515625 8.9837646484375
-12.647216796875 0.1624755859375 7.5362548828125
102.184326171875 -17.2564697265625 9.3319091796875
98.5771484375 -5.4873046875 10.6617431640625
2.595947265625 3.192626953125 5.351318359375
54.85888671875 8.8101806640625 -3.33740234375
101.236572265625 -9.37548828125 2.9158935546875
-4.033935546875 22.81103515625 3.5927734375
77.6767578125 -14.9298095703125 5.6475830078125
50.023193359375 8.014404296875 -3.2303466796875
-54.5625 -14.7686767578125 24.5828857421875
64.000244140625 -25.3306884765625 25.064208984375
52.798583984375 -28.8419189453125 24.29150390625
103.213623046875 -16.197509765625 -2.7022705078125
72.94482421875 -18.3695068359375 12.9603271484375
34.9052734375 11.37939453125 -2.03662109375
-53.107177734375 -14.3536376953125 21.9495849609375
-32.7578125 -20.1944580078125 27.2841796875
66.00048828125 -38.03857421875 18.276123046875
52.981689453125 -4.385986328125 8.371826171875
7.00732421875 -26.7008056640625 27.783203125
-17.698486328125 -0.969482421875 8.21484375
-11.543701171875 13.2747802734375 5.0098876953125
57.57421875 -28.1158447265625 23.8433837890625
-6.512451171875 0.0882568359375 7.1622314453125
101.7548828125 -35.699462890625 24.5081787109375
-3.536376953125 2.45361328125 5.8701171875
-0.052001953125 20.0494384765625 4.2779541015625
-5.242919921875 -10.891357421875 17.5704345703125
8.867431640625 -15.7728271484375 21.3829345703125
-12.78076171875 -12.3568115234375 17.2047119140625
83.810791015625 -4.8092041015625 -3.9273681640625
3.544921875 -3.669921875 9.7352294921875
-36.015869140625 -15.793701171875 14.6011962890625
-7.80126953125 -20.83642578125 26.2066650390625
102.074951171875 -24.9593505859375 5.7803955078125
84.7431640625 13.4971923828125 -12.1165771484375
71.46533203125 -49.0499267578125 19.04638671875
63.16748046875 -9.239013671875 15.6395263671875
50.663330078125 18.2947998046875 -3.2325439453125
99.258544921875 -0.3118896484375 5.736083984375
73.91650390625 -9.3463134765625 5.98974609375
90.112060546875 31.61962890625 -16.902099609375
6.323974609375 -3.7120361328125 10.567626953125
-73.554443359375 -33.035400390625 15.1397705078125
102.5166015625 -8.5538330078125 5.3184814453125
67.244384765625 -23.17578125 22.1470947265625
-61.128173828125 -18.957763671875 24.431640625
77.73291015625 23.9359130859375 -10.1514892578125
37.98828125 27.2264404296875 -3.59130859375
-30.208251953125 -20.7144775390625 28.903564453125
-1.848388671875 -18.0340576171875 23.3011474609375
23.729736328125 -1.90576171875 11.322265625
5.233154296875 -32.1536865234375 29.9095458984375
10.66748046875 -35.382568359375 32.1195068359375
78.0380859375 36.6983642578125 -12.0970458984375
-25.606201171875 -22.4508056640625 28.19384765625
40.33935546875 21.1256103515625 -3.5269775390625
69.932861328125 -31.9976806640625 14.0999755859375
67.101806640625 -7.592529296875 14.648193359375
54.99365234375 -24.6492919921875 25.27490234375
57.83837890625 32.3359375 -3.8258056640625
-17.82177734375 -13.02685546875 15.3394775390625
67.7197265625 -35.6856689453125 12.4063720703125
-31.453857421875 -5.945068359375 12.8292236328125
-73.137451171875 -43.903564453125 21.72216796875
78.198974609375 -9.3931884765625 2.627685546875
50.26806640625 14.3006591796875 1.4891357421875
76.671630859375 -11.2130126953125 16.76123046875
63.878662109375 -35.3409423828125 26.6859130859375
101.5888671875 -11.8939208984375 -2.8555908203125
-38.251220703125 -17.5703125 24.963134765625
103.160888671875 -17.469482421875 19.383544921875
105.645751953125 -30.5697021484375 14.285888671875
2.13134765625 14.8328857421875 4.218994140625
2.361083984375 -5.2816162109375 11.8272705078125
66.778076171875 -44.19287109375 20.3646240234375
76.12060546875 -37.92822265625 8.32763671875
65.235595703125 -32.322998046875 15.4560546875
-1.28759765625 4.028076171875 4.9344482421875
74.615478515625 -5.548828125 7.6561279296875
10.27099609375 -18.9757080078125 15.51171875
-2.683349609375 -2.7720947265625 9.2633056640625
-44.465087890625 1.767578125 18.4901123046875
65.850830078125 -12.3204345703125 19.01025390625
36.073974609375 1.225341796875 5.4798583984375
47.704345703125 18.3349609375 -1.7933349609375
75.59375 15.3328857421875 -5.9033203125
-9.0419921875 27.1563720703125 3.4219970703125
56.7080078125 28.600830078125 -3.9583740234375
-42.047119140625 0.93359375 15.239990234375
90.99267578125 17.6265869140625 -13.4019775390625
82.05419921875 27.1827392578125 -12.6160888671875
42.842041015625 12.5560302734375 -3.1826171875
-3.80078125 -23.91162109375 28.623046875
36.634033203125 -5.8214111328125 12.05908203125
47.093017578125 -12.803955078125 19.5994873046875
-3.25244140625 -14.23193359375 19.674072265625
-16.328857421875 -22.285888671875 27.603515625
54.25390625 -12.0909423828125 19.0596923828125
-79.70849609375 -39.1514892578125 18.610107421875
85.65234375 38.102783203125 -18.2447509765625
75.83349609375 11.2301025390625 -2.619384765625
44.630859375 5.1871337890625 -2.488037109375
44.28857421875 -5.1009521484375 10.9957275390625
82.04248046875 9.8955078125 -5.276611328125
52.976806640625 12.5283203125 -3.3011474609375
18.118408203125 4.744873046875 12.1285400390625
3.60205078125 -13.5860595703125 21.1536865234375
-66.739990234375 -24.1400146484375 30.699951171875
-8.237548828125 -14.548583984375 20.7366943359375
90.604736328125 14.731201171875 -12.4930419921875
-44.627197265625 -22.79052734375 30.5655517578125
61.729736328125 16.6448974609375 -3.5694580078125
-40.781982421875 -14.6439208984375 22.249755859375
47.675537109375 9.2611083984375 -3.1251220703125
14.287841796875 -12.8404541015625 11.649658203125
41.431884765625 32.5650634765625 -3.588134765625
56.313720703125 0.149169921875 0.5260009765625
-2.1953125 -7.6611328125 14.556884765625
76.29052734375 -0.0870361328125 -1.7259521484375
-36.663330078125 0.0706787109375 12.783447265625
79.808349609375 -47.894287109375 15.3626708984375
-42.963623046875 -7.33349609375 13.4927978515625
49.770751953125 -2.6680908203125 5.657958984375
18.770751953125 -12.627197265625 18.656982421875
54.440185546875 22.0028076171875 -3.5263671875
102.643310546875 -20.9833984375 1.5189208984375
64.629638671875 -31.137451171875 18.3570556640625
-20.7744140625 -24.276611328125 29.77294921875
53.564697265625 35.1785888671875 -3.665771484375
-86.81298828125 -29.8037109375 22.337646484375
-24.6376953125 -13.7421875 18.82275390625
50.28125 23.202880859375 -3.9251708984375
89.4853515625 19.6845703125 -14.091796875
-12.929931640625 -14.4227294921875 19.6337890625
77.692626953125 -5.1851806640625 13.60107421875
76.118408203125 21.1710205078125 -6.00146484375
81.4853515625 38.9736328125 -16.3941650390625
-11.407470703125 8.1190185546875 6.25634765625
100.90234375 -21.3017578125 16.365478515625
83.00732421875 29.642333984375 -13.439208984375
83.2353515625 35.7596435546875 -15.320556640625
65.330322265625 -41.252685546875 22.7613525390625
40.029541015625 -15.6697998046875 22.6788330078125
-19.3037109375 -4.546142578125 13.072998046875
83.556884765625 15.2105712890625 -10.30810546875
-26.49169921875 -7.6304931640625 13.972900390625
-46.481201171875 -15.7276611328125 23.23828125
-9.467041015625 -6.310546875 12.906982421875
68.92236328125 -46.731689453125 25.2301025390625
76.699462890625 -48.7142333984375 16.8778076171875
-48.207275390625 -19.7806396484375 27.349365234375
-77.525146484375 -29.624755859375 19.649658203125
102.730224609375 -15.8929443359375 5.050048828125
52.48974609375 -7.7672119140625 13.8536376953125
55.209716796875 15.81298828125 -3.705810546875
-20.21240234375 16.4945068359375 6.3211669921875
39.208740234375 31.2926025390625 -4.0296630859375
7.68212890625 -17.485595703125 25.3001708984375
-77.51904296875 -35.1693115234375 21.96875
-4.54638671875 8.8673095703125 5.5208740234375
9.025146484375 -8.2608642578125 13.851806640625
7.22021484375 -14.4410400390625 18.35888671875
-72.560302734375 -48.7266845703125 23.3231201171875
-82.502197265625 -34.971923828125 21.936279296875
58.99462890625 38.5595703125 -3.7130126953125
55.69970703125 -29.4144287109375 25.7022705078125
76.078369140625 17.062744140625 -3.8316650390625
60.7275390625 -4.0767822265625 8.02099609375
64.6494140625 -35.103515625 20.802734375
-14.64013671875 2.96630859375 6.2291259765625
33.89501953125 -5.36376953125 12.3306884765625
72.552001953125 -47.2828369140625 17.566650390625
-7.856201171875 -2.69970703125 8.9737548828125
63.916015625 -31.4423828125 26.6541748046875
79.143310546875 -35.282958984375 13.376220703125
-83.116943359375 -42.2818603515625 21.649658203125
74.460205078125 -2.9990234375 2.9678955078125
51.86669921875 -10.75244140625 17.63720703125
104.691650390625 -23.31982421875 6.4085693359375
-72.77099609375 -50.25146484375 28.141357421875
72.49169921875 -12.451904296875 18.98828125
59.9697265625 7.132568359375 -3.0303955078125
-5.52392578125 17.239990234375 4.3369140625
88.062255859375 36.0675048828125 -18.3668212890625
81.697265625 -12.846435546875 2.58349609375
-59.169677734375 -19.052978515625 26.035888671875
85.906494140625 32.837158203125 -16.435302734375
46.729736328125 31.8077392578125 -3.6014404296875
-84.193359375 -37.8616943359375 26.30517578125
-19.7021484375 -8.5462646484375 13.28076171875
79.117431640625 -36.89453125 11.142578125
13.961669921875 2.3048095703125 9.8795166015625
-30.267333984375 -13.95703125 15.507080078125
80.572265625 -12.8709716796875 6.0751953125
-62.89111328125 -21.0048828125 28.4952392578125
-53.27294921875 -19.626953125 26.7176513671875
-37.56494140625 -8.2242431640625 13.888671875
80.25048828125 -31.483154296875 14.14453125
24.38671875 -11.0731201171875 18.3887939453125
-73.26318359375 -42.5040283203125 18.233642578125
36.73486328125 2.404541015625 -1.19873046875
64.422607421875 -29.49072265625 20.3287353515625
110.07666015625 -32.6475830078125 18.8516845703125
-13.876220703125 -18.5731201171875 24.174560546875
45.24267578125 -8.9212646484375 15.7510986328125
-23.73681640625 16.8648681640625 5.482666015625
79.900390625 14.84814453125 -8.35107421875
-22.0517578125 -3.69921875 11.15087890625
-84.4306640625 -33.419921875 23.3280029296875
-4.64599609375 12.0467529296875 4.4161376953125
37.005859375 9.7181396484375 -3.2218017578125
-73.675537109375 -27.740234375 17.7705078125
-2.33447265625 -37.484130859375 33.6092529296875
85.1142578125 -29.4105224609375 12.1495361328125
15.91259765625 6.0078125 13.1971435546875
24.707275390625 -5.2310791015625 14.6907958984375
-6.100341796875 -34.374755859375 32.592529296875
29.7373046875 -10.76025390625 18.4501953125
-10.168701171875 21.6024169921875 3.9892578125
-24.234619140625 9.0042724609375 7.344482421875
43.468994140625 39.5450439453125 -3.5811767578125
35.365478515625 21.15087890625 -2.2943115234375
17.047119140625 -12.9599609375 15.65234375
87.340087890625 -12.9403076171875 1.1239013671875
2.241943359375 -23.223388671875 27.61376953125
19.852294921875 -5.5650634765625 13.7410888671875
86.4111328125 -30.4114990234375 14.75244140625
60.828125 28.236083984375 -3.696044921875
-42.608642578125 -1.4305419921875 14.09130859375
-76.508544921875 -48.4990234375 28.21826171875
52.7431640625 0.6026611328125 0.3326416015625
7.196533203125 -14.7890625 14.9349365234375
69.304931640625 -39.16015625 12.5726318359375
-39.023681640625 -10.9605712890625 13.6513671875
-82.153076171875 -40.6624755859375 19.804443359375
89.5947265625 -39.4443359375 11.33154296875
105.8681640625 -32.0169677734375 17.524169921875
41.522705078125 -12.264892578125 19.3857421875
13.5244140625 -10.3907470703125 13.555419921875
45.609619140625 35.873779296875 -3.9266357421875
37.890625 17.0426025390625 -3.5084228515625
-73.571533203125 -35.515380859375 11.085693359375
3.85693359375 -9.837890625 17.226806640625
-20.53076171875 20.461181640625 6.462158203125
43.382080078125 0.7049560546875 0.1978759765625
-15.006103515625 16.08984375 6.0389404296875
-47.009765625 -3.3516845703125 19.7457275390625
-84.93310546875 -35.2325439453125 28.672119140625
92.478759765625 -27.4779052734375 12.172607421875
-52.360107421875 -21.312255859375 28.8841552734375
-35.070068359375 -20.1539306640625 28.07421875
2.8359375 -16.0838623046875 23.2718505859375
19.234375 -33.5313720703125 31.029541015625
84.84130859375 -10.3255615234375 -0.9647216796875
33.9658203125 -5.79541015625 15.663330078125
-35.509033203125 -14.9591064453125 11.95556640625
77.35107421875 32.990234375 -11.5750732421875
-47.0322265625 -6.5013427734375 16.8956298828125
-80.55859375 -34.8052978515625 17.34130859375
76.898681640625 -27.4927978515625 13.6888427734375
79.47900390625 -17.557861328125 7.5484619140625
-72.52197265625 -47.4095458984375 21.2799072265625
85.769287109375 27.48388671875 -15.8258056640625
101.66796875 -14.9281005859375 0.0968017578125
28.527587890625 -9.046142578125 16.3675537109375
84.24951171875 -19.3192138671875 4.8636474609375
37.44287109375 -9.62939453125 16.6656494140625
53.661865234375 15.5384521484375 -28.006103515625
-70.634033203125 -32.0347900390625 16.15283203125
-21.392578125 -20.40380859375 23.771240234375
92.808349609375 16.705322265625 -16.4036865234375
48.68408203125 28.5491943359375 -3.5108642578125
77.63525390625 -39.651611328125 7.5968017578125
-55.413330078125 -17.1322021484375 24.68359375
-10.25537109375 16.0791015625 5.668212890625
3.422119140625 -1.2398681640625 7.7828369140625
-47.47509765625 -23.5318603515625 31.123779296875
101.391845703125 -17.0836181640625 1.1751708984375
90.102783203125 -30.642822265625 17.7613525390625
-33.813720703125 -12.2266845703125 11.7586669921875
81.062255859375 32.0753173828125 -14.076171875
-73.636962890625 -39.7757568359375 18.252685546875
107.2060546875 -29.1734619140625 10.59912109375
-80.1689453125 -30.2869873046875 19.259521484375
101.8125 -5.5111083984375 1.493408203125
21.4638671875 -1.465576171875 10.695068359375
102.430908203125 -26.3262939453125 7.7099609375
87.70947265625 -20.6805419921875 4.669189453125
62.4208984375 -0.3388671875 0.0272216796875
95.38427734375 -30.401611328125 18.4951171875
49.167236328125 -14.148193359375 21.3563232421875
103.357666015625 -17.9415283203125 -1.088623046875
-7.09423828125 -6.35107421875 13.08251953125
-9.281494140625 -37.2720947265625 34.680419921875
84.755126953125 24.721435546875 -12.337890625
40.992919921875 -0.9041748046875 2.574951171875
20.015625 0.1888427734375 8.9893798828125
23.127685546875 -16.14990234375 23.8311767578125
51.942138671875 26.9232177734375 -3.7119140625
1.1298828125 8.427001953125 5.057373046875
102.445068359375 -19.8599853515625 9.02197265625
-42.343994140625 -4.587890625 13.815185546875
-5.81005859375 24.8319091796875 4.4498291015625
81.859375 -44.353759765625 12.2747802734375
-81.5908203125 -47.76611328125 26.9342041015625
-20.86279296875 23.56689453125 4.8565673828125
-77.611083984375 -37.1895751953125 16.52099609375
91.502685546875 -28.4974365234375 17.4599609375
-26.8779296875 -11.28076171875 18.7498779296875
2.7529296875 12.045654296875 5.4093017578125
-0.193115234375 -21.0494384765625 26.508056640625
87.51025390625 21.31884765625 -14.7227783203125
55.095458984375 -6.10986328125 11.6728515625
101.365966796875 -21.6583251953125 12.638427734375
32.109619140625 -11.223876953125 18.3697509765625
-16.11279296875 12.5263671875 6.5897216796875
-12.295654296875 23.6202392578125 5.0169677734375
102.55322265625 -17.5836181640625 3.4364013671875
77.885498046875 -24.896484375 12.074462890625
67.603759765625 -41.50048828125 17.69580078125
60.3701171875 10.0263671875 -3.235107421875
1.17236328125 -39.365966796875 34.9508056640625
-13.638427734375 -8.2508544921875 12.793212890625
82.193603515625 -29.302001953125 11.6834716796875
45.4697265625 -11.4873046875 18.5557861328125
86.27490234375 -21.538818359375 6.300537109375
50.690185546875 12.128173828125 -3.051513671875
-11.00830078125 -5.07080078125 11.667724609375
51.371337890625 17.001708984375 -32.005126953125
46.60302734375 1.4871826171875 -0.853759765625
1.477294921875 -0.0081787109375 6.7327880859375
80.9755859375 -8.5972900390625 2.9197998046875
101.09326171875 -21.8939208984375 5.108154296875
102.2880859375 -18.1883544921875 12.3714599609375
75.090087890625 2.8787841796875 0.1075439453125
-16.910888671875 26.3558349609375 4.6807861328125
-73.025634765625 -46.8865966796875 25.2623291015625
52.613037109375 -28.51220703125 27.20068359375
102.618408203125 -13.7198486328125 4.148193359375
-18.0234375 -22.19140625 26.0341796875
-19.90185546875 11.7353515625 6.1865234375
81.646484375 -5.6287841796875 -0.5185546875
75.167724609375 -7.27490234375 10.723388671875
-71.739013671875 -24.056396484375 21.438232421875
2.728515625 -19.427490234375 24.9063720703125
-34.897705078125 -1.1390380859375 11.9288330078125
36.6083984375 6.465087890625 -3.01708984375
-25.408447265625 -17.4385986328125 22.86376953125
-49.5810546875 -11.24560546875 21.02392578125
101.1953125 -28.0877685546875 9.658447265625
-22.0595703125 -8.0926513671875 12.1434326171875
55.70263671875 -2.3299560546875 4.899658203125
81.76171875 25.1485595703125 -11.5880126953125
109.06640625 -36.2861328125 21.9559326171875
-83.17236328125 -39.363037109375 18.1754150390625
77.889892578125 -44.631103515625 12.5155029296875
-2.658203125 18.0499267578125 4.5704345703125
36.830322265625 -1.66943359375 5.98974609375
75.0537109375 -10.1947021484375 3.9781494140625
82.09228515625 -37.7823486328125 9.5115966796875
12.87158203125 -32.83984375 29.95654296875
-65.54833984375 -20.892333984375 27.225830078125
87.820556640625 -7.8330078125 -1.8756103515625
57.02294921875 -9.12841796875 15.4906005859375
88.222412109375 2.27880859375 -6.458740234375
100.906982421875 -29.9208984375 24.700439453125
100.776123046875 -26.0445556640625 14.1043701171875
3.381591796875 -37.2880859375 33.6893310546875
72.989013671875 -22.7132568359375 15.38623046875
-31.332763671875 -10.7392578125 15.042724609375
77.931396484375 4.074951171875 -3.7940673828125
50.795166015625 20.4654541015625 -34.2613525390625
-81.21875 -45.7432861328125 25.6595458984375
23.50341796875 -8.536865234375 15.9893798828125
71.11865234375 -40.0277099609375 11.508056640625
68.849853515625 -47.3970947265625 22.0203857421875
78.778564453125 36.9786376953125 -14.5498046875
-15.019775390625 -6.2115478515625 11.8138427734375
102.932861328125 -10.7825927734375 11.6448974609375
52.35693359375 18.6490478515625 -29.9462890625
-75.94677734375 -34.553955078125 16.4605712890625
43.6728515625 -7.199462890625 13.985595703125
-11.169677734375 -9.114501953125 14.076904296875
58.440185546875 19.5439453125 -3.3773193359375
102.577392578125 -4.235595703125 3.1893310546875
84.815185546875 24.6126708984375 -15.001953125
39.3642578125 -12.650146484375 19.89208984375
-32.03076171875 -17.8577880859375 13.794189453125
-59.812255859375 -23.991455078125 31.865478515625
53.04833984375 38.0484619140625 -3.7705078125
68.359375 -11.9298095703125 18.16455078125
-23.42822265625 12.162109375 7.100830078125
77.01806640625 27.2666015625 -9.8154296875
-8.4384765625 -7.9595947265625 14.9100341796875
94.14306640625 14.655029296875 -15.2786865234375
60.0126953125 -13.0653076171875 19.4190673828125
19.277587890625 -15.13134765625 18.770751953125
37.267822265625 -4.158935546875 9.10302734375
9.97900390625 -15.213623046875 12.388427734375
-10.44677734375 -20.7720947265625 26.45703125
94.529541015625 -31.175537109375 16.5784912109375
103.405029296875 -5.9827880859375 7.1654052734375
-5.145751953125 -39.9827880859375 35.5201416015625
86.447998046875 -41.4781494140625 11.353515625
15.76904296875 -31.220703125 29.0821533203125
-53.375244140625 -24.1793212890625 31.6839599609375
76.203369140625 -9.461181640625 14.5284423828125
59.961181640625 34.02587890625 -3.6439208984375
100.908935546875 -19.23388671875 1.9805908203125
47.432373046875 13.83935546875 -0.608642578125
-70.321044921875 -22.2257080078125 23.8612060546875
58.42919921875 -3.2030029296875 6.793701171875
-2.695068359375 7.65576171875 5.6065673828125
-75.567138671875 -33.563232421875 19.4765625
72.142578125 -27.6025390625 21.111328125
54.1328125 -26.7550048828125 24.760498046875
-14.0634765625 -16.050537109375 21.033935546875
-21.24072265625 -22.9442138671875 26.9210205078125
101.514892578125 -14.003662109375 -4.2930908203125
5.626220703125 1.5537109375 5.86962890625
64.18017578125 -27.481689453125 24.6031494140625
81.9326171875 -21.8636474609375 6.74072265625
-86.940673828125 -37.40185546875 13.576416015625
92.943359375 18.81103515625 -15.59423828125
44.0986328125 28.4920654296875 -3.84912109375
-63.93408203125 -23.846923828125 31.270263671875
-45.6044921875 -5.725341796875 15.2467041015625
-43.028564453125 -8.93798828125 16.229736328125
-7.654052734375 -12.467529296875 17.3975830078125
-16.419921875 19.62890625 4.946044921875
73.5625 -15.3271484375 9.308837890625
-7.439697265625 16.1309814453125 7.5576171875
72.259521484375 -24.62939453125 22.7633056640625
76.965087890625 -31.02294921875 16.1192626953125
84.396484375 0.21728515625 -6.7464599609375
81.804931640625 5.69140625 -6.220458984375
68.96484375 -41.4581298828125 15.9100341796875
65.57666015625 -34.5279541015625 16.787109375
-83.96630859375 -39.142578125 28.059814453125
-79.275146484375 -47.0606689453125 26.427978515625
14.1494140625 6.8560791015625 14.2242431640625
49.601318359375 -11.137451171875 18.0069580078125
36.974853515625 15.009033203125 -3.394287109375
74.617431640625 -12.92724609375 19.0950927734375
-50.336669921875 -21.7900390625 29.5400390625
75.106689453125 -23.5250244140625 11.7401123046875
-17.066162109375 -16.81982421875 22.3284912109375
107.007080078125 -22.0325927734375 4.5137939453125
103.617919921875 -14.067626953125 -2.9063720703125
-20.172119140625 -18.4173583984375 24.3514404296875
-23.337890625 -5.28271484375 13.0806884765625
17.17333984375 3.0965576171875 10.5330810546875
75.52587890625 -20.0574951171875 9.2947998046875
100.695556640625 -25.8814697265625 8.9351806640625
102.385498046875 -17.2120361328125 6.7451171875
104.338134765625 -19.309326171875 1.630126953125
76.550048828125 7.42626953125 -4.3846435546875
102.172119140625 -8.892822265625 -6.288818359375
-25.691162109375 -23.72802734375 29.939697265625
55.830810546875 23.6534423828125 -3.6881103515625
-38.086669921875 -4.2513427734375 11.7430419921875
74.182373046875 -11.46630859375 5.684814453125
-46.40576171875 -8.8868408203125 17.3944091796875
-22.216552734375 -4.509765625 15.308837890625
-11.84228515625 2.1484375 7.3001708984375
82.45068359375 14.465576171875 -6.92236328125
-8.870849609375 -39.4178466796875 35.5511474609375
78.94091796875 -11.958984375 3.7379150390625
91.521728515625 -31.9000244140625 15.338623046875
-85.996337890625 -39.2623291015625 31.5452880859375
6.3623046875 -10.2896728515625 16.6956787109375
81.779541015625 -14.982421875 3.46826171875
-79.3388671875 -31.9168701171875 20.3868408203125
108.283935546875 -34.850830078125 20.130126953125
50.58154296875 17.9482421875 -1.1148681640625
35.04052734375 -2.8846435546875 11.764892578125
102.43994140625 -23.3524169921875 9.8055419921875
87.38525390625 15.957275390625 -13.410400390625
81.4833984375 -1.4111328125 -2.265380859375
72.140380859375 -42.285400390625 13.0618896484375
81.383056640625 -17.1138916015625 4.404296875
48.40966796875 -3.4833984375 7.385498046875
-51.18994140625 -16.413818359375 23.4307861328125
89.403076171875 -26.4537353515625 10.0531005859375
81.087158203125 -42.49951171875 10.390869140625
4.69775390625 -24.5208740234375 26.95263671875
37.6923828125 34.5638427734375 -3.4727783203125
101.509765625 -3.358154296875 8.8441162109375
52.03369140625 -13.341064453125 20.3289794921875
22.117431640625 -3.9476318359375 13.5023193359375
102.415771484375 -10.7947998046875 13.837158203125
102.32275390625 -12.88330078125 6.5699462890625
-4.3935546875 -17.10009765625 21.09423828125
-1.858642578125 -5.21484375 11.6998291015625
-19.518798828125 14.5037841796875 5.9906005859375
-21.02392578125 6.203125 6.7515869140625
-22.119384765625 3.4442138671875 7.2939453125
-19.12451171875 18.4609375 5.78515625
75.177978515625 -45.92578125 14.58984375
75.412109375 -41.8411865234375 10.35302734375
-22.332763671875 -21.6497802734375 25.582763671875
23.394775390625 -32.813232421875 30.6470947265625
29.0673828125 -6.95703125 13.980224609375
39.6259765625 -10.093505859375 17.0433349609375
82.59130859375 9.8538818359375 -7.3316650390625
-7.314453125 -9.2088623046875 16.211181640625
20.543701171875 -7.2352294921875 14.9757080078125
39.18505859375 37.3953857421875 -4.208740234375
50.56884765625 -5.614990234375 10.8052978515625
-4.365478515625 -22.205078125 27.4931640625
-4.278076171875 -31.89453125 31.52099609375
65.06298828125 -35.8646240234375 18.3499755859375
84.6064453125 5.6300048828125 -9.3658447265625
48.265869140625 2.7021484375 -1.3214111328125
8.348388671875 -17.6748046875 14.5556640625
60.435791015625 26.1710205078125 -3.498046875
0.297607421875 -30.33544921875 30.3505859375
16.766845703125 -2.6351318359375 11.60791015625
72.6416015625 -28.320068359375 16.5147705078125
82.39892578125 22.27783203125 -10.6536865234375
44.2646484375 -3.4259033203125 7.8089599609375
57.19384765625 5.913818359375 -2.7236328125
-30.094482421875 -9.1776123046875 15.7308349609375
79.260009765625 -7.7147216796875 1.92333984375
103.094482421875 -11.9056396484375 -4.3291015625
-15.892333984375 -18.1044921875 23.792724609375
5.371337890625 -33.88427734375 31.0972900390625
40.673095703125 -2.96044921875 6.741455078125
-22.93896484375 -22.523193359375 28.0858154296875
75.57177734375 -35.124755859375 12.6741943359375
44.690185546875 8.045166015625 -3.2117919921875
1.671630859375 -35.0562744140625 32.186767578125
80.80859375 -39.35400390625 7.7193603515625
77.4375 1.5714111328125 -3.007568359375
79.537353515625 38.9892578125 -15.6201171875
68.008056640625 -45.9874267578125 20.717529296875
-29.968994140625 -18.8636474609375 19.9508056640625
12.44873046875 -7.0921630859375 14.0673828125
43.81884765625 -14.4617919921875 21.5648193359375
77.783203125 39.1971435546875 -11.8067626953125
7.76416015625 -15.57568359375 12.6162109375
-20.79931640625 -10.959228515625 15.6273193359375
28.75732421875 -14.140380859375 21.8043212890625
56.993408203125 -0.683349609375 2.3145751953125
-47.463623046875 -7.6959228515625 18.8616943359375
-18.958251953125 -20.478515625 24.106201171875
-78.33544921875 -35.2447509765625 16.71533203125
70.9814453125 -35.6787109375 9.712646484375
102.9716796875 -28.65966796875 12.0753173828125
35.275146484375 -0.4105224609375 6.568115234375
-35.348388671875 -19.6737060546875 25.5430908203125
-18.994140625 -14.702392578125 20.2353515625
84.13427734375 18.89599609375 -12.3681640625
102.329345703125 -26.663330078125 18.43798828125
-43.74951171875 -18.6727294921875 26.4892578125
100.967529296875 -7.6373291015625 0.4122314453125
-24.52978515625 -15.8006591796875 20.9312744140625
86.007080078125 19.286376953125 -13.2803955078125
15.72119140625 -9.2130126953125 14.89697265625
-84.09814453125 -31.3782958984375 20.8704833984375
-47.617919921875 -10.114013671875 22.4776611328125
-37.351318359375 4.0654296875 16.7891845703125
60.487060546875 -1.5582275390625 3.103759765625
62.512939453125 11.2508544921875 -3.756591796875
12.37841796875 0.683837890625 8.789306640625
57.51708984375 10.0416259765625 -3.0697021484375
-31.92529296875 -15.8388671875 12.1309814453125
64.349609375 -27.33544921875 20.16845703125
66.787109375 -38.4033203125 16.3983154296875
1.705322265625 -17.721435546875 23.8275146484375
21.23486328125 -34.030517578125 31.1531982421875
-48.757568359375 -16.4869384765625 24.024169921875
-8.04541015625 -19.53564453125 23.9078369140625
-24.445556640625 -11.2974853515625 16.4166259765625
104.054443359375 -14.8299560546875 18.3468017578125
-72.21240234375 -23.328125 23.377685546875
64.38525390625 -32.0982666015625 21.1092529296875
78.510986328125 -6.0076904296875 0.826416015625
49.95703125 10.067626953125 -3.3775634765625
8.4599609375 -3.3365478515625 11.0479736328125
-6.009521484375 5.274658203125 5.4288330078125
5.015869140625 6.3851318359375 4.65869140625
-54.56396484375 -21.248291015625 28.8138427734375
54.304931640625 3.466796875 -1.8326416015625
43.720458984375 18.685302734375 -3.4603271484375
5.062744140625 18.8612060546875 4.42724609375
53.402587890625 18.2901611328125 -3.5281982421875
105.9443359375 -34.3182373046875 19.8724365234375
-12.322265625 20.8359375 5.03955078125
-40.157470703125 4.0963134765625 17.3494873046875
-23.386962890625 -17.0726318359375 22.3804931640625
-3.220703125 -11.7647705078125 18.7972412109375
75.303955078125 -13.6103515625 5.8792724609375
79.07568359375 28.40283203125 -12.5728759765625
82.887939453125 -37.4730224609375 11.3741455078125
-38.216796875 -12.5413818359375 12.6282958984375
103.532470703125 -31.1351318359375 19.4481201171875
-46.274169921875 -0.9830322265625 19.379638671875
-47.642822265625 -6.92138671875 21.3505859375
10.968017578125 -37.5731201171875 33.6102294921875
-25.562255859375 -6.437255859375 12.2208251953125
57.597412109375 -6.575439453125 12.45703125
20.20654296875 6.81201171875 14.0467529296875
-29.724365234375 -12.8057861328125 17.5169677734375
43.56005859375 -12.3072509765625 19.487548828125
83.023193359375 -3.9619140625 2.0908203125
-80.54443359375 -33.0927734375 21.5894775390625
-84.30029296875 -37.09912109375 13.0313720703125
7.07177734375 -12.7479248046875 15.501953125
-37.635498046875 -17.4810791015625 20.566162109375
6.802978515625 -23.73388671875 26.45556640625
0.212158203125 10.0220947265625 4.18408203125
35.813720703125 -4.556396484375 10.6903076171875
71.349365234375 -43.64208984375 14.9447021484375
-43.999267578125 -11.7275390625 18.951904296875
-34.49609375 -15.8590087890625 15.953125
-79.5625 -45.3546142578125 24.542724609375
103.0458984375 -12.97509765625 12.5665283203125
-17.611572265625 5.3897705078125 7.343505859375
-43.594970703125 -5.756591796875 14.9033203125
21.927734375 -13.1419677734375 20.833251953125
-50.564697265625 -14.4100341796875 21.833984375
32.8857421875 -6.18701171875 13.8836669921875
76.240234375 -5.5882568359375 12.2464599609375
-85.266357421875 -35.11328125 26.6630859375
-23.993408203125 13.7183837890625 5.936279296875
79.880126953125 -29.2982177734375 13.5621337890625
101.859619140625 -27.82470703125 14.1668701171875
-78.13330078125 -41.73046875 21.6746826171875
-19.46630859375 -23.4305419921875 27.7640380859375
7.45068359375 -0.0709228515625 9.1651611328125
-78.694091796875 -43.37744140625 23.4947509765625
37.18212890625 36.5880126953125 -3.56982421875
-8.82177734375 -9.978759765625 15.103515625
-83.145751953125 -42.3076171875 28.1385498046875
76.49462890625 -19.9510498046875 22.0299072265625
84.57470703125 -40.4046630859375 8.6871337890625
3.936279296875 -17.7911376953125 24.488037109375
-1.751953125 22.023193359375 3.6259765625
74.30859375 -24.6171875 20.4287109375
73.394287109375 -20.9835205078125 14.432861328125
-0.47412109375 13.639892578125 4.5054931640625
-40.0439453125 -14.1468505859375 16.2344970703125
14.789306640625 -34.6719970703125 31.7412109375
-65.61181640625 -19.274658203125 25.977783203125
56.727783203125 30.6640625 -3.9752197265625
4.962158203125 8.3963623046875 4.512451171875
-24.416259765625 20.0316162109375 5.80224609375
20.91064453125 5.1414794921875 12.8424072265625
90.017822265625 15.9415283203125 -13.9844970703125
0.4443359375 4.8223876953125 5.5679931640625
-40.0927734375 -2.64501953125 11.1324462890625
-41.06591796875 -8.5740966796875 15.7525634765625
-10.577392578125 -17.8199462890625 23.4205322265625
102.9453125 -10.3006591796875 6.6396484375
80.981689453125 7.8045654296875 -5.290771484375
-5.150390625 -6.7896728515625 13.3065185546875
81.449951171875 20.63818359375 -9.8330078125
75.824462890625 0.787353515625 3.3826904296875
-83.9384765625 -43.94091796875 23.8916015625
-74.133056640625 -34.868408203125 13.7628173828125
-71.702392578125 -31.5318603515625 14.5372314453125
-5.81787109375 -20.8966064453125 26.4549560546875
-40.206787109375 -12.1552734375 15.8265380859375
100.87939453125 -23.410888671875 13.462646484375
-9.56982421875 7.310546875 6.3394775390625
-5.951904296875 10.05712890625 4.570068359375
-6.616455078125 15.6573486328125 4.8739013671875
-4.3623046875 26.0103759765625 3.741455078125
62.558837890625 6.6932373046875 -3.587890625
-34.55712890625 -4.3095703125 12.7313232421875
102.262451171875 -19.607421875 17.462158203125
59.225830078125 -10.8890380859375 17.3773193359375
-34.550537109375 -18.19677734375 14.05712890625
-16.577392578125 23.973876953125 4.52685546875
38.80712890625 19.0782470703125 -3.6226806640625
73.653076171875 -35.39111328125 10.6297607421875
87.51025390625 -30.9398193359375 16.325439453125
-42.86083984375 -10.5416259765625 17.5921630859375
-73.048828125 -46.732177734375 23.0865478515625
25.634521484375 -8.9937744140625 16.361572265625
0.007568359375 -22.751220703125 27.8192138671875
-15.6904296875 5.367431640625 6.7315673828125
11.42333984375 -2.153564453125 11.2998046875
-38.37939453125 -6.232666015625 13.9588623046875
53.946533203125 -5.243408203125 9.8802490234375
-17.303466796875 15.6668701171875 5.069091796875
73.7900390625 -9.4267578125 15.51416015625
-22.7939453125 7.415771484375 7.6083984375
-26.573974609375 -20.3289794921875 26.1229248046875
-20.116943359375 -1.733154296875 8.748291015625
105.295654296875 -37.040283203125 21.9906005859375
-12.64501953125 -20.7186279296875 26.6650390625
-72.925048828125 -31.5875244140625 16.65478515625
101.619384765625 -5.9208984375 -3.6322021484375
-40.209716796875 -3.828369140625 12.7742919921875
-73.442138671875 -38.5264892578125 16.625244140625
100.57763671875 -8.0428466796875 -2.19140625
-20.57470703125 2.2366943359375 6.8671875
-15.321533203125 18.0574951171875 5.380615234375
-75.584716796875 -30.8909912109375 20.397216796875
64.18017578125 -28.1258544921875 18.3782958984375
99.674560546875 -9.8839111328125 15.16748046875
46.01220703125 -10.21240234375 17.012939453125
-10.888916015625 -3.4608154296875 10.1231689453125
50.633544921875 2.6785888671875 -1.43408203125
-84.979248046875 -39.202392578125 29.7991943359375
101.071044921875 -5.96044921875 11.1815185546875
35.650634765625 -13.00048828125 20.25048828125
-41.954833984375 3.3193359375 17.2635498046875
74.833251953125 -31.3798828125 16.0245361328125
-39.42041015625 -8.97802734375 13.678466796875
79.723876953125 -45.1622314453125 12.93994140625
102.890869140625 -28.415771484375 17.7772216796875
10.853515625 -14.3837890625 10.599853515625
75.044189453125 -1.315673828125 3.7696533203125
68.86328125 -36.94287109375 11.115966796875
-8.8115234375 -18.2491455078125 22.3922119140625
75.286376953125 12.8721923828125 -4.1453857421875
6.683837890625 -7.004638671875 15.49951171875
81.3349609375 -10.2906494140625 2.0185546875
89.051513671875 -25.9049072265625 6.6463623046875
-39.77685546875 -15.0343017578125 20.6234130859375
-10.225341796875 12.0943603515625 5.82958984375
51.93798828125 -1.8648681640625 4.4241943359375
-11.23876953125 -15.712646484375 21.1815185546875
-4.49560546875 6.8670654296875 5.6666259765625
-80.446533203125 -48.74609375 28.878662109375
-39.42529296875 -14.88671875 12.90673828125
97.721435546875 -31.8604736328125 20.3037109375
-85.15234375 -31.80126953125 22.45068359375
68.17138671875 -37.439697265625 13.1180419921875
77.868408203125 -47.8206787109375 15.549072265625
56.86083984375 17.0584716796875 -3.47119140625
-5.712646484375 -38.2276611328125 34.3658447265625
102.198486328125 -21.6357421875 10.8802490234375
48.5712890625 16.707763671875 -1.172607421875
74.296630859375 -7.2789306640625 13.9462890625
74.69921875 -7.6483154296875 3.4132080078125
102.639404296875 -28.5474853515625 21.8577880859375
46.52490234375 4.7611083984375 -2.5498046875
-56.682373046875 -18.318115234375 25.787353515625
54.751220703125 -9.515380859375 15.86279296875
79.63818359375 -22.767333984375 10.8402099609375
74.444580078125 -4.26708984375 4.4361572265625
55.424560546875 10.8720703125 -3.2724609375
40.80859375 -8.8424072265625 15.7440185546875
100.5390625 -17.45703125 -0.6522216796875
93.1865234375 -7.1063232421875 4.7569580078125
93.988525390625 -27.255615234375 17.2161865234375
-82.46923828125 -35.871337890625 24.22509765625
100.06591796875 -16.115234375 -3.39599609375
87.97802734375 -23.6888427734375 5.1070556640625
81.10302734375 -2.6673583984375 -0.6275634765625
51.727783203125 7.1871337890625 -2.8480224609375
63.908447265625 -33.5758056640625 25.9005126953125
-44.15673828125 -2.592041015625 14.5316162109375
32.260498046875 -15.075927734375 22.811767578125
-41.119384765625 -6.5791015625 13.7020263671875
19.400390625 2.6630859375 10.308349609375
-39.5234375 -16.9617919921875 17.435791015625
76.551025390625 -13.828369140625 18.9189453125
45.68896484375 15.4549560546875 -1.8365478515625
-85.004638671875 -37.5665283203125 28.5594482421875
82.7646484375 -32.8555908203125 14.0618896484375
2.12255859375 21.222900390625 3.2159423828125
62.21142578125 37.34765625 -4.05078125
76.174072265625 -32.7349853515625 16.510009765625
82.477783203125 -8.1737060546875 -0.7322998046875
-68.656982421875 -21.946044921875 25.8837890625
