47.36279296875 9.3944091796875 -2.8919677734375
19.387939453125 -4.95458984375 -2.8143310546875
94.1923828125 -40.2474365234375 15.185302734375
-48.08642578125 -19.5030517578125 13.1484375
-59.009765625 -27.171875 23.408935546875
32.6513671875 7.45849609375 0.6715087890625
-44.81591796875 -26.670654296875 23.60791015625
89.593505859375 -7.9835205078125 -11.788818359375
19.1640625 -23.8851318359375 21.55419921875
68.37109375 32.6444091796875 -18.2086181640625
52.373779296875 -41.3006591796875 10.7607421875
78.28076171875 -38.1865234375 17.43505859375
-12.920166015625 -21.3773193359375 18.37646484375
28.401123046875 -26.529541015625 25.0042724609375
55.2861328125 -30.969482421875 17.83935546875
-45.514404296875 2.3370361328125 10.4256591796875
39.202880859375 -36.323486328125 23.5296630859375
93.41845703125 -30.690673828125 4.263427734375
-0.1484375 -37.4342041015625 28.9783935546875
-83.3173828125 -38.26953125 33.4818115234375
81.323486328125 -13.43798828125 4.267578125
-18.21875 -33.7835693359375 28.372802734375
-57.837890625 14.490478515625 15.6363525390625
-22.2275390625 -20.995849609375 16.0504150390625
-10.7470703125 -29.1859130859375 24.818115234375
-66.296875 -21.8935546875 17.94921875
-9.8701171875 0.858642578125 3.335205078125
98.570068359375 -24.223388671875 22.3719482421875
96.595947265625 -19.527099609375 -6.678466796875
-20.764404296875 -10.8681640625 6.738525390625
-18.525634765625 13.496826171875 2.140380859375
33.082275390625 36.1651611328125 -0.7467041015625
90.488525390625 0.503662109375 -18.3590087890625
53.088623046875 -16.0338134765625 15.567626953125
-11.009521484375 -44.7752685546875 32.69140625
-58.680908203125 0.8323974609375 15.8028564453125
71.412841796875 -16.2054443359375 6.0345458984375
24.392578125 -14.4776611328125 10.756591796875
-33.6611328125 4.5181884765625 4.23291015625
40.853515625 4.0859375 -4.0133056640625
-58.033935546875 -25.133056640625 15.249755859375
73.9345703125 26.587158203125 -16.4278564453125
-6.454833984375 -19.083740234375 12.89990234375
95.5048828125 -39.4962158203125 23.9862060546875
47.1728515625 -29.6905517578125 23.1793212890625
33.63134765625 -10.2384033203125 2.4688720703125
59.534912109375 -50.8812255859375 11.9288330078125
67.788330078125 -40.689697265625 10.98046875
13.03173828125 -27.3795166015625 25.75390625
-28.22802734375 -27.598876953125 22.602294921875
-34.4111328125 13.7269287109375 3.283935546875
-18.96630859375 5.425537109375 3.0450439453125
-25.966064453125 16.8092041015625 2.4061279296875
72.770263671875 40.7091064453125 -17.9403076171875
-26.821044921875 -5.385986328125 4.995849609375
0.478515625 -21.119873046875 16.2764892578125
74.080078125 11.9598388671875 -12.51513671875
-51.4609375 -12.5655517578125 10.95849609375
19.630859375 -46.4818115234375 36.459228515625
59.6689453125 -10.3271484375 3.0601806640625
-4.762451171875 5.2205810546875 16.198486328125
6.11865234375 -43.753173828125 36.0394287109375
30.738525390625 -32.7108154296875 30.2701416015625
33.500732421875 -22.64404296875 20.59619140625
28.0576171875 -6.3560791015625 -2.492431640625
-53.156494140625 -38.7904052734375 36.318359375
41.236572265625 25.7962646484375 -4.6080322265625
94.835205078125 -13.6673583984375 -11.4989013671875
-52.67724609375 -25.23583984375 9.525634765625
72.47705078125 48.481201171875 -19.5977783203125
78.878173828125 -43.1846923828125 23.7855224609375
-33.571044921875 -11.8369140625 7.6087646484375
-72.4013671875 -32.76708984375 29.36962890625
70.56640625 0.8797607421875 -8.0777587890625
90.103515625 10.482421875 -20.654541015625
7.2216796875 -15.951171875 14.0880126953125
29.616943359375 2.564208984375 -4.2943115234375
66.88427734375 -30.7188720703125 7.184814453125
-0.522216796875 -7.197998046875 16.0660400390625
-38.3388671875 -38.236328125 34.2291259765625
56.02783203125 -22.429931640625 12.90966796875
-86.91796875 -36.814208984375 17.5
-6.828125 -10.9322509765625 12.436767578125
20.6142578125 12.857177734375 -5.1317138671875
67.913818359375 -46.96533203125 6.0838623046875
29.612548828125 21.4752197265625 -4.888427734375
96.86083984375 0.2000732421875 -22.6209716796875
73.9560546875 -12.7320556640625 -0.71240234375
69.753662109375 17.7333984375 -11.8521728515625
-94.149169921875 -38.2257080078125 18.6329345703125
94.69873046875 -34.8721923828125 10.00341796875
39.44677734375 32.8656005859375 -4.8004150390625
98.20947265625 -7.3421630859375 -11.0836181640625
-51.777099609375 -27.95556640625 24.8880615234375
-6.946044921875 -31.1004638671875 31.272705078125
91.765869140625 -23.4727783203125 -3.222412109375
64.084228515625 -23.6920166015625 6.7139892578125
-40.360107421875 0.402099609375 5.69970703125
-86.50244140625 -30.578369140625 23.3275146484375
-41.436767578125 -22.66552734375 17.4993896484375
-45.515380859375 -33.43798828125 30.891357421875
70.128662109375 -18.66796875 -0.5987548828125
66.342529296875 -5.5330810546875 -2.90771484375
26.213134765625 27.58154296875 -4.8824462890625
74.747314453125 -30.1954345703125 19.083984375
-29.659423828125 -20.5865478515625 14.6181640625
-27.387939453125 1.499755859375 4.151123046875
85.08837890625 -32.115234375 4.4427490234375
-23.08935546875 -37.99560546875 31.1422119140625
48.24267578125 -10.6845703125 4.185791015625
19.155517578125 -12.010009765625 6.671630859375
-13.92822265625 -0.32421875 19.3306884765625
41.177001953125 -12.9593505859375 7.9658203125
44.416748046875 -23.5120849609375 21.7066650390625
14.47998046875 -31.9259033203125 30.730712890625
-34.884765625 -28.9112548828125 23.7286376953125
66.15087890625 6.219970703125 -7.271728515625
73.612060546875 -48.2130126953125 11.6048583984375
41.68896484375 -2.6441650390625 -3.8763427734375
-83.220703125 -26.246337890625 29.632080078125
70.6005859375 54.86181640625 -17.13330078125
-1.897705078125 -24.1201171875 10.104736328125
41.421142578125 -39.93994140625 28.658935546875
-66.901123046875 -39.3956298828125 36.680908203125
4.669677734375 -26.6614990234375 25.31689453125
53.5498046875 -37.210693359375 16.662353515625
77.721923828125 -42.45458984375 12.537109375
-52.466796875 -0.4072265625 17.268310546875
7.28125 -40.77880859375 30.37841796875
-45.994140625 -26.0233154296875 10.815673828125
99.908935546875 -12.8543701171875 8.715576171875
28.547607421875 33.55224609375 -5.337646484375
35.967529296875 20.545654296875 -4.8443603515625
45.97998046875 -17.8834228515625 14.99560546875
70.9765625 -16.7349853515625 12.897216796875
61.156005859375 -34.3255615234375 13.1112060546875
33.41552734375 -18.358154296875 15.8834228515625
-15.395263671875 -39.30126953125 30.1866455078125
-5.623779296875 -0.7791748046875 18.0733642578125
48.0810546875 -7.7613525390625 -1.6236572265625
-13.15478515625 16.7960205078125 2.2681884765625
-20.033935546875 -15.7271728515625 11.8516845703125
-57.357421875 -35.0042724609375 33.3958740234375
44.760986328125 15.1199951171875 -4.5396728515625
-32.827392578125 -36.5716552734375 31.7974853515625
100.44091796875 -32.072265625 3.317138671875
-15.8408203125 -7.6212158203125 4.7071533203125
-60.071044921875 -31.7318115234375 28.7169189453125
99.679443359375 -32.962158203125 13.451904296875
96.6708984375 -26.352294921875 1.2625732421875
43.584716796875 -29.4041748046875 28.1014404296875
44.87548828125 39.26904296875 -4.895751953125
64.849365234375 37.573486328125 -18.869384765625
99.3134765625 -20.715576171875 10.2529296875
36.27392578125 -32.9736328125 27.771484375
73.03369140625 -22.482177734375 21.484619140625
68.805908203125 -29.4012451171875 19.83349609375
-26.061279296875 -43.357421875 33.617431640625
20.83056640625 -18.965087890625 16.4251708984375
98.311279296875 -1.0162353515625 -14.692626953125
39.62158203125 -16.0693359375 12.832763671875
3.381103515625 -6.4349365234375 20.5677490234375
78.90380859375 52.7127685546875 -18.5960693359375
-98.583251953125 -34.3951416015625 17.7685546875
-65.3779296875 2.6204833984375 19.5047607421875
88.727783203125 -39.86962890625 17.92431640625
-22.970947265625 -30.4202880859375 25.835693359375
79.324951171875 40.7999267578125 -16.8402099609375
-74.816650390625 -28.2518310546875 24.168212890625
66.870849609375 -24.99462890625 23.5577392578125
13.111083984375 -19.97119140625 17.602783203125
32.647216796875 10.0810546875 -4.5650634765625
-43.657470703125 -15.76611328125 13.9307861328125
-27.583984375 -11.4134521484375 6.7391357421875
58.966552734375 -42.00927734375 12.090087890625
46.903564453125 26.8756103515625 -3.87060546875
100.046142578125 -16.215087890625 -3.11474609375
98.80126953125 -12.4625244140625 1.23193359375
-77.601806640625 -34.6923828125 31.031982421875
-5.647705078125 -41.0673828125 29.8780517578125
-92.689453125 -32.9415283203125 14.2958984375
66.72314453125 48.6990966796875 -22.8165283203125
75.5888671875 1.0595703125 -5.257568359375
-84.67041015625 -35.529052734375 28.600341796875
23.93896484375 -1.6783447265625 -4.0670166015625
4.250732421875 -11.58349609375 16.33544921875
76.799072265625 -36.502685546875 12.1563720703125
24.215087890625 18.515380859375 -4.5673828125
98.908203125 -28.02685546875 17.0350341796875
-47.228515625 -24.6019287109375 18.1590576171875
1.155517578125 -30.3206787109375 28.5220947265625
0.6142578125 -23.76025390625 21.35546875
27.2802734375 8.3486328125 -4.34912109375
-57.425048828125 6.310791015625 16.2530517578125
35.37158203125 2.8603515625 -3.5667724609375
-32.330078125 -16.8828125 10.7454833984375
46.671630859375 3.673095703125 -4.1641845703125
71.90234375 -28.5245361328125 8.4422607421875
64.294921875 18.6981201171875 -12.6884765625
-33.141845703125 -32.6292724609375 27.5106201171875
-61.8779296875 -19.862548828125 15.104248046875
74.1826171875 55.109375 -22.1759033203125
65.4873046875 -16.91064453125 2.384521484375
-63.913818359375 -25.3209228515625 21.6229248046875
88.990478515625 -27.0975341796875 2.636474609375
33.50146484375 39.2767333984375 -5.29296875
-95.45263671875 -34.9747314453125 8.0653076171875
-4.628662109375 -34.8779296875 27.044677734375
19.87646484375 -9.7880859375 1.19482421875
-26.087646484375 -23.9088134765625 18.6727294921875
29.218017578125 -16.0672607421875 13.18994140625
97.906005859375 -24.659912109375 6.7171630859375
-50.099609375 -6.9317626953125 15.9322509765625
70.66064453125 23.106689453125 -13.7706298828125
86.1689453125 -23.838134765625 -5.5244140625
-59.7666015625 -5.5218505859375 20.6943359375
99.33056640625 -21.335693359375 -0.740478515625
-39.810302734375 -27.191650390625 21.506103515625
71.045166015625 -8.7998046875 -5.1163330078125
38.71923828125 -23.7757568359375 21.6212158203125
55.34912109375 -45.6612548828125 8.6396484375
-53.723876953125 -28.0458984375 19.8211669921875
30.01416015625 -12.666259765625 7.3397216796875
91.7744140625 -17.025146484375 -8.1934814453125
-13.7978515625 -25.5987548828125 22.162841796875
-34.87158203125 -21.9813232421875 13.9312744140625
77.645263671875 25.203857421875 -12.815185546875
-15.197265625 1.118896484375 3.46044921875
-18.210205078125 -23.216552734375 19.3603515625
-48.6298828125 -36.55615234375 33.831298828125
25.560546875 -23.6829833984375 21.5953369140625
32.87451171875 -29.1177978515625 26.647216796875
74.702392578125 -11.6343994140625 9.291748046875
69.4482421875 10.0325927734375 -9.2403564453125
92.9833984375 -42.186279296875 19.8980712890625
37.513427734375 8.1824951171875 -4.4384765625
67.0068359375 -35.348876953125 9.5975341796875
-15.21240234375 9.180419921875 2.4766845703125
50.16064453125 -32.7197265625 18.6885986328125
-61.563232421875 -34.442626953125 36.4210205078125
0.04052734375 -26.8597412109375 15.4295654296875
-11.090576171875 -12.086669921875 7.8963623046875
72.752685546875 34.9444580078125 -16.688720703125
91.367431640625 5.6051025390625 -21.6890869140625
37.780029296875 -7.9825439453125 -1.0618896484375
58.865478515625 -22.8746337890625 7.650634765625
23.428466796875 39.047607421875 -5.676513671875
98.113037109375 -36.9615478515625 17.37841796875
-67.8076171875 -31.2554931640625 27.7637939453125
-82.8427734375 -27.109375 23.954345703125
61.47265625 -7.5584716796875 -0.794189453125
68.43798828125 27.8875732421875 -16.4483642578125
33.672119140625 15.46337890625 -4.5018310546875
76.37744140625 45.32861328125 -20.5003662109375
98.592041015625 -23.1517333984375 15.7408447265625
-11.5908203125 -18.05712890625 14.8056640625
-69.541015625 -36.7066650390625 33.31396484375
89.31103515625 -39.5225830078125 12.92529296875
-12.3330078125 -3.52783203125 3.7000732421875
-6.112548828125 -26.7181396484375 22.4552001953125
-44.429931640625 -30.376220703125 27.0477294921875
-10.658935546875 5.8907470703125 3.7596435546875
21.478515625 -26.6810302734375 25.02734375
71.513916015625 5.4237060546875 -9.9951171875
86.5009765625 -36.926513671875 4.60498046875
-53.052978515625 10.8929443359375 16.4635009765625
-12.99951171875 -33.540283203125 27.680908203125
70.837158203125 -33.6444091796875 18.25634765625
94.875244140625 -9.9658203125 -14.79931640625
42.540283203125 20.4976806640625 -4.5987548828125
46.974365234375 -13.132568359375 15.993896484375
-39.404052734375 -12.5428466796875 10.9344482421875
73.613037109375 -39.832763671875 10.2130126953125
3.3076171875 -43.5179443359375 31.9959716796875
55.4873046875 -48.2989501953125 13.04443359375
63.4677734375 -49.8360595703125 9.158447265625
20.7373046875 27.988525390625 -4.879150390625
-31.296875 -1.3985595703125 4.7392578125
-37.684814453125 -9.4923095703125 6.391845703125
97.6123046875 -30.0975341796875 8.3577880859375
-86.77001953125 -41.667236328125 18.048828125
-86.895263671875 -24.5283203125 17.6240234375
-21.830810546875 10.27978515625 4.7596435546875
-52.623779296875 -17.880859375 12.4205322265625
72.849853515625 -20.3594970703125 3.2198486328125
77.3974609375 -33.1676025390625 16.281494140625
-36.093505859375 9.2109375 3.9520263671875
76.82080078125 16.056640625 -9.97802734375
66.64794921875 -21.69189453125 3.1165771484375
61.074462890625 -54.3509521484375 14.906494140625
-15.8603515625 -29.1734619140625 24.6558837890625
91.83984375 -4.8565673828125 -17.325927734375
0.337890625 4.633544921875 16.3819580078125
64.93017578125 -37.7181396484375 13.9630126953125
79.17724609375 -10.97998046875 7.7689208984375
26.650634765625 -30.373291015625 29.5240478515625
-17.900634765625 -18.6666259765625 14.927490234375
-53.755615234375 -9.73583984375 14.01025390625
-8.94384765625 -15.250244140625 11.6239013671875
51.791748046875 -29.058837890625 22.557861328125
-28.735595703125 12.8994140625 3.0284423828125
90.5888671875 -31.8446044921875 7.824951171875
5.5390625 -19.3636474609375 16.82763671875
-9.9228515625 2.384765625 16.4451904296875
-47.56396484375 -15.1378173828125 11.2545166015625
73.5166015625 -20.3299560546875 17.3668212890625
-38.37060546875 -41.5440673828125 37.5084228515625
57.657958984375 -34.775146484375 16.5819091796875
-3.042724609375 -27.40576171875 19.02783203125
9.0654296875 -25.6873779296875 24.0140380859375
41.626953125 -33.4239501953125 26.2362060546875
86.2138671875 -36.12451171875 14.3055419921875
37.541259765625 37.14111328125 -4.5589599609375
76.17138671875 10.927490234375 -8.49462890625
-6.005615234375 -28.5723876953125 27.517822265625
-31.34423828125 -6.918212890625 5.5191650390625
76.724365234375 30.2252197265625 -17.607177734375
70.073974609375 -12.954833984375 -3.189453125
-28.305908203125 -37.442138671875 31.620361328125
-87.103759765625 -39.4349365234375 28.6162109375
-56.071044921875 -30.21240234375 27.047607421875
-23.87353515625 -1.5789794921875 4.132080078125
-1.9091796875 -19.281005859375 12.328125
19.5986328125 -14.413818359375 10.5509033203125
41.6044921875 10.5799560546875 -4.3597412109375
13.483642578125 -23.0113525390625 20.99951171875
43.0859375 30.0994873046875 -4.92529296875
-23.429443359375 5.3935546875 4.0279541015625
61.406005859375 -14.870849609375 2.150634765625
46.275146484375 -20.75390625 18.5302734375
67.569091796875 -0.89208984375 -4.546630859375
29.742431640625 -1.978515625 -3.9921875
-92.710205078125 -41.2523193359375 15.5628662109375
71.234619140625 30.9703369140625 -14.635986328125
69.405517578125 38.1728515625 -19.6153564453125
35.06494140625 32.1220703125 -3.98388671875
-88.191162109375 -26.599853515625 22.0194091796875
-87.320556640625 -34.987548828125 21.602294921875
64.224853515625 31.825927734375 -16.6483154296875
28.759765625 -9.630859375 1.0469970703125
70.06689453125 -4.52099609375 -6.08251953125
90.205078125 -21.1065673828125 -6.6876220703125
-21.548828125 17.45947265625 2.124755859375
24.17919921875 -7.95703125 -0.943359375
-44.04150390625 -36.4010009765625 34.2890625
-38.04931640625 18.072998046875 8.605224609375
75.810791015625 37.3231201171875 -18.9095458984375
-53.6201171875 -27.86279296875 12.9952392578125
-31.036865234375 8.0859375 3.8485107421875
48.439453125 -25.4923095703125 23.830078125
63.410400390625 -43.420166015625 9.4537353515625
-16.447998046875 -11.626953125 7.3553466796875
-57.4921875 -2.145751953125 18.8466796875
-56.756103515625 -20.9759521484375 14.4791259765625
-6.280517578125 -24.419189453125 10.5345458984375
-2.532470703125 -4.115966796875 18.48974609375
68.263427734375 -49.7974853515625 9.43310546875
43.79150390625 -6.2137451171875 -2.4129638671875
-60.08544921875 10.751953125 16.130126953125
-64.799560546875 -28.93310546875 25.2020263671875
93.19677734375 -2.1400146484375 -20.5682373046875
-38.7568359375 13.4149169921875 3.3299560546875
64.126708984375 -31.89208984375 11.0546875
-22.335205078125 -7.2459716796875 4.9150390625
70.115234375 43.545654296875 -20.4921875
-68.232421875 -24.691650390625 20.6229248046875
73.43115234375 17.6324462890625 -14.1279296875
-5.728759765625 -7.2080078125 15.4183349609375
23.446533203125 -12.4390869140625 6.921630859375
90.795166015625 -12.48876953125 -10.5528564453125
-23.84130859375 -28.6268310546875 21.871337890625
-20.769775390625 1.4749755859375 3.8299560546875
38.2060546875 -11.7244873046875 5.104248046875
-37.176025390625 -35.4864501953125 30.97998046875
44.35546875 -26.4359130859375 25.0921630859375
17.666015625 -28.111083984375 26.3890380859375
-2.136962890625 -9.600830078125 12.9107666015625
44.2626953125 -14.659423828125 10.708251953125
43.45751953125 -36.28759765625 23.6126708984375
73.712158203125 -16.71435546875 0.7528076171875
72.472412109375 -37.3623046875 13.46630859375
44.34619140625 -12.0052490234375 5.215087890625
61.4267578125 -1.9693603515625 -2.6754150390625
-30.059326171875 -25.0032958984375 19.802734375
-48.621337890625 -29.911376953125 27.4090576171875
98.302734375 -16.611083984375 10.2830810546875
97.281494140625 -14.545166015625 -6.7005615234375
-55.581787109375 -13.364013671875 11.3604736328125
-17.38232421875 17.58837890625 1.5126953125
24.7548828125 -17.026611328125 14.0904541015625
79.029296875 -41.7728271484375 19.497314453125
70.967041015625 45.5975341796875 -16.925537109375
75.791748046875 51.294677734375 -21.5191650390625
-57.354248046875 -36.9169921875 37.1195068359375
25.000732421875 23.473388671875 -4.8204345703125
10.195556640625 -15.5299072265625 16.97265625
33.31396484375 -6.5611572265625 -2.392578125
8.570068359375 -28.3212890625 27.189697265625
97.736083984375 -11.0399169921875 -9.249267578125
100.4248046875 -22.9910888671875 -4.9129638671875
-9.494140625 -1.777099609375 19.195068359375
-48.95166015625 -23.115234375 10.6953125
-10.13916015625 -41.439208984375 30.3946533203125
92.94580078125 -26.4105224609375 -0.5435791015625
57.4736328125 -51.9715576171875 15.3455810546875
69.23779296875 -43.2625732421875 7.3001708984375
99.5947265625 -21.477783203125 19.48388671875
-44.871826171875 -20.8826904296875 16.109619140625
-24.029541015625 -12.673583984375 8.4508056640625
-68.90234375 15.928466796875 15.7259521484375
17.314453125 -20.3001708984375 18.06591796875
-40.489013671875 -19.921875 14.604248046875
-90.732177734375 -37.7027587890625 16.0621337890625
30.681396484375 6.270751953125 -2.7144775390625
-5.1357421875 -45.1419677734375 33.2239990234375
63.862548828125 -27.163330078125 8.8536376953125
74.994384765625 2.86181640625 -8.8592529296875
-95.150390625 -37.453369140625 11.2791748046875
-50.04931640625 -26.44677734375 20.5203857421875
19.778076171875 -1.2630615234375 -4.4642333984375
29.244140625 37.7728271484375 -5.368408203125
29.86865234375 -21.315673828125 19.318115234375
-22.70654296875 -33.315185546875 28.6531982421875
-4.5361328125 -15.6383056640625 11.9866943359375
96.247802734375 -22.1480712890625 -3.614501953125
68.28955078125 -27.8994140625 4.6492919921875
50.586181640625 -37.9530029296875 14.01513671875
-62.316650390625 -22.9990234375 18.7276611328125
55.2431640625 -40.536376953125 13.4979248046875
74.48095703125 22.7137451171875 -15.5267333984375
-71.759521484375 -30.3338623046875 26.243896484375
-78.053955078125 -37.5340576171875 34.680419921875
-23.525634765625 -17.211181640625 13.1424560546875
-46.7216796875 -23.8504638671875 14.07470703125
-97.022705078125 -35.729248046875 14.3348388671875
-15.83544921875 -43.233154296875 31.9578857421875
-50.185546875 -40.3984375 38.39208984375
2.116943359375 -17.7327880859375 15.0350341796875
24.578857421875 31.6572265625 -5.1021728515625
-39.04541015625 4.0474853515625 4.933349609375
25.605224609375 1.9013671875 -4.049072265625
-29.652587890625 -31.02099609375 26.2723388671875
88.994140625 -24.797119140625 -0.5693359375
-53.930908203125 -21.886962890625 11.8846435546875
-7.06298828125 -12.312744140625 8.7559814453125
-14.71728515625 5.3094482421875 2.995361328125
5.8486328125 -13.5777587890625 19.32373046875
97.864013671875 -28.717041015625 4.6851806640625
53.807861328125 -34.864501953125 19.801025390625
-48.1416015625 -11.12158203125 12.755126953125
-41.54541015625 -34.9647216796875 31.6219482421875
-24.001953125 13.412841796875 2.3782958984375
-91.275146484375 -34.795654296875 18.82421875
24.1298828125 11.32666015625 -4.36474609375
70.352783203125 -33.3936767578125 9.1484375
-21.79931640625 -25.4486083984375 19.4974365234375
73.819091796875 -8.8953857421875 -0.043212890625
-54.453369140625 2.640625 15.873046875
43.495361328125 0.7957763671875 -4.0836181640625
-1.43017578125 -41.027099609375 29.7376708984375
71.5068359375 -46.57421875 7.5181884765625
51.39501953125 -20.2266845703125 17.88623046875
-61.009765625 4.836669921875 16.015625
20.3701171875 19.0079345703125 -4.771240234375
36.25390625 -20.951416015625 18.45263671875
31.1826171875 30.5589599609375 -5.2862548828125
-40.332275390625 -29.54736328125 24.5301513671875
66.049560546875 15.2813720703125 -12.26708984375
9.29345703125 -43.55712890625 32.15380859375
-75.8701171875 -31.8697509765625 27.9271240234375
-84.2294921875 -32.9903564453125 25.7265625
72.2900390625 -22.2247314453125 6.5509033203125
59.8369140625 -48.3616943359375 9.0230712890625
35.6513671875 6.3902587890625 -1.503173828125
92.73828125 1.306640625 -22.2303466796875
41.286865234375 36.3697509765625 -5.0115966796875
37.21044921875 24.176025390625 -4.9091796875
-87.026611328125 -39.632568359375 14.805908203125
37.4814453125 28.3753662109375 -5.021484375
17.395751953125 -44.19384765625 34.346923828125
2.4951171875 -40.2020263671875 29.1627197265625
45.524658203125 -3.1461181640625 -3.90478515625
72.50732421875 -51.2078857421875 13.695068359375
86.10693359375 -30.335693359375 1.0413818359375
24.60302734375 -28.177978515625 27.1754150390625
62.888916015625 -11.91650390625 0.25439453125
-36.6015625 0.2275390625 5.099609375
-57.185546875 -27.7137451171875 17.9207763671875
78.556640625 48.494873046875 -19.90283203125
66.303955078125 2.366943359375 -6.453125
67.79931640625 -15.6177978515625 -0.7384033203125
99.72607421875 -24.239013671875 12.0869140625
40.177978515625 17.536376953125 -4.3541259765625
68.088134765625 -23.003173828125 20.5670166015625
63.9951171875 -52.3875732421875 12.2049560546875
93.324951171875 -37.2347412109375 12.630859375
70.830322265625 52.7298583984375 -20.2529296875
4.95751953125 -23.6851806640625 21.698974609375
63.2490234375 -46.658447265625 5.580078125
96.8271484375 -35.6634521484375 14.0740966796875
48.677490234375 -14.63134765625 12.702880859375
-3.549560546875 -29.9620361328125 30.026123046875
39.622802734375 0.512939453125 -3.9498291015625
-80.849365234375 -33.872802734375 29.311279296875
-50.859375 -4.3426513671875 18.55712890625
-2.8779296875 1.021484375 16.2349853515625
29.988525390625 25.20263671875 -5.1192626953125
98.310791015625 -1.7764892578125 -18.3662109375
78.248291015625 29.9666748046875 -14.1927490234375
-11.329345703125 -4.7220458984375 20.607421875
-64.559326171875 -36.4959716796875 34.13330078125
98.3076171875 -4.6248779296875 -13.6939697265625
-9.539306640625 -32.8353271484375 26.437255859375
-31.0419921875 15.837646484375 2.84423828125
96.14306640625 -9.9322509765625 1.965576171875
96.52099609375 -38.45068359375 20.4150390625
65.376220703125 52.1663818359375 -23.182373046875
-29.258544921875 4.807861328125 4.0616455078125
19.640625 -16.5943603515625 13.5830078125
91.48046875 -8.019287109375 -15.010986328125
-38.8642578125 -3.340576171875 5.6943359375
9.4248046875 -19.7088623046875 17.093017578125
20.601318359375 9.153076171875 -4.7030029296875
73.117919921875 -2.930419921875 -7.515869140625
-38.544189453125 -24.82421875 18.9212646484375
-86.425048828125 -36.07470703125 25.3614501953125
100.582763671875 -16.0302734375 0.556396484375
98.40283203125 -21.283203125 4.8287353515625
-52.746337890625 -35.572021484375 32.6025390625
3.818359375 1.5054931640625 16.187744140625
30.3857421875 17.10546875 -4.8394775390625
-61.391357421875 -2.443359375 19.508544921875
16.740478515625 -25.64453125 23.8238525390625
-31.678466796875 -23.34912109375 16.863525390625
71.974365234375 -13.901123046875 10.2352294921875
35.487060546875 -25.84521484375 23.8165283203125
76.0029296875 41.192138671875 -19.5457763671875
88.4892578125 -43.1142578125 20.935302734375
-60.325439453125 -34.2733154296875 31.4261474609375
49.599365234375 -17.800048828125 15.2655029296875
23.154296875 -5.1309814453125 -3.2681884765625
-25.63134765625 -20.4912109375 14.90478515625
76.31982421875 -46.190185546875 12.9197998046875
73.9404296875 -18.366455078125 14.1689453125
63.704345703125 -20.49951171875 4.8359375
43.796142578125 7.713623046875 -4.5067138671875
49.351806640625 -14.444091796875 18.373291015625
10.898193359375 -31.327880859375 30.002685546875
-13.51708984375 12.318603515625 1.92529296875
-15.76904296875 -20.9420166015625 20.7337646484375
64.79833984375 -9.4154052734375 -1.5579833984375
71.059326171875 13.5863037109375 -11.4107666015625
70.013427734375 -36.9697265625 10.74609375
-88.155029296875 -29.401611328125 19.7572021484375
34.03076171875 -11.9266357421875 5.6182861328125
30.674560546875 -24.7413330078125 22.870849609375
-54.988037109375 -27.5672607421875 23.3243408203125
93.934814453125 -22.6141357421875 -6.3199462890625
99.114990234375 -13.509521484375 4.648681640625
72.9423828125 8.5189208984375 -11.1099853515625
87.507568359375 -33.8316650390625 6.453857421875
-63.61767578125 -31.9678955078125 28.2694091796875
-52.389892578125 -30.478271484375 27.3492431640625
-18.9169921875 -38.903076171875 30.6298828125
71.101806640625 56.4647216796875 -20.2801513671875
89.892822265625 -29.7174072265625 5.057861328125
-42.923583984375 -12.28466796875 13.91162109375
78.242919921875 -44.1790771484375 15.5992431640625
63.02001953125 7.587646484375 -8.23388671875
68.132568359375 20.1885986328125 -13.837158203125
-36.762939453125 -14.157470703125 9.2105712890625
59.19287109375 -31.4849853515625 12.3199462890625
57.784912109375 -43.0244140625 8.9169921875
-73.059814453125 -36.3984375 33.376953125
-46.486572265625 -27.364990234375 14.2593994140625
73.78515625 -33.9937744140625 16.3525390625
-43.46923828125 -24.741943359375 20.988525390625
41.43408203125 -25.261474609375 23.535888671875
-97.60205078125 -39.8001708984375 9.861572265625
41.45947265625 -28.606201171875 25.309326171875
39.802734375 -5.4410400390625 -2.9080810546875
0.634521484375 -23.9503173828125 13.578125
-15.773681640625 -3.017578125 4.045654296875
5.22119140625 -29.16943359375 27.707275390625
-23.33349609375 -41.17578125 32.5596923828125
-0.67529296875 -24.807373046875 18.2918701171875
36.146728515625 -16.05517578125 12.9908447265625
75.55126953125 33.5118408203125 -18.168701171875
-63.296142578125 -37.2406005859375 37.533203125
74.19140625 -8.7725830078125 -3.6448974609375
1.30078125 -2.975341796875 19.49267578125
-87.86962890625 -38.3016357421875 20.741943359375
95.674560546875 2.9052734375 -24.4312744140625
44.850830078125 23.074462890625 -4.733154296875
-15.1572265625 -36.14794921875 28.781982421875
20.140869140625 2.425048828125 -4.69384765625
90.156494140625 -36.0843505859375 11.19873046875
-19.050048828125 -5.9705810546875 4.5889892578125
77.676513671875 -38.925537109375 20.8785400390625
46.149169921875 -9.3232421875 0.7578125
76.599853515625 -41.9591064453125 9.0989990234375
39.0927734375 -9.9300537109375 1.44580078125
-4.27099609375 -24.4473876953125 14.7523193359375
46.585693359375 -12.8389892578125 7.6796875
-38.191162109375 -22.0076904296875 16.0703125
-19.74951171875 -29.60546875 24.97705078125
-31.986328125 -26.9774169921875 21.8397216796875
32.619873046875 0.918212890625 -4.2686767578125
30.255126953125 35.392578125 -3.0098876953125
99.071533203125 -10.072021484375 6.9051513671875
-50.618896484375 2.4066162109375 16.675537109375
-57.31884765625 -32.9736328125 30.31884765625
98.396728515625 -20.523681640625 13.537353515625
47.1796875 12.7232666015625 -4.3760986328125
-10.26220703125 -25.829833984375 24.475830078125
78.734375 -39.7305908203125 14.4364013671875
-41.85302734375 -39.4747314453125 37.50634765625
78.75927734375 43.3687744140625 -19.0770263671875
-25.21923828125 -8.9593505859375 5.4422607421875
-29.263916015625 -13.6668701171875 9.156982421875
32.5595703125 19.8031005859375 -4.7462158203125
-26.23876953125 -29.83154296875 25.1605224609375
63.498046875 -4.355224609375 -4.302978515625
-64.59326171875 -0.2978515625 21.0118408203125
39.27880859375 21.3341064453125 -4.8282470703125
87.61376953125 -20.9788818359375 -4.4757080078125
-59.26025390625 -29.6884765625 26.090576171875
97.51025390625 -33.5155029296875 8.7435302734375
-4.162353515625 -38.5345458984375 28.244140625
33.38623046875 24.2977294921875 -5.0013427734375
-4.3935546875 -21.643798828125 10.424072265625
-34.307373046875 -40.0699462890625 33.456298828125
15.015625 -46.5355224609375 34.40234375
56.643310546875 -38.40673828125 16.278076171875
23.697021484375 -20.9365234375 18.2275390625
-36.525390625 -31.610595703125 24.7874755859375
-29.0849609375 -41.0245361328125 33.0853271484375
-31.63671875 -29.0560302734375 24.4212646484375
32.421875 -15.0721435546875 11.9420166015625
4.15966796875 -14.9598388671875 13.2987060546875
43.139892578125 -16.3326416015625 13.338134765625
26.150390625 35.8028564453125 -4.9654541015625
91.924560546875 -11.0987548828125 -13.3345947265625
-80.324951171875 -36.0028076171875 32.3770751953125
79.440185546875 -45.374755859375 21.371337890625
-12.9404296875 -9.130615234375 5.18701171875
99.021240234375 -18.609375 17.9512939453125
-13.102294921875 1.7200927734375 15.8563232421875
27.657470703125 -14.550537109375 10.286865234375
71.527587890625 -25.095947265625 23.474609375
37.944580078125 -18.5006103515625 15.6314697265625
40.43017578125 -37.317626953125 26.9580078125
-15.050537109375 -17.510986328125 13.7921142578125
-35.333251953125 -26.789306640625 21.2733154296875
63.68896484375 22.0728759765625 -12.7587890625
75.5185546875 14.8704833984375 -12.90478515625
15.94140625 -30.0379638671875 28.3878173828125
12.424072265625 -17.2171630859375 14.7042236328125
99.59423828125 -19.816650390625 -3.618408203125
72.1953125 -28.453125 21.7822265625
-82.1982421875 -30.13720703125 24.9808349609375
42.48291015625 -21.4056396484375 19.290283203125
-9.72802734375 5.92236328125 16.4736328125
24.80224609375 14.6690673828125 -4.2861328125
100.260009765625 -22.6627197265625 7.823486328125
46.989990234375 16.962646484375 -3.05029296875
64.54443359375 28.6318359375 -16.1405029296875
-96.721435546875 -34.6083984375 11.2852783203125
90.215576171875 -1.945068359375 -16.24609375
30.599853515625 -10.86328125 3.4404296875
77.32861328125 55.2388916015625 -21.4053955078125
22.3701171875 -24.1104736328125 21.974365234375
62.16650390625 -41.5107421875 12.061767578125
0.97412109375 -27.7886962890625 26.3272705078125
45.593017578125 36.1181640625 -4.9510498046875
73.120849609375 44.0753173828125 -18.7921142578125
37.52001953125 -13.2362060546875 8.453369140625
-25.890625 -35.731201171875 30.342529296875
15.675048828125 -18.537353515625 15.92333984375
-85.202880859375 -37.74658203125 30.8726806640625
69.873046875 46.6937255859375 -21.1094970703125
99.796142578125 -18.5252685546875 6.85546875
95.33251953125 -24.6793212890625 -1.8271484375
86.625732421875 -38.9835205078125 20.8525390625
-68.801025390625 -33.412841796875 29.9273681640625
20.864013671875 -21.99365234375 19.593505859375
75.252197265625 5.067626953125 -4.27392578125
65.434326171875 34.4378662109375 -18.0631103515625
42.8408203125 33.5765380859375 -4.8984375
69.39697265625 -22.392333984375 1.642822265625
93.98681640625 -7.432861328125 -17.1383056640625
-54.552001953125 -3.39208984375 18.85107421875
50.72998046875 -34.9403076171875 16.4844970703125
97.972900390625 -25.3143310546875 19.4464111328125
60.1435546875 -25.750732421875 8.0665283203125
93.447509765625 -33.407470703125 7.4808349609375
34.923095703125 12.2911376953125 -4.5894775390625
-23.883056640625 7.4659423828125 6.3865966796875
18.188720703125 -31.4951171875 30.39794921875
-8.04052734375 -43.850341796875 32.07666015625
-9.17724609375 -20.0985107421875 14.5985107421875
53.3046875 -32.033935546875 21.1292724609375
32.207763671875 32.5838623046875 -2.7017822265625
-81.0322265625 -27.1444091796875 26.550048828125
-89.2255859375 -32.7462158203125 22.767822265625
70.203125 -30.7259521484375 6.93701171875
98.564208984375 -32.3370361328125 17.0972900390625
71.896484375 -15.525634765625 -1.5391845703125
-48.337158203125 -26.438720703125 23.1688232421875
29.6171875 10.950927734375 -4.4844970703125
98.982666015625 -32.7904052734375 6.01708984375
1.093017578125 -11.0919189453125 13.574951171875
67.48291015625 -19.5771484375 0.843017578125
96.92822265625 -9.9171142578125 -12.418212890625
78.543701171875 -35.928955078125 15.27001953125
73.6533203125 30.531494140625 -17.036865234375
79.155029296875 37.7117919921875 -16.3115234375
-30.65673828125 -9.8466796875 6.3800048828125
33.015625 4.783203125 -1.01318359375
72.955322265625 -11.8138427734375 -3.5802001953125
70.809814453125 38.56298828125 -16.7999267578125
65.578125 40.2666015625 -20.2562255859375
-33.298583984375 10.5555419921875 3.6607666015625
-42.582763671875 -32.4576416015625 28.4444580078125
68.46875 51.2747802734375 -22.9117431640625
70.457763671875 -18.448974609375 15.443115234375
5.195556640625 -45.8372802734375 33.9200439453125
1.480712890625 -5.99462890625 18.144287109375
33.17724609375 -33.03466796875 28.0528564453125
36.57763671875 -5.9013671875 -3.0291748046875
-16.874267578125 -26.337890625 21.4559326171875
-27.3388671875 -2.3565673828125 4.587158203125
-51.81005859375 -25.3494873046875 13.1253662109375
-20.80029296875 -36.253662109375 30.002197265625
31.290283203125 41.4344482421875 -5.1519775390625
76.160400390625 -49.1153564453125 15.69482421875
43.8076171875 -19.611328125 17.058349609375
-85.118408203125 -28.8482666015625 25.482177734375
5.592041015625 -14.364013671875 16.1944580078125
26.435302734375 -12.5723876953125 6.1510009765625
-62.497802734375 -27.260986328125 23.5653076171875
-36.168212890625 -42.1566162109375 35.431396484375
27.615966796875 30.32666015625 -5.070068359375
37.21142578125 -36.430908203125 25.884033203125
-33.95166015625 -9.03515625 6.3759765625
-16.796875 -15.6715087890625 11.7320556640625
69.15576171875 5.6744384765625 -7.6658935546875
-71.635986328125 -27.0062255859375 22.9451904296875
96.843994140625 -7.681640625 -15.40673828125
-16.91064453125 -20.3623046875 17.2928466796875
94.30859375 9.314697265625 -26.9368896484375
-44.60400390625 -22.506103515625 18.701904296875
76.996826171875 26.5498046875 -16.28271484375
-2.70263671875 -25.207763671875 21.1376953125
65.48193359375 -44.8087158203125 7.671875
-28.104736328125 -22.3671875 16.955810546875
-49.1572265625 -27.0098876953125 12.8001708984375
-93.6845703125 -33.5294189453125 17.4183349609375
97.309814453125 -38.6434326171875 14.9483642578125
78.16943359375 -13.171875 9.6549072265625
21.111572265625 -10.9163818359375 3.7589111328125
3.46337890625 -20.88134765625 18.4801025390625
-48.299072265625 -34.3505859375 31.736572265625
66.9873046875 8.2548828125 -9.5155029296875
60.878662109375 -21.5531005859375 5.7843017578125
-71.583251953125 -39.1363525390625 36.09814453125
-29.742919921875 -18.4915771484375 12.415771484375
67.576171875 -8.19140625 -1.7347412109375
-5.965087890625 -3.7977294921875 18.1781005859375
-22.478759765625 -4.21923828125 4.713623046875
-14.3662109375 -13.186279296875 8.921875
-19.903076171875 -13.0860595703125 8.6212158203125
29.567138671875 -29.977294921875 28.7955322265625
-40.88671875 -36.6265869140625 34.49365234375
-11.1240234375 13.9952392578125 2.693359375
77.7607421875 -39.709716796875 10.746826171875
61.583984375 -37.1756591796875 14.8997802734375
36.391845703125 0.06494140625 -4.073486328125
30.50927734375 -4.831298828125 -3.400146484375
20.796875 15.8599853515625 -5.0252685546875
-18.07666015625 8.3521728515625 2.8880615234375
-32.238037109375 -14.1087646484375 9.594970703125
63.3740234375 15.70068359375 -10.967041015625
27.2158203125 18.483642578125 -4.641357421875
-41.70947265625 5.3924560546875 5.3507080078125
42.396728515625 40.9566650390625 -4.95556640625
32.78125 -8.7314453125 0.0216064453125
-54.400390625 7.3983154296875 16.5264892578125
38.70751953125 -2.62158203125 -3.689208984375
35.386962890625 34.726806640625 -2.562744140625
41.375732421875 14.7984619140625 -4.4383544921875
98.11279296875 -30.7425537109375 12.2291259765625
78.195556640625 56.2633056640625 -18.4654541015625
-92.424072265625 -30.7142333984375 16.25048828125
-7.297607421875 -32.187255859375 28.281982421875
96.0732421875 -2.853515625 -20.3170166015625
-55.718017578125 -39.675048828125 37.5401611328125
-48.8408203125 -32.14111328125 29.3555908203125
68.30859375 24.221923828125 -15.1959228515625
47.998046875 6.5823974609375 -3.5914306640625
95.2490234375 -15.37158203125 -9.1102294921875
37.24169921875 -30.1214599609375 26.0037841796875
73.333740234375 -14.5203857421875 2.70458984375
10.813720703125 -23.7708740234375 22.0257568359375
36.064697265625 17.19482421875 -4.6436767578125
40.85205078125 -11.11181640625 3.9361572265625
64.93798828125 -35.3092041015625 12.2513427734375
-59.253662109375 -20.7813720703125 16.1051025390625
74.445556640625 -45.2760009765625 9.224853515625
-89.01708984375 -30.0322265625 24.778564453125
-66.432373046875 -26.6219482421875 22.7840576171875
-15.234619140625 -31.7581787109375 26.94873046875
50.34375 -27.5430908203125 24.7640380859375
23.85888671875 8.3890380859375 -4.3572998046875
-9.763427734375 -1.95263671875 4.2220458984375
73.336669921875 0.2591552734375 -8.8695068359375
-12.85498046875 -6.4091796875 4.0589599609375
30.776123046875 -19.0482177734375 16.99462890625
-86.80419921875 -40.997802734375 21.2435302734375
69.1162109375 -6.71875 -4.3560791015625
54.95703125 -42.1885986328125 9.682373046875
26.407470703125 5.551025390625 -4.1954345703125
-0.45166015625 -16.5523681640625 13.5145263671875
-26.69873046875 -17.3134765625 13.1414794921875
38.72216796875 -39.689208984375 26.835205078125
71.670654296875 27.84814453125 -15.0712890625
-18.379150390625 -8.870361328125 5.44189453125
75.45654296875 6.51171875 -9.9149169921875
-32.606201171875 1.827392578125 4.6126708984375
-48.531005859375 -38.62841796875 36.77197265625
-30.8486328125 -38.8389892578125 32.31005859375
-4.1845703125 -12.86083984375 11.183349609375
40.171630859375 -14.2835693359375 10.355712890625
99.702880859375 -14.41943359375 11.5906982421875
47.218994140625 -23.1448974609375 21.0167236328125
-0.03125 -25.2509765625 23.8555908203125
78.03662109375 35.625732421875 -17.994873046875
90.31982421875 -5.5810546875 -13.9447021484375
39.629638671875 -21.938232421875 19.2935791015625
31.96826171875 37.7713623046875 -2.88671875
22.813232421875 36.2550048828125 -5.2039794921875
-35.968017578125 -33.2073974609375 27.7427978515625
-41.138427734375 -17.7386474609375 12.42626953125
-21.269287109375 -18.4244384765625 14.4822998046875
-38.260498046875 7.319580078125 4.1998291015625
99.089599609375 -35.5426025390625 12.2904052734375
34.30322265625 8.7689208984375 -2.6058349609375
71.108642578125 -27.663330078125 5.1927490234375
22.244873046875 -15.8675537109375 12.597412109375
-12.61181640625 -40.0048828125 30.0443115234375
-32.775634765625 -20.2044677734375 13.0894775390625
64.18359375 3.944580078125 -7.578369140625
13.235107421875 -25.302978515625 23.7803955078125
92.436767578125 -19.84375 -5.396484375
-56.908935546875 9.110107421875 16.60986328125
98.99560546875 -13.6292724609375 -1.3812255859375
-84.91845703125 -25.2119140625 23.3970947265625
50.166748046875 -30.5760498046875 20.748779296875
44.232177734375 26.940673828125 -4.898193359375
-24.297607421875 11.339111328125 5.743408203125
87.505859375 -24.9505615234375 -3.257080078125
-29.472412109375 -4.2388916015625 4.8328857421875
-26.1884765625 -39.3262939453125 31.8809814453125
98.1611328125 -3.897705078125 -16.4744873046875
-3.285400390625 -5.9725341796875 16.1793212890625
-47.0888671875 -17.098876953125 14.287841796875
98.87841796875 -27.2591552734375 13.821533203125
-15.55712890625 14.264404296875 1.6090087890625
-25.4736328125 -26.49267578125 20.9632568359375
97.379150390625 -11.3272705078125 -0.9429931640625
73.658447265625 -15.816162109375 12.9139404296875
16.89453125 -22.6639404296875 20.3736572265625
-19.848388671875 -31.6510009765625 27.4698486328125
-22.533203125 -14.83251953125 10.8782958984375
-17.907958984375 -0.2181396484375 3.7459716796875
66.403076171875 22.1588134765625 -14.8837890625
-16.82080078125 3.4501953125 3.2374267578125
-98.453369140625 -39.1513671875 12.5830078125
-91.080322265625 -30.046630859375 21.827880859375
-58.0537109375 3.568603515625 16.0277099609375
-14.42578125 -19.2127685546875 15.9423828125
-1.473876953125 -43.22705078125 31.4871826171875
68.727783203125 -26.997314453125 22.9024658203125
-60.828857421875 8.04541015625 16.03515625
67.134521484375 17.5902099609375 -13.4700927734375
69.751953125 35.6226806640625 -18.4932861328125
28.29248046875 -23.231201171875 21.1412353515625
66.37548828125 -24.1158447265625 4.5025634765625
1.17529296875 -19.435546875 13.01416015625
75.343017578125 -1.9908447265625 -6.0897216796875
-64.283935546875 5.185302734375 19.2049560546875
-63.841552734375 -21.0269775390625 16.9263916015625
40.271484375 28.422119140625 -4.865966796875
-55.831298828125 -18.2999267578125 13.003662109375
98.876708984375 -10.452392578125 9.6802978515625
97.904541015625 -14.6304931640625 -3.98681640625
71.663818359375 -20.8834228515625 0.75732421875
-23.399658203125 2.635009765625 3.664794921875
1.489501953125 -9.2828369140625 15.6510009765625
-7.6552734375 -21.5867919921875 12.7318115234375
100.196044921875 -19.095947265625 0.6612548828125
46.893310546875 -27.563232421875 24.958251953125
-52.702392578125 -28.7169189453125 17.32958984375
70.84716796875 42.7147216796875 -17.94921875
26.15673828125 38.7398681640625 -5.2891845703125
-7.48291015625 1.1104736328125 16.1231689453125
22.907470703125 1.329345703125 -4.3206787109375
93.20654296875 -28.8466796875 2.213623046875
-27.96240234375 -8.626953125 5.51318359375
-51.47900390625 -22.0753173828125 10.2913818359375
57.53369140625 -20.779296875 8.8616943359375
21.437744140625 -13.470947265625 8.5115966796875
-21.8291015625 -23.21337890625 17.875732421875
-32.6513671875 -3.71044921875 5.3946533203125
-62.6201171875 10.4366455078125 17.1717529296875
-20.03271484375 10.2462158203125 2.451171875
73.45947265625 -6.6396484375 -6.3018798828125
70.326904296875 -38.947998046875 12.640869140625
36.3642578125 -10.496337890625 2.71875
70.809326171875 20.45068359375 -13.052978515625
66.8037109375 46.0750732421875 -21.9862060546875
-7.890625 -35.3858642578125 27.3206787109375
98.62841796875 -23.837158203125 -1.635498046875
-13.33642578125 -0.8966064453125 3.326171875
23.975830078125 -30.8853759765625 29.8773193359375
72.437744140625 -41.6888427734375 8.5687255859375
69.998046875 40.8116455078125 -20.065185546875
93.897216796875 -40.3184814453125 18.1171875
58.245361328125 -33.4140625 14.0152587890625
-1.374755859375 -26.42041015625 13.12841796875
71.82275390625 -25.91650390625 7.61865234375
76.681640625 12.1007080078125 -10.9090576171875
47.305908203125 -14.269287109375 10.3702392578125
-73.35693359375 -34.5137939453125 31.424560546875
-48.664306640625 -26.834228515625 17.5238037109375
78.553466796875 51.1312255859375 -16.40234375
35.9423828125 -23.5400390625 21.4049072265625
26.571044921875 21.12890625 -4.7034912109375
87.8193359375 -31.4808349609375 4.983154296875
94.565185546875 -17.635009765625 -7.7601318359375
71.359375 -48.725341796875 10.1689453125
49.02197265625 -21.6290283203125 19.5286865234375
77.849853515625 39.1097412109375 -18.7113037109375
5.507568359375 -10.88720703125 19.5072021484375
-42.651611328125 0.6314697265625 7.143798828125
-11.138916015625 -0.2242431640625 17.6881103515625
-17.736572265625 -36.6375732421875 29.48193359375
89.34228515625 -33.68994140625 9.3814697265625
26.095458984375 -4.6798095703125 -3.3409423828125
-46.55517578125 -37.2713623046875 35.4949951171875
38.112060546875 2.765869140625 -4.062744140625
67.39794921875 11.7420654296875 -11.201904296875
97.05419921875 -10.9659423828125 4.3023681640625
-60.341552734375 13.5404052734375 16.055419921875
71.394287109375 -21.579345703125 19.5242919921875
47.509033203125 -4.840576171875 -3.180908203125
-62.679443359375 -35.223876953125 32.36279296875
-5.830078125 -27.0277099609375 12.30810546875
67.293212890625 -38.1029052734375 11.5936279296875
35.56787109375 40.9847412109375 -5.6334228515625
-26.96630859375 6.1861572265625 3.6876220703125
-21.505615234375 14.4359130859375 2.4527587890625
73.5810546875 52.7529296875 -21.0068359375
-57.106689453125 -28.2601318359375 25.32080078125
-11.959716796875 7.87890625 2.486328125
56.90771484375 -48.1221923828125 10.761474609375
67.986572265625 -3.4915771484375 -3.5316162109375
-47.9013671875 -9.245849609375 14.90478515625
77.774169921875 22.4678955078125 -13.5457763671875
-47.19873046875 -28.69384765625 25.4757080078125
98.5634765625 -17.7279052734375 -4.966552734375
-59.913818359375 -1.293212890625 17.5755615234375
71.102783203125 -40.665771484375 10.7210693359375
66.29736328125 26.3919677734375 -15.8154296875
-82.66552734375 -36.086669921875 31.0628662109375
35.43017578125 -8.949951171875 0.39013671875
-13.46533203125 -27.951416015625 23.403564453125
95.48291015625 -40.8282470703125 21.6605224609375
20.88671875 -6.99365234375 -1.9322509765625
-45.060302734375 -13.2735595703125 12.6322021484375
61.07958984375 -17.6759033203125 3.6522216796875
73.8232421875 20.143798828125 -14.9744873046875
-35.708984375 -37.859130859375 32.8896484375
75.710205078125 -34.780029296875 13.8917236328125
94.02197265625 -5.2244873046875 -18.826416015625
70.87548828125 -30.69384765625 18.7452392578125
-5.33642578125 -27.0596923828125 24.98681640625
71.670654296875 -31.575439453125 10.57763671875
40.393310546875 -7.5838623046875 -1.4459228515625
-44.55908203125 -18.1524658203125 14.6861572265625
84.767333984375 -34.6510009765625 5.1761474609375
-11.24462890625 -16.021240234375 12.7110595703125
-0.1474609375 -21.6224365234375 12.286376953125
-34.474365234375 -18.203125 11.5892333984375
42.416015625 -39.3167724609375 26.27783203125
-7.51708984375 -16.6934814453125 13.352294921875
24.06640625 -26.1409912109375 24.8106689453125
58.993896484375 -36.82373046875 15.3363037109375
21.66162109375 -3.095703125 -4.149169921875
-41.076416015625 -31.2772216796875 26.3848876953125
-46.549560546875 -31.209716796875 28.4378662109375
-97.2744140625 -37.154541015625 9.73583984375
31.48583984375 14.014892578125 -4.6986083984375
-87.10107421875 -42.2197265625 15.2720947265625
-30.072265625 -15.284912109375 11.0657958984375
34.467041015625 -36.875244140625 30.18408203125
