-8.388916015625 9.9449462890625 -1.98876953125
62.730712890625 8.5975341796875 -26.3768310546875
54.59716796875 -23.4932861328125 10.263427734375
3.5732421875 -3.8870849609375 7.477294921875
69.937744140625 -6.0753173828125 -3.6700439453125
25.276123046875 -22.16162109375 23.5665283203125
-60.282958984375 9.5423583984375 11.497314453125
73.098876953125 -40.313232421875 4.485595703125
-10.422607421875 -20.5401611328125 18.785400390625
-66.4296875 -35.2291259765625 36.921875
19.832763671875 -5.126953125 3.047119140625
-36.878662109375 25.6197509765625 0.0380859375
100.29443359375 -27.422607421875 3.8861083984375
-9.961669921875 6.415771484375 15.0035400390625
7.3583984375 -45.774658203125 33.3353271484375
67.050048828125 -23.2520751953125 -0.1348876953125
50.024169921875 -7.7744140625 7.908203125
85.233642578125 -15.2882080078125 -9.597412109375
-67.9169921875 23.5802001953125 12.4549560546875
-75.6484375 -26.4715576171875 27.4970703125
60.0625 31.1407470703125 -16.5118408203125
-50.4150390625 -17.2294921875 15.6497802734375
72.1337890625 -23.733642578125 24.09326171875
-86.897705078125 -31.8665771484375 13.7789306640625
-38.9267578125 -25.22802734375 24.2313232421875
37.638671875 12.227783203125 -9.3900146484375
59.00830078125 5.5423583984375 -7.47216796875
-40.552734375 -2.4720458984375 7.680908203125
-4.52734375 -16.7066650390625 6.12255859375
37.743896484375 36.107177734375 -9.8961181640625
44.77880859375 -18.4371337890625 19.3228759765625
-20.612060546875 3.49267578125 -0.5670166015625
-14.928466796875 -40.236083984375 29.6568603515625
-44.568115234375 15.5059814453125 5.455322265625
31.2431640625 -0.5167236328125 -4.411865234375
77.3193359375 56.968017578125 -23.79443359375
-22.94482421875 16.852294921875 1.1390380859375
19.77197265625 -14.15380859375 14.5289306640625
71.01806640625 23.2276611328125 -18.7557373046875
56.1884765625 -6.9619140625 -5.0494384765625
-12.044677734375 18.689208984375 11.1231689453125
-28.09521484375 -5.50732421875 5.4169921875
96.587646484375 -29.1890869140625 16.69091796875
77.042236328125 -37.20361328125 16.5491943359375
-22.041015625 -15.3992919921875 13.3363037109375
73.16943359375 -25.0321044921875 11.301025390625
7.038330078125 -3.64501953125 19.54296875
59.7666015625 17.5982666015625 -12.3214111328125
56.90869140625 -49.5078125 21.3515625
-41.83544921875 -31.9234619140625 34.2828369140625
100.04248046875 -14.856201171875 3.2933349609375
63.7861328125 -32.232421875 8.0704345703125
-49.23876953125 4.517822265625 13.163330078125
77.600830078125 -6.027587890625 5.7857666015625
64.306640625 -50.058349609375 8.8328857421875
10.34716796875 -34.56298828125 24.3704833984375
33.94970703125 48.1468505859375 -10.041259765625
64.656982421875 41.3447265625 -20.944091796875
99.688720703125 -5.31591796875 -8.0654296875
-47.531494140625 -14.5989990234375 4.5169677734375
-87.0146484375 -38.2247314453125 23.7469482421875
-32.39111328125 -35.6756591796875 29.1302490234375
37.98486328125 -5.1700439453125 4.144775390625
58.201904296875 -15.7554931640625 1.66259765625
-64.13720703125 -25.981201171875 26.91064453125
14.281494140625 -23.53369140625 24.9405517578125
48.658935546875 11.3831787109375 -9.323486328125
22.458984375 33.5589599609375 -10.2174072265625
73.984130859375 46.0615234375 -24.2103271484375
-3.981201171875 -43.40771484375 31.580322265625
68.34912109375 2.0714111328125 -11.7137451171875
48.327392578125 33.957763671875 -9.599609375
-97.15771484375 -43.6029052734375 16.6209716796875
92.01123046875 -20.0577392578125 -2.6842041015625
93.158935546875 7.142822265625 -26.6866455078125
-10.509521484375 -0.3143310546875 -0.1744384765625
-28.931884765625 -21.5460205078125 20.364013671875
-74.794677734375 -41.532958984375 39.71044921875
-11.889892578125 -31.9637451171875 23.966796875
91.075439453125 -30.890380859375 7.1439208984375
2.32958984375 4.939697265625 14.1373291015625
-26.18701171875 25.90771484375 -2.290283203125
-85.665771484375 -27.3720703125 22.8446044921875
27.369140625 14.554931640625 -9.5970458984375
-8.946044921875 20.0516357421875 -2.882080078125
34.693115234375 -18.3712158203125 19.7376708984375
11.92333984375 -9.74267578125 10.0455322265625
38.6220703125 22.3353271484375 -9.51220703125
-63.802001953125 -11.1436767578125 10.8380126953125
64.091552734375 -38.6666259765625 -0.9566650390625
51.801025390625 -31.8447265625 5.7310791015625
-5.570068359375 0.21728515625 8.775390625
-54.333251953125 -34.313720703125 36.0811767578125
89.3212890625 -6.52001953125 -11.9664306640625
-76.48046875 -19.9072265625 20.3992919921875
61.247314453125 18.40673828125 -26.0606689453125
-88.916259765625 -41.50537109375 10.90673828125
-2.164306640625 -16.0506591796875 16.65771484375
62.12744140625 -1.560302734375 -25.4495849609375
16.890625 -45.7373046875 33.694580078125
73.395263671875 -47.216064453125 11.8319091796875
-15.66162109375 -47.086669921875 37.741455078125
-59.043212890625 18.8837890625 11.6099853515625
-56.533447265625 -20.8687744140625 21.6595458984375
95.134033203125 -37.907470703125 28.801513671875
67.903564453125 -15.0208740234375 -4.2088623046875
-4.2705078125 -27.158447265625 20.6051025390625
42.965576171875 -11.864013671875 12.1119384765625
100.08203125 -6.947265625 7.8795166015625
33.5654296875 -26.2452392578125 24.2813720703125
-4.855712890625 13.19580078125 10.8116455078125
76.6943359375 -32.188720703125 6.1571044921875
87.70361328125 -29.7572021484375 18.1883544921875
-34.979248046875 -0.181640625 1.0513916015625
-47.01611328125 -21.666748046875 22.642822265625
-74.5244140625 -32.7674560546875 34.292236328125
29.754150390625 39.915771484375 -10.22900390625
-19.194091796875 -21.052001953125 19.7073974609375
67.71044921875 -7.78564453125 4.700927734375
-51.614501953125 12.77490234375 11.1878662109375
28.51806640625 -5.109375 4.2752685546875
-87.226318359375 -46.5906982421875 26.30712890625
22.563720703125 -0.8681640625 -4.08837890625
-43.173095703125 -11.9549560546875 12.0047607421875
-5.48974609375 -8.2626953125 7.362060546875
63.3251953125 34.601318359375 -31.0965576171875
-24.113037109375 -37.8570556640625 28.68212890625
-13.25 -12.275634765625 12.8656005859375
-32.9443359375 17.7347412109375 -0.7828369140625
-82.9560546875 -31.0462646484375 30.0501708984375
-16.65966796875 11.5833740234375 -1.8876953125
56.441650390625 -47.4915771484375 10.0328369140625
97.087890625 -20.890380859375 8.2657470703125
3.857666015625 -39.7191162109375 28.554443359375
-60.4599609375 -29.344970703125 33.633544921875
64.755615234375 24.8380126953125 -13.61767578125
95.115234375 -12.2806396484375 -13.1646728515625
2.480712890625 -12.0755615234375 11.134765625
33.06005859375 17.022705078125 -4.2337646484375
99.454345703125 -23.4493408203125 -3.256591796875
-88.41796875 -35.16650390625 5.7869873046875
49.049072265625 -3.0369873046875 1.0931396484375
67.29833984375 -20.5625 15.195556640625
24.910888671875 -9.7060546875 10.0655517578125
31.845947265625 6.550048828125 -9.341552734375
21.32763671875 21.7161865234375 -9.678955078125
51.756591796875 -14.7740478515625 11.4571533203125
-47.764404296875 -6.248046875 6.503662109375
1.488037109375 -21.4000244140625 22.5716552734375
62.66455078125 -1.07861328125 -5.05126953125
67.5888671875 32.290771484375 -18.6885986328125
-34.736328125 -9.4439697265625 7.0264892578125
-38.986083984375 -20.0555419921875 18.30322265625
99.524658203125 -5.9898681640625 0.094970703125
-25.51708984375 9.69580078125 -0.819091796875
27.138671875 -15.7799072265625 16.55517578125
84.540283203125 -22.6204833984375 -4.3292236328125
-31.876220703125 -27.68212890625 26.2684326171875
61.366455078125 -24.0198974609375 5.00146484375
-22.11279296875 -9.254638671875 8.7393798828125
40.4580078125 5.004150390625 -8.93505859375
30.094970703125 32.2939453125 -10.1397705078125
-55.99951171875 -13.7264404296875 7.5972900390625
12.053955078125 -39.8880615234375 29.52294921875
2.99072265625 -30.1767578125 21.843017578125
-56.426025390625 2.2613525390625 12.93310546875
85.429443359375 -26.1368408203125 9.564453125
67.12646484375 16.15478515625 -15.5555419921875
-16.38525390625 19.17919921875 -2.331298828125
-87.08984375 -24.4718017578125 15.0196533203125
62.093017578125 -10.52099609375 -2.112060546875
65.4208984375 -44.6993408203125 3.7174072265625
39.75244140625 43.322265625 -9.9124755859375
-40.432373046875 17.13134765625 -0.55517578125
49.994384765625 4.056884765625 -8.7926025390625
62.9990234375 11.623779296875 -9.247802734375
-50.51025390625 -20.1505126953125 8.8018798828125
41.2529296875 29.28271484375 -9.77490234375
-27.44970703125 0.8621826171875 0.592041015625
-44.99609375 -26.788330078125 28.13330078125
-70.211669921875 -22.6195068359375 23.182861328125
97.2353515625 -4.7332763671875 -15.0189208984375
99.504638671875 -12.4725341796875 -3.638427734375
18.017578125 -19.1578369140625 20.4495849609375
-8.541015625 -37.4659423828125 27.547119140625
53.42919921875 46.060546875 -8.2677001953125
92.42529296875 -25.1822509765625 2.905517578125
-1.197265625 -48.1419677734375 36.6453857421875
20.125244140625 -26.380126953125 28.093017578125
-59.6357421875 26.020263671875 10.863037109375
41.930419921875 -25.7139892578125 18.3585205078125
89.5869140625 4.5380859375 -21.041259765625
-20.512451171875 -2.9254150390625 2.623779296875
-40.291748046875 7.3992919921875 2.30615234375
95.890380859375 -35.182861328125 22.268798828125
57.051025390625 -30.5487060546875 10.31640625
-69.18798828125 -29.098876953125 30.756591796875
43.069580078125 16.673583984375 -9.5389404296875
49.2783203125 -22.6612548828125 15.978759765625
69.51904296875 -28.5804443359375 6.3707275390625
72.93505859375 29.8238525390625 -15.00927734375
-29.1611328125 -12.3333740234375 10.189208984375
-17.8427734375 -34.7283935546875 26.129638671875
46.93896484375 40.72021484375 -10.047607421875
58.32275390625 -5.50390625 -11.4422607421875
-87.2158203125 -40.9375 30.2388916015625
68.237060546875 -34.951416015625 3.6309814453125
97.192138671875 -29.77587890625 9.8699951171875
67.782470703125 47.5499267578125 -21.3406982421875
38.745361328125 -1.7662353515625 -2.289306640625
-17.447021484375 -27.646728515625 23.5272216796875
72.95849609375 18.999755859375 -13.74658203125
-87.876708984375 -17.2120361328125 24.8680419921875
40.388427734375 50.387939453125 -9.9571533203125
-51.496337890625 -0.7730712890625 7.2056884765625
72.165771484375 -18.160888671875 19.0506591796875
-93.177001953125 -47.10986328125 20.88037109375
68.537841796875 8.519775390625 -13.8336181640625
26.216552734375 2.7401123046875 -8.34130859375
-9.5673828125 -46.6309814453125 34.096923828125
-5.93603515625 -22.2061767578125 24.6744384765625
71.113037109375 54.7412109375 -24.3123779296875
92.242919921875 -14.9764404296875 -7.8594970703125
-19.680419921875 -44.64453125 33.1136474609375
-29.241455078125 -41.1885986328125 31.0347900390625
12.63427734375 -15.0516357421875 15.84814453125
-28.804443359375 -17.0701904296875 15.6317138671875
-11.00634765625 10.9088134765625 10.4173583984375
89.542236328125 11.4793701171875 -23.4613037109375
-94.5693359375 -37.5655517578125 10.4437255859375
-87.04345703125 -39.91845703125 17.4984130859375
75.801025390625 -40.4267578125 10.364501953125
63.356201171875 -8.5362548828125 -24.8782958984375
-56.036376953125 -18.59521484375 12.7862548828125
92.23681640625 -34.4554443359375 17.01123046875
70.847412109375 40.4813232421875 -22.3375244140625
21.01220703125 14.162841796875 -9.9715576171875
62.9931640625 -51.335205078125 20.96826171875
96.25537109375 -1.70166015625 -4.1103515625
5.477783203125 -1.58935546875 13.7320556640625
-48.017822265625 -31.1103515625 33.1829833984375
55.701416015625 -10.00830078125 1.0185546875
-51.478759765625 19.1881103515625 11.666748046875
96.096435546875 2.1685791015625 -22.904541015625
-15.88671875 -17.2841796875 15.5462646484375
7.311279296875 -22.9078369140625 24.3128662109375
-61.0830078125 -15.3955078125 14.6220703125
76.642578125 -32.2489013671875 12.4005126953125
69.352783203125 -16.800048828125 1.583984375
-82.8623046875 -21.9547119140625 20.241943359375
60.673095703125 37.226806640625 -18.588623046875
18.819580078125 -9.1866455078125 9.1094970703125
-14.529052734375 5.833984375 -1.4566650390625
44.47119140625 -6.4281005859375 5.68017578125
31.867431640625 43.649169921875 -5.85400390625
39.03369140625 -14.9832763671875 15.6124267578125
-44.810302734375 -17.294921875 18.01318359375
99.190185546875 -23.76123046875 13.1837158203125
71.81396484375 -8.31396484375 9.1046142578125
-37.91357421875 -29.666259765625 30.2850341796875
1.286865234375 -17.0064697265625 7.6834716796875
60.4951171875 -36.1474609375 4.890625
34.394775390625 27.07568359375 -9.827880859375
-8.04736328125 -4.2615966796875 3.64697265625
56.941162109375 0.6866455078125 -4.554443359375
-3.516845703125 4.4208984375 12.5367431640625
68.07666015625 -26.5167236328125 14.1075439453125
98.57861328125 -13.573974609375 10.0960693359375
66.7177734375 -5.072265625 -8.6136474609375
-8.823486328125 -13.123046875 8.26953125
28.616455078125 -25.757568359375 27.56640625
32.949951171875 18.9888916015625 -9.8558349609375
0.86669921875 0.615234375 10.2147216796875
28.191162109375 46.8720703125 -10.57666015625
37.471435546875 -8.753173828125 8.822509765625
-10.0244140625 -26.321533203125 21.5628662109375
-31.6806640625 23.4259033203125 -1.6614990234375
16.490234375 -35.6240234375 26.1785888671875
8.060791015625 -35.6143798828125 30.0369873046875
-21.441650390625 -50.060791015625 37.4779052734375
-87.1005859375 -32.93701171875 21.24951171875
33.35791015625 -3.142578125 0.357177734375
70.478515625 0.9732666015625 -6.4249267578125
27.135498046875 -2.65673828125 -0.91943359375
-2.528076171875 -3.60302734375 5.5960693359375
62.053955078125 47.5172119140625 -22.1610107421875
59.212890625 23.226806640625 -13.9375
36.526123046875 1.2901611328125 -6.8961181640625
37.375732421875 -23.322998046875 21.025634765625
70.210693359375 -45.6827392578125 6.7303466796875
21.625 27.8857421875 -9.9290771484375
-63.308349609375 -22.1072998046875 22.76220703125
-57.97216796875 -25.33935546875 26.6522216796875
-78.48095703125 -37.0001220703125 38.221923828125
53.59033203125 -36.37158203125 2.37890625
76.26953125 50.1419677734375 -20.9378662109375
-46.174072265625 -0.908203125 9.244384765625
99.518310546875 -10.97216796875 -9.1295166015625
47.763916015625 -15.1949462890625 15.7696533203125
31.341064453125 -8.154541015625 8.1021728515625
-24.21826171875 -23.7021484375 22.5855712890625
-46.96484375 -16.4893798828125 11.259033203125
-71.848388671875 -17.847412109375 17.9544677734375
-1.3076171875 17.5491943359375 11.10302734375
63.3916015625 -19.066650390625 0.6134033203125
-80.247802734375 -24.8062744140625 24.77392578125
-41.93505859375 -7.8836669921875 8.006591796875
12.251220703125 -20.0062255859375 21.13525390625
-36.197265625 -4.7548828125 4.403564453125
-34.119384765625 -23.38720703125 21.1971435546875
-91.51953125 -18.8258056640625 18.09765625
98.873046875 -18.4979248046875 -0.728515625
2.159423828125 -44.28125 32.1392822265625
46.81005859375 27.960693359375 -9.6998291015625
-1.363525390625 -12.2254638671875 5.4471435546875
-10.858154296875 14.8544921875 -2.5203857421875
72.657470703125 30.76416015625 -20.4412841796875
59.380615234375 -45.5732421875 5.7894287109375
-27.7138671875 15.5245361328125 -1.2525634765625
6.640869140625 -13.4185791015625 14.4625244140625
-20.14501953125 24.0169677734375 -2.576171875
42.871826171875 10.577392578125 -9.5108642578125
65.235107421875 -15.815185546875 17.012939453125
-2.0302734375 -39.181884765625 28.41259765625
43.60791015625 -3.5289306640625 1.033203125
93.2607421875 12.25439453125 -28.5355224609375
-90.78515625 -44.3023681640625 15.9002685546875
88.026611328125 -21.3309326171875 0.7799072265625
51.10986328125 -28.0643310546875 9.56640625
-72.28076171875 -37.2559814453125 37.5162353515625
6.649658203125 -8.2591552734375 8.372314453125
70.2314453125 -38.0362548828125 -0.350830078125
-23.82666015625 -19.34423828125 17.48095703125
72.758056640625 -4.2125244140625 4.2059326171875
53.309814453125 -11.829345703125 6.5052490234375
29.68994140625 -19.958984375 21.0069580078125
3.42333984375 -34.9383544921875 25.1920166015625
-86.347412109375 -34.0362548828125 27.0753173828125
0.2900390625 9.263916015625 11.69189453125
63.0068359375 15.2164306640625 -30.0025634765625
-59.53076171875 5.642578125 15.702880859375
-53.63818359375 8.1387939453125 12.8634033203125
-52.253662109375 -23.001708984375 23.9794921875
75.545654296875 41.2891845703125 -19.9937744140625
64.8759765625 -28.669921875 3.8099365234375
-51.379638671875 -10.104736328125 6.78564453125
-6.6494140625 -32.550537109375 23.73193359375
87.878662109375 -17.3048095703125 -4.44970703125
-11.339599609375 25.175537109375 -2.87353515625
90.958984375 -31.4036865234375 12.9205322265625
-56.73583984375 13.96923828125 11.3419189453125
-10.214599609375 -42.0950927734375 31.0345458984375
24.574462890625 39.114013671875 -10.263671875
-33.365478515625 -19.5042724609375 17.7628173828125
88.7646484375 -11.6981201171875 -11.520263671875
58.792724609375 -39.8389892578125 -0.1094970703125
76.37060546875 -42.98193359375 14.85009765625
25.8603515625 7.7596435546875 -9.603515625
23.021484375 -18.331298828125 19.3817138671875
-5.6552734375 -18.7286376953125 19.703369140625
26.612548828125 19.6578369140625 -9.5885009765625
-14.383056640625 -22.9967041015625 20.9852294921875
-40.538330078125 -16.2791748046875 15.16162109375
-86.120849609375 -43.7652587890625 20.7767333984375
-59.958251953125 -8.63818359375 8.54296875
43.44970703125 35.4898681640625 -10.023193359375
-29.8818359375 5.3203125 -0.065673828125
57.50146484375 10.3734130859375 -8.2249755859375
5.92578125 2.262939453125 17.0682373046875
-61.3349609375 -34.8565673828125 36.7099609375
64.35693359375 19.804931640625 -11.9454345703125
37.64404296875 -28.2528076171875 19.4156494140625
-86.460205078125 -37.4259033203125 12.6881103515625
-37.6865234375 12.8814697265625 -0.2337646484375
-27.249755859375 20.980224609375 -1.748291015625
49.489013671875 -0.7352294921875 -3.380126953125
66.4287109375 -10.701416015625 -6.3675537109375
97.3955078125 -17.380859375 -5.7685546875
57.473388671875 -20.8663330078125 4.625732421875
32.64697265625 12.318603515625 -8.8914794921875
74.7392578125 -35.83544921875 2.93505859375
71.54443359375 7.2659912109375 -10.022216796875
69.666015625 -23.985107421875 4.395263671875
-27.56787109375 -31.8154296875 27.180419921875
71.39111328125 13.5855712890625 -15.2203369140625
-55.209228515625 -30.5191650390625 32.6387939453125
-20.0859375 -40.5836181640625 29.7587890625
62.561279296875 3.6837158203125 -27.1658935546875
-8.02197265625 5.1580810546875 -0.6744384765625
-77.2548828125 -30.010498046875 31.183349609375
97.30419921875 -1.3765869140625 -19.0113525390625
-13.668701171875 -3.6976318359375 3.0418701171875
19.093994140625 -22.564697265625 24.2078857421875
-16.83154296875 -0.6424560546875 0.2222900390625
99.9609375 -2.9586181640625 3.986572265625
92.199462890625 -40.510009765625 24.5662841796875
69.304931640625 -49.754150390625 10.736572265625
97.155029296875 -23.933837890625 1.078369140625
15.794921875 -11.71728515625 12.3548583984375
17.365234375 -41.200927734375 29.673828125
48.469970703125 -11.1219482421875 11.37744140625
-69.042724609375 -25.9420166015625 26.840087890625
64.54296875 3.8089599609375 -9.153564453125
-7.00244140625 17.5673828125 11.2960205078125
-52.67529296875 -15.331787109375 4.3895263671875
60.521240234375 -27.9031982421875 8.11181640625
2.4541015625 -17.775146484375 18.7283935546875
35.175537109375 41.25830078125 -8.52197265625
-93.960693359375 -40.8768310546875 13.9681396484375
63.486572265625 -5.8670654296875 -4.6766357421875
-17.830322265625 -10.5732421875 10.65185546875
-64.92578125 -30.9283447265625 32.517822265625
26.350341796875 29.1966552734375 -9.9688720703125
88.49755859375 -26.3587646484375 5.5101318359375
56.007080078125 -33.976806640625 7.0457763671875
22.7255859375 -7.0040283203125 6.6959228515625
-51.962158203125 -19.1492919921875 19.8101806640625
86.4833984375 -32.209228515625 22.1663818359375
65.431884765625 36.6097412109375 -19.0347900390625
-98.18603515625 -40.50732421875 11.68701171875
43.89599609375 21.4139404296875 -9.7265625
12.6689453125 -44.0546875 31.851318359375
-23.901123046875 -42.8375244140625 31.676025390625
31.93408203125 -15.95947265625 16.4923095703125
75.69384765625 -27.9879150390625 8.512939453125
-45.79736328125 -11.7799072265625 7.9654541015625
-12.1201171875 -50.7353515625 38.09130859375
99.321533203125 -9.80810546875 2.9571533203125
-80.191650390625 -32.805419921875 33.6865234375
-58.4501953125 -25.576904296875 31.3868408203125
66.931884765625 -10.2451171875 9.9630126953125
-75.36572265625 -23.3603515625 23.4560546875
71.027099609375 35.062744140625 -21.603271484375
-5.8828125 8.4403076171875 13.3775634765625
-35.20654296875 4.799560546875 0.1475830078125
-37.8017578125 -12.2437744140625 9.899658203125
-10.13916015625 -8.2991943359375 8.2459716796875
-41.840087890625 -22.0482177734375 21.5079345703125
-60.767333984375 -18.042236328125 18.5223388671875
62.355712890625 23.076904296875 -28.1158447265625
20.255126953125 1.867431640625 -7.167236328125
27.7666015625 -12.5711669921875 13.1712646484375
61.0703125 -48.2239990234375 18.0108642578125
91.0263671875 -4.451171875 -15.828857421875
35.3984375 -30.1478271484375 26.12353515625
-39.322265625 21.6524658203125 -1.1116943359375
-66.34228515625 -14.8751220703125 14.317626953125
-13.86962890625 -44.374755859375 32.817626953125
54.865234375 -5.5855712890625 -0.812744140625
61.228759765625 -4.4044189453125 -21.0751953125
0.6240234375 -8.7109375 8.576416015625
63.49560546875 -14.83447265625 -1.26220703125
37.701416015625 16.8250732421875 -9.1214599609375
53.073486328125 -7.3175048828125 3.667236328125
73.826171875 51.0848388671875 -24.9525146484375
37.114501953125 31.5631103515625 -10.0264892578125
40.442626953125 -19.8980712890625 19.6478271484375
47.64453125 16.376220703125 -9.5003662109375
-86.95703125 -28.4442138671875 17.29052734375
7.911865234375 -5.771484375 11.9908447265625
-55.22021484375 21.8707275390625 11.287109375
89.78271484375 0.59765625 -17.536865234375
-33.359130859375 -34.775390625 24.775634765625
96.276611328125 -26.5953369140625 6.748291015625
-85.82470703125 -35.77734375 31.993408203125
-62.890869140625 17.7672119140625 13.7451171875
72.65673828125 -22.7989501953125 15.2193603515625
45.58154296875 3.250732421875 -8.23486328125
-86.591552734375 -30.6160888671875 9.4556884765625
65.150390625 29.6224365234375 -15.9942626953125
83.73095703125 -18.9417724609375 -6.797119140625
-22.4599609375 -34.1312255859375 26.781982421875
99.977294921875 -17.798583984375 6.685546875
7.940673828125 -39.9600830078125 31.2850341796875
86.71044921875 -39.2279052734375 25.99560546875
32.62939453125 36.5313720703125 -10.0172119140625
42.128173828125 -8.541015625 8.802490234375
-49.194091796875 -25.679443359375 27.2147216796875
54.088134765625 -28.010986328125 12.852783203125
-29.24951171875 -25.023193359375 23.8980712890625
69.77685546875 27.4715576171875 -19.8359375
-29.923828125 11.2362060546875 -0.630859375
-19.711181640625 14.7144775390625 -1.5382080078125
86.0576171875 -8.5274658203125 -9.8372802734375
70.35400390625 -46.5587158203125 17.1575927734375
-6.997314453125 -23.635009765625 19.9039306640625
59.56494140625 -4.9090576171875 -15.593017578125
-19.956787109375 8.781494140625 -1.2899169921875
-34.080078125 -30.956298828125 28.1268310546875
-22.70361328125 -6.078857421875 5.8223876953125
100.9658203125 -8.0458984375 -4.9403076171875
70.633056640625 -46.939208984375 22.9052734375
1.7216796875 -14.7392578125 15.260009765625
99.7470703125 -24.3671875 8.067626953125
33.66552734375 -5.36279296875 4.3377685546875
-70.161376953125 -33.8863525390625 35.216064453125
-80.41943359375 -27.68505859375 27.98193359375
-25.01220703125 5.43603515625 -0.3687744140625
4.406982421875 9.052490234375 12.953369140625
73.382080078125 24.7471923828125 -15.4932861328125
24.532958984375 24.5418701171875 -9.7181396484375
59.49169921875 -4.9149169921875 -3.275390625
24.024658203125 -4.602783203125 2.449462890625
69.8212890625 -42.878662109375 3.541259765625
-4.89990234375 -47.3531494140625 34.6832275390625
-28.89697265625 -2.8233642578125 2.1734619140625
61.183837890625 -42.7320556640625 1.9129638671875
-7.518310546875 2.2197265625 11.9932861328125
-26.415771484375 -9.6851806640625 8.3590087890625
-24.679931640625 -2.5501708984375 2.016357421875
-59.48046875 -12.0537109375 10.97802734375
-86.4443359375 -34.677734375 17.4603271484375
-25.087158203125 -13.042236328125 11.0107421875
97.531494140625 -18.7557373046875 3.3876953125
-12.518798828125 -36.417724609375 26.6571044921875
-40.048583984375 -26.9019775390625 27.940673828125
70.00537109375 -10.1971435546875 -2.83447265625
97.351806640625 -3.0762939453125 -10.72900390625
-32.23486328125 -6.85205078125 4.885009765625
27.16162109375 35.28369140625 -10.2490234375
71.67578125 -14.9093017578125 15.8516845703125
-1.527587890625 -19.0635986328125 20.2672119140625
17.634521484375 -16.568359375 17.1925048828125
35.876708984375 4.8443603515625 -8.97900390625
49.9833984375 -25.161865234375 12.720458984375
-23.57080078125 21.4466552734375 0.1441650390625
94.5859375 -8.2088623046875 -13.852294921875
47.04443359375 7.548095703125 -9.3868408203125
57.656982421875 -25.692138671875 6.071533203125
84.96826171875 -25.3258056640625 -1.207275390625
-2.05029296875 -19.3609619140625 8.421142578125
75.84765625 -36.1517333984375 7.0521240234375
87.776611328125 -29.5946044921875 9.2869873046875
71.03955078125 -32.499755859375 5.4388427734375
-18.177734375 -49.4234619140625 40.0517578125
-17.2724609375 -14.3272705078125 13.0047607421875
38.026123046875 -12.3477783203125 12.59423828125
-1.346923828125 -31.678466796875 22.506591796875
65.5732421875 13.1212158203125 -12.1051025390625
-55.932861328125 -9.87109375 9.04638671875
60.4755859375 -48.587646484375 8.541748046875
24.208251953125 -26.0711669921875 27.73095703125
20.542236328125 -2.824951171875 -0.2794189453125
34.0888671875 22.985107421875 -9.76220703125
62.475830078125 7.62353515625 -8.1595458984375
-87.96728515625 -19.967529296875 20.6846923828125
73.419189453125 -42.688720703125 7.7974853515625
-88.83837890625 -38.6134033203125 7.9425048828125
35.117919921875 46.191650390625 -6.6483154296875
-44.08251953125 -24.0087890625 25.2874755859375
26.99169921875 -7.3497314453125 7.4642333984375
-49.3447265625 9.401611328125 11.4189453125
68.17431640625 -18.8826904296875 19.050048828125
66.361328125 -18.9835205078125 -2.1480712890625
26.29736328125 -0.1312255859375 -5.4635009765625
5.111328125 -19.9443359375 21.5107421875
30.788818359375 -23.3385009765625 24.734130859375
-49.760498046875 1.288818359375 10.8094482421875
23.866455078125 -14.148193359375 14.86962890625
42.74609375 40.6424560546875 -10.01611328125
68.96142578125 19.2691650390625 -17.306396484375
-51.22705078125 -16.2132568359375 8.5906982421875
-48.4775390625 -28.652587890625 30.052490234375
-12.88720703125 8.48974609375 13.2232666015625
-20.228759765625 19.3951416015625 -0.6551513671875
-28.438232421875 -36.134033203125 28.766845703125
61.737548828125 26.7860107421875 -15.34228515625
43.809326171875 -15.4185791015625 16.1966552734375
-33.041748046875 -12.7174072265625 8.533935546875
-87.3525390625 -44.11865234375 13.892578125
61.3974609375 43.6197509765625 -20.8658447265625
-11.507080078125 14.767333984375 11.448486328125
63.739013671875 29.863525390625 -30.7445068359375
92.35986328125 3.2734375 -23.66162109375
-36.802978515625 -17.3973388671875 15.88916015625
99.4560546875 -4.0081787109375 -3.7691650390625
60.042724609375 13.517333984375 -11.0762939453125
10.269775390625 -12.2178955078125 12.65380859375
68.4326171875 -1.61669921875 -9.468017578125
43.9697265625 -20.88916015625 22.3048095703125
95.848876953125 -33.40966796875 18.2003173828125
-66.708251953125 -20.439697265625 20.69677734375
94.82470703125 -31.67333984375 13.630859375
24.765625 11.6077880859375 -9.6968994140625
-57.945556640625 -15.9302978515625 10.21044921875
-42.90283203125 -29.1156005859375 30.505615234375
58.629150390625 -8.7322998046875 -1.64208984375
-12.12451171875 -17.028076171875 16.62353515625
50.150634765625 -4.8458251953125 5.3052978515625
90.3671875 7.6962890625 -24.0059814453125
-35.06396484375 -25.523681640625 24.722412109375
-18.747802734375 -31.0523681640625 24.9263916015625
-13.732421875 2.0689697265625 -0.803955078125
66.2900390625 5.8155517578125 -12.14453125
-46.57470703125 -15.1219482421875 15.2962646484375
-86.997802734375 -27.7896728515625 12.1121826171875
66.7900390625 -48.135009765625 17.3092041015625
30.051513671875 2.37109375 -7.739501953125
38.61572265625 8.458740234375 -9.190185546875
-20.499755859375 -25.2349853515625 23.275390625
-55.580810546875 -18.1007080078125 18.8267822265625
21.081787109375 -41.76220703125 30.679443359375
72.27197265625 -11.3209228515625 11.5291748046875
48.363525390625 -20.2098388671875 18.85546875
73.49951171875 27.20654296875 -18.74365234375
76.826904296875 -36.0123291015625 11.444091796875
32.99609375 -21.78369140625 21.8963623046875
-85.653564453125 -30.462646484375 25.177001953125
72.0205078125 -28.4669189453125 9.621826171875
61.462890625 12.2354736328125 -26.6864013671875
-16.2783203125 23.750732421875 -2.92529296875
-50.840576171875 -33.1126708984375 34.9481201171875
-1.033935546875 -16.2528076171875 12.9696044921875
97.067626953125 -13.8492431640625 -8.339599609375
74.203125 37.5841064453125 -21.931884765625
71.72705078125 10.371337890625 -12.6923828125
-1.49365234375 -45.83154296875 33.2437744140625
86.821533203125 -24.6494140625 2.3123779296875
-13.104736328125 21.12890625 -2.830078125
20.491455078125 10.2122802734375 -9.5765380859375
68.45849609375 51.2861328125 -21.9381103515625
87.556640625 -12.796142578125 -7.8250732421875
-45.80615234375 -17.312255859375 6.607177734375
38.177490234375 26.4454345703125 -9.8450927734375
41.663818359375 1.3428955078125 -6.99853515625
98.64501953125 -10.7835693359375 7.480712890625
63.284912109375 16.344970703125 -10.7174072265625
-86.821533203125 -38.847412109375 34.2039794921875
98.46240234375 -0.676025390625 0.3857421875
35.0107421875 -1.449462890625 -2.9876708984375
-32.733154296875 13.8106689453125 -0.636962890625
37.2802734375 46.2991943359375 -9.9403076171875
60.98291015625 1.833740234375 -6.836669921875
-14.2685546875 -9.501953125 9.856201171875
-0.447998046875 -28.335693359375 20.9361572265625
26.857666015625 43.3250732421875 -10.4423828125
70.33642578125 -2.6298828125 -5.2608642578125
16.1416015625 -25.6761474609375 27.44775390625
-25.98974609375 19.353759765625 2.160888671875
-72.750244140625 -28.5426025390625 29.6202392578125
76.9111328125 53.3154296875 -22.9171142578125
21.37109375 -11.047607421875 11.1759033203125
-13.629638671875 -27.01953125 22.4173583984375
-43.85986328125 -3.981689453125 8.676025390625
64.0341796875 -23.9102783203125 2.0126953125
23.4423828125 17.63671875 -9.6444091796875
64.00048828125 -47.09912109375 6.2359619140625
-87.36669921875 -47.5093994140625 21.3734130859375
-22.831787109375 12.6470947265625 -1.2686767578125
21.76318359375 -20.83251953125 22.2208251953125
100.052490234375 -20.120849609375 -7.55908203125
-18.7998046875 -6.49560546875 6.1044921875
41.934326171875 24.6065673828125 -9.7755126953125
31.47705078125 15.8507080078125 -7.4150390625
-1.169189453125 12.81982421875 11.3209228515625
68.924072265625 43.5848388671875 -21.5284423828125
76.110107421875 45.6046142578125 -21.1678466796875
-30.52587890625 -10.3785400390625 7.0557861328125
-14.58447265625 15.0390625 -2.28857421875
38.9931640625 39.6624755859375 -9.9189453125
44.60693359375 44.416259765625 -10.279541015625
69.69970703125 -20.4949951171875 1.1728515625
61.643798828125 -20.447265625 3.6043701171875
-62.414794921875 -27.4736328125 31.068115234375
-20.864501953125 -12.7340087890625 10.8236083984375
6.732666015625 -36.3033447265625 26.2286376953125
45.4609375 31.4068603515625 -9.98779296875
60.643310546875 -12.8203125 0.4141845703125
-53.76025390625 -18.1246337890625 6.675048828125
76.37744140625 -40.189697265625 18.6407470703125
-62.5654296875 24.0391845703125 11.96875
-36.72998046875 17.0345458984375 -0.5606689453125
28.929443359375 9.8260498046875 -9.439208984375
-11.85107421875 11.2359619140625 -2.18994140625
56.056640625 -16.73046875 4.5069580078125
-27.216064453125 -27.87451171875 25.62939453125
-34.64892578125 21.0054931640625 -0.9600830078125
-85.573974609375 -24.1734619140625 19.07763671875
93.790283203125 -17.9111328125 -5.2464599609375
93.121826171875 -36.5208740234375 20.245361328125
-20.354248046875 -19.5911865234375 16.288818359375
-57.2734375 7.85693359375 13.353515625
36.19775390625 14.5306396484375 -6.671630859375
-6.704345703125 -41.3074951171875 30.273193359375
34.60107421875 8.9725341796875 -9.4669189453125
55.71435546875 -43.85546875 6.62255859375
59.898193359375 -32.66650390625 9.40771484375
46.6435546875 -2.273193359375 -1.6624755859375
-57.90625 -33.6087646484375 35.70166015625
0.673095703125 -41.2740478515625 29.7154541015625
-14.503662109375 -20.0816650390625 18.783203125
12.626220703125 -17.8153076171875 18.2369384765625
-86.69189453125 -42.910400390625 27.2147216796875
-92.43505859375 -36.095703125 7.8829345703125
26.84375 -18.3599853515625 19.3966064453125
88.889892578125 -33.15087890625 17.6602783203125
98.41357421875 -27.380859375 12.3135986328125
-66.89794921875 -23.967529296875 24.6748046875
-2.669677734375 -21.1376953125 23.505615234375
-54.92578125 10.874267578125 10.7984619140625
6.12353515625 -31.47509765625 23.12744140625
69.7294921875 -8.72265625 -6.137451171875
-20.7626953125 -47.6204833984375 34.88525390625
37.68115234375 -3.5750732421875 0.9056396484375
91.8017578125 -22.3726806640625 0.0872802734375
94.69140625 -37.6290283203125 24.6470947265625
35.540283203125 -15.9166259765625 16.75048828125
-1.353759765625 6.763916015625 14.239013671875
65.589599609375 -42.213134765625 1.1033935546875
-44.51416015625 -19.7786865234375 20.6123046875
-87.185302734375 -35.8199462890625 9.50830078125
-32.08251953125 1.86962890625 0.4583740234375
99.68212890625 -12.25732421875 -0.051025390625
-60.39404296875 -20.5989990234375 21.0262451171875
93.875732421875 -5.1116943359375 -17.9156494140625
58.683349609375 -52.55224609375 20.7724609375
94.5703125 -30.2052001953125 6.890625
-36.31298828125 -28.29248046875 27.338623046875
-32.52099609375 -3.87646484375 2.9466552734375
22.40185546875 -23.5533447265625 25.1329345703125
5.033935546875 -42.32958984375 30.66455078125
-83.635986328125 -24.454345703125 22.7611083984375
53.855224609375 -31.3092041015625 8.9573974609375
64.595458984375 -12.54736328125 -3.94970703125
100.4091796875 -12.9976806640625 13.08154296875
70.802978515625 -6.5892333984375 6.1748046875
-23.458251953125 1.4638671875 0.018310546875
5.388916015625 -3.31640625 10.4586181640625
42.244873046875 -1.56005859375 -2.7205810546875
-12.83154296875 -47.400146484375 35.2042236328125
-53.539306640625 4.6207275390625 13.127685546875
40.27490234375 33.1302490234375 -9.9775390625
-4.9697265625 -11.572265625 6.2611083984375
-52.318359375 -5.520263671875 5.4566650390625
59.9326171875 -8.3966064453125 -15.25732421875
14.81884765625 -8.4107666015625 8.5447998046875
-16.85498046875 -46.365478515625 34.323974609375
-7.408203125 -29.380859375 22.400634765625
21.42822265625 36.88330078125 -9.6929931640625
-30.317626953125 -14.6138916015625 12.605712890625
58.581298828125 -36.7244873046875 1.5057373046875
30.637451171875 -10.6488037109375 10.810302734375
98.443603515625 -11.4036865234375 -12.4752197265625
2.867919921875 -46.314697265625 34.9112548828125
-72.917724609375 -24.974609375 25.37939453125
-51.716796875 -30.4869384765625 32.32763671875
57.734619140625 -7.8702392578125 -8.923583984375
42.160888671875 47.3853759765625 -10.30859375
56.42333984375 6.9166259765625 -5.5474853515625
46.774169921875 -8.7452392578125 8.770751953125
-38.8671875 -6.86181640625 6.6832275390625
-3.858154296875 -50.3646240234375 37.058349609375
30.80419921875 43.2296142578125 -9.9285888671875
95.8388671875 -19.6092529296875 -2.0386962890625
90.86328125 1.2967529296875 -20.9447021484375
-93.637939453125 -44.5506591796875 17.880859375
0.91845703125 -13.5556640625 7.895751953125
6.949951171875 -10.567138671875 10.9483642578125
-11.3232421875 4.5067138671875 -1.5692138671875
-38.409912109375 -22.4852294921875 21.2191162109375
-47.842529296875 -18.41162109375 19.271728515625
-45.073974609375 -8.46728515625 9.352294921875
-3.394775390625 -14.5263671875 3.679931640625
-62.366455078125 -32.582275390625 34.309326171875
-71.85205078125 -31.07421875 32.8814697265625
92.140625 -13.096923828125 -10.7650146484375
71.564453125 48.652587890625 -23.9822998046875
-79.847900390625 -19.116455078125 20.32080078125
16.3212890625 -21.415283203125 22.4443359375
22.990234375 3.9595947265625 -8.5531005859375
-6.765625 -45.014404296875 32.834716796875
72.656005859375 20.757568359375 -16.9891357421875
-15.353271484375 -31.4912109375 24.5072021484375
-60.12158203125 14.2705078125 10.767333984375
98.400390625 -8.2896728515625 -10.9698486328125
34.908447265625 -7.297119140625 6.8895263671875
34.02685546875 33.0284423828125 -9.7254638671875
67.636474609375 12.3509521484375 -14.7322998046875
69.751953125 -14.1236572265625 -1.4649658203125
21.4501953125 -16.1776123046875 17.228271484375
64.353271484375 -0.164306640625 -7.8883056640625
74.339599609375 -44.0528564453125 10.800048828125
75.983154296875 -3.765625 3.1517333984375
0.509765625 -37.10595703125 27.4453125
47.9365234375 0.727294921875 -6.0498046875
95.159423828125 4.69482421875 -25.009033203125
14.407958984375 -38.0853271484375 27.3094482421875
-69.3837890625 -16.317138671875 16.15234375
47.053955078125 19.7398681640625 -9.5208740234375
-87.140625 -37.976806640625 27.150146484375
-1.482421875 -0.52978515625 8.021484375
73.296875 42.7764892578125 -23.6143798828125
-2.761962890625 1.9744873046875 10.2882080078125
-85.9697265625 -41.462890625 23.576416015625
61.5966796875 -15.71484375 1.9451904296875
5.39599609375 5.735595703125 15.38916015625
-32.19140625 -17.19287109375 15.3134765625
74.457763671875 -6.9290771484375 6.7305908203125
-29.639404296875 18.4736328125 -1.0860595703125
-17.224609375 -3.66064453125 3.0572509765625
71.049560546875 2.292724609375 -9.66552734375
92.015625 -9.65185546875 -12.1697998046875
31.132080078125 27.994140625 -9.9423828125
-11.015869140625 3.3646240234375 16.0362548828125
71.485107421875 16.8038330078125 -16.2783203125
22.215087890625 41.56396484375 -10.5220947265625
74.4169921875 32.6585693359375 -17.645751953125
-86.780517578125 -29.56201171875 20.4718017578125
-16.56396484375 -37.56005859375 27.4407958984375
-58.136962890625 -22.845947265625 23.871337890625
98.405029296875 -23.831298828125 5.02587890625
74.780517578125 54.4376220703125 -25.267333984375
65.7265625 -13.109375 13.71337890625
67.771240234375 53.946533203125 -23.868408203125
68.282958984375 -26.288330078125 2.3809814453125
-5.41064453125 -36.7037353515625 26.6011962890625
62.828857421875 32.1103515625 -18.148681640625
71.540771484375 -35.7633056640625 1.738525390625
-83.543701171875 -28.1636962890625 26.4031982421875
-41.035400390625 -10.5765380859375 9.82275390625
-8.520263671875 13.3289794921875 10.9698486328125
69.934814453125 -5.173095703125 -7.4022216796875
47.05126953125 37.373779296875 -9.99658203125
3.5947265625 1.957275390625 13.29052734375
-91.61669921875 -39.7576904296875 11.831298828125
98.12841796875 -15.344970703125 0.59521484375
-26.791015625 -44.4674072265625 32.9503173828125
34.2685546875 -9.39990234375 9.4794921875
-23.4462890625 23.743408203125 -2.26904296875
-95.7412109375 -35.806396484375 7.759521484375
56.87744140625 -35.5142822265625 4.23486328125
-37.148193359375 9.410888671875 0.1226806640625
-1.832275390625 -7.12158203125 7.017822265625
77.078125 -31.0946044921875 9.2613525390625
66.97216796875 -31.010009765625 4.844482421875
10.13818359375 -21.8553466796875 22.9610595703125
-56.45166015625 25.16796875 11.092041015625
98.319091796875 -20.539306640625 -4.3095703125
-73.53271484375 -21.2684326171875 21.6878662109375
55.5078125 -12.6644287109375 2.9595947265625
-48.991943359375 -2.9034423828125 6.994140625
67.597412109375 22.2659912109375 -17.4014892578125
6.37890625 -4.211669921875 15.505859375
-0.954833984375 -16.1009521484375 5.229248046875
19.436279296875 -7.018310546875 6.60546875
66.0078125 -50.0252685546875 21.06494140625
-66.111083984375 -28.747802734375 29.651611328125
9.814208984375 -42.7305908203125 30.898193359375
-66.964599609375 -32.976806640625 34.5889892578125
8.468994140625 -15.7099609375 16.2734375
30.837646484375 -2.1121826171875 -1.573486328125
65.705322265625 -34.5782470703125 5.682861328125
-10.117431640625 -34.4127197265625 25.2386474609375
-60.068603515625 22.0755615234375 11.1627197265625
-69.67724609375 -39.1961669921875 37.949951171875
64.94189453125 48.5797119140625 -23.281494140625
-14.483154296875 9.1405029296875 -1.8427734375
67.639404296875 -23.1126708984375 13.17431640625
-13.60791015625 -0.94580078125 0.669189453125
76.70166015625 -39.458984375 13.3477783203125
18.266845703125 -43.827392578125 31.4449462890625
-54.540283203125 -24.5869140625 25.669677734375
99.1689453125 -26.0709228515625 -0.312255859375
68.758544921875 -40.6881103515625 0.811767578125
71.04541015625 -20.910888671875 20.3619384765625
3.841552734375 -9.25244140625 9.6583251953125
-20.64794921875 -36.7552490234375 27.3590087890625
-60.991943359375 -24.8173828125 25.6021728515625
69.891845703125 4.622314453125 -12.964111328125
-22.762451171875 -21.775390625 20.43701171875
47.00927734375 -4.6619873046875 2.9912109375
-12.282958984375 -5.785888671875 5.4495849609375
41.29443359375 -6.6458740234375 6.3326416015625
13.743896484375 -34.33154296875 25.101318359375
92.877685546875 -27.334228515625 5.2572021484375
53.390380859375 -14.6666259765625 8.023193359375
-30.18115234375 -33.524658203125 28.060302734375
-86.965576171875 -36.28173828125 20.1971435546875
40.768310546875 -28.9434814453125 19.68017578125
37.779052734375 -17.392822265625 18.509521484375
2.12939453125 12.2413330078125 10.951171875
72.377685546875 15.088134765625 -12.566162109375
-55.85888671875 -27.682861328125 31.0924072265625
10.21337890625 -7.338623046875 8.7952880859375
-25.4228515625 -40.4625244140625 30.007080078125
32.06787109375 46.0772705078125 -8.48388671875
34.55615234375 -13.9031982421875 14.466552734375
-81.18115234375 -34.984130859375 35.8052978515625
-78.20947265625 -22.0389404296875 22.0357666015625
-50.910888671875 7.272705078125 14.2823486328125
-76.281005859375 -35.25341796875 36.7139892578125
85.40673828125 -27.094970703125 4.1915283203125
-25.2158203125 -15.4287109375 13.4595947265625
62.548583984375 50.7371826171875 -23.1544189453125
16.095703125 -14.8375244140625 15.022705078125
45.180908203125 -13.324951171875 13.8525390625
67.769775390625 -47.6341552734375 7.2806396484375
-30.739013671875 -38.2513427734375 29.964599609375
29.5478515625 -17.34375 18.088134765625
-70.134521484375 -20.4837646484375 20.8448486328125
-14.25048828125 -50.1282958984375 40.35205078125
51.189453125 -10.43994140625 9.1451416015625
-18.318603515625 5.59765625 -1.1148681640625
62.36865234375 1.757568359375 -24.66796875
-86.912353515625 -41.013671875 14.2816162109375
29.15966796875 17.1578369140625 -9.6639404296875
-8.676025390625 9.3720703125 12.248291015625
45.06298828125 24.9638671875 -9.6407470703125
-97.553955078125 -38.3685302734375 9.46240234375
70.15087890625 -20.9903564453125 16.4453125
99.557373046875 -6.255126953125 3.2255859375
-80.127197265625 -39.640380859375 37.78662109375
87.032470703125 -20.4085693359375 -2.052490234375
68.386962890625 40.02294921875 -20.4429931640625
52.5634765625 -23.625732421875 13.6304931640625
-39.1220703125 -31.20458984375 32.735595703125
61.47998046875 20.3004150390625 -13.08984375
-10.013427734375 -11.160888671875 10.4052734375
-74.9345703125 -39.2476806640625 37.5694580078125
74.467041015625 -29.9835205078125 6.172119140625
1.1318359375 -6.4298095703125 6.273193359375
-11.486572265625 17.918701171875 -2.6513671875
-55.978271484375 18.3526611328125 11.265380859375
64.773681640625 44.4493408203125 -21.321044921875
30.371826171875 -13.8287353515625 14.362060546875
74.22412109375 -45.255859375 14.1221923828125
74.844970703125 -39.82421875 7.4500732421875
33.064453125 1.661376953125 -7.3056640625
-29.816162109375 -19.016357421875 17.843994140625
44.561279296875 13.1890869140625 -9.4691162109375
-52.881591796875 16.4912109375 11.0074462890625
-7.8671875 -6.53369140625 6.347412109375
2.027099609375 -32.659912109375 23.443115234375
-86.030517578125 -18.033203125 22.1519775390625
-53.02880859375 -19.2847900390625 13.1302490234375
-45.97265625 -32.7147216796875 34.878173828125
41.083740234375 19.0570068359375 -9.493408203125
-63.972900390625 -13.18798828125 13.248779296875
-28.05419921875 7.921875 -0.6907958984375
-25.261474609375 -4.85791015625 4.3455810546875
-38.14892578125 5.718017578125 0.458740234375
18.15478515625 -38.4083251953125 27.528564453125
68.71044921875 -15.6002197265625 16.40283203125
10.05810546875 -23.796875 25.417724609375
63.445556640625 -48.4195556640625 20.0523681640625
4.46240234375 -15.6328125 16.3692626953125
-85.45751953125 -21.303466796875 17.9442138671875
25.82861328125 -24.1890869140625 25.82763671875
-47.520751953125 -23.7401123046875 24.8717041015625
-24.42578125 -26.2603759765625 24.505859375
40.89111328125 12.9365234375 -9.46533203125
-45.75830078125 -13.69921875 10.7757568359375
88.7197265625 -41.5064697265625 25.5062255859375
60.27099609375 9.07666015625 -9.7332763671875
-87.2626953125 -45.1324462890625 17.74462890625
-4.499755859375 -30.22021484375 21.9031982421875
89.8232421875 -35.6270751953125 19.192626953125
34.515625 -24.43603515625 21.90625
-43.19189453125 -14.0145263671875 14.260498046875
-25.75244140625 -17.3941650390625 15.7332763671875
-50.144287109375 -20.657470703125 21.7442626953125
-86.9345703125 -44.8778076171875 23.8017578125
56.075927734375 -38.21630859375 0.6220703125
-87.105712890625 -31.4307861328125 17.824951171875
-10.876953125 -23.1033935546875 20.3505859375
100.197265625 -8.9212646484375 -0.317138671875
35.3134765625 18.0601806640625 -7.7142333984375
57.105224609375 3.9317626953125 -5.742919921875
-87.1142578125 -39.264892578125 20.7301025390625
24.6455078125 -20.1025390625 21.43359375
62.318603515625 39.6978759765625 -19.9476318359375
-34.472412109375 24.7532958984375 -1.5821533203125
23.256103515625 -2.29638671875 -1.510498046875
96.26904296875 -32.2864990234375 21.4808349609375
6.082275390625 -0.755615234375 17.08837890625
75.624755859375 48.59765625 -24.1697998046875
-86.189697265625 -33.4141845703125 6.825927734375
97.627685546875 -2.049560546875 -13.554443359375
99.72314453125 -16.8028564453125 -3.9356689453125
70.5576171875 -24.749267578125 12.7861328125
90.620849609375 -16.8277587890625 -5.614501953125
8.028564453125 -19.5985107421875 20.8221435546875
43.71240234375 7.699462890625 -9.1895751953125
-18.394287109375 21.563720703125 -2.6109619140625
30.339599609375 14.045166015625 -9.77392578125
-7.792236328125 -17.11279296875 18.3251953125
42.40234375 -23.620849609375 20.47314453125
63.460205078125 -36.2021484375 4.3621826171875
-35.27490234375 -21.735107421875 18.432373046875
-20.698974609375 -28.7852783203125 24.580322265625
62.186767578125 18.0843505859375 -28.90283203125
-16.6376953125 2.8201904296875 -1.046875
-40.057373046875 -14.25341796875 12.98779296875
-11.402587890625 8.2825927734375 -1.8291015625
-7.48486328125 -10.3302001953125 8.235107421875
34.8759765625 38.6705322265625 -10.0113525390625
99.2060546875 -27.1072998046875 9.16455078125
-97.022705078125 -41.4189453125 14.293212890625
-87.0732421875 -34.15771484375 23.981689453125
-22.780517578125 -18.0130615234375 14.578369140625
23.441650390625 1.485107421875 -6.94287109375
-31.8974609375 -22.2789306640625 19.5396728515625
-60.943603515625 -25.8355712890625 29.0543212890625
-48.74560546875 -18.011962890625 7.7000732421875
48.23388671875 43.406982421875 -10.0848388671875
1.33544921875 -1.662109375 8.3497314453125
-32.134765625 -1.288818359375 1.5191650390625
