80.50927734375 3.3096923828125 -1.99853515625
85.173583984375 4.71875 -4.1253662109375
63.52978515625 19.7427978515625 -3.7479248046875
61.624267578125 26.3533935546875 -3.2879638671875
64.458984375 55.8992919921875 -10.8515625
66.637451171875 55.2845458984375 -12.571533203125
59.48193359375 -8.0341796875 8.4632568359375
29.58349609375 33.1934814453125 1.437255859375
57.6875 -3.5419921875 10.2890625
-18.401611328125 11.864013671875 11.6434326171875
25.705322265625 19.0025634765625 1.5643310546875
93.1064453125 7.541259765625 9.4696044921875
84.450439453125 -2.3917236328125 1.2559814453125
29.322265625 18.4473876953125 1.4542236328125
60.20654296875 14.4063720703125 1.677001953125
66.282958984375 42.5523681640625 -11.1617431640625
90.042724609375 -11.445068359375 10.1597900390625
17.248291015625 21.3984375 1.4261474609375
29.90087890625 23.044677734375 1.1240234375
84.40625 -9.6015625 8.6107177734375
33.354248046875 11.7210693359375 6.7099609375
39.01025390625 35.6064453125 1.1168212890625
79.7314453125 -13.05322265625 7.3612060546875
65.8564453125 -9.6756591796875 11.4227294921875
88.99560546875 -4.55322265625 2.5009765625
64.918701171875 0.0595703125 2.1419677734375
-59.07373046875 3.3223876953125 17.9019775390625
-29.49072265625 19.74072265625 10.4964599609375
92.899169921875 1.7509765625 -1.356201171875
54.74267578125 -3.759521484375 11.05419921875
15.5234375 7.606201171875 14.210205078125
64.520751953125 34.96826171875 -7.8914794921875
64.51171875 24.0045166015625 -7.1256103515625
-60.393798828125 5.6700439453125 18.144775390625
65.21142578125 -7.742431640625 7.8660888671875
-22.75 8.593017578125 14.6627197265625
-63.93359375 3.5699462890625 20.2630615234375
92.15576171875 -6.1522216796875 8.3875732421875
23.1806640625 36.68310546875 1.595703125
91.527099609375 10.8310546875 -9.7138671875
91.130126953125 0.33984375 -3.4783935546875
-45.266845703125 20.9547119140625 11.759033203125
-54.547607421875 1.5445556640625 18.078125
-23.492919921875 24.8758544921875 9.28759765625
35.11279296875 31.020263671875 1.10009765625
87.59228515625 -16.000732421875 11.81591796875
-35.607666015625 23.1490478515625 10.6326904296875
91.593994140625 -2.1363525390625 4.6405029296875
88.77099609375 20.1348876953125 -17.4677734375
71.339111328125 42.2481689453125 -10.56591796875
59.446044921875 0.253173828125 6.2005615234375
40.359619140625 29.8082275390625 1.133056640625
61.68505859375 19.2310791015625 -1.0751953125
21.932373046875 23.4140625 1.05419921875
24.408447265625 10.1715087890625 9.8802490234375
67.72314453125 2.7935791015625 3.92626953125
-53.080810546875 8.9306640625 17.677001953125
86.695556640625 -7.6160888671875 5.559326171875
70.608642578125 32.718505859375 -6.88818359375
59.6572265625 12.0521240234375 2.697998046875
68.1650390625 13.99365234375 1.595703125
71.385498046875 58.529296875 -15.2421875
-38.66357421875 9.9635009765625 13.6002197265625
89.630615234375 9.06201171875 -9.0919189453125
65.800048828125 40.2083740234375 -10.26611328125
-14.926025390625 15.916015625 9.840576171875
-18.003173828125 19.1007080078125 9.2947998046875
67.555419921875 11.575927734375 -2.0123291015625
-28.860107421875 13.583984375 11.321044921875
91.7978515625 22.336181640625 -19.5872802734375
35.389892578125 27.87890625 1.4332275390625
70.015869140625 31.0843505859375 -4.9775390625
66.4345703125 -4.2581787109375 8.750244140625
-24.28515625 13.322998046875 11.03076171875
66.305419921875 -12.137451171875 19.5234375
-24.385009765625 6.0623779296875 17.183837890625
-40.872802734375 0.1944580078125 19.34326171875
21.66552734375 7.8974609375 13.776611328125
62.516845703125 -6.341796875 5.881103515625
23.714111328125 13.0216064453125 5.012451171875
16.8505859375 23.8258056640625 1.2662353515625
94.025390625 0.834716796875 2.93359375
89.4775390625 -2.8271484375 0.7127685546875
41.985107421875 10.1820068359375 9.99609375
24.1435546875 28.4993896484375 3.1781005859375
35.863037109375 13.205810546875 4.631591796875
69.10888671875 27.4754638671875 -7.2098388671875
-32.959228515625 22.7174072265625 10.3919677734375
80.323974609375 -3.13330078125 -0.954345703125
-40.571044921875 16.9180908203125 11.710693359375
90.293212890625 28.2679443359375 -22.71533203125
82.947265625 0.0208740234375 1.119140625
86.177490234375 -11.219482421875 9.0487060546875
93.72705078125 -4.418701171875 10.2171630859375
91.494384765625 16.3218994140625 -15.13916015625
-36.204345703125 -0.116943359375 20.45654296875
90.525146484375 -16.218017578125 15.81884765625
33.754150390625 36.4390869140625 1.0625
35.620849609375 9.985107421875 8.894287109375
87.22021484375 -1.5010986328125 -1.149169921875
17.15087890625 29.851806640625 1.32666015625
-57.935302734375 9.3043212890625 16.666259765625
-40.436767578125 22.27392578125 11.206298828125
41.76318359375 25.5885009765625 1.017578125
64.619140625 28.5517578125 -7.3148193359375
-9.201904296875 -2.6064453125 16.312255859375
-20.7841796875 11.7593994140625 11.6251220703125
-5.37353515625 -3.9093017578125 19.896728515625
95.35986328125 -12.2218017578125 8.04345703125
41.09716796875 34.5264892578125 1.304931640625
80.801513671875 -5.44287109375 2.086669921875
82.070556640625 -6.1552734375 6.0509033203125
14.08056640625 31.2823486328125 1.8408203125
68.116455078125 39.7972412109375 -11.5025634765625
23.25244140625 28.008056640625 0.9676513671875
-44.151123046875 17.4229736328125 11.815673828125
-18.965576171875 8.5455322265625 14.7625732421875
65.498046875 -12.962890625 15.3338623046875
32.822265625 16.1817626953125 2.2823486328125
68.6181640625 50.5302734375 -13.9561767578125
72.226318359375 -14.194091796875 15.116943359375
-34.403076171875 1.2276611328125 19.921875
89.0771484375 25.269287109375 -21.122314453125
64.009765625 38.220703125 -7.7088623046875
68.598388671875 17.3814697265625 -3.958251953125
62.5322265625 34.0203857421875 -5.743408203125
68.7900390625 14.2921142578125 -1.1951904296875
24.811279296875 7.48193359375 13.7847900390625
18.982421875 35.184814453125 1.130859375
92.06103515625 9.185791015625 -5.970458984375
55.617431640625 4.2618408203125 7.859130859375
78.4375 -7.97265625 2.740966796875
93.866455078125 -7.498779296875 11.513671875
64.388916015625 8.72900390625 -1.5087890625
87.882080078125 6.8692626953125 -7.17822265625
93.390380859375 -1.4757080078125 6.766357421875
92.914306640625 -14.0706787109375 13.308349609375
66.1474609375 53.0697021484375 -12.4385986328125
86.1748046875 2.2188720703125 -4.611572265625
21.14501953125 31.27587890625 1.391845703125
-11.87255859375 2.207763671875 18.0185546875
93.498291015625 19.8284912109375 -15.9564208984375
68.24755859375 7.79296875 1.3726806640625
80.257568359375 5.52978515625 -2.2542724609375
85.1123046875 13.880126953125 -10.2335205078125
-9.55810546875 0.07373046875 15.3050537109375
59.82080078125 46.1024169921875 -6.1690673828125
-42.73828125 1.3599853515625 19.800537109375
71.553466796875 38.4390869140625 -7.8592529296875
65.66796875 48.2440185546875 -10.7786865234375
19.255859375 13.2330322265625 4.9776611328125
66.11376953125 35.9501953125 -10.0880126953125
56.800048828125 8.5849609375 5.6646728515625
70.650390625 53.2955322265625 -13.8817138671875
65.79736328125 -2.7384033203125 5.1904296875
-42.52734375 4.8160400390625 16.5263671875
92.921875 6.7669677734375 -2.0631103515625
80.840576171875 -11.446533203125 8.4381103515625
85.989990234375 11.301025390625 -9.6612548828125
-56.448974609375 3.4072265625 17.7874755859375
65.92236328125 5.5433349609375 0.2696533203125
31.9873046875 18.0526123046875 1.42626953125
92.51171875 12.173583984375 -4.34228515625
69.7490234375 23.554931640625 -4.5321044921875
15.4560546875 8.7021484375 12.0546875
67.6162109375 -11.915771484375 17.7535400390625
93.386962890625 -8.875244140625 13.371826171875
18.716552734375 10.0802001953125 9.63818359375
71.111572265625 -11.457763671875 18.255859375
94.920166015625 4.0428466796875 2.83251953125
62.280029296875 24.1829833984375 -3.7354736328125
94.39794921875 3.123046875 4.7750244140625
15.843505859375 13.624267578125 4.6566162109375
41.883544921875 26.554443359375 3.080810546875
84.377197265625 -11.4603271484375 10.2938232421875
22.4423828125 18.743896484375 1.81005859375
91.98681640625 -10.7381591796875 9.4248046875
-18.974365234375 21.703125 9.185302734375
54.796142578125 -1.266357421875 10.1689453125
67.078369140625 20.16748046875 -5.749755859375
25.453857421875 24.1075439453125 1.1180419921875
-15.65478515625 13.654541015625 10.321044921875
26.28173828125 30.9974365234375 1.7955322265625
82.455078125 1.35595703125 -2.7327880859375
92.178955078125 14.73779296875 -12.5709228515625
92.97998046875 16.80322265625 -10.11181640625
63.83740234375 22.7762451171875 -5.092529296875
36.14794921875 20.496826171875 1.0126953125
60.78857421875 -9.7491455078125 8.3526611328125
-11.28955078125 -3.2591552734375 15.9249267578125
24.003662109375 11.8404541015625 6.784423828125
13.356689453125 13.0472412109375 5.7635498046875
83.9697265625 -8.0352783203125 7.058349609375
63.55224609375 -4.0838623046875 4.7164306640625
80.858642578125 -0.4075927734375 1.2724609375
65.6875 -9.4085693359375 14.1966552734375
41.5654296875 13.18359375 7.623779296875
72.5048828125 52.1871337890625 -12.7139892578125
14.92041015625 26.965087890625 1.36181640625
39.46875 25.9976806640625 1.219970703125
61.85205078125 43.964599609375 -6.806396484375
62.85888671875 2.4246826171875 1.3482666015625
22.318115234375 9.9932861328125 9.63525390625
59.67431640625 -11.813232421875 10.456787109375
-54.443603515625 6.110107421875 17.644775390625
-28.89892578125 16.7314453125 10.5103759765625
72.01123046875 46.767578125 -9.45361328125
60.764892578125 -1.4853515625 4.4952392578125
65.478271484375 15.073486328125 -4.313720703125
88.326904296875 14.3167724609375 -13.526123046875
-52.7451171875 3.791015625 19.6090087890625
37.683349609375 10.7486572265625 8.34375
69.70458984375 35.944091796875 -10.6290283203125
15.057861328125 10.8035888671875 8.94482421875
41.03271484375 11.136474609375 7.0496826171875
-42.586669921875 19.6962890625 11.5821533203125
61.08544921875 -8.186767578125 7.0069580078125
42.099853515625 14.2239990234375 4.368896484375
81.1826171875 -15.243408203125 13.4775390625
80.466796875 -9.5416259765625 5.1241455078125
-31.607421875 17.186767578125 10.8677978515625
-25.038330078125 10.1524658203125 12.9871826171875
-24.5869140625 15.7650146484375 10.6417236328125
24.688232421875 14.44873046875 3.3624267578125
92.16357421875 -2.40087890625 0.8934326171875
-13.758056640625 8.0693359375 15.578125
32.32080078125 9.329833984375 10.805908203125
-30.950439453125 21.59423828125 10.38623046875
-39.48388671875 1.001953125 18.0413818359375
31.32861328125 7.69677734375 13.309814453125
78.618408203125 -15.208984375 5.4715576171875
38.886962890625 8.64697265625 11.6365966796875
63.611328125 14.139892578125 -3.1417236328125
-15.442138671875 21.0980224609375 10.3651123046875
-33.773193359375 3.2822265625 18.2064208984375
-23.29541015625 19.5904541015625 9.97412109375
-21.58642578125 22.55517578125 9.4443359375
88.217041015625 -11.1192626953125 8.9642333984375
93.42333984375 -13.09814453125 9.6480712890625
93.442626953125 0.17236328125 11.902099609375
-10.771240234375 -2.4573974609375 17.981201171875
-39.97607421875 7.647705078125 15.5709228515625
60.6015625 0.7177734375 4.0267333984375
62.5732421875 16.5360107421875 -1.965576171875
24.70361328125 34.3472900390625 1.364013671875
-16.91015625 23.4150390625 8.886962890625
-15.525390625 7.18359375 16.122314453125
90.263427734375 -13.0716552734375 11.333984375
-34.5478515625 5.6365966796875 17.079833984375
64.433837890625 18.1934814453125 -4.6705322265625
60.16650390625 2.703125 4.0675048828125
69.199462890625 22.249267578125 -2.699462890625
-26.64501953125 9.341552734375 13.9532470703125
30.782958984375 12.2470703125 5.824462890625
-16.50390625 17.23388671875 9.2896728515625
65.363525390625 -11.87646484375 11.5455322265625
94.185791015625 -5.731689453125 14.3824462890625
78.013916015625 -9.0299072265625 4.3853759765625
35.9423828125 33.3035888671875 1.1455078125
65.760986328125 12.25244140625 -3.3018798828125
91.466552734375 -15.2552490234375 17.29541015625
26.2099609375 28.2855224609375 4.959228515625
40.373779296875 27.819091796875 1.135986328125
28.968994140625 9.30322265625 10.4761962890625
62.015380859375 41.7357177734375 -6.3316650390625
67.3466796875 0.547119140625 5.4296875
91.809326171875 0.196533203125 -0.7698974609375
-30.192626953125 12.2315673828125 11.90625
39.028564453125 11.7303466796875 6.7406005859375
80.7373046875 -12.1376953125 10.2969970703125
60.63427734375 49.146728515625 -8.443603515625
61.590087890625 -3.8828125 4.497802734375
15.062255859375 21.684814453125 1.302978515625
-27.786376953125 10.861083984375 12.717041015625
90.440673828125 5.5538330078125 -5.165283203125
92.714111328125 -1.548828125 3.1146240234375
36.590087890625 23.9774169921875 0.945068359375
88.715087890625 -8.4422607421875 6.3131103515625
32.412353515625 32.2666015625 1.1697998046875
14.67822265625 36.7725830078125 1.4373779296875
92.7177734375 8.79638671875 -1.561279296875
25.882080078125 9.49658203125 11.1761474609375
68.239501953125 43.7108154296875 -12.4940185546875
-5.34423828125 -2.451904296875 15.4326171875
20.928466796875 12.4473876953125 5.9356689453125
93.58935546875 19.6014404296875 -12.922607421875
-30.6806640625 7.75 15.6419677734375
17.780517578125 8.771728515625 11.958251953125
39.54931640625 31.88720703125 0.994873046875
30.739501953125 9.6688232421875 9.717041015625
61.9619140625 10.3988037109375 -0.840576171875
88.448974609375 12.4453125 -12.22119140625
59.956298828125 31.6768798828125 -3.3018798828125
36.957275390625 14.327392578125 3.4788818359375
94.078125 3.6121826171875 -2.1241455078125
82.573486328125 3.5313720703125 -2.9232177734375
38.15185546875 18.319580078125 1.352783203125
93.44140625 -12.0067138671875 7.938720703125
32.9560546875 27.358154296875 1.0924072265625
65.044189453125 26.5494384765625 -7.3397216796875
42.02001953125 30.2081298828125 2.033447265625
55.669189453125 -10.527587890625 14.061767578125
-39.21875 3.1158447265625 18.24462890625
-61.947021484375 6.553955078125 17.42919921875
60.898193359375 6.6661376953125 1.92333984375
81.760498046875 -4.1180419921875 3.4400634765625
72.095947265625 49.0198974609375 -11.958251953125
16.993896484375 12.5423583984375 5.7491455078125
53.902099609375 0.224365234375 11.046875
92.34912109375 8.9066162109375 -4.107421875
-59.62353515625 7.0330810546875 17.0279541015625
-41.44091796875 8.909912109375 14.77294921875
62.076171875 39.19482421875 -5.668212890625
58.5244140625 -7.8831787109375 10.275390625
66.726318359375 51.29296875 -12.744384765625
59.828369140625 -13.6331787109375 10.9473876953125
67.982421875 29.6705322265625 -8.1866455078125
-40.266845703125 13.616455078125 12.172607421875
-7.33642578125 -4.2828369140625 17.129150390625
-19.746337890625 13.06396484375 10.74267578125
-5.856689453125 -0.109619140625 18.311279296875
36.039306640625 18.595947265625 1.231689453125
-36.541259765625 12.3818359375 12.560302734375
62.72607421875 50.878173828125 -9.198486328125
-5.035400390625 -2.7625732421875 17.8681640625
90.75927734375 -4.8436279296875 3.7889404296875
69.090087890625 -11.9931640625 16.4737548828125
64.26708984375 -12.305419921875 19.40771484375
27.564208984375 19.091796875 1.4215087890625
-42.9931640625 2.828857421875 18.6790771484375
93.446533203125 8.5963134765625 7.911865234375
71.243408203125 44.00830078125 -11.155029296875
62.349365234375 57.4853515625 -10.8330078125
69.609130859375 37.7010498046875 -11.217041015625
35.520263671875 11.234619140625 7.5274658203125
64.217041015625 -2.3775634765625 4.2525634765625
90.53369140625 19.7322998046875 -17.8746337890625
40.758056640625 15.208740234375 2.908203125
66.243896484375 1.1820068359375 2.780029296875
-21.26513671875 7.7359619140625 15.3570556640625
67.6494140625 5.6737060546875 1.7086181640625
59.9150390625 37.8804931640625 -4.7818603515625
13.630859375 8.1436767578125 12.0802001953125
93.80908203125 -2.577880859375 10.1170654296875
71.151611328125 42.3929443359375 -7.845947265625
73.192626953125 57.7412109375 -13.197998046875
68.185546875 55.4288330078125 -14.6820068359375
60.862548828125 10.3316650390625 1.219482421875
91.820068359375 10.66552734375 2.08740234375
16.894287109375 10.9454345703125 8.8997802734375
60.716064453125 54.73681640625 -9.3770751953125
-50.895751953125 5.146728515625 19.06884765625
40.2890625 18.8095703125 1.4078369140625
93.573974609375 -8.9315185546875 16.4622802734375
63.23974609375 54.5252685546875 -10.9232177734375
34.179443359375 32.78564453125 1.1575927734375
63.346923828125 29.624267578125 -5.7132568359375
27.830078125 12.5938720703125 5.5753173828125
19.00439453125 26.746337890625 1.3411865234375
22.929931640625 33.4117431640625 1.3551025390625
82.08154296875 6.8795166015625 -1.8516845703125
-34.8076171875 7.7584228515625 15.23583984375
84.764892578125 22.6116943359375 -12.5465087890625
-36.614501953125 0.8436279296875 18.8818359375
-46.3271484375 3.330322265625 19.1181640625
63.245849609375 18.01025390625 -3.2216796875
69.02197265625 18.361083984375 -1.601806640625
-19.770263671875 14.951171875 9.9815673828125
40.169921875 9.6748046875 10.12939453125
35.164306640625 12.0408935546875 5.8560791015625
-21.54150390625 9.83056640625 13.5364990234375
58.051513671875 7.2552490234375 5.688232421875
-43.476318359375 11.3558349609375 13.314208984375
-38.62841796875 4.7781982421875 16.62255859375
92.5009765625 12.295654296875 -9.2506103515625
94.43798828125 5.7513427734375 0.5455322265625
88.169677734375 -0.2618408203125 -3.079833984375
-22.475830078125 12.3077392578125 11.2574462890625
-35.468994140625 4.0726318359375 17.07666015625
57.870849609375 -11.39453125 13.08740234375
28.97119140625 15.2987060546875 2.8541259765625
56.1240234375 10.7449951171875 6.1390380859375
-7.768310546875 -0.111328125 15.45751953125
91.241943359375 9.3975830078125 -8.35107421875
84.31787109375 0.9583740234375 -3.2847900390625
86.072021484375 -8.73046875 6.830078125
38.15478515625 13.227783203125 4.442626953125
38.333984375 15.0791015625 2.5931396484375
-33.712890625 15.4478759765625 11.171875
-25.710693359375 22.809326171875 9.7978515625
39.545654296875 22.398193359375 1.1387939453125
88.76806640625 18.5098876953125 -16.706787109375
89.46337890625 21.465087890625 -18.833740234375
41.954833984375 9.41015625 11.6097412109375
60.601806640625 27.6229248046875 -2.1632080078125
61.897705078125 15.0565185546875 -0.704833984375
71.434814453125 40.4881591796875 -9.9769287109375
-29.273193359375 22.1165771484375 10.0570068359375
-8.921630859375 3.680908203125 17.0699462890625
-30.772705078125 9.11865234375 14.299560546875
65.54736328125 9.9263916015625 -2.129150390625
15.900146484375 11.545654296875 7.554931640625
85.67138671875 9.656005859375 -9.0537109375
61.197998046875 53.030517578125 -9.4847412109375
70.85107421875 55.9757080078125 -15.0250244140625
94.376708984375 2.825439453125 6.5225830078125
-57.768310546875 7.551025390625 16.5584716796875
-36.435302734375 9.76025390625 13.94677734375
-34.814453125 20.197265625 11.071044921875
27.774169921875 31.8914794921875 1.5166015625
28.171875 10.7872314453125 8.0303955078125
15.736328125 30.8961181640625 1.3837890625
61.326171875 2.5810546875 2.670654296875
-43.995849609375 5.5579833984375 17.1392822265625
-16.032470703125 10.5067138671875 12.4468994140625
-64.787841796875 4.740234375 19.271728515625
28.844482421875 8.5582275390625 12.220703125
94.466064453125 3.251708984375 -0.450927734375
-37.90283203125 2.026611328125 17.8450927734375
59.94091796875 34.578125 -4.0513916015625
40.461669921875 20.665771484375 1.081787109375
58.041748046875 12.2796630859375 4.14453125
80.076171875 -5.4049072265625 0.3046875
-44.302490234375 19.1644287109375 11.9173583984375
-53.177978515625 5.347412109375 18.7232666015625
31.156005859375 13.4171142578125 4.419189453125
94.301025390625 -3.404541015625 11.611572265625
62.645263671875 11.493408203125 -2.1175537109375
17.818603515625 31.464599609375 1.660888671875
30.906494140625 10.776123046875 7.8988037109375
39.4716796875 33.927001953125 1.1002197265625
93.80810546875 7.033203125 -0.5875244140625
27.806396484375 35.4744873046875 1.38037109375
-28.3486328125 6.418212890625 16.5704345703125
61.647216796875 -13.912109375 10.662841796875
15.5947265625 15.5867919921875 2.81494140625
20.466064453125 20.5025634765625 1.33544921875
64.493408203125 49.8447265625 -10.1444091796875
86.271484375 6.2138671875 -6.32861328125
59.4169921875 28.93896484375 -2.3045654296875
64.337890625 19.9595947265625 -5.2615966796875
16.923583984375 35.6248779296875 1.5179443359375
91.10888671875 1.0462646484375 -5.0560302734375
29.49365234375 20.319580078125 1.1253662109375
79.581787109375 -9.0233154296875 3.6617431640625
31.870361328125 35.5977783203125 1.271728515625
17.654052734375 25.3482666015625 1.37939453125
-20.726318359375 18.35986328125 9.8055419921875
-61.892578125 5.1455078125 18.8115234375
66.6787109375 -3.2569580078125 6.679931640625
69.518798828125 24.7227783203125 -3.2896728515625
60.058349609375 18.336669921875 0.3958740234375
34.191650390625 10.026123046875 9.848388671875
89.295166015625 26.9586181640625 -21.5255126953125
22.733642578125 24.9295654296875 1.166748046875
87.447265625 21.1812744140625 -17.1544189453125
21.987060546875 14.8377685546875 3.3951416015625
66.77392578125 44.4971923828125 -12.073486328125
27.291015625 26.22412109375 3.9432373046875
92.86474609375 -0.092041015625 4.5413818359375
85.97119140625 -16.549072265625 11.83935546875
37.685302734375 34.229248046875 1.154541015625
67.1083984375 1.6597900390625 6.7076416015625
82.99169921875 -1.6865234375 1.804443359375
-32.764892578125 18.6463623046875 11.0389404296875
82.358642578125 -8.00830078125 7.8973388671875
-31.083251953125 19.173583984375 10.70849609375
54.40869140625 -6.4849853515625 12.4642333984375
16.939453125 8.02001953125 13.364013671875
88.5400390625 7.9010009765625 -8.5
-38.61181640625 6.272705078125 15.819091796875
70.50146484375 40.9853515625 -11.3292236328125
66.823974609375 -0.085205078125 7.23876953125
31.572021484375 22.840087890625 1.286865234375
63.34716796875 0.042236328125 2.7669677734375
37.005615234375 21.953125 1.0157470703125
60.447265625 -6.664794921875 6.6446533203125
-6.61669921875 -3.5556640625 15.271484375
92.151611328125 4.1746826171875 -3.84716796875
64.3154296875 4.9794921875 0.17578125
42.000244140625 11.35302734375 8.4119873046875
-36.7841796875 13.9871826171875 12.1175537109375
79.150390625 -14.79638671875 10.9918212890625
-12.3515625 -2.0357666015625 15.3319091796875
88.69921875 23.5726318359375 -19.6153564453125
-55.569580078125 7.3865966796875 17.0291748046875
82.568359375 -9.2576904296875 9.0968017578125
-23.830810546875 7.700439453125 15.5821533203125
-53.1025390625 7.26025390625 17.8125
69.77490234375 27.3931884765625 -4.5479736328125
30.151611328125 29.295166015625 3.5562744140625
24.350341796875 18.01953125 1.623779296875
61.86083984375 5.3194580078125 1.67626953125
-36.481201171875 16.333251953125 11.5577392578125
85.27197265625 8.6585693359375 -7.4644775390625
21.397705078125 8.688232421875 11.9486083984375
63.2626953125 -10.424560546875 8.3946533203125
65.78173828125 -8.8548583984375 9.9620361328125
81.19189453125 4.3626708984375 -3.3487548828125
80.149658203125 -1.5203857421875 -0.5687255859375
93.106689453125 18.58251953125 -10.3218994140625
56.883544921875 -4.8154296875 11.0030517578125
56.867431640625 0.8114013671875 8.6754150390625
72.058837890625 -12.9654541015625 17.14599609375
27.6953125 14.465576171875 3.528564453125
93.999755859375 6.2911376953125 2.3515625
20.797119140625 10.482666015625 9.1668701171875
65.987060546875 23.1026611328125 -6.7918701171875
61.900390625 -0.8182373046875 3.1414794921875
62.44482421875 46.64306640625 -7.9024658203125
69.65234375 -13.07763671875 15.3321533203125
87.963623046875 9.5123291015625 -9.69921875
79.74267578125 2.1351318359375 0.3289794921875
87.892333984375 27.828369140625 -19.48828125
33.8759765625 24.425537109375 1.080322265625
68.043212890625 57.1156005859375 -14.4127197265625
39.796875 12.4544677734375 5.3858642578125
19.427001953125 25.097900390625 1.433837890625
17.603271484375 19.7960205078125 1.6285400390625
-18.635498046875 17.6031494140625 9.593017578125
89.007568359375 5.8359375 -6.272705078125
-12.856201171875 8.6895751953125 13.476318359375
-36.89794921875 6.974365234375 16.1473388671875
83.22021484375 -14.549072265625 12.6197509765625
-9.232177734375 -1.0467529296875 14.1383056640625
84.759521484375 -3.6865234375 2.230224609375
41.25439453125 22.15673828125 1.1925048828125
91.357421875 -13.7152099609375 12.384521484375
60.642578125 21.4349365234375 -0.6871337890625
-53.90283203125 2.56298828125 19.1964111328125
-48.416748046875 6.380126953125 18.3555908203125
59.131591796875 10.8389892578125 3.677978515625
25.3583984375 20.593505859375 1.36328125
-37.3193359375 21.7989501953125 11.033203125
67.025146484375 15.6630859375 -4.113037109375
-24.130615234375 23.369873046875 9.5877685546875
-44.265869140625 15.8077392578125 12.072021484375
-25.3271484375 18.2529296875 10.1827392578125
21.95751953125 27.1898193359375 1.64404296875
14.816162109375 12.5931396484375 6.346923828125
-22.3134765625 16.982666015625 10.0826416015625
83.300537109375 -2.984130859375 2.781494140625
-19.40185546875 23.8004150390625 9.00439453125
69.404541015625 32.9443359375 -9.299072265625
68.188232421875 18.7547607421875 -4.7362060546875
61.763671875 7.277099609375 0.301025390625
32.3349609375 8.5128173828125 12.32275390625
-24.6494140625 11.8548583984375 11.6341552734375
61.631591796875 37.180908203125 -4.8446044921875
-38.596435546875 11.8438720703125 12.7064208984375
-8.71240234375 -3.16455078125 17.7515869140625
80.7861328125 -3.576171875 0.5328369140625
89.794677734375 -14.669189453125 12.2799072265625
16.061767578125 37.7579345703125 1.3770751953125
52.33935546875 1.13671875 12.36865234375
39.087646484375 28.7987060546875 1.08349609375
66.16357421875 9.00537109375 -0.9512939453125
80.583251953125 -14.1278076171875 11.3948974609375
66.464599609375 -5.6146240234375 7.8704833984375
-27.041015625 17.33935546875 10.603271484375
87.21484375 11.3951416015625 -11.3397216796875
-26.764892578125 7.666015625 15.6209716796875
86.86279296875 -0.1837158203125 -2.0135498046875
-16.65283203125 11.931884765625 11.1751708984375
-27.1923828125 14.1162109375 10.9915771484375
92.43408203125 -8.325439453125 12.000244140625
92.830322265625 12.7451171875 -7.4676513671875
86.46875 -14.77099609375 11.6964111328125
24.69384765625 35.9598388671875 1.33984375
20.27294921875 8.3138427734375 13.0810546875
58.1259765625 1.6143798828125 7.8994140625
-34.67919921875 12.83984375 11.989990234375
59.6513671875 41.7593994140625 -5.0755615234375
79.570068359375 0.121826171875 -1.7916259765625
92.47802734375 17.5325927734375 -15.5235595703125
85.074462890625 -1.294921875 0.001953125
19.255126953125 11.1956787109375 7.98193359375
34.030029296875 10.7265625 7.8343505859375
68.971923828125 15.485107421875 -2.3248291015625
66.1474609375 -8.123291015625 11.6864013671875
67.68115234375 4.5313720703125 3.227783203125
93.65478515625 -4.037353515625 8.664306640625
71.69580078125 43.64404296875 -9.6646728515625
57.270263671875 14.2977294921875 4.0128173828125
32.152099609375 14.2138671875 3.4591064453125
-15.963623046875 20.003173828125 9.064453125
68.291259765625 36.8165283203125 -11.0675048828125
-8.351318359375 1.541259765625 17.0069580078125
61.446533203125 31.306396484375 -3.7286376953125
24.2783203125 31.9976806640625 1.3865966796875
-17.593994140625 9.045654296875 14.1263427734375
90.819580078125 26.353759765625 -21.460693359375
54.1962890625 -11.811767578125 14.43505859375
37.749267578125 32.593994140625 1.070068359375
29.545166015625 10.37548828125 8.718505859375
-25.221923828125 7.19482421875 16.224853515625
-38.969970703125 21.664794921875 11.272705078125
83.084716796875 -11.44384765625 11.3133544921875
23.355224609375 7.9339599609375 13.2044677734375
25.494384765625 8.3043212890625 12.6119384765625
36.415283203125 8.9114990234375 11.353759765625
92.1728515625 -15.319091796875 14.005126953125
93.557861328125 -9.7125244140625 14.7064208984375
61.697509765625 -11.0380859375 8.200439453125
91.815673828125 -9.06591796875 13.3134765625
55.23974609375 -8.7198486328125 13.2833251953125
64.2041015625 -11.8612060546875 17.8895263671875
63.318359375 3.67041015625 0.4864501953125
92.0419921875 19.387939453125 -16.9796142578125
-23.030517578125 15.51953125 10.498779296875
69.678466796875 46.4346923828125 -12.8597412109375
-35.1591796875 2.3343505859375 18.8326416015625
28.06494140625 22.5545654296875 1.2449951171875
90.600341796875 11.3453369140625 -11.0252685546875
70.700439453125 37.076416015625 -10.170166015625
86.2353515625 -9.9437255859375 8.1270751953125
85.298583984375 0.3934326171875 -2.0496826171875
38.681884765625 10.157470703125 9.66748046875
64.341796875 -12.4119873046875 10.2974853515625
64.05224609375 43.2647705078125 -7.7784423828125
89.8779296875 -10.609375 8.839111328125
69.501220703125 31.4251708984375 -7.9288330078125
62.0380859375 29.5567626953125 -4.0523681640625
-35.637939453125 21.4991455078125 10.76953125
19.382080078125 12.3450927734375 6.265869140625
31.967041015625 30.344970703125 1.213623046875
34.68408203125 19.6007080078125 1.2874755859375
31.859375 28.4237060546875 1.434326171875
93.319580078125 16.681396484375 -11.6363525390625
63.91845703125 12.6170654296875 -2.9456787109375
86.90478515625 -12.2108154296875 10.0140380859375
79.699951171875 -15.298583984375 9.0205078125
32.51171875 19.5142822265625 1.253173828125
36.34619140625 30.074951171875 1.261474609375
35.421142578125 8.099853515625 12.3345947265625
79.9833984375 -6.83203125 2.083740234375
22.918701171875 35.025146484375 1.3309326171875
57.064208984375 4.5606689453125 6.7381591796875
64.240478515625 -1.0576171875 3.4268798828125
20.51318359375 35.8804931640625 1.5596923828125
59.749755859375 -5.3045654296875 7.1802978515625
-25.74560546875 21.173828125 9.9339599609375
-41.72265625 7.53076171875 15.9381103515625
59.34912109375 15.7030029296875 1.713134765625
70.563720703125 45.3326416015625 -12.2012939453125
67.06298828125 32.0987548828125 -9.553955078125
88.836181640625 0.037841796875 -4.4515380859375
91.2998046875 20.866455078125 -18.6104736328125
80.662841796875 -1.993408203125 0.8184814453125
90.23095703125 22.59716796875 -19.5684814453125
68.940185546875 23.2147216796875 -6.1357421875
54.10986328125 -10.396240234375 13.8060302734375
93.801513671875 1.6737060546875 12.05517578125
65.082275390625 -13.8349609375 12.8778076171875
-10.496826171875 3.5228271484375 17.3133544921875
66.65869140625 -10.7889404296875 18.8463134765625
-39.973876953125 4.2237548828125 17.1539306640625
58.56787109375 4.2442626953125 6.28857421875
67.685791015625 4.7574462890625 5.62451171875
57.412353515625 10.9185791015625 4.5283203125
-40.093505859375 9.4571533203125 14.245361328125
66.700439453125 24.7462158203125 -7.3497314453125
56.048095703125 -7.4381103515625 12.564453125
64.652099609375 40.8460693359375 -8.900390625
63.717041015625 7.42236328125 -1.029296875
-44.728515625 0.91064453125 20.515625
79.744140625 -11.7432861328125 6.544189453125
-36.2138671875 19.11181640625 11.02294921875
88.338134765625 -12.6851806640625 10.3480224609375
69.87158203125 54.31005859375 -14.7427978515625
63.5927734375 32.9383544921875 -6.1646728515625
62.873779296875 -7.701904296875 6.7752685546875
90.296142578125 8.1351318359375 -8.0562744140625
-58.9697265625 5.1104736328125 18.326171875
94.3349609375 0.186767578125 0.555419921875
-5.079833984375 -4.3607177734375 17.998291015625
83.26220703125 0.73681640625 -0.32421875
80.83642578125 -10.31787109375 6.8203125
30.97900390625 31.7449951171875 1.359375
24.335205078125 29.9825439453125 2.8240966796875
31.424560546875 33.67041015625 1.3155517578125
66.801025390625 -1.6129150390625 5.66064453125
28.935302734375 28.438232421875 4.1259765625
34.2880859375 34.70849609375 0.9368896484375
24.609375 28.0028076171875 1.6796875
85.247802734375 -7.681396484375 6.0772705078125
-21.42919921875 15.6607666015625 10.2642822265625
34.242919921875 16.7177734375 2.093017578125
65.95654296875 56.763916015625 -12.0780029296875
73.010009765625 59.755126953125 -12.0460205078125
68.044921875 12.1483154296875 1.808349609375
59.5654296875 25.0032958984375 -1.021728515625
15.2490234375 9.8673095703125 10.1363525390625
-14.704833984375 9.0767822265625 14.091064453125
-18.67333984375 15.983154296875 9.72802734375
67.156494140625 10.30810546875 -1.260498046875
64.65673828125 -7.2186279296875 6.5443115234375
17.537109375 34.2445068359375 1.3011474609375
63.9140625 1.41162109375 0.9144287109375
-18.408203125 13.9788818359375 10.139892578125
81.337646484375 -9.6649169921875 8.294189453125
92.25146484375 -4.7869873046875 4.8287353515625
62.9560546875 48.068115234375 -8.0711669921875
62.5830078125 52.305419921875 -9.71044921875
87.987548828125 -2.5078125 -0.30224609375
90.251708984375 -9.3392333984375 8.0880126953125
-30.0146484375 17.7562255859375 10.6556396484375
84.903076171875 11.101806640625 -8.2698974609375
87.351806640625 3.1810302734375 -4.562255859375
57.415771484375 -6.2901611328125 11.584228515625
94.49951171875 -13.5732421875 8.14453125
68.56689453125 10.2669677734375 0.7823486328125
33.66259765625 7.730712890625 13.099609375
70.681640625 35.793212890625 -9.360595703125
14.59423828125 33.1912841796875 1.685791015625
42.225830078125 15.717041015625 4.130126953125
-38.392578125 19.0584716796875 11.310546875
84.443603515625 -13.0047607421875 11.79296875
63.6943359375 -5.503662109375 5.2257080078125
93.90771484375 -1.3427734375 9.0897216796875
50.627685546875 -8.0986328125 18.7313232421875
58.252685546875 5.7840576171875 6.095947265625
93.822021484375 -6.164306640625 10.8013916015625
-32.62939453125 9.983154296875 13.4127197265625
92.107666015625 7.80322265625 -2.806640625
41.914794921875 17.4464111328125 1.61328125
94.43505859375 4.4703369140625 1.3477783203125
-32.978759765625 14.1951904296875 11.590087890625
59.288330078125 22.8580322265625 -0.509765625
69.96044921875 43.61865234375 -11.8497314453125
91.8046875 -1.084716796875 0.029296875
92.81884765625 14.2550048828125 -7.396240234375
63.937255859375 36.71826171875 -7.5765380859375
88.06591796875 -6.0322265625 3.5714111328125
67.93798828125 52.1204833984375 -14.2276611328125
53.02978515625 -1.0185546875 11.8759765625
-31.921875 23.800537109375 10.2525634765625
-63.2060546875 4.5413818359375 19.2335205078125
65.67431640625 13.6268310546875 -3.9111328125
-20.59326171875 6.684326171875 16.5491943359375
15.7802734375 24.85595703125 1.5020751953125
67.674072265625 22.2777099609375 -6.084228515625
-42.509521484375 13.1591796875 12.556884765625
81.7783203125 -12.3731689453125 11.483154296875
91.686767578125 7.055908203125 -4.4305419921875
69.94091796875 29.5911865234375 -4.8470458984375
25.42822265625 30.1451416015625 3.9803466796875
64.572265625 46.5140380859375 -9.518798828125
-38.49609375 7.880615234375 15.564453125
72.06103515625 50.3399658203125 -12.6658935546875
22.28564453125 28.794677734375 1.7984619140625
91.66015625 15.174560546875 -13.9061279296875
28.169677734375 25.28369140625 2.4925537109375
93.7880859375 0.7396240234375 6.8531494140625
22.207275390625 20.668701171875 1.4110107421875
87.521728515625 15.3416748046875 -14.261474609375
93.688232421875 -7.897705078125 14.501953125
80.916748046875 -8.1158447265625 5.0633544921875
93.54150390625 -0.39404296875 2.232421875
79.229736328125 -14.451416015625 7.5267333984375
89.805419921875 4.28271484375 -4.7020263671875
29.52392578125 7.551025390625 13.36083984375
92.247314453125 -7.514404296875 8.9921875
-14.72998046875 10.9635009765625 13.3297119140625
69.034423828125 25.9906005859375 -7.078857421875
20.453125 22.1002197265625 1.311279296875
26.7041015625 23.166015625 1.280029296875
89.87451171875 10.1551513671875 -10.3720703125
94.172607421875 1.5130615234375 8.634033203125
-13.210205078125 0.7081298828125 17.9482421875
63.0068359375 27.930419921875 -5.0828857421875
92.551513671875 16.458740234375 -14.0977783203125
57.873291015625 -2.1038818359375 9.9459228515625
-49.7919921875 5.668701171875 18.2156982421875
59.218994140625 14.061279296875 2.737060546875
89.51953125 6.970947265625 -7.2979736328125
-54.35009765625 9.8505859375 17.2783203125
-55.7392578125 5.51123046875 18.0626220703125
91.201416015625 -14.517822265625 18.7867431640625
78.293212890625 -12.958251953125 7.0023193359375
-22.195556640625 18.5682373046875 9.83056640625
72.794189453125 55.1136474609375 -10.88134765625
63.337646484375 -13.7427978515625 10.6175537109375
91.673828125 2.950927734375 -4.5341796875
59.6015625 30.3692626953125 -2.645751953125
30.68603515625 19.02099609375 1.3740234375
-47.63232421875 3.9964599609375 19.49609375
-31.734619140625 12.044677734375 12.0269775390625
25.820068359375 15.76611328125 2.92724609375
-32.25048828125 15.6712646484375 11.1697998046875
58.765869140625 -11.112548828125 11.390625
81.891845703125 -13.9547119140625 12.8824462890625
72.571044921875 58.6168212890625 -14.3629150390625
87.770751953125 -4.2022705078125 1.7523193359375
78.131103515625 -15.497314453125 7.2718505859375
41.665771484375 16.0328369140625 2.0673828125
58.089111328125 17.2664794921875 2.494140625
15.754638671875 18.88671875 1.7298583984375
94.14990234375 1.5970458984375 0.1629638671875
71.86865234375 47.26025390625 -11.538330078125
43.013916015625 18.741455078125 1.186279296875
83.972412109375 7.308349609375 -4.8614501953125
61.80810546875 27.777099609375 -3.627685546875
-56.469970703125 8.1475830078125 16.1424560546875
61.06201171875 13.4632568359375 0.0732421875
68.49951171875 13.1680908203125 0.146484375
-54.46337890625 8.218017578125 17.5362548828125
62.092529296875 45.3482666015625 -7.2508544921875
37.750732421875 29.415283203125 1.1180419921875
64.303466796875 39.5552978515625 -8.2535400390625
90.58544921875 -0.7354736328125 -0.7159423828125
19.241455078125 36.84765625 1.396240234375
-41.545654296875 4.024658203125 17.2825927734375
64.227783203125 33.6341552734375 -7.34765625
83.19384765625 6.713623046875 -3.296875
-43.557861328125 8.125 15.6876220703125
93.87158203125 20.4842529296875 -11.0406494140625
65.655517578125 18.9501953125 -5.408203125
-31.621337890625 14.30078125 11.046875
-55.858154296875 10.45361328125 17.2186279296875
-28.7451171875 7.51318359375 15.6778564453125
71.2421875 37.4039306640625 -8.84814453125
73.10595703125 57.9866943359375 -11.4541015625
65.9775390625 -10.1419677734375 12.8033447265625
40.324462890625 8.791015625 11.41162109375
-47.341064453125 5.3909912109375 18.3173828125
65.2197265625 44.30322265625 -9.9510498046875
67.40283203125 49.8310546875 -13.234375
88.783447265625 2.47216796875 -5.089111328125
58.919189453125 8.0811767578125 4.854248046875
-43.64892578125 20.6966552734375 11.611572265625
92.16015625 -4.8538818359375 7.57421875
86.747802734375 17.8359375 -15.02978515625
93.3994140625 18.4915771484375 -11.7484130859375
-58.7607421875 1.935791015625 17.5755615234375
20.136962890625 33.8917236328125 1.4935302734375
-34.128662109375 10.1832275390625 13.4425048828125
-37.736328125 4.0269775390625 17.4971923828125
61.365234375 34.64111328125 -4.3529052734375
65.986328125 34.4993896484375 -9.853515625
29.839111328125 14.19384765625 3.6468505859375
28.168701171875 16.3651123046875 1.9525146484375
-43.12158203125 3.8250732421875 17.41162109375
72.572998046875 50.2081298828125 -10.499755859375
-28.92822265625 9.5816650390625 13.7276611328125
86.37939453125 -2.2794189453125 -0.253173828125
90.328369140625 2.2708740234375 -5.0302734375
64.849609375 16.5958251953125 -4.6800537109375
62.9931640625 42.016845703125 -7.3677978515625
-15.58154296875 22.858642578125 9.07080078125
19.039794921875 20.7442626953125 1.4591064453125
70.551513671875 -11.31298828125 16.8829345703125
90.2470703125 16.701171875 -15.77587890625
16.11572265625 28.8638916015625 1.5657958984375
92.471435546875 10.1080322265625 -0.9945068359375
72.69677734375 51.396728515625 -11.5146484375
53.543701171875 -3.6561279296875 12.4998779296875
-55.867431640625 2.059814453125 17.775390625
-24.236572265625 9.450927734375 13.9676513671875
-26.08740234375 10.9705810546875 12.3603515625
62.814453125 38.100341796875 -6.2620849609375
-42.73095703125 10.094482421875 13.73486328125
19.754150390625 30.706298828125 1.4730224609375
-22.945068359375 6.958251953125 16.4466552734375
67.52978515625 1.9659423828125 5.091064453125
93.671875 21.0350341796875 -13.0518798828125
62.240234375 21.17529296875 -2.1083984375
-35.09912109375 6.9674072265625 17.091064453125
-6.370849609375 -1.650634765625 14.81689453125
81.507568359375 -6.0224609375 4.731689453125
81.569091796875 -7.5526123046875 6.21630859375
91.709228515625 23.6502685546875 -20.1671142578125
90.78857421875 -2.487060546875 1.294921875
-11.62451171875 -3.6063232421875 17.8863525390625
94.741455078125 2.6595458984375 3.1627197265625
92.948486328125 5.0235595703125 -3.011962890625
84.58935546875 -14.7906494140625 12.274169921875
62.125 32.761474609375 -4.9881591796875
92.632568359375 17.6826171875 -8.5433349609375
57.208251953125 3.1229248046875 7.2537841796875
67.732421875 47.09814453125 -13.083251953125
62.612548828125 30.6973876953125 -5.120361328125
36.683837890625 28.4844970703125 1.461669921875
83.531005859375 1.1033935546875 -1.678466796875
30.112548828125 34.6683349609375 1.2626953125
87.976806640625 1.1026611328125 -5.092041015625
66.786376953125 39.3070068359375 -11.3355712890625
92.333251953125 13.4530029296875 -10.4962158203125
64.732177734375 51.2208251953125 -10.5860595703125
24.963134765625 26.603271484375 2.6083984375
81.16796875 -10.5035400390625 9.453857421875
33.717041015625 31.275146484375 1.2225341796875
32.968017578125 22.59765625 1.1646728515625
79.72216796875 -15.8526611328125 4.848876953125
61.3515625 3.900634765625 1.84423828125
85.50048828125 -12.3157958984375 10.4376220703125
69.845458984375 34.538330078125 -10.124755859375
93.710205078125 -0.7181396484375 13.0235595703125
42.1640625 14.195068359375 5.785888671875
21.926025390625 36.0308837890625 1.456787109375
26.411865234375 25.3309326171875 1.7144775390625
-27.735107421875 8.4481201171875 14.87353515625
62.225830078125 -5.40234375 4.8604736328125
21.330322265625 24.7669677734375 1.268798828125
92.3974609375 9.8651123046875 0.832763671875
-25.154296875 24.35986328125 9.6143798828125
22.42919921875 9.5074462890625 10.9581298828125
86.860595703125 14.70751953125 -12.9420166015625
-19.519775390625 7.577392578125 15.62939453125
30.36669921875 17.633056640625 1.9410400390625
-31.21728515625 5.6744384765625 17.2257080078125
90.123291015625 12.503173828125 -12.4302978515625
-25.967041015625 14.6883544921875 10.5938720703125
-32.059326171875 7.479736328125 15.5291748046875
-27.783935546875 23.97265625 9.9197998046875
-17.91845703125 24.39892578125 8.9124755859375
66.03271484375 46.388671875 -11.4617919921875
72.859130859375 56.0706787109375 -12.5748291015625
26.437255859375 12.417236328125 5.68212890625
29.37939453125 24.34814453125 1.2283935546875
24.29443359375 10.6549072265625 8.5631103515625
27.71142578125 9.2314453125 11.1044921875
13.936279296875 18.561767578125 1.0355224609375
-21.339599609375 10.796875 12.4866943359375
-19.226318359375 10.86572265625 12.200927734375
26.288818359375 7.6295166015625 13.5537109375
93.291259765625 -2.706787109375 7.7877197265625
91.427490234375 7.918212890625 -5.508056640625
-22.93310546875 9.989990234375 13.448486328125
-17.118408203125 7.02978515625 16.36572265625
26.915771484375 10.718505859375 8.6524658203125
28.08740234375 17.7952880859375 1.3170166015625
27.26123046875 8.07763671875 12.650634765625
-57.86572265625 3.9632568359375 17.6060791015625
-17.8515625 12.8223876953125 10.7855224609375
-38.80322265625 8.9432373046875 14.546875
82.428955078125 -4.692138671875 4.5262451171875
14.0234375 25.8922119140625 1.3802490234375
39.087890625 30.3843994140625 1.0594482421875
34.70361328125 26.7008056640625 1.1256103515625
84.00244140625 4.7108154296875 -3.363037109375
35.7314453125 22.5194091796875 0.9420166015625
69.259521484375 52.99365234375 -14.374755859375
16.243896484375 26.382568359375 1.4365234375
14.354736328125 13.4854736328125 4.87451171875
-22.11767578125 23.88525390625 9.4478759765625
19.80908203125 14.11572265625 4.04931640625
89.337890625 29.28662109375 -22.3475341796875
15.95654296875 22.755615234375 1.2845458984375
22.975341796875 14.057373046875 3.9945068359375
72.871337890625 53.203857421875 -11.8336181640625
18.501220703125 22.0555419921875 1.564697265625
22.03759765625 32.3441162109375 1.3734130859375
62.76416015625 -12.436279296875 9.3328857421875
33.5 20.8961181640625 1.03955078125
93.115966796875 13.7984619140625 -8.85205078125
-9.81689453125 -2.3966064453125 15.0848388671875
86.67529296875 -6.1253662109375 3.9801025390625
14.76318359375 14.667236328125 3.4539794921875
33.639892578125 14.715087890625 3.159423828125
89.023681640625 -9.3648681640625 7.3135986328125
40.54296875 24.944580078125 0.881103515625
69.361083984375 39.1904296875 -11.518798828125
94.163818359375 -0.7030029296875 10.29052734375
-45.0263671875 2.66650390625 18.741455078125
37.373046875 19.5692138671875 1.1732177734375
35.041015625 35.8516845703125 1.1365966796875
31.109130859375 15.0260009765625 2.973388671875
26.24267578125 21.6553955078125 1.3450927734375
18.400146484375 13.9400634765625 4.1549072265625
62.9541015625 21.0723876953125 -3.44482421875
78.3583984375 -11.677734375 6.0802001953125
65.271240234375 -10.2779541015625 10.1304931640625
69.56103515625 24.3829345703125 -5.740966796875
66.744140625 0.7047119140625 4.197998046875
71.248779296875 39.7255859375 -8.841796875
85.97265625 -0.927001953125 -1.017578125
-17.28125 11.011962890625 12.149658203125
31.78662109375 26.6690673828125 0.8463134765625
67.150146484375 30.7301025390625 -8.94677734375
29.410888671875 31.30615234375 1.7681884765625
16.473876953125 32.469482421875 1.60791015625
24.634765625 23.004638671875 1.027099609375
34.8701171875 9.027099609375 10.978759765625
63.342529296875 9.5450439453125 -1.87548828125
23.25927734375 19.6527099609375 1.177001953125
13.699951171875 10.58447265625 8.944580078125
26.3701171875 17.8189697265625 1.9635009765625
61.09326171875 25.560546875 -2.3004150390625
91.515380859375 -11.5709228515625 10.40966796875
14.26318359375 7.9503173828125 13.282470703125
61.6064453125 40.4798583984375 -5.574462890625
30.8466796875 24.0628662109375 0.9971923828125
25.765380859375 9.981201171875 9.8560791015625
69.113037109375 40.68115234375 -11.8209228515625
-43.951904296875 1.834228515625 19.379150390625
-34.426025390625 22.5003662109375 10.393310546875
33.739013671875 12.487060546875 5.2822265625
-10.894287109375 -0.1968994140625 15.1942138671875
32.154296875 21.501953125 1.07421875
-45.7763671875 19.939697265625 12.5203857421875
37.94189453125 22.9654541015625 0.8897705078125
37.862548828125 24.9886474609375 0.9947509765625
72.037353515625 44.923828125 -10.3065185546875
65.391357421875 -10.7796630859375 14.7574462890625
22.505126953125 31.060546875 1.377685546875
-41.24755859375 10.3250732421875 13.7303466796875
66.27001953125 4.584228515625 1.17626953125
56.99267578125 -12.4620361328125 14.747314453125
24.564697265625 16.5074462890625 2.04296875
25.5498046875 30.421875 0.8021240234375
26.673828125 27.005615234375 4.9600830078125
15.563232421875 17.403564453125 2.083740234375
69.199462890625 17.24755859375 -2.745361328125
61.596923828125 50.080810546875 -8.666259765625
93.431640625 19.2423095703125 -14.2244873046875
41.00439453125 13.5003662109375 4.01708984375
-43.3427734375 14.4620361328125 12.2550048828125
80.2490234375 -0.2515869140625 0.0684814453125
56.35107421875 -3.340087890625 10.4217529296875
90.229736328125 -3.9915771484375 2.42431640625
18.67724609375 29.140625 1.071044921875
95.10400390625 -12.8321533203125 6.8592529296875
-39.537353515625 -0.0673828125 18.874267578125
-26.451416015625 6.6109619140625 16.6312255859375
42.66943359375 20.7109375 1.0086669921875
91.994140625 -6.0838623046875 7.0296630859375
84.43798828125 -5.71142578125 4.4913330078125
62.923095703125 22.4150390625 -4.16162109375
