80.627197265625 56.36083984375 -21.3770751953125
80.164794921875 -1.0382080078125 -2.9874267578125
13.1279296875 -6.8287353515625 16.6270751953125
71.17822265625 39.978515625 -10.7188720703125
39.710205078125 20.4349365234375 -1.83984375
107.138671875 -21.867431640625 21.3074951171875
77.1142578125 27.9866943359375 -14.6314697265625
72.53515625 33.0313720703125 -9.6864013671875
-3.476318359375 27.072265625 6.2786865234375
101.233642578125 4.734130859375 9.577880859375
63.58935546875 -16.8131103515625 17.802490234375
99.947509765625 -5.3861083984375 7.490478515625
98.276123046875 2.0311279296875 -0.266845703125
100.154052734375 -9.0743408203125 11.1649169921875
77.15478515625 14.75927734375 -8.65234375
78.970947265625 -30.3057861328125 10.7139892578125
41.044189453125 27.5533447265625 -2.1085205078125
1.94921875 26.516357421875 5.31396484375
46.405517578125 14.0382080078125 0.3770751953125
56.31396484375 39.1038818359375 -1.930419921875
84.389404296875 -15.318115234375 10.81103515625
78.3056640625 34.094970703125 -17.0950927734375
80.029052734375 12.258056640625 -10.8975830078125
77.86376953125 22.2562255859375 -13.992431640625
71.67529296875 -13.599609375 14.1597900390625
57.07470703125 31.056884765625 -1.9580078125
77.8046875 4.06201171875 -5.5478515625
9.9228515625 4.4967041015625 15.166259765625
-0.1484375 7.783935546875 12.26806640625
12.82861328125 12.833740234375 10.2275390625
98.615234375 -13.44091796875 10.1729736328125
75.731689453125 53.7449951171875 -16.4638671875
65.416015625 -23.9072265625 16.8927001953125
-2.467041015625 12.0330810546875 8.264404296875
65.099609375 -29.178466796875 23.762451171875
53.04345703125 7.0911865234375 12.0802001953125
49.1611328125 28.3321533203125 0.8330078125
63.39599609375 -14.5174560546875 18.9466552734375
-3.731689453125 7.739013671875 12.2662353515625
78.0625 -15.6396484375 11.8546142578125
10.205322265625 -7.3701171875 18.38232421875
1.634033203125 31.0272216796875 5.11083984375
79.99853515625 53.4825439453125 -21.0970458984375
70.9853515625 -3.4605712890625 8.3367919921875
2.6337890625 28.6395263671875 5.627685546875
99.9814453125 -6.6673583984375 11.2911376953125
100.955810546875 1.79296875 6.1424560546875
69.748291015625 -33.5260009765625 19.427001953125
84.067626953125 43.306640625 -21.5616455078125
8.8486328125 12.0400390625 12.7630615234375
79.78271484375 55.8604736328125 -18.397705078125
89.377685546875 -31.760986328125 17.4571533203125
6.35986328125 -5.46630859375 15.43896484375
75.275390625 6.6614990234375 0.041015625
76.471923828125 -30.28955078125 11.466064453125
84.498046875 40.25439453125 -21.0985107421875
74.201171875 39.239501953125 -12.2037353515625
66.464599609375 -23.364013671875 13.239013671875
57.042236328125 17.44482421875 -1.660400390625
52.949462890625 13.503173828125 1.2540283203125
100.513916015625 -4.543701171875 1.3935546875
78.667724609375 -5.4686279296875 1.277587890625
9.936279296875 -20.86474609375 10.894287109375
100.97412109375 -11.4100341796875 8.66455078125
42.56103515625 12.5399169921875 2.3758544921875
103.505615234375 -18.044921875 18.6890869140625
99.603271484375 0.125244140625 1.520751953125
75.6689453125 -34.5826416015625 16.146728515625
65.60205078125 -20.2735595703125 11.97998046875
73.49755859375 -16.977783203125 14.5037841796875
70.7666015625 1.529541015625 7.9876708984375
79.1845703125 50.8260498046875 -19.4376220703125
83.192626953125 22.654052734375 -15.8314208984375
75.34765625 50.653564453125 -14.8228759765625
73.054443359375 -12.892822265625 12.03955078125
84.517578125 -26.2659912109375 7.68505859375
76.035400390625 43.3922119140625 -13.1622314453125
3.989990234375 13.46435546875 6.3682861328125
52.807373046875 18.66064453125 -1.7607421875
53.533935546875 41.0140380859375 -2.0281982421875
-0.263427734375 21.41064453125 6.001220703125
82.302978515625 -25.2691650390625 6.1400146484375
75.173828125 14.55859375 -3.341552734375
50.537353515625 39.5626220703125 -2.034423828125
-0.766845703125 12.607421875 7.984375
34.94140625 40.3841552734375 -1.067626953125
-0.446533203125 19.4327392578125 5.7830810546875
37.76708984375 10.43408203125 6.4061279296875
77.2578125 -1.42041015625 2.435791015625
16.7265625 -25.450439453125 8.5565185546875
73.89697265625 -18.7381591796875 14.6414794921875
57.280517578125 19.86767578125 -1.593017578125
73.98486328125 58.9921875 -15.2105712890625
82.9287109375 9.525146484375 -9.5584716796875
40.265380859375 17.977783203125 -1.28076171875
39.348876953125 28.35986328125 -1.8504638671875
78.62060546875 28.373046875 -17.23193359375
104.509765625 -14.8831787109375 11.9493408203125
107.01220703125 -17.6485595703125 15.0360107421875
80.608642578125 -10.1888427734375 3.8896484375
77.127197265625 -16.43603515625 14.812744140625
77.944091796875 -35.321533203125 15.9935302734375
1.864501953125 21.585693359375 5.6929931640625
34.87109375 15.6802978515625 -0.517822265625
55.661865234375 14.2115478515625 -0.0904541015625
78.9326171875 -17.3599853515625 11.9583740234375
6.83837890625 -4.9298095703125 17.6175537109375
62.35009765625 13.25341796875 1.914306640625
44.7822265625 8.60986328125 9.54931640625
47.308837890625 21.1265869140625 -1.7845458984375
103.513427734375 -10.0067138671875 6.716796875
100.322998046875 -1.46142578125 6.53173828125
35.084228515625 18.0836181640625 -1.4100341796875
53.923095703125 14.5567626953125 0.180419921875
52.086181640625 20.5101318359375 -1.604248046875
64.935546875 -17.70947265625 13.9859619140625
88.702392578125 -15.343505859375 17.76806640625
77.639404296875 47.3206787109375 -14.513916015625
43.265869140625 15.5111083984375 -0.5064697265625
73.462646484375 37.1243896484375 -11.3936767578125
84.148193359375 46.9005126953125 -22.0877685546875
76.81005859375 3.4913330078125 -0.1572265625
71.770751953125 49.0311279296875 -12.1136474609375
70.1474609375 17.5460205078125 -1.459716796875
17.481201171875 9.187255859375 12.9970703125
59.656005859375 40.457275390625 -2.229248046875
105.59326171875 -17.9254150390625 13.521484375
73.20068359375 20.015869140625 -5.2579345703125
87.960205078125 4.895263671875 2.9066162109375
101.45361328125 -8.0767822265625 6.2628173828125
-5.67822265625 27.6688232421875 6.304443359375
40.61279296875 9.5028076171875 7.6011962890625
65.071044921875 -26.8297119140625 21.4185791015625
79.3798828125 40.5333251953125 -19.8341064453125
97.56689453125 -15.818359375 17.5970458984375
82.90869140625 -11.94921875 5.72607421875
78.13525390625 -7.1187744140625 4.1663818359375
79.583740234375 -14.276611328125 9.0032958984375
81.731201171875 14.5291748046875 -12.6107177734375
70.025390625 -29.8653564453125 15.6334228515625
77.25927734375 -9.8463134765625 10.2528076171875
99.445556640625 -11.48291015625 7.76611328125
74.11376953125 28.9573974609375 -8.7459716796875
83.59814453125 32.75537109375 -19.5682373046875
77.00048828125 -27.196044921875 7.4200439453125
69.134033203125 -32.808837890625 22.7918701171875
99.391845703125 1.99951171875 -1.77587890625
0.207275390625 9.82568359375 9.598876953125
35.678955078125 14.3687744140625 0.4052734375
36.72216796875 11.085205078125 5.083740234375
82.599853515625 -21.3765869140625 11.3160400390625
56.50537109375 23.865234375 -1.8955078125
75.403076171875 30.3184814453125 -9.3040771484375
-2.0927734375 18.9212646484375 6.1956787109375
71.605224609375 51.528564453125 -12.8602294921875
70.5419921875 -1.8048095703125 9.0567626953125
-4.38525390625 11.1871337890625 8.0224609375
15.544677734375 4.9197998046875 15.4442138671875
48.644287109375 39.7408447265625 -2.02490234375
73.67431640625 -35.47314453125 18.0213623046875
72.2177734375 -29.04638671875 12.328857421875
69.404541015625 -28.6265869140625 14.2349853515625
8.290771484375 -3.392578125 13.3287353515625
71.935302734375 36.814208984375 -10.5634765625
63.53271484375 -16.31689453125 21.42431640625
70.637451171875 24.29541015625 -4.4473876953125
60.150390625 9.401611328125 7.664306640625
40.04345703125 11.58056640625 4.11962890625
79.35302734375 -1.9656982421875 -1.6473388671875
72.264892578125 4.7701416015625 2.0035400390625
83.741943359375 19.3056640625 -15.102783203125
86.463134765625 -32.0804443359375 14.9149169921875
78.016357421875 53.960693359375 -16.8070068359375
1.48046875 4.878173828125 15.5078125
86.477783203125 -16.7412109375 14.871826171875
79.257080078125 1.571044921875 -4.2230224609375
71.431640625 -19.2744140625 12.81982421875
43.01416015625 8.4910888671875 9.8258056640625
76.793701171875 31.17041015625 -15.786865234375
83.3310546875 -36.9742431640625 29.09326171875
71.445068359375 18.1275634765625 -3.677001953125
70.75048828125 26.2030029296875 -5.4779052734375
75.36962890625 56.9163818359375 -16.798095703125
82.04296875 -0.859619140625 -3.1427001953125
-5.14453125 8.724365234375 10.85107421875
39.74462890625 14.8011474609375 0.068359375
51.697998046875 9.3466796875 8.02392578125
100.484375 0.10693359375 -2.10791015625
74.164794921875 -28.0894775390625 9.480224609375
100.2626953125 -8.7689208984375 13.0562744140625
81.054931640625 8.4713134765625 -9.237548828125
60.574462890625 23.7794189453125 -2.3619384765625
79.092041015625 13.891845703125 -11.1348876953125
65.909912109375 -13.654052734375 18.036376953125
32.317138671875 13.8037109375 1.23681640625
71.3046875 -11.541748046875 15.89208984375
7.658447265625 2.0140380859375 14.3983154296875
6.431640625 8.4730224609375 11.757080078125
77.449462890625 35.3421630859375 -16.234619140625
15.431396484375 11.732421875 10.047607421875
-3.196533203125 28.6796875 5.6783447265625
0.72021484375 22.9615478515625 6.0289306640625
107.029296875 -19.4705810546875 18.9063720703125
80.1953125 43.593017578125 -20.6796875
0.471923828125 16.5340576171875 6.1766357421875
14.78515625 1.478759765625 16.2496337890625
-1.3857421875 10.6455078125 8.8876953125
79.573486328125 35.94677734375 -8.953125
104.189453125 -17.6148681640625 17.154541015625
81.248046875 51.30078125 -21.962890625
87.989990234375 2.1153564453125 5.24267578125
66.174560546875 -30.6358642578125 23.26513671875
83.10693359375 12.8507080078125 -11.5855712890625
-0.72607421875 17.8330078125 6.3814697265625
12.694091796875 7.496337890625 13.799560546875
80.28466796875 -28.323486328125 8.3192138671875
79.574462890625 -18.592041015625 13.3658447265625
47.0712890625 31.394775390625 1.9178466796875
-0.271240234375 3.427001953125 16.9080810546875
-4.817138671875 25.997802734375 6.406005859375
68.802978515625 -15.3680419921875 16.4056396484375
82.49462890625 46.4891357421875 -22.3358154296875
64.720458984375 -23.5406494140625 19.2401123046875
77.809326171875 -4.2696533203125 2.1650390625
5.364990234375 -0.8646240234375 17.948486328125
46.2763671875 16.0860595703125 -0.209228515625
86.86767578125 -19.94140625 12.566650390625
73.883544921875 53.5386962890625 -15.3294677734375
84.72802734375 -30.0189208984375 12.2833251953125
77.84619140625 -10.8397216796875 8.79443359375
66.62255859375 -29.97705078125 21.1968994140625
8.677001953125 -3.824951171875 15.381591796875
73.03076171875 24.722412109375 -7.3028564453125
100.1044921875 2.0908203125 3.744140625
47.853515625 16.4632568359375 -0.8973388671875
79.391845703125 35.6595458984375 -6.5445556640625
-1.875244140625 9.2755126953125 10.04296875
43.631591796875 14.1444091796875 0.4591064453125
74.814453125 3.501220703125 1.5465087890625
78.75927734375 46.8397216796875 -18.5972900390625
76.055419921875 -15.650146484375 13.5819091796875
71.78125 23.35986328125 -5.77587890625
76.949462890625 36.0333251953125 -13.73583984375
89.658447265625 -22.7845458984375 9.2403564453125
0.6318359375 13.6822509765625 6.900634765625
77.90185546875 41.9918212890625 -18.3809814453125
78.60009765625 41.664306640625 -12.641357421875
82.98095703125 28.5963134765625 -18.1658935546875
89.79638671875 -16.7054443359375 16.3865966796875
37.591064453125 17.291015625 -0.9110107421875
-5.554931640625 12.887939453125 7.1317138671875
51.691650390625 17.4658203125 -0.9517822265625
52.348876953125 10.526123046875 6.26025390625
91.3984375 -13.92919921875 16.9766845703125
77.416748046875 16.0391845703125 -11.048095703125
-3.43115234375 4.7047119140625 15.597900390625
32.89892578125 25.765625 -1.2672119140625
17.854248046875 -28.4166259765625 7.4447021484375
2.9384765625 18.4306640625 6.4898681640625
57.65380859375 7.9951171875 10.5816650390625
44.530517578125 18.16796875 -1.218017578125
83.11474609375 -3.3424072265625 -1.639892578125
77.713134765625 -7.7271728515625 6.19189453125
13.068359375 3.1082763671875 15.2333984375
81.71044921875 -15.1302490234375 8.5723876953125
84.82470703125 -28.4188232421875 10.39599609375
2.26025390625 23.33447265625 5.3536376953125
17.627197265625 -26.57373046875 7.6971435546875
15.16748046875 10.15966796875 11.7608642578125
107.62646484375 -18.213134765625 17.06982421875
40.629638671875 34.5963134765625 -2.094482421875
72.44580078125 47.53564453125 -12.4100341796875
54.582763671875 23.5872802734375 -1.8731689453125
57.419189453125 13.8450927734375 0.61279296875
41.90771484375 31.1259765625 -1.8441162109375
4.858642578125 8.9102783203125 11.1796875
65.141845703125 -20.5736083984375 14.8660888671875
104.341796875 -17.5743408203125 14.781982421875
2.456787109375 11.794189453125 7.2025146484375
-0.9619140625 14.5447998046875 7.2813720703125
59.580322265625 8.2838134765625 9.57666015625
66.36767578125 -25.020751953125 16.12158203125
82.052978515625 -13.3585205078125 7.0936279296875
4.93359375 6.444091796875 13.83984375
70.248291015625 8.26953125 3.08203125
100.905029296875 -1.306396484375 -1.1195068359375
64.80322265625 -19.0338134765625 13.0157470703125
45.972412109375 12.2232666015625 2.6673583984375
19.395751953125 12.9930419921875 10.55810546875
76.881103515625 50.9649658203125 -15.6563720703125
35.30126953125 5.946044921875 13.833251953125
64.657470703125 -21.6729736328125 16.9200439453125
44.91796875 15.0789794921875 0.0596923828125
38.595703125 31.9453125 -2.007568359375
83.10302734375 -23.799072265625 7.32666015625
74.573974609375 18.81982421875 -5.20361328125
67.11083984375 -28.3214111328125 18.1162109375
10.710205078125 1.4102783203125 14.1800537109375
70.623779296875 0.664794921875 6.021484375
72.843994140625 57.3155517578125 -13.3974609375
81.6748046875 45.1778564453125 -21.8135986328125
45.422607421875 26.1060791015625 -0.632568359375
79.35400390625 4.471435546875 -7.2060546875
83.751953125 -31.9586181640625 13.5263671875
101.849609375 -14.0560302734375 12.423095703125
83.428955078125 -6.8148193359375 2.197265625
70.107177734375 -16.6455078125 16.3280029296875
0.993408203125 20.1793212890625 5.926513671875
83.67822265625 -36.0318603515625 27.72705078125
77.885986328125 29.2861328125 -16.1024169921875
74.791259765625 -29.323486328125 10.86669921875
78.16259765625 -24.6953125 6.445556640625
77.29296875 0.786865234375 2.1092529296875
70.461181640625 3.6470947265625 4.2816162109375
6.63818359375 4.863525390625 15.9613037109375
65.78759765625 -23.327392578125 14.71240234375
59.408203125 10.939208984375 5.0035400390625
70.545654296875 1.9742431640625 4.7296142578125
32.848876953125 21.3345947265625 -1.7113037109375
98.7958984375 6.7554931640625 0.601318359375
104.600830078125 -20.220703125 20.1217041015625
59.89453125 25.245849609375 -2.0596923828125
99.680908203125 -1.5672607421875 1.9749755859375
9.402587890625 11.281005859375 10.9307861328125
14.432373046875 -0.6519775390625 14.630126953125
47.30322265625 29.86962890625 2.6322021484375
98.37158203125 -12.438232421875 17.5062255859375
80.643798828125 -3.2301025390625 -1.72412109375
79.572265625 49.49365234375 -20.2548828125
82.43310546875 -26.9989013671875 7.5706787109375
60.153564453125 17.630859375 -1.2191162109375
81.527587890625 -35.296630859375 16.3133544921875
99.74609375 -3.370849609375 3.2916259765625
74.90625 25.8045654296875 -7.6231689453125
75.95703125 -28.855712890625 9.3582763671875
47.488037109375 7.926513671875 10.3468017578125
87.56787109375 -21.4625244140625 9.6619873046875
91.94580078125 -20.836181640625 11.1988525390625
71.5986328125 31.572998046875 -8.4610595703125
76.45654296875 5.2208251953125 0.6796875
50.87890625 32.8375244140625 -2.1937255859375
72.62451171875 53.0711669921875 -13.960693359375
76.852783203125 23.337890625 -13.386962890625
99.641845703125 -11.8935546875 12.554443359375
72.99365234375 -3.820068359375 5.7760009765625
79.202392578125 -10.8343505859375 4.998291015625
5.345947265625 7.3001708984375 12.549560546875
90.281494140625 -16.882080078125 14.60205078125
7.76513671875 8.652587890625 12.7603759765625
34.8837890625 12.1949462890625 2.99169921875
78.96337890625 -28.9111328125 9.5592041015625
81.84228515625 7.06591796875 -8.44140625
69.00146484375 -30.216796875 17.4296875
80.435302734375 -34.884033203125 27.9312744140625
73.60986328125 -14.524658203125 12.4517822265625
81.5234375 57.3309326171875 -22.5828857421875
89.797607421875 -13.836669921875 17.67578125
64.3125 -27.1470947265625 25.698486328125
73.16015625 45.640625 -12.56005859375
72.971923828125 55.2275390625 -14.60400390625
88.99755859375 -28.6304931640625 13.5361328125
38.877685546875 41.12548828125 -1.8201904296875
78.948974609375 -12.7105712890625 8.4559326171875
95.200927734375 12.5689697265625 7.2763671875
11.4580078125 -0.840576171875 11.945068359375
80.03662109375 -25.3994140625 6.45556640625
42.812744140625 23.756591796875 -1.7537841796875
104.922607421875 -13.897216796875 10.7371826171875
82.973876953125 51.3726806640625 -22.392822265625
77.21240234375 29.978759765625 -8.6116943359375
38.50048828125 8.9825439453125 9.174072265625
51.127685546875 41.536376953125 -2.12548828125
101.41015625 3.1934814453125 9.2938232421875
45.87109375 33.197998046875 -1.795654296875
74.9580078125 -4.9599609375 6.9229736328125
67.185302734375 -29.6619873046875 19.4212646484375
33.947509765625 23.8330078125 -1.720703125
72.606689453125 -6.5631103515625 8.2646484375
91.35302734375 -15.509033203125 15.3851318359375
73.80322265625 1.096923828125 2.7987060546875
42.9658203125 28.3052978515625 -2.143798828125
98.84033203125 10.957275390625 6.883544921875
46.8857421875 24.6036376953125 -1.27294921875
52.46630859375 39.8634033203125 -2.05712890625
87.546875 -26.1240234375 9.5899658203125
14.09375 9.020751953125 13.6717529296875
88.836181640625 -17.8831787109375 14.8629150390625
102.84033203125 -7.7779541015625 4.2801513671875
76.761962890625 4.895751953125 -2.28271484375
63.57861328125 -15.076416015625 17.4947509765625
85.336181640625 -31.729248046875 13.6961669921875
84.655029296875 -34.443115234375 16.5145263671875
60.012451171875 32.4085693359375 -2.0841064453125
57.639892578125 32.541015625 -2.0357666015625
12.2587890625 1.3516845703125 14.6220703125
85.111328125 -23.9830322265625 7.4617919921875
80.61328125 23.916015625 -16.3253173828125
-1.02783203125 22.7630615234375 6.1710205078125
56.50537109375 10.981201171875 4.9453125
64.307861328125 -22.3197021484375 20.123291015625
78.733642578125 16.6009521484375 -12.2724609375
44.593994140625 30.4990234375 -1.0772705078125
2.23828125 6.1031494140625 13.90869140625
5.238037109375 1.586669921875 16.2510986328125
82.263671875 -4.740234375 -0.2830810546875
77.013427734375 -7.7811279296875 8.523193359375
85.906982421875 -26.286376953125 8.4326171875
64.88232421875 -25.147705078125 19.8232421875
76.798095703125 52.6566162109375 -16.1112060546875
57.200439453125 27.2310791015625 -2.0247802734375
71.74853515625 -32.09521484375 16.53955078125
78.602783203125 39.8973388671875 -12.3177490234375
78.22216796875 50.17333984375 -15.7506103515625
79.71337890625 -16.8773193359375 10.6046142578125
75.774658203125 10.29296875 -1.4774169921875
81.4501953125 -31.00048828125 11.822021484375
6.043701171875 -1.457275390625 16.3746337890625
87.4423828125 -30.134033203125 13.66748046875
53.15234375 29.5308837890625 -1.88720703125
77.565185546875 44.5867919921875 -14.1566162109375
73.599365234375 43.4490966796875 -12.262451171875
99.93896484375 -7.15283203125 7.807861328125
77.452880859375 8.75244140625 -4.3753662109375
78.210205078125 43.6451416015625 -19.0035400390625
50.483642578125 29.76416015625 -1.5372314453125
76.69677734375 3.685546875 1.3951416015625
3.045654296875 8.65771484375 11.1845703125
52.83251953125 24.79833984375 -1.7581787109375
38.608154296875 6.8385009765625 12.725830078125
69.2080078125 -21.9356689453125 9.04931640625
76.78662109375 57.987548828125 -17.090087890625
80.758544921875 -19.5301513671875 13.004638671875
41.152099609375 40.0516357421875 -1.8421630859375
99.8779296875 -0.2926025390625 3.8026123046875
60.2685546875 30.476318359375 -2.203125
71.197265625 -9.9857177734375 11.7049560546875
83.322021484375 3.5760498046875 -5.155029296875
100.2158203125 -3.4130859375 7.5850830078125
72.4619140625 -32.2171630859375 27.2520751953125
66.31787109375 -26.5518798828125 18.1522216796875
83.716552734375 -13.0399169921875 7.3902587890625
78.10498046875 -9.835205078125 5.4893798828125
76.156982421875 13.3828125 -3.115478515625
75.123291015625 46.4112548828125 -13.580322265625
55.70556640625 32.2501220703125 -2.01318359375
41.728759765625 5.7293701171875 13.5047607421875
71.2197265625 14.31298828125 -1.6177978515625
62.415771484375 8.5408935546875 10.3616943359375
88.131103515625 -23.296142578125 8.362060546875
102.04833984375 -4.343017578125 1.41357421875
99.340576171875 -5.107666015625 3.7833251953125
62.10302734375 15.2913818359375 -0.76806640625
77.35693359375 -33.9410400390625 27.533447265625
76.483154296875 17.18798828125 -10.31103515625
68.6103515625 -28.7955322265625 16.43701171875
58.689697265625 22.230712890625 -2.036376953125
81.175537109375 -18.0260009765625 10.7996826171875
78.4619140625 32.1004638671875 -17.3248291015625
12.485107421875 -22.791015625 9.7833251953125
76.6123046875 -5.499267578125 7.3759765625
88.8994140625 -27.2828369140625 12.2294921875
72.6767578125 -2.350830078125 4.925537109375
54.662841796875 38.2230224609375 -2.1988525390625
98.5595703125 -3.464111328125 -2.165283203125
72.236083984375 1.1875 3.4830322265625
79.853515625 -32.770751953125 13.67578125
87.826171875 -31.7081298828125 15.5352783203125
44.06787109375 41.8963623046875 -1.98046875
74.245849609375 10.4796142578125 -1.639404296875
74.435791015625 12.4588623046875 -2.536865234375
72.496337890625 -34.001220703125 17.369384765625
60.010986328125 14.392578125 -0.023681640625
72.348876953125 16.8814697265625 -3.5831298828125
81.991455078125 49.893310546875 -22.122802734375
40.224365234375 8.6068115234375 9.8935546875
84.22900390625 48.7413330078125 -22.287841796875
48.35693359375 36.32080078125 -2.06591796875
33.6826171875 27.049560546875 -1.7718505859375
50.365966796875 27.867431640625 -0.5111083984375
36.602783203125 6.9119873046875 12.44921875
100.08935546875 -14.78076171875 18.2994384765625
60.9150390625 20.1961669921875 -2.03271484375
64.14990234375 -19.3118896484375 18.3681640625
38.115478515625 8.1134033203125 10.483154296875
60.994384765625 39.66162109375 -2.3199462890625
71.273681640625 22.35107421875 -4.73486328125
78.804931640625 -15.6248779296875 10.51025390625
77.66650390625 10.56884765625 -8.7303466796875
79.264892578125 0.20263671875 -3.080810546875
76.53857421875 -18.749755859375 15.0281982421875
81.065673828125 -20.82080078125 11.9940185546875
72.4111328125 35.111328125 -10.2830810546875
77.100830078125 42.2994384765625 -12.80810546875
70.037841796875 14.7615966796875 -0.269775390625
80.63525390625 16.8858642578125 -13.2645263671875
85.865966796875 -28.8221435546875 11.468017578125
105.92431640625 -18.1846923828125 17.6326904296875
-6.283447265625 18.1912841796875 6.9488525390625
84.1767578125 8.6614990234375 -9.779541015625
67.760009765625 -25.4874267578125 13.31591796875
73.024169921875 51.2740478515625 -13.8079833984375
34.4287109375 32.2603759765625 -1.9505615234375
81.195068359375 11.3260498046875 -11.2469482421875
79.8564453125 -8.29541015625 3.06689453125
53.9521484375 22.04931640625 -1.9276123046875
77.8681640625 7.717529296875 -7.8504638671875
82.8125 52.9742431640625 -22.9739990234375
80.25146484375 29.2269287109375 -17.9443359375
100.663818359375 -4.575927734375 13.8587646484375
31.443603515625 6.2327880859375 13.5482177734375
51.18115234375 13.3809814453125 1.5361328125
34.563720703125 7.3824462890625 12.029296875
44.42333984375 12.3355712890625 2.37109375
99.678955078125 -9.770751953125 16.6468505859375
76.9560546875 -13.7667236328125 12.196533203125
49.164306640625 15.676025390625 -0.9862060546875
52.3642578125 12.426513671875 2.1583251953125
41.349853515625 23.063720703125 -1.7572021484375
100.011962890625 -8.09033203125 5.5068359375
-4.97021484375 30.639892578125 5.5064697265625
38.783935546875 11.99609375 3.3782958984375
90.97265625 -17.3360595703125 13.2490234375
78.36376953125 23.256591796875 -15.019775390625
43.424072265625 16.9954833984375 -1.3779296875
6.028076171875 -4.103515625 14.475341796875
39.721435546875 13.458740234375 1.2008056640625
35.328125 24.450927734375 -1.847412109375
80.906005859375 57.9813232421875 -21.1763916015625
98.27001953125 3.6865234375 0.2718505859375
10.217529296875 -22.653564453125 9.6849365234375
73.97265625 50.075439453125 -14.5501708984375
74.66845703125 -13.385986328125 11.4984130859375
3.361572265625 6.884765625 13.2587890625
98.8369140625 -2.1370849609375 -0.2301025390625
79.300048828125 21.62353515625 -14.7825927734375
75.320068359375 31.9984130859375 -9.755615234375
86.419921875 -19.3037109375 14.32666015625
75.887451171875 40.121337890625 -11.9539794921875
100.21337890625 -12.652587890625 9.31884765625
43.740966796875 6.5538330078125 12.633544921875
12.119140625 -7.480712890625 17.546630859375
5.09814453125 4.9166259765625 15.51708984375
35.058837890625 19.796630859375 -1.72021484375
32.6103515625 18.4669189453125 -0.806640625
10.294921875 8.374267578125 13.4080810546875
72.140380859375 -26.649169921875 9.0450439453125
43.674072265625 25.1185302734375 -2.130126953125
73.46435546875 -28.518798828125 10.9530029296875
74.372314453125 20.8216552734375 -5.9300537109375
75.699462890625 22.6500244140625 -6.4998779296875
100.672607421875 -2.81884765625 10.018310546875
3.939697265625 12.140380859375 7.489013671875
45.183837890625 28.4862060546875 0.4490966796875
53.88916015625 31.635986328125 -1.71337890625
83.443359375 -26.328857421875 6.635498046875
75.13671875 27.384765625 -8.3759765625
70.394775390625 11.529296875 1.8787841796875
81.577392578125 26.701904296875 -17.7154541015625
78.362060546875 -32.9388427734375 13.64306640625
0.484619140625 5.9215087890625 14.04296875
0.19677734375 26.313720703125 5.45703125
80.0400390625 -6.669189453125 1.3336181640625
41.58544921875 11.4674072265625 4.41796875
-3.263671875 31.2362060546875 5.2222900390625
-4.669189453125 23.918701171875 5.8912353515625
-0.025390625 30.503173828125 5.52685546875
78.531982421875 37.4129638671875 -18.166748046875
56.47509765625 35.724365234375 -2.0106201171875
80.854248046875 1.9471435546875 -4.9169921875
0.787841796875 12.13232421875 7.463134765625
63.946044921875 -23.508056640625 24.3779296875
100.692626953125 3.254150390625 6.2840576171875
35.584228515625 27.79736328125 -1.8065185546875
41.978271484375 20.6834716796875 -2.0302734375
101.173583984375 1.5712890625 10.0665283203125
82.34814453125 16.0732421875 -13.526611328125
71.265869140625 -10.6138916015625 14.727294921875
58.7646484375 9.7569580078125 6.7706298828125
76.87109375 7.669189453125 -3.468017578125
11.9228515625 -6.3890380859375 15.8739013671875
78.529052734375 39.162353515625 -18.490478515625
-2.594482421875 15.794921875 7.521484375
-4.916748046875 14.0020751953125 6.3819580078125
77.3125 -5.451416015625 5.048828125
75.3486328125 -32.5576171875 14.2845458984375
61.482421875 21.663330078125 -2.1102294921875
82.272705078125 30.0592041015625 -18.8271484375
-2.806396484375 17.27490234375 6.8287353515625
101.2685546875 -0.81396484375 8.923583984375
54.759521484375 8.5426025390625 9.5069580078125
-4.976806640625 17.03515625 7.0045166015625
88.7158203125 -19.5045166015625 13.1497802734375
77.66943359375 35.7886962890625 -10.6041259765625
45.4814453125 20.9263916015625 -1.6317138671875
73.861083984375 -31.32861328125 13.09326171875
59.71337890625 12.23486328125 2.5626220703125
68.549560546875 -24.4700927734375 10.9737548828125
0.802001953125 27.89794921875 5.6505126953125
48.007080078125 8.9404296875 9.30029296875
50.355224609375 23.923828125 -1.816162109375
64.523681640625 -26.3477783203125 24.0697021484375
67.73974609375 -19.8009033203125 11.3895263671875
71.138916015625 -1.9432373046875 7.4466552734375
50.63623046875 20.2877197265625 -1.62060546875
7.722900390625 -2.2926025390625 11.8392333984375
49.046875 10.1226806640625 6.380859375
98.995849609375 -4.630859375 0.5162353515625
100.595703125 -9.5042724609375 7.650146484375
39.152099609375 25.0767822265625 -1.760986328125
103.491943359375 -19.0648193359375 19.7403564453125
76.8427734375 6.5709228515625 -0.6435546875
102.722412109375 -16.6878662109375 12.686279296875
77.97509765625 1.466064453125 -3.004150390625
17.028076171875 6.0804443359375 14.4771728515625
40.321044921875 41.3707275390625 -1.803955078125
-4.181396484375 9.7520751953125 9.8028564453125
47.60498046875 19.699951171875 -1.9150390625
78.54345703125 48.7252197265625 -14.9072265625
104.00634765625 -12.5003662109375 9.764404296875
66.303955078125 -21.7679443359375 12.6597900390625
56.7666015625 40.9259033203125 -2.2874755859375
54.099853515625 36.7314453125 -2.120849609375
71.63623046875 -12.6724853515625 13.0006103515625
46.433837890625 17.57421875 -1.0831298828125
41.08056640625 32.4368896484375 -1.8060302734375
55.668212890625 20.368408203125 -2.0296630859375
99.696533203125 -6.355712890625 6.367431640625
50.84326171875 37.22607421875 -2.008056640625
55.708984375 9.1363525390625 8.431396484375
64.38916015625 -19.2027587890625 15.045654296875
90.42724609375 -20.1470947265625 11.0120849609375
6.0673828125 11.57275390625 11.5946044921875
81.285400390625 54.4300537109375 -22.47216796875
83.613037109375 -34.0281982421875 15.43017578125
78.075439453125 -10.47216796875 7.3468017578125
59.3466796875 16.33642578125 -0.708740234375
53.60302734375 17.7347412109375 -0.9727783203125
3.889404296875 10.814453125 8.6114501953125
98.643310546875 5.05419921875 -1.06689453125
59.5537109375 39.0125732421875 -2.1898193359375
34.174560546875 28.8994140625 -1.9912109375
78.952880859375 -7.049560546875 2.9730224609375
56.319091796875 15.35888671875 -0.8626708984375
76.00439453125 -12.45556640625 11.10009765625
57.648681640625 38.3095703125 -2.0208740234375
83.012451171875 56.2723388671875 -23.23095703125
55.239990234375 26.4744873046875 -1.9893798828125
13.659423828125 5.0631103515625 15.301025390625
101.1025390625 -1.6964111328125 11.4364013671875
42.7021484375 7.6878662109375 11.275390625
42.5576171875 35.362060546875 -2.1298828125
76.79736328125 -32.848388671875 14.3265380859375
6.63037109375 0.9083251953125 15.3240966796875
101.040771484375 -3.18115234375 12.489013671875
40.585205078125 7.1937255859375 11.8656005859375
78.909423828125 45.2767333984375 -19.7969970703125
35.598876953125 41.5318603515625 -1.840087890625
81.370361328125 -12.6053466796875 5.712646484375
84.630615234375 37.7159423828125 -19.5328369140625
49.107421875 12.4879150390625 2.275146484375
77.836181640625 37.0692138671875 -16.72802734375
104.859619140625 -11.94970703125 8.5301513671875
88.12890625 -33.3475341796875 17.271240234375
74.754638671875 37.6126708984375 -11.79296875
9.2763671875 -0.603759765625 12.106201171875
50.679931640625 15.9642333984375 -0.837890625
64.2080078125 -22.5826416015625 21.8734130859375
70.92333984375 32.5760498046875 -7.1759033203125
77.08984375 9.8626708984375 -7.0084228515625
100.01416015625 -4.6624755859375 9.2177734375
76.514404296875 55.4742431640625 -17.1336669921875
6.013916015625 -2.34521484375 17.5029296875
-4.221923828125 21.3563232421875 6.179443359375
99.7783203125 -12.129150390625 15.484130859375
22.889892578125 11.517578125 10.3173828125
63.916748046875 -16.37255859375 16.4781494140625
99.604248046875 -14.7960205078125 14.7913818359375
89.555908203125 -21.241455078125 9.65478515625
70.099609375 -31.7449951171875 17.9439697265625
39.829833984375 36.383056640625 -2.0693359375
72.7578125 -24.574951171875 7.1356201171875
71.7890625 -28.09033203125 11.3538818359375
99.922607421875 -8.1531982421875 8.8392333984375
80.895263671875 52.68701171875 -21.9737548828125
80.830322265625 -35.73974609375 17.8096923828125
10.964111328125 9.9676513671875 12.63720703125
39.905517578125 31.1610107421875 -2.0966796875
82.63330078125 25.6134033203125 -17.367919921875
68.103515625 -27.0372314453125 15.164306640625
45.96142578125 34.6220703125 -1.8343505859375
40.57177734375 26.16748046875 -1.9010009765625
44.121826171875 22.971435546875 -1.8426513671875
53.473876953125 34.288330078125 -2.0169677734375
38.464111328125 38.4371337890625 -2.28125
35.823486328125 38.659912109375 -1.932373046875
61.216064453125 7.7613525390625 10.03369140625
59.059326171875 19.9954833984375 -1.8785400390625
50.120361328125 34.2332763671875 -2.0235595703125
82.251708984375 4.31591796875 -6.3345947265625
34.87158203125 36.7335205078125 -1.67333984375
77.00732421875 1.9951171875 -0.4229736328125
83.021484375 -15.194091796875 9.189697265625
61.487060546875 11.8629150390625 3.2742919921875
78.055419921875 -14.244140625 10.6883544921875
101.52685546875 -15.7352294921875 13.052734375
79.136962890625 -31.584228515625 12.14208984375
49.134765625 33.1744384765625 -1.92041015625
82.529296875 10.9068603515625 -10.524169921875
12.2802734375 11.37890625 11.2645263671875
52.994140625 8.921630859375 8.7821044921875
17.889404296875 11.3671875 11.5355224609375
-0.1123046875 8.65673828125 11.151123046875
100.54345703125 -13.3951416015625 10.903564453125
35.01708984375 10.571044921875 5.5042724609375
52.97509765625 9.8189697265625 7.635986328125
80.33251953125 -29.2581787109375 9.46240234375
58.54248046875 17.2667236328125 -1.49951171875
45.44384765625 30.531494140625 0.6646728515625
32.654296875 11.5413818359375 4.28564453125
78.882080078125 33.8919677734375 -18.640380859375
100.958740234375 -6.567626953125 14.746826171875
57.219970703125 8.9481201171875 8.604248046875
70.10205078125 5.011474609375 4.28466796875
56.36669921875 7.5211181640625 10.9703369140625
100.34521484375 -5.3929443359375 10.8087158203125
14.22265625 13.0458984375 10.2559814453125
71.31298828125 -14.688232421875 17.376953125
72.956298828125 -4.8006591796875 6.7880859375
83.2236328125 0.2984619140625 -2.983642578125
79.25048828125 -12.6209716796875 6.299560546875
58.377197265625 28.9112548828125 -1.876708984375
53.22705078125 38.4583740234375 -2.2279052734375
77.891845703125 -11.7640380859375 9.9482421875
48.355712890625 22.237548828125 -1.755615234375
82.376708984375 19.6258544921875 -14.99365234375
18.863525390625 8.933349609375 13.0374755859375
98.966064453125 0.9300537109375 0.2701416015625
104.05712890625 -16.218505859375 12.291748046875
72.386474609375 42.1536865234375 -11.57080078125
10.715576171875 -4.21826171875 17.046142578125
100.25732421875 -6.371826171875 3.8785400390625
85.87841796875 -33.184326171875 15.8355712890625
70.810791015625 -27.4442138671875 12.12548828125
101.95166015625 -12.9825439453125 11.5247802734375
38.9326171875 23.52783203125 -1.9833984375
100.2431640625 -3.239990234375 -1.029052734375
71.0146484375 17.1885986328125 -2.5029296875
33.603759765625 9.0281982421875 8.705810546875
0.203369140625 4.3525390625 15.7489013671875
77.702392578125 -12.5379638671875 11.5501708984375
100.917724609375 0.5789794921875 8.92919921875
76.662353515625 2.71044921875 2.404296875
2.08740234375 14.826416015625 5.947021484375
32.452392578125 20.0361328125 -1.3760986328125
81.035400390625 -14.02978515625 8.0352783203125
104.410400390625 -21.371826171875 20.89013671875
49.11767578125 29.6055908203125 1.5111083984375
101.495361328125 -16.1156005859375 15.7025146484375
95.57958984375 10.65966796875 8.298828125
61.8427734375 10.351806640625 6.0997314453125
2.816650390625 31.890625 4.5885009765625
77.481201171875 -1.7860107421875 -0.6634521484375
52.688720703125 10.927490234375 4.9608154296875
83.6923828125 -18.35400390625 12.77587890625
2.804931640625 3.7413330078125 16.677490234375
70.568359375 21.10986328125 -3.1119384765625
-1.067626953125 28.862548828125 5.369140625
98.751708984375 -13.57861328125 15.72021484375
64.58251953125 -25.6737060546875 22.1668701171875
88.429931640625 -13.898193359375 17.9189453125
47.193603515625 10.8238525390625 5.3890380859375
102.94921875 -17.0048828125 16.64306640625
7.402099609375 10.4464111328125 12.7587890625
38.046630859375 42.44384765625 -1.781982421875
42.959716796875 39.7965087890625 -1.9832763671875
75.339111328125 -1.3482666015625 4.2781982421875
60.60546875 7.041015625 11.8089599609375
78.22998046875 -3.670654296875 0.1549072265625
49.158935546875 31.42919921875 -0.62939453125
43.69140625 37.9234619140625 -2.140380859375
80.924560546875 3.3817138671875 -5.9266357421875
43.260986328125 29.9432373046875 -1.789306640625
72.73974609375 30.1514892578125 -8.7994384765625
74.743408203125 -26.46923828125 7.578857421875
16.36572265625 12.75146484375 9.9586181640625
49.883056640625 14.6788330078125 -0.330810546875
73.73486328125 -27.136474609375 8.51025390625
43.86572265625 32.35888671875 -1.8919677734375
34.55029296875 35.48291015625 -2.1712646484375
71.087158203125 19.4967041015625 -3.67822265625
75.782470703125 -33.5218505859375 15.2662353515625
79.808837890625 56.358642578125 -20.2059326171875
6.72998046875 -3.73583984375 18.3067626953125
85.5712890625 -22.0167236328125 8.818603515625
51.2353515625 14.3369140625 0.538818359375
103.164794921875 -6.8717041015625 2.947509765625
33.853271484375 16.760498046875 -0.8697509765625
3.277099609375 20.1060791015625 6.0203857421875
99.847900390625 -13.9403076171875 13.2972412109375
80.937744140625 41.3184814453125 -20.6773681640625
75.311767578125 49.2841796875 -14.64404296875
50.017822265625 26.6229248046875 -1.013916015625
71.03515625 35.834228515625 -9.3526611328125
70.7529296875 -6.9483642578125 11.26416015625
60.707275390625 29.175048828125 -2.0704345703125
11.556640625 4.0831298828125 14.7725830078125
74.647705078125 33.9493408203125 -10.4422607421875
81.99169921875 34.5836181640625 -20.1605224609375
74.079833984375 -25.3758544921875 7.048583984375
75.97802734375 -3.934326171875 6.8284912109375
10.677001953125 7.039306640625 13.400390625
77.173583984375 7.335693359375 -6.40234375
73.44873046875 41.5262451171875 -12.199462890625
71.479736328125 41.5921630859375 -9.532958984375
78.114501953125 30.854248046875 -16.8494873046875
33.7666015625 10.104736328125 5.88818359375
77.958984375 -30.977294921875 11.6507568359375
51.139892578125 35.771240234375 -2.139892578125
78.8701171875 -18.1434326171875 14.708984375
99.237548828125 2.8447265625 -3.0562744140625
71.4521484375 28.314697265625 -7.2576904296875
75.308349609375 35.9859619140625 -11.382080078125
8.1513671875 4.315673828125 15.300048828125
50.742431640625 7.356689453125 11.2486572265625
43.571533203125 13.1929931640625 1.4512939453125
76.2333984375 1.3922119140625 2.744873046875
35.814208984375 30.6875 -1.7525634765625
5.22021484375 -0.1754150390625 16.4168701171875
14.5380859375 -23.9925537109375 9.5111083984375
60.91943359375 12.637451171875 2.0389404296875
70.578857421875 18.4857177734375 -2.6357421875
102.148681640625 -9.1888427734375 6.80615234375
-3.68701171875 19.7840576171875 6.5765380859375
62.09716796875 13.931640625 0.378662109375
76.902587890625 19.8548583984375 -11.7900390625
77.198486328125 12.6265869140625 -8.1895751953125
75.242919921875 17.74072265625 -4.675537109375
0.096923828125 15.2540283203125 6.503662109375
82.5771484375 40.43115234375 -21.0689697265625
70.56640625 8.6761474609375 1.7796630859375
79.88671875 -26.90966796875 7.337890625
40.18017578125 21.811279296875 -2.0465087890625
101.325927734375 -5.222412109375 2.916259765625
40.491943359375 16.4732666015625 -0.5784912109375
65.916259765625 -16.0206298828125 15.612060546875
101.286865234375 0.2275390625 11.3975830078125
81.71923828125 38.649169921875 -20.5303955078125
63.8017578125 -18.2950439453125 17.516357421875
98.953125 -13.982666015625 17.0380859375
77.58056640625 -4.6260986328125 3.59912109375
46.60791015625 7.403564453125 11.5556640625
77.12744140625 -0.4317626953125 -0.6630859375
55.316162109375 12.4580078125 2.34375
71.69482421875 -1.1707763671875 4.6973876953125
38.5 35.8233642578125 -1.81005859375
78.01220703125 24.6171875 -15.0269775390625
13.679443359375 -3.2010498046875 13.1978759765625
100.687255859375 -8.552490234375 14.6416015625
59.70654296875 28.11767578125 -1.966796875
39.260009765625 34.43505859375 -1.9793701171875
1.487060546875 7.83154296875 11.8677978515625
37.357177734375 35.013427734375 -2.11376953125
36.392333984375 33.9617919921875 -2.0113525390625
36.6220703125 13.1943359375 1.592041015625
42.588134765625 41.17236328125 -1.983642578125
73.791015625 32.1622314453125 -9.908935546875
78.4267578125 14.9638671875 -11.655029296875
79.930419921875 33.275146484375 -19.2591552734375
65.2275390625 -22.236083984375 15.3101806640625
61.553466796875 9.544921875 7.555419921875
36.435791015625 18.230224609375 -1.5234375
74.37451171875 -6.92333984375 7.9951171875
34.172119140625 21.01904296875 -1.812255859375
86.8857421875 -34.061767578125 16.931396484375
33.91650390625 12.9085693359375 1.814208984375
9.052734375 10.4957275390625 12.35595703125
41.420166015625 9.0068359375 9.3740234375
88.724853515625 -29.818359375 14.14794921875
72.532958984375 -30.5223388671875 13.1790771484375
100.2421875 -10.6650390625 14.25634765625
78.2236328125 18.68115234375 -12.695068359375
82.90576171875 -5.943115234375 1.094482421875
77.34912109375 37.240966796875 -11.4482421875
58.727783203125 14.7874755859375 0.2100830078125
81.161376953125 22.305419921875 -15.9185791015625
7.334716796875 6.0255126953125 14.221923828125
100.01806640625 -12.1617431640625 14.1431884765625
48.18603515625 26.4071044921875 1.090087890625
55.801025390625 29.6966552734375 -1.40625
57.6962890625 21.185791015625 -1.9334716796875
55.665283203125 16.4307861328125 -1.3885498046875
79.636962890625 25.9459228515625 -16.70654296875
16.162353515625 9.5098876953125 13.090576171875
61.331787109375 36.907958984375 -2.14697265625
53.81787109375 9.8702392578125 6.4407958984375
71.26318359375 -5.9190673828125 10.2093505859375
85.354248046875 -21.535888671875 10.113037109375
74.291259765625 48.62890625 -13.70703125
3.7109375 5.9844970703125 14.2156982421875
73.180908203125 -0.460205078125 3.7222900390625
76.820556640625 -8.9002685546875 9.2694091796875
41.63671875 17.2655029296875 -1.23876953125
76.64306640625 -2.773193359375 6.047119140625
81.8232421875 -3.8072509765625 -1.2474365234375
74.102783203125 -34.4921875 16.8306884765625
63.409912109375 -12.83154296875 19.65283203125
48.218994140625 30.8524169921875 2.4000244140625
-2.17919921875 7.3021240234375 12.8426513671875
74.8876953125 -33.6328125 26.5118408203125
74.818359375 42.9791259765625 -12.6314697265625
57.33251953125 22.5504150390625 -1.9337158203125
76.358154296875 -0.3201904296875 4.18115234375
75.465576171875 8.642333984375 -0.857177734375
51.63232421875 23.532470703125 -2.0498046875
-4.410400390625 28.21044921875 6.056884765625
72.04931640625 -4.0643310546875 7.697021484375
-3.77197265625 5.603271484375 14.6427001953125
70.215087890625 -18.8055419921875 13.18798828125
53.085693359375 8.09228515625 10.0662841796875
37.326171875 38.979248046875 -1.7850341796875
70.731201171875 6.2012939453125 2.5189208984375
73.785400390625 7.32177734375 -0.1351318359375
76.417236328125 -35.631591796875 16.823486328125
79.2666015625 49.1417236328125 -18.983642578125
83.1689453125 -9.3798828125 3.9603271484375
61.509033203125 26.4998779296875 -1.937255859375
71.994140625 3.591064453125 2.61083984375
43.15673828125 18.8956298828125 -2.2236328125
73.48046875 4.3016357421875 1.6357421875
72.8408203125 22.744140625 -6.4058837890625
57.99755859375 6.9979248046875 11.4290771484375
72.20751953125 11.3935546875 -1.0750732421875
74.5048828125 15.639404296875 -3.8702392578125
73.92333984375 13.6827392578125 -2.8017578125
72.80078125 9.3690185546875 -0.51953125
73.080810546875 -32.9044189453125 16.454345703125
-1.796142578125 4.750732421875 15.198974609375
47.920654296875 31.42333984375 0.728271484375
73.90673828125 -20.947021484375 11.3778076171875
52.0693359375 22.24462890625 -1.918212890625
83.872802734375 -21.0474853515625 11.7919921875
70.78173828125 -3.34765625 9.7772216796875
-1.890380859375 3.8050537109375 16.189208984375
77.2236328125 -2.3985595703125 3.4447021484375
77.29736328125 -3.046875 1.900390625
91.5947265625 -19.4725341796875 11.20556640625
81.604736328125 31.9932861328125 -19.5052490234375
44.194580078125 10.7259521484375 5.0645751953125
35.01708984375 11.45361328125 4.378173828125
36.921875 7.714111328125 11.001953125
32.887451171875 9.5904541015625 7.0775146484375
-5.568603515625 15.4801025390625 6.8104248046875
72.141357421875 54.7713623046875 -12.4342041015625
82.805908203125 -32.8939208984375 13.750244140625
47.006103515625 27.34716796875 1.4443359375
79.493408203125 -24.31396484375 7.0426025390625
75.341552734375 -30.620849609375 12.1220703125
9.551025390625 -6.7757568359375 16.7489013671875
72.455078125 6.75048828125 1.105712890625
38.2275390625 39.9622802734375 -2.01904296875
45.6611328125 9.1302490234375 8.345703125
51.72021484375 7.019775390625 12.3218994140625
67.2509765625 -22.87939453125 11.896240234375
10.3779296875 -1.5791015625 11.625732421875
37.160400390625 29.5091552734375 -1.697998046875
77.1474609375 4.1417236328125 -4.108642578125
37.191162109375 32.182373046875 -2.036376953125
20.404296875 10.5849609375 11.079345703125
73.03857421875 58.4208984375 -14.14013671875
77.464599609375 13.4217529296875 -9.610595703125
19.067138671875 11.7637939453125 11.0216064453125
79.92041015625 9.499755859375 -9.7188720703125
11.90283203125 5.765869140625 14.30322265625
-2.73828125 23.4847412109375 6.2918701171875
86.2861328125 -30.7911376953125 13.4716796875
57.82470703125 11.054443359375 4.700927734375
66.60498046875 -26.560791015625 16.8397216796875
33.163330078125 32.647216796875 -1.71826171875
49.05712890625 19.05712890625 -1.742431640625
71.07958984375 -22.966064453125 8.220458984375
71.965087890625 50.134765625 -12.8541259765625
86.85546875 -23.6207275390625 7.89306640625
49.533203125 17.3792724609375 -1.4677734375
77.118408203125 3.903076171875 -1.4515380859375
34.414794921875 30.925048828125 -1.7816162109375
32.847900390625 5.9744873046875 13.5894775390625
79.77099609375 8.0025634765625 -8.8431396484375
49.6279296875 11.226806640625 4.4920654296875
71.51025390625 8.398193359375 0.8663330078125
82.108154296875 18.4566650390625 -14.3914794921875
78.82373046875 12.72265625 -10.53271484375
51.85986328125 8.589111328125 9.4404296875
75.540771484375 51.75634765625 -15.5621337890625
32.872314453125 29.6805419921875 -1.9024658203125
64.1201171875 -20.6431884765625 18.529296875
39.0029296875 18.366943359375 -1.0494384765625
70.93310546875 -24.799072265625 8.2613525390625
41.737060546875 9.832275390625 6.94873046875
54.6484375 18.8590087890625 -1.9141845703125
9.261962890625 5.951904296875 14.496826171875
22.422607421875 11.0272216796875 12.4583740234375
79.832763671875 -5.0247802734375 -0.2247314453125
47.635498046875 11.7841796875 3.2408447265625
82.782470703125 1.225830078125 -3.94482421875
32.885986328125 24.4385986328125 -1.09912109375
36.33740234375 10.2230224609375 6.38134765625
33.603515625 37.9791259765625 -2.5643310546875
41.296630859375 42.4373779296875 -1.9068603515625
46.4072265625 30.2388916015625 1.7132568359375
45.080322265625 10.328857421875 5.9818115234375
50.7548828125 11.55712890625 3.838134765625
10.212158203125 0.4228515625 13.123779296875
21.8271484375 13.4425048828125 10.78466796875
80.34912109375 54.74462890625 -21.577392578125
6.875732421875 -1.90087890625 12.9976806640625
32.47705078125 15.2803955078125 0.3695068359375
52.54248046875 14.411376953125 0.2939453125
38.514892578125 20.8956298828125 -1.4781494140625
81.1435546875 15.6719970703125 -13.0018310546875
33.835205078125 11.9378662109375 3.7701416015625
-0.2978515625 6.7742919921875 13.1221923828125
34.925048828125 8.67626953125 9.591064453125
18.89453125 -28.9791259765625 6.835693359375
80.893798828125 20.270263671875 -15.1563720703125
