-19.850830078125 10.02294921875 0.39013671875
65.091796875 -34.714111328125 6.6181640625
-11.507080078125 -30.915283203125 29.2186279296875
36.377685546875 2.7281494140625 -1.4949951171875
59.740966796875 -10.931884765625 16.2606201171875
88.529296875 -24.08984375 10.4501953125
78.573974609375 10.177001953125 -11.843017578125
105.93994140625 -20.5233154296875 2.190673828125
-24.457763671875 -2.2972412109375 5.758056640625
36.83251953125 45.7489013671875 -10.22509765625
69.0595703125 -11.0360107421875 15.5772705078125
69.578125 -7.021484375 1.6697998046875
32.7001953125 -5.45751953125 11.347412109375
-7.61572265625 -41.0472412109375 35.9635009765625
-11.70166015625 18.6055908203125 -1.2540283203125
101.323974609375 -35.3121337890625 19.4410400390625
30.113525390625 -2.1671142578125 7.3236083984375
-1.77783203125 -0.1414794921875 5.4771728515625
60.052978515625 -24.4188232421875 16.1195068359375
65.708984375 -6.4248046875 11.1258544921875
80.39111328125 1.5855712890625 -11.72265625
-14.04736328125 -6.5025634765625 10.7254638671875
-30.75634765625 18.9080810546875 11.9814453125
97.454345703125 -32.4781494140625 18.1937255859375
70.88330078125 -41.228271484375 9.0382080078125
98.62353515625 -10.753173828125 9.212890625
53.462890625 -13.523193359375 19.4888916015625
104.482177734375 -27.016357421875 7.0447998046875
57.6025390625 38.4261474609375 -10.77783203125
4.002685546875 -6.0479736328125 7.51806640625
73.487548828125 -45.7774658203125 26.774658203125
35.1025390625 41.7064208984375 -10.0447998046875
80.26025390625 -14.603271484375 -1.625732421875
94.531494140625 -3.8660888671875 6.646484375
90.359375 -1.1585693359375 2.37841796875
41.1923828125 20.8046875 -9.399169921875
78.840576171875 -43.8104248046875 21.1031494140625
49.328857421875 34.46728515625 -10.2113037109375
55.293701171875 53.8455810546875 -10.3388671875
-31.57421875 -20.5145263671875 28.7989501953125
58.643798828125 -17.3099365234375 20.079833984375
76.092529296875 -9.415283203125 1.737548828125
21.764892578125 -30.964111328125 30.11669921875
56.797607421875 46.2537841796875 -10.400146484375
77.87744140625 -26.3177490234375 6.971435546875
-16.26416015625 -13.2095947265625 18.0640869140625
99.09228515625 -22.0947265625 3.6258544921875
46.3994140625 18.1939697265625 -6.9637451171875
36.8701171875 -16.31494140625 22.910400390625
21.40869140625 -16.4276123046875 23.70263671875
81.482177734375 53.42333984375 -26.0146484375
-36.234130859375 -11.953125 7.404296875
60.710693359375 -22.530517578125 21.443115234375
1.427734375 -34.9898681640625 31.0560302734375
-42.7177734375 -13.2474365234375 9.2679443359375
45.7958984375 52.4256591796875 -9.828857421875
-16.0126953125 -18.6187744140625 23.828125
72.696533203125 33.5477294921875 -17.2529296875
-12.29931640625 30.2740478515625 -2.4810791015625
-9.08837890625 3.8846435546875 1.1256103515625
57.139404296875 30.6387939453125 -9.9447021484375
16.75048828125 -8.5052490234375 15.172119140625
63.010986328125 -25.4820556640625 8.5872802734375
-36.733154296875 -7.072509765625 7.6544189453125
7.78857421875 -6.222412109375 7.0316162109375
-1.897705078125 8.6820068359375 -1.3333740234375
3.0078125 -25.291259765625 8.65673828125
-30.567626953125 -13.2176513671875 19.1148681640625
-2.92822265625 22.367431640625 -1.996337890625
52.75439453125 16.771728515625 -9.7808837890625
69.51318359375 -10.9365234375 3.2811279296875
-19.760009765625 -27.9482421875 28.9656982421875
35.2060546875 22.9639892578125 -9.72265625
83.351318359375 -31.149169921875 4.953125
68.62939453125 -16.659912109375 7.27490234375
39.294189453125 11.67431640625 -9.3807373046875
77.55859375 -4.229248046875 1.421142578125
22.952392578125 -11.3753662109375 18.185791015625
-37.747802734375 -0.3643798828125 6.3079833984375
-32.847900390625 -4.549072265625 10.847412109375
-29.14404296875 26.6783447265625 -0.5372314453125
59.4150390625 -27.6539306640625 22.807373046875
71.26171875 -5.385009765625 7.763427734375
-10.67236328125 0.6842041015625 5.1195068359375
-19.776611328125 6.3638916015625 1.1356201171875
-17.680419921875 -9.463623046875 14.0074462890625
61.92919921875 -32.43408203125 10.7305908203125
85.15869140625 27.6385498046875 -20.424560546875
78.436767578125 -38.0177001953125 3.920166015625
54.664794921875 43.129638671875 -10.1138916015625
70.245361328125 16.452880859375 -10.066650390625
65.816650390625 -9.500244140625 14.65478515625
48.868896484375 4.3055419921875 -4.7052001953125
96.121337890625 -3.5938720703125 -10.4183349609375
68.451904296875 -20.9727783203125 12.2459716796875
76.127685546875 50.4395751953125 -24.423095703125
95.8974609375 -8.1136474609375 11.59716796875
-8.049560546875 -20.2039794921875 24.152587890625
-5.710693359375 -5.42138671875 11.58251953125
51.861572265625 50.1624755859375 -10.5657958984375
46.6376953125 -10.0059814453125 15.70458984375
56.03759765625 -8.09619140625 13.2171630859375
56.9736328125 -24.602783203125 23.004638671875
-23.3515625 3.3037109375 2.335205078125
96.642333984375 -20.0380859375 -1.653076171875
-2.628173828125 -15.360107421875 20.4305419921875
-25.2763671875 -16.673828125 18.8236083984375
-5.773193359375 -34.514892578125 30.8192138671875
80.02294921875 14.733154296875 -15.383544921875
13.736328125 -15.4656982421875 22.80224609375
1.220703125 10.8057861328125 -1.6573486328125
5.876220703125 -13.611083984375 12.0350341796875
-16.015625 4.234130859375 1.1533203125
97.230224609375 -9.9564208984375 -6.3101806640625
32.412109375 1.53369140625 0.969482421875
60.293701171875 -28.281982421875 15.6119384765625
44.3408203125 -8.0125732421875 13.582275390625
93.9833984375 -36.15283203125 25.0247802734375
73.416015625 11.65771484375 -10.2059326171875
-26.95458984375 -6.8099365234375 10.9365234375
51.015869140625 22.5784912109375 -9.8580322265625
50.261474609375 -8.8411865234375 14.2000732421875
-18.70361328125 21.8642578125 -0.7606201171875
-19.14990234375 -23.166259765625 26.5030517578125
46.777587890625 46.5478515625 -7.6416015625
-34.53076171875 5.0972900390625 11.85400390625
10.80908203125 8.609375 14.0704345703125
97.250732421875 -17.9034423828125 9.45166015625
34.0439453125 4.949951171875 -5.636474609375
79.623779296875 38.5748291015625 -20.7425537109375
-14.239013671875 0.5474853515625 4.958740234375
49.9228515625 44.1728515625 -10.2432861328125
3.142578125 -18.091796875 21.824951171875
64.363037109375 -28.418212890625 5.6351318359375
29.546630859375 4.85693359375 -4.51806640625
47.955810546875 39.4771728515625 -10.2706298828125
97.618896484375 -6.763427734375 -13.5966796875
40.906982421875 -7.252197265625 13.1627197265625
51.150390625 -22.769287109375 16.9664306640625
-8.206298828125 19.09326171875 -1.379638671875
70.66650390625 21.1370849609375 -11.2286376953125
98.51220703125 -11.231201171875 5.0064697265625
-24.269287109375 -20.6937255859375 26.4188232421875
97.41455078125 -39.074951171875 23.8626708984375
71.45751953125 27.951904296875 -13.9217529296875
31.301025390625 27.7470703125 -9.248291015625
55.0234375 2.5247802734375 -2.5242919921875
43.02392578125 32.5218505859375 -10.1064453125
93.712158203125 -20.5032958984375 14.1749267578125
18.2919921875 -28.4884033203125 26.11572265625
-14.33349609375 11.498046875 -0.1343994140625
79.626953125 -32.6895751953125 2.2635498046875
24.89990234375 -30.6494140625 27.880126953125
98.201416015625 -16.388916015625 14.8477783203125
40.712890625 5.1741943359375 -6.1954345703125
3.556884765625 -29.4013671875 26.74853515625
-16.6826171875 -4.4705810546875 8.2406005859375
96.36376953125 -6.348388671875 -5.3587646484375
33.301513671875 -0.5177001953125 4.0892333984375
50.3896484375 29.58544921875 -9.8602294921875
-40.93359375 -8.7386474609375 4.50244140625
73.435791015625 -35.1461181640625 1.2569580078125
97.609619140625 -25.621826171875 7.7396240234375
72.13525390625 -8.605224609375 11.78369140625
-24.191650390625 11.9737548828125 1.0850830078125
77.40087890625 -6.8486328125 -4.1395263671875
39.679931640625 -3.7464599609375 9.095458984375
51.040771484375 -25.12060546875 25.52294921875
-30.9013671875 -1.772705078125 7.774658203125
76.316650390625 42.4705810546875 -22.272216796875
1.597900390625 4.187744140625 1.33837890625
-27.209228515625 9.43701171875 1.4268798828125
-1.5712890625 -3.9781494140625 9.64599609375
-30.287109375 -16.9127197265625 22.6055908203125
59.731201171875 -30.470947265625 20.386962890625
76.477783203125 -31.06689453125 4.7786865234375
84.78271484375 12.3736572265625 -15.8494873046875
73.108154296875 -16.12451171875 3.11279296875
-16.175048828125 -34.9752197265625 31.318359375
75.656982421875 19.948974609375 -14.08154296875
85.314697265625 32.505126953125 -22.120361328125
57.627685546875 23.9034423828125 -10.2193603515625
101.30224609375 -17.3074951171875 -1.9971923828125
30.950439453125 -13.3411865234375 19.7872314453125
82.607177734375 -36.5894775390625 4.11669921875
74.605224609375 -42.08984375 8.195068359375
-10.9365234375 -11.77978515625 14.8323974609375
55.245361328125 35.5277099609375 -10.076171875
-5.075439453125 -26.2655029296875 26.927001953125
-8.25439453125 11.469482421875 -0.2275390625
-22.208740234375 0.1939697265625 5.6365966796875
34.585205078125 30.81982421875 -9.7921142578125
103.196044921875 -22.8680419921875 3.9827880859375
76.376708984375 17.221435546875 -12.2237548828125
36.394287109375 -13.2923583984375 19.4410400390625
-33.11328125 -7.556396484375 13.9111328125
70.64794921875 -22.53125 7.0152587890625
38.494384765625 27.7244873046875 -9.719970703125
13.169677734375 -9.7296142578125 10.5858154296875
16.516845703125 -4.12744140625 9.939697265625
87.25146484375 -26.7503662109375 8.8980712890625
79.123779296875 -44.779296875 11.633056640625
60.0771484375 0.1895751953125 3.7877197265625
96.630126953125 -24.8624267578125 10.8837890625
77.567138671875 -2.7926025390625 -6.4443359375
2.537841796875 -21.660888671875 22.0701904296875
70.296630859375 -44.03564453125 11.166259765625
33.3505859375 17.6248779296875 -9.5650634765625
7.52392578125 -11.837158203125 17.4228515625
98.876953125 -10.98046875 -8.993408203125
-12.052734375 5.6651611328125 1.048828125
-36.014404296875 -12.4974365234375 19.3123779296875
61.550048828125 -38.8426513671875 18.4315185546875
-34.0634765625 -18.72705078125 26.5072021484375
8.87451171875 -8.8536376953125 4.9798583984375
-13.258544921875 -28.165283203125 28.822021484375
27.84375 -35.3685302734375 31.08251953125
44.047119140625 -3.4971923828125 8.3983154296875
-19.016845703125 -17.2659912109375 22.679443359375
81.949951171875 -10.66162109375 -4.617919921875
-17.315185546875 -30.37109375 28.8779296875
-25.11962890625 -25.66650390625 30.5311279296875
47.2099609375 8.13330078125 -8.63720703125
29.405029296875 2.6077880859375 0.2657470703125
29.72998046875 -4.2760009765625 9.7862548828125
80.722900390625 7.45263671875 -14.157958984375
96.43212890625 -13.7757568359375 18.0435791015625
83.29052734375 -27.59619140625 9.03271484375
-9.38427734375 -8.5003662109375 12.7735595703125
31.416259765625 35.572021484375 -9.654296875
99.772216796875 -13.7935791015625 16.0157470703125
22.11865234375 -34.4283447265625 31.5147705078125
3.36474609375 -9.2293701171875 7.6417236328125
55.691650390625 -20.6572265625 20.65234375
36.59130859375 -1.791015625 6.279296875
69.28662109375 -13.506103515625 6.891845703125
10.533203125 -30.5853271484375 27.4425048828125
50.29248046875 18.8671875 -9.536376953125
95.212890625 -5.9847412109375 9.1158447265625
70.11865234375 -17.27294921875 17.089111328125
91.03662109375 -5.7147216796875 8.771484375
-10.376220703125 -37.6473388671875 34.10302734375
77.301025390625 28.4774169921875 -17.3834228515625
-23.870849609375 -10.3052978515625 14.9017333984375
20.96484375 -9.1842041015625 15.505615234375
3.015625 -9.1246337890625 10.84326171875
84.486083984375 1.3387451171875 -10.5118408203125
49.823486328125 -26.101318359375 22.428955078125
67.580078125 -43.5157470703125 23.4722900390625
72.506591796875 20.5587158203125 -13.7982177734375
48.484619140625 -1.8603515625 5.6966552734375
54.592041015625 -0.667236328125 3.5419921875
9.494873046875 4.484375 8.8856201171875
-39.807373046875 9.914794921875 13.114013671875
-30.20703125 -9.29541015625 15.044921875
98.44921875 -1.3897705078125 -10.39013671875
60.78857421875 -30.0042724609375 12.4822998046875
-5.77783203125 3.7562255859375 1.7098388671875
-1.41943359375 18.0714111328125 -1.8670654296875
92.54345703125 -16.7803955078125 19.8367919921875
98.61767578125 -4.900146484375 5.33740234375
65.71923828125 -37.2093505859375 9.1510009765625
-28.267333984375 -19.9981689453125 26.0626220703125
98.99560546875 -13.1729736328125 -6.689208984375
-20.7841796875 -5.577392578125 8.9664306640625
83.87939453125 -4.916748046875 -6.8018798828125
-1.559326171875 28.1212158203125 -2.904052734375
-27.216796875 20.3408203125 -0.185791015625
69.781005859375 -27.6627197265625 9.1805419921875
60.6640625 -18.8670654296875 22.3966064453125
8.485107421875 -14.181640625 21.0029296875
-7.890869140625 -26.724609375 25.56591796875
31.639892578125 -8.2923583984375 14.48095703125
50.595458984375 0.433349609375 1.143310546875
-14.013427734375 -24.375 27.4705810546875
6.599365234375 -16.5679931640625 24.3118896484375
2.45849609375 -10.0283203125 16.8377685546875
-4.68115234375 -10.9129638671875 15.9324951171875
62.4609375 -12.595458984375 18.0838623046875
-13.864013671875 25.4619140625 1.905029296875
-42.88525390625 -0.346923828125 6.0523681640625
13.802490234375 -28.913330078125 27.353271484375
-23.076171875 23.2808837890625 -1.0565185546875
72.445068359375 -39.4598388671875 6.339111328125
80.678466796875 -4.14013671875 6.8177490234375
59.479736328125 -3.5560302734375 7.92138671875
-9.2705078125 23.964599609375 -0.5491943359375
-27.532470703125 -12.8870849609375 18.024658203125
-15.45263671875 17.849853515625 -0.6961669921875
-16.317626953125 -37.1915283203125 33.4832763671875
24.932861328125 -14.8951416015625 22.065185546875
-8.60693359375 -13.3900146484375 17.504150390625
-6.244873046875 -0.733154296875 6.4735107421875
52.4384765625 -25.8836669921875 20.0858154296875
99.63330078125 -30.8505859375 14.7716064453125
78.768798828125 45.8616943359375 -23.041748046875
-2.519775390625 5.1181640625 -0.130859375
-12.998291015625 -14.6668701171875 19.8497314453125
14.959716796875 -10.7967529296875 17.6422119140625
46.344970703125 13.9520263671875 -9.7313232421875
-22.72607421875 26.3099365234375 -0.6463623046875
80.67431640625 18.3770751953125 -16.770751953125
55.093017578125 48.8040771484375 -10.53173828125
87.067138671875 -31.73291015625 4.77392578125
-38.513916015625 16.0748291015625 12.3607177734375
85.472412109375 -41.912353515625 12.69580078125
8.31494140625 -27.81005859375 25.0206298828125
-20.69287109375 -8.9720458984375 13.9989013671875
80.057861328125 56.6881103515625 -25.0252685546875
45.659423828125 -20.677734375 24.3446044921875
85.548828125 45.5921630859375 -25.6187744140625
37.651123046875 38.8349609375 -9.979736328125
42.878662109375 -13.9727783203125 20.3013916015625
4.27978515625 -3.2093505859375 8.64306640625
79.76171875 35.259521484375 -18.9154052734375
75.239990234375 -1.9271240234375 -3.9666748046875
-5.8193359375 30.666748046875 -2.90234375
99.4736328125 -4.555419921875 1.7176513671875
67.501220703125 -35.9283447265625 5.243896484375
68.31298828125 -41.78662109375 10.5377197265625
73.1611328125 -30.626220703125 5.6123046875
10.245361328125 -37.2816162109375 33.0587158203125
59.76123046875 2.1436767578125 0.1474609375
-39.19970703125 -3.075439453125 8.4124755859375
-18.30908203125 12.616943359375 0.57958984375
71.957275390625 2.8670654296875 -5.708740234375
98.842041015625 -0.1065673828125 -2.8154296875
81.130859375 -9.043212890625 10.4266357421875
86.15625 39.77783203125 -24.0638427734375
77.255615234375 -23.36767578125 4.3834228515625
-8.063232421875 26.466796875 -2.2685546875
1.5966796875 -12.16552734375 19.3333740234375
62.343017578125 -6.372314453125 11.1512451171875
-3.00341796875 -38.34326171875 33.796630859375
65.382080078125 -40.99072265625 18.90283203125
-6.17822265625 14.5628662109375 -1.0277099609375
-16.068115234375 -10.978515625 16.059326171875
43.59130859375 1.3092041015625 0.1551513671875
32.685302734375 48.6680908203125 -9.728759765625
101.396728515625 -27.91015625 7.9417724609375
95.5751953125 -21.279541015625 10.78173828125
-39.9501953125 -9.4736328125 7.2330322265625
46.7919921875 20.287109375 -4.86083984375
51.0849609375 14.2161865234375 -9.7049560546875
67.60302734375 -46.224609375 25.869140625
48.718505859375 50.7373046875 -10.284912109375
96.14990234375 -26.3905029296875 16.2718505859375
-23.011474609375 -18.326171875 20.4302978515625
97.59423828125 -14.87109375 0.2835693359375
-5.25439453125 -13.5721435546875 18.14501953125
-32.951171875 16.8397216796875 12.180908203125
75.695556640625 5.5589599609375 -9.8995361328125
16.686279296875 -37.4515380859375 33.23046875
71.67138671875 -12.8450927734375 1.549560546875
9.327392578125 -32.69091796875 29.1685791015625
-18.571044921875 -20.4774169921875 25.3665771484375
4.531982421875 -36.4114990234375 32.24462890625
72.364013671875 -24.341796875 8.75
75.362060546875 -25.138916015625 8.2412109375
46.18212890625 -15.370849609375 21.48974609375
-31.771728515625 12.827880859375 14.6873779296875
51.723388671875 4.3074951171875 -5.5247802734375
74.76318359375 1.0323486328125 -5.4639892578125
-2.77978515625 14.8988037109375 -1.39208984375
70.21044921875 -6.6585693359375 5.299560546875
-18.9248046875 -13.9444580078125 19.1478271484375
43.922119140625 44.2813720703125 -9.9102783203125
-40.361328125 4.9495849609375 8.7952880859375
4.552734375 -23.3311767578125 23.88623046875
81.02294921875 42.6251220703125 -23.4521484375
-8.255615234375 -32.098388671875 28.726318359375
96.362060546875 -33.4091796875 20.7803955078125
43.767822265625 7.9427490234375 -8.931396484375
56.66796875 18.2603759765625 -9.879638671875
-9.330322265625 -22.8134765625 24.674560546875
54.178955078125 29.268798828125 -9.822265625
74.147216796875 -43.17578125 23.884521484375
76.017578125 -43.468505859375 20.3424072265625
-10.2548828125 -28.7760009765625 27.6419677734375
-12.075439453125 14.420166015625 -0.424072265625
73.563232421875 52.9359130859375 -23.5264892578125
73.13916015625 14.36669921875 -11.2991943359375
50.566650390625 9.0831298828125 -9.5726318359375
55.789306640625 26.67578125 -9.81396484375
-16.8994140625 1.73486328125 3.593017578125
69.840576171875 -37.696044921875 4.7216796875
-1.13818359375 12.4727783203125 -1.268798828125
0.768310546875 -6.8388671875 13.4534912109375
60.343017578125 -19.4573974609375 14.7080078125
70.490478515625 -6.361572265625 10.9658203125
97.9794921875 -1.2955322265625 0.965087890625
63.357421875 -37.8746337890625 13.651123046875
69.2431640625 -32.2962646484375 1.622314453125
0.839599609375 -28.0340576171875 25.41259765625
-2.5859375 -25.3387451171875 25.2996826171875
-9.4091796875 24.1314697265625 3.25830078125
63.181640625 -10.44384765625 15.3642578125
-36.845703125 18.390869140625 11.931640625
97.66015625 -0.557861328125 -5.4383544921875
-43.179931640625 -7.6890869140625 7.312255859375
-13.820556640625 -12.7310791015625 16.4820556640625
49.927490234375 47.66796875 -10.069091796875
69.379638671875 -4.23779296875 0.698974609375
73.031494140625 -13.1959228515625 17.0421142578125
53.91943359375 1.3116455078125 0.089111328125
47.35986328125 49.4449462890625 -5.291259765625
38.0 33.6077880859375 -10.064453125
58.3779296875 -6.970947265625 11.965576171875
-4.805419921875 -28.9088134765625 27.9937744140625
-4.46044921875 -21.44482421875 24.4443359375
-7.39892578125 -3.54345703125 9.384765625
94.67041015625 2.8109130859375 -0.50341796875
-10.4599609375 -3.499267578125 9.4124755859375
60.96337890625 -27.466552734375 8.7572021484375
26.77783203125 -9.939697265625 16.2506103515625
61.26318359375 -24.0233154296875 10.3116455078125
103.407470703125 -19.22216796875 -0.564208984375
72.50390625 47.5169677734375 -20.7535400390625
48.581787109375 -23.5472412109375 22.26513671875
15.513671875 -32.6402587890625 28.7777099609375
58.423095703125 -9.1654052734375 14.31787109375
57.93505859375 3.437744140625 -4.3499755859375
72.787841796875 25.504638671875 -14.430908203125
95.1171875 -6.836669921875 -8.07080078125
-20.423095703125 -7.984375 11.293212890625
93.042724609375 -0.2762451171875 2.4927978515625
108.24658203125 -25.021728515625 8.5628662109375
-34.04296875 -0.20849609375 8.241943359375
-36.6884765625 6.884765625 11.561279296875
40.93408203125 18.0010986328125 -9.316650390625
78.63916015625 -39.7286376953125 6.3143310546875
54.173095703125 24.150146484375 -9.6160888671875
57.41796875 11.4610595703125 -9.63623046875
51.48046875 -15.50048828125 19.766357421875
12.6953125 -12.3140869140625 11.9869384765625
38.1103515625 14.631591796875 -9.590087890625
56.7236328125 6.1138916015625 -8.0126953125
26.92431640625 -7.649169921875 14.1912841796875
33.80078125 37.2777099609375 -9.880615234375
-35.490234375 -5.5115966796875 9.61376953125
36.679931640625 10.211669921875 -9.6676025390625
55.193603515625 -6.3062744140625 11.246337890625
72.8515625 -3.8782958984375 -3.4722900390625
-14.91357421875 -41.96337890625 36.6082763671875
-4.231201171875 0.9560546875 4.7314453125
82.234619140625 48.175537109375 -25.18212890625
91.796630859375 -22.158203125 13.0123291015625
61.868896484375 -34.8155517578125 13.754150390625
93.19921875 -2.02099609375 4.82861328125
6.967041015625 -12.9013671875 9.3670654296875
6.58984375 -31.734619140625 28.9405517578125
21.455322265625 -6.5526123046875 13.133056640625
51.65625 -18.2696533203125 19.7554931640625
39.778076171875 1.1610107421875 0.9400634765625
65.533935546875 -42.3795166015625 14.25390625
94.093017578125 -9.55517578125 13.12548828125
89.984375 -26.720703125 9.3433837890625
80.07177734375 -44.608642578125 23.450439453125
99.561279296875 -38.1270751953125 22.186767578125
77.269775390625 33.1414794921875 -18.5072021484375
-7.937744140625 -18.44580078125 22.0201416015625
32.687255859375 7.30126953125 -7.883544921875
-26.867919921875 -9.0562744140625 13.6693115234375
32.48486328125 12.935546875 -9.419677734375
3.993896484375 -32.7401123046875 29.35009765625
33.833251953125 33.8638916015625 -10.052490234375
50.31591796875 25.2467041015625 -9.9647216796875
4.972412109375 -39.7755126953125 34.8658447265625
-8.624755859375 7.6678466796875 -0.4591064453125
-13.74365234375 -17.4788818359375 22.756591796875
40.098876953125 -15.126953125 21.5863037109375
-16.147216796875 -7.8804931640625 12.1898193359375
12.794189453125 -1.7613525390625 7.341552734375
95.387451171875 -29.3031005859375 17.349853515625
-8.9765625 -14.9755859375 20.038818359375
55.1064453125 -25.39892578125 20.527587890625
85.54345703125 -34.733642578125 4.5469970703125
82.299560546875 27.328125 -21.0341796875
98.66162109375 -34.91552734375 19.9383544921875
63.934814453125 -16.5615234375 17.1746826171875
59.5986328125 -25.23193359375 20.83056640625
55.096435546875 15.3822021484375 -9.5277099609375
76.427734375 -13.5521240234375 0.7249755859375
-12.388427734375 -33.0838623046875 30.628662109375
7.688232421875 -36.52392578125 32.2628173828125
98.476806640625 -27.968505859375 13.0125732421875
28.582275390625 -14.5166015625 20.8914794921875
98.881591796875 -6.1319580078125 -0.506103515625
-13.421875 -39.156494140625 34.429931640625
-20.624267578125 -33.824951171875 32.0478515625
-21.479736328125 -21.8671875 27.0443115234375
60.66748046875 -33.935302734375 22.876708984375
82.68603515625 20.905029296875 -18.891845703125
56.682861328125 -3.4013671875 8.0352783203125
51.911865234375 -5.3255615234375 10.24658203125
-19.19580078125 15.404296875 0.10009765625
79.170166015625 52.7403564453125 -24.7808837890625
97.340087890625 -19.8106689453125 1.8509521484375
71.061767578125 -2.572509765625 6.7843017578125
-6.3974609375 -8.1978759765625 13.535888671875
42.933837890625 36.720703125 -10.2447509765625
70.015625 -18.015380859375 4.888671875
83.96533203125 -39.132568359375 8.660400390625
74.90185546875 55.6280517578125 -25.19921875
103.400390625 -16.2877197265625 -4.4649658203125
76.707275390625 -28.011474609375 8.6956787109375
68.158203125 -13.425048828125 18.90478515625
-27.193359375 3.6231689453125 2.3162841796875
51.047607421875 -2.695556640625 7.1458740234375
60.770751953125 -34.107421875 16.8572998046875
79.32421875 23.75048828125 -17.0003662109375
76.266845703125 -37.05078125 2.446533203125
13.67822265625 -25.613525390625 23.4771728515625
83.535400390625 14.5355224609375 -16.80419921875
-27.06201171875 -2.1060791015625 7.80712890625
76.495361328125 -45.1522216796875 11.344482421875
78.427978515625 -0.4781494140625 -9.6435546875
-24.66259765625 5.5928955078125 1.93359375
38.490478515625 -0.6448974609375 4.270751953125
8.585693359375 2.6190185546875 7.21337890625
-0.988525390625 -31.197998046875 27.917236328125
-25.16455078125 -4.2197265625 7.4952392578125
81.47412109375 50.8277587890625 -25.42529296875
63.4619140625 -31.7935791015625 6.4637451171875
52.856201171875 -11.8812255859375 17.0654296875
-0.408935546875 -39.85986328125 34.8975830078125
-2.244873046875 24.7783203125 -2.876220703125
74.302490234375 -1.838134765625 -6.44970703125
76.6357421875 -9.0302734375 -1.6187744140625
-11.839111328125 -7.824462890625 12.0411376953125
75.68017578125 -15.6546630859375 2.4281005859375
60.957275390625 -14.206298828125 20.1424560546875
60.307861328125 -31.7894287109375 18.1661376953125
-9.616455078125 28.6036376953125 -2.1217041015625
-2.624755859375 -5.4697265625 11.5589599609375
-0.282958984375 -32.9862060546875 29.864501953125
42.088134765625 12.9005126953125 -9.6192626953125
46.574951171875 -17.424560546875 19.87744140625
42.357177734375 3.913818359375 -4.5587158203125
69.760986328125 -1.731689453125 -0.0382080078125
-20.987060546875 20.544921875 -0.8299560546875
-26.487060546875 -17.4478759765625 21.361328125
32.227294921875 43.42236328125 -8.66357421875
42.2177734375 42.0133056640625 -9.9891357421875
-28.625732421875 15.464599609375 1.303466796875
52.18603515625 42.240234375 -10.07470703125
6.575927734375 -24.9954833984375 23.6591796875
-10.449462890625 26.1710205078125 0.4718017578125
73.777587890625 42.4085693359375 -21.59765625
32.7783203125 20.3975830078125 -9.43115234375
2.411376953125 -8.857666015625 14.48876953125
27.23828125 -4.7513427734375 10.45458984375
98.12060546875 -8.948974609375 -0.262939453125
3.961669921875 -1.0809326171875 6.557861328125
82.780517578125 -37.91748046875 6.36474609375
56.470947265625 -14.803955078125 19.9981689453125
0.79541015625 -37.759033203125 33.1754150390625
38.98046875 47.21923828125 -10.0059814453125
49.21728515625 1.616943359375 -0.8189697265625
39.619873046875 -5.97265625 11.282958984375
42.390869140625 -1.73681640625 5.723876953125
46.158935546875 4.0655517578125 -5.348876953125
67.0517578125 -40.394287109375 28.0545654296875
83.62255859375 52.20654296875 -27.092041015625
57.273681640625 -11.7357177734375 17.226806640625
58.470703125 -23.271728515625 24.656982421875
49.740966796875 -13.4254150390625 19.6697998046875
98.931640625 -8.85595703125 5.958740234375
76.393310546875 39.9769287109375 -21.569580078125
47.13671875 51.34423828125 -7.0338134765625
-4.71142578125 24.209716796875 -2.3284912109375
32.537841796875 -1.7581787109375 6.528076171875
17.571044921875 -13.587646484375 20.8489990234375
96.972412109375 -4.1483154296875 7.430419921875
-36.77197265625 13.7999267578125 12.72509765625
86.95849609375 -3.200439453125 -2.0262451171875
98.487548828125 -13.485595703125 13.80615234375
-33.06396484375 -16.4921875 24.296142578125
4.236572265625 2.10107421875 4.619140625
23.857666015625 -3.615478515625 8.947021484375
35.18408203125 47.88037109375 -10.19921875
38.6767578125 21.1217041015625 -9.8232421875
-38.595947265625 -11.5665283203125 8.885498046875
67.636474609375 -23.4056396484375 12.1778564453125
-22.0380859375 -30.7406005859375 31.3358154296875
46.97705078125 -4.367431640625 9.6842041015625
60.779541015625 -36.2786865234375 18.22412109375
97.445556640625 -19.486328125 6.84423828125
60.332763671875 -5.3402099609375 9.8853759765625
103.13671875 -14.6044921875 -6.8719482421875
100.172119140625 -6.8240966796875 -13.4510498046875
59.3486328125 32.5 -8.939453125
13.38525390625 -34.4329833984375 30.4337158203125
-33.457763671875 14.6593017578125 13.4146728515625
60.008056640625 -23.049560546875 13.96240234375
63.687255859375 -20.7381591796875 14.0582275390625
33.103759765625 46.183837890625 -7.4588623046875
-34.708740234375 10.3916015625 15.2369384765625
-40.35888671875 0.0084228515625 6.032958984375
-22.28173828125 16.149169921875 -0.152099609375
46.923828125 -0.42041015625 3.310791015625
20.127685546875 -30.0445556640625 28.3953857421875
8.865966796875 -10.9140625 8.271484375
38.7255859375 3.0694580078125 -2.414794921875
60.885498046875 -17.5596923828125 18.9073486328125
18.845703125 -16.95849609375 24.230712890625
-38.730224609375 3.3040771484375 7.70947265625
73.3798828125 30.844482421875 -17.1376953125
83.391357421875 -44.2669677734375 13.0145263671875
41.51611328125 30.07275390625 -9.7882080078125
-25.7822265625 -14.2554931640625 19.3948974609375
-16.958740234375 -23.7275390625 27.693359375
94.68115234375 -12.7294921875 16.5501708984375
36.0185546875 16.2232666015625 -9.482421875
-4.686279296875 -16.251708984375 22.0167236328125
13.830078125 13.93359375 11.7122802734375
-33.00830078125 -2.767578125 9.073486328125
54.165283203125 6.0101318359375 -7.4805908203125
37.379150390625 6.3363037109375 -7.5130615234375
43.8994140625 18.13525390625 -7.2406005859375
-14.830322265625 27.461669921875 -1.779541015625
-23.199951171875 29.1605224609375 -1.1739501953125
24.27587890625 -13.407470703125 19.4161376953125
55.424072265625 51.347412109375 -10.4605712890625
73.2705078125 7.6739501953125 -8.7169189453125
40.22607421875 -11.4571533203125 17.3323974609375
60.7158203125 -22.3128662109375 24.1329345703125
-6.252197265625 9.025634765625 -0.26953125
12.57763671875 -5.73779296875 10.5404052734375
37.06005859375 -11.7147216796875 17.629638671875
1.392822265625 -3.7266845703125 10.277587890625
85.639404296875 0.6317138671875 -8.4202880859375
53.07275390625 52.337158203125 -10.560302734375
6.231201171875 -9.93994140625 8.2008056640625
44.1484375 29.4337158203125 -10.0146484375
9.82568359375 -4.048828125 8.163330078125
5.196044921875 -10.501708984375 17.0191650390625
-10.551025390625 -18.679931640625 23.2108154296875
68.758056640625 -5.42431640625 9.39208984375
23.65283203125 -36.26220703125 32.17626953125
74.766845703125 -19.312744140625 5.889892578125
82.136474609375 -3.9962158203125 -8.3077392578125
45.722412109375 22.1544189453125 -7.2891845703125
92.444091796875 -20.6788330078125 16.298095703125
-11.572509765625 -23.0758056640625 25.6981201171875
80.17431640625 -19.444091796875 0.9964599609375
32.309326171875 -16.2833251953125 23.1649169921875
67.455322265625 -28.8515625 7.0008544921875
5.582763671875 -18.8995361328125 21.378662109375
81.071533203125 -46.7158203125 15.444091796875
78.42578125 -9.5093994140625 4.9705810546875
-30.424560546875 -4.394287109375 10.474609375
-41.5517578125 -11.145263671875 8.7672119140625
-21.552978515625 -13.0767822265625 17.879638671875
66.432861328125 -41.416259765625 24.4549560546875
59.544677734375 -31.7060546875 23.0015869140625
58.559814453125 48.55908203125 -10.321533203125
49.247802734375 -5.4876708984375 10.6402587890625
-31.133056640625 -14.97314453125 21.248291015625
75.9931640625 -21.276123046875 4.24169921875
53.902099609375 -2.3116455078125 6.1683349609375
-15.979736328125 -28.5185546875 29.754150390625
45.18896484375 -5.3773193359375 11.0089111328125
-36.812255859375 11.73876953125 14.0355224609375
98.71826171875 -18.1712646484375 -1.1434326171875
44.109130859375 -0.3419189453125 3.30615234375
64.352783203125 -40.2459716796875 14.242919921875
81.908935546875 -25.903076171875 7.9534912109375
67.149658203125 -38.8553466796875 26.1148681640625
40.325439453125 37.8184814453125 -10.0516357421875
-28.313232421875 -18.0751953125 23.4232177734375
-22.17333984375 10.4256591796875 0.983154296875
7.566650390625 6.2899169921875 10.304443359375
71.31591796875 -8.8118896484375 9.4881591796875
97.7041015625 -13.468994140625 3.3895263671875
46.37451171875 28.3623046875 -10.0372314453125
79.81005859375 -1.3248291015625 2.968994140625
77.60888671875 -14.3001708984375 -1.250244140625
73.486083984375 35.23974609375 -18.7919921875
79.019775390625 -2.7198486328125 0.225341796875
-30.65673828125 -10.4775390625 17.385986328125
41.3857421875 10.082275390625 -9.48828125
8.8466796875 -0.078369140625 6.2891845703125
59.72509765625 -27.5499267578125 25.1898193359375
74.982421875 -11.6802978515625 1.1597900390625
96.522705078125 -6.385009765625 -11.4918212890625
31.1025390625 -11.8714599609375 17.894775390625
-25.28271484375 -0.2109375 6.610107421875
38.908935546875 -8.4639892578125 14.1026611328125
7.799560546875 -22.459716796875 21.916748046875
53.278076171875 -20.0167236328125 19.5640869140625
-22.884521484375 18.480712890625 0.1416015625
47.703857421875 18.29345703125 -8.968017578125
-0.83056640625 -2.393310546875 8.0247802734375
-2.009521484375 -20.140380859375 22.6646728515625
70.40625 1.223876953125 -3.8250732421875
16.2109375 -16.7200927734375 24.4476318359375
-13.901611328125 7.7938232421875 0.451171875
52.626953125 -8.5843505859375 14.1109619140625
2.562255859375 -14.077880859375 20.8443603515625
83.061767578125 -29.255126953125 7.3475341796875
76.676025390625 3.417724609375 -6.8909912109375
82.94677734375 32.651611328125 -22.0128173828125
14.360595703125 -3.0338134765625 9.0054931640625
82.521484375 -14.9693603515625 -1.006103515625
63.777587890625 -33.6978759765625 8.3114013671875
72.04833984375 10.2303466796875 -8.89599609375
-42.072021484375 -4.3079833984375 7.6234130859375
71.73779296875 -44.5223388671875 12.982666015625
-24.611083984375 -23.477294921875 29.29248046875
96.490478515625 -10.6890869140625 -9.72021484375
73.74169921875 47.0931396484375 -22.7275390625
-37.348876953125 -4.806884765625 7.95556640625
6.54931640625 -7.5572509765625 5.5201416015625
-10.84375 12.406982421875 -0.287109375
45.330810546875 40.578125 -10.0765380859375
86.934326171875 -22.8251953125 11.649658203125
61.466796875 -29.972900390625 10.221923828125
77.48681640625 -4.252685546875 -4.5838623046875
75.152099609375 -38.2845458984375 4.114501953125
75.12109375 -33.1627197265625 1.2403564453125
42.17578125 -12.4967041015625 18.607177734375
68.2646484375 -41.9801025390625 19.11962890625
38.58154296875 44.16650390625 -10.1640625
77.416748046875 24.26171875 -14.554931640625
34.494140625 44.0931396484375 -9.8753662109375
36.7490234375 1.40966796875 0.4180908203125
101.693603515625 -10.6689453125 -10.1102294921875
75.176025390625 -4.1529541015625 -2.7330322265625
-0.607666015625 6.7349853515625 -1.07666015625
-19.5771484375 28.081787109375 -1.728515625
44.410888671875 25.876220703125 -9.670166015625
-11.469482421875 -0.951416015625 6.6033935546875
-22.43115234375 -4.10498046875 7.86767578125
97.51318359375 -20.8287353515625 4.815185546875
78.89990234375 13.527099609375 -13.7125244140625
-10.1923828125 2.35107421875 2.8875732421875
62.8525390625 -27.1275634765625 6.92431640625
32.45751953125 -3.1318359375 8.5126953125
-2.829833984375 -8.936767578125 15.7828369140625
47.918701171875 24.022216796875 -9.771484375
47.5595703125 -20.7955322265625 22.4940185546875
97.57373046875 -16.5716552734375 11.33642578125
97.28564453125 -9.938720703125 -2.1990966796875
-36.248779296875 1.3736572265625 6.68896484375
98.1240234375 -8.1256103515625 -11.674072265625
70.58935546875 -44.3319091796875 22.9725341796875
19.903076171875 -15.4183349609375 22.257568359375
-26.222412109375 13.0830078125 1.2171630859375
-17.290283203125 27.7117919921875 -1.41748046875
12.99462890625 -13.694580078125 20.84912109375
3.718017578125 -11.364990234375 6.8182373046875
-1.907470703125 -17.5264892578125 21.4307861328125
105.028076171875 -24.814697265625 6.5877685546875
-6.1396484375 -30.301513671875 29.27197265625
35.79931640625 25.286865234375 -9.9405517578125
47.9716796875 53.0006103515625 -10.3587646484375
2.61376953125 0.37841796875 5.2796630859375
21.617919921875 -4.266845703125 10.14111328125
70.1328125 -19.241455078125 15.78076171875
71.418701171875 -11.3328857421875 16.3756103515625
57.90234375 -0.24267578125 2.5166015625
56.672119140625 40.4774169921875 -10.2777099609375
77.4462890625 -33.3916015625 1.1640625
-28.283935546875 -20.7469482421875 28.389892578125
50.001953125 -7.3367919921875 12.4736328125
32.533203125 -10.383056640625 16.7183837890625
34.883056640625 39.3062744140625 -9.99462890625
2.3095703125 -28.015625 2.6912841796875
103.134521484375 -30.0972900390625 14.564208984375
41.091064453125 25.7857666015625 -9.72314453125
11.2373046875 -12.1722412109375 8.7830810546875
33.57763671875 15.3404541015625 -9.564697265625
55.806884765625 9.8267822265625 -9.6285400390625
61.036865234375 -18.5093994140625 16.6922607421875
74.7060546875 28.396728515625 -17.6419677734375
34.14794921875 3.361083984375 -2.375732421875
80.459228515625 -38.27978515625 4.96630859375
97.279296875 -25.7662353515625 13.0006103515625
103.8427734375 -20.6947021484375 1.28564453125
81.493896484375 -1.1824951171875 -10.0419921875
63.138427734375 -22.7384033203125 11.7203369140625
79.13720703125 -12.7412109375 -2.3116455078125
54.2216796875 40.921875 -10.464599609375
-3.131591796875 -34.2744140625 30.719970703125
48.32763671875 5.481201171875 -6.8546142578125
36.9326171875 -4.89599609375 10.3751220703125
10.52294921875 -1.6434326171875 7.285888671875
30.95654296875 22.2850341796875 -8.84521484375
-35.084228515625 7.6248779296875 13.4578857421875
16.919189453125 -31.6943359375 30.698974609375
32.929931640625 -6.9415283203125 13.05224609375
90.67822265625 1.3226318359375 1.502197265625
81.699951171875 3.3199462890625 -12.37451171875
-7.450927734375 16.9561767578125 -1.315673828125
53.099365234375 10.4117431640625 -9.523681640625
23.87646484375 -6.9945068359375 13.4788818359375
81.84375 5.6058349609375 -13.47998046875
78.654541015625 2.71826171875 -10.8172607421875
66.19482421875 -44.1019287109375 28.1607666015625
71.880859375 -6.646728515625 -1.167236328125
-15.635986328125 -1.7003173828125 7.186279296875
5.637939453125 -30.6336669921875 2.7840576171875
23.474365234375 -32.129150390625 29.051025390625
78.393798828125 -5.712158203125 4.056640625
77.896728515625 2.243408203125 -8.69287109375
46.81884765625 -11.5826416015625 17.3074951171875
82.493408203125 16.4556884765625 -17.362060546875
55.156005859375 -12.177490234375 17.860107421875
-1.478759765625 -6.713623046875 13.3887939453125
71.828369140625 -32.7235107421875 2.0709228515625
77.802001953125 6.0087890625 -10.5462646484375
96.865966796875 -18.412353515625 -3.2823486328125
71.429931640625 12.58251953125 -9.6617431640625
-12.682861328125 -3.818603515625 9.3828125
31.806640625 5.127197265625 -5.552734375
78.19580078125 -8.420166015625 -5.739990234375
70.6552734375 6.19580078125 -6.19873046875
75.712158203125 -44.01708984375 22.5159912109375
80.43505859375 -34.6815185546875 1.6297607421875
80.119140625 28.8564453125 -19.310791015625
68.2421875 -19.38134765625 10.6470947265625
-14.93896484375 2.5986328125 2.9554443359375
58.955322265625 45.9287109375 -9.9158935546875
18.615478515625 -7.8245849609375 14.1468505859375
51.653564453125 -21.1253662109375 18.5054931640625
48.14404296875 -22.6005859375 20.291015625
15.43994140625 -28.0401611328125 25.786865234375
89.208251953125 -22.8204345703125 12.1488037109375
-21.10595703125 8.2225341796875 0.7630615234375
73.368408203125 38.1165771484375 -19.649169921875
-4.909423828125 -39.0704345703125 34.679931640625
46.123046875 9.9520263671875 -9.3077392578125
81.399658203125 -32.4000244140625 3.572021484375
35.244140625 18.7764892578125 -9.706787109375
91.133056640625 -8.8995361328125 12.2103271484375
82.34375 -23.0968017578125 4.7100830078125
81.049560546875 37.9415283203125 -22.3201904296875
64.228271484375 -5.2823486328125 9.940673828125
-8.98291015625 22.0526123046875 -1.625244140625
106.639892578125 -26.4007568359375 7.9384765625
36.725341796875 -8.5838623046875 14.4461669921875
-22.833251953125 -7.798095703125 9.560791015625
46.52978515625 -8.365478515625 14.2342529296875
97.434814453125 -16.5260009765625 -4.412841796875
76.4921875 -23.8983154296875 6.5469970703125
75.058349609375 -44.929931640625 25.0318603515625
-0.516845703125 1.1680908203125 4.092041015625
101.127197265625 -22.3861083984375 4.567626953125
-12.540283203125 26.843505859375 0.6370849609375
-33.34912109375 -13.229736328125 20.823486328125
36.49755859375 32.005126953125 -9.935546875
-23.93408203125 -19.1339111328125 24.8282470703125
5.052490234375 4.32666015625 7.050048828125
75.115966796875 48.527587890625 -24.0439453125
60.25537109375 -24.758056640625 22.871826171875
82.6142578125 43.00732421875 -24.9837646484375
78.147216796875 8.0555419921875 -11.2548828125
52.201904296875 3.0548095703125 -3.487060546875
104.367919921875 -27.900634765625 12.7667236328125
56.87646484375 1.841552734375 -1.5849609375
-12.94189453125 16.4053955078125 -0.7254638671875
-19.69677734375 -24.980712890625 27.5904541015625
0.591552734375 22.7728271484375 -3.16162109375
30.44580078125 8.294677734375 -8.8944091796875
31.85009765625 0.51513671875 2.8248291015625
-27.033203125 23.1336669921875 -0.1312255859375
83.467041015625 10.625 -15.1922607421875
55.309326171875 -4.8349609375 9.35107421875
62.15185546875 -38.8480224609375 16.020751953125
-15.5478515625 9.757568359375 0.3597412109375
48.758056640625 -23.9417724609375 18.076904296875
-25.544921875 -11.642578125 16.3194580078125
-32.312255859375 -5.9315185546875 12.4364013671875
79.852783203125 -27.3509521484375 7.260498046875
-34.674072265625 18.304443359375 11.9935302734375
59.111083984375 13.1748046875 -9.5230712890625
45.114013671875 33.025634765625 -9.8193359375
-10.058837890625 -41.91552734375 36.619384765625
89.845458984375 -21.2479248046875 14.5584716796875
65.722412109375 -39.43359375 22.719970703125
-20.362548828125 0.9208984375 4.7626953125
97.850830078125 -10.0054931640625 11.095458984375
67.548583984375 -40.212158203125 30.73486328125
88.57568359375 -28.2998046875 8.16748046875
-22.762451171875 1.5675048828125 4.0572509765625
69.210693359375 -3.2034912109375 7.9678955078125
35.4345703125 -0.8497314453125 4.711669921875
99.0380859375 -12.819091796875 8.7218017578125
70.10107421875 14.15869140625 -8.95703125
-6.235107421875 -32.48974609375 29.3902587890625
56.10009765625 -18.17529296875 20.9119873046875
-23.82421875 -15.07958984375 18.9967041015625
92.303466796875 -24.8785400390625 11.982421875
77.373291015625 -1.94873046875 -3.631591796875
6.135009765625 -0.4456787109375 6.3087158203125
-4.999755859375 20.0406494140625 -2.285400390625
26.91748046875 -32.8822021484375 29.63671875
95.613037109375 -11.2906494140625 15.2391357421875
78.154052734375 -11.1121826171875 -3.53759765625
-14.202880859375 5.400146484375 1.1527099609375
36.06103515625 -10.1541748046875 16.24951171875
97.162353515625 -8.5882568359375 -4.3359375
69.996826171875 9.7823486328125 -7.3109130859375
44.922607421875 -17.980712890625 23.283203125
-3.229736328125 -13.9259033203125 18.7869873046875
97.99609375 -16.61279296875 7.897705078125
69.48828125 -22.189453125 9.1693115234375
76.24609375 -1.2340087890625 -5.7369384765625
-28.65478515625 -1.01220703125 6.8626708984375
27.857177734375 -1.9788818359375 7.3917236328125
9.776611328125 -28.836181640625 26.4554443359375
77.213623046875 47.2635498046875 -23.5106201171875
67.631591796875 -31.5218505859375 2.806640625
78.550048828125 37.0281982421875 -19.716796875
78.366943359375 -18.292236328125 0.9638671875
13.68701171875 -27.3017578125 24.7998046875
98.55126953125 -13.4873046875 18.1358642578125
84.0634765625 -3.0093994140625 -7.75537109375
75.007080078125 -9.0635986328125 -0.23193359375
82.913330078125 34.7509765625 -22.5584716796875
98.3681640625 -31.7900390625 16.2171630859375
81.157958984375 33.3487548828125 -21.07177734375
97.916748046875 -14.7061767578125 -5.6671142578125
79.7021484375 -46.741943359375 12.2418212890625
40.959716796875 -9.812744140625 15.6502685546875
80.47998046875 -20.962646484375 2.69970703125
-40.247802734375 -1.390869140625 7.641845703125
45.7939453125 45.0074462890625 -9.2039794921875
18.476318359375 -3.7607421875 9.1953125
79.234375 20.2713623046875 -16.3499755859375
63.9814453125 -14.51904296875 18.6175537109375
-8.975830078125 -35.76708984375 31.837158203125
97.79443359375 -16.83251953125 1.0751953125
2.175048828125 -26.640380859375 24.1334228515625
-2.495361328125 -29.8406982421875 27.295654296875
7.948486328125 -13.93994140625 11.7261962890625
49.255859375 42.1610107421875 -10.1771240234375
28.963134765625 -33.793212890625 30.210693359375
81.12451171875 -5.82373046875 -7.9522705078125
48.812744140625 0.2681884765625 2.2735595703125
-17.505126953125 -2.921875 7.0543212890625
68.055908203125 -43.7196044921875 14.788330078125
84.985595703125 -30.13818359375 5.8392333984375
1.442138671875 -17.79150390625 19.9263916015625
69.2626953125 -47.518310546875 25.650390625
82.021728515625 -40.9775390625 9.0841064453125
14.8779296875 -30.7603759765625 28.045654296875
49.18505859375 37.758544921875 -10.281494140625
10.96337890625 -14.1239013671875 21.4639892578125
-18.773681640625 -4.655029296875 8.454833984375
71.494140625 -26.128173828125 10.17578125
-25.867431640625 26.962158203125 -1.0167236328125
9.943115234375 -12.6654052734375 17.9273681640625
96.871337890625 -18.8009033203125 0.0377197265625
74.547119140625 16.255126953125 -12.644287109375
62.9375 -8.4630126953125 13.591796875
83.952880859375 38.3963623046875 -24.12939453125
72.2880859375 30.1134033203125 -15.498779296875
25.593994140625 -11.606689453125 17.9609375
64.25830078125 -37.643798828125 11.7706298828125
56.083740234375 21.4620361328125 -9.8995361328125
-37.600341796875 -15.23193359375 23.4383544921875
73.927978515625 50.72998046875 -24.074951171875
5.90185546875 -13.099365234375 20.0838623046875
80.29931640625 -11.90185546875 -3.8345947265625
102.160888671875 -28.009521484375 10.839599609375
-23.445556640625 14.0384521484375 0.489501953125
0.35986328125 -21.0093994140625 22.093505859375
-0.763671875 -25.1082763671875 24.3116455078125
67.81689453125 -33.7646484375 2.7911376953125
-36.150390625 -13.345703125 21.349853515625
71.70849609375 -2.102294921875 -3.3363037109375
48.897216796875 -18.968017578125 21.0172119140625
76.366455078125 10.7587890625 -9.095947265625
72.236572265625 39.496826171875 -18.5555419921875
-6.82275390625 24.4349365234375 -2.1300048828125
83.359130859375 7.1031494140625 -13.7371826171875
72.04150390625 51.7803955078125 -21.6756591796875
70.55615234375 -39.3104248046875 7.1875
33.293701171875 26.45654296875 -9.6298828125
59.861572265625 4.965576171875 -4.6397705078125
75.921875 -15.1883544921875 4.436279296875
47.725341796875 45.7672119140625 -9.314208984375
-12.90771484375 -10.952392578125 15.2335205078125
78.390380859375 -1.4755859375 -7.826171875
3.5771484375 -11.0306396484375 11.4345703125
-37.74267578125 -10.7939453125 6.5909423828125
-21.7587890625 -26.303955078125 29.1900634765625
85.388916015625 -32.351318359375 3.735595703125
59.55712890625 -24.6978759765625 18.83642578125
101.292236328125 -19.102783203125 -0.7828369140625
33.725830078125 10.88916015625 -9.2781982421875
-11.015625 -9.7833251953125 14.326171875
-29.625732421875 21.0357666015625 0.140625
40.361083984375 48.7017822265625 -10.3800048828125
18.91259765625 -8.78662109375 15.943603515625
-33.833740234375 8.400390625 15.535400390625
8.24853515625 -26.1893310546875 23.57470703125
3.709716796875 -20.01611328125 22.421875
102.975830078125 -25.474609375 6.674560546875
52.509765625 19.4722900390625 -9.9364013671875
84.349853515625 -36.7584228515625 5.464111328125
82.263671875 1.2843017578125 -10.955078125
55.494873046875 38.8060302734375 -10.3184814453125
76.49951171875 -18.5283203125 1.9765625
-24.06396484375 -21.662841796875 28.2049560546875
30.13916015625 11.310791015625 -9.19775390625
-25.625244140625 7.4180908203125 1.3992919921875
37.42724609375 -14.4075927734375 20.8031005859375
-38.064208984375 8.3839111328125 12.2550048828125
80.89453125 -43.892822265625 11.1448974609375
65.032958984375 -25.609375 8.8170166015625
66.12646484375 -14.564208984375 18.99951171875
