53.301513671875 -19.60205078125 15.492431640625
86.546875 -17.4429931640625 16.649169921875
73.86669921875 34.0465087890625 -20.32470703125
101.48291015625 -28.355712890625 7.7408447265625
19.000732421875 -20.846923828125 26.092041015625
75.154052734375 -27.1435546875 9.8795166015625
74.772705078125 47.44287109375 -23.609619140625
-33.69091796875 -15.681396484375 20.980712890625
84.580322265625 -31.843017578125 8.728759765625
29.142578125 -1.3245849609375 -1.044677734375
60.581298828125 -23.8563232421875 10.024169921875
-7.466552734375 -27.0003662109375 27.432373046875
49.71923828125 45.4501953125 -9.5877685546875
83.666015625 -4.836181640625 2.5489501953125
-45.21826171875 -17.040771484375 15.47265625
-39.225341796875 1.54638671875 19.44580078125
-54.412353515625 -9.2237548828125 17.498779296875
-10.940185546875 -3.4415283203125 8.1358642578125
67.820556640625 -18.731201171875 -2.9078369140625
98.60986328125 -7.94189453125 -15.0238037109375
-90.640625 -35.5218505859375 18.1640625
72.214111328125 16.3145751953125 -14.2381591796875
3.20458984375 -17.474853515625 23.359130859375
96.152099609375 -26.4573974609375 2.309326171875
67.7890625 -2.5146484375 -5.1961669921875
-4.841552734375 -14.0135498046875 10.4951171875
70.229248046875 -10.2203369140625 -7.123779296875
78.04248046875 -11.9462890625 2.2890625
42.453369140625 -3.5184326171875 1.8187255859375
31.685791015625 41.0645751953125 -9.0576171875
88.302978515625 -12.1075439453125 -5.530517578125
81.708740234375 -44.638916015625 16.5960693359375
71.342529296875 3.0439453125 -14.232666015625
90.3671875 -0.909912109375 -16.509033203125
89.38818359375 -35.370849609375 25.751220703125
-59.37890625 -15.94482421875 25.290771484375
40.60986328125 23.446044921875 -8.456298828125
-26.345947265625 10.1082763671875 4.3638916015625
81.48681640625 43.76904296875 -25.1949462890625
93.521240234375 -40.886962890625 22.81591796875
-14.984130859375 20.3609619140625 0.7266845703125
51.88037109375 -30.257080078125 16.183349609375
29.46435546875 15.568115234375 -7.44970703125
71.6767578125 -46.11376953125 19.57470703125
74.719970703125 26.6383056640625 -22.0538330078125
33.17236328125 -8.7176513671875 11.20947265625
7.599609375 -38.681640625 34.0279541015625
-36.9814453125 -11.1175537109375 16.5262451171875
80.900146484375 22.961181640625 -19.58837890625
66.68603515625 -26.7474365234375 4.74853515625
24.980712890625 -11.8228759765625 15.6075439453125
64.09228515625 -44.1165771484375 6.9730224609375
77.196533203125 -38.9873046875 6.0196533203125
42.130859375 -15.5228271484375 18.509765625
-86.9921875 -27.2176513671875 19.405029296875
-67.079833984375 -13.6710205078125 23.94775390625
47.1376953125 15.103271484375 -8.131103515625
-19.909912109375 21.4530029296875 5.826904296875
-32.54541015625 6.976806640625 4.659423828125
102.35302734375 -20.5030517578125 -7.785400390625
-46.303955078125 -9.160888671875 12.83154296875
-24.247314453125 -8.5281982421875 12.2667236328125
28.99853515625 33.2628173828125 -8.4427490234375
-38.136474609375 18.6553955078125 4.4564208984375
56.010009765625 -12.635009765625 13.617431640625
-45.131591796875 0.197021484375 13.6533203125
81.498046875 36.7608642578125 -23.826904296875
73.122802734375 23.0528564453125 -15.2152099609375
95.442138671875 4.1270751953125 -27.5902099609375
-20.154052734375 -0.44970703125 5.3599853515625
67.77099609375 46.8087158203125 -21.2159423828125
18.74072265625 -7.31787109375 10.7838134765625
24.931884765625 10.67333984375 -7.339111328125
15.0849609375 -38.1571044921875 33.5814208984375
59.10009765625 -45.200927734375 16.8226318359375
-50.396484375 1.3482666015625 18.2169189453125
70.772216796875 -47.346923828125 9.4510498046875
59.194580078125 -31.8795166015625 6.37744140625
2.01708984375 -0.361328125 11.9122314453125
89.52197265625 -28.3834228515625 5.1951904296875
-33.9423828125 -7.6585693359375 11.793212890625
14.4267578125 -14.3795166015625 18.9647216796875
66.863525390625 3.012939453125 -8.546142578125
90.628662109375 -27.2801513671875 15.1412353515625
72.68408203125 -31.5360107421875 5.810791015625
88.093017578125 -12.7213134765625 11.287353515625
-20.110595703125 -18.4093017578125 22.677734375
-28.125244140625 26.481689453125 3.2039794921875
38.77490234375 4.9400634765625 -7.771484375
-7.80078125 -7.793701171875 12.98193359375
80.53662109375 -16.1273193359375 14.933837890625
-8.10546875 -15.529052734375 21.9735107421875
35.504150390625 -24.1669921875 26.1903076171875
66.01123046875 10.0208740234375 -5.276123046875
-3.537841796875 -31.8690185546875 28.3726806640625
35.276123046875 49.363037109375 -9.626953125
-32.2529296875 -21.3643798828125 24.51416015625
-22.011962890625 -42.51513671875 37.2215576171875
89.69677734375 -19.328125 -4.7642822265625
23.97021484375 23.6708984375 -8.312255859375
72.463623046875 10.3017578125 -17.0107421875
67.838134765625 35.0064697265625 -18.0762939453125
41.545654296875 -6.920166015625 8.089111328125
71.79248046875 39.558349609375 -22.298583984375
95.924560546875 -37.16845703125 17.9176025390625
-96.3525390625 -34.7288818359375 14.451904296875
-9.92578125 -39.3983154296875 34.2568359375
-14.765869140625 -30.845947265625 29.579833984375
61.664306640625 -12.5975341796875 3.20068359375
30.1767578125 2.436767578125 -5.8082275390625
67.67431640625 -12.7218017578125 -0.8253173828125
27.9345703125 -4.132568359375 4.2755126953125
-14.947021484375 -8.1767578125 13.98681640625
-23.242431640625 -29.172119140625 31.9324951171875
78.382568359375 16.3046875 -18.533447265625
-71.033447265625 -20.267822265625 31.146728515625
78.668212890625 -43.3746337890625 11.43896484375
37.43115234375 28.843505859375 -8.74755859375
40.66748046875 -26.7537841796875 21.8634033203125
80.57275390625 -26.9986572265625 6.4295654296875
-56.418701171875 -3.72412109375 15.049560546875
50.89794921875 0.6392822265625 -4.0440673828125
2.52001953125 -17.60009765625 17.1171875
92.701171875 -6.796142578125 -16.8104248046875
67.291259765625 23.781005859375 -14.5615234375
100.538818359375 -27.95556640625 13.557373046875
52.866455078125 -25.20654296875 23.928955078125
-39.263671875 -17.38623046875 24.7423095703125
4.38037109375 -10.3494873046875 13.5882568359375
6.640380859375 -20.7899169921875 26.7803955078125
-25.1650390625 21.3006591796875 1.8106689453125
-12.1865234375 -23.2139892578125 27.06787109375
49.896728515625 31.5147705078125 -9.2166748046875
-13.186767578125 1.2718505859375 3.408447265625
67.08203125 14.699462890625 -11.992919921875
89.402587890625 -3.396728515625 -6.7752685546875
65.224853515625 -38.9705810546875 0.317138671875
-3.520751953125 -36.3734130859375 31.994873046875
75.54443359375 -8.0943603515625 -7.906494140625
76.79736328125 32.1461181640625 -24.919189453125
62.137451171875 -13.6102294921875 12.206298828125
64.68798828125 -33.6202392578125 5.00244140625
41.945556640625 17.870361328125 -8.7379150390625
87.120361328125 -32.432373046875 14.420654296875
-28.09814453125 -14.81982421875 20.071533203125
19.28173828125 -11.6124267578125 15.919677734375
82.650146484375 -20.9671630859375 18.8470458984375
-15.16259765625 -14.4876708984375 19.3087158203125
26.359130859375 -16.6156005859375 20.8177490234375
64.000244140625 -1.1514892578125 -0.036865234375
75.753173828125 51.128662109375 -27.7320556640625
91.548828125 -15.611083984375 -8.6026611328125
-94.516357421875 -43.485107421875 27.8695068359375
42.47216796875 35.34228515625 -9.34619140625
21.684326171875 -4.412353515625 6.941650390625
46.6748046875 -11.051513671875 12.6707763671875
-7.289794921875 16.048095703125 0.6512451171875
7.2958984375 -31.7037353515625 28.4674072265625
-22.293212890625 -21.992431640625 27.58447265625
-95.85498046875 -31.5533447265625 18.986572265625
-15.20849609375 11.959716796875 2.9576416015625
94.5546875 -23.0562744140625 -1.737548828125
50.3447265625 -17.408447265625 19.88818359375
73.375 -38.2730712890625 2.183349609375
-88.470703125 -46.953857421875 31.0892333984375
93.138916015625 -34.309326171875 14.2174072265625
84.3603515625 -8.5626220703125 6.748291015625
52.442138671875 -32.2598876953125 21.1983642578125
-48.124755859375 -17.297119140625 20.0428466796875
-85.768798828125 -42.6846923828125 23.8424072265625
61.56005859375 -46.6553955078125 11.216552734375
34.177490234375 -2.71240234375 1.3009033203125
-45.26806640625 -15.99169921875 24.771240234375
61.31494140625 -17.9515380859375 8.882080078125
-32.605224609375 -23.8980712890625 30.4173583984375
-33.702880859375 -2.7864990234375 8.8992919921875
58.704833984375 -21.60595703125 14.788818359375
-85.298828125 -23.462646484375 22.858642578125
89.818359375 -12.8084716796875 -12.8109130859375
36.81689453125 -15.6812744140625 19.01953125
-14.802978515625 -37.261474609375 33.9012451171875
67.11572265625 -22.1759033203125 2.04931640625
53.116455078125 -9.080078125 9.9283447265625
-5.75390625 -2.5191650390625 7.4169921875
0.60107421875 -39.5513916015625 34.8204345703125
102.076904296875 -28.6884765625 2.21435546875
-45.781982421875 -13.9381103515625 10.6702880859375
-7.115966796875 6.7308349609375 1.4371337890625
-20.84375 10.2060546875 3.67724609375
-79.271240234375 -17.1864013671875 28.1005859375
36.474609375 11.8392333984375 -7.1409912109375
63.3828125 -45.83203125 19.77880859375
59.962890625 -40.6650390625 5.7178955078125
39.833740234375 45.52392578125 -9.528564453125
49.790283203125 -23.4263916015625 15.048095703125
76.190185546875 5.150634765625 -15.09423828125
-31.6904296875 12.0904541015625 5.0440673828125
77.42138671875 45.56787109375 -27.8868408203125
91.07763671875 -19.864013671875 20.359375
-1.21044921875 -16.619873046875 13.1099853515625
-8.38916015625 -20.655517578125 24.5408935546875
32.46435546875 20.1318359375 -8.5716552734375
57.275390625 -27.5511474609375 11.3887939453125
-23.21044921875 -35.58544921875 34.6685791015625
-23.67822265625 -4.086669921875 9.286376953125
89.75732421875 -39.8333740234375 28.2442626953125
-17.435302734375 24.9979248046875 0.691650390625
73.040771484375 28.529052734375 -17.3280029296875
-52.73046875 -18.0032958984375 27.3585205078125
23.142333984375 -0.0848388671875 -2.5911865234375
32.461669921875 -18.423095703125 22.3238525390625
-90.124755859375 -30.6561279296875 21.416259765625
24.303955078125 44.366455078125 -7.37890625
-0.568603515625 -10.8765869140625 10.1982421875
54.126708984375 -38.0860595703125 11.8880615234375
74.32177734375 -24.604248046875 5.609619140625
-42.57080078125 -11.2921142578125 16.9417724609375
88.649658203125 -5.336669921875 2.57470703125
45.141845703125 6.9654541015625 -7.6466064453125
79.81640625 -35.5233154296875 8.4642333984375
94.018310546875 0.1749267578125 -23.8548583984375
-56.911376953125 -11.8853759765625 20.88623046875
-75.962158203125 -20.332275390625 30.4954833984375
55.69287109375 -35.4683837890625 3.4031982421875
17.226318359375 -17.5020751953125 22.8812255859375
-1.903076171875 -16.7698974609375 22.501708984375
-33.3857421875 19.94140625 3.548583984375
60.447265625 -48.37451171875 24.367431640625
96.245849609375 -16.1474609375 -10.0302734375
-95.490234375 -40.4190673828125 23.75439453125
23.91943359375 -21.057861328125 25.7467041015625
90.396728515625 -17.6312255859375 13.4288330078125
74.643310546875 -44.345703125 8.799560546875
-25.724365234375 -12.1767578125 16.5362548828125
93.81005859375 -30.4542236328125 4.0751953125
-5.711669921875 -12.9931640625 15.197509765625
100.203125 -21.4049072265625 -2.727783203125
73.104248046875 -19.6868896484375 -1.6275634765625
-85.4794921875 -36.72412109375 15.568603515625
76.832275390625 -2.8756103515625 -9.55419921875
31.1845703125 -6.02294921875 7.673828125
-2.656982421875 -26.8990478515625 26.6971435546875
-51.40087890625 -14.029052734375 18.2479248046875
0.98388671875 4.4271240234375 16.15380859375
53.83740234375 -14.6600341796875 17.971923828125
-88.130859375 -38.3599853515625 21.509765625
83.73291015625 -37.8345947265625 17.3701171875
47.897705078125 27.062744140625 -8.7352294921875
45.6513671875 -1.4326171875 -1.795166015625
-81.630859375 -24.513916015625 28.353271484375
97.459228515625 -32.7021484375 12.8197021484375
-24.532470703125 14.7991943359375 3.5345458984375
50.93115234375 -23.341064453125 19.8751220703125
63.48876953125 -23.3519287109375 6.2423095703125
47.08642578125 41.08740234375 -9.8111572265625
38.76806640625 14.8427734375 -3.375244140625
27.550048828125 6.36669921875 -6.5203857421875
77.1025390625 -21.8360595703125 11.0565185546875
16.92626953125 -33.818603515625 30.9786376953125
67.14697265625 14.7706298828125 -7.2239990234375
11.081787109375 -6.6519775390625 11.1102294921875
-46.541015625 -4.5015869140625 11.8634033203125
55.16552734375 -41.822265625 15.0726318359375
-51.572265625 -7.0264892578125 14.0577392578125
33.172119140625 31.0018310546875 -8.7247314453125
-50.576416015625 -17.204345703125 14.5135498046875
-90.725830078125 -26.2684326171875 16.60986328125
-88.0224609375 -32.6982421875 15.395263671875
-11.97802734375 16.328857421875 1.2618408203125
89.792724609375 -27.493408203125 9.8387451171875
-31.544921875 0.810791015625 6.0867919921875
26.9638671875 20.0318603515625 -7.884033203125
-68.884033203125 -17.220458984375 27.3519287109375
55.123046875 -29.572021484375 6.9349365234375
30.495361328125 -11.078125 14.2777099609375
64.2509765625 0.636962890625 -4.65673828125
99.118896484375 -5.0675048828125 -18.672607421875
40.948974609375 -1.181396484375 -2.5213623046875
45.9482421875 -5.2567138671875 4.373046875
-19.863037109375 -8.142822265625 13.7864990234375
51.181884765625 -11.612060546875 13.884521484375
36.367431640625 -11.898193359375 14.7342529296875
63.02783203125 -7.705322265625 4.2296142578125
36.2548828125 40.362548828125 -8.6240234375
35.88623046875 24.057373046875 -8.0826416015625
-40.57275390625 -1.49609375 15.1248779296875
91.5107421875 -3.14794921875 -10.8931884765625
-19.248046875 -38.16796875 34.807861328125
6.278076171875 -1.7471923828125 13.0599365234375
-3.5244140625 -0.91650390625 11.1951904296875
73.77783203125 14.7789306640625 -18.3089599609375
51.970458984375 -32.588623046875 12.195556640625
91.859619140625 -37.204833984375 20.59228515625
27.771240234375 28.3443603515625 -8.087890625
2.062744140625 -6.510009765625 11.02099609375
48.76806640625 4.2877197265625 -6.8375244140625
-29.421630859375 -7.966064453125 12.417724609375
-96.64306640625 -30.3897705078125 23.3350830078125
-42.522705078125 -18.5517578125 27.7208251953125
74.76708984375 42.9273681640625 -24.2666015625
2.115478515625 -20.25244140625 26.8197021484375
-17.071044921875 -21.1383056640625 26.5782470703125
23.661376953125 34.506591796875 -7.5545654296875
9.129150390625 -9.4278564453125 14.170166015625
42.693359375 -19.2572021484375 21.6883544921875
11.17626953125 -36.260009765625 32.3463134765625
69.918701171875 -0.13623046875 -10.3397216796875
-22.433349609375 5.9925537109375 3.4482421875
-60.591552734375 -19.9580078125 30.1468505859375
69.6240234375 19.925048828125 -14.7181396484375
34.467041015625 3.3116455078125 -6.683349609375
-15.899658203125 -2.4024658203125 7.22265625
45.30078125 45.13916015625 -10.3768310546875
-12.952880859375 5.9893798828125 2.651123046875
57.507080078125 -8.5970458984375 10.392822265625
37.4638671875 -8.291259765625 10.1507568359375
-27.62744140625 -21.487060546875 27.4444580078125
66.06982421875 -41.7706298828125 3.6392822265625
84.3818359375 -14.18603515625 13.191650390625
8.297119140625 -16.0028076171875 21.5712890625
68.5263671875 -6.696533203125 -3.986083984375
85.86328125 -0.3524169921875 3.4537353515625
93.092529296875 7.7476806640625 -26.69189453125
48.60546875 -26.2939453125 24.2197265625
81.62060546875 33.2044677734375 -21.2291259765625
69.17724609375 -5.2445068359375 -8.359619140625
22.787841796875 -9.29833984375 12.74365234375
42.857666015625 -30.941650390625 23.660400390625
-27.220947265625 -1.20849609375 6.4617919921875
55.91357421875 -40.82421875 20.7261962890625
-37.744140625 -14.1082763671875 20.3702392578125
87.05126953125 -22.7496337890625 -4.0159912109375
75.24853515625 -34.707763671875 0.465087890625
-89.77197265625 -43.9490966796875 28.1953125
69.9931640625 43.4952392578125 -22.9866943359375
28.27001953125 38.3179931640625 -8.54345703125
99.57763671875 -24.10302734375 0.691650390625
-30.189697265625 22.79248046875 2.2821044921875
33.899658203125 44.7293701171875 -8.434326171875
-92.427978515625 -37.8638916015625 21.4161376953125
70.61572265625 -28.0247802734375 3.4708251953125
-8.572998046875 25.589599609375 0.2777099609375
-23.134765625 -15.9390869140625 20.885986328125
45.56396484375 -25.4449462890625 20.9359130859375
76.171875 -50.8551025390625 7.38037109375
-19.56640625 -30.5584716796875 30.205078125
14.0068359375 -20.7147216796875 26.1529541015625
-48.145751953125 -13.2366943359375 15.5897216796875
86.69287109375 -38.6566162109375 20.960693359375
88.179931640625 -7.851318359375 -5.2001953125
53.575927734375 -3.013427734375 11.7572021484375
93.3623046875 -10.014892578125 -14.1124267578125
66.862548828125 -16.866455078125 1.81005859375
80.033447265625 -3.1063232421875 1.212646484375
70.10595703125 48.394287109375 -24.372314453125
70.009765625 5.0982666015625 -10.77978515625
46.77099609375 34.3211669921875 -9.692626953125
74.314697265625 35.836669921875 -24.126220703125
46.324951171875 -15.991455078125 18.6563720703125
69.412353515625 -15.0806884765625 -4.3106689453125
-13.47607421875 -27.0299072265625 28.3238525390625
64.259521484375 -26.8709716796875 8.485595703125
-13.395263671875 -5.8619384765625 10.8333740234375
69.440185546875 -49.579833984375 20.403564453125
-77.797607421875 -59.922119140625 48.228515625
-64.177734375 -16.1246337890625 25.739013671875
-59.569580078125 -8.6605224609375 17.646240234375
74.083251953125 -0.03564453125 -13.48193359375
54.039306640625 -23.3587646484375 12.6978759765625
-12.65869140625 24.103515625 0.69091796875
64.807373046875 5.601318359375 -5.9757080078125
32.298095703125 12.5062255859375 -7.751708984375
44.42919921875 -13.4541015625 15.705322265625
47.21728515625 48.9072265625 -9.57373046875
70.447265625 31.71630859375 -19.9093017578125
-21.171142578125 22.302978515625 1.2432861328125
-34.932373046875 -18.072998046875 24.142822265625
50.07470703125 -5.7071533203125 4.5032958984375
0.719970703125 -31.854736328125 28.8447265625
27.795166015625 42.8258056640625 -8.9779052734375
23.087158203125 -17.9892578125 23.1048583984375
91.55859375 -0.7181396484375 -20.6580810546875
39.03759765625 50.668212890625 -8.55712890625
-54.468994140625 3.25 19.9747314453125
102.69287109375 -17.7501220703125 -10.8250732421875
-83.22607421875 -28.41845703125 18.3043212890625
44.444091796875 22.0245361328125 -8.7723388671875
79.38916015625 26.401123046875 -21.5029296875
75.298828125 -50.7523193359375 12.773193359375
-52.136962890625 -11.6837158203125 14.992431640625
67.9501953125 -31.1815185546875 5.1973876953125
71.27734375 12.88330078125 -12.2506103515625
45.85009765625 10.94775390625 -8.1212158203125
98.772705078125 -29.2012939453125 4.523193359375
-35.0810546875 15.4306640625 4.908447265625
98.512939453125 -13.8333740234375 -14.2408447265625
96.958251953125 -39.2801513671875 21.221435546875
72.634521484375 23.3170166015625 -19.94140625
38.1708984375 -3.5989990234375 2.6219482421875
67.367431640625 -46.070556640625 19.259765625
78.1533203125 20.1514892578125 -20.453369140625
-36.482177734375 6.40869140625 5.2481689453125
32.65087890625 -0.093994140625 -3.392822265625
97.70556640625 -29.903076171875 9.3492431640625
27.237060546875 -9.4765625 12.448486328125
4.3662109375 -14.11083984375 14.9483642578125
66.797119140625 -47.143798828125 9.8275146484375
56.334228515625 -17.7628173828125 17.68017578125
61.84814453125 -19.5482177734375 13.439208984375
62.885009765625 -35.59033203125 0.601806640625
100.524169921875 -7.6539306640625 -11.552734375
-18.360595703125 -16.7236328125 18.55859375
86.6455078125 -20.6478271484375 20.2606201171875
10.751220703125 -12.049560546875 16.674560546875
25.886474609375 1.561767578125 -4.93310546875
63.8994140625 -4.1561279296875 -2.814697265625
90.940185546875 2.577880859375 -18.2977294921875
51.08740234375 -29.47802734375 8.409912109375
39.6845703125 13.968017578125 -8.05908203125
60.912353515625 -15.5732421875 5.66748046875
28.158935546875 23.7794189453125 -7.91552734375
56.518310546875 -39.45947265625 8.4368896484375
90.683837890625 -28.338623046875 18.9261474609375
-44.1044921875 2.757080078125 16.4388427734375
80.776123046875 -6.706298828125 4.42431640625
-37.267578125 22.4053955078125 3.2806396484375
39.9990234375 44.218505859375 -4.4324951171875
21.882568359375 13.1195068359375 -7.5745849609375
39.870361328125 -23.313720703125 23.554931640625
99.49755859375 -16.796875 -7.9554443359375
92.458251953125 -25.2088623046875 2.0469970703125
-53.243408203125 -0.150634765625 16.00341796875
-33.30322265625 -12.2330322265625 17.2091064453125
67.698486328125 27.52734375 -13.5782470703125
70.792724609375 7.3116455078125 -13.876708984375
60.13134765625 -30.1595458984375 9.7056884765625
29.1875 10.0413818359375 -7.7879638671875
-6.50146484375 -13.466064453125 19.14111328125
73.964599609375 -11.3609619140625 -6.6131591796875
99.72705078125 -34.966552734375 20.2493896484375
69.565185546875 -38.0623779296875 -0.42724609375
-49.62646484375 -16.4617919921875 25.6976318359375
-14.216064453125 -34.1190185546875 31.51513671875
59.280029296875 -34.1304931640625 2.65087890625
-8.356201171875 -30.84033203125 28.63623046875
97.47802734375 -1.472900390625 -23.7596435546875
37.98046875 20.6875 -8.0469970703125
72.078857421875 51.9910888671875 -25.8150634765625
70.0908203125 25.520263671875 -16.4986572265625
-9.703125 -1.0067138671875 5.4725341796875
76.296630859375 -29.2471923828125 6.922119140625
-30.139892578125 -18.31884765625 23.661865234375
78.69970703125 -40.213134765625 9.328125
40.869873046875 2.0267333984375 -6.52685546875
7.043701171875 -34.9757080078125 30.3682861328125
14.6103515625 -8.0164794921875 10.9730224609375
31.81640625 37.015869140625 -8.5498046875
52.668701171875 -28.321533203125 21.8028564453125
31.61572265625 48.315673828125 -9.1009521484375
79.71484375 39.9111328125 -26.3509521484375
68.686279296875 -44.93994140625 7.427978515625
34.880859375 16.602294921875 -3.295654296875
62.35791015625 -39.8365478515625 2.902099609375
-37.465087890625 -3.876708984375 13.060546875
76.8046875 23.35546875 -21.8807373046875
-81.132568359375 -20.66845703125 27.35791015625
-38.7470703125 -7.2784423828125 14.048583984375
77.55908203125 -15.0721435546875 4.305908203125
43.535888671875 25.708740234375 -9.0689697265625
44.8857421875 -8.46826171875 10.036865234375
90.565673828125 -4.4522705078125 -14.816650390625
80.3505859375 -32.3328857421875 6.578369140625
32.42919921875 -4.2218017578125 4.245849609375
58.516357421875 -14.639892578125 15.5391845703125
-15.38818359375 -10.6617431640625 16.7344970703125
50.245849609375 17.166015625 -8.1175537109375
87.288818359375 -10.2283935546875 8.34765625
-43.527587890625 -7.1214599609375 14.2550048828125
46.2802734375 18.8231201171875 -8.2972412109375
37.8232421875 8.53515625 -8.193603515625
-22.219482421875 -25.2987060546875 29.2822265625
-51.271484375 -20.2333984375 29.9444580078125
87.729248046875 -10.2054443359375 -8.662353515625
-57.927001953125 -18.1195068359375 27.9998779296875
-43.593017578125 -13.3773193359375 14.0601806640625
25.858154296875 -1.9957275390625 0.522216796875
-22.783447265625 19.6729736328125 4.321533203125
70.146484375 35.5069580078125 -20.9244384765625
65.822265625 8.0079345703125 -8.595703125
-16.61279296875 -17.969482421875 21.5760498046875
76.414306640625 -46.704833984375 11.0208740234375
-94.960205078125 -35.50634765625 17.7786865234375
66.09326171875 11.593017578125 -10.234619140625
33.870849609375 -21.009765625 25.228271484375
-22.889892578125 -39.1226806640625 35.60986328125
52.278564453125 -34.4632568359375 17.611083984375
64.431884765625 -13.4127197265625 0.7489013671875
0.851318359375 -3.1202392578125 9.794677734375
-4.863525390625 -16.908203125 13.272216796875
71.870849609375 -7.6048583984375 -9.130126953125
68.411376953125 -10.842041015625 -4.00732421875
43.593505859375 14.491455078125 -8.7799072265625
-6.14990234375 -38.6947021484375 34.14013671875
-7.11962890625 -5.1353759765625 9.556640625
-4.985595703125 -23.64501953125 26.1300048828125
3.86328125 -38.1768798828125 33.956787109375
91.17041015625 -30.34130859375 13.2410888671875
-62.41796875 -13.73193359375 22.6688232421875
-55.785400390625 -15.7335205078125 24.857421875
-28.70751953125 5.564453125 4.34130859375
-22.9482421875 1.81103515625 4.5438232421875
83.8466796875 -40.8529052734375 15.379638671875
68.907470703125 -46.8779296875 14.4656982421875
2.44921875 -17.8223876953125 13.5162353515625
23.865234375 -14.2979736328125 18.4932861328125
68.244140625 40.8603515625 -21.254638671875
-11.390869140625 -8.0059814453125 13.41650390625
89.8935546875 -33.1529541015625 22.9554443359375
92.3779296875 -3.72119140625 -18.63818359375
-48.63232421875 0.8336181640625 14.1412353515625
10.7880859375 -14.5926513671875 19.40283203125
78.140625 -35.073486328125 3.8826904296875
-91.281005859375 -33.70703125 14.281982421875
53.642578125 -32.959228515625 4.9417724609375
51.254150390625 -28.77099609375 12.4609375
51.034912109375 -26.924072265625 26.764892578125
-24.9716796875 26.00537109375 0.9171142578125
58.856689453125 -45.791259765625 26.251220703125
48.927490234375 -19.738525390625 17.5859375
40.26611328125 32.5848388671875 -8.8553466796875
-0.451904296875 -13.9072265625 15.292724609375
66.77099609375 18.1282958984375 -12.9053955078125
-4.488525390625 -10.892578125 12.599365234375
79.872314453125 -19.13720703125 17.624267578125
60.77978515625 -21.3260498046875 7.294677734375
-1.321533203125 -13.58544921875 8.05517578125
78.48486328125 29.2578125 -23.777099609375
24.961669921875 14.83544921875 -7.3243408203125
24.400390625 -3.9210205078125 4.73583984375
61.69384765625 -22.450927734375 16.4676513671875
-86.5283203125 -30.162841796875 17.519287109375
15.642333984375 -12.2125244140625 16.4669189453125
18.146728515625 -36.95654296875 31.9957275390625
76.107421875 8.3973388671875 -16.428955078125
34.681640625 -6.6435546875 8.5594482421875
82.98291015625 -1.447998046875 5.1185302734375
86.573974609375 -1.81689453125 0.3525390625
50.12744140625 13.3076171875 -8.3671875
-6.192138671875 -34.20947265625 30.361083984375
69.26416015625 0.299560546875 -6.6484375
78.64013671875 36.0018310546875 -25.6845703125
69.165771484375 -40.4774169921875 2.6741943359375
-12.516357421875 -40.90966796875 36.3309326171875
-51.26318359375 4.6007080078125 19.1260986328125
46.133056640625 -18.116943359375 21.5006103515625
74.367431640625 30.36083984375 -23.1883544921875
80.58349609375 46.962158203125 -27.5709228515625
43.15673828125 -27.8956298828125 19.457763671875
59.387451171875 -11.5029296875 12.0216064453125
-84.080322265625 -25.470458984375 20.114013671875
70.721923828125 13.1485595703125 -16.0853271484375
72.698486328125 19.3343505859375 -16.189453125
-42.382080078125 4.733642578125 18.7098388671875
-12.191650390625 -15.9156494140625 20.352294921875
14.08447265625 -16.526123046875 21.652099609375
99.943603515625 -18.845703125 -5.20849609375
-0.61474609375 -18.5533447265625 25.1661376953125
-8.594970703125 -23.8182373046875 26.708984375
4.096435546875 -32.645263671875 29.3587646484375
-49.0263671875 -10.7662353515625 11.44580078125
-43.855224609375 -15.803466796875 18.3912353515625
33.2080078125 16.7275390625 -7.5809326171875
88.328369140625 -15.5836181640625 -7.3958740234375
5.139892578125 -15.46142578125 20.3197021484375
-82.35888671875 -24.2059326171875 24.8873291015625
69.45068359375 -21.0701904296875 -1.0030517578125
93.08154296875 -20.46142578125 -4.19775390625
57.6767578125 -38.1649169921875 4.16259765625
27.627685546875 -13.6168212890625 16.811279296875
78.56298828125 -24.81005859375 8.109619140625
30.028564453125 -16.0120849609375 20.2674560546875
39.313720703125 36.6219482421875 -9.3907470703125
99.996337890625 -10.814697265625 -13.69140625
68.325927734375 44.427978515625 -18.8424072265625
-22.232421875 -19.8074951171875 24.9337158203125
-33.336669921875 -21.6951904296875 27.7169189453125
40.337158203125 -5.0108642578125 4.82421875
92.86181640625 4.609130859375 -25.2098388671875
-16.258056640625 17.345458984375 1.6068115234375
-18.26953125 1.90966796875 3.82861328125
-21.446533203125 -11.02685546875 15.12939453125
80.81005859375 -9.0810546875 7.571044921875
64.04541015625 -46.6761474609375 23.20654296875
-43.59765625 -2.85009765625 12.0186767578125
-90.456298828125 -31.87646484375 18.283447265625
90.470703125 -38.51513671875 25.17578125
-15.359619140625 8.072509765625 3.7666015625
-25.634521484375 17.9068603515625 2.8280029296875
-10.736083984375 19.296142578125 0.2501220703125
68.097900390625 -25.3057861328125 1.27734375
22.1748046875 8.9521484375 -6.452880859375
-29.493896484375 9.1575927734375 5.0921630859375
40.788330078125 28.907470703125 -8.507080078125
-79.6748046875 -21.5447998046875 30.30029296875
-10.0244140625 -36.4495849609375 32.655517578125
37.068359375 -2.014892578125 -0.220947265625
46.433349609375 37.8399658203125 -9.4150390625
-17.1123046875 -28.3695068359375 29.232666015625
91.060546875 -21.7945556640625 -0.5205078125
76.095458984375 12.4351806640625 -17.848388671875
63.48681640625 -49.551025390625 25.0380859375
92.0966796875 -30.0211181640625 6.961181640625
58.684814453125 -24.5511474609375 13.2781982421875
3.176513671875 1.65185546875 14.269287109375
-25.320068359375 -42.4239501953125 37.2064208984375
-39.831787109375 -11.205078125 18.795654296875
90.365478515625 -15.94189453125 10.5919189453125
39.76171875 -13.0477294921875 15.3377685546875
-5.80859375 -17.1873779296875 23.662109375
9.905029296875 -20.552490234375 26.3929443359375
52.388671875 -35.3095703125 14.428955078125
33.325927734375 -16.1236572265625 20.129638671875
71.35009765625 -17.8060302734375 -3.6851806640625
-56.919921875 -7.5491943359375 16.0416259765625
23.07275390625 26.3970947265625 -6.703369140625
62.3173828125 -9.7484130859375 1.7008056640625
50.013916015625 -9.5794677734375 10.834716796875
58.887939453125 -45.4136962890625 12.62744140625
26.447265625 -19.194580078125 23.5821533203125
-23.677490234375 -0.9970703125 6.03076171875
-29.239990234375 -13.0325927734375 17.5970458984375
-18.40771484375 22.0828857421875 3.0050048828125
-35.607177734375 9.43310546875 4.423095703125
-26.818603515625 -6.856689453125 10.822509765625
6.51123046875 -17.9361572265625 23.473876953125
62.73046875 -32.1646728515625 7.1463623046875
17.953369140625 -13.9002685546875 18.0001220703125
97.979248046875 -34.43896484375 15.745361328125
-8.185302734375 -10.237060546875 15.8641357421875
57.08349609375 -32.1019287109375 3.8974609375
-56.319091796875 -2.3804931640625 17.99072265625
-3.919677734375 -7.72998046875 12.0887451171875
-10.40673828125 7.9677734375 2.469970703125
88.53515625 -26.748291015625 2.14306640625
84.6767578125 -32.102294921875 12.3450927734375
86.86669921875 -36.2047119140625 23.9310302734375
36.693359375 46.2301025390625 -7.89111328125
-1.54931640625 -33.47900390625 30.421630859375
-20.804931640625 -31.935546875 32.8204345703125
75.47802734375 -31.4837646484375 3.2708740234375
45.64111328125 -3.6640625 1.542236328125
60.546630859375 -43.274658203125 8.30908203125
-27.204345703125 -10.30029296875 14.4061279296875
-93.300048828125 -31.0240478515625 21.24853515625
40.005615234375 -17.0472412109375 20.35498046875
-0.1416015625 2.051025390625 14.02490234375
26.35400390625 31.1966552734375 -8.3770751953125
52.98193359375 -22.89990234375 15.6790771484375
88.328125 -6.051513671875 -8.57177734375
102.513427734375 -23.604248046875 -4.40625
-18.162109375 -10.6693115234375 15.1558837890625
-28.847412109375 14.297119140625 4.30908203125
-18.3251953125 12.5264892578125 3.25732421875
-12.8359375 -1.19921875 5.9866943359375
75.6748046875 -41.4952392578125 7.246337890625
-96.98583984375 -27.41845703125 22.259033203125
96.48291015625 -7.4412841796875 -17.331298828125
4.509765625 -30.40380859375 26.7802734375
43.849609375 -22.7926025390625 21.2373046875
67.892578125 49.890380859375 -21.9462890625
86.237548828125 -6.4178466796875 4.31640625
87.75439453125 -15.0377197265625 13.4097900390625
-91.15283203125 -26.3306884765625 20.8018798828125
66.569580078125 -9.6065673828125 -1.533447265625
88.6484375 -19.1431884765625 18.258056640625
67.90771484375 38.0322265625 -18.9320068359375
42.255126953125 4.3544921875 -8.119384765625
35.169677734375 -13.721435546875 16.984130859375
83.21875 -29.8870849609375 6.69482421875
-22.17333984375 -6.2755126953125 11.63427734375
85.30712890625 -11.6971435546875 10.3065185546875
14.06640625 -35.217529296875 31.7899169921875
-87.148681640625 -35.6612548828125 17.9805908203125
72.028564453125 -34.590576171875 0.6083984375
-33.24462890625 -10.533447265625 14.6025390625
63.679931640625 -16.33642578125 1.978515625
48.651123046875 1.2193603515625 -6.1114501953125
39.92041015625 -27.1138916015625 25.0872802734375
-73.203125 -19.073486328125 29.2750244140625
-31.663818359375 -6.065673828125 10.4134521484375
6.49951171875 -10.9820556640625 15.7625732421875
39.28857421875 40.9007568359375 -8.3087158203125
95.91357421875 -11.7572021484375 -14.29296875
47.859130859375 -29.5579833984375 23.013916015625
61.142333984375 -46.0811767578125 21.896240234375
-46.690673828125 2.509033203125 18.115234375
65.96923828125 -35.13525390625 1.0574951171875
55.795654296875 -40.6688232421875 11.6038818359375
65.999755859375 -31.9735107421875 8.13037109375
74.467041015625 38.9547119140625 -23.7005615234375
-85.071533203125 -46.121826171875 24.700439453125
-10.293701171875 -27.9991455078125 28.126953125
50.912353515625 -6.485107421875 7.36083984375
90.7255859375 -30.6805419921875 16.5518798828125
16.676513671875 -9.1083984375 12.9716796875
-8.4794921875 3.974609375 1.8126220703125
-21.83251953125 13.11669921875 3.60791015625
22.563720703125 -6.1861572265625 9.29248046875
40.85888671875 -8.658203125 10.527099609375
78.248046875 42.6103515625 -27.9110107421875
-86.997314453125 -45.0885009765625 28.8525390625
79.83984375 33.78955078125 -23.927001953125
-39.813232421875 -19.9586181640625 27.404296875
-53.054443359375 -11.90087890625 19.715087890625
82.501220703125 -17.5936279296875 17.285888671875
91.891357421875 -35.0108642578125 17.7490234375
-85.654296875 -38.3397216796875 18.6549072265625
48.283935546875 -0.9527587890625 -3.9619140625
74.240234375 -5.8604736328125 -9.9658203125
-61.234375 -17.4342041015625 27.212158203125
40.9765625 -30.2506103515625 21.377685546875
-16.114990234375 0.24658203125 5.1680908203125
51.985595703125 -12.4677734375 16.6815185546875
69.731689453125 -33.5794677734375 4.099609375
76.97802734375 -6.576416015625 -5.711181640625
28.60009765625 0.3447265625 -3.513427734375
30.916259765625 44.23974609375 -8.6192626953125
38.453125 26.0130615234375 -8.406982421875
92.338623046875 -17.96826171875 -6.873291015625
75.40234375 -24.2353515625 8.41357421875
45.513427734375 -6.7724609375 7.464599609375
-0.612060546875 -14.2706298828125 11.3043212890625
35.015869140625 37.6429443359375 -9.0443115234375
-13.456298828125 -20.576904296875 25.8900146484375
-20.1630859375 -3.19970703125 8.371826171875
87.284912109375 -19.808837890625 -6.5067138671875
71.57958984375 -13.48828125 -5.6680908203125
-42.380126953125 -16.730712890625 25.3267822265625
-46.7646484375 -1.2708740234375 11.5926513671875
81.40673828125 -13.75 13.031982421875
67.09765625 22.1702880859375 -11.0927734375
98.498046875 -14.4808349609375 -11.1221923828125
66.860107421875 -19.9296875 4.0301513671875
-0.810302734375 -37.3736572265625 33.3040771484375
38.631591796875 17.11083984375 -8.6339111328125
-76.51220703125 -18.466064453125 28.206298828125
-38.990234375 -14.9898681640625 22.951171875
-87.534912109375 -43.24560546875 26.33056640625
-25.939697265625 7.2923583984375 3.45166015625
31.41796875 5.7578125 -6.918701171875
25.379150390625 -5.220947265625 7.23388671875
-91.62353515625 -45.0264892578125 30.263671875
27.486328125 13.3555908203125 -7.87353515625
-85.5048828125 -40.8428955078125 21.524169921875
80.416748046875 -29.9290771484375 4.83203125
-36.135986328125 -8.750732421875 13.4732666015625
50.025146484375 40.75390625 -9.541259765625
-44.40771484375 -16.2196044921875 12.736572265625
76.010986328125 17.87548828125 -19.9407958984375
5.1298828125 -7.4488525390625 12.207763671875
-10.666015625 22.3336181640625 -0.6090087890625
72.904052734375 5.9105224609375 -15.40966796875
62.91357421875 -41.7091064453125 5.128173828125
33.7333984375 -10.840576171875 13.8909912109375
61.13525390625 -27.4122314453125 9.2490234375
-19.178955078125 -41.9019775390625 36.6337890625
30.278564453125 29.873779296875 -8.434326171875
35.294189453125 -17.8101806640625 21.736328125
92.0771484375 -27.5452880859375 3.9744873046875
37.41455078125 31.885009765625 -8.5421142578125
75.1689453125 -2.416015625 -11.9486083984375
55.700927734375 -21.981201171875 14.7103271484375
73.170654296875 26.3868408203125 -19.5567626953125
-87.287109375 -30.1572265625 22.043212890625
-40.98046875 -8.414306640625 15.6009521484375
2.141357421875 -10.9923095703125 11.3486328125
32.408203125 34.1456298828125 -8.287353515625
-11.17431640625 -31.4501953125 29.2208251953125
-2.68798828125 -39.0357666015625 34.8408203125
96.7392578125 -24.261962890625 -0.060546875
35.18603515625 -22.4989013671875 23.0625
56.819580078125 -43.1954345703125 13.072509765625
43.486328125 -10.860595703125 13.0860595703125
53.648681640625 -11.292236328125 12.337158203125
22.175048828125 -12.4300537109375 16.1895751953125
20.1826171875 -18.2908935546875 23.2994384765625
-55.11767578125 -6.1392822265625 14.031005859375
76.550537109375 2.4918212890625 -13.2288818359375
-41.401123046875 1.012451171875 16.3760986328125
-19.409912109375 -22.4326171875 27.7542724609375
50.51416015625 -14.9395751953125 18.2215576171875
28.720703125 -17.935546875 22.2618408203125
0.089599609375 -29.3994140625 26.9921875
-5.920166015625 -29.428955078125 27.8836669921875
61.837158203125 -16.2257080078125 14.7069091796875
99.2021484375 -31.038818359375 14.4576416015625
30.880126953125 -2.3150634765625 1.0728759765625
71.8505859375 -44.8455810546875 8.1407470703125
24.894775390625 41.6849365234375 -8.686279296875
79.27392578125 -47.18896484375 11.0406494140625
67.256103515625 -19.76513671875 0.4527587890625
28.96240234375 -7.9600830078125 10.69091796875
-6.995361328125 11.84814453125 1.7816162109375
44.288330078125 32.8338623046875 -9.2142333984375
-9.751953125 -5.5657958984375 10.6695556640625
-4.676513671875 -15.1705322265625 20.5908203125
4.410888671875 -18.9935302734375 25.49755859375
-31.9482421875 16.715087890625 3.9393310546875
-30.926513671875 -2.149169921875 8.4625244140625
96.22509765625 -30.5341796875 6.959228515625
5.73388671875 -36.514892578125 32.42041015625
40.566650390625 7.663330078125 -8.205322265625
89.015380859375 -11.9903564453125 6.865966796875
-59.560546875 -14.0797119140625 23.1097412109375
32.951416015625 22.8873291015625 -7.922607421875
-31.855712890625 4.238037109375 5.1748046875
4.2431640625 -3.7762451171875 10.5469970703125
-19.712890625 6.919677734375 2.640625
51.666259765625 -19.9967041015625 18.3585205078125
61.234375 -25.01220703125 7.49462890625
76.17919921875 -36.6256103515625 2.50439453125
-15.636474609375 -39.911376953125 34.922607421875
-49.658935546875 -5.0316162109375 12.6195068359375
39.464111328125 -14.8428955078125 17.76611328125
58.818603515625 -18.948974609375 16.6990966796875
67.812744140625 -16.24609375 -1.51220703125
90.57470703125 -18.0770263671875 16.234375
-12.8994140625 10.300537109375 3.0819091796875
43.818603515625 -0.48876953125 -4.0316162109375
-12.056640625 12.91162109375 2.2283935546875
-53.76806640625 -2.2412109375 13.3433837890625
49.66162109375 34.31201171875 -9.6612548828125
-17.063720703125 -13.2974853515625 17.5638427734375
75.91845703125 48.3121337890625 -27.4090576171875
-15.11279296875 3.6143798828125 2.88818359375
22.334716796875 20.3594970703125 -7.146484375
-10.178466796875 -18.895751953125 23.218994140625
-13.23486328125 -12.8021240234375 18.092041015625
-34.59716796875 3.6446533203125 5.7435302734375
-23.70849609375 -17.8485107421875 22.8948974609375
88.67431640625 -4.054931640625 0.0540771484375
-31.141357421875 25.4376220703125 2.583251953125
-9.316162109375 -13.3402099609375 19.36474609375
73.163330078125 -33.10009765625 3.160888671875
-88.031982421875 -40.9725341796875 23.99169921875
-25.379638671875 -14.6812744140625 19.326171875
48.6181640625 -11.626708984375 15.050048828125
80.497314453125 -36.992431640625 10.7679443359375
-52.851806640625 -4.970458984375 12.622802734375
52.34033203125 -28.359130859375 24.727294921875
80.321533203125 -41.7698974609375 13.0531005859375
71.325927734375 10.353271484375 -13.4779052734375
43.634765625 37.9520263671875 -9.186767578125
66.405029296875 -22.5821533203125 4.8382568359375
47.147705078125 -14.0902099609375 16.5838623046875
73.67333984375 30.174072265625 -19.5096435546875
29.721923828125 19.538330078125 -8.0028076171875
50.3720703125 -23.96142578125 23.6278076171875
-82.673828125 -21.4781494140625 24.3221435546875
21.36474609375 2.3472900390625 -4.0452880859375
-15.913818359375 28.040771484375 0.9735107421875
55.7353515625 -37.4588623046875 6.6405029296875
-93.346435546875 -33.2890625 17.211669921875
98.166015625 -3.9052734375 -21.3150634765625
-47.679931640625 -15.9969482421875 14.645263671875
-34.4423828125 12.58740234375 5.1600341796875
66.0791015625 -28.529541015625 7.15625
14.101318359375 -18.75048828125 24.1634521484375
80.564697265625 31.1158447265625 -24.3101806640625
39.19970703125 0.5579833984375 -4.8343505859375
92.391357421875 6.97265625 -23.2181396484375
-37.80712890625 15.97412109375 5.1572265625
-28.71630859375 19.992431640625 2.6981201171875
-8.905029296875 13.863525390625 1.4991455078125
58.8408203125 -43.8642578125 20.520263671875
-22.312744140625 24.9830322265625 0.51220703125
26.81884765625 17.2900390625 -7.3936767578125
-2.218994140625 4.2303466796875 16.6795654296875
98.8515625 -29.593994140625 12.06005859375
69.6328125 15.8623046875 -13.287353515625
73.085693359375 45.1400146484375 -24.0484619140625
20.41015625 -35.330078125 32.0086669921875
-26.660888671875 -16.41650390625 21.84619140625
99.734619140625 -26.00341796875 2.723388671875
47.661865234375 29.85302734375 -9.178955078125
-56.74462890625 -13.7811279296875 22.9183349609375
-29.166259765625 2.56201171875 5.247802734375
-20.958984375 3.5855712890625 3.7554931640625
101.261962890625 -27.87353515625 5.013916015625
84.239013671875 -2.0748291015625 2.0020751953125
84.446044921875 -16.1419677734375 15.1583251953125
-11.229736328125 3.0030517578125 2.48828125
34.91552734375 5.9256591796875 -7.479736328125
25.2587890625 8.012939453125 -6.6436767578125
-27.361328125 24.24609375 1.760009765625
72.73486328125 -25.78271484375 2.8343505859375
68.078857421875 31.4783935546875 -18.4605712890625
96.201904296875 -21.4981689453125 -3.3173828125
-16.3193359375 14.6876220703125 2.3585205078125
25.93798828125 25.5338134765625 -7.78076171875
78.0185546875 50.15234375 -28.9635009765625
69.528564453125 2.4276123046875 -8.923095703125
16.71875 -15.3399658203125 20.1483154296875
74.201171875 33.15966796875 -23.5076904296875
43.093505859375 -5.9224853515625 6.04833984375
57.037353515625 -29.481689453125 8.9034423828125
75.19189453125 45.8375244140625 -26.317626953125
66.767333984375 16.65771484375 -10.10400390625
70.134765625 22.9730224609375 -15.4967041015625
-36.75537109375 -16.8316650390625 22.5211181640625
73.6435546875 -29.009033203125 7.551025390625
-0.89697265625 -0.3699951171875 11.728515625
38.68310546875 -6.83837890625 8.179443359375
54.161865234375 -38.92626953125 19.828125
38.3125 -25.12109375 26.044189453125
-64.836669921875 -12.6026611328125 22.0992431640625
-67.017578125 -20.42822265625 30.911865234375
26.12158203125 35.6116943359375 -7.9237060546875
-20.39892578125 -35.7537841796875 34.3023681640625
76.3173828125 0.051513671875 -11.9232177734375
79.46923828125 -20.7957763671875 14.811279296875
67.651611328125 5.5712890625 -9.5257568359375
71.49169921875 0.5875244140625 -12.9818115234375
37.641357421875 -10.387939453125 12.8790283203125
59.930908203125 -26.353271484375 11.433349609375
16.655029296875 -19.51708984375 24.6356201171875
-15.72021484375 -19.6453857421875 24.554931640625
-98.217529296875 -35.8641357421875 16.048095703125
64.993896484375 -2.773193359375 -4.8629150390625
35.212890625 9.5421142578125 -7.795654296875
65.98193359375 -24.529296875 6.6619873046875
32.885498046875 -12.7232666015625 15.945068359375
39.995849609375 48.697021484375 -10.134521484375
-51.784423828125 -15.0205078125 13.4857177734375
-9.982421875 0.8367919921875 3.5054931640625
-48.35986328125 -16.3427734375 23.3216552734375
93.829345703125 -38.7686767578125 19.6251220703125
-35.099609375 -1.248779296875 7.184814453125
86.9384765625 -25.25244140625 -1.3568115234375
95.997314453125 1.2669677734375 -25.3077392578125
-29.415283203125 -23.350341796875 29.6383056640625
73.9052734375 50.3446044921875 -24.737060546875
-48.864013671875 3.3922119140625 19.4195556640625
-32.888671875 23.3848876953125 2.6630859375
47.3076171875 8.5401611328125 -7.811279296875
-94.71923828125 -28.7979736328125 21.8677978515625
36.85546875 2.12890625 -6.40869140625
59.71484375 -49.931396484375 26.489501953125
-49.323486328125 -8.4302978515625 13.6697998046875
55.409423828125 -41.4564208984375 18.173583984375
-31.319580078125 -14.71044921875 20.2073974609375
63.2431640625 -46.46435546875 17.183837890625
-57.9150390625 -10.4156494140625 18.8006591796875
93.045166015625 -14.3765869140625 -12.40771484375
48.856689453125 -2.2945556640625 -1.7252197265625
97.916259765625 -37.175048828125 19.6937255859375
42.911865234375 44.1326904296875 -9.744384765625
-16.4619140625 -35.3201904296875 33.1279296875
29.350830078125 35.908935546875 -8.179931640625
-54.371337890625 -12.81201171875 22.145751953125
75.87158203125 43.08935546875 -26.8203125
34.817626953125 18.9046630859375 -8.4259033203125
-23.94140625 -10.324951171875 14.5400390625
41.620361328125 -21.375244140625 23.0743408203125
-36.70703125 -23.423095703125 30.259521484375
-54.8203125 1.0926513671875 18.47900390625
19.896728515625 -8.8714599609375 12.5863037109375
81.7470703125 -34.370361328125 9.8514404296875
-90.768310546875 -47.41552734375 32.3079833984375
62.7724609375 -7.0965576171875 0.8929443359375
92.216064453125 2.1376953125 -22.991943359375
-38.26171875 -5.96435546875 11.654541015625
63.148681640625 -45.50439453125 9.4530029296875
-43.193115234375 -13.8397216796875 16.6865234375
73.208984375 25.7119140625 -17.010498046875
90.3505859375 -35.742919921875 22.807373046875
40.661865234375 -29.4783935546875 24.2081298828125
-95.640380859375 -38.01416015625 20.4688720703125
74.063720703125 3.6329345703125 -14.797119140625
-26.48583984375 -3.2899169921875 9.0264892578125
27.1015625 3.752685546875 -5.7239990234375
88.72998046875 -12.623291015625 -8.4305419921875
89.028076171875 -1.2027587890625 1.054443359375
65.927978515625 -46.756591796875 21.381591796875
-34.792724609375 -20.1156005859375 25.7777099609375
42.755859375 -25.27685546875 21.3016357421875
10.264404296875 -33.2515869140625 29.254638671875
-96.903564453125 -33.019287109375 16.3568115234375
-35.52685546875 -3.933349609375 10.3853759765625
-12.797119140625 -38.908447265625 34.2249755859375
39.0458984375 10.7830810546875 -7.669189453125
62.18408203125 -38.3748779296875 0.7449951171875
95.070556640625 -5.6455078125 -19.3642578125
78.110107421875 -8.0147705078125 -1.104736328125
88.769775390625 -10.5189208984375 -12.1240234375
73.762939453125 22.1055908203125 -21.958251953125
-18.83251953125 27.19287109375 0.885498046875
-3.044677734375 -3.3349609375 8.90869140625
91.68701171875 -40.790771484375 24.6651611328125
43.362060546875 -17.119384765625 20.357421875
-24.236083984375 -23.3114013671875 28.7091064453125
74.111083984375 36.8336181640625 -21.7303466796875
-23.52880859375 11.1741943359375 3.950927734375
-28.546630859375 11.5699462890625 4.877197265625
72.750244140625 18.2713623046875 -18.9876708984375
94.358154296875 -16.8287353515625 -8.379150390625
51.718505859375 -31.5789794921875 9.81494140625
-44.2880859375 -10.6328125 13.545166015625
33.65625 27.2843017578125 -8.5068359375
