90.950439453125 21.9935302734375 -12.4632568359375
86.235595703125 -3.899658203125 4.965087890625
-60.25048828125 -28.15869140625 22.0479736328125
-26.428955078125 -14.2010498046875 16.0750732421875
94.14501953125 -45.5618896484375 3.17724609375
-60.626220703125 -32.579345703125 30.6622314453125
88.602294921875 -10.814453125 2.413818359375
22.882568359375 -27.7279052734375 28.164306640625
-14.9658203125 -66.6568603515625 8.94482421875
-47.99267578125 -18.881103515625 28.049072265625
-32.55908203125 -4.8123779296875 15.9803466796875
64.20361328125 9.810791015625 -2.915771484375
16.383544921875 5.5264892578125 5.3726806640625
62.817138671875 38.5423583984375 -3.5438232421875
87.896728515625 -20.9752197265625 19.9998779296875
42.6533203125 3.5379638671875 -6.1265869140625
60.00390625 14.3919677734375 -2.3453369140625
-40.385986328125 -14.088134765625 22.902099609375
-13.996826171875 19.687744140625 7.955078125
-59.800537109375 -47.519775390625 27.279296875
-10.44677734375 13.4339599609375 7.6370849609375
1.7978515625 1.8499755859375 7.843017578125
100.93115234375 -36.387939453125 1.0718994140625
79.758056640625 -31.8798828125 10.7423095703125
-3.466552734375 17.5411376953125 7.2720947265625
15.278076171875 19.2703857421875 4.8018798828125
68.85546875 9.4251708984375 -3.1475830078125
-16.49658203125 -9.548583984375 17.1715087890625
90.2216796875 4.3121337890625 -5.40625
14.398681640625 6.7445068359375 5.9495849609375
0.820068359375 6.40234375 7.3233642578125
7.343017578125 11.214111328125 6.058837890625
90.663330078125 -5.24462890625 -0.9197998046875
50.142822265625 31.4368896484375 -2.9464111328125
-61.48291015625 -29.82470703125 26.4736328125
2.60302734375 25.3065185546875 6.1131591796875
-3.15380859375 23.06982421875 6.725341796875
82.994384765625 -29.9144287109375 12.7271728515625
84.82421875 -20.227294921875 19.97900390625
-31.42724609375 -8.226318359375 17.7645263671875
97.3798828125 1.6829833984375 -7.220703125
-1.57421875 14.757568359375 7.0546875
60.768798828125 4.1162109375 -1.597900390625
51.541259765625 43.4420166015625 -3.15673828125
83.09765625 -38.0084228515625 7.4691162109375
88.287109375 7.4639892578125 0.6702880859375
-60.052734375 -41.3546142578125 19.222900390625
-10.423583984375 21.8741455078125 7.177978515625
96.1337890625 -31.984130859375 9.9296875
87.358642578125 -0.826904296875 -0.6602783203125
-60.24609375 -31.355224609375 20.23095703125
-60.662841796875 -37.2685546875 25.68212890625
-11.55126953125 21.1463623046875 9.3154296875
88.96630859375 -43.857666015625 8.9449462890625
-12.16552734375 14.1409912109375 9.1904296875
67.2001953125 -30.382080078125 24.08349609375
54.239990234375 18.164794921875 -2.8013916015625
6.7802734375 2.297607421875 7.1146240234375
15.784912109375 1.1383056640625 6.37548828125
85.516845703125 -23.3482666015625 18.42138671875
96.361572265625 5.2828369140625 -5.4193115234375
-72.47998046875 -28.4722900390625 24.118408203125
93.475341796875 13.3280029296875 -9.204345703125
103.819580078125 -32.741943359375 4.9898681640625
79.947265625 -39.1142578125 23.615966796875
-12.568115234375 17.9156494140625 7.7725830078125
79.393310546875 -34.5577392578125 11.0440673828125
91.610595703125 -38.733154296875 2.5035400390625
80.146728515625 -37.2508544921875 13.730712890625
-29.937744140625 -0.2845458984375 16.8013916015625
79.611328125 -35.606689453125 17.0521240234375
-45.2705078125 -18.9344482421875 27.4088134765625
91.56689453125 -27.268310546875 11.09765625
68.382080078125 13.5340576171875 -3.1383056640625
-6.991943359375 18.1158447265625 7.115478515625
19.829833984375 -13.451416015625 22.3905029296875
51.880615234375 32.9256591796875 -3.3291015625
31.004150390625 1.4747314453125 10.78369140625
23.09423828125 -24.215576171875 27.0916748046875
93.958251953125 -18.88525390625 4.03515625
87.0078125 2.4482421875 -1.338623046875
-4.8173828125 2.9420166015625 8.2862548828125
89.110107421875 23.1090087890625 -11.1119384765625
55.080322265625 7.952880859375 -2.8909912109375
65.4521484375 17.2298583984375 -1.857421875
-5.545166015625 23.593505859375 7.136474609375
-27.82470703125 4.0672607421875 18.25341796875
52.58837890625 25.962646484375 -3.113037109375
69.750732421875 3.40625 -1.7589111328125
87.670166015625 -18.7113037109375 7.09716796875
50.289794921875 27.6026611328125 -3.08154296875
78.732421875 -29.06494140625 23.7037353515625
55.98291015625 12.3790283203125 -2.824462890625
59.463623046875 40.898193359375 -3.1954345703125
90.36376953125 -15.15380859375 4.3170166015625
80.749755859375 -41.8331298828125 19.11083984375
89.324462890625 19.5101318359375 -1.81005859375
72.275390625 -25.9222412109375 25.0728759765625
20.6142578125 -15.06201171875 14.9256591796875
83.587158203125 -26.8309326171875 16.75537109375
59.102783203125 30.076904296875 -3.22607421875
75.830810546875 23.5762939453125 -3.0650634765625
83.096923828125 -40.4771728515625 27.693359375
59.42724609375 34.1864013671875 -3.3604736328125
84.641845703125 -39.6138916015625 7.421630859375
82.50390625 -24.01904296875 18.676025390625
13.661865234375 25.20458984375 4.6031494140625
81.78173828125 -21.3612060546875 20.2938232421875
88.550537109375 -46.5928955078125 12.1131591796875
98.97314453125 -35.572998046875 3.51025390625
94.865234375 3.121826171875 -4.7471923828125
-59.79443359375 -44.634765625 22.2703857421875
77.930908203125 -27.8111572265625 17.3568115234375
86.7470703125 -24.3802490234375 11.461181640625
55.111083984375 36.033447265625 -3.349365234375
1.34521484375 8.666748046875 7.1251220703125
-72.417236328125 -37.756103515625 15.7950439453125
69.481689453125 26.5635986328125 -3.5394287109375
29.982666015625 -31.826416015625 29.201171875
86.10400390625 -16.6583251953125 9.8819580078125
33.289306640625 1.4298095703125 10.5093994140625
78.942138671875 -29.18017578125 14.2127685546875
96.26904296875 -8.738525390625 -1.838134765625
-30.018798828125 -1.4453125 14.8682861328125
87.401123046875 -8.974853515625 2.5537109375
70.816650390625 36.7962646484375 -3.82666015625
-58.50244140625 -31.3985595703125 34.6690673828125
97.765625 -37.47900390625 0.4732666015625
21.765380859375 -35.8994140625 32.08154296875
66.884765625 30.00927734375 -3.4407958984375
-63.55078125 -28.18798828125 23.6182861328125
77.96435546875 -31.591552734375 25.7574462890625
75.24169921875 16.7994384765625 -3.076904296875
19.9677734375 -30.9576416015625 30.1729736328125
-21.30029296875 -4.456298828125 13.180419921875
-11.75341796875 23.59423828125 7.423583984375
25.47265625 -28.4261474609375 27.716796875
93.478271484375 -19.8875732421875 18.3482666015625
94.11962890625 -43.1400146484375 1.828369140625
50.39306640625 19.957763671875 -3.0101318359375
49.64404296875 15.185302734375 -0.721923828125
89.57275390625 30.673828125 -13.4688720703125
3.798828125 17.1513671875 7.482421875
-57.470947265625 -22.92822265625 29.27783203125
-4.064453125 -7.8206787109375 11.7169189453125
91.9306640625 -7.9755859375 0.5009765625
96.568359375 -35.5389404296875 3.97705078125
92.853271484375 -24.0352783203125 7.749267578125
83.9873046875 -33.1708984375 8.9317626953125
-61.040283203125 -34.5218505859375 17.965087890625
89.642578125 23.9676513671875 -7.8740234375
16.6611328125 14.5921630859375 4.1912841796875
-60.0185546875 -31.6796875 16.599365234375
-58.1865234375 -32.089599609375 14.2999267578125
86.4130859375 -6.6329345703125 8.3125
88.493896484375 14.7913818359375 -4.5814208984375
94.989013671875 -5.5035400390625 -1.931884765625
66.027587890625 22.1563720703125 -3.3531494140625
-20.408203125 -0.3328857421875 14.052978515625
56.05224609375 24.3375244140625 -3.0970458984375
95.42041015625 -1.1278076171875 -3.387451171875
-30.41259765625 -4.1298828125 15.2486572265625
22.107666015625 -8.7237548828125 14.3980712890625
24.73876953125 -34.51171875 31.3948974609375
71.93994140625 8.310302734375 -3.0291748046875
5.867431640625 26.087646484375 5.4056396484375
19.888427734375 -6.06640625 15.061279296875
96.3447265625 -23.1053466796875 4.2655029296875
77.013427734375 27.8511962890625 -5.089599609375
-60.77978515625 -40.6365966796875 33.399658203125
-27.7451171875 -7.384521484375 15.6396484375
93.44921875 -40.936279296875 0.263671875
53.5224609375 39.4759521484375 -3.3330078125
-70.292236328125 -29.55908203125 23.0888671875
78.949462890625 -35.3387451171875 22.9884033203125
86.813232421875 -20.68212890625 8.9635009765625
-63.8486328125 -31.7493896484375 23.866943359375
-25.05322265625 -4.031494140625 13.304443359375
-25.61865234375 -11.2264404296875 14.9893798828125
-25.781982421875 -14.8330078125 12.6556396484375
80.21142578125 -39.679443359375 18.0201416015625
48.904296875 12.44921875 -1.0047607421875
54.181884765625 31.3092041015625 -3.361572265625
73.342041015625 23.5262451171875 -3.6466064453125
64.85107421875 13.5765380859375 -0.58544921875
10.6611328125 14.0423583984375 5.79296875
94.36865234375 16.955078125 -10.7867431640625
38.056396484375 -4.349609375 13.81982421875
56.556396484375 30.9388427734375 -3.149169921875
85.921142578125 -35.400390625 5.826904296875
48.325927734375 18.5677490234375 -3.22265625
86.533447265625 -37.553466796875 4.0592041015625
81.96533203125 -41.9083251953125 24.5128173828125
-12.411376953125 -10.562255859375 19.4912109375
-60.1123046875 -39.7945556640625 27.8931884765625
93.582275390625 10.2227783203125 -7.759521484375
-60.09326171875 -35.1912841796875 13.967529296875
-35.859619140625 -10.32958984375 18.8853759765625
80.400390625 6.1707763671875 -1.9013671875
93.55712890625 -31.40673828125 10.695068359375
15.18359375 3.9102783203125 5.994873046875
17.3310546875 -2.873291015625 10.5343017578125
52.338134765625 28.156982421875 -3.1673583984375
46.588623046875 3.732177734375 -6.676025390625
49.04833984375 38.925537109375 -2.135009765625
18.759521484375 -14.2969970703125 20.216552734375
72.196044921875 -0.98974609375 1.377685546875
74.82373046875 1.5523681640625 -0.697265625
8.19580078125 23.5904541015625 5.3131103515625
77.84033203125 -26.823486328125 19.53759765625
89.926025390625 16.2987060546875 -9.71142578125
-9.11181640625 5.14453125 8.2965087890625
89.6669921875 -19.7908935546875 19.5927734375
86.478515625 -27.0753173828125 14.675537109375
-11.235107421875 15.3690185546875 7.6949462890625
46.673095703125 -4.753662109375 9.6485595703125
-25.302734375 2.1795654296875 16.12890625
-12.76611328125 -4.907958984375 15.478271484375
-59.135498046875 -33.067626953125 32.9521484375
54.439697265625 20.2196044921875 -3.0738525390625
79.612060546875 -37.03955078125 18.7462158203125
76.46875 19.439208984375 -3.0084228515625
88.559326171875 19.4036865234375 -9.840576171875
52.918701171875 8.7646484375 -2.62158203125
-11.2470703125 -11.4747314453125 17.6396484375
85.068603515625 -41.712890625 9.376953125
4.312744140625 23.0224609375 5.262939453125
89.8193359375 -33.205810546875 11.8446044921875
25.45654296875 -12.30419921875 11.724853515625
72.611083984375 6.29150390625 -3.3189697265625
75.56884765625 30.02685546875 -5.60400390625
93.09814453125 7.296875 -6.5718994140625
78.619873046875 -31.397705078125 17.8072509765625
49.580322265625 10.438720703125 -2.5762939453125
65.66357421875 31.6978759765625 -3.359619140625
98.000732421875 -16.2777099609375 1.9378662109375
90.16845703125 32.76904296875 -11.32373046875
65.938232421875 35.425048828125 -3.4400634765625
-2.087646484375 7.591552734375 7.82275390625
6.523681640625 6.5706787109375 6.58251953125
48.52099609375 17.2744140625 -1.58349609375
-8.71728515625 -2.0474853515625 11.269287109375
102.601806640625 -32.74853515625 2.5908203125
18.155517578125 -14.932861328125 23.2364501953125
47.466064453125 7.361572265625 -2.5089111328125
73.22705078125 32.5989990234375 -3.882080078125
-59.9228515625 -32.66650390625 18.5797119140625
93.776123046875 -10.9598388671875 1.262451171875
-24.5517578125 -0.1636962890625 13.591064453125
100.78564453125 -37.2939453125 -0.7491455078125
68.491455078125 -26.701904296875 24.46923828125
88.7333984375 -42.3111572265625 7.6373291015625
93.486572265625 -33.7623291015625 11.5384521484375
20.612060546875 -12.877197265625 14.4974365234375
93.932373046875 0.312744140625 -3.746826171875
7.15576171875 13.7689208984375 6.3292236328125
59.079833984375 22.0013427734375 -3.164306640625
24.26123046875 -6.1468505859375 14.469970703125
-11.263427734375 -7.66015625 15.949462890625
48.11669921875 34.246826171875 -2.1451416015625
82.51904296875 -19.291015625 21.6925048828125
88.7587890625 18.627197265625 -6.00732421875
50.410400390625 41.320556640625 -3.2755126953125
-6.655029296875 0.4022216796875 9.19287109375
-11.94775390625 -65.18798828125 9.655029296875
49.05712890625 31.8785400390625 -1.3048095703125
-34.10791015625 -4.5452880859375 17.2430419921875
65.1787109375 39.0477294921875 -3.503662109375
58.824951171875 37.746826171875 -3.3603515625
24.29296875 -11.3800048828125 13.250244140625
88.886962890625 -8.6490478515625 1.2413330078125
-28.97216796875 1.7281494140625 17.2996826171875
0.513427734375 13.9296875 6.9554443359375
46.6884765625 -2.5560302734375 9.70654296875
56.812255859375 26.620361328125 -3.1678466796875
56.076171875 41.1422119140625 -3.390869140625
66.49462890625 1.5634765625 -0.091552734375
55.368408203125 28.3831787109375 -3.215576171875
-7.96923828125 -64.26708984375 11.373291015625
10.686279296875 10.720947265625 6.02294921875
87.132080078125 -2.9940185546875 0.0650634765625
-23.607666015625 4.2926025390625 17.8536376953125
89.624755859375 13.5753173828125 -3.0096435546875
93.028076171875 -18.95849609375 6.0343017578125
90.088134765625 -2.33935546875 -2.5484619140625
47.6240234375 -4.637451171875 13.7130126953125
99.619384765625 -15.0372314453125 1.4427490234375
86.27587890625 -14.406494140625 9.572509765625
50.30078125 17.012451171875 -2.974365234375
47.172607421875 -0.6226806640625 5.043701171875
16.41748046875 -32.5145263671875 31.0496826171875
-62.489990234375 -36.94677734375 29.33837890625
92.78662109375 23.122314453125 -12.8211669921875
59.51220703125 8.481689453125 -2.8804931640625
12.61181640625 21.51025390625 4.826171875
-31.03076171875 -5.9208984375 16.6044921875
92.327392578125 -46.2716064453125 10.239501953125
-57.480712890625 -22.0103759765625 27.3194580078125
67.61865234375 25.9141845703125 -3.3214111328125
61.2138671875 25.1058349609375 -3.2325439453125
91.48828125 -43.94873046875 3.766357421875
-23.745361328125 -7.931640625 14.8199462890625
96.16796875 -28.670654296875 8.4388427734375
-28.746826171875 -9.0213623046875 17.1973876953125
95.91552734375 -38.1455078125 0.323486328125
47.06640625 -3.6114501953125 7.7991943359375
-1.831787109375 26.1871337890625 6.743408203125
-34.125732421875 -10.339111328125 20.2509765625
-58.46875 -29.6519775390625 32.946044921875
6.045166015625 0.5087890625 7.987060546875
75.991943359375 21.3453369140625 -3.0745849609375
67.807373046875 34.816650390625 -3.4281005859375
-27.1884765625 -12.230224609375 17.852294921875
-19.570068359375 -11.4373779296875 12.9530029296875
9.789306640625 4.4168701171875 6.831298828125
30.24169921875 -0.3934326171875 9.440673828125
14.475830078125 -33.89208984375 31.7567138671875
91.13916015625 -33.2635498046875 14.3311767578125
76.41650390625 35.745849609375 -5.7611083984375
-63.710205078125 -30.0830078125 22.266357421875
-0.5888671875 19.65283203125 6.547119140625
89.514404296875 -29.7435302734375 13.0537109375
23.298828125 -32.0150146484375 30.1741943359375
65.470947265625 26.635986328125 -3.4627685546875
81.617919921875 -26.5054931640625 15.85205078125
-61.66748046875 -35.1375732421875 26.7716064453125
-67.43896484375 -28.55810546875 22.3509521484375
-6.697509765625 10.6982421875 7.9278564453125
-59.64501953125 -27.4774169921875 18.8125
77.58447265625 -23.8712158203125 23.7047119140625
63.182373046875 35.904541015625 -3.37158203125
-59.678466796875 -29.100341796875 26.464111328125
1.921875 17.0499267578125 6.5853271484375
89.299560546875 -39.19287109375 3.5477294921875
6.48681640625 27.8896484375 5.775634765625
94.471923828125 -9.3951416015625 0.3533935546875
104.890869140625 -30.288818359375 5.5067138671875
92.544921875 -25.783935546875 9.3426513671875
-12.96337890625 -0.670654296875 16.223876953125
90.134765625 -22.94091796875 8.8248291015625
-59.69189453125 -29.8282470703125 17.2032470703125
48.251220703125 9.25048828125 -1.1683349609375
-70.7138671875 -32.384765625 26.090087890625
93.4267578125 -17.2603759765625 4.971923828125
23.87451171875 -13.816162109375 11.27392578125
16.81689453125 22.789306640625 3.9803466796875
86.228271484375 -13.5308837890625 5.635009765625
-9.978759765625 0.98291015625 9.150390625
-59.610107421875 -49.265380859375 26.486572265625
69.047607421875 30.99267578125 -3.5841064453125
-3.44775390625 8.96728515625 7.7376708984375
-59.62841796875 -26.5081787109375 23.7239990234375
-28.12548828125 -1.0491943359375 14.0626220703125
-31.669921875 0.8470458984375 19.9288330078125
-8.555908203125 -11.3848876953125 16.34765625
-6.348876953125 -3.0595703125 10.919921875
-5.331787109375 21.494873046875 6.8206787109375
93.775146484375 -2.32470703125 -2.4609375
-0.48681640625 23.652587890625 6.2142333984375
46.51025390625 0.01416015625 1.4923095703125
98.535888671875 4.4813232421875 -6.2816162109375
77.969970703125 -26.86572265625 22.0057373046875
-11.734619140625 15.99462890625 9.876220703125
92.7744140625 -6.4744873046875 -0.33447265625
-10.26416015625 16.9947509765625 7.4185791015625
79.552734375 -35.1236572265625 28.083740234375
90.96240234375 25.73876953125 -7.6287841796875
11.800048828125 7.7838134765625 6.259033203125
92.784423828125 -36.8388671875 3.145263671875
-35.1318359375 -8.285888671875 22.712646484375
-12.49755859375 19.1107177734375 9.2625732421875
93.0517578125 -46.564208984375 7.2115478515625
-8.965087890625 0.9613037109375 10.957275390625
-60.854248046875 -29.8616943359375 21.25341796875
3.130859375 4.62744140625 7.067138671875
52.541015625 20.0445556640625 -2.9781494140625
82.918701171875 -27.9835205078125 15.230712890625
-24.688720703125 -6.2647705078125 14.404052734375
79.04931640625 -33.472900390625 20.765869140625
47.427001953125 26.0865478515625 -2.7464599609375
83.396484375 -35.7630615234375 6.271484375
75.0283203125 12.0224609375 -3.725341796875
27.078857421875 -9.49072265625 14.1995849609375
7.14404296875 -16.672119140625 21.312255859375
94.4404296875 -39.44091796875 0.894287109375
7.855224609375 26.1490478515625 5.069580078125
-59.171630859375 -30.410888671875 30.5396728515625
94.07373046875 -20.7921142578125 4.8662109375
78.98193359375 -33.9239501953125 25.6612548828125
-59.36328125 -29.3680419921875 28.439453125
89.34912109375 13.0203857421875 -8.0577392578125
-34.10498046875 -3.7955322265625 20.9539794921875
90.082763671875 20.4005126953125 -5.759765625
90.728515625 0.570556640625 -3.6832275390625
97.633056640625 -1.50390625 -4.3065185546875
51.760986328125 35.056396484375 -3.3197021484375
79.441650390625 -27.031494140625 15.0078125
-26.526611328125 -8.7767333984375 16.5804443359375
-33.698486328125 -1.9393310546875 21.1871337890625
90.736083984375 -35.978271484375 8.8511962890625
-28.548828125 0.3394775390625 15.68115234375
50.09326171875 6.7890625 -3.048828125
72.52880859375 14.2398681640625 -3.325927734375
5.59814453125 16.87109375 7.9852294921875
21.036865234375 -15.7021484375 18.42138671875
52.36376953125 10.6929931640625 -2.751220703125
62.441650390625 1.7647705078125 -0.0313720703125
78.826171875 -21.099365234375 21.830078125
-24.422607421875 -13.768798828125 11.403076171875
-24.69189453125 -12.0228271484375 13.048583984375
20.612060546875 -8.0982666015625 15.3597412109375
88.190185546875 13.492431640625 -6.3197021484375
63.876708984375 7.7513427734375 -2.703125
-14.888671875 -67.7958984375 11.87060546875
42.81494140625 4.290283203125 -8.380859375
90.118408203125 -42.8779296875 2.0948486328125
95.08154296875 -43.05810546875 -1.606201171875
3.899658203125 21.584716796875 6.639404296875
78.947998046875 -33.43115234375 22.6468505859375
17.1669921875 10.6640625 5.187744140625
61.91064453125 20.143798828125 -3.4161376953125
75.34228515625 33.096923828125 -5.7645263671875
13.176513671875 4.301025390625 6.282470703125
92.4521484375 -11.822998046875 2.273681640625
78.344482421875 -28.916748046875 19.6497802734375
-36.355712890625 -14.674560546875 20.4559326171875
-29.124267578125 -3.46142578125 14.0640869140625
1.171875 20.1962890625 6.8731689453125
-10.071044921875 7.5892333984375 8.1748046875
102.16259765625 -34.9820556640625 -0.0948486328125
79.303466796875 -25.556884765625 16.60009765625
-43.984619140625 -18.2689208984375 26.226318359375
74.437744140625 6.930908203125 -4.0296630859375
90.271484375 7.390625 -6.794189453125
20.66650390625 -14.2191162109375 16.5914306640625
86.245361328125 -23.2091064453125 14.3914794921875
-57.865478515625 -34.3070068359375 14.1263427734375
86.24853515625 -32.203125 13.0565185546875
-58.46240234375 -24.4190673828125 27.76806640625
-21.8232421875 -8.368896484375 14.17724609375
75.00537109375 10.247802734375 -4.3453369140625
88.131591796875 -21.5789794921875 16.833984375
99.26220703125 -17.6768798828125 3.1422119140625
78.661376953125 -30.4608154296875 22.47265625
-27.635498046875 -14.5692138671875 19.8690185546875
-18.36474609375 -3.6895751953125 13.6607666015625
15.138916015625 11.8746337890625 5.3043212890625
-64.997802734375 -29.95166015625 24.5009765625
8.91259765625 10.1790771484375 6.1494140625
87.98583984375 -6.4935302734375 0.5216064453125
74.76708984375 18.7103271484375 -3.1429443359375
32.26416015625 -31.4718017578125 28.8306884765625
0.091064453125 15.7294921875 6.8157958984375
67.610595703125 11.192138671875 -3.06591796875
62.57373046875 13.06103515625 -1.4676513671875
-69.98779296875 -27.5902099609375 21.516845703125
-61.039794921875 -35.757568359375 24.68115234375
77.548828125 24.2041015625 -5.16015625
-28.037841796875 -11.46044921875 19.4080810546875
95.4111328125 6.950439453125 -6.0595703125
9.658935546875 24.6617431640625 4.9454345703125
76.35693359375 26.42431640625 -3.3243408203125
90.867919921875 26.7911376953125 -13.2467041015625
-18.800537109375 -66.7498779296875 8.0103759765625
79.687255859375 -33.2645263671875 9.5240478515625
21.220703125 -26.0850830078125 27.938232421875
50.537109375 4.4525146484375 -3.3406982421875
97.64892578125 -30.2138671875 9.2978515625
1.27685546875 26.6202392578125 6.4805908203125
-19.0830078125 -68.847412109375 8.2879638671875
87.07470703125 -15.2447509765625 5.80126953125
19.940185546875 -16.095458984375 16.612548828125
80.224365234375 -2.6083984375 3.172607421875
88.627197265625 20.35888671875 -7.7020263671875
69.78173828125 22.1494140625 -3.5595703125
50.822021484375 39.532958984375 -3.212646484375
20.666748046875 -34.4771728515625 31.7110595703125
-7.086669921875 15.73193359375 7.55859375
95.3583984375 -15.7236328125 2.201171875
98.16796875 -32.815673828125 9.45556640625
90.586669921875 32.016845703125 -14.6219482421875
83.8984375 -43.1446533203125 12.48291015625
-73.5283203125 -39.0045166015625 18.8363037109375
48.602294921875 13.358642578125 -3.0693359375
95.767578125 -34.7158203125 7.8267822265625
-73.221923828125 -41.4061279296875 21.2740478515625
61.450927734375 18.159423828125 -3.2706298828125
-33.657470703125 -9.663818359375 17.3282470703125
-73.399658203125 -45.819091796875 26.0771484375
71.532470703125 23.7135009765625 -3.5377197265625
86.06396484375 -39.2591552734375 5.5694580078125
94.756591796875 -23.88525390625 4.6986083984375
66.1513671875 14.339599609375 -2.864501953125
50.4443359375 22.48583984375 -2.99169921875
86.502685546875 -46.6856689453125 13.68896484375
92.96630859375 18.27978515625 -11.5433349609375
-8.65380859375 -6.68115234375 13.5657958984375
63.46826171875 3.9794921875 -1.7825927734375
61.612060546875 30.0689697265625 -3.4766845703125
88.557861328125 -12.626953125 3.1614990234375
58.41259765625 20.0474853515625 -4.4447021484375
85.92529296875 -24.9510498046875 15.99267578125
21.12060546875 -16.583740234375 13.6597900390625
-64.409423828125 -28.8370361328125 21.1517333984375
96.272216796875 -13.2998046875 1.2366943359375
-21.90673828125 0.72021484375 14.7750244140625
-56.885986328125 -25.437744140625 32.400146484375
74.29541015625 27.109130859375 -3.4019775390625
69.32421875 20.1494140625 -3.4129638671875
78.661865234375 -23.875732421875 18.4158935546875
-72.767822265625 -35.9771728515625 16.4443359375
-25.314453125 -9.2982177734375 15.1640625
0.041259765625 21.838623046875 6.4140625
21.47412109375 -28.9132080078125 29.1051025390625
27.491943359375 -14.036865234375 11.2044677734375
88.607177734375 25.0213623046875 -11.1639404296875
-58.837646484375 -23.65478515625 24.3544921875
8.766357421875 0.6435546875 7.519775390625
101.70458984375 -38.1378173828125 3.5660400390625
79.638671875 -36.5648193359375 15.31103515625
-60.695556640625 -33.3853759765625 16.6185302734375
90.017578125 23.0897216796875 -5.3104248046875
4.396728515625 14.85302734375 6.5072021484375
86.05517578125 -18.4920654296875 10.646484375
65.59130859375 18.8707275390625 -2.9765625
73.447021484375 36.7666015625 -4.495849609375
99.568603515625 -29.556396484375 9.0123291015625
70.428955078125 0.9976806640625 0.7540283203125
78.98291015625 -34.389892578125 15.1326904296875
53.267822265625 36.2266845703125 -3.3076171875
79.460205078125 -37.467041015625 23.108154296875
-12.095947265625 19.7330322265625 7.6317138671875
52.63134765625 16.178955078125 -2.7052001953125
87.816162109375 -12.65673828125 10.8712158203125
86.85107421875 -10.487060546875 8.206787109375
88.59912109375 9.593017578125 0.447021484375
-29.898193359375 -7.2451171875 16.2017822265625
100.7392578125 -31.469970703125 8.3564453125
82.45458984375 -41.1612548828125 26.0615234375
86.49560546875 -41.3570556640625 7.5186767578125
-35.041748046875 -9.9957275390625 23.5848388671875
81.622314453125 -39.36181640625 26.8388671875
69.2314453125 -28.8873291015625 22.805908203125
66.918701171875 39.3480224609375 -3.2542724609375
-21.179443359375 -2.0369873046875 12.727294921875
71.99951171875 16.188720703125 -2.971923828125
80.648681640625 -40.8568115234375 23.747802734375
101.646484375 -29.91748046875 8.471923828125
57.279541015625 23.0538330078125 -3.2314453125
70.93896484375 13.052490234375 -3.33837890625
87.895263671875 16.2498779296875 -6.4267578125
89.81689453125 9.322998046875 -7.2828369140625
70.54345703125 10.135986328125 -3.01318359375
53.853515625 29.32470703125 -3.155029296875
89.930419921875 -26.60693359375 11.261474609375
-3.162109375 15.7969970703125 7.349365234375
87.9609375 7.3800048828125 -4.970947265625
-60.14111328125 -38.074462890625 27.4686279296875
73.49609375 30.81640625 -3.4666748046875
57.4091796875 20.87353515625 -3.2408447265625
54.688720703125 37.8408203125 -3.4124755859375
86.27197265625 -6.2017822265625 4.89794921875
46.87158203125 5.4344482421875 -2.42822265625
8.400146484375 14.92333984375 5.834228515625
76.73095703125 22.778564453125 -4.360595703125
89.877685546875 16.127685546875 -3.7803955078125
-26.344482421875 -15.9169921875 16.4896240234375
4.30517578125 25.061279296875 5.7086181640625
86.182861328125 -8.830322265625 9.059326171875
53.72119140625 23.87353515625 -3.1383056640625
62.11572265625 7.5185546875 -2.957763671875
97.78125 1.1385498046875 -5.59130859375
86.569580078125 -3.1961669921875 1.724609375
50.004150390625 29.382080078125 -3.081787109375
-5.751953125 -9.64404296875 14.75830078125
87.905517578125 -26.2578125 11.78857421875
50.7939453125 9.1226806640625 -2.7095947265625
-60.715576171875 -36.77783203125 18.2362060546875
85.8544921875 -32.5206298828125 11.0311279296875
-0.79296875 0.84619140625 8.08544921875
86.611083984375 -29.026611328125 14.1068115234375
86.703369140625 -16.401611328125 11.5137939453125
79.16259765625 -35.9022216796875 21.2462158203125
-0.134765625 -14.71923828125 18.619384765625
23.00146484375 -12.1412353515625 12.338623046875
61.40625 22.0509033203125 -3.06787109375
-61.003662109375 -41.0323486328125 22.0582275390625
45.5771484375 -7.37255859375 13.287841796875
94.5546875 -35.6556396484375 6.5291748046875
67.571044921875 6.8297119140625 -2.7962646484375
75.953369140625 15.2222900390625 -3.422607421875
9.4716796875 19.888427734375 7.5322265625
11.55322265625 1.18017578125 6.9945068359375
-59.7177734375 -36.6868896484375 14.9327392578125
12.59326171875 17.824462890625 5.1070556640625
15.261962890625 13.900390625 4.969482421875
13.32421875 0.875244140625 6.5802001953125
56.12939453125 32.764404296875 -3.2130126953125
12.189697265625 15.5089111328125 5.367919921875
27.27392578125 -12.195556640625 12.5545654296875
97.082763671875 -35.2620849609375 6.53076171875
2.50390625 7.3712158203125 7.082763671875
67.09423828125 17.044921875 -2.927001953125
96.5693359375 -17.1195068359375 2.4425048828125
-3.4423828125 4.0238037109375 8.3115234375
91.010009765625 -28.93310546875 12.103515625
27.12890625 -29.1651611328125 27.7431640625
70.16015625 17.7001953125 -3.0965576171875
-34.923583984375 -6.328125 22.815673828125
48.956298828125 5.49560546875 -2.869140625
-12.709228515625 -13.7711181640625 17.3785400390625
56.84619140625 34.6268310546875 -3.229248046875
67.9384765625 24.0853271484375 -3.3214111328125
47.908203125 1.2286376953125 2.338134765625
92.747314453125 -13.30859375 3.1055908203125
7.05712890625 -18.3770751953125 21.6195068359375
79.859375 10.3370361328125 -2.8134765625
-6.883544921875 -6.1849365234375 12.6029052734375
55.568359375 17.24072265625 -3.4005126953125
82.063720703125 -38.5277099609375 9.980712890625
-26.695556640625 -14.53466796875 17.744140625
-13.9091796875 -67.116943359375 7.3260498046875
-0.91357421875 12.4501953125 6.9854736328125
92.91357421875 -9.2520751953125 1.105712890625
-36.79931640625 -13.1998291015625 19.454345703125
71.08984375 28.171142578125 -3.58251953125
89.545166015625 30.373779296875 -11.191162109375
8.23046875 17.88720703125 6.8963623046875
86.338623046875 -19.4150390625 20.0135498046875
65.00537109375 20.797119140625 -3.1065673828125
103.392333984375 -29.6614990234375 8.1734619140625
63.225341796875 34.1932373046875 -3.499755859375
13.30859375 23.2969970703125 4.8087158203125
15.296142578125 24.9964599609375 4.1270751953125
-45.964111328125 -17.8101806640625 28.5020751953125
87.3310546875 -23.1429443359375 17.24267578125
90.64599609375 -44.0936279296875 8.7120361328125
-10.935302734375 -9.490966796875 16.5015869140625
79.218994140625 -35.9383544921875 26.6182861328125
-57.24072265625 -24.742919921875 30.2823486328125
66.39208984375 37.386474609375 -3.584716796875
-6.666259765625 8.6416015625 7.9346923828125
48.916748046875 25.142578125 -2.8056640625
-61.810791015625 -35.2120361328125 22.39892578125
48.04345703125 7.180908203125 -0.893310546875
64.421630859375 22.7158203125 -3.2362060546875
57.391357421875 11.428466796875 -2.94970703125
-2.43994140625 10.1956787109375 7.122802734375
99.255126953125 -36.6572265625 0.9310302734375
72.793701171875 38.197509765625 -5.45849609375
19.123779296875 -15.3382568359375 21.513427734375
73.18017578125 19.2471923828125 -3.4442138671875
91.317138671875 -41.956298828125 3.3780517578125
-58.49560546875 -26.13671875 29.4625244140625
18.689453125 -9.46435546875 19.2132568359375
94.51708984375 -24.7158203125 6.1622314453125
-19.85498046875 2.6895751953125 17.1474609375
-18.15283203125 -0.0841064453125 15.16455078125
82.87841796875 -25.592529296875 17.673828125
92.218505859375 14.6197509765625 -9.902587890625
-3.0087890625 25.018798828125 6.3985595703125
93.589599609375 -18.4754638671875 20.5726318359375
70.28173828125 8.02587890625 -3.2198486328125
100.62451171875 -35.7957763671875 -1.5201416015625
-20.80322265625 1.873779296875 15.9635009765625
79.9365234375 -39.0941162109375 20.2132568359375
-11.234130859375 -65.229248046875 11.33935546875
87.532470703125 -30.828857421875 13.8438720703125
-60.97265625 -31.9088134765625 22.09423828125
60.582763671875 32.112548828125 -3.386474609375
2.2060546875 23.4295654296875 5.86865234375
10.829833984375 18.9140625 5.348388671875
95.847900390625 1.881103515625 -4.1593017578125
-11.83935546875 7.91357421875 8.509521484375
52.28955078125 5.09228515625 -3.14501953125
21.117431640625 -11.3486328125 13.989501953125
8.14404296875 5.91650390625 6.6202392578125
64.34912109375 27.879638671875 -3.262451171875
-26.55322265625 3.1177978515625 17.416015625
9.844970703125 18.1123046875 8.067626953125
-22.420654296875 -13.8499755859375 11.1473388671875
78.917236328125 4.9254150390625 -1.8489990234375
100.119873046875 -33.1536865234375 5.975830078125
59.64404296875 12.7806396484375 -2.6683349609375
55.887451171875 10.6807861328125 -3.017333984375
80.931640625 13.515380859375 -2.4422607421875
90.0517578125 27.82177734375 -6.970703125
87.0205078125 -27.3070068359375 13.0284423828125
100.744384765625 -28.12353515625 8.295166015625
74.26171875 15.3839111328125 -3.2476806640625
-8.321044921875 -3.0567626953125 12.54541015625
55.4208984375 14.302978515625 -2.953857421875
85.190185546875 -44.1793212890625 12.23681640625
59.064208984375 27.54443359375 -3.2449951171875
50.2451171875 36.414306640625 -2.9100341796875
-10.363037109375 9.341064453125 8.0965576171875
9.700927734375 8.2066650390625 6.48046875
97.141357421875 -36.7353515625 2.965576171875
98.4443359375 -26.742431640625 7.13623046875
13.708251953125 8.68896484375 5.681396484375
34.000732421875 2.910888671875 12.8087158203125
47.19140625 4.06982421875 0.1763916015625
61.9423828125 37.15869140625 -3.2369384765625
19.074462890625 -12.2420654296875 19.50439453125
91.222900390625 23.64892578125 -12.6153564453125
20.733642578125 -9.885009765625 15.3194580078125
96.739990234375 -34.1490478515625 9.572021484375
87.85791015625 -18.2149658203125 14.219482421875
-61.2314453125 -28.961181640625 23.3994140625
88.529541015625 15.9293212890625 -8.84716796875
85.265869140625 -27.5184326171875 16.1544189453125
85.774658203125 -21.5513916015625 19.66259765625
99.45751953125 -33.82861328125 8.219970703125
48.21484375 3.9664306640625 -6.9058837890625
14.40478515625 2.1217041015625 6.4112548828125
67.243896484375 18.7183837890625 -3.148681640625
99.106201171875 -5.6898193359375 -3.529541015625
89.937255859375 5.7357177734375 -6.2059326171875
-59.94287109375 -31.009765625 18.61279296875
-16.63525390625 -66.686279296875 9.4783935546875
34.154296875 0.2130126953125 9.79296875
95.796875 -7.1671142578125 -1.343017578125
-73.211669921875 -38.6539306640625 17.2440185546875
61.531982421875 11.65087890625 -3.0140380859375
-9.320556640625 20.640869140625 7.1365966796875
-58.8095703125 -28.9722900390625 31.272705078125
73.3134765625 12.6513671875 -3.1846923828125
95.20361328125 -34.4710693359375 10.9205322265625
89.69921875 28.4852294921875 -13.0750732421875
66.90283203125 -28.8497314453125 24.6260986328125
86.1552734375 -20.389892578125 11.486328125
72.64013671875 25.0775146484375 -3.303466796875
17.446044921875 24.6197509765625 4.3560791015625
59.017333984375 17.74462890625 -2.8995361328125
9.3515625 20.303955078125 5.6602783203125
47.820556640625 10.2392578125 -2.4176025390625
90.046875 -21.83251953125 19.6302490234375
51.033203125 24.3919677734375 -3.0714111328125
44.78564453125 -7.0411376953125 14.6964111328125
-19.950439453125 -12.9171142578125 12.2054443359375
-59.14697265625 -26.5933837890625 20.588623046875
84.385009765625 -38.550048828125 6.18994140625
86.885498046875 -35.3280029296875 7.16064453125
47.908447265625 27.614990234375 -2.3677978515625
41.69091796875 -7.99755859375 16.1998291015625
50.31982421875 25.9022216796875 -3.2080078125
-58.906005859375 -24.3638916015625 22.7674560546875
-60.301513671875 -33.02294921875 21.015625
15.732177734375 15.7908935546875 4.8251953125
89.23388671875 -20.1331787109375 16.5750732421875
65.775146484375 10.9866943359375 -2.9027099609375
53.560546875 13.2679443359375 -2.684326171875
18.92822265625 -9.5616455078125 17.09033203125
-71.40234375 -36.2186279296875 15.162109375
95.180908203125 10.5675048828125 -7.64013671875
96.38916015625 -37.8616943359375 1.8924560546875
47.39208984375 3.9324951171875 -2.827392578125
-24.926025390625 -1.6258544921875 12.853515625
96.259033203125 -26.8187255859375 7.2159423828125
-60.822509765625 -37.9144287109375 24.0164794921875
-10.260498046875 2.3365478515625 10.0245361328125
92.8330078125 -22.147216796875 7.42919921875
9.135498046875 22.021240234375 5.6475830078125
89.291015625 15.5113525390625 -2.0848388671875
82.849609375 -42.2197265625 13.325927734375
25.790283203125 -26.760986328125 27.53662109375
12.41650390625 28.5142822265625 4.649169921875
-4.223388671875 12.9608154296875 7.40283203125
-8.185791015625 10.0811767578125 8.1728515625
-30.4052734375 1.5308837890625 18.3001708984375
-26.143310546875 0.1148681640625 14.418212890625
77.506591796875 -24.8006591796875 20.4700927734375
89.106689453125 -31.473876953125 14.1365966796875
90.104736328125 -18.5325927734375 20.528564453125
-4.785400390625 -10.917724609375 15.06494140625
87.8046875 -44.3275146484375 9.984130859375
84.059326171875 -44.6678466796875 14.2513427734375
75.986572265625 31.6043701171875 -5.6942138671875
-7.47802734375 12.2349853515625 7.65380859375
83.47607421875 -44.91064453125 15.9759521484375
92.982177734375 -44.099853515625 2.4813232421875
86.506103515625 -18.1806640625 12.2093505859375
78.467041015625 -30.384033203125 20.44482421875
88.27490234375 9.9073486328125 -6.166015625
-58.65771484375 -23.0447998046875 26.8951416015625
91.022705078125 -44.2222900390625 2.1956787109375
46.977783203125 3.552001953125 -8.240478515625
-10.441162109375 11.0009765625 8.142822265625
-59.780517578125 -38.94482421875 18.392333984375
95.970947265625 -10.4368896484375 -0.2825927734375
94.172607421875 19.6328125 -11.73486328125
93.705810546875 -15.0577392578125 3.7808837890625
-41.83935546875 -16.6944580078125 22.7020263671875
13.802734375 20.2391357421875 4.7779541015625
-8.086669921875 22.56396484375 6.93115234375
3.812744140625 13.0299072265625 6.5877685546875
62.74169921875 27.5618896484375 -3.448486328125
70.711669921875 5.66796875 -3.0977783203125
61.293701171875 40.311767578125 -3.1829833984375
20.26220703125 -15.3778076171875 19.7999267578125
91.89111328125 -19.727294921875 19.090576171875
53.220947265625 21.5074462890625 -2.940185546875
11.185302734375 20.825927734375 5.142333984375
86.91162109375 -7.31689453125 6.7572021484375
62.214599609375 3.1533203125 -0.818359375
-5.395751953125 17.8916015625 7.1004638671875
87.7880859375 4.375732421875 -2.7181396484375
83.13916015625 -20.494140625 20.2530517578125
87.11279296875 4.2508544921875 -0.2064208984375
-60.693359375 -34.98095703125 15.7110595703125
94.803955078125 -36.7237548828125 2.984130859375
-60.334228515625 -43.096435546875 22.4781494140625
15.243408203125 8.080810546875 5.6531982421875
87.5263671875 -34.643310546875 8.740478515625
68.347412109375 38.4613037109375 -3.380126953125
-31.5 -11.1005859375 18.79345703125
91.798828125 -23.134765625 8.5941162109375
-8.064697265625 3.885986328125 8.6446533203125
87.66259765625 6.6539306640625 -3.13916015625
49.41064453125 14.7750244140625 -2.967529296875
7.092529296875 16.2908935546875 7.962890625
78.886474609375 -31.9794921875 21.394287109375
91.630126953125 -14.259765625 3.746826171875
94.9404296875 -44.4486083984375 1.407958984375
85.846923828125 -15.6474609375 8.6572265625
92.47705078125 -44.8687744140625 7.183837890625
86.447265625 -12.16064453125 9.263916015625
96.18994140625 -2.7899169921875 -3.7459716796875
45.010009765625 3.911376953125 -6.500244140625
82.079345703125 -42.9149169921875 23.2774658203125
89.147705078125 -5.583984375 -0.548828125
89.74560546875 22.2135009765625 -7.09716796875
93.758056640625 -45.8931884765625 5.94775390625
-61.750244140625 -33.2239990234375 23.2540283203125
81.202880859375 -43.4852294921875 21.050048828125
91.504150390625 -3.751220703125 -1.7508544921875
-59.265625 -27.2574462890625 26.691650390625
60.758544921875 41.7611083984375 -2.785400390625
93.406494140625 -41.8720703125 -1.027587890625
-69.001220703125 -29.7738037109375 22.1771240234375
27.807373046875 -31.310302734375 29.4415283203125
78.947265625 -33.42724609375 13.518310546875
-7.62451171875 -0.8433837890625 8.9671630859375
91.671875 -30.6259765625 12.66455078125
1.5537109375 12.6959228515625 6.85009765625
78.310546875 -29.8504638671875 18.3599853515625
93.45361328125 -39.5047607421875 -0.43408203125
2.771240234375 10.978271484375 6.9239501953125
-23.541748046875 3.0460205078125 16.865966796875
-10.873779296875 -13.3265380859375 17.33984375
-35.281494140625 -10.254638671875 21.775146484375
77.43017578125 -23.352783203125 21.6173095703125
59.417236328125 11.1217041015625 -2.9266357421875
78.15185546875 -31.6798095703125 11.927490234375
-9.453857421875 -4.65087890625 12.3076171875
102.718017578125 -35.6617431640625 4.5355224609375
-2.922119140625 19.3465576171875 6.74462890625
4.78759765625 4.3658447265625 7.0516357421875
78.57373046875 -31.380615234375 15.8687744140625
-10.523681640625 19.51416015625 7.617919921875
-15.5390625 -0.3919677734375 16.1455078125
22.776123046875 -25.869873046875 27.2705078125
81.09228515625 -29.130859375 12.7396240234375
88.169677734375 10.96826171875 -2.71728515625
78.21484375 16.6202392578125 -3.6248779296875
-23.4873046875 -10.9034423828125 12.566650390625
86.203857421875 -43.1607666015625 10.0880126953125
0.474853515625 2.8143310546875 7.874755859375
11.5732421875 12.4422607421875 5.674560546875
51.45849609375 21.2864990234375 -2.7811279296875
89.270751953125 28.34814453125 -10.0784912109375
90.90771484375 -25.58837890625 10.5418701171875
81.500244140625 -22.66650390625 19.441162109375
94.98046875 -22.0869140625 4.9716796875
47.584228515625 17.14794921875 -2.85400390625
-1.553955078125 16.3814697265625 7.1650390625
88.832763671875 13.0404052734375 -0.9473876953125
94.60986328125 -13.1256103515625 1.479736328125
-8.1669921875 24.197509765625 6.978515625
-17.040283203125 -2.205810546875 14.024658203125
90.239990234375 11.3642578125 -8.35107421875
-34.33935546875 -4.8955078125 19.7796630859375
88.680908203125 23.3509521484375 -9.0650634765625
54.363037109375 41.284423828125 -3.2861328125
48.623779296875 39.8309326171875 -3.3594970703125
11.615234375 3.6746826171875 6.5372314453125
-59.74169921875 -28.3233642578125 20.2335205078125
-15.06103515625 -66.723876953125 10.68603515625
78.890869140625 -32.9312744140625 18.6746826171875
5.74658203125 20.4951171875 7.7615966796875
11.0146484375 22.9346923828125 5.07666015625
83.179931640625 -29.04052734375 14.089111328125
-5.768798828125 11.9530029296875 7.702392578125
93.076416015625 -29.310302734375 10.148193359375
-4.41552734375 -8.1038818359375 13.3521728515625
7.946533203125 4.3284912109375 6.83837890625
-71.6611328125 -28.0089111328125 22.779296875
86.745361328125 -12.362060546875 4.7158203125
76.771484375 17.1484375 -2.9517822265625
-21.93505859375 3.17333984375 16.818359375
5.943603515625 22.4154052734375 5.747314453125
-5.535400390625 1.587890625 8.6396484375
-33.233154296875 -1.2880859375 18.2742919921875
36.362548828125 1.9561767578125 10.9345703125
74.153076171875 32.2274169921875 -5.2205810546875
78.47314453125 -28.040771484375 15.720703125
81.169189453125 -31.0540771484375 10.246826171875
18.98095703125 -11.3375244140625 22.002197265625
-21.982177734375 -11.5870361328125 12.618896484375
73.3818359375 35.1195068359375 -3.797119140625
79.6455078125 -30.8892822265625 11.950927734375
10.197509765625 16.69189453125 5.4827880859375
15.631103515625 21.1920166015625 4.59521484375
93.666259765625 -25.307861328125 7.340087890625
46.311767578125 -1.1793212890625 3.8619384765625
-3.40185546875 14.2603759765625 7.114501953125
81.575927734375 -43.625732421875 18.3272705078125
87.76123046875 -21.9986572265625 8.6312255859375
90.65771484375 -39.7625732421875 1.8125
86.181396484375 -12.087646484375 7.72509765625
13.69384765625 -38.5577392578125 33.736083984375
82.947021484375 -32.264404296875 9.771728515625
5.44970703125 13.615966796875 6.4002685546875
-35.32177734375 -14.2967529296875 19.1951904296875
-43.56787109375 -16.7943115234375 25.68017578125
-26.86767578125 -14.3785400390625 14.5875244140625
89.0068359375 17.5108642578125 -9.3619384765625
10.177978515625 28.1376953125 5.36767578125
-10.284423828125 8.09228515625 10.1121826171875
-11.197021484375 5.195556640625 9.39453125
-40.996826171875 -15.4627685546875 23.3154296875
-62.2880859375 -33.91552734375 25.6964111328125
-27.411865234375 -13.3980712890625 18.8592529296875
65.65966796875 15.81787109375 -2.8748779296875
89.080078125 -33.8592529296875 9.7303466796875
77.440673828125 14.2562255859375 -3.552001953125
88.179931640625 8.7740478515625 -1.434814453125
59.406494140625 24.0155029296875 -3.3731689453125
89.515380859375 10.5555419921875 -1.181396484375
13.566650390625 13.7364501953125 5.5018310546875
-64.169189453125 -36.883544921875 29.2281494140625
55.27294921875 39.7308349609375 -3.49169921875
63.364013671875 32.028564453125 -3.509521484375
87.88134765625 -29.0762939453125 13.2132568359375
-35.162841796875 -6.5931396484375 21.0128173828125
-27.89453125 -10.6663818359375 18.0067138671875
48.88671875 37.28662109375 -2.7879638671875
-11.217529296875 10.919189453125 9.484130859375
82.74462890625 -41.2110595703125 12.1517333984375
-33.85888671875 -3.0311279296875 17.468505859375
88.43701171875 1.4287109375 -2.89892578125
14.8564453125 17.78173828125 4.8916015625
91.834716796875 2.8441162109375 -4.987548828125
-33.836669921875 -12.486572265625 18.2891845703125
79.83154296875 -37.635498046875 26.221923828125
4.776611328125 7.69287109375 6.81982421875
-59.95458984375 -40.4786376953125 17.79296875
64.19921875 40.2177734375 -3.240966796875
-59.4404296875 -31.48828125 15.176025390625
78.70703125 -22.00537109375 20.0194091796875
-64.733154296875 -28.4827880859375 25.1580810546875
75.316650390625 35.7442626953125 -4.431884765625
-17.501953125 2.095703125 16.7677001953125
-7.52001953125 19.5377197265625 7.413330078125
82.371826171875 -43.472900390625 16.2255859375
-26.69873046875 -15.6805419921875 13.658447265625
-42.103515625 -16.20361328125 24.1795654296875
-62.420654296875 -32.1094970703125 24.331298828125
57.865966796875 18.5604248046875 -3.533203125
93.049560546875 -35.988525390625 6.45068359375
93.45068359375 -26.62939453125 8.42333984375
72.892333984375 27.9947509765625 -3.691162109375
86.08203125 -10.219970703125 6.8988037109375
85.630126953125 -0.1220703125 1.7574462890625
97.73193359375 8.3475341796875 -7.204345703125
91.836181640625 -35.0067138671875 7.2294921875
-35.092529296875 -12.3536376953125 19.74951171875
6.03466796875 10.4974365234375 6.43701171875
-59.954833984375 -41.102294921875 20.9351806640625
96.489990234375 -5.6083984375 -2.2484130859375
-28.164794921875 3.0052490234375 17.016357421875
67.542236328125 22.0550537109375 -3.590576171875
88.32763671875 -15.28271484375 4.9134521484375
98.261962890625 2.76806640625 -6.1204833984375
90.7578125 -19.775390625 17.6468505859375
-60.357421875 -38.867919921875 15.5035400390625
2.914794921875 15.434326171875 6.5328369140625
12.0380859375 25.8040771484375 4.5709228515625
-2.944091796875 1.3304443359375 8.2359619140625
91.9130859375 -34.5517578125 10.5380859375
-7.6435546875 -10.08984375 15.658447265625
75.688720703125 27.897216796875 -4.3004150390625
-19.873779296875 -10.49267578125 14.3314208984375
-73.111572265625 -43.319091796875 23.92578125
-23.4365234375 -2.280517578125 12.906005859375
61.146728515625 5.2657470703125 -2.5340576171875
87.927490234375 0.284912109375 -1.9969482421875
-71.431640625 -27.4144287109375 24.4678955078125
86.514404296875 -23.3011474609375 15.9593505859375
93.689208984375 -34.3310546875 9.793212890625
61.630859375 9.0057373046875 -2.968017578125
-13.606201171875 -2.0537109375 16.18798828125
46.75341796875 4.1348876953125 -4.90966796875
-58.363525390625 -27.556396484375 31.62353515625
51.438232421875 13.6116943359375 -2.7718505859375
95.9267578125 14.26708984375 -9.2996826171875
2.5205078125 3.21630859375 7.4866943359375
-61.1826171875 -34.571044921875 20.0302734375
90.391357421875 31.4638671875 -10.12841796875
-59.530517578125 -26.2337646484375 25.4345703125
87.6708984375 -38.5069580078125 3.7275390625
88.826171875 27.09375 -11.854736328125
-22.564453125 -9.691650390625 14.077880859375
-6.112548828125 3.89501953125 8.316650390625
102.313720703125 -30.67919921875 6.9400634765625
-14.365966796875 -5.4610595703125 15.6500244140625
15.292724609375 -31.5423583984375 30.7489013671875
