28.0048828125 21.0341796875 -2.0206298828125
-38.0009765625 -6.66552734375 20.6138916015625
-16.061279296875 4.0963134765625 8.2255859375
37.32666015625 14.983642578125 -3.0640869140625
60.08447265625 -5.76806640625 16.380615234375
102.113525390625 -10.0125732421875 -5.7445068359375
32.39990234375 17.742431640625 -2.7474365234375
-22.16650390625 -5.11572265625 16.1739501953125
53.842529296875 10.2747802734375 -1.641845703125
-17.760009765625 15.1624755859375 7.508544921875
-3.7568359375 27.80517578125 5.28466796875
81.0966796875 -6.94921875 7.174072265625
69.095947265625 11.7027587890625 -6.0782470703125
62.6962890625 -25.49169921875 18.4229736328125
53.5498046875 27.6619873046875 -3.46533203125
84.00439453125 -35.9937744140625 18.327392578125
56.186767578125 -30.7918701171875 19.50927734375
-7.52294921875 12.5645751953125 7.01171875
-5.969482421875 -0.654541015625 13.4361572265625
32.091552734375 -3.0989990234375 14.445556640625
65.875732421875 -4.840087890625 2.091552734375
10.94482421875 -3.193359375 15.7266845703125
73.8740234375 -24.4315185546875 9.0498046875
46.30712890625 -25.11474609375 26.145751953125
103.007080078125 -20.6722412109375 5.6605224609375
-18.88232421875 4.89208984375 7.7410888671875
83.390380859375 -5.917724609375 14.4652099609375
-85.68212890625 -20.8447265625 22.0673828125
78.239501953125 -31.5250244140625 11.223876953125
48.371337890625 3.298583984375 2.1842041015625
7.7783203125 0.031005859375 14.821533203125
-17.197998046875 -5.83984375 17.3353271484375
12.715576171875 -1.2264404296875 15.5123291015625
-79.78466796875 -17.689208984375 27.9525146484375
-44.993408203125 -1.804443359375 15.9078369140625
72.163818359375 21.7459716796875 -10.668701171875
-6.44775390625 19.48193359375 5.19384765625
-6.635498046875 14.83642578125 6.35546875
-11.746337890625 16.328857421875 6.5555419921875
48.140380859375 -5.5931396484375 16.87451171875
59.13037109375 -18.8438720703125 22.8658447265625
74.134033203125 -32.106201171875 11.5159912109375
-29.262939453125 -8.0836181640625 19.6854248046875
-17.161376953125 8.2611083984375 6.7230224609375
95.91650390625 -24.2431640625 11.9422607421875
26.32177734375 4.9830322265625 0.91015625
-87.1962890625 -39.9847412109375 29.6578369140625
2.95947265625 0.1002197265625 12.8741455078125
92.19189453125 -23.4964599609375 19.7073974609375
28.47314453125 12.38525390625 -1.7430419921875
37.511474609375 11.419921875 -2.5078125
50.225830078125 10.8089599609375 -1.672607421875
19.600830078125 -3.0833740234375 15.8262939453125
-90.396240234375 -28.0389404296875 19.87255859375
-83.216064453125 -19.2578125 22.30908203125
-10.78076171875 -8.13525390625 20.7454833984375
74.213134765625 -16.126220703125 2.7337646484375
101.565673828125 -22.6773681640625 10.7764892578125
-13.4482421875 23.424560546875 5.001708984375
56.275146484375 -22.03857421875 19.5400390625
76.64111328125 -28.940185546875 13.2222900390625
-89.31005859375 -29.651123046875 18.225341796875
71.972412109375 -46.229248046875 18.1396484375
81.635009765625 26.7117919921875 -13.5302734375
-45.513427734375 -11.460205078125 16.81982421875
-35.276611328125 -4.1611328125 17.8521728515625
34.200439453125 3.8441162109375 2.264892578125
70.331298828125 19.382080078125 -10.477294921875
38.619140625 24.1009521484375 -3.049072265625
-79.3017578125 -15.4390869140625 27.0382080078125
39.103515625 3.3443603515625 2.5968017578125
-86.893798828125 -43.4864501953125 32.7713623046875
30.621337890625 5.3968505859375 0.0333251953125
-85.17041015625 -38.12255859375 27.158447265625
-50.82666015625 -9.7158203125 24.6405029296875
38.414794921875 -7.2642822265625 18.6776123046875
32.428466796875 -1.045166015625 11.2728271484375
71.825927734375 -11.1973876953125 3.900146484375
-8.564453125 -9.8006591796875 22.7813720703125
-44.096435546875 -9.5191650390625 13.324462890625
44.21337890625 6.9593505859375 -1.408935546875
43.29443359375 1.5523681640625 5.6015625
-50.5263671875 -7.5745849609375 21.6094970703125
3.9462890625 -1.5264892578125 14.7022705078125
78.443359375 -39.6351318359375 13.6519775390625
-54.1220703125 -6.9892578125 21.71044921875
63.681640625 -23.1190185546875 18.0438232421875
42.04638671875 15.8841552734375 -2.3123779296875
-4.797119140625 -4.53759765625 17.8016357421875
-2.46044921875 1.18505859375 11.525390625
86.406005859375 -33.6282958984375 23.951171875
-89.7919921875 -24.18994140625 22.7427978515625
1.1171875 -10.4652099609375 11.8609619140625
-20.125 15.702392578125 7.6380615234375
-4.646240234375 5.0054931640625 8.5491943359375
-33.2802734375 14.9945068359375 9.2701416015625
97.7431640625 1.606689453125 -15.73583984375
3.013427734375 -12.185546875 16.80712890625
-15.086181640625 -7.241455078125 18.6783447265625
43.239013671875 20.7099609375 -2.7283935546875
-1.943359375 -12.8304443359375 16.7464599609375
-31.5439453125 5.318359375 9.0399169921875
67.042724609375 -43.61572265625 15.739990234375
63.4755859375 -30.90283203125 11.1824951171875
63.363525390625 -44.7763671875 19.3544921875
35.5703125 4.9775390625 0.6341552734375
100.020751953125 -20.33740234375 6.521240234375
92.959716796875 -25.4976806640625 14.9134521484375
54.96240234375 -3.070556640625 13.1492919921875
-48.65234375 -10.130615234375 16.68994140625
33.729248046875 22.3909912109375 -2.3878173828125
32.83447265625 12.87548828125 -2.346923828125
-12.808349609375 31.1138916015625 5.4754638671875
83.994384765625 -40.07275390625 22.6278076171875
58.353759765625 -38.29736328125 19.7122802734375
62.023681640625 -44.1190185546875 32.9190673828125
66.811767578125 13.7747802734375 -6.333984375
8.457275390625 -2.4046630859375 15.1898193359375
48.388427734375 -7.6339111328125 18.7664794921875
64.930419921875 -8.662841796875 4.648193359375
-31.64404296875 9.8631591796875 8.9886474609375
104.3349609375 -16.03271484375 -1.8284912109375
6.4990234375 -13.30029296875 16.2332763671875
-21.372802734375 -0.1322021484375 13.1832275390625
-23.633056640625 17.480224609375 7.59033203125
-33.4892578125 19.66552734375 8.146240234375
-26.48876953125 10.6116943359375 7.9320068359375
74.109375 7.93212890625 -8.380126953125
80.044189453125 -27.3599853515625 17.115234375
68.6767578125 -38.4945068359375 9.2918701171875
1.2822265625 -5.4237060546875 15.3385009765625
-42.3271484375 7.8170166015625 16.4595947265625
76.7509765625 14.6571044921875 -11.651611328125
-41.782958984375 -2.2857666015625 16.126708984375
53.805419921875 20.7322998046875 -2.850341796875
-11.552978515625 3.0013427734375 9.352783203125
78.5205078125 5.8968505859375 -7.7774658203125
74.01318359375 30.0675048828125 -11.72900390625
94.74609375 8.7921142578125 -15.280517578125
47.65673828125 32.3037109375 -2.7379150390625
-83.453857421875 -22.49951171875 18.783203125
93.75 -7.7073974609375 -5.9766845703125
-85.644287109375 -27.5145263671875 19.513916015625
87.5576171875 -2.9830322265625 11.8643798828125
4.849365234375 -10.4854736328125 12.36279296875
3.3447265625 -3.9913330078125 14.7581787109375
60.365966796875 -41.3876953125 19.1636962890625
62.37548828125 -21.3271484375 21.8448486328125
-19.16015625 22.169677734375 8.3759765625
92.8994140625 0.6956787109375 6.1524658203125
73.559326171875 4.500732421875 -6.1434326171875
12.076904296875 4.5775146484375 9.2335205078125
54.113037109375 7.16455078125 -0.9080810546875
55.82861328125 -4.9398193359375 15.7047119140625
30.7236328125 26.4500732421875 -3.0513916015625
-22.635986328125 22.4619140625 6.2564697265625
98.324462890625 -35.8707275390625 27.677490234375
99.7705078125 -14.94970703125 0.0633544921875
27.57763671875 -1.1646728515625 11.685791015625
75.904541015625 -19.572509765625 5.65625
-13.2548828125 18.366455078125 6.222412109375
74.929931640625 -43.9151611328125 16.0125732421875
-83.093017578125 -24.1632080078125 20.49462890625
-10.784423828125 8.665771484375 6.067138671875
52.09716796875 -8.191162109375 18.8082275390625
72.056884765625 -6.5172119140625 2.876708984375
-20.61572265625 27.5357666015625 6.6094970703125
-8.92041015625 24.52294921875 4.98828125
93.985595703125 -4.1895751953125 -6.5701904296875
90.87255859375 -10.037841796875 -1.3587646484375
29.876953125 8.0592041015625 -0.8363037109375
-82.9189453125 -27.258544921875 17.5196533203125
-82.892578125 -40.926513671875 27.8966064453125
67.03564453125 6.56787109375 -4.141357421875
76.33251953125 -10.87353515625 -0.4404296875
79.941650390625 9.727783203125 -8.5794677734375
73.916259765625 -39.239501953125 10.7061767578125
-39.318603515625 1.2537841796875 14.223876953125
-48.058837890625 -12.0728759765625 15.5924072265625
-1.79736328125 -11.8499755859375 22.3780517578125
3.2666015625 3.97412109375 10.3582763671875
74.086181640625 17.53125 -9.4017333984375
67.9130859375 24.6610107421875 -11.0615234375
96.92724609375 -27.603759765625 13.7431640625
85.70458984375 -29.052734375 14.410400390625
94.139892578125 -2.487548828125 -9.2216796875
60.083984375 -22.8985595703125 20.114990234375
99.9931640625 -11.1885986328125 -4.32861328125
-7.84423828125 6.2537841796875 8.14306640625
104.59716796875 -24.6802978515625 8.1541748046875
84.947509765625 0.8956298828125 7.295166015625
71.263671875 8.783935546875 -5.89990234375
86.5166015625 -0.4097900390625 8.84228515625
64.36865234375 -17.8333740234375 10.7783203125
31.559814453125 2.06494140625 5.864501953125
26.063720703125 -3.459228515625 15.357666015625
56.185791015625 -36.1949462890625 23.3404541015625
-29.778076171875 -13.998046875 26.007080078125
-92.169677734375 -32.710205078125 20.327392578125
-93.661865234375 -42.489501953125 32.0548095703125
31.169921875 34.9207763671875 -2.76708984375
67.2294921875 19.3017578125 -8.482177734375
69.462158203125 -36.20947265625 6.8421630859375
-5.630126953125 24.880859375 5.1436767578125
-26.329345703125 3.0169677734375 10.382568359375
72.18994140625 25.4461669921875 -12.0245361328125
87.28955078125 2.1729736328125 7.6549072265625
34.00341796875 -7.6954345703125 19.58740234375
94.299560546875 -36.60986328125 27.3360595703125
-41.97705078125 -13.5218505859375 17.3883056640625
63.91259765625 -21.373291015625 16.65185546875
37.9912109375 4.5172119140625 0.778564453125
-81.921630859375 -18.1005859375 24.0029296875
25.873046875 16.4031982421875 -2.4415283203125
25.748779296875 13.3304443359375 -1.6732177734375
47.304931640625 7.13232421875 -0.4459228515625
74.150390625 13.51220703125 -9.0150146484375
50.052978515625 -2.834716796875 13.32373046875
-35.45068359375 -10.44873046875 24.203857421875
75.38720703125 26.0858154296875 -11.0523681640625
72.716796875 -2.5426025390625 -2.08544921875
94.6123046875 6.4166259765625 -12.3426513671875
-19.5869140625 -13.3609619140625 25.190673828125
26.924072265625 1.7852783203125 7.206787109375
61.361083984375 -34.940185546875 11.0421142578125
70.344970703125 -0.9158935546875 -1.0233154296875
-16.859619140625 5.922119140625 7.263916015625
-15.815185546875 28.3494873046875 5.7252197265625
30.37451171875 -6.0263671875 17.3819580078125
64.3369140625 -29.523193359375 13.8060302734375
35.7001953125 2.6422119140625 4.052001953125
41.83349609375 3.8623046875 1.86572265625
57.6875 -24.896728515625 16.495361328125
100.837158203125 -5.1693115234375 -7.681640625
63.494140625 -18.8349609375 21.9027099609375
55.57470703125 -20.7781982421875 21.19775390625
-26.759765625 -5.5853271484375 15.271728515625
-52.9599609375 -4.421142578125 18.9578857421875
-82.1923828125 -16.698974609375 26.438232421875
-18.744873046875 -3.4700927734375 16.6173095703125
76.61474609375 -8.3817138671875 -1.8304443359375
93.1884765625 -24.390869140625 12.59130859375
-82.469970703125 -37.1854248046875 22.280517578125
-87.17431640625 -38.712890625 27.82763671875
-40.044921875 -10.3905029296875 18.6866455078125
-16.180419921875 -13.581298828125 23.1485595703125
47.122314453125 13.2838134765625 -2.08642578125
92.99560546875 -1.931640625 -1.6287841796875
66.941162109375 -32.6456298828125 9.557373046875
-45.801025390625 6.22509765625 14.7867431640625
41.557373046875 -4.2188720703125 14.76123046875
-20.802490234375 -6.70703125 18.255615234375
97.022216796875 -16.635498046875 1.083251953125
6.836669921875 6.8826904296875 10.77880859375
93.364501953125 -31.4503173828125 23.7630615234375
32.106201171875 4.2034912109375 1.807861328125
84.038330078125 -38.7738037109375 20.886474609375
16.097412109375 1.2177734375 12.6815185546875
40.62158203125 1.1060791015625 6.616943359375
-87.798583984375 -31.7515869140625 20.051513671875
-42.972412109375 -0.1048583984375 14.8106689453125
73.835205078125 11.7835693359375 -6.6234130859375
-36.5615234375 -2.507080078125 16.0595703125
-3.294921875 -3.6876220703125 16.49853515625
-42.013916015625 -4.59033203125 15.1990966796875
37.80419921875 17.0162353515625 -1.8199462890625
66.124267578125 5.4139404296875 -2.56005859375
-34.186279296875 25.862060546875 9.134765625
-33.690185546875 2.6502685546875 17.0784912109375
6.109130859375 -9.1978759765625 14.348388671875
24.904052734375 0.0347900390625 14.162109375
-17.968994140625 19.83349609375 6.3846435546875
-32.173828125 22.68603515625 7.2586669921875
67.345458984375 -45.3240966796875 17.5064697265625
-81.721435546875 -20.777099609375 21.310791015625
82.367919921875 -28.4576416015625 12.7774658203125
103.094970703125 -18.529052734375 2.6890869140625
-34.740478515625 -8.5391845703125 21.9486083984375
55.482421875 -23.559814453125 23.6331787109375
-91.295166015625 -30.2598876953125 18.7423095703125
-33.180908203125 7.6136474609375 11.0716552734375
50.9521484375 24.243896484375 -2.6407470703125
-31.467529296875 1.6038818359375 12.0546875
63.81103515625 -43.533203125 17.45849609375
90.82080078125 -5.5943603515625 -3.1932373046875
7.21923828125 -6.448486328125 17.093994140625
-85.820068359375 -24.0267333984375 22.4127197265625
-19.018798828125 25.6676025390625 7.501220703125
97.160888671875 -19.732421875 5.1622314453125
70.963134765625 -29.391845703125 13.80859375
76.19677734375 -46.6165771484375 17.150390625
92.773681640625 -32.5406494140625 26.3447265625
54.057373046875 2.7080078125 2.3035888671875
67.904541015625 -6.79248046875 2.7991943359375
93.476318359375 -0.260009765625 -5.843017578125
67.534423828125 -21.8399658203125 11.872314453125
2.84912109375 6.0484619140625 11.732666015625
58.01611328125 -32.40576171875 14.447265625
-33.21435546875 0.120361328125 15.5010986328125
49.298095703125 20.8421630859375 -2.98095703125
-1.04638671875 4.6275634765625 13.59033203125
16.8857421875 -6.141357421875 18.1240234375
-41.041015625 -7.9771728515625 15.01513671875
-88.54052734375 -43.4776611328125 30.2091064453125
92.47705078125 -10.0572509765625 -2.7293701171875
43.85498046875 -23.434326171875 25.686279296875
72.521240234375 1.3668212890625 -2.874267578125
55.704833984375 -6.5574951171875 17.533203125
65.1845703125 -5.4564208984375 5.8109130859375
44.874755859375 -6.17431640625 17.3792724609375
75.61083984375 28.0987548828125 -12.4625244140625
68.38671875 -42.73974609375 14.3065185546875
-86.719482421875 -36.0999755859375 24.7264404296875
51.601318359375 0.64208984375 6.4302978515625
-20.717041015625 3.858642578125 9.7047119140625
55.88232421875 -36.16015625 25.4151611328125
-13.331298828125 -9.2996826171875 20.6925048828125
1.80078125 6.9783935546875 14.862548828125
78.49267578125 -12.4385986328125 3.314697265625
-28.66943359375 -10.9931640625 23.1192626953125
98.84814453125 -34.5321044921875 26.1605224609375
64.652587890625 -8.242919921875 17.271240234375
99.981689453125 -22.358642578125 8.403076171875
93.0751953125 -26.5943603515625 21.0064697265625
-3.475830078125 2.720458984375 9.435302734375
72.028564453125 -11.3455810546875 1.8018798828125
94.507080078125 -16.7398681640625 3.5050048828125
-38.750732421875 -8.9932861328125 22.814453125
47.709228515625 -23.4930419921875 24.319580078125
55.65185546875 -26.0382080078125 22.0074462890625
100.379150390625 -16.8013916015625 2.56591796875
64.362060546875 -36.3135986328125 9.083984375
-47.657958984375 -5.50341796875 15.5947265625
69.784423828125 15.581298828125 -9.4833984375
-44.8876953125 4.0172119140625 12.94970703125
37.990966796875 28.1795654296875 -2.1705322265625
59.482421875 -7.4366455078125 17.9625244140625
28.677978515625 -8.1834716796875 20.1400146484375
2.04931640625 -14.2137451171875 21.9071044921875
38.173828125 -5.62158203125 16.8875732421875
79.82275390625 -21.6136474609375 18.3994140625
-89.698486328125 -21.8763427734375 22.1641845703125
90.350830078125 -1.2398681640625 9.4019775390625
-54.877685546875 -2.700927734375 18.90087890625
66.515380859375 -45.4766845703125 31.305908203125
28.6396484375 29.9100341796875 -2.9178466796875
-52.41943359375 -10.9691162109375 26.056884765625
70.82861328125 -45.244384765625 16.6400146484375
8.566650390625 -8.7772216796875 21.2579345703125
-92.895263671875 -30.54248046875 17.0775146484375
67.77685546875 15.33349609375 -7.8656005859375
13.0380859375 -3.2110595703125 15.9639892578125
4.306884765625 -12.313720703125 14.8541259765625
50.019287109375 -1.777099609375 11.0477294921875
69.193603515625 -3.0428466796875 0.0772705078125
34.713134765625 -3.779541015625 15.4119873046875
-20.716552734375 -8.37353515625 19.889404296875
-52.836669921875 4.701416015625 18.850830078125
23.76318359375 -4.2969970703125 16.596923828125
-1.8251953125 -7.6634521484375 17.466552734375
67.444091796875 -30.9281005859375 13.653076171875
-49.197265625 -6.3115234375 17.0247802734375
-25.0478515625 21.8404541015625 6.6763916015625
-35.239013671875 -0.177978515625 15.6461181640625
13.6640625 -5.9344482421875 18.430419921875
-46.75634765625 -13.95654296875 18.1763916015625
-32.37548828125 3.169677734375 10.11083984375
98.427734375 -28.4912109375 17.3956298828125
36.385009765625 -2.392822265625 13.0201416015625
-95.21240234375 -29.71923828125 16.6927490234375
81.428466796875 18.4346923828125 -9.6942138671875
85.14453125 -37.72119140625 24.1407470703125
49.659423828125 6.5947265625 -0.5748291015625
73.515380859375 -0.7174072265625 -4.2626953125
29.12353515625 33.4996337890625 -2.1912841796875
-2.22607421875 -10.5899658203125 19.0029296875
-24.313720703125 3.3143310546875 10.237060546875
61.75048828125 -38.0601806640625 13.740478515625
80.64111328125 -28.1446533203125 13.8189697265625
8.81103515625 9.7554931640625 13.714111328125
-5.527587890625 21.451904296875 4.9111328125
60.80322265625 -42.3272705078125 22.76708984375
97.550048828125 -11.0223388671875 -5.5838623046875
-17.28662109375 -11.505615234375 22.917236328125
35.455810546875 32.7049560546875 -2.6981201171875
-27.6787109375 15.79931640625 8.4515380859375
-21.571044921875 19.2884521484375 6.917724609375
64.7548828125 -37.5484619140625 11.003662109375
-20.186767578125 -10.0018310546875 21.7801513671875
-52.439208984375 -0.3193359375 17.2822265625
36.668701171875 -0.382080078125 9.7166748046875
85.574951171875 -5.5421142578125 14.60498046875
81.20849609375 -23.032470703125 17.9637451171875
65.934326171875 -14.5401611328125 7.6533203125
46.69091796875 34.503662109375 -2.562255859375
11.608154296875 1.38623046875 12.675537109375
-60.94921875 -10.03173828125 25.0654296875
-38.552490234375 -2.02783203125 16.010009765625
56.63916015625 -35.35595703125 21.5167236328125
74.568359375 -10.17626953125 -1.162841796875
51.674072265625 15.4398193359375 -2.669921875
28.62646484375 -2.052490234375 13.177001953125
-31.419921875 -12.13720703125 24.7947998046875
-10.2138671875 -3.78857421875 16.6732177734375
7.71630859375 -11.929443359375 20.25
66.677734375 8.475830078125 -4.719482421875
-27.85302734375 -3.8829345703125 15.279541015625
64.181884765625 -19.527099609375 12.291748046875
97.461669921875 -32.7451171875 22.5087890625
76.349609375 16.50830078125 -12.3558349609375
-25.93212890625 -9.4970703125 21.20751953125
-11.647216796875 -1.5380859375 13.9764404296875
-91.194580078125 -40.199951171875 29.698486328125
70.945068359375 -21.023193359375 8.9951171875
65.350830078125 -23.4134521484375 13.5792236328125
-91.140869140625 -38.486328125 28.060546875
-17.0634765625 0.9129638671875 11.5369873046875
95.747314453125 -30.2548828125 20.1795654296875
-80.829345703125 -34.2054443359375 19.4375
-25.0185546875 13.6038818359375 8.39306640625
15.94580078125 5.8253173828125 9.7220458984375
85.658447265625 -23.916259765625 15.0220947265625
25.287109375 0.8509521484375 9.601806640625
-40.411376953125 -7.1175537109375 16.8568115234375
-30.94677734375 13.6802978515625 9.334228515625
-48.106689453125 6.61328125 15.863037109375
-21.304443359375 10.3612060546875 7.7203369140625
93.52294921875 -0.135498046875 -8.2550048828125
-31.670654296875 28.81787109375 8.1300048828125
-11.26220703125 29.845703125 5.615478515625
0.560302734375 3.178955078125 11.617919921875
-91.808837890625 -25.15771484375 23.504638671875
33.790771484375 -6.408447265625 18.037109375
-47.038818359375 -2.1754150390625 15.769775390625
-5.320068359375 17.85693359375 5.4678955078125
26.983154296875 29.7557373046875 -1.03466796875
-25.950927734375 19.1815185546875 7.429443359375
-21.25244140625 17.327392578125 7.364013671875
-29.140625 18.9981689453125 7.828125
-17.11328125 2.6219482421875 10.213623046875
70.36083984375 -34.0220947265625 7.705810546875
-9.879150390625 27.1900634765625 5.35205078125
67.558349609375 -36.4111328125 7.402099609375
-56.8701171875 -11.1126708984375 26.429931640625
-94.722900390625 -38.64404296875 28.496337890625
70.020263671875 3.252685546875 -3.8072509765625
-89.109130859375 -37.4254150390625 27.7259521484375
73.345458984375 -12.7747802734375 1.256103515625
29.4599609375 24.59814453125 -2.4566650390625
36.084716796875 21.8531494140625 -2.516845703125
52.30859375 11.5330810546875 -1.7808837890625
66.62890625 12.933349609375 -3.7120361328125
45.460205078125 18.5450439453125 -2.74365234375
-93.088134765625 -36.9063720703125 25.33056640625
99.672607421875 -29.9398193359375 20.4605712890625
62.158935546875 -42.7838134765625 24.9256591796875
80.817138671875 21.5521240234375 -12.911376953125
90.489501953125 1.9873046875 5.947265625
-93.190673828125 -28.2025146484375 16.6822509765625
55.625 -32.89892578125 23.0650634765625
37.283935546875 18.8597412109375 -1.31298828125
25.578125 9.1053466796875 -0.61669921875
39.7646484375 8.57958984375 -2.06005859375
34.69384765625 10.0604248046875 -1.8616943359375
67.81103515625 28.729248046875 -10.1170654296875
56.004150390625 -28.7386474609375 21.2154541015625
38.820556640625 13.6890869140625 -3.06103515625
67.818115234375 -13.2510986328125 6.5185546875
79.807373046875 3.313232421875 -5.205322265625
-22.842529296875 -6.6507568359375 18.16015625
69.964599609375 29.7625732421875 -12.98583984375
91.898681640625 -11.723388671875 -1.3583984375
67.90673828125 26.488525390625 -11.8057861328125
-39.712158203125 -10.718994140625 22.4163818359375
62.819091796875 -36.2603759765625 10.9019775390625
42.55859375 14.048583984375 -2.81689453125
-35.6767578125 4.2227783203125 16.451416015625
68.0869140625 22.2113037109375 -10.92333984375
75.490478515625 20.585205078125 -11.3447265625
-42.318115234375 -13.1519775390625 22.22314453125
94.33203125 4.754638671875 -13.8057861328125
89.294921875 -11.99072265625 -4.2828369140625
14.052734375 4.06103515625 9.141357421875
-89.467529296875 -36.0523681640625 26.3721923828125
65.14794921875 -43.044677734375 16.1160888671875
-39.74609375 -3.35791015625 17.079345703125
30.57275390625 19.875732421875 -2.769775390625
46.19287109375 10.51953125 -3.099853515625
86.97265625 -4.28662109375 13.1942138671875
-92.73193359375 -38.221435546875 26.9654541015625
76.837158203125 7.37353515625 -8.5452880859375
76.659912109375 -0.1639404296875 -6.23095703125
38.148193359375 2.5655517578125 4.10205078125
1.798828125 -6.9693603515625 14.2789306640625
77.679443359375 -15.0289306640625 4.3436279296875
98.059814453125 -6.0675048828125 -8.3350830078125
66.238037109375 -40.4462890625 13.0677490234375
46.31787109375 -2.7139892578125 13.24072265625
85.263916015625 -25.7091064453125 14.4151611328125
87.652587890625 2.8167724609375 9.958251953125
-7.982666015625 -5.396484375 18.8306884765625
-1.7119140625 -10.5135498046875 14.4678955078125
-23.4755859375 -2.369873046875 13.813720703125
49.231201171875 0.4443359375 6.89453125
80.797119140625 -35.2623291015625 11.552490234375
64.587646484375 -27.5623779296875 17.0064697265625
80.9384765625 -39.571044921875 16.437255859375
-76.35205078125 -13.9339599609375 28.6607666015625
72.453369140625 -38.583984375 9.6490478515625
52.57958984375 -5.1265869140625 16.1107177734375
-82.732666015625 -31.6937255859375 17.555908203125
69.92919921875 -6.884033203125 2.74853515625
-92.02099609375 -21.17919921875 24.81591796875
93.220947265625 -1.1024169921875 1.328857421875
44.899169921875 -1.7215576171875 12.066650390625
45.1865234375 -24.5576171875 24.7020263671875
-31.4404296875 26.6282958984375 7.8798828125
57.892578125 -19.5225830078125 21.58154296875
75.562255859375 -21.3863525390625 6.59423828125
-87.936279296875 -26.582763671875 21.47607421875
82.43505859375 -40.46875 20.38232421875
-84.1044921875 -43.075927734375 31.2918701171875
28.492919921875 -3.9693603515625 15.3692626953125
86.462646484375 -2.0111083984375 10.6484375
-80.55810546875 -27.0576171875 17.0609130859375
89.41650390625 -2.473876953125 10.905029296875
48.216796875 8.2445068359375 -2.1683349609375
-2.99072265625 -2.019775390625 14.9761962890625
40.281005859375 -0.2230224609375 9.2772216796875
33.0146484375 27.8326416015625 -2.4404296875
63.8359375 -20.4085693359375 20.6654052734375
67.107177734375 -31.849365234375 11.3167724609375
40.869384765625 28.8642578125 -2.35498046875
-37.913330078125 6.522216796875 16.903564453125
-50.078125 6.1197509765625 16.81494140625
95.93017578125 -12.591796875 -2.48974609375
96.926513671875 -2.1502685546875 -11.9598388671875
50.963134765625 4.0501708984375 0.8076171875
103.4853515625 -23.7320556640625 11.9097900390625
80.68017578125 -38.2042236328125 15.049560546875
64.52587890625 -46.0892333984375 31.9981689453125
-28.30078125 2.0982666015625 11.27978515625
59.497314453125 -41.8465576171875 20.7677001953125
-12.73291015625 -2.3695068359375 15.37353515625
78.035888671875 -9.7977294921875 0.7559814453125
-38.435302734375 -5.2960205078125 19.4019775390625
-82.838623046875 -37.6209716796875 24.0704345703125
54.100830078125 22.5355224609375 -2.4189453125
77.743408203125 -45.7288818359375 17.8399658203125
-58.01171875 -5.0264892578125 22.275390625
36.431396484375 25.5848388671875 -2.5687255859375
66.696044921875 -26.0384521484375 15.002197265625
77.5625 -11.7008056640625 1.2757568359375
93.076904296875 -20.5634765625 9.49755859375
63.490478515625 -41.4669189453125 15.453125
-39.177001953125 4.0445556640625 13.8267822265625
67.071533203125 -28.742431640625 15.9344482421875
-81.953125 -24.1981201171875 18.736328125
81.404052734375 9.160888671875 -7.56298828125
-80.70361328125 -29.0343017578125 15.3558349609375
74.003173828125 -29.32861328125 12.8404541015625
53.091064453125 1.888427734375 3.6729736328125
93.7919921875 -33.4061279296875 24.5162353515625
-39.426025390625 -6.03271484375 18.00634765625
-29.04345703125 -6.662109375 17.1629638671875
-91.07470703125 -35.9346923828125 24.5693359375
61.568115234375 -36.6773681640625 12.5078125
-8.878173828125 6.263427734375 6.59619140625
59.790771484375 -20.9066162109375 21.394287109375
100.90966796875 -9.508056640625 -7.0679931640625
-36.381103515625 -7.44189453125 21.087890625
-33.686279296875 -6.77392578125 19.238525390625
-9.56201171875 4.692626953125 8.263427734375
-49.0166015625 -11.405029296875 23.153076171875
65.694091796875 -44.4947509765625 17.1785888671875
-49.211669921875 4.0638427734375 14.0233154296875
-93.63134765625 -41.2908935546875 29.78173828125
70.166015625 -31.9169921875 13.440673828125
55.954345703125 -27.928466796875 17.4320068359375
-91.971435546875 -27.7666015625 18.9434814453125
94.91552734375 8.617919921875 -17.1441650390625
66.46533203125 11.999755859375 -5.4119873046875
9.0908203125 3.2222900390625 11.4278564453125
88.497314453125 -0.18408203125 8.4114990234375
63.99169921875 -3.4832763671875 16.0177001953125
95.66357421875 -31.96728515625 21.8798828125
83.271728515625 -32.530517578125 13.2149658203125
34.535888671875 15.1197509765625 -2.9375
95.584228515625 5.9190673828125 -16.5555419921875
67.374267578125 -19.6961669921875 10.442138671875
95.13525390625 -20.0953369140625 6.697265625
-82.20458984375 -42.7391357421875 27.05859375
100.706298828125 -26.47998046875 12.11572265625
-21.5478515625 5.262451171875 8.6978759765625
-44.00341796875 -12.791259765625 16.6767578125
93.398681640625 -2.180419921875 -5.36279296875
93.978271484375 -34.8504638671875 25.6522216796875
-50.56640625 -4.2222900390625 18.490966796875
13.43212890625 -7.191162109375 20.0155029296875
95.391845703125 -34.30712890625 24.5601806640625
63.03759765625 -6.9891357421875 16.984375
40.928955078125 -2.91943359375 13.2666015625
14.7685546875 -0.9259033203125 15.3662109375
42.498046875 19.100830078125 0.0135498046875
-21.23583984375 -12.216064453125 24.4661865234375
93.092529296875 -13.360107421875 0.4132080078125
-49.8193359375 -1.9969482421875 16.0341796875
38.150390625 26.386962890625 -2.503662109375
-40.892822265625 -10.3187255859375 13.916259765625
74.7666015625 3.713134765625 -7.26904296875
-46.967529296875 1.1243896484375 14.193359375
-28.215576171875 -8.091552734375 18.18798828125
-93.0078125 -34.3154296875 22.1488037109375
-94.129638671875 -23.78515625 23.7259521484375
-22.642822265625 -3.7901611328125 14.831787109375
70.183349609375 -28.2578125 15.005859375
60.392578125 -37.0394287109375 14.4034423828125
56.671630859375 -29.516845703125 16.0401611328125
67.839111328125 -41.296875 13.251220703125
-94.89990234375 -31.82421875 18.201416015625
71.292236328125 -23.3489990234375 9.6805419921875
64.42578125 -5.76904296875 15.42724609375
10.98876953125 0.569580078125 14.1788330078125
49.78955078125 30.3741455078125 -3.2598876953125
65.965576171875 -39.1171875 11.5574951171875
9.87451171875 6.09228515625 9.8699951171875
46.439453125 28.894775390625 -2.9798583984375
22.4833984375 -7.1861572265625 19.79541015625
71.812744140625 -44.3121337890625 15.38232421875
11.1884765625 3.599365234375 11.5633544921875
-13.912353515625 2.107177734375 10.2880859375
80.8076171875 -27.3558349609375 15.4691162109375
-59.737548828125 -8.721923828125 23.8369140625
71.962158203125 -45.5042724609375 28.1497802734375
88.88427734375 -22.2486572265625 8.6846923828125
-29.124267578125 25.9552001953125 7.3319091796875
14.326904296875 3.317138671875 10.9776611328125
80.34521484375 17.4561767578125 -11.557861328125
5.67236328125 4.2093505859375 10.033935546875
82.083740234375 -35.489990234375 14.535888671875
95.298828125 -21.595947265625 9.0426025390625
64.849853515625 -11.744140625 7.0870361328125
85.075927734375 -30.981689453125 13.0970458984375
75.890869140625 -36.6357421875 8.0357666015625
-84.71728515625 -35.185302734375 23.6805419921875
58.52783203125 -31.1036376953125 11.1722412109375
102.94775390625 -12.4327392578125 -2.408935546875
-26.963623046875 27.9888916015625 7.354248046875
90.873046875 -3.5106201171875 11.9410400390625
46.636962890625 25.684814453125 -2.5162353515625
-12.372314453125 -11.317626953125 22.79443359375
90.94775390625 -8.802734375 -2.867919921875
76.69873046875 -2.350830078125 -5.25390625
91.125 -16.3768310546875 4.3983154296875
-0.285888671875 -4.5406494140625 15.2955322265625
3.87646484375 -10.6761474609375 16.3408203125
-20.4755859375 29.611572265625 6.5416259765625
5.569580078125 2.0853271484375 12.865478515625
1.351318359375 -1.281005859375 13.6986083984375
4.6484375 -8.7322998046875 12.7154541015625
43.799560546875 -7.09814453125 18.512451171875
-25.299560546875 0.93701171875 13.5081787109375
104.2861328125 -17.2835693359375 -0.3154296875
75.224609375 -33.20947265625 8.6263427734375
61.477783203125 -30.029296875 11.0372314453125
30.916015625 21.411865234375 -1.8355712890625
80.03662109375 -31.0244140625 10.1383056640625
-9.814208984375 1.34228515625 11.0836181640625
-94.515625 -32.29296875 19.8936767578125
69.011962890625 -39.4039306640625 10.836181640625
64.845703125 -21.9537353515625 12.6600341796875
28.00634765625 3.6695556640625 3.7469482421875
2.913818359375 -15.2733154296875 17.7303466796875
1.992431640625 -10.7628173828125 17.34130859375
12.032958984375 7.8690185546875 11.9615478515625
-30.7001953125 -2.760009765625 14.4061279296875
73.93603515625 -11.490966796875 -0.023193359375
-29.29248046875 10.3636474609375 8.153076171875
-53.351318359375 -2.3214111328125 17.4178466796875
80.551025390625 15.0640869140625 -9.95751953125
79.2587890625 -38.1575927734375 13.045654296875
-8.809326171875 31.246826171875 4.99951171875
62.09130859375 -40.4761962890625 15.9774169921875
42.2548828125 20.909423828125 1.7252197265625
-90.06396484375 -42.3310546875 31.6170654296875
70.45751953125 -38.84326171875 9.9339599609375
-24.23974609375 9.142822265625 7.44140625
52.5302734375 -3.308349609375 13.477294921875
48.150146484375 -25.405029296875 25.2169189453125
-79.818359375 -19.086669921875 29.0712890625
71.169921875 0.9229736328125 -1.716552734375
48.120361328125 1.6719970703125 5.1895751953125
49.68212890625 32.2215576171875 -2.7900390625
-24.77783203125 11.48291015625 8.2825927734375
-13.3955078125 -4.644775390625 17.6988525390625
43.77685546875 31.0537109375 -3.0634765625
72.2978515625 -39.911865234375 11.0506591796875
-8.828125 19.634765625 5.4202880859375
-26.232666015625 12.2132568359375 9.171875
-3.7900390625 6.5030517578125 8.0865478515625
41.73095703125 20.658203125 -0.435302734375
-28.947265625 13.9400634765625 9.0487060546875
-21.790283203125 13.86865234375 8.27294921875
-6.7919921875 10.9652099609375 7.323486328125
-27.7939453125 22.79296875 6.7469482421875
-85.081298828125 -33.8228759765625 22.34033203125
-81.738037109375 -39.9512939453125 24.8201904296875
-7.10009765625 8.287353515625 6.655029296875
71.69384765625 -20.6793212890625 7.1529541015625
18.724365234375 -7.097900390625 19.562744140625
90.89501953125 -20.8511962890625 7.96533203125
48.658935546875 18.3837890625 -2.9083251953125
51.8212890625 18.1807861328125 -3.208984375
39.26171875 22.0357666015625 -2.913818359375
-15.54931640625 8.9307861328125 6.3798828125
33.001220703125 23.984130859375 -2.6983642578125
-29.079345703125 7.4798583984375 8.2359619140625
27.84814453125 23.9283447265625 -2.113525390625
-7.91650390625 -1.5452880859375 14.4837646484375
-14.7763671875 -14.459228515625 24.9271240234375
55.8310546875 -25.7862548828125 17.696533203125
45.208251953125 33.4832763671875 -3.2120361328125
-19.304443359375 10.27392578125 7.6708984375
78.344970703125 -32.4083251953125 9.144287109375
51.963623046875 -1.5892333984375 10.4764404296875
54.13427734375 0.25 6.858154296875
-11.711669921875 10.989990234375 6.8043212890625
21.87548828125 -5.5194091796875 18.0430908203125
41.46337890625 11.55126953125 -2.9781494140625
75.72265625 26.32421875 -12.7796630859375
-10.49609375 -0.5975341796875 13.0064697265625
88.83447265625 2.7774658203125 7.02392578125
39.4296875 -1.6485595703125 11.571044921875
44.700927734375 9.241455078125 -2.0233154296875
56.596923828125 -26.2086181640625 16.0086669921875
72.733642578125 28.1435546875 -12.59912109375
30.298095703125 17.7030029296875 -3.10205078125
57.5830078125 -29.385986328125 13.1412353515625
30.897216796875 13.77001953125 -2.351806640625
42.55126953125 9.1708984375 -2.51416015625
65.57861328125 1.604248046875 -0.061279296875
-20.0830078125 -2.5567626953125 15.16162109375
70.8037109375 -16.2388916015625 6.616943359375
-12.53955078125 -0.1934814453125 12.6761474609375
-83.627685546875 -39.3563232421875 27.44140625
37.146484375 0.7099609375 7.7099609375
98.36181640625 0.287841796875 -14.61083984375
51.50439453125 13.0452880859375 -2.3634033203125
75.93017578125 10.62841796875 -10.1295166015625
66.504638671875 -0.936767578125 -0.141845703125
73.6435546875 16.802001953125 -7.8345947265625
43.412109375 2.3485107421875 4.026123046875
77.998046875 27.1553955078125 -15.0062255859375
73.1123046875 2.6282958984375 -4.1458740234375
97.013916015625 -29.417724609375 18.568115234375
52.3486328125 3.4307861328125 1.7108154296875
52.507080078125 23.3682861328125 -2.59814453125
46.2373046875 4.0072021484375 1.4925537109375
-62.4384765625 -8.184814453125 25.5516357421875
-84.173828125 -20.8817138671875 18.614501953125
-4.476806640625 -8.1278076171875 21.760986328125
35.245849609375 -0.83447265625 10.9088134765625
-31.703369140625 -7.292236328125 19.14599609375
45.41748046875 12.878662109375 -2.247802734375
33.24560546875 29.6011962890625 -2.14501953125
72.7099609375 -4.778564453125 -1.2364501953125
-44.8427734375 7.3046875 15.79052734375
-82.639892578125 -28.819580078125 15.957763671875
34.730712890625 25.1697998046875 -2.7301025390625
-16.167724609375 27.043212890625 6.847412109375
-13.573486328125 8.803955078125 6.1920166015625
76.844970703125 -37.8131103515625 10.3343505859375
13.30859375 1.045166015625 13.187255859375
61.1455078125 -42.976806640625 19.6221923828125
-33.76513671875 -4.7987060546875 17.228759765625
70.67333984375 -30.8074951171875 14.8050537109375
-85.006103515625 -30.220947265625 18.330810546875
61.230712890625 -40.930908203125 17.5670166015625
95.91650390625 -17.716064453125 3.133544921875
51.2421875 1.7799072265625 4.5125732421875
101.784912109375 -19.95263671875 6.69091796875
71.27685546875 -18.03955078125 6.095703125
-18.6943359375 11.729248046875 8.4552001953125
62.02197265625 -27.195068359375 18.1351318359375
-77.623779296875 -15.1343994140625 28.63134765625
85.2861328125 -32.8565673828125 15.85693359375
-88.79052734375 -40.1878662109375 30.3404541015625
-86.88818359375 -42.5894775390625 31.0238037109375
-13.911376953125 -3.351318359375 16.2060546875
-25.0361328125 -5.0819091796875 15.8721923828125
-42.84228515625 -11.8795166015625 15.5693359375
97.211669921875 -34.69140625 25.09423828125
58.835205078125 -41.0179443359375 22.6636962890625
56.316650390625 -29.8831787109375 18.027099609375
78.75830078125 -2.0501708984375 -3.921142578125
33.373291015625 6.679443359375 -0.885009765625
-24.35791015625 25.992919921875 6.6422119140625
81.08154296875 5.5419921875 -5.8939208984375
42.029296875 -6.3870849609375 17.7469482421875
39.703369140625 25.5123291015625 -2.4610595703125
68.104248046875 2.68603515625 -3.1571044921875
41.90673828125 33.162841796875 -3.2225341796875
45.0380859375 -26.2276611328125 26.5596923828125
95.1552734375 -26.767333984375 17.0201416015625
77.24853515625 21.7362060546875 -12.70849609375
-82.423583984375 -35.138916015625 20.435791015625
-2.068603515625 3.33740234375 10.34375
65.14404296875 -26.6558837890625 15.6356201171875
70.39306640625 -42.47900390625 14.0201416015625
-7.31005859375 0.28857421875 12.130615234375
-65.350341796875 -10.7115478515625 26.6500244140625
65.6201171875 4.615966796875 -1.1065673828125
68.878662109375 -17.983642578125 9.2420654296875
83.2265625 -33.8026123046875 14.9217529296875
72.521728515625 -37.31689453125 7.9747314453125
-3.83544921875 25.86181640625 5.7706298828125
-42.8720703125 -2.3017578125 17.4720458984375
69.184814453125 -16.1978759765625 8.1580810546875
58.13232421875 -22.298095703125 18.7706298828125
-45.262939453125 -5.2691650390625 15.271728515625
71.337890625 -32.6068115234375 10.5772705078125
73.186767578125 -26.9447021484375 10.50634765625
91.685302734375 -18.1768798828125 5.53955078125
70.289306640625 -26.21728515625 13.1036376953125
55.78466796875 -27.1221923828125 24.63330078125
-80.281982421875 -31.6131591796875 20.3719482421875
73.458251953125 -22.09765625 6.6988525390625
-9.1875 -6.4219970703125 19.5264892578125
79.0087890625 -3.3321533203125 -2.5889892578125
15.40185546875 8.2532958984375 12.266845703125
37.292724609375 20.7049560546875 -2.068115234375
67.6416015625 -23.2728271484375 12.828125
76.6953125 -41.14453125 13.9102783203125
-51.935302734375 3.3863525390625 15.7069091796875
-54.5625 1.6824951171875 19.7835693359375
79.436279296875 -23.4200439453125 17.7833251953125
58.705810546875 -32.4775390625 12.40234375
15.44482421875 7.0096435546875 10.869384765625
69.197021484375 -9.40087890625 4.05322265625
42.38916015625 27.9437255859375 -2.4488525390625
-29.824462890625 -1.22265625 14.0836181640625
96.01318359375 0.376953125 -13.208740234375
-21.0048828125 -4.17138671875 15.20166015625
-21.839599609375 -9.613037109375 21.402099609375
92.601806640625 -28.3675537109375 24.2127685546875
85.957275390625 -27.3612060546875 14.58837890625
3.89111328125 -10.836669921875 14.078857421875
-86.430908203125 -20.4713134765625 23.5682373046875
99.828369140625 -13.70263671875 -1.4515380859375
76.42724609375 -23.713134765625 9.048095703125
55.055419921875 -23.11083984375 20.0955810546875
-42.020263671875 4.418212890625 13.290771484375
75.388916015625 -14.34130859375 1.864501953125
4.421630859375 8.3577880859375 12.685302734375
76.1279296875 -4.3466796875 -3.6611328125
93.9013671875 2.461669921875 -10.557861328125
12.6630859375 0.18896484375 14.55078125
42.808349609375 -0.6168212890625 9.7091064453125
-27.240234375 -8.53125 19.8792724609375
6.53173828125 5.712890625 9.5694580078125
-49.42626953125 -0.658447265625 14.9036865234375
55.36279296875 -33.2607421875 27.1424560546875
-34.328125 1.439208984375 15.6063232421875
102.16943359375 -22.7490234375 8.8721923828125
99.0810546875 -25.6246337890625 11.9306640625
66.125244140625 -3.5020751953125 0.9815673828125
-18.010986328125 -12.423095703125 24.15966796875
-46.96875 -9.27099609375 12.23583984375
83.869384765625 -26.9022216796875 14.3963623046875
92.15966796875 2.314208984375 5.8369140625
-85.809814453125 -31.1412353515625 19.5330810546875
78.675537109375 -26.7064208984375 17.8895263671875
-36.386962890625 1.064697265625 15.4681396484375
-20.7958984375 6.5614013671875 7.5433349609375
-14.54541015625 -0.4541015625 12.9625244140625
-45.852783203125 -0.1881103515625 14.08935546875
58.84375 -33.8846435546875 13.494873046875
94.423828125 -29.9664306640625 21.2078857421875
-46.095947265625 3.009033203125 13.6339111328125
-52.859619140625 -9.6578369140625 24.54150390625
42.5107421875 22.303955078125 -3.0390625
73.579833984375 -36.349609375 7.0194091796875
-15.677978515625 -1.356689453125 14.07275390625
-19.1708984375 -7.48291015625 18.7274169921875
58.486572265625 -27.5169677734375 14.2694091796875
78.8779296875 11.3748779296875 -10.049560546875
-83.872802734375 -32.8624267578125 21.3743896484375
-81.01806640625 -16.6209716796875 25.2166748046875
-32.240966796875 -5.0465087890625 16.5093994140625
-29.56298828125 -8.9451904296875 21.1649169921875
70.718994140625 -25.0220947265625 11.2259521484375
80.605224609375 -43.4449462890625 19.5982666015625
42.106689453125 29.94921875 -2.758544921875
-31.50537109375 19.5380859375 7.9576416015625
74.323974609375 -31.3043212890625 13.2901611328125
93.880126953125 -15.3662109375 2.3280029296875
59.82470703125 -39.9365234375 18.0950927734375
76.216064453125 -35.203125 7.1964111328125
72.37646484375 -28.866455078125 12.753662109375
-88.936279296875 -30.58642578125 19.595458984375
79.379638671875 15.13134765625 -11.17529296875
72.513671875 -45.294189453125 16.7725830078125
-85.316162109375 -28.254638671875 18.030029296875
82.224609375 -32.9183349609375 11.2772216796875
-27.020263671875 -11.3834228515625 23.4989013671875
69.880859375 -12.5682373046875 6.2744140625
31.706787109375 30.863525390625 -2.284423828125
92.732666015625 -24.9805908203125 20.648193359375
94.26171875 -5.4720458984375 -5.2459716796875
74.746826171875 -41.260986328125 12.9334716796875
-26.34423828125 6.531005859375 8.165771484375
-13.6982421875 5.7191162109375 6.96337890625
98.704833984375 -16.670654296875 1.2069091796875
101.896484375 -24.381591796875 12.401123046875
52.736083984375 14.12548828125 -2.7652587890625
46.46337890625 24.0072021484375 -2.5386962890625
73.233154296875 4.5875244140625 -4.4912109375
79.012451171875 -41.9517822265625 16.463134765625
-6.265625 5.4169921875 8.3248291015625
37.238037109375 -4.572998046875 15.9515380859375
-1.115966796875 -0.4976806640625 13.166015625
-56.445556640625 -4.2144775390625 20.825439453125
-85.94189453125 -37.0814208984375 26.08349609375
-6.70458984375 -6.4678955078125 19.728759765625
-91.712158203125 -43.4742431640625 31.62353515625
92.87841796875 -35.987548828125 27.9864501953125
49.334716796875 23.5718994140625 -2.2965087890625
64.1708984375 -24.8857421875 15.9293212890625
33.96875 11.6473388671875 -2.1710205078125
28.99658203125 5.80517578125 -0.1851806640625
67.20751953125 -5.158203125 1.11767578125
75.993896484375 -44.950439453125 17.2257080078125
72.155029296875 -9.7796630859375 3.0616455078125
-33.063720703125 -12.46142578125 24.90087890625
77.397705078125 -25.37646484375 14.428466796875
77.653564453125 -35.49365234375 8.011962890625
44.975830078125 0.4876708984375 7.96826171875
4.32275390625 0.9920654296875 13.2720947265625
45.28369140625 21.3970947265625 -2.973388671875
-25.294921875 -13.1025390625 25.290283203125
-16.581298828125 10.3626708984375 6.8948974609375
68.4521484375 -34.89306640625 7.0802001953125
54.03515625 5.236572265625 -0.426025390625
-86.66552734375 -33.5111083984375 21.545654296875
6.154296875 -7.113037109375 15.983642578125
75.194091796875 24.4222412109375 -11.0682373046875
81.39794921875 -40.439697265625 18.305419921875
72.649169921875 24.0186767578125 -11.2806396484375
-28.276611328125 -5.3385009765625 15.989013671875
-50.408935546875 -11.09814453125 25.86572265625
40.781005859375 1.9417724609375 5.17626953125
65.265380859375 -31.9248046875 10.6270751953125
56.776123046875 -33.288818359375 19.58984375
68.776123046875 -1.5484619140625 -0.5439453125
71.164794921875 -11.445556640625 6.0087890625
-27.802490234375 -0.9251708984375 13.9384765625
70.01953125 -21.9295654296875 11.9266357421875
43.515380859375 32.718994140625 -3.1402587890625
2.250244140625 -8.2261962890625 12.7047119140625
28.796875 1.893798828125 6.3646240234375
-11.1279296875 -2.8248291015625 15.4610595703125
10.2705078125 -8.0208740234375 21.1971435546875
57.30224609375 -38.94775390625 22.3251953125
6.385986328125 -4.5859375 16.1097412109375
-82.03271484375 -33.6810302734375 17.819091796875
-46.783203125 -7.7659912109375 13.3416748046875
-88.504150390625 -43.4913330078125 32.3394775390625
18.10400390625 4.05908203125 11.145263671875
49.515869140625 2.1180419921875 4.012939453125
101.495849609375 -17.3951416015625 3.6510009765625
4.32421875 -13.7674560546875 15.66845703125
97.095458984375 -36.0538330078125 26.5672607421875
-10.258544921875 23.60791015625 4.6031494140625
98.443603515625 -4.1849365234375 -10.3106689453125
81.8330078125 -38.532470703125 17.6334228515625
-5.330078125 7.7662353515625 7.947021484375
43.1845703125 5.728271484375 -0.094482421875
100.33984375 -23.2738037109375 9.821044921875
64.390625 -39.847900390625 13.5821533203125
15.260986328125 -5.6815185546875 18.0352783203125
-36.83740234375 -5.0450439453125 19.0096435546875
93.570068359375 -18.080810546875 6.2230224609375
-91.418701171875 -34.4849853515625 23.6531982421875
25.139404296875 5.931884765625 2.606201171875
-13.189208984375 26.7855224609375 5.0577392578125
81.843017578125 -42.859130859375 20.721923828125
46.40869140625 -1.5452880859375 11.3909912109375
70.563232421875 25.12109375 -11.912353515625
-42.908935546875 6.6695556640625 15.2730712890625
92.354248046875 -3.9139404296875 -2.8768310546875
71.05224609375 -13.753662109375 5.068115234375
-10.3349609375 -11.4117431640625 22.747802734375
103.4970703125 -23.4017333984375 8.1158447265625
-88.62939453125 -33.89306640625 23.19873046875
103.0576171875 -21.8804931640625 7.483642578125
26.850341796875 27.9046630859375 -2.8289794921875
7.94287109375 -8.2872314453125 19.7984619140625
49.622802734375 15.484619140625 -2.75390625
72.83447265625 -8.3729248046875 -0.8162841796875
27.958251953125 25.9000244140625 -2.4595947265625
7.180419921875 1.630615234375 12.952392578125
-6.60546875 -2.1788330078125 15.416015625
1.760986328125 -3.4984130859375 14.8126220703125
66.1884765625 -29.443603515625 14.5045166015625
-11.18505859375 4.369384765625 8.371826171875
-27.123291015625 -2.9896240234375 14.0660400390625
33.00439453125 -0.226318359375 9.7774658203125
-1.401611328125 -12.1282958984375 14.677490234375
94.468017578125 3.0601806640625 -13.9876708984375
-21.094482421875 2.4896240234375 10.6873779296875
47.703857421875 -3.7469482421875 14.276123046875
-8.927001953125 -4.4635009765625 17.4678955078125
0.082763671875 1.2587890625 12.142333984375
