101.7607421875 -24.5301513671875 16.8572998046875
45.997802734375 6.3392333984375 4.118896484375
3.542724609375 -6.181884765625 15.5938720703125
74.802978515625 40.1180419921875 -31.384033203125
51.6142578125 13.02294921875 -7.2437744140625
-3.760009765625 -16.2552490234375 19.8577880859375
-16.598388671875 -11.8330078125 17.92529296875
46.494873046875 31.729248046875 -11.253662109375
-19.254150390625 14.3564453125 -2.1749267578125
-7.596923828125 -23.8212890625 23.270263671875
62.443115234375 -27.3106689453125 13.5096435546875
98.60107421875 -22.268798828125 16.5684814453125
-27.02392578125 -9.01513671875 16.5234375
71.7109375 1.4063720703125 -13.564208984375
8.64306640625 12.6719970703125 1.337890625
53.6806640625 -2.734375 14.271240234375
-30.354736328125 2.3551025390625 5.08837890625
70.276611328125 18.26318359375 -20.8028564453125
-32.11181640625 -8.544189453125 17.7476806640625
37.154541015625 7.257080078125 1.2569580078125
82.71533203125 -34.7431640625 8.8443603515625
48.69970703125 0.451171875 10.1309814453125
35.89599609375 42.264404296875 -11.1507568359375
66.997314453125 -29.96728515625 15.8240966796875
38.256591796875 9.6611328125 -2.8203125
87.635986328125 -31.26318359375 8.8023681640625
78.98486328125 -32.8314208984375 4.8822021484375
7.784912109375 -7.767822265625 18.328125
46.138427734375 4.2186279296875 6.8541259765625
52.2607421875 53.9630126953125 -10.91015625
48.412353515625 9.8914794921875 -2.39501953125
-5.47314453125 -2.5589599609375 9.711181640625
78.535400390625 26.2005615234375 -25.30517578125
1.44482421875 -38.2353515625 34.2325439453125
41.829833984375 2.7484130859375 7.12060546875
18.067626953125 -6.576904296875 16.770751953125
41.43017578125 12.7720947265625 -7.6380615234375
-12.76806640625 -27.7835693359375 25.9481201171875
74.75341796875 50.29541015625 -31.2694091796875
75.741943359375 -35.565673828125 9.3192138671875
3.50390625 -1.4114990234375 9.6300048828125
75.54931640625 -0.51708984375 -10.3173828125
83.124267578125 -3.2890625 -4.449951171875
68.763427734375 4.4169921875 6.9410400390625
33.569091796875 5.302490234375 4.9302978515625
-4.452392578125 19.2679443359375 -3.774658203125
81.39990234375 -44.0543212890625 24.1968994140625
91.545654296875 7.2674560546875 3.5438232421875
46.29833984375 38.6072998046875 -10.6646728515625
16.671142578125 -29.2578125 27.1214599609375
1.9267578125 -34.537841796875 30.737060546875
62.08349609375 -1.3038330078125 12.5089111328125
99.34619140625 -26.694091796875 21.1658935546875
81.515625 -33.1129150390625 16.503173828125
-60.777099609375 -6.507568359375 14.4593505859375
7.2568359375 -3.83203125 5.45947265625
-45.08642578125 -16.0047607421875 24.19677734375
35.09716796875 38.688720703125 -10.88818359375
58.864990234375 53.3026123046875 -10.476318359375
82.635498046875 16.84423828125 -15.6634521484375
32.67041015625 19.1070556640625 -10.85107421875
-56.49072265625 -7.38818359375 13.6844482421875
-18.56591796875 18.705322265625 -3.2271728515625
69.391357421875 -42.54638671875 29.513427734375
28.703369140625 0.065673828125 9.584228515625
76.095703125 52.46875 -34.0975341796875
-29.248291015625 29.366455078125 -2.48486328125
-29.102783203125 -19.6728515625 28.3477783203125
64.11083984375 -9.521728515625 10.5238037109375
47.72314453125 34.5142822265625 -10.5560302734375
-1.732666015625 -30.6585693359375 27.7559814453125
7.48291015625 -21.6217041015625 22.14208984375
17.571044921875 1.867919921875 9.0164794921875
-41.335205078125 -3.9837646484375 0.5987548828125
-9.329345703125 -7.6334228515625 12.8067626953125
-1.122314453125 1.560302734375 7.78125
-23.451904296875 19.5155029296875 -2.3214111328125
74.7216796875 0.622802734375 -13.0731201171875
-50.651611328125 14.8275146484375 14.1263427734375
-19.0576171875 25.8323974609375 -3.25048828125
11.824462890625 -32.458984375 29.821044921875
25.5751953125 -1.6148681640625 12.136474609375
-13.217529296875 26.48193359375 -3.32373046875
54.523681640625 -13.881103515625 15.2686767578125
3.158447265625 2.768310546875 6.0982666015625
-34.97607421875 -17.5201416015625 26.3138427734375
8.083740234375 -13.1517333984375 18.96630859375
60.94580078125 -18.296142578125 6.1810302734375
33.858154296875 -5.3553466796875 16.760009765625
71.060302734375 -39.8792724609375 27.4141845703125
96.1357421875 -21.126953125 20.5421142578125
61.4599609375 -24.64892578125 15.3427734375
-31.6650390625 -4.752197265625 13.1732177734375
-9.942626953125 -10.7901611328125 16.962890625
77.66796875 -42.623291015625 22.0858154296875
-19.204345703125 -4.618408203125 10.8056640625
-23.60009765625 4.6505126953125 2.2808837890625
97.9814453125 -0.0234375 -4.510498046875
-52.744384765625 3.2720947265625 11.153564453125
24.096435546875 -8.9033203125 19.395751953125
82.161865234375 -13.17626953125 1.501708984375
56.148681640625 27.4620361328125 -11.01904296875
21.57763671875 -1.468017578125 11.433349609375
-28.85888671875 -15.40673828125 24.30615234375
58.63232421875 6.4375 3.6051025390625
62.70849609375 -6.240478515625 14.21875
49.90576171875 -17.25732421875 17.278076171875
-0.69970703125 13.978271484375 -3.531982421875
85.3193359375 -28.2061767578125 3.61767578125
-22.574951171875 -11.417724609375 16.030029296875
98.16552734375 -12.295166015625 6.2293701171875
-13.231201171875 -3.86376953125 10.3441162109375
44.850830078125 44.3031005859375 -11.222412109375
96.08544921875 0.68212890625 -9.7838134765625
17.44140625 -23.44482421875 23.736328125
-45.939453125 19.8531494140625 12.6661376953125
-7.40576171875 -32.12744140625 28.9603271484375
99.31396484375 -2.5631103515625 -5.5885009765625
-5.02783203125 -6.4700927734375 13.3861083984375
72.130615234375 34.7320556640625 -27.275634765625
-9.7783203125 -18.144775390625 21.458984375
12.645751953125 -20.892578125 15.690185546875
-58.80126953125 -15.39794921875 23.255615234375
98.177734375 -2.5294189453125 13.38037109375
-36.8681640625 -5.7259521484375 9.8681640625
-9.060791015625 -34.167724609375 30.4412841796875
-8.430908203125 37.147705078125 -5.443603515625
77.50537109375 9.859375 -16.364013671875
9.5283203125 -18.980712890625 19.2685546875
-13.5224609375 -14.122802734375 20.3427734375
-48.9892578125 -20.815185546875 28.45556640625
72.92138671875 26.7132568359375 -26.7508544921875
-31.092041015625 -10.625244140625 19.396484375
-25.95947265625 24.118408203125 -2.5213623046875
-4.847900390625 -10.6175537109375 17.50341796875
-0.689208984375 -34.979736328125 31.8348388671875
-26.06689453125 -1.811279296875 7.548095703125
46.187744140625 21.1807861328125 -10.8282470703125
48.699951171875 48.934326171875 -10.683349609375
64.20654296875 -26.9166259765625 7.8392333984375
5.171630859375 11.235107421875 1.9847412109375
-56.884521484375 -19.172607421875 27.3626708984375
-20.278076171875 -7.4471435546875 14.841064453125
92.13330078125 5.5994873046875 6.056884765625
40.890869140625 43.2943115234375 -11.0926513671875
80.2841796875 17.96435546875 -16.7281494140625
31.88623046875 38.331298828125 -10.5128173828125
-44.878662109375 3.5111083984375 4.011474609375
84.198974609375 39.804931640625 -24.2745361328125
-14.001708984375 15.1497802734375 -2.4317626953125
79.65869140625 -2.273681640625 -5.7869873046875
58.3271484375 41.1669921875 -10.84326171875
-15.3154296875 30.0557861328125 -3.482421875
37.204345703125 12.0067138671875 -5.548095703125
105.61328125 -21.716064453125 13.9569091796875
-43.909912109375 -2.24755859375 10.1116943359375
82.751708984375 36.392822265625 -24.791259765625
14.397216796875 -8.1474609375 19.009521484375
74.31298828125 -32.5572509765625 13.5484619140625
78.012939453125 -17.08642578125 2.245361328125
-54.390869140625 -22.2994384765625 29.638427734375
52.90771484375 9.1986083984375 -1.78662109375
70.571533203125 -30.688232421875 17.45166015625
43.252197265625 7.010498046875 2.2354736328125
59.271728515625 -2.037109375 12.8558349609375
-47.38720703125 -2.7647705078125 9.898681640625
-17.829833984375 -2.6221923828125 7.5919189453125
13.136962890625 -22.6219482421875 22.0057373046875
33.87548828125 33.1165771484375 -10.9892578125
-6.574462890625 3.9010009765625 5.14306640625
-17.453857421875 -8.0361328125 14.3692626953125
77.03515625 24.1824951171875 -26.4290771484375
62.2646484375 2.8782958984375 7.9296875
9.910888671875 -4.5533447265625 5.51318359375
48.056640625 -12.6029052734375 18.9097900390625
-4.1865234375 13.9993896484375 -3.2901611328125
52.529052734375 -18.3868408203125 21.865234375
-60.154541015625 -19.83154296875 26.318115234375
15.60302734375 7.1162109375 4.668212890625
0.97412109375 12.047119140625 -2.463623046875
-61.129638671875 -17.1318359375 23.6539306640625
45.62060546875 -6.602783203125 17.182373046875
-51.82373046875 -1.7208251953125 8.1573486328125
104.144775390625 -34.7598876953125 -3.855712890625
69.5791015625 6.8739013671875 -14.8450927734375
57.090087890625 50.256103515625 -11.0955810546875
-14.25830078125 9.3486328125 -1.1470947265625
81.096435546875 8.3465576171875 -12.0224609375
-22.085693359375 14.41943359375 -1.5819091796875
47.99658203125 -15.582275390625 21.4539794921875
65.831298828125 -3.021728515625 13.7293701171875
45.69677734375 27.08642578125 -9.6552734375
-11.119140625 36.761962890625 -5.2630615234375
-0.744873046875 22.5379638671875 -4.1531982421875
-31.37158203125 -15.006103515625 23.353515625
-51.2001953125 5.959228515625 10.67431640625
95.95068359375 -0.81689453125 11.49853515625
-16.436767578125 2.0989990234375 5.084228515625
85.21533203125 20.7113037109375 -16.7939453125
-18.21337890625 30.1307373046875 -3.9549560546875
6.38525390625 -26.3809814453125 25.498291015625
23.02099609375 -5.4639892578125 15.3768310546875
56.470947265625 7.56640625 1.884033203125
75.04541015625 -37.3719482421875 19.9415283203125
97.18310546875 -15.32568359375 16.0216064453125
-41.18896484375 -5.3282470703125 8.576904296875
-26.533935546875 11.88818359375 -1.4320068359375
80.123779296875 27.6502685546875 -22.951171875
20.318603515625 -24.0489501953125 23.2633056640625
40.8310546875 -3.5487060546875 15.27783203125
99.05419921875 2.6561279296875 -3.6015625
-6.400146484375 35.5491943359375 -4.728759765625
70.273193359375 -37.99169921875 25.3516845703125
28.4326171875 -30.9259033203125 29.517578125
-8.396728515625 -41.143310546875 35.996826171875
-34.37109375 -6.1778564453125 14.03955078125
-1.570068359375 -1.620361328125 11.35595703125
75.092529296875 -40.073486328125 22.6363525390625
32.424560546875 14.291015625 -9.1822509765625
84.364013671875 5.7821044921875 -11.4312744140625
-18.848388671875 0.661376953125 4.749267578125
31.455322265625 26.519287109375 -10.4031982421875
-44.2578125 8.50537109375 2.025634765625
-9.80419921875 -15.02783203125 20.969970703125
53.768798828125 -0.654052734375 11.993408203125
77.176513671875 14.0589599609375 -20.12158203125
19.564208984375 10.3876953125 2.6099853515625
15.598388671875 -32.4083251953125 30.2821044921875
70.312744140625 0.5684814453125 -11.4608154296875
9.18359375 -33.8922119140625 31.111083984375
36.422607421875 -2.8765869140625 12.7943115234375
-49.392822265625 -5.65234375 13.5955810546875
-41.8408203125 -12.7501220703125 21.4993896484375
36.529296875 14.3114013671875 -8.4498291015625
-41.201416015625 -9.5343017578125 17.4993896484375
78.554443359375 9.096435546875 -13.3365478515625
73.824951171875 44.9178466796875 -31.1644287109375
-31.818359375 7.0980224609375 4.2188720703125
83.90771484375 -26.4248046875 0.4864501953125
10.822265625 -25.999755859375 25.4188232421875
98.13330078125 -11.510986328125 11.99609375
108.4775390625 -31.465087890625 2.2318115234375
0.914794921875 8.9796142578125 -0.0311279296875
46.01904296875 15.7701416015625 -9.6593017578125
17.172119140625 4.2310791015625 6.6771240234375
12.282470703125 -4.3157958984375 14.621337890625
-43.283203125 -1.4327392578125 5.140625
91.038330078125 -0.944580078125 12.5670166015625
-2.561767578125 32.40869140625 -4.8453369140625
-61.364013671875 -9.67041015625 16.2430419921875
73.895751953125 4.1505126953125 4.7724609375
72.7490234375 -32.4437255859375 18.53076171875
2.5888671875 -10.95068359375 17.289794921875
62.8896484375 -22.5279541015625 4.9017333984375
-15.878173828125 6.0640869140625 2.751708984375
65.564208984375 -24.694580078125 1.787353515625
52.354736328125 -19.474609375 19.017578125
45.86474609375 -2.5299072265625 13.7674560546875
7.10595703125 -30.8050537109375 27.88818359375
95.306396484375 8.5062255859375 2.6900634765625
-13.205322265625 23.72021484375 -3.92724609375
25.69580078125 -30.7919921875 29.4466552734375
79.610595703125 -29.43408203125 1.4615478515625
64.845947265625 -31.806640625 12.3016357421875
15.548828125 11.244384765625 -0.258544921875
51.089111328125 7.1478271484375 1.7562255859375
71.5615234375 -3.6402587890625 14.68017578125
84.4248046875 3.4622802734375 -7.029541015625
-14.51904296875 -18.694580078125 22.702392578125
-36.881591796875 -7.9764404296875 6.802490234375
45.765380859375 49.52490234375 -10.8153076171875
10.527587890625 -22.970703125 23.2156982421875
7.439208984375 -5.824951171875 16.1995849609375
4.8125 -2.75048828125 2.8240966796875
49.173828125 -4.9063720703125 16.28515625
-24.0654296875 -15.0572509765625 22.271484375
-10.65869140625 -28.8773193359375 26.987060546875
-12.67529296875 -9.285888671875 16.52734375
86.3369140625 -2.125732421875 2.699462890625
30.09521484375 -29.047119140625 27.812744140625
54.954345703125 -18.0819091796875 20.0592041015625
41.492919921875 25.668212890625 -10.9697265625
74.044189453125 -7.1866455078125 -6.4930419921875
71.729248046875 13.617431640625 -20.1690673828125
80.96826171875 -31.0130615234375 3.5863037109375
46.5888671875 8.7254638671875 -0.9945068359375
-7.826416015625 -19.6812744140625 22.14599609375
-18.93701171875 -12.1270751953125 19.666748046875
75.552978515625 37.4923095703125 -30.9345703125
101.008056640625 -16.504638671875 4.08837890625
81.33740234375 23.26123046875 -18.3994140625
-37.190185546875 -4.889404296875 4.71533203125
-10.31787109375 19.1776123046875 -3.8104248046875
-32.5546875 -2.2099609375 9.6649169921875
-33.658447265625 6.6865234375 1.846435546875
-23.818115234375 -11.8890380859375 18.319091796875
7.8125 -5.537109375 9.980224609375
100.08544921875 -4.4619140625 -0.985595703125
79.37109375 -34.7823486328125 8.803466796875
74.263916015625 16.2496337890625 -23.4776611328125
21.744140625 3.312255859375 5.8553466796875
-42.892333984375 -5.4610595703125 6.392578125
80.079345703125 13.9752197265625 -14.86865234375
-3.134765625 -36.27734375 31.4102783203125
11.735107421875 -18.51611328125 17.1480712890625
0.806884765625 17.5975341796875 -3.8492431640625
-33.5234375 -13.5389404296875 22.1341552734375
76.910888671875 -13.6876220703125 1.74755859375
53.10205078125 22.8448486328125 -10.89208984375
-21.84912109375 -2.716552734375 7.3658447265625
41.94921875 -0.602783203125 11.075439453125
-1.61865234375 -6.8839111328125 15.156494140625
-4.8876953125 -35.102783203125 33.2452392578125
54.81640625 -7.2200927734375 16.8031005859375
43.370849609375 8.84033203125 -0.84228515625
-2.517822265625 -21.3330078125 21.47607421875
-35.872802734375 -0.7593994140625 2.3436279296875
55.62060546875 32.955078125 -10.8270263671875
38.535888671875 0.1033935546875 10.63916015625
62.03125 -24.1298828125 19.927001953125
-4.537353515625 -27.708984375 25.8778076171875
-33.905517578125 3.5184326171875 5.798828125
75.896484375 6.0340576171875 -16.238525390625
66.97802734375 -31.43896484375 8.2794189453125
22.82568359375 -24.4976806640625 24.8677978515625
-31.1767578125 -12.0948486328125 21.4576416015625
52.608642578125 -16.895751953125 16.0341796875
-53.018798828125 -10.26416015625 17.457275390625
-42.78662109375 -5.109619140625 2.3382568359375
102.8603515625 -30.352294921875 24.3033447265625
-49.35400390625 2.144775390625 5.6505126953125
36.853271484375 -7.077392578125 17.5848388671875
72.554931640625 -34.1900634765625 20.48095703125
79.55029296875 -39.8250732421875 19.4306640625
-28.17578125 -3.16162109375 9.929443359375
-10.831787109375 -37.771728515625 33.8770751953125
23.916748046875 2.790283203125 8.623046875
58.1943359375 12.7596435546875 -6.4730224609375
-43.827392578125 -21.394287109375 29.92333984375
58.9365234375 45.563720703125 -10.9588623046875
39.4462890625 31.1151123046875 -10.7845458984375
39.465576171875 46.436767578125 -10.8758544921875
46.891357421875 -10.1080322265625 18.752197265625
3.3916015625 -3.780029296875 13.825927734375
77.58251953125 -27.869140625 -1.0186767578125
-24.092529296875 17.0120849609375 -2.4927978515625
-0.449951171875 -2.9984130859375 13.1142578125
85.693115234375 25.7017822265625 -18.5462646484375
103.4365234375 -10.495361328125 -0.720458984375
37.597412109375 21.2252197265625 -10.9429931640625
-46.787109375 -13.2000732421875 21.8370361328125
46.113525390625 2.265869140625 9.2147216796875
-53.481689453125 -15.2669677734375 23.026611328125
32.154541015625 34.8150634765625 -10.06884765625
69.6923828125 -24.5032958984375 -1.9197998046875
68.358642578125 -25.7237548828125 0.337890625
-51.57861328125 6.63916015625 13.03369140625
49.24755859375 23.5621337890625 -11.11962890625
98.075927734375 -1.7044677734375 -9.75244140625
-1.223876953125 -14.0701904296875 19.2474365234375
-16.751953125 -9.9794921875 16.2869873046875
77.982177734375 -6.4058837890625 -3.0728759765625
20.6728515625 -29.45556640625 29.0384521484375
-12.072998046875 -18.75244140625 22.3104248046875
97.03369140625 -25.1202392578125 21.753662109375
9.807373046875 5.5040283203125 4.2945556640625
-19.462890625 4.0274658203125 1.817138671875
51.021484375 34.4376220703125 -10.7271728515625
73.49951171875 -13.7977294921875 -0.0877685546875
-8.33154296875 2.65966796875 6.406494140625
47.762451171875 29.7318115234375 -8.2073974609375
11.648193359375 -9.77392578125 20.256591796875
7.30419921875 -28.1983642578125 26.8856201171875
55.82421875 55.369873046875 -11.15478515625
74.855712890625 -25.730712890625 -3.253662109375
43.3056640625 22.1982421875 -11.1578369140625
-18.708984375 8.624755859375 -1.1553955078125
-39.642333984375 -14.5946044921875 22.8948974609375
5.4658203125 -24.562744140625 24.110107421875
78.840087890625 51.172119140625 -35.0379638671875
91.902587890625 9.3524169921875 1.685546875
86.16162109375 36.1507568359375 -22.2073974609375
50.701416015625 29.313232421875 -10.848388671875
97.962158203125 5.4295654296875 -9.0927734375
82.460693359375 -5.6063232421875 -3.9891357421875
6.276611328125 -32.6195068359375 29.3165283203125
-49.700927734375 7.7835693359375 7.838134765625
60.740234375 -18.88818359375 12.2767333984375
60.331298828125 9.676513671875 -2.393310546875
-18.2939453125 23.5050048828125 -3.2408447265625
-19.15625 -27.14697265625 26.0555419921875
0.80712890625 -26.1793212890625 24.8270263671875
61.54833984375 -21.2059326171875 10.891845703125
40.1748046875 4.309814453125 6.2274169921875
-8.162353515625 9.765380859375 -1.467529296875
-13.597900390625 -20.9232177734375 23.1044921875
-21.01953125 8.4952392578125 -0.37939453125
17.731201171875 -21.311279296875 21.00146484375
37.62158203125 33.260498046875 -11.1688232421875
41.969482421875 10.9923095703125 -4.21044921875
70.435302734375 -2.290771484375 -9.43310546875
10.6552734375 -30.1927490234375 27.7928466796875
73.6650390625 42.078857421875 -30.5107421875
67.6083984375 -8.2802734375 -2.156982421875
-32.29248046875 -17.9066162109375 26.650146484375
69.227294921875 -22.374267578125 -0.85546875
-51.796875 -8.09912109375 15.0859375
75.3525390625 35.119873046875 -30.496337890625
67.285400390625 -31.90478515625 12.520751953125
33.93310546875 22.7308349609375 -11.1165771484375
11.896484375 9.4210205078125 4.0997314453125
-2.55224609375 20.756103515625 -3.8228759765625
-42.85693359375 -20.066650390625 27.9932861328125
-4.42919921875 30.4539794921875 -4.5953369140625
55.041015625 10.3779296875 -4.469482421875
-54.099609375 -6.667236328125 14.493896484375
-26.013916015625 -18.0216064453125 23.0615234375
73.46728515625 5.0194091796875 -16.805908203125
-47.788818359375 -9.3485107421875 16.843017578125
-38.137939453125 -3.21630859375 3.2679443359375
-14.146240234375 -6.1839599609375 13.6744384765625
-47.214599609375 -18.67919921875 28.6724853515625
98.139404296875 -6.2430419921875 2.30908203125
49.429443359375 16.0400390625 -9.5711669921875
42.146484375 34.7110595703125 -11.13525390625
81.03076171875 4.653564453125 -10.017333984375
-53.013916015625 -3.7813720703125 10.6217041015625
27.96240234375 -26.6151123046875 25.643798828125
-17.560791015625 35.022216796875 -4.1494140625
0.745849609375 -0.6400146484375 11.3673095703125
-39.818359375 -11.02978515625 18.959716796875
4.5869140625 -30.8427734375 28.1851806640625
56.77197265625 37.05908203125 -10.7435302734375
99.302978515625 -12.1488037109375 0.41650390625
33.719482421875 28.1859130859375 -11.022705078125
-58.88671875 -23.3411865234375 29.781494140625
78.71875 36.593017578125 -31.1695556640625
-46.897705078125 4.747802734375 4.20947265625
6.352783203125 -11.532470703125 18.815673828125
-50.932373046875 -4.72802734375 11.7196044921875
-7.616943359375 32.5516357421875 -3.8892822265625
5.461669921875 -6.02099609375 5.8624267578125
-45.75830078125 1.282470703125 6.2423095703125
79.0205078125 -24.9324951171875 -2.8203125
27.412841796875 3.9117431640625 5.9952392578125
51.478759765625 51.5562744140625 -10.7984619140625
86.15673828125 43.63623046875 -24.801025390625
33.527099609375 2.1317138671875 8.4969482421875
87.5234375 39.876220703125 -21.9722900390625
-37.36865234375 -15.0494384765625 23.3055419921875
20.5087890625 -6.0008544921875 16.9874267578125
-42.07177734375 0.08056640625 3.8076171875
61.2451171875 -20.5821533203125 20.1307373046875
-13.374267578125 -37.2381591796875 31.8427734375
-27.5478515625 -14.07275390625 19.96240234375
38.34521484375 42.14501953125 -11.0450439453125
99.03662109375 -8.6170654296875 2.1258544921875
-8.886474609375 -26.4161376953125 24.693115234375
54.676025390625 43.55859375 -10.9697265625
68.81787109375 3.126220703125 -11.5037841796875
100.019775390625 -3.5565185546875 -3.14794921875
-28.22119140625 -7.9979248046875 14.536376953125
60.096923828125 -16.275390625 8.46337890625
103.200927734375 -17.669921875 8.3138427734375
-26.15234375 -4.4637451171875 10.78515625
-16.093994140625 -24.8331298828125 24.8665771484375
35.937255859375 27.1171875 -11.055419921875
41.7744140625 50.6561279296875 -11.257568359375
52.4462890625 -11.1112060546875 16.9290771484375
-15.718017578125 -30.9327392578125 28.562255859375
-4.507080078125 -32.5108642578125 28.67919921875
-40.924072265625 -1.5296630859375 1.4578857421875
75.012451171875 -44.4019775390625 27.3614501953125
58.934326171875 36.26318359375 -11.071044921875
82.259765625 -8.3204345703125 -1.6923828125
-0.783203125 5.545166015625 3.8182373046875
26.880615234375 -24.6029052734375 23.868896484375
2.7373046875 0.9617919921875 7.49072265625
11.365966796875 4.7242431640625 5.8680419921875
106.20068359375 -17.78955078125 5.8489990234375
-14.181396484375 -34.1712646484375 30.5709228515625
70.40087890625 20.1849365234375 -22.0904541015625
85.447998046875 27.708740234375 -19.673828125
61.096923828125 -18.9619140625 8.4642333984375
71.0263671875 24.2596435546875 -24.0589599609375
-3.955810546875 11.86572265625 -2.40380859375
35.437744140625 -4.160888671875 14.921630859375
-22.062255859375 -16.9747314453125 23.1396484375
35.9609375 -9.1719970703125 20.0965576171875
4.423583984375 -3.8111572265625 7.1160888671875
31.17431640625 -3.9556884765625 13.743896484375
41.299560546875 -7.9892578125 19.2574462890625
-16.901611328125 20.18017578125 -2.65283203125
-28.08154296875 19.9205322265625 -1.842529296875
71.10888671875 3.0439453125 7.1981201171875
-6.44970703125 -9.1063232421875 16.638916015625
74.369384765625 9.254150390625 -19.2001953125
68.107177734375 -13.7664794921875 4.9349365234375
44.244140625 25.2012939453125 -10.11865234375
44.6640625 -4.52685546875 14.7166748046875
-18.119384765625 -14.8480224609375 21.953125
59.734130859375 -9.6478271484375 18.7093505859375
5.50537109375 0.8792724609375 4.665283203125
71.934326171875 32.639404296875 -26.048095703125
19.137451171875 -10.0072021484375 20.7791748046875
1.84033203125 -7.6329345703125 16.04296875
72.540771484375 21.367919921875 -24.78173828125
-27.70703125 31.1971435546875 -3.260009765625
68.762451171875 -29.4808349609375 18.127685546875
99.597412109375 -18.583740234375 11.826904296875
75.828857421875 47.8699951171875 -33.0333251953125
83.760498046875 35.2713623046875 -22.607666015625
100.08056640625 -17.0655517578125 6.959716796875
-52.084228515625 8.8133544921875 16.1793212890625
84.574951171875 -33.141357421875 7.3765869140625
53.453125 48.1563720703125 -10.818359375
-22.739013671875 -6.833251953125 14.075927734375
70.4375 -4.4237060546875 2.81201171875
68.793701171875 -12.0570068359375 0.3492431640625
57.16552734375 5.2269287109375 4.83056640625
74.876708984375 -3.125244140625 -8.9306640625
7.50439453125 10.7215576171875 1.2169189453125
46.443115234375 12.421142578125 -6.9674072265625
31.109375 18.973876953125 -9.2294921875
72.003662109375 3.82568359375 -15.5748291015625
76.81640625 -33.052001953125 13.96240234375
3.03515625 8.818603515625 0.70703125
-15.552978515625 -29.2542724609375 26.690673828125
107.670166015625 -29.1060791015625 4.9581298828125
47.977294921875 26.299560546875 -10.61767578125
32.072998046875 -1.5179443359375 12.1431884765625
99.154541015625 -4.0946044921875 12.1041259765625
99.12646484375 6.275390625 2.240478515625
31.219482421875 -8.625 18.7952880859375
-0.141357421875 -18.50537109375 20.4127197265625
-11.585693359375 33.5135498046875 -2.68896484375
21.91650390625 -8.373779296875 19.5277099609375
-30.146728515625 -8.214599609375 16.185302734375
83.8935546875 30.5662841796875 -20.758544921875
18.9375 0.6029052734375 10.2501220703125
104.154296875 -18.138916015625 5.0067138671875
86.83251953125 -29.57275390625 5.93408203125
26.234375 -8.6954345703125 19.986328125
16.600830078125 -5.5452880859375 15.357666015625
76.732421875 -11.6651611328125 0.7618408203125
-55.859130859375 -18.2342529296875 25.6265869140625
39.858642578125 38.175048828125 -10.848876953125
72.330322265625 -11.1636962890625 -3.0877685546875
97.30908203125 12.2734375 -1.2967529296875
78.28271484375 6.93994140625 -12.2266845703125
-10.71923828125 -23.5751953125 24.0889892578125
101.499267578125 -27.882568359375 21.0394287109375
-19.29833984375 -21.55224609375 24.05029296875
-44.27294921875 0.1357421875 7.948974609375
9.129638671875 -4.300048828125 14.65771484375
-2.872314453125 23.7108154296875 -4.0361328125
96.70166015625 7.0596923828125 3.886962890625
41.59130859375 48.080322265625 -10.947509765625
59.5888671875 -13.1099853515625 12.9415283203125
59.8955078125 15.35546875 -9.5052490234375
14.287109375 -20.1097412109375 21.0938720703125
6.837158203125 -9.3623046875 19.51611328125
83.920166015625 -30.3382568359375 4.398193359375
99.3076171875 2.0379638671875 4.9322509765625
99.12548828125 1.0955810546875 -2.0509033203125
-9.201416015625 7.7572021484375 0.5457763671875
35.78564453125 47.105224609375 -10.640380859375
50.699462890625 2.1533203125 7.987060546875
-29.74462890625 -5.7779541015625 13.75732421875
33.611572265625 30.939208984375 -10.975341796875
52.93505859375 6.0089111328125 4.758056640625
-22.169921875 -24.01708984375 26.7606201171875
-9.402099609375 -5.0322265625 11.2308349609375
97.959716796875 -10.1300048828125 5.9713134765625
44.130126953125 37.4329833984375 -10.800048828125
75.268310546875 30.505615234375 -29.0941162109375
42.500732421875 14.5504150390625 -8.7998046875
86.061767578125 38.4560546875 -23.1806640625
37.86474609375 2.24365234375 8.7352294921875
15.4345703125 -27.7841796875 26.0850830078125
33.340576171875 9.27001953125 -1.301513671875
67.99169921875 -0.1116943359375 11.4473876953125
81.26806640625 11.76416015625 -13.748046875
105.978271484375 -29.549072265625 1.4136962890625
-49.27880859375 14.28173828125 10.9471435546875
-40.98095703125 -8.1160888671875 6.06494140625
70.57861328125 -2.253173828125 13.31884765625
52.62744140625 36.8017578125 -11.1151123046875
97.290283203125 -13.585693359375 7.74560546875
103.529052734375 -19.26953125 10.3170166015625
72.913818359375 -1.9527587890625 12.1290283203125
44.33154296875 -1.30419921875 11.3128662109375
79.601318359375 22.5482177734375 -21.27197265625
-5.827880859375 -15.622802734375 20.0750732421875
-25.43310546875 18.7308349609375 -2.74755859375
35.838623046875 10.930419921875 -4.245361328125
98.090576171875 -14.258056640625 11.130615234375
9.802978515625 -35.8533935546875 31.853759765625
-0.503662109375 30.4234619140625 -5.020751953125
-52.673583984375 -22.6348876953125 30.9215087890625
68.39990234375 -42.7412109375 32.1688232421875
9.117919921875 -2.541259765625 5.351318359375
-18.765380859375 -6.801025390625 13.1668701171875
98.044921875 -4.9212646484375 -0.057861328125
100.00537109375 -30.50634765625 24.5263671875
72.55859375 23.8443603515625 -25.5709228515625
-19.67041015625 -17.1417236328125 22.659912109375
-10.8193359375 -2.3194580078125 8.5621337890625
50.263427734375 10.10986328125 -3.485107421875
99.000732421875 -0.222900390625 7.8304443359375
-20.237060546875 -13.760009765625 20.91162109375
97.58935546875 -18.9151611328125 15.355224609375
53.568359375 11.536865234375 -5.8037109375
55.7822265625 1.7662353515625 8.712158203125
53.76025390625 45.81103515625 -10.517578125
92.565673828125 10.2974853515625 -0.12939453125
21.258544921875 -34.1243896484375 31.2548828125
77.57568359375 19.111328125 -22.8636474609375
-21.548095703125 20.095947265625 -3.12744140625
41.49658203125 5.9713134765625 3.7164306640625
101.953369140625 -37.7003173828125 -7.2646484375
-15.90185546875 -33.2901611328125 31.5032958984375
14.62744140625 -24.5462646484375 23.685546875
82.4365234375 28.1839599609375 -19.8787841796875
-21.3974609375 -20.540771484375 24.0811767578125
-13.072021484375 -32.5247802734375 28.9041748046875
68.585205078125 -40.8128662109375 31.0557861328125
51.996826171875 -13.1898193359375 15.671142578125
9.62109375 -6.6868896484375 8.248046875
42.888427734375 -6.7918701171875 17.4136962890625
-25.07861328125 0.665771484375 5.4669189453125
43.975830078125 39.5628662109375 -10.7178955078125
24.39111328125 -6.73388671875 16.61474609375
77.449462890625 -1.2091064453125 -5.75439453125
71.015625 0.94287109375 9.498779296875
-9.893310546875 23.71875 -3.546875
-23.7568359375 33.2911376953125 -3.6732177734375
74.836181640625 -36.23193359375 21.842529296875
-0.364501953125 -11.0899658203125 17.6865234375
98.13134765625 -4.1162109375 -9.6334228515625
104.543212890625 -24.4820556640625 16.529541015625
70.2900390625 -11.505859375 -1.4658203125
76.266845703125 16.26171875 -22.500732421875
104.381103515625 -28.5633544921875 23.746337890625
72.89697265625 -3.09716796875 -9.9256591796875
75.540771484375 -34.881103515625 17.440185546875
80.12158203125 -37.9361572265625 18.129150390625
-0.81640625 -29.12548828125 26.6044921875
-47.436279296875 7.82177734375 3.7562255859375
-52.134033203125 2.17333984375 9.440673828125
-56.0615234375 -1.7799072265625 10.2655029296875
69.552734375 9.7108154296875 -15.8092041015625
96.384521484375 5.5213623046875 5.6356201171875
3.647705078125 -35.2237548828125 31.7744140625
40.467529296875 36.1494140625 -11.02587890625
78.022705078125 2.42236328125 -8.5546875
28.305419921875 2.43994140625 7.233642578125
78.611572265625 12.5555419921875 -16.1531982421875
-28.87841796875 2.2149658203125 6.603515625
22.201416015625 7.0810546875 5.0166015625
26.726806640625 0.5447998046875 10.1820068359375
56.58056640625 19.8482666015625 -10.7359619140625
60.5771484375 -5.9510498046875 16.5076904296875
46.576416015625 0.6944580078125 10.5560302734375
-20.5185546875 23.76611328125 -3.267333984375
27.27685546875 -2.5198974609375 13.0072021484375
-2.401123046875 -34.295654296875 30.7996826171875
73.5625 -35.2181396484375 8.6539306640625
75.531005859375 18.2982177734375 -24.510498046875
75.35791015625 -32.0045166015625 16.1917724609375
19.451904296875 3.4227294921875 6.8203125
30.438232421875 14.2376708984375 -8.469482421875
2.96337890625 -26.59423828125 24.7911376953125
-23.400634765625 28.450439453125 -3.297607421875
-17.391845703125 10.2545166015625 -1.3834228515625
-4.633056640625 -17.70361328125 21.11474609375
51.0478515625 14.8875732421875 -8.8759765625
-45.7734375 15.942138671875 9.8917236328125
-44.961181640625 -17.9708251953125 27.9302978515625
65.771484375 -27.3541259765625 5.6309814453125
14.343505859375 -3.51953125 14.0032958984375
55.067626953125 13.0413818359375 -7.95703125
-9.22705078125 27.896484375 -3.711669921875
96.099365234375 -2.2664794921875 13.151611328125
74.96435546875 -41.519287109375 25.49462890625
-57.793701171875 -10.989501953125 18.0723876953125
69.162109375 -5.9801025390625 -5.310546875
49.6025390625 -16.734375 22.1519775390625
42.7197265625 -3.7427978515625 14.389892578125
65.390625 -30.8114013671875 9.495361328125
-23.065185546875 1.056884765625 5.0394287109375
25.738037109375 -27.3934326171875 26.87353515625
13.0185546875 5.1019287109375 4.4334716796875
-3.8994140625 9.7337646484375 -0.900390625
37.75146484375 8.049560546875 -0.5845947265625
7.884033203125 3.0224609375 4.533203125
56.69873046875 24.9136962890625 -11.076171875
-7.95068359375 -14.5999755859375 20.1064453125
39.253662109375 12.350341796875 -7.17724609375
11.228271484375 10.48388671875 2.431640625
67.941650390625 -29.48193359375 5.099853515625
1.148193359375 2.4312744140625 7.696533203125
18.728515625 -23.1842041015625 26.490478515625
74.293212890625 -33.895263671875 6.118408203125
33.6552734375 8.236572265625 0.5533447265625
-9.53759765625 15.7822265625 -2.51220703125
-15.3310546875 34.09716796875 -4.09619140625
-29.702392578125 -12.6060791015625 18.7457275390625
21.0234375 -3.1834716796875 13.560302734375
-9.61962890625 -39.2164306640625 34.89306640625
70.878173828125 -33.9716796875 8.4935302734375
72.84765625 -12.596435546875 -1.674072265625
48.76123046875 43.03369140625 -10.8695068359375
-3.40576171875 -2.91455078125 11.44921875
70.060546875 -13.5670166015625 1.4111328125
-20.748779296875 -24.924560546875 28.2281494140625
19.159912109375 -30.5181884765625 27.915771484375
76.0419921875 -2.9677734375 -6.8592529296875
-22.658203125 -14.1373291015625 20.331298828125
96.327880859375 9.8382568359375 0.483642578125
55.28955078125 49.420654296875 -10.4951171875
-17.23583984375 14.1282958984375 -2.5919189453125
45.960693359375 52.114990234375 -11.126220703125
-26.39501953125 16.2740478515625 0.5208740234375
-4.61328125 -22.9881591796875 22.970458984375
12.165283203125 -21.4068603515625 20.6175537109375
-8.205810546875 -3.2698974609375 10.6705322265625
3.2783203125 7.15966796875 2.5555419921875
-48.09033203125 -14.4232177734375 22.8778076171875
32.0615234375 -6.314697265625 17.11376953125
76.487548828125 4.945556640625 -13.93115234375
-5.360107421875 -5.05859375 11.38232421875
36.32861328125 18.1436767578125 -10.79443359375
1.374267578125 -32.771728515625 29.190185546875
-1.59033203125 7.28076171875 1.69970703125
-4.4345703125 -12.24267578125 18.7056884765625
-39.833740234375 -6.9515380859375 14.312744140625
-0.1064453125 10.069091796875 -1.504638671875
-50.22412109375 -12.453369140625 19.3828125
15.84765625 -10.39599609375 21.631591796875
77.888671875 -38.7896728515625 18.651611328125
50.332763671875 -6.673095703125 17.1766357421875
16.267578125 -1.8560791015625 11.906982421875
59.883544921875 -9.9237060546875 13.5157470703125
-11.731201171875 -12.8702392578125 20.2725830078125
54.024658203125 41.4776611328125 -10.6846923828125
-25.358154296875 -9.037109375 15.314697265625
31.14306640625 24.25048828125 -10.4754638671875
76.81982421875 7.91943359375 -16.074951171875
-7.623779296875 -6.8310546875 14.6026611328125
5.677490234375 -37.2325439453125 33.7249755859375
77.520751953125 -34.59228515625 9.6734619140625
-19.543212890625 -2.7132568359375 8.7183837890625
72.61865234375 30.35791015625 -27.6220703125
-5.947265625 27.8074951171875 -4.4954833984375
-24.78125 8.6104736328125 -1.029052734375
83.03662109375 -42.02294921875 23.9312744140625
-20.120849609375 -25.0546875 25.5726318359375
-40.148193359375 -16.8046875 26.0926513671875
107.54736328125 -27.2081298828125 5.7154541015625
-34.05859375 -9.9219970703125 18.3515625
25.134033203125 -29.494873046875 27.966796875
74.1767578125 -30.626953125 2.2613525390625
68.16943359375 -28.1478271484375 3.362060546875
43.60498046875 49.45751953125 -11.1942138671875
70.138427734375 -26.72119140625 0.4794921875
71.62744140625 -29.8607177734375 3.3670654296875
22.990966796875 0.9332275390625 9.0260009765625
68.869140625 -33.6092529296875 8.994384765625
-21.38232421875 4.5433349609375 1.341552734375
6.50927734375 12.6165771484375 2.6710205078125
71.68994140625 -42.668212890625 28.556884765625
73.210205078125 7.8912353515625 -18.22265625
71.47216796875 -31.9771728515625 5.48876953125
61.211669921875 -19.69482421875 16.149169921875
4.850830078125 -17.000732421875 19.4141845703125
-58.746826171875 -13.465576171875 21.138671875
-6.25927734375 -29.3828125 27.1883544921875
-8.031005859375 11.849609375 -2.521728515625
-51.6767578125 -20.6116943359375 29.0904541015625
100.331787109375 -14.747802734375 4.851806640625
2.670166015625 -13.881591796875 17.972412109375
-26.4912109375 26.029296875 -2.95654296875
98.126220703125 0.4271240234375 -9.5831298828125
10.234130859375 -17.2845458984375 16.5596923828125
-3.906005859375 34.7169189453125 -4.1329345703125
-10.92578125 3.0303955078125 5.4744873046875
-37.6005859375 -19.2918701171875 27.3255615234375
-13.343994140625 12.627197265625 -2.5916748046875
-45.033203125 -11.72216796875 19.743408203125
-21.15869140625 -10.6976318359375 17.2847900390625
81.28759765625 29.763427734375 -23.36083984375
-47.100341796875 -21.237548828125 29.0372314453125
75.148193359375 11.60888671875 -20.3280029296875
5.691162109375 -23.24462890625 22.39306640625
13.5830078125 -33.4444580078125 29.9609375
-14.7021484375 -0.76171875 7.4910888671875
57.349853515625 35.0191650390625 -10.922119140625
46.709716796875 36.173828125 -11.1014404296875
69.762939453125 -4.4356689453125 -6.4576416015625
-54.8212890625 -12.556640625 19.376708984375
18.0986328125 -3.1014404296875 14.1480712890625
-25.494384765625 4.6036376953125 2.96484375
-39.98046875 0.862548828125 2.592041015625
-15.495849609375 -14.8853759765625 20.9375
-17.71533203125 -5.8402099609375 11.389404296875
7.116455078125 -35.912109375 32.7730712890625
-37.1787109375 -4.21435546875 1.50341796875
-38.78369140625 -6.4072265625 5.09033203125
-23.260986328125 -21.06884765625 24.84326171875
-1.144775390625 -24.642822265625 24.139892578125
-57.135498046875 -20.562744140625 28.9443359375
76.973876953125 43.8802490234375 -33.21484375
-53.584716796875 -13.83544921875 21.606201171875
-44.001708984375 -5.4892578125 13.333984375
92.0986328125 2.6243896484375 8.7928466796875
-32.391357421875 -16.4566650390625 25.211669921875
-59.103515625 -6.4185791015625 13.359130859375
-36.830322265625 -4.507568359375 12.0272216796875
-59.662841796875 -10.5364990234375 18.6376953125
-8.947265625 -22.275634765625 22.95556640625
57.140380859375 52.30029296875 -10.6248779296875
65.200927734375 -28.8489990234375 8.5382080078125
81.664306640625 -2.529541015625 -5.583984375
-56.577880859375 -9.4349365234375 15.7203369140625
65.671142578125 0.789306640625 9.5233154296875
-63.40966796875 -9.87890625 16.2947998046875
-39.541748046875 6.96044921875 1.0821533203125
-37.14599609375 5.123779296875 1.8662109375
-36.30517578125 -11.709716796875 20.3671875
80.667724609375 20.836669921875 -17.894287109375
44.8828125 33.295166015625 -11.05859375
7.850341796875 -2.5419921875 3.5574951171875
-44.586669921875 5.038330078125 2.4886474609375
-26.656494140625 13.7940673828125 -0.8907470703125
86.859619140625 -25.1324462890625 1.898681640625
104.65380859375 -26.540283203125 20.0440673828125
42.743896484375 12.1536865234375 -5.79638671875
75.57421875 -35.7701416015625 7.35400390625
77.806396484375 4.6607666015625 -10.5703125
-43.8486328125 -15.0023193359375 22.980224609375
-52.956298828125 -0.0009765625 8.4417724609375
-31.785400390625 -0.42529296875 9.277587890625
-46.151123046875 -9.99462890625 17.8497314453125
98.33203125 -11.2010498046875 7.8719482421875
57.573486328125 18.2222900390625 -10.1976318359375
64.021728515625 -1.6822509765625 12.641357421875
105.512939453125 -20.3853759765625 11.5863037109375
-60.9912109375 -13.1700439453125 19.5185546875
-48.49853515625 -10.4410400390625 18.3365478515625
-49.368896484375 3.945556640625 6.6400146484375
-39.822265625 -20.457763671875 29.31787109375
75.131591796875 -13.2896728515625 0.9915771484375
-49.441650390625 -1.0921630859375 8.8681640625
44.694091796875 3.018310546875 8.068359375
-40.1220703125 -3.64990234375 2.572509765625
11.810302734375 -19.673583984375 19.5045166015625
50.993896484375 -9.38330078125 17.332763671875
57.601318359375 38.958251953125 -10.6458740234375
84.46044921875 14.541015625 -14.259033203125
-56.949951171875 -12.3809814453125 19.2430419921875
60.96533203125 -6.9722900390625 14.7645263671875
74.7783203125 -38.1370849609375 22.3277587890625
-47.30859375 -6.0452880859375 13.5521240234375
104.88671875 -14.1802978515625 3.121337890625
-11.814453125 -0.0404052734375 5.9130859375
97.146484375 -22.0992431640625 19.165771484375
69.533447265625 -43.9312744140625 31.0926513671875
83.7880859375 0.7005615234375 -6.357666015625
75.236572265625 45.4891357421875 -32.4027099609375
-38.283935546875 2.6983642578125 3.5029296875
73.066650390625 14.580322265625 -21.576904296875
59.341064453125 -11.4193115234375 11.057861328125
3.05859375 -18.136474609375 19.5755615234375
41.37109375 30.7613525390625 -10.670166015625
-9.976806640625 -27.8870849609375 25.392822265625
20.23681640625 -32.0184326171875 29.5845947265625
-63.27490234375 -11.1925048828125 17.7928466796875
-60.64208984375 -18.481689453125 24.986083984375
-56.83154296875 -3.096435546875 11.5875244140625
98.609619140625 -18.9542236328125 13.6881103515625
-20.146240234375 32.47802734375 -3.524658203125
66.35888671875 -31.2669677734375 14.117919921875
98.731201171875 8.7476806640625 -0.20751953125
92.09619140625 -2.4599609375 13.189208984375
74.560302734375 -34.2880859375 11.0653076171875
-1.29541015625 -0.1712646484375 9.7080078125
13.41015625 -6.9215087890625 17.6021728515625
58.01318359375 27.9532470703125 -11.314453125
77.85791015625 -29.02294921875 0.71875
-41.259765625 -19.103515625 26.611328125
71.4013671875 -9.289306640625 -4.523193359375
0.6728515625 24.401123046875 -5.3895263671875
-36.77880859375 -7.3087158203125 15.60546875
80.336181640625 46.8319091796875 -34.4620361328125
63.029541015625 -21.1083984375 2.0780029296875
73.982421875 -1.8743896484375 -10.9715576171875
32.0556640625 23.1456298828125 -8.336181640625
45.900634765625 -8.5216064453125 18.2423095703125
49.1689453125 -15.227783203125 17.134033203125
-23.18701171875 25.0013427734375 -3.4251708984375
6.05126953125 -15.189697265625 17.7899169921875
-12.99267578125 34.6435546875 -4.01171875
76.15380859375 -4.8997802734375 -5.142822265625
47.705078125 7.9683837890625 1.419921875
-2.241455078125 4.658935546875 4.723388671875
-14.849609375 -27.26416015625 26.0718994140625
75.103759765625 51.413330078125 -32.8203125
4.361572265625 -38.6260986328125 33.955810546875
45.107421875 31.1680908203125 -10.0352783203125
47.3583984375 5.4674072265625 5.17333984375
23.23681640625 3.862060546875 6.9454345703125
40.269775390625 10.2452392578125 -3.6461181640625
60.056884765625 12.2694091796875 -6.442138671875
-51.022705078125 12.9495849609375 14.3359375
51.110595703125 23.076171875 -11.091064453125
47.577880859375 -11.723388671875 20.55419921875
53.776611328125 3.6790771484375 7.0572509765625
-15.89990234375 -1.5633544921875 8.91455078125
-2.921875 0.889892578125 7.865966796875
54.100830078125 17.40283203125 -10.167724609375
-12.77880859375 10.352294921875 -1.9678955078125
74.618896484375 21.0074462890625 -25.3084716796875
98.282958984375 -3.95068359375 -7.7271728515625
-48.498779296875 13.0958251953125 9.655517578125
97.66796875 -9.2760009765625 11.27294921875
27.816162109375 -6.46630859375 17.957275390625
56.400146484375 14.7928466796875 -8.670654296875
52.93212890625 34.51171875 -10.817626953125
72.241943359375 -7.3197021484375 -7.123046875
56.524658203125 -7.7333984375 17.49560546875
39.0322265625 -3.281494140625 14.4105224609375
23.0537109375 -27.65625 26.9927978515625
50.6015625 42.41162109375 -10.9271240234375
77.043212890625 32.274169921875 -30.041259765625
-5.746826171875 23.9232177734375 -4.422607421875
61.656005859375 -13.1741943359375 18.8076171875
-24.4072265625 13.1705322265625 -1.7281494140625
69.69140625 0.5130615234375 10.801025390625
80.586181640625 -33.2490234375 14.84619140625
15.553955078125 3.2735595703125 9.313232421875
97.889892578125 -4.4072265625 13.5159912109375
-0.65966796875 27.2095947265625 -4.7967529296875
-54.018798828125 -18.16357421875 26.1109619140625
47.340576171875 50.8126220703125 -10.96533203125
52.6240234375 -17.7933349609375 18.1650390625
-22.4423828125 30.19970703125 -3.3604736328125
98.1240234375 -3.1282958984375 -1.42333984375
57.580322265625 1.1484375 8.660888671875
73.082275390625 17.7392578125 -23.4765625
32.91943359375 46.1195068359375 -10.3245849609375
78.02734375 47.355712890625 -34.29541015625
74.467529296875 -16.7794189453125 2.654296875
50.137451171875 -15.9019775390625 15.5125732421875
48.625244140625 21.580810546875 -10.841552734375
101.45947265625 -16.927490234375 8.45556640625
70.546630859375 15.102294921875 -20.1646728515625
47.55908203125 -3.0369873046875 14.4549560546875
55.538330078125 -3.9468994140625 15.44580078125
103.053466796875 -26.071044921875 17.9407958984375
100.57373046875 -23.28173828125 16.062255859375
60.11962890625 8.8353271484375 -0.7080078125
47.849853515625 6.5567626953125 3.0296630859375
80.76611328125 -6.4405517578125 -4.1444091796875
7.253662109375 -4.662109375 11.565673828125
100.6640625 -20.4749755859375 12.636962890625
71.385498046875 18.3114013671875 -22.3385009765625
-25.962890625 -10.919921875 17.1973876953125
54.111083984375 1.1453857421875 9.355224609375
-7.203369140625 -34.335693359375 30.7596435546875
49.95556640625 12.393310546875 -6.5870361328125
71.625732421875 27.808349609375 -25.91357421875
84.644287109375 18.968994140625 -16.3302001953125
58.443115234375 9.6295166015625 -2.31298828125
-10.078857421875 -8.9935302734375 16.3909912109375
9.618408203125 10.082763671875 0.990234375
-1.564453125 -8.989501953125 16.636962890625
-16.524658203125 24.75244140625 -3.4566650390625
49.158935546875 -1.831298828125 12.6002197265625
96.38134765625 3.8187255859375 7.108154296875
78.7353515625 18.0765380859375 -19.55078125
-6.09228515625 31.3106689453125 -4.3707275390625
81.5048828125 -15.4537353515625 1.9444580078125
68.9169921875 -3.28955078125 14.1597900390625
59.3203125 31.2864990234375 -10.7353515625
50.4814453125 -4.4818115234375 14.9991455078125
8.497314453125 -5.310546875 6.499267578125
-5.693115234375 9.04931640625 -0.8004150390625
55.689453125 53.4722900390625 -10.8751220703125
7.22802734375 8.7303466796875 2.9908447265625
57.176025390625 11.6307373046875 -5.332763671875
58.8525390625 50.8084716796875 -10.7376708984375
-2.875732421875 27.0577392578125 -4.6243896484375
31.4296875 6.8260498046875 3.03515625
-9.592041015625 5.9073486328125 2.9998779296875
62.169677734375 -21.0250244140625 6.6427001953125
-15.177734375 28.185302734375 -3.9443359375
-26.656005859375 -15.58935546875 24.4486083984375
61.43603515625 -18.125732421875 4.378173828125
-13.468994140625 31.9482421875 -1.5567626953125
-50.189453125 -18.7838134765625 27.44482421875
79.08154296875 -41.1019287109375 20.7210693359375
17.753173828125 10.870849609375 2.5748291015625
31.186767578125 9.724365234375 -2.9617919921875
60.424560546875 -0.6729736328125 11.90869140625
61.242431640625 -16.5411376953125 21.740966796875
71.21826171875 8.3740234375 -17.6202392578125
97.848388671875 -15.367431640625 7.621337890625
80.121826171875 -11.086181640625 -1.14111328125
5.55908203125 -5.572265625 15.9796142578125
75.010009765625 -43.8765869140625 25.4290771484375
22.60302734375 -0.251953125 10.4166259765625
70.8994140625 -16.283935546875 2.061279296875
32.607177734375 11.7872314453125 -6.282958984375
36.822998046875 6.0087890625 3.7569580078125
71.447021484375 9.9815673828125 -18.609130859375
