64.73828125 14.916748046875 -33.055908203125
45.173095703125 8.9957275390625 -13.6519775390625
-20.67236328125 3.6846923828125 -4.3905029296875
99.254638671875 -24.241943359375 -2.5828857421875
-12.290283203125 15.9656982421875 -6.3641357421875
-0.4267578125 -27.807373046875 17.5401611328125
91.614501953125 -23.364013671875 -2.7509765625
33.679931640625 -11.9112548828125 7.609130859375
66.7998046875 -47.72607421875 21.007568359375
70.7421875 42.6151123046875 -35.0089111328125
3.694091796875 -0.73095703125 5.94677734375
39.1806640625 -30.8526611328125 21.9501953125
-17.078369140625 25.9327392578125 -6.91552734375
-49.313232421875 29.419921875 6.56884765625
13.248291015625 -13.9703369140625 10.73046875
73.740478515625 15.875 -26.1033935546875
-52.66650390625 -19.2593994140625 9.0540771484375
73.4990234375 -41.91259765625 0.2044677734375
73.17919921875 25.1282958984375 -27.8760986328125
96.65185546875 -39.413330078125 17.4908447265625
-40.067138671875 -8.7607421875 3.4891357421875
20.057861328125 -21.66845703125 19.2557373046875
28.805908203125 -27.7332763671875 25.310302734375
-36.0869140625 33.0634765625 5.94189453125
-38.1435546875 -17.892333984375 12.219970703125
-15.8525390625 -4.736083984375 -0.590576171875
45.7880859375 38.6331787109375 -13.859619140625
-29.75732421875 -35.4339599609375 25.021240234375
-5.59619140625 -7.4857177734375 3.1788330078125
-51.651611328125 7.398681640625 9.4090576171875
53.1494140625 -8.62890625 4.85693359375
-69.597900390625 18.4940185546875 14.6927490234375
-6.0546875 19.72607421875 8.4281005859375
-83.865478515625 -19.9095458984375 18.14501953125
62.227294921875 -16.6341552734375 -6.8172607421875
68.388427734375 -20.0902099609375 -3.8934326171875
-40.68359375 -22.8516845703125 19.00830078125
-7.15673828125 -35.754150390625 21.8218994140625
-27.296142578125 -14.1134033203125 6.6624755859375
-7.242919921875 -17.152587890625 8.650390625
69.823486328125 1.07666015625 -16.0318603515625
-44.300048828125 -30.45654296875 27.6072998046875
95.50244140625 -16.0623779296875 -11.5
48.55859375 17.6466064453125 -14.0068359375
74.46044921875 9.3253173828125 -23.2822265625
58.947998046875 -32.61572265625 6.83935546875
59.114990234375 -25.9263916015625 5.3902587890625
-83.832275390625 -29.011474609375 15.2491455078125
-88.620361328125 -19.9202880859375 8.64501953125
92.580322265625 -35.1072998046875 11.3382568359375
77.436279296875 -11.634033203125 6.598388671875
80.4013671875 48.509033203125 -31.59130859375
-94.01025390625 -33.9793701171875 10.3663330078125
-83.703125 -23.7843017578125 13.0997314453125
38.425537109375 -0.550048828125 -9.92041015625
9.678955078125 -36.66357421875 24.9388427734375
72.2744140625 -26.2835693359375 -2.16650390625
23.560302734375 1.5543212890625 -12.391845703125
32.033447265625 9.762451171875 -13.497314453125
28.0234375 18.8958740234375 -13.6796875
5.669677734375 -19.1602783203125 16.284423828125
80.875 -37.8876953125 5.857177734375
-48.9775390625 -27.674072265625 24.454345703125
44.044677734375 2.0460205078125 -12.0135498046875
-15.942626953125 -28.5018310546875 20.3126220703125
-53.885986328125 20.4530029296875 7.36669921875
73.355712890625 47.03125 -31.7103271484375
22.84033203125 8.7080078125 -13.3182373046875
-83.010986328125 -33.0140380859375 5.607666015625
79.93115234375 40.7557373046875 -30.326171875
102.45556640625 -7.599609375 -0.3614501953125
-56.68701171875 -23.671630859375 19.599853515625
47.589111328125 -21.4351806640625 17.7489013671875
62.170654296875 -26.50439453125 -0.04345703125
-0.35302734375 -10.3109130859375 2.8359375
-58.027099609375 -16.572509765625 12.2880859375
-35.609619140625 5.946044921875 -3.4276123046875
-11.04248046875 35.633544921875 4.0335693359375
-44.965576171875 -2.649658203125 3.1588134765625
6.926513671875 21.5341796875 7.839111328125
-8.6728515625 2.263427734375 -5.248291015625
79.03271484375 -8.2637939453125 2.592041015625
-74.697265625 -24.7900390625 20.2230224609375
-2.50244140625 -19.122314453125 4.7174072265625
59.0654296875 -33.98974609375 1.3125
34.90625 -6.2679443359375 0.674072265625
-64.0 -23.4063720703125 19.4290771484375
76.12890625 32.00244140625 -31.2730712890625
2.61279296875 -16.328857421875 9.719482421875
27.642822265625 -11.559814453125 7.695556640625
-45.95703125 -22.70751953125 19.1337890625
52.574462890625 -24.0240478515625 9.896240234375
48.1005859375 -16.3599853515625 12.609130859375
-13.48583984375 5.5155029296875 -4.9835205078125
37.22998046875 -21.5037841796875 16.0986328125
-53.421142578125 -34.0487060546875 31.1500244140625
53.211181640625 -28.091552734375 6.6905517578125
99.507080078125 -19.3912353515625 -8.1358642578125
-67.217041015625 -27.0238037109375 23.3089599609375
-44.661865234375 -12.49169921875 5.2459716796875
71.831298828125 -18.7191162109375 14.3250732421875
-6.71240234375 12.432861328125 -5.6002197265625
-20.2099609375 12.72412109375 -5.3070068359375
3.745361328125 -36.9442138671875 23.0174560546875
-26.727294921875 20.50341796875 -5.4339599609375
34.32080078125 42.3851318359375 -10.257568359375
65.40625 -48.702392578125 12.401123046875
103.06689453125 -18.376708984375 1.0946044921875
62.94140625 -5.0821533203125 -26.5078125
-46.487548828125 -34.552490234375 31.76513671875
78.860595703125 -45.136962890625 11.6533203125
1.600341796875 17.2589111328125 8.202392578125
41.239990234375 -28.65185546875 13.6021728515625
74.822265625 -24.0306396484375 1.629150390625
21.263916015625 -37.0355224609375 24.5665283203125
16.867431640625 -11.8631591796875 7.8367919921875
101.077392578125 -11.4591064453125 -16.3623046875
67.512451171875 33.2020263671875 -33.219482421875
64.5625 -36.615478515625 -0.70654296875
-38.322509765625 -29.1514892578125 26.35546875
101.648681640625 -13.228271484375 -9.38427734375
-13.178466796875 -33.0833740234375 21.7733154296875
3.80615234375 -29.8955078125 19.348876953125
-47.654052734375 -18.8162841796875 11.2802734375
-10.114501953125 -11.0665283203125 6.5579833984375
28.679931640625 -24.1456298828125 21.381591796875
71.560302734375 -18.1904296875 -8.22265625
94.0966796875 -5.9935302734375 -20.1529541015625
-19.9765625 -21.8734130859375 16.1531982421875
66.052001953125 12.7874755859375 -25.0052490234375
-49.049560546875 -17.5147705078125 2.14501953125
90.0947265625 -27.463134765625 1.210205078125
-11.949951171875 20.9462890625 -6.662841796875
39.376953125 35.318115234375 -13.466064453125
22.8056640625 -3.103759765625 -5.1103515625
-47.93701171875 18.073974609375 8.1324462890625
-4.6494140625 -19.2100830078125 16.5411376953125
94.373046875 -32.2811279296875 5.095947265625
-24.065185546875 35.87548828125 3.916748046875
-66.6005859375 20.0701904296875 10.6943359375
9.505615234375 -4.1785888671875 14.2552490234375
99.1845703125 -28.5426025390625 12.8428955078125
0.088134765625 9.54296875 7.522216796875
77.927734375 9.2010498046875 -19.718994140625
32.092041015625 4.1895751953125 -13.13623046875
-54.288818359375 -29.4676513671875 29.677734375
-50.333740234375 2.062744140625 8.2979736328125
-19.118896484375 -37.8375244140625 24.40185546875
68.617431640625 -5.00146484375 -13.5360107421875
-18.658447265625 -1.7347412109375 -3.180419921875
28.279296875 39.659423828125 -13.6427001953125
73.948486328125 -27.6539306640625 8.23388671875
8.027099609375 -11.90673828125 8.3570556640625
26.11962890625 -7.7088623046875 3.15625
27.9462890625 12.330078125 -13.724609375
45.602294921875 43.633056640625 -13.910400390625
45.675537109375 -4.34375 -3.166015625
74.50244140625 -33.9659423828125 1.88427734375
74.91455078125 -7.8182373046875 -14.870361328125
-10.019287109375 -39.394775390625 24.9759521484375
31.049072265625 -2.203857421875 -6.633056640625
-61.497314453125 -31.0390625 27.4554443359375
-43.94287109375 0.01708984375 6.962890625
63.71484375 -41.255615234375 -1.2210693359375
72.8046875 -36.625732421875 -1.8685302734375
89.6484375 -24.626953125 -6.87646484375
-8.43505859375 2.80419921875 12.81982421875
77.366455078125 37.2984619140625 -32.2882080078125
62.401123046875 4.9635009765625 -29.1373291015625
30.577392578125 33.3397216796875 -13.839111328125
23.074951171875 -13.6748046875 9.998779296875
-82.226318359375 -29.5501708984375 21.3819580078125
50.164306640625 7.8154296875 -13.7890625
-16.462158203125 33.2431640625 4.8695068359375
-28.922607421875 -21.8013916015625 16.031494140625
-48.735595703125 -20.0638427734375 16.2967529296875
102.57275390625 -12.248779296875 8.890380859375
-29.0087890625 -2.178466796875 -1.897705078125
-49.779296875 -12.447509765625 3.1627197265625
-77.589111328125 -32.4635009765625 28.224365234375
-11.38916015625 -3.8551025390625 -1.4522705078125
70.758544921875 -30.35302734375 0.8311767578125
66.152099609375 43.0206298828125 -35.1727294921875
90.897705078125 -17.1119384765625 -11.961669921875
67.32470703125 28.6080322265625 -31.87158203125
-24.578369140625 -22.852294921875 17.110595703125
-4.939697265625 -2.9375 3.19677734375
-51.5595703125 -5.2176513671875 1.9298095703125
72.95947265625 0.7364501953125 -19.3643798828125
63.913330078125 19.720458984375 -31.9783935546875
12.285888671875 -35.2274169921875 21.447265625
12.55810546875 -6.4554443359375 8.9566650390625
18.161376953125 -18.9571533203125 16.0438232421875
58.18798828125 -40.00634765625 1.69091796875
36.212890625 -27.42822265625 21.3375244140625
-57.81103515625 22.7972412109375 7.3602294921875
-26.152099609375 -16.7291259765625 10.2237548828125
7.33203125 7.1715087890625 11.4381103515625
-33.23681640625 14.469970703125 -4.1650390625
69.4716796875 15.9395751953125 -24.5135498046875
97.454345703125 -35.1827392578125 13.14990234375
-5.72900390625 31.73974609375 5.3497314453125
-0.280029296875 -40.5234375 25.82080078125
-17.435546875 -12.3514404296875 8.017333984375
63.798583984375 -1.56298828125 -17.2374267578125
-12.310302734375 26.2213134765625 6.7960205078125
101.33935546875 -22.1796875 7.3399658203125
-79.0361328125 -21.5751953125 15.103271484375
-1.323974609375 26.6849365234375 6.59326171875
-36.2783203125 -14.4681396484375 7.9344482421875
-19.690673828125 8.0960693359375 -4.84716796875
-68.866455078125 14.3299560546875 16.3389892578125
24.381103515625 -42.01171875 27.4910888671875
-67.096435546875 25.3765869140625 9.99658203125
-4.98681640625 -31.8558349609375 19.67041015625
-1.443115234375 -36.90625 22.8387451171875
38.431640625 16.074462890625 -11.1988525390625
32.613525390625 28.862548828125 -13.7982177734375
-21.334716796875 -7.4276123046875 2.526611328125
-62.122802734375 -17.9803466796875 13.64404296875
-22.995361328125 -28.697265625 21.883056640625
12.3955078125 -23.0706787109375 20.2833251953125
42.612548828125 -15.482177734375 11.935302734375
-88.3525390625 -22.4989013671875 16.573974609375
62.49462890625 26.5621337890625 -32.2005615234375
38.061279296875 25.9964599609375 -13.5574951171875
6.0 1.0721435546875 10.318603515625
77.8388671875 -28.9202880859375 6.515380859375
16.631591796875 -8.4813232421875 4.98486328125
24.41748046875 -16.65966796875 13.32080078125
79.41455078125 -33.5015869140625 1.281982421875
69.699951171875 22.431884765625 -28.267333984375
60.735595703125 -8.875732421875 -14.428955078125
0.856201171875 -19.0462646484375 16.273681640625
78.243896484375 -39.6456298828125 2.1785888671875
62.63232421875 -8.391845703125 -18.4840087890625
45.437255859375 28.3272705078125 -14.0216064453125
45.6806640625 20.978515625 -13.8924560546875
-62.469970703125 18.918701171875 11.75244140625
36.08544921875 -8.6866455078125 4.1478271484375
40.9775390625 44.4979248046875 -13.8077392578125
-21.5361328125 -18.16552734375 11.612060546875
14.461181640625 -17.1099853515625 13.537109375
-66.91015625 -20.685546875 16.6807861328125
40.804443359375 -3.763916015625 -4.765625
48.306396484375 47.49658203125 -13.4381103515625
20.75341796875 -7.7349853515625 3.5860595703125
-43.7158203125 -16.2379150390625 7.82177734375
-56.736083984375 -13.3853759765625 8.2161865234375
-60.587646484375 26.4716796875 7.7474365234375
-16.601318359375 15.0693359375 -5.75048828125
-5.884765625 10.17431640625 6.90673828125
-30.191162109375 -11.460205078125 4.14453125
-42.333740234375 -16.1575927734375 12.1451416015625
67.808837890625 -31.3609619140625 4.7523193359375
-2.87841796875 -22.97509765625 20.8232421875
17.478759765625 -39.0946044921875 24.7745361328125
-21.40087890625 20.8681640625 -5.906005859375
-64.6552734375 -15.8525390625 10.5301513671875
64.689697265625 -13.1312255859375 -9.865478515625
-3.330078125 -16.560302734375 1.4552001953125
-23.502197265625 -34.1505126953125 23.875732421875
8.327880859375 -39.5758056640625 28.07080078125
-11.836669921875 -16.0845947265625 12.4005126953125
76.342041015625 -10.871826171875 -8.8797607421875
70.246826171875 -12.711181640625 -9.9561767578125
69.123291015625 9.0150146484375 -22.000732421875
-52.805908203125 11.2911376953125 7.0284423828125
-25.678955078125 13.2470703125 -4.703369140625
41.2763671875 28.6627197265625 -13.8492431640625
-11.7470703125 -26.6929931640625 19.0556640625
-7.914794921875 21.9677734375 -6.9296875
94.32861328125 -0.41552734375 -23.92236328125
77.14208984375 -23.2005615234375 11.7076416015625
102.91064453125 -19.82470703125 -13.4156494140625
-10.782470703125 11.620849609375 -5.97216796875
96.84375 -21.9951171875 -5.1241455078125
43.2451171875 -8.1636962890625 3.46533203125
-81.722900390625 -32.4522705078125 24.50732421875
-52.008056640625 25.70751953125 6.3758544921875
4.115234375 30.2415771484375 5.4342041015625
-10.613037109375 -22.6666259765625 17.00146484375
4.147705078125 -15.76953125 3.0499267578125
-34.11572265625 -4.2470703125 -0.893310546875
46.24462890625 -6.1629638671875 0.5185546875
74.3505859375 20.7635498046875 -27.468017578125
-16.662841796875 -16.126220703125 10.1192626953125
-57.480224609375 14.639404296875 7.2119140625
-43.116943359375 -16.91943359375 3.718017578125
40.1826171875 49.3309326171875 -13.6141357421875
49.39111328125 -11.1982421875 6.9267578125
63.892822265625 -47.34814453125 5.7020263671875
81.57177734375 -38.6346435546875 11.0367431640625
28.665771484375 22.9500732421875 -13.5872802734375
75.039306640625 -20.962646484375 -1.2882080078125
-30.51416015625 -18.2913818359375 12.25390625
77.62548828125 49.9696044921875 -34.2158203125
-82.885986328125 -36.43359375 7.8426513671875
23.12841796875 18.1690673828125 -13.1610107421875
41.499267578125 10.766357421875 -13.598876953125
-27.2724609375 6.017578125 -3.7926025390625
48.58837890625 -0.712646484375 -9.8099365234375
69.88134765625 -44.276123046875 1.5732421875
49.99267578125 -7.0926513671875 1.776611328125
-67.458740234375 6.4718017578125 19.6431884765625
33.19873046875 -27.0616455078125 24.885498046875
78.259521484375 17.3704833984375 -25.299560546875
0.81982421875 2.0899658203125 7.1107177734375
99.661865234375 -20.2989501953125 -1.8541259765625
-10.020751953125 17.5343017578125 7.9276123046875
-83.90234375 -31.5626220703125 11.6998291015625
32.00146484375 -16.1927490234375 12.2164306640625
71.4951171875 -49.96826171875 7.4554443359375
-5.68212890625 4.48388671875 -3.4971923828125
75.59326171875 28.213134765625 -30.1041259765625
-2.690673828125 -4.5284423828125 0.0604248046875
-9.992919921875 8.9119873046875 8.0008544921875
81.0048828125 -32.2159423828125 8.6435546875
-23.81787109375 -0.6038818359375 -3.017333984375
91.742431640625 -13.339599609375 -12.95166015625
30.22900390625 -21.7144775390625 18.6248779296875
57.754150390625 -45.4451904296875 8.141845703125
76.146484375 -3.49072265625 -16.5780029296875
69.968505859375 37.955322265625 -34.107666015625
77.034423828125 -14.2049560546875 9.9271240234375
-7.939697265625 -5.1375732421875 0.0125732421875
-83.952880859375 -34.5296630859375 16.0985107421875
74.404296875 42.1162109375 -32.524169921875
-63.301513671875 -33.370361328125 30.09228515625
-16.8017578125 -34.59130859375 22.881103515625
-39.965087890625 -31.8770751953125 28.9259033203125
-64.592529296875 8.751708984375 17.770751953125
46.085205078125 -30.9332275390625 16.238525390625
-15.8603515625 -20.8726806640625 15.130859375
42.562255859375 5.80419921875 -13.5062255859375
80.2041015625 -41.6849365234375 8.917724609375
-21.22705078125 -11.287353515625 5.558349609375
102.388671875 -26.7374267578125 -4.8441162109375
-35.269287109375 22.3094482421875 -5.0494384765625
23.71240234375 27.523193359375 -13.4388427734375
-59.21630859375 -10.961181640625 6.3916015625
81.260986328125 -23.2161865234375 19.4931640625
40.883056640625 -13.132568359375 9.333251953125
-25.29150390625 -6.097900390625 0.9697265625
-46.882080078125 -25.388916015625 22.07861328125
102.45458984375 -26.88134765625 1.6851806640625
48.141357421875 -3.0797119140625 -5.9168701171875
-38.072021484375 -5.93359375 5.2835693359375
76.2001953125 -45.9093017578125 7.1253662109375
-34.84228515625 -7.273681640625 1.7783203125
-90.893310546875 -31.6568603515625 10.274169921875
66.673095703125 -23.4825439453125 -1.3748779296875
-53.196533203125 3.48095703125 10.507568359375
39.177978515625 -18.3653564453125 14.8988037109375
3.04541015625 21.6708984375 7.82666015625
-77.533447265625 -26.762939453125 21.9801025390625
70.66845703125 -9.22412109375 -12.4298095703125
46.852294921875 34.72900390625 -13.8582763671875
-45.406005859375 30.284423828125 5.47412109375
-42.365966796875 -5.7220458984375 4.155517578125
-6.335205078125 15.2464599609375 7.81201171875
72.889404296875 34.5902099609375 -30.15185546875
93.80615234375 -37.6649169921875 13.9561767578125
95.59716796875 -25.0804443359375 -1.705322265625
3.889892578125 -7.754638671875 3.4124755859375
-10.556396484375 -0.802978515625 -3.640625
61.7294921875 -3.8521728515625 -23.0726318359375
73.44140625 -46.281494140625 19.7353515625
-32.102783203125 20.13525390625 -4.95751953125
61.316650390625 -42.2703857421875 1.6002197265625
-32.795166015625 -13.688232421875 5.874755859375
-44.68017578125 -8.7861328125 6.2052001953125
46.78857421875 13.567626953125 -13.7208251953125
101.80517578125 -13.651123046875 -5.581298828125
29.254638671875 0.7154541015625 -11.2344970703125
74.2939453125 5.3577880859375 -21.2628173828125
22.0263671875 -19.645751953125 16.6712646484375
27.82421875 -5.8765869140625 0.280029296875
72.411865234375 -15.9854736328125 11.4681396484375
-48.66357421875 -20.3526611328125 4.6522216796875
36.05908203125 40.26513671875 -12.8975830078125
-30.797119140625 3.1549072265625 -3.4659423828125
20.638427734375 -26.3603515625 24.0216064453125
75.1826171875 -43.2392578125 3.384033203125
92.672607421875 -29.0736083984375 3.4854736328125
70.12109375 26.8402099609375 -30.0096435546875
10.1787109375 -17.6583251953125 14.35009765625
41.64599609375 19.2193603515625 -13.7440185546875
-25.735595703125 -25.7633056640625 20.4774169921875
-57.131103515625 -26.0015869140625 22.531005859375
-39.141357421875 -21.1484375 16.020263671875
-75.584716796875 -22.212890625 17.6285400390625
34.05859375 46.5560302734375 -13.860595703125
101.361572265625 -10.9981689453125 1.983642578125
-5.171875 3.73583984375 10.0848388671875
65.77001953125 -18.0687255859375 -6.1907958984375
-14.2001953125 -10.94482421875 6.778564453125
34.626708984375 6.8590087890625 -13.7913818359375
76.87841796875 3.5721435546875 -15.982666015625
-30.498291015625 11.9295654296875 -4.162109375
13.358154296875 -37.6832275390625 27.4986572265625
37.595947265625 -4.8438720703125 -1.61865234375
80.132080078125 44.854248046875 -30.90869140625
9.05517578125 -0.4150390625 15.386474609375
-74.464599609375 -30.410400390625 26.7730712890625
47.7685546875 24.308349609375 -13.9007568359375
64.287353515625 -29.0234375 1.691162109375
-24.020263671875 17.9527587890625 -5.4268798828125
42.089111328125 -23.775634765625 15.7003173828125
0.634033203125 -16.9185791015625 3.416748046875
78.893310546875 24.918212890625 -26.8485107421875
10.28466796875 -20.8643798828125 18.1754150390625
-33.237548828125 -24.610595703125 16.6953125
32.934814453125 19.8135986328125 -13.5799560546875
-89.132568359375 -21.265380859375 12.054931640625
75.034423828125 -15.4710693359375 -9.3370361328125
98.579833984375 -31.736572265625 3.125244140625
5.0439453125 -14.1429443359375 8.0162353515625
49.42822265625 39.1903076171875 -13.9913330078125
75.50146484375 12.611572265625 -24.5811767578125
46.601806640625 5.601318359375 -13.572021484375
70.420166015625 -23.9320068359375 -4.3070068359375
27.091796875 -3.51611328125 -4.5882568359375
-5.60791015625 -27.574951171875 18.0194091796875
89.30908203125 -19.463623046875 -14.296630859375
98.235595703125 -14.073974609375 -13.7974853515625
27.183837890625 45.2557373046875 -13.8431396484375
69.2626953125 18.927490234375 -27.2890625
-37.657958984375 -26.95263671875 23.0618896484375
-32.72705078125 33.9512939453125 4.7816162109375
67.455810546875 -42.3536376953125 -1.03125
-67.371337890625 -33.06591796875 29.7711181640625
-55.994384765625 7.7947998046875 8.8375244140625
92.364501953125 -7.863037109375 -15.939208984375
54.636962890625 -22.407958984375 12.4144287109375
-2.089111328125 -0.620849609375 5.2041015625
28.7568359375 -17.8348388671875 13.892333984375
51.69384765625 -16.7904052734375 12.59619140625
39.056640625 7.840576171875 -13.7674560546875
2.404296875 13.8582763671875 7.2967529296875
-46.618896484375 7.27294921875 9.6943359375
-53.406494140625 -11.368408203125 5.71044921875
24.744384765625 30.94921875 -13.8955078125
-57.364501953125 -26.2464599609375 27.0628662109375
7.170654296875 -9.363037109375 5.08349609375
95.83642578125 -9.46826171875 -17.1434326171875
102.4814453125 -27.0703125 6.7203369140625
67.172119140625 5.7674560546875 -22.0936279296875
102.610107421875 -20.01025390625 4.62890625
-1.835693359375 19.00439453125 8.069091796875
4.27099609375 -4.0985107421875 3.2220458984375
60.333251953125 -29.511474609375 5.7381591796875
-37.05419921875 -23.5609130859375 17.62939453125
-24.169921875 3.9224853515625 -3.7059326171875
-6.494384765625 -11.1552734375 6.2645263671875
16.570556640625 -14.97998046875 11.521728515625
77.732666015625 -23.369384765625 18.8751220703125
-56.044921875 -20.589599609375 16.335693359375
-38.3994140625 -11.45751953125 7.0250244140625
34.8603515625 34.829833984375 -13.484619140625
68.80419921875 -46.944580078125 4.46728515625
74.923828125 -30.9205322265625 6.522705078125
1.541748046875 -16.8782958984375 13.5726318359375
-27.639404296875 9.7484130859375 -4.38427734375
-90.074462890625 -36.3048095703125 5.405517578125
36.3486328125 1.579833984375 -11.8056640625
24.8984375 -27.4456787109375 24.8092041015625
68.853515625 45.5299072265625 -35.5916748046875
-17.4306640625 2.3377685546875 -4.632568359375
51.697998046875 19.7591552734375 -13.486328125
56.845947265625 -30.10498046875 8.1221923828125
-63.365234375 -20.987548828125 16.95703125
-84.92529296875 -21.0206298828125 14.8951416015625
38.884033203125 42.5775146484375 -10.98388671875
-30.96826171875 -28.204833984375 22.4078369140625
44.82861328125 -10.4088134765625 6.265625
-4.581298828125 22.892578125 8.13818359375
2.597900390625 -34.00634765625 20.8270263671875
71.868408203125 -40.241455078125 -3.055908203125
99.05859375 -27.9017333984375 2.0546875
8.66943359375 -5.5289306640625 7.5419921875
101.774658203125 -17.94482421875 8.9342041015625
79.410400390625 -5.3433837890625 -0.6688232421875
92.72509765625 -40.4398193359375 17.96142578125
-51.663818359375 -18.9105224609375 5.691650390625
-58.79248046875 -29.9842529296875 29.3819580078125
-34.22509765625 -34.1710205078125 26.88818359375
66.7744140625 -34.43212890625 6.0218505859375
64.733154296875 6.6827392578125 -31.06201171875
-14.421142578125 23.3817138671875 -6.9036865234375
72.49462890625 49.443603515625 -34.06103515625
47.88232421875 -18.809814453125 15.496826171875
-60.0546875 -23.01123046875 19.090087890625
73.97265625 -11.5611572265625 6.69384765625
51.682861328125 -3.114501953125 -4.429443359375
76.75048828125 -3.8084716796875 -12.3009033203125
16.481201171875 -41.8897705078125 26.6048583984375
33.798828125 13.161376953125 -12.2515869140625
-64.305419921875 -28.6224365234375 25.2684326171875
-28.18310546875 -8.918212890625 1.810546875
34.36328125 -2.1240234375 -7.5938720703125
-56.149169921875 -32.3690185546875 29.662353515625
10.609375 -7.389404296875 4.730712890625
-16.90087890625 5.9521484375 -5.0645751953125
64.827392578125 -47.374755859375 18.21044921875
-35.3642578125 -16.93603515625 10.416259765625
-0.078369140625 6.7352294921875 9.4901123046875
23.37646484375 -22.666015625 20.0325927734375
-41.597412109375 -10.3922119140625 6.3914794921875
98.971435546875 -30.8128662109375 15.9278564453125
-8.073486328125 22.336181640625 7.514404296875
75.709228515625 -18.367919921875 -4.22998046875
-20.693115234375 24.43212890625 -6.57470703125
69.66455078125 -1.80224609375 -14.0721435546875
42.781494140625 37.0355224609375 -13.9842529296875
-28.08447265625 24.617431640625 -5.4097900390625
26.761962890625 2.7052001953125 -12.4903564453125
-16.508544921875 -6.90625 1.9461669921875
44.811767578125 -28.4190673828125 12.8504638671875
-84.212158203125 -30.3319091796875 7.3433837890625
-10.31005859375 8.278076171875 -5.6082763671875
99.9541015625 -30.247802734375 9.5321044921875
61.263427734375 -45.3465576171875 4.935791015625
-38.797607421875 30.69921875 5.658935546875
4.46484375 -22.0789794921875 19.137451171875
-53.84716796875 -22.054931640625 18.44677734375
66.96533203125 -2.6417236328125 -16.7598876953125
98.57275390625 -16.8912353515625 -10.371826171875
-47.697265625 0.7528076171875 6.3575439453125
65.861083984375 20.5135498046875 -28.8316650390625
-19.19775390625 -4.3695068359375 -0.7760009765625
78.857666015625 33.963134765625 -31.033447265625
94.212890625 -3.2001953125 -22.0406494140625
-49.40234375 9.9058837890625 6.8570556640625
63.565185546875 -9.1142578125 -12.636474609375
-7.598388671875 -20.71337890625 15.9830322265625
16.7333984375 -22.1138916015625 19.3350830078125
52.67041015625 -5.296142578125 0.8583984375
-45.740966796875 -28.28369140625 25.0794677734375
-13.865966796875 -18.72802734375 12.7470703125
-70.080078125 -31.822021484375 28.2528076171875
101.680419921875 -12.935546875 4.7567138671875
-65.973876953125 12.827880859375 15.591552734375
89.985595703125 -21.685546875 -8.434814453125
74.279296875 -8.0623779296875 1.136474609375
95.870849609375 -41.4234619140625 20.03662109375
-7.671142578125 -14.216552734375 6.859130859375
26.64453125 25.7716064453125 -13.5380859375
7.488525390625 -39.377197265625 24.8544921875
26.77734375 15.8160400390625 -13.622314453125
29.9619140625 26.4107666015625 -13.748291015625
-9.64208984375 -32.7933349609375 20.8773193359375
77.20556640625 0.946044921875 -17.9775390625
-51.360107421875 -29.17333984375 26.41845703125
-10.945068359375 -36.7652587890625 23.184814453125
-54.009521484375 -25.1737060546875 21.7939453125
-22.757080078125 14.9615478515625 -4.7796630859375
-1.90625 -7.44970703125 3.4371337890625
53.002197265625 -11.273681640625 6.8287353515625
42.949462890625 41.625 -13.85595703125
-49.5625 13.179443359375 7.3785400390625
79.892822265625 -36.7900390625 2.0933837890625
81.09765625 -27.8746337890625 7.4891357421875
63.6982421875 4.8714599609375 -20.4281005859375
98.591552734375 -37.60888671875 19.44775390625
57.265380859375 -35.848876953125 -0.724609375
77.368408203125 40.8763427734375 -33.240478515625
3.05615234375 7.687744140625 9.802734375
22.711181640625 -39.843994140625 25.468017578125
-54.856201171875 24.22119140625 7.49951171875
62.275146484375 -34.611083984375 1.7581787109375
-81.912841796875 -27.0936279296875 18.6676025390625
-17.343505859375 -25.244873046875 19.1461181640625
-8.553955078125 -8.5650634765625 4.0509033203125
-47.63330078125 26.7557373046875 7.4366455078125
-70.916259765625 -26.4132080078125 22.46728515625
-75.143310546875 -27.88916015625 23.891845703125
76.3388671875 -9.480224609375 -12.0343017578125
70.14453125 -48.343994140625 19.5806884765625
41.3583984375 -1.4178466796875 -8.8006591796875
-4.952880859375 -18.630126953125 10.4259033203125
77.296630859375 -31.7047119140625 4.44873046875
24.7119140625 38.1346435546875 -13.736572265625
51.052001953125 1.38818359375 -9.6546630859375
98.47607421875 -5.3421630859375 -20.897216796875
-45.803466796875 -10.33544921875 3.1170654296875
-54.984619140625 -16.4918212890625 7.0048828125
20.44775390625 -23.967041015625 21.85009765625
-63.52734375 -25.5301513671875 21.8209228515625
-26.59521484375 -34.5137939453125 24.7418212890625
-21.86474609375 -20.568603515625 13.7371826171875
23.388671875 5.59326171875 -13.8916015625
74.1083984375 -26.0518798828125 5.452880859375
-41.0537109375 -18.6419677734375 14.855712890625
45.313720703125 -23.9630126953125 16.3740234375
-2.87451171875 -12.9991455078125 2.5567626953125
-51.811767578125 -8.957275390625 4.0391845703125
19.1181640625 -13.3154296875 9.581787109375
76.43310546875 25.2652587890625 -29.19775390625
35.413818359375 -17.68408203125 14.276611328125
32.340087890625 41.880859375 -13.680908203125
38.609619140625 -2.1676025390625 -7.1734619140625
31.79931640625 -5.7215576171875 -0.2376708984375
70.847412109375 33.6922607421875 -32.4334716796875
-7.188232421875 -17.4290771484375 15.7921142578125
57.654296875 -32.4630126953125 3.7259521484375
-84.160888671875 -26.9114990234375 12.7322998046875
81.65576171875 -35.271484375 7.486083984375
-18.096435546875 17.155517578125 -3.8804931640625
-30.126220703125 -31.0009765625 23.6549072265625
33.367919921875 -3.4835205078125 -4.421142578125
-11.870849609375 2.78759765625 -4.9102783203125
40.080078125 32.2362060546875 -13.639892578125
-45.8935546875 -18.1273193359375 2.7943115234375
4.668212890625 -17.133056640625 13.960693359375
91.5947265625 -21.369140625 -5.201416015625
-60.973876953125 -16.069580078125 11.2679443359375
7.465087890625 12.03662109375 7.846923828125
47.926513671875 10.5107421875 -13.9222412109375
74.612060546875 -26.9935302734375 0.5745849609375
49.426025390625 -14.34716796875 10.16845703125
4.55908203125 18.916259765625 7.98779296875
76.5439453125 -25.8306884765625 8.8748779296875
14.51416015625 -37.079833984375 23.3193359375
33.270751953125 -9.69482421875 5.1087646484375
-34.17333984375 10.38232421875 -3.811767578125
-43.472412109375 -32.974365234375 30.312744140625
-13.012451171875 -29.60546875 20.47119140625
-20.971435546875 0.546875 -3.6424560546875
49.235107421875 32.2393798828125 -13.9326171875
36.63623046875 -25.40625 18.1446533203125
76.88916015625 -18.651611328125 15.337890625
74.878662109375 -39.8443603515625 -1.68359375
24.595703125 11.2877197265625 -13.412353515625
-25.138427734375 33.52294921875 5.6654052734375
76.367431640625 47.0928955078125 -34.0546875
69.135498046875 12.7344970703125 -23.7313232421875
74.663330078125 -23.6507568359375 -2.8182373046875
-89.562255859375 -20.0599365234375 15.0589599609375
74.1767578125 -21.875732421875 12.4359130859375
71.849853515625 -7.3375244140625 -14.66162109375
24.650390625 -4.3203125 -2.84130859375
50.87646484375 26.060302734375 -13.2762451171875
91.34228515625 -11.2127685546875 -16.18896484375
-19.651123046875 -27.642822265625 20.5618896484375
-4.172119140625 -34.5816650390625 20.88720703125
87.8369140625 -26.1488037109375 -4.8826904296875
-1.213623046875 -20.8778076171875 18.1102294921875
-9.613037109375 25.34423828125 8.02880859375
-33.67041015625 -18.99658203125 13.189208984375
27.288818359375 35.5328369140625 -13.9217529296875
-30.463134765625 -15.365966796875 7.0062255859375
71.2431640625 -21.3829345703125 -5.941162109375
-48.638671875 -4.234375 2.0635986328125
-70.99072265625 -21.891357421875 17.2413330078125
44.44287109375 17.9390869140625 -13.8358154296875
97.732177734375 -12.037353515625 -16.0474853515625
-14.5361328125 18.054931640625 -6.1885986328125
72.022216796875 12.1927490234375 -22.8372802734375
51.44873046875 -2.6453857421875 -0.2554931640625
-8.554931640625 -24.8021240234375 17.7861328125
76.333740234375 -9.155517578125 3.7314453125
102.972900390625 -15.1396484375 9.81640625
6.065185546875 -2.6556396484375 6.16064453125
-84.579833984375 -34.985595703125 3.8721923828125
-36.503173828125 15.836181640625 -4.0343017578125
-7.600830078125 15.18505859375 -6.695068359375
101.013671875 -22.735107421875 -4.5753173828125
72.21044921875 45.1124267578125 -34.0394287109375
-55.884765625 17.216552734375 7.5888671875
-47.538330078125 -29.85009765625 26.9859619140625
-32.68115234375 -25.9517822265625 20.3011474609375
-13.2421875 -9.1334228515625 4.5203857421875
-6.3427734375 0.5693359375 -4.2491455078125
68.99560546875 2.7811279296875 -18.42041015625
51.150634765625 16.3443603515625 -13.0733642578125
27.208251953125 -21.68994140625 19.0233154296875
79.58447265625 32.435546875 -28.4996337890625
30.1376953125 -12.744140625 8.974853515625
-50.139892578125 -25.4539794921875 22.2581787109375
37.50439453125 -11.652587890625 7.28955078125
-67.51220703125 16.543212890625 13.6553955078125
-32.045654296875 -8.5250244140625 1.552490234375
-83.981201171875 -31.667236328125 17.0977783203125
25.217529296875 -10.41455078125 6.299560546875
66.96875 -28.59521484375 3.0194091796875
-53.69970703125 28.3660888671875 6.892822265625
-43.0859375 -13.7783203125 2.642333984375
-34.187255859375 -27.8385009765625 22.6004638671875
-1.6435546875 -19.5513916015625 9.907470703125
52.272705078125 -5.748291015625 4.6666259765625
61.788330078125 -13.3255615234375 -7.7523193359375
42.779052734375 -4.8319091796875 -2.0155029296875
-34.49853515625 2.854736328125 -3.2086181640625
47.500732421875 2.562255859375 -12.6466064453125
-50.184326171875 19.9515380859375 7.416259765625
96.4150390625 -29.534912109375 3.35595703125
43.164306640625 46.607177734375 -13.83056640625
-43.906982421875 -21.1258544921875 17.592041015625
-59.936279296875 21.3160400390625 8.8985595703125
81.26318359375 -38.4462890625 14.9376220703125
93.674560546875 -17.50439453125 -9.4368896484375
93.388427734375 -32.21533203125 7.9366455078125
-39.3994140625 -15.5086669921875 10.8873291015625
72.599365234375 18.9234619140625 -25.743408203125
10.5771484375 -13.1099853515625 9.65673828125
27.085205078125 -25.9534912109375 23.3939208984375
-24.9013671875 -12.4534912109375 5.9415283203125
92.072021484375 -25.814453125 -0.3310546875
-27.90283203125 -37.4832763671875 26.187744140625
23.45166015625 -8.6297607421875 4.5364990234375
-10.482666015625 -13.2105712890625 9.4346923828125
-82.464599609375 -24.6292724609375 15.6865234375
-5.35009765625 29.0096435546875 6.50830078125
39.95068359375 -8.4805908203125 3.72900390625
-41.22998046875 -29.619873046875 26.859130859375
69.923583984375 -27.609375 -0.8863525390625
69.9033203125 -37.656494140625 -2.6614990234375
-65.460693359375 17.475341796875 11.6175537109375
24.696044921875 20.6546630859375 -13.65771484375
64.883056640625 -39.601806640625 -3.4058837890625
101.006591796875 -20.75390625 1.2235107421875
-27.690185546875 -4.5640869140625 -0.7039794921875
-56.7265625 -18.413818359375 14.228759765625
29.69970703125 -9.8974609375 5.7220458984375
-16.63427734375 -31.100830078125 21.57421875
102.209716796875 -26.103759765625 -1.169677734375
-6.84326171875 -38.2760009765625 23.7803955078125
77.923583984375 16.8782958984375 -22.3922119140625
-2.455322265625 -30.6708984375 18.673095703125
-69.159423828125 -29.019287109375 25.351318359375
40.25146484375 1.11083984375 -11.5625
96.7861328125 -0.5594482421875 -25.568603515625
39.217041015625 23.2772216796875 -13.75732421875
33.486083984375 -14.4027099609375 10.3843994140625
-48.15966796875 -15.570068359375 0.0994873046875
-49.42333984375 -34.347900390625 31.4647216796875
6.5576171875 -30.9405517578125 19.6279296875
-45.563720703125 -5.6668701171875 2.9381103515625
98.31103515625 -37.125 16.5516357421875
-3.982666015625 16.8680419921875 8.5439453125
-15.408203125 -2.063232421875 -2.8743896484375
90.17236328125 -19.0260009765625 -9.688720703125
-36.14453125 -12.55078125 5.4827880859375
80.471923828125 51.5714111328125 -31.882568359375
8.4228515625 -1.51220703125 12.73095703125
-21.01513671875 35.2161865234375 4.689453125
-47.05712890625 -1.8475341796875 5.1343994140625
43.43310546875 -26.29345703125 14.3211669921875
71.081298828125 27.283203125 -27.27783203125
64.474365234375 -7.630615234375 -25.3568115234375
-42.07958984375 -24.376953125 21.078125
33.01318359375 -25.105712890625 22.7178955078125
35.525634765625 16.2061767578125 -10.8975830078125
72.010498046875 -32.37841796875 2.5289306640625
78.506103515625 52.8912353515625 -34.453857421875
35.660400390625 4.1104736328125 -13.0653076171875
-68.04638671875 22.5872802734375 10.850830078125
73.02001953125 -47.572998046875 6.857421875
-29.3505859375 19.2401123046875 -5.1561279296875
24.6796875 -6.513427734375 0.9404296875
-31.234130859375 -21.5531005859375 14.2978515625
77.2333984375 10.1356201171875 -23.0567626953125
81.29736328125 -35.291015625 4.1368408203125
1.589111328125 25.66064453125 7.4573974609375
-98.40625 -29.310791015625 13.609619140625
96.638671875 -19.751953125 -8.0233154296875
81.315673828125 -6.9505615234375 1.3985595703125
-26.90576171875 35.57958984375 4.357421875
-26.103759765625 -2.2716064453125 -2.43603515625
-6.9033203125 7.8240966796875 10.0814208984375
18.78369140625 -10.4815673828125 6.1817626953125
72.083984375 -14.92822265625 -10.1119384765625
30.722412109375 -29.2059326171875 26.87841796875
-0.955322265625 15.3524169921875 7.82080078125
-38.36669921875 -32.84033203125 31.1182861328125
-2.369384765625 4.05908203125 9.5206298828125
-8.875244140625 19.20556640625 -6.675048828125
11.8349609375 -15.869140625 12.35791015625
2.2041015625 -12.10986328125 3.4769287109375
102.972900390625 -16.7452392578125 -1.2664794921875
5.781982421875 3.892333984375 12.624755859375
67.16943359375 -37.476318359375 -1.535888671875
-67.204833984375 -24.919189453125 20.9798583984375
13.303466796875 -11.7373046875 8.2469482421875
-20.55419921875 15.611328125 -3.066162109375
-45.313720703125 -18.390380859375 8.8203125
6.62744140625 8.1624755859375 8.7333984375
68.8115234375 40.5203857421875 -35.1968994140625
45.44140625 -17.0570068359375 13.3759765625
56.113037109375 -24.4259033203125 9.8917236328125
-13.03857421875 9.1715087890625 -5.3004150390625
-31.9765625 -2.6614990234375 -1.909912109375
23.943603515625 -0.611572265625 -9.9588623046875
43.996337890625 -0.2276611328125 -10.301513671875
30.348388671875 -26.2998046875 23.3970947265625
36.631103515625 48.259033203125 -13.70263671875
-80.234375 -27.527099609375 21.3681640625
44.707763671875 -21.234130859375 17.262939453125
95.137939453125 -34.4935302734375 10.2890625
40.856689453125 16.501708984375 -13.714111328125
76.685302734375 6.731689453125 -21.88330078125
-59.94384765625 -28.4788818359375 25.818603515625
61.47314453125 -32.073486328125 5.382568359375
-51.75390625 -27.091796875 23.9005126953125
-34.001220703125 31.23388671875 5.409912109375
62.204833984375 -18.895263671875 -5.126953125
28.005859375 9.112548828125 -13.5477294921875
-35.724853515625 -30.25244140625 26.43017578125
-13.663818359375 26.7022705078125 -6.9234619140625
73.38916015625 -9.908203125 -13.5103759765625
33.850830078125 -20.45703125 17.098876953125
37.6943359375 37.54296875 -13.8548583984375
31.177978515625 7.0863037109375 -13.360107421875
-54.391357421875 13.84033203125 7.4208984375
22.962890625 -1.8203125 -7.6175537109375
66.276611328125 35.714111328125 -33.4488525390625
2.467041015625 -39.6572265625 25.2298583984375
102.024658203125 -7.0299072265625 3.93212890625
-8.75390625 5.1658935546875 -5.4266357421875
-1.197021484375 -2.52880859375 3.3482666015625
79.12451171875 46.6956787109375 -33.71435546875
-3.142822265625 -25.5506591796875 17.0517578125
71.88427734375 3.3123779296875 -19.0865478515625
30.052001953125 16.8931884765625 -13.826416015625
-34.34912109375 17.5950927734375 -4.38671875
28.64111328125 -19.61083984375 16.50244140625
-83.177001953125 -34.224853515625 9.8587646484375
93.91455078125 -22.494140625 -4.11181640625
99.417236328125 -31.53564453125 13.2620849609375
-29.211181640625 -15.7236328125 9.480712890625
-18.228759765625 22.418212890625 -6.3265380859375
64.033203125 29.1019287109375 -32.0888671875
-21.396240234375 -2.115234375 -2.7713623046875
29.27490234375 3.833251953125 -12.9542236328125
66.022216796875 -46.3780517578125 4.1004638671875
40.069580078125 -21.865478515625 15.9345703125
101.821533203125 -24.6439208984375 5.5126953125
7.625732421875 -37.3251953125 22.97021484375
34.23291015625 45.0509033203125 -11.0655517578125
61.890625 -36.0921630859375 -1.2984619140625
-13.10107421875 -21.0928955078125 15.447998046875
4.12158203125 16.22412109375 7.4197998046875
-31.58740234375 16.7059326171875 -4.587158203125
-47.228515625 -13.2288818359375 1.2845458984375
36.361328125 23.7979736328125 -13.566650390625
64.642333984375 -16.1251220703125 -8.0941162109375
71.82080078125 9.5225830078125 -21.5772705078125
24.892578125 -12.2508544921875 8.4569091796875
31.114013671875 13.8714599609375 -13.815673828125
50.055419921875 -9.4339599609375 4.8896484375
22.2119140625 -17.6937255859375 14.70751953125
76.82470703125 15.0355224609375 -24.8411865234375
-54.035400390625 6.079345703125 9.9248046875
36.2333984375 17.656005859375 -13.6068115234375
-24.60107421875 22.2440185546875 -5.7821044921875
65.742919921875 -36.140380859375 1.7535400390625
-20.41162109375 19.29248046875 -2.2646484375
37.855224609375 -28.4892578125 19.3807373046875
43.2431640625 -29.78271484375 16.426025390625
70.525634765625 -42.5321044921875 -0.47314453125
13.506591796875 -8.172607421875 4.7012939453125
80.7666015625 -42.9542236328125 11.94384765625
-21.857666015625 -37.0975341796875 24.6844482421875
43.519287109375 -6.5858154296875 0.62255859375
100.173828125 -3.16064453125 -5.7930908203125
65.036865234375 -20.3067626953125 -4.7530517578125
-48.8662109375 5.708984375 9.388671875
54.09130859375 -29.92626953125 4.4869384765625
1.370849609375 -31.0362548828125 18.7607421875
74.57080078125 -32.27587890625 4.0555419921875
74.268310546875 -19.4991455078125 15.4608154296875
-4.402587890625 -10.604736328125 4.568359375
45.22509765625 -2.9622802734375 -5.4951171875
-46.048095703125 -32.475830078125 29.507568359375
-18.1611328125 10.3519287109375 -5.1475830078125
39.657470703125 -15.232177734375 11.555419921875
55.52099609375 -27.229248046875 7.9815673828125
-52.040283203125 22.4700927734375 7.4844970703125
-13.90771484375 12.94921875 -5.85009765625
-47.636474609375 -18.1605224609375 13.9295654296875
34.405517578125 -4.822021484375 -1.584228515625
47.125244140625 30.51220703125 -14.012451171875
-29.369384765625 22.184814453125 -5.4554443359375
69.361572265625 8.2769775390625 -19.387451171875
99.841796875 -30.666015625 6.370361328125
71.66748046875 -20.835205078125 12.270263671875
-64.889892578125 -18.7762451171875 14.5584716796875
38.085205078125 -13.1632080078125 9.46826171875
75.87744140625 18.184814453125 -26.3131103515625
-36.505615234375 8.7138671875 -3.224853515625
70.4599609375 17.6126708984375 -22.6251220703125
-12.49560546875 33.5174560546875 4.901123046875
69.054931640625 -17.2640380859375 -6.022705078125
-12.982666015625 -15.3817138671875 9.714599609375
2.125 -1.904541015625 4.080322265625
66.151123046875 -8.1575927734375 -13.4974365234375
60.930419921875 -40.1241455078125 -0.88037109375
-23.508544921875 11.638671875 -4.7618408203125
44.7587890625 11.79541015625 -13.90625
-49.743408203125 -22.0196533203125 18.552490234375
70.81982421875 23.11962890625 -25.825439453125
76.83154296875 -46.675537109375 10.7664794921875
101.465576171875 -23.7174072265625 0.328857421875
78.36669921875 30.526123046875 -29.9627685546875
74.46875 -14.1134033203125 9.1097412109375
-22.395263671875 -31.953369140625 22.7855224609375
-5.62548828125 9.1611328125 -4.7421875
-36.43896484375 -20.13427734375 14.316162109375
-47.70263671875 14.9423828125 8.179443359375
-31.084716796875 32.396484375 6.227294921875
-51.66552734375 -20.5078125 16.7734375
-17.92529296875 36.1953125 3.7877197265625
66.52294921875 0.0330810546875 -18.380615234375
69.13818359375 31.302978515625 -32.2506103515625
-2.570556640625 9.5775146484375 7.85205078125
27.755859375 42.64013671875 -13.7950439453125
61.6328125 -28.69580078125 1.8116455078125
100.368896484375 -8.9364013671875 -15.81396484375
33.86474609375 31.9537353515625 -13.855712890625
66.13818359375 26.3232421875 -31.1422119140625
3.65966796875 2.1650390625 8.6490478515625
76.48681640625 23.0689697265625 -27.676513671875
-64.396240234375 25.473388671875 8.61279296875
67.064208984375 15.220947265625 -25.4420166015625
79.749755859375 37.811767578125 -29.8408203125
-31.364501953125 -0.064697265625 -3.0223388671875
74.669189453125 35.5875244140625 -31.8658447265625
73.078125 28.4107666015625 -28.6334228515625
98.69921875 -25.90576171875 -0.57861328125
61.135009765625 -9.201416015625 -11.3740234375
35.88134765625 27.496826171875 -13.8148193359375
-4.83740234375 -5.6173095703125 1.184814453125
4.263916015625 -15.2237548828125 11.4794921875
48.331787109375 20.974853515625 -13.8631591796875
-10.21435546875 27.7945556640625 7.217041015625
-0.16845703125 -19.9862060546875 5.6063232421875
-69.4560546875 20.86328125 13.5360107421875
-37.1875 -7.7801513671875 3.619384765625
101.060302734375 -18.467041015625 -12.1173095703125
51.10888671875 10.22900390625 -13.326171875
65.25244140625 -26.5054931640625 -0.1883544921875
-19.42138671875 -15.24951171875 9.02197265625
-26.670654296875 17.1287841796875 -5.142578125
-11.7939453125 23.822509765625 7.728759765625
44.682861328125 23.5784912109375 -13.9080810546875
10.01904296875 -36.2166748046875 28.913330078125
102.677490234375 -11.404296875 -6.5994873046875
-23.76171875 -15.8834228515625 9.592041015625
-82.534423828125 -22.176025390625 14.79443359375
-18.686767578125 -17.950927734375 10.3665771484375
-83.236328125 -32.7838134765625 22.3582763671875
74.958740234375 2.40771484375 -19.284423828125
-9.2197265625 -2.7685546875 -2.572021484375
51.375732421875 -22.9583740234375 11.9486083984375
-87.12939453125 -19.567626953125 10.7509765625
-1.136474609375 -16.634765625 5.303466796875
76.216552734375 -40.2149658203125 0.516357421875
38.044677734375 -7.42236328125 2.3109130859375
102.179443359375 -8.0130615234375 -3.1453857421875
68.8525390625 -25.2904052734375 -1.373046875
-14.358154296875 -25.9659423828125 19.1983642578125
-47.80126953125 2.6343994140625 8.33544921875
25.2568359375 -2.4991455078125 -6.1175537109375
66.008544921875 10.3782958984375 -24.0430908203125
29.79931640625 36.075927734375 -13.560302734375
-65.49658203125 22.3365478515625 9.7042236328125
-56.385986328125 20.068603515625 7.9031982421875
-48.190673828125 -23.5419921875 20.1318359375
-32.494140625 5.1015625 -3.435302734375
79.677978515625 -30.5770263671875 3.8577880859375
12.636474609375 -18.183837890625 15.0074462890625
9.12939453125 -10.45068359375 6.541015625
-8.04345703125 11.5924072265625 7.7762451171875
99.7431640625 -21.1197509765625 -6.1226806640625
-12.9912109375 -5.9039306640625 1.0361328125
-12.74609375 -2.068603515625 -3.1741943359375
9.207275390625 -4.6170654296875 11.0433349609375
-59.0244140625 -14.861083984375 9.9791259765625
74.05859375 30.6947021484375 -30.5
-16.839599609375 -0.0438232421875 -3.83349609375
71.440673828125 14.681396484375 -22.695556640625
64.493408203125 12.4385986328125 -32.473388671875
75.540283203125 38.9930419921875 -32.8629150390625
65.30908203125 41.0064697265625 -33.6016845703125
-1.28125 -15.40869140625 0.451416015625
51.5146484375 5.6497802734375 -13.6949462890625
-51.84130859375 -32.7874755859375 29.5897216796875
67.539306640625 3.5390625 -20.3763427734375
-95.177734375 -31.720703125 10.1427001953125
71.993408203125 41.3114013671875 -32.689208984375
47.48486328125 40.8271484375 -13.8504638671875
1.399169921875 -8.2294921875 3.6011962890625
37.4013671875 45.0787353515625 -9.4976806640625
-44.5380859375 -16.9676513671875 13.1163330078125
-66.45556640625 -22.5284423828125 18.3670654296875
26.863037109375 32.335205078125 -13.710205078125
29.8994140625 20.59228515625 -13.891357421875
75.089599609375 44.5274658203125 -33.1324462890625
-61.3271484375 -24.6396484375 20.9337158203125
19.403564453125 -36.396728515625 22.969970703125
60.650146484375 -33.9207763671875 3.8623046875
-8.125244140625 9.525390625 -6.0704345703125
-49.77197265625 -9.9404296875 2.8590087890625
-43.34716796875 -2.322021484375 5.0684814453125
56.628173828125 -33.415283203125 1.006103515625
68.220458984375 23.950439453125 -30.1981201171875
-52.529296875 0.900634765625 7.8798828125
-50.2265625 -7.3953857421875 2.4771728515625
