-12.927734375 -21.73388671875 12.85986328125
-54.685791015625 19.8001708984375 3.0284423828125
83.40478515625 40.5791015625 -32.77099609375
-68.335693359375 -17.7486572265625 11.255615234375
-19.27197265625 -18.523193359375 10.061279296875
78.722900390625 2.912353515625 -20.9444580078125
48.076171875 26.09716796875 -19.6397705078125
72.003173828125 -26.55419921875 -1.400146484375
-0.399658203125 -14.740966796875 9.307373046875
-6.080810546875 -0.8890380859375 -7.147705078125
81.050048828125 -12.4940185546875 4.3463134765625
-43.132080078125 -3.447265625 -4.3448486328125
50.73828125 33.166748046875 1.431884765625
-21.837158203125 -38.360107421875 20.969482421875
75.998779296875 13.3232421875 -20.9715576171875
-5.68603515625 -33.299560546875 16.9471435546875
-4.552490234375 22.4669189453125 -13.389404296875
30.428955078125 14.2767333984375 -19.5870361328125
74.8916015625 4.2861328125 8.78125
68.0888671875 -9.8272705078125 -9.89013671875
-61.369384765625 -22.3792724609375 16.6435546875
39.94775390625 -23.8321533203125 16.853515625
-44.82958984375 1.4310302734375 -3.3480224609375
85.825439453125 33.951904296875 -27.2762451171875
-4.911376953125 -24.93701171875 12.60302734375
81.9384765625 -41.8033447265625 -1.021728515625
9.27392578125 -9.8516845703125 -0.20654296875
-4.47705078125 -41.5084228515625 23.5008544921875
7.74169921875 30.5888671875 0.4384765625
-45.1279296875 -14.0006103515625 5.524169921875
11.453857421875 0.021484375 -1.7017822265625
-84.392822265625 -24.5633544921875 1.2440185546875
-26.807373046875 27.831298828125 -12.519287109375
45.9716796875 -28.489501953125 10.4803466796875
-47.8955078125 -9.9539794921875 -3.2486572265625
45.83349609375 -3.4024658203125 -6.01318359375
69.03857421875 -45.4632568359375 0.0391845703125
25.110107421875 -35.343017578125 18.5537109375
72.6005859375 -18.2919921875 -6.185302734375
63.915283203125 -27.561767578125 1.6046142578125
33.03125 -18.234130859375 11.8260498046875
-8.955078125 -38.5008544921875 21.0439453125
-82.76611328125 -11.87890625 7.1265869140625
-50.999755859375 -15.5784912109375 8.8489990234375
94.557861328125 -27.7750244140625 -1.907470703125
-28.39501953125 -17.0423583984375 7.521484375
57.697265625 -3.7247314453125 -4.9871826171875
-6.47705078125 21.16796875 3.6185302734375
-78.06494140625 -13.571044921875 10.37744140625
-79.142822265625 -20.218994140625 3.8287353515625
-22.340576171875 5.831787109375 -10.5172119140625
14.461669921875 -1.2886962890625 8.1917724609375
69.429443359375 -1.6617431640625 -14.3831787109375
57.00732421875 9.043212890625 -19.29345703125
5.646240234375 18.0537109375 1.217529296875
-96.8095703125 -31.2943115234375 -1.98876953125
-77.184326171875 -21.245849609375 10.7314453125
-3.569580078125 -9.732421875 1.5765380859375
-79.775146484375 -37.2630615234375 13.9013671875
77.066162109375 31.934326171875 -28.7784423828125
86.3056640625 -28.8643798828125 2.017333984375
40.610595703125 19.203125 -19.43359375
-69.791015625 -27.4971923828125 21.8162841796875
1.880859375 21.3240966796875 1.321044921875
-9.379638671875 -15.0865478515625 6.298583984375
-72.519287109375 -15.5316162109375 8.7279052734375
-35.1904296875 2.2716064453125 -1.413818359375
30.021240234375 31.246337890625 -19.1522216796875
-54.253662109375 -27.4998779296875 21.87841796875
-40.1689453125 -29.7220458984375 25.6085205078125
98.597900390625 -15.043701171875 -16.6192626953125
77.633056640625 41.6357421875 -32.0220947265625
10.177001953125 39.2928466796875 -2.7210693359375
-28.6474609375 -21.7529296875 13.6212158203125
74.291259765625 -47.3856201171875 9.139892578125
83.051025390625 35.8905029296875 -31.40283203125
-29.328369140625 4.97900390625 -9.5662841796875
-41.23486328125 15.437255859375 -0.3006591796875
45.045654296875 17.1358642578125 -16.868408203125
74.90283203125 -16.6087646484375 -10.755859375
-9.366455078125 -19.2366943359375 10.678955078125
-59.740234375 -15.3612060546875 8.7734375
53.759521484375 -17.4189453125 9.7344970703125
-34.296630859375 -4.4464111328125 -3.3167724609375
-61.669189453125 -34.798828125 28.1890869140625
0.2353515625 -40.5169677734375 22.5284423828125
99.688232421875 -30.213623046875 -2.7509765625
34.984375 -24.46240234375 18.631103515625
-31.75927734375 -28.2984619140625 22.260009765625
38.518310546875 -18.2198486328125 11.49609375
77.210205078125 -39.6435546875 -6.325927734375
12.058837890625 11.728515625 2.4417724609375
67.85009765625 -16.8857421875 -6.4659423828125
-79.587158203125 -29.45361328125 8.4241943359375
75.82763671875 17.3367919921875 -23.6422119140625
2.605224609375 -30.14990234375 14.391357421875
54.0595703125 35.314453125 -19.84375
69.402587890625 -49.5887451171875 15.234130859375
-14.263671875 -14.98388671875 3.9075927734375
24.128173828125 -23.181396484375 18.117431640625
-13.564697265625 -43.3861083984375 24.124267578125
9.196533203125 -14.3597412109375 -3.28759765625
-72.814208984375 -31.0198974609375 25.05322265625
-61.11474609375 -29.03271484375 23.6317138671875
45.078369140625 38.723388671875 -19.8531494140625
36.696044921875 39.4007568359375 -20.14697265625
44.67431640625 -8.8206787109375 0.9781494140625
58.638671875 -23.5654296875 1.9873046875
42.919921875 2.1514892578125 -15.9112548828125
-23.5810546875 -1.5579833984375 -6.421875
13.714111328125 6.602783203125 6.74169921875
82.638916015625 -31.5477294921875 -6.7257080078125
68.6806640625 -38.4403076171875 -7.481689453125
-49.7578125 20.555419921875 0.3546142578125
-41.59228515625 -7.79248046875 -5.200927734375
81.85498046875 -20.384521484375 5.24462890625
77.3125 -49.4010009765625 14.6573486328125
40.992431640625 14.27734375 -19.095947265625
-79.968994140625 -36.0086669921875 -0.6668701171875
78.035400390625 -9.405029296875 -16.03125
67.560546875 -24.7796630859375 -1.46337890625
22.28173828125 -10.072509765625 2.9967041015625
17.037841796875 -32.954833984375 17.3701171875
2.16845703125 2.58447265625 -2.1470947265625
79.326416015625 50.5218505859375 -31.341796875
-18.44287109375 -15.502685546875 6.7188720703125
33.2724609375 10.1376953125 -19.365966796875
79.921875 9.8017578125 -23.7322998046875
81.413818359375 18.673583984375 -26.308837890625
70.787109375 10.97900390625 -21.12939453125
41.687255859375 26.340087890625 -19.92822265625
64.613037109375 -40.96728515625 -1.5296630859375
-36.002197265625 -16.435791015625 9.7322998046875
-79.303955078125 -28.5634765625 -4.6414794921875
-43.96875 -19.775146484375 13.91748046875
78.58056640625 11.1025390625 8.6839599609375
-6.504638671875 25.5626220703125 1.9901123046875
53.787109375 -5.0877685546875 -3.14697265625
52.31591796875 3.8359375 -17.5572509765625
98.82958984375 -18.44287109375 -13.298828125
-58.529052734375 14.186767578125 8.793212890625
-8.0712890625 35.241455078125 -0.68994140625
51.0224609375 13.68798828125 -19.4300537109375
84.27978515625 -26.0159912109375 -2.0576171875
98.802490234375 -7.3507080078125 -22.148193359375
11.588623046875 -42.97900390625 25.0625
34.1044921875 5.7698974609375 -18.3111572265625
-67.193603515625 -36.989990234375 27.6058349609375
96.853515625 -43.5699462890625 14.108642578125
42.676025390625 -12.7374267578125 5.6400146484375
-89.15673828125 -30.51123046875 -4.779541015625
-81.677001953125 -15.942138671875 5.64111328125
5.524658203125 39.7322998046875 -2.63525390625
95.030517578125 -23.27587890625 -13.3499755859375
7.971435546875 -29.6495361328125 13.8563232421875
80.9306640625 -5.4730224609375 -17.2518310546875
16.51904296875 -5.3492431640625 -1.6011962890625
74.80078125 -33.39990234375 -7.4744873046875
-34.863525390625 -25.6473388671875 20.5594482421875
65.251708984375 -46.0718994140625 14.6148681640625
-51.861572265625 11.2197265625 3.0140380859375
-46.426513671875 11.1392822265625 2.411865234375
-10.5380859375 -4.7476806640625 -3.0322265625
75.086669921875 -1.3228759765625 -15.6326904296875
82.235595703125 25.4039306640625 -28.4739990234375
57.8828125 25.7354736328125 -19.022705078125
18.102783203125 -12.2122802734375 5.5986328125
12.395751953125 34.4932861328125 0.0924072265625
-89.875 -35.9306640625 0.9052734375
-77.321044921875 -10.1416015625 5.9488525390625
75.208740234375 8.4061279296875 7.4462890625
-68.198974609375 -21.3681640625 15.3822021484375
79.7587890625 -20.740478515625 -5.576171875
76.2919921875 36.9207763671875 -31.1986083984375
62.533935546875 -37.5601806640625 -3.30078125
-82.895263671875 -32.58447265625 -2.7510986328125
3.96044921875 -6.9134521484375 -3.3480224609375
71.506591796875 5.3902587890625 -19.30908203125
-68.849853515625 18.780029296875 13.3118896484375
104.378173828125 -27.599853515625 -2.0008544921875
-14.9599609375 -25.439453125 14.4322509765625
-4.285888671875 5.00634765625 -11.24169921875
53.5771484375 39.9678955078125 -19.9705810546875
72.5615234375 -41.51708984375 -5.1220703125
34.7685546875 20.4874267578125 -19.9508056640625
61.23046875 -22.5953369140625 5.9267578125
75.687744140625 4.0406494140625 -17.4229736328125
-10.607421875 -7.6915283203125 0.6334228515625
94.220458984375 -35.5921630859375 0.927734375
75.079345703125 -47.81640625 -0.4609375
100.737060546875 -23.0635986328125 -9.18359375
46.584228515625 33.4158935546875 -19.7860107421875
-3.13232421875 18.028564453125 0.6790771484375
-22.888427734375 -29.8458251953125 17.6485595703125
31.966064453125 42.3602294921875 -20.3994140625
-59.0009765625 -18.284423828125 12.111083984375
-67.7626953125 24.36474609375 8.84130859375
-84.267578125 -38.5335693359375 4.3800048828125
-0.036865234375 -18.953125 9.74072265625
36.688720703125 -5.5341796875 -2.0963134765625
-17.080078125 15.85205078125 -12.0048828125
94.330810546875 -27.1871337890625 -6.0950927734375
-8.189453125 30.34375 -13.850830078125
-31.77001953125 16.1488037109375 -10.0426025390625
71.381591796875 25.4730224609375 -25.9581298828125
-21.665283203125 1.3653564453125 -9.0645751953125
28.975341796875 0.921630859375 -13.445068359375
84.50634765625 -2.6160888671875 -6.2379150390625
-41.021728515625 -12.62109375 4.335205078125
100.288818359375 -32.7969970703125 3.1416015625
47.580322265625 49.2708740234375 -19.752685546875
-68.084228515625 -33.1016845703125 26.3209228515625
35.208251953125 -10.209228515625 3.165771484375
-65.046875 -26.7747802734375 21.4478759765625
-79.547119140625 -35.2384033203125 8.2864990234375
78.552734375 -24.329833984375 1.7694091796875
67.585693359375 -31.4332275390625 -2.884521484375
-78.752197265625 -30.8953857421875 -0.6480712890625
-52.756103515625 -5.1395263671875 -2.3939208984375
17.56494140625 -36.1632080078125 22.5419921875
-49.867431640625 -24.0718994140625 21.6192626953125
-53.3125 -11.5001220703125 4.0377197265625
94.63720703125 -40.036865234375 11.0958251953125
42.034423828125 47.3580322265625 -19.9080810546875
59.38623046875 -13.252685546875 6.545166015625
46.21630859375 -18.8221435546875 9.8538818359375
-86.81396484375 -32.3477783203125 -1.5703125
13.62060546875 -8.6705322265625 1.9730224609375
-95.235595703125 -23.6767578125 3.634765625
-71.346435546875 -23.2886962890625 17.2789306640625
7.30908203125 6.8424072265625 2.3238525390625
-1.461669921875 10.7462158203125 3.714599609375
8.239013671875 -14.1005859375 0.7740478515625
3.320068359375 4.9461669921875 0.9749755859375
-37.93994140625 -2.8387451171875 -4.19921875
-2.385498046875 27.5133056640625 0.4888916015625
38.89404296875 -13.9156494140625 7.1165771484375
10.21142578125 20.2994384765625 1.0660400390625
78.72265625 -18.3587646484375 6.8387451171875
-29.8017578125 24.811279296875 -12.50732421875
45.898681640625 42.6173095703125 -19.11083984375
81.69091796875 -29.153076171875 -3.6126708984375
-9.260009765625 7.826904296875 -11.5723876953125
-82.08251953125 -21.0625 0.2191162109375
-17.398193359375 -8.734619140625 -0.518310546875
17.586181640625 -17.894287109375 11.5972900390625
-0.758056640625 24.251220703125 -12.4759521484375
9.389892578125 27.0096435546875 1.15771484375
96.6181640625 -34.575927734375 5.16162109375
-32.50390625 -22.2403564453125 15.211669921875
71.511962890625 -22.653076171875 -3.5894775390625
-8.37255859375 21.071044921875 -12.974609375
-23.5126953125 -21.92236328125 13.8028564453125
-28.502197265625 -0.5264892578125 -6.892822265625
3.174072265625 -42.640869140625 24.1925048828125
-41.930419921875 -12.1866455078125 -3.7772216796875
24.72607421875 -38.8765869140625 21.459716796875
72.805419921875 -10.4403076171875 -11.0267333984375
-12.7197265625 1.008056640625 -8.5997314453125
80.81103515625 43.87841796875 -30.753662109375
2.8720703125 32.6368408203125 0.01416015625
29.888916015625 -3.1085205078125 -6.268310546875
47.773681640625 5.5513916015625 -18.4259033203125
-20.206298828125 24.045166015625 -12.6036376953125
-1.702392578125 6.162353515625 4.3111572265625
54.06689453125 44.4317626953125 -20.1519775390625
-57.785400390625 21.6256103515625 4.58740234375
62.447509765625 -29.9718017578125 -1.1156005859375
56.613037109375 -10.930908203125 2.780029296875
-33.06982421875 -10.2518310546875 2.2191162109375
-43.361328125 -15.2591552734375 8.7734375
-18.552001953125 7.3253173828125 -10.82421875
-3.87255859375 35.138671875 -0.052490234375
-1.478759765625 -22.6861572265625 11.2435302734375
-8.918212890625 -31.052978515625 15.6484375
10.153564453125 4.40966796875 1.280029296875
7.899169921875 -18.4774169921875 12.6944580078125
-95.90380859375 -35.903076171875 -2.477294921875
49.26416015625 21.672607421875 -19.8609619140625
31.963623046875 -21.78271484375 15.7767333984375
77.94677734375 48.155029296875 -34.08251953125
62.377197265625 -9.387939453125 -0.6246337890625
48.98193359375 -2.3709716796875 -8.01171875
60.431396484375 -18.9500732421875 7.1805419921875
-49.697509765625 26.7257080078125 -0.23486328125
-44.73974609375 13.860595703125 0.1297607421875
28.16552734375 -6.8458251953125 -0.77392578125
56.736572265625 -3.4061279296875 -1.269287109375
64.14990234375 -32.0787353515625 -6.01220703125
-38.168701171875 -23.9224853515625 18.4818115234375
2.888671875 -0.3265380859375 -6.3653564453125
84.5634765625 19.3709716796875 -23.5631103515625
-11.67529296875 23.593505859375 -12.198486328125
-16.306396484375 19.9737548828125 -9.3074951171875
-74.3603515625 -13.384765625 11.3233642578125
-22.103271484375 13.7850341796875 -11.416015625
5.406982421875 -15.78076171875 2.7244873046875
8.916259765625 -2.2012939453125 -3.577880859375
-65.91748046875 13.2364501953125 15.0372314453125
-28.213134765625 18.2847900390625 -11.3399658203125
94.477783203125 -31.54248046875 -4.8726806640625
77.207763671875 -11.5888671875 2.5205078125
-4.2099609375 -3.367431640625 -4.0849609375
10.805908203125 -27.1845703125 13.2413330078125
36.773681640625 35.595947265625 -20.08935546875
86.874267578125 -4.841064453125 -4.2562255859375
-78.684326171875 -31.5281982421875 21.3121337890625
5.734619140625 -12.9014892578125 -2.6983642578125
-12.91845703125 -28.499267578125 15.3482666015625
85.98095703125 -33.6807861328125 -0.49169921875
31.414794921875 -15.08056640625 8.331298828125
47.652099609375 15.9423828125 -19.3258056640625
-36.165771484375 -19.2286376953125 12.8555908203125
36.825927734375 -2.16259765625 -8.093017578125
-28.710205078125 -11.298095703125 2.1297607421875
-9.658935546875 15.0191650390625 -12.2158203125
-63.000732421875 -31.90380859375 26.16943359375
49.7822265625 -9.99462890625 2.5443115234375
16.90869140625 41.8834228515625 -3.1097412109375
55.27001953125 0.6405029296875 -14.2398681640625
104.011962890625 -30.3489990234375 4.171142578125
13.608642578125 -33.51220703125 18.798583984375
-36.07958984375 -12.851806640625 6.196533203125
-2.906005859375 -6.58984375 -0.877685546875
-21.987060546875 -11.3204345703125 2.242431640625
-84.927978515625 21.5010986328125 14.3287353515625
75.15869140625 26.1925048828125 -27.7379150390625
10.09423828125 -33.1051025390625 16.6832275390625
103.960693359375 -24.2359619140625 -7.4012451171875
50.262451171875 -4.4149169921875 -4.1820068359375
77.404541015625 -45.0831298828125 6.81591796875
-15.602294921875 -32.1055908203125 17.0994873046875
-52.205810546875 -21.5311279296875 17.5166015625
-6.279296875 1.8753662109375 -9.743408203125
-27.559326171875 -13.8509521484375 4.8726806640625
-6.650634765625 -16.7176513671875 8.2347412109375
28.110595703125 -12.6844482421875 5.9613037109375
-27.130126953125 -7.7657470703125 -2.130615234375
-48.2431640625 -29.527099609375 24.115478515625
-15.298583984375 -3.513427734375 -4.27587890625
13.261962890625 -14.254638671875 8.39404296875
-2.140625 31.9412841796875 -0.80712890625
-36.934814453125 -28.0362548828125 22.7100830078125
-46.021240234375 17.6282958984375 0.0538330078125
41.454833984375 44.70556640625 -16.825439453125
82.043701171875 -35.43310546875 -7.177978515625
36.201416015625 1.208740234375 -14.281005859375
21.846435546875 -40.761474609375 22.9254150390625
83.248291015625 12.0714111328125 -23.4774169921875
-3.282470703125 8.4462890625 -12.1256103515625
82.094970703125 5.7420654296875 -21.490478515625
29.732421875 -19.1463623046875 13.1988525390625
86.15869140625 -38.990478515625 3.755615234375
79.74169921875 -12.201171875 -13.7392578125
85.449951171875 29.8865966796875 -28.7847900390625
2.329833984375 -15.6202392578125 -1.973876953125
23.6650390625 -16.182861328125 9.8043212890625
-8.940673828125 38.613037109375 -1.8287353515625
54.59033203125 29.0089111328125 -19.740966796875
103.277099609375 -34.47802734375 9.4761962890625
57.71630859375 36.5328369140625 -19.0836181640625
6.74755859375 -36.7724609375 19.5137939453125
39.22607421875 -8.11376953125 0.617919921875
83.550048828125 15.9915771484375 -24.74755859375
-35.187744140625 -7.7110595703125 0.68701171875
2.45556640625 37.6732177734375 -1.108642578125
38.342529296875 27.78076171875 -19.9462890625
-20.758544921875 -26.98046875 16.0263671875
-28.404541015625 -20.0106201171875 9.7774658203125
74.48876953125 -20.935302734375 -7.820068359375
10.105224609375 -38.9207763671875 21.2452392578125
-43.2021484375 -14.9163818359375 2.5755615234375
-9.02490234375 -34.8050537109375 18.11328125
-63.052734375 20.97412109375 7.581787109375
80.362060546875 22.47216796875 -27.51708984375
-78.490234375 -28.9522705078125 2.6583251953125
77.566650390625 0.1005859375 -19.0037841796875
6.2060546875 0.6060791015625 -4.1226806640625
42.5986328125 -4.1907958984375 -4.6336669921875
-0.9658203125 38.6468505859375 -2.803466796875
-27.818603515625 -24.7889404296875 16.1871337890625
-29.47119140625 12.9808349609375 -10.672119140625
-79.197265625 -24.9404296875 2.4327392578125
57.343994140625 -1.6602783203125 -8.108154296875
-23.259765625 19.5584716796875 -11.7135009765625
68.751953125 -6.827880859375 -11.744873046875
-46.809814453125 -23.466552734375 17.7523193359375
32.0712890625 -4.6827392578125 -3.0736083984375
-46.23974609375 -1.91943359375 -5.2716064453125
17.859375 -30.1314697265625 15.323974609375
-32.734130859375 -16.7379150390625 8.31201171875
26.14794921875 -18.359130859375 12.7186279296875
-7.18896484375 -12.9443359375 3.909912109375
-19.403076171875 -31.9073486328125 18.007568359375
-7.88818359375 -2.9659423828125 -4.6239013671875
55.123779296875 17.8651123046875 -19.4932861328125
34.110595703125 24.385986328125 -19.87060546875
2.81494140625 25.08447265625 1.225341796875
54.281982421875 11.906982421875 -19.4200439453125
-9.26513671875 0.1214599609375 -8.3780517578125
5.8818359375 27.587646484375 1.0699462890625
3.499267578125 -14.6944580078125 8.09765625
-41.141357421875 7.8800048828125 1.522216796875
-42.9423828125 -28.9248046875 23.5589599609375
-21.696533203125 -3.978515625 -4.66845703125
32.09814453125 33.910400390625 -20.1839599609375
-37.97119140625 -9.4705810546875 -1.00439453125
-45.411865234375 -5.9442138671875 -3.3310546875
-43.238525390625 25.0330810546875 0.7232666015625
55.75 49.7098388671875 -18.598876953125
32.869873046875 -1.6876220703125 -8.58837890625
-72.64892578125 -18.1451416015625 11.0802001953125
-79.189697265625 -35.435546875 2.8072509765625
-14.9453125 25.2904052734375 -12.7685546875
-3.035400390625 15.45947265625 -12.9146728515625
13.589111328125 -0.8919677734375 0.92236328125
101.44580078125 -38.3870849609375 13.6651611328125
-18.23193359375 26.99609375 -13.3416748046875
-62.841064453125 -16.4945068359375 9.9249267578125
1.83447265625 -16.99462890625 11.9495849609375
72.7119140625 -44.6915283203125 -1.673828125
7.938232421875 -7.138671875 -1.94970703125
79.618408203125 -17.4937744140625 -6.846435546875
77.93359375 35.2410888671875 -28.091552734375
-56.287353515625 -25.08544921875 19.4384765625
-49.75 -18.2396240234375 11.5391845703125
-7.752685546875 -22.9632568359375 12.1875
67.176513671875 -35.94873046875 -9.39453125
94.153564453125 -17.1602783203125 -18.4775390625
20.437744140625 -7.8800048828125 0.622314453125
101.056640625 -37.2767333984375 9.57470703125
-10.34130859375 -40.9412841796875 23.092041015625
-17.083984375 -40.33154296875 22.39697265625
-3.20849609375 -17.1297607421875 8.4246826171875
-12.49755859375 -35.9921875 18.7188720703125
86.762939453125 -35.22216796875 8.91259765625
-47.900390625 -14.0521240234375 7.598876953125
38.40966796875 46.2921142578125 -20.1561279296875
48.07861328125 0.067626953125 -13.0941162109375
2.11376953125 11.9539794921875 2.235595703125
-55.67626953125 -30.235107421875 25.221923828125
79.986083984375 -44.4229736328125 0.09765625
65.770263671875 -38.459228515625 -5.631103515625
102.3837890625 -26.5770263671875 -5.3126220703125
-15.712646484375 36.9241943359375 -1.0748291015625
56.14501953125 5.75341796875 -18.568359375
-41.138671875 4.8720703125 -1.556884765625
46.046875 -23.0667724609375 10.9677734375
106.40087890625 -28.8267822265625 0.4949951171875
73.7841796875 -29.884521484375 -2.864990234375
14.210205078125 2.1015625 6.2490234375
81.15234375 -6.3369140625 -2.7352294921875
-93.103759765625 -38.85546875 2.2379150390625
74.795654296875 -9.0447998046875 -13.5921630859375
17.117431640625 -39.5933837890625 21.88134765625
70.6025390625 -36.5028076171875 -9.931884765625
-29.76025390625 -4.0517578125 -4.390625
-93.796630859375 -30.597412109375 -3.451904296875
-80.2216796875 -32.5069580078125 15.274658203125
-15.858642578125 -20.291748046875 11.8470458984375
-5.49462890625 25.9927978515625 -13.728515625
84.0966796875 -36.59619140625 -2.5047607421875
48.745849609375 10.0125732421875 -19.3544921875
95.122802734375 -25.098388671875 -9.765869140625
50.30859375 47.27197265625 -20.2359619140625
32.066162109375 -9.1920166015625 2.0926513671875
4.463134765625 -18.7392578125 13.3070068359375
80.21435546875 -15.2335205078125 7.3499755859375
46.758056640625 -26.3489990234375 7.71533203125
-18.246337890625 0.25537109375 -8.058349609375
-23.540283203125 24.665283203125 -12.4088134765625
48.84375 -26.6849365234375 11.0780029296875
9.272705078125 -13.876953125 7.6842041015625
11.563720703125 5.8131103515625 4.14990234375
29.56005859375 4.5679931640625 -17.8719482421875
44.739013671875 28.373291015625 -19.6448974609375
-55.639404296875 -15.7957763671875 9.1802978515625
69.154052734375 1.6865234375 -15.4461669921875
-57.3984375 -20.230224609375 14.3406982421875
97.52734375 -12.1187744140625 -20.6678466796875
52.12451171875 -15.1864013671875 7.82763671875
-54.96728515625 23.9407958984375 3.014892578125
-79.893310546875 -29.478515625 12.65869140625
67.776123046875 -13.642333984375 -7.8592529296875
-79.331787109375 -14.0775146484375 7.3199462890625
58.09716796875 -8.5020751953125 0.3485107421875
-25.8212890625 4.76904296875 -9.9971923828125
-39.769775390625 -21.993896484375 16.27197265625
75.2060546875 -15.8994140625 8.2745361328125
-34.527099609375 -1.03271484375 -1.9798583984375
-13.708984375 -9.7899169921875 0.7989501953125
-10.240234375 11.7557373046875 -11.899169921875
8.09912109375 15.3543701171875 0.7626953125
4.392578125 -10.6790771484375 -6.4283447265625
38.08154296875 6.2659912109375 -18.6229248046875
86.17724609375 35.7315673828125 -30.059814453125
-1.176025390625 10.30810546875 -10.3504638671875
2.066162109375 -22.2974853515625 11.207763671875
-25.138916015625 -17.33837890625 8.089111328125
34.468017578125 27.6802978515625 -19.8505859375
86.718505859375 -28.2320556640625 -1.765625
-18.44482421875 -5.2628173828125 -2.75634765625
54.028564453125 -1.06982421875 -10.84326171875
-6.815673828125 -27.395751953125 13.9581298828125
-73.086181640625 -25.7681884765625 19.55126953125
73.615478515625 19.279296875 -25.1209716796875
-0.666015625 -36.800537109375 19.332275390625
16.828125 -33.5269775390625 20.60498046875
74.221435546875 10.6632080078125 -20.2001953125
-56.8330078125 -10.69384765625 3.5904541015625
101.049072265625 -14.443603515625 -18.7310791015625
-48.8984375 -7.527099609375 -0.9500732421875
39.633056640625 32.57177734375 -19.9571533203125
97.567626953125 -38.1505126953125 8.8851318359375
-44.63134765625 8.4656982421875 1.76708984375
77.341552734375 -22.9869384765625 -8.1519775390625
86.62744140625 -35.16650390625 3.7191162109375
55.404541015625 -15.2467041015625 7.7890625
-65.03662109375 -22.00048828125 16.334228515625
82.10693359375 49.7264404296875 -32.95947265625
-1.005859375 3.343017578125 -10.8001708984375
48.109619140625 29.3629150390625 -19.810791015625
4.9189453125 -27.8900146484375 12.431396484375
78.0107421875 -25.5927734375 -5.5621337890625
-21.927978515625 -17.1939697265625 8.668212890625
-79.23828125 -21.8428955078125 6.6595458984375
-80.2919921875 -38.069091796875 6.8448486328125
78.784912109375 -15.5582275390625 -12.1068115234375
28.06494140625 -23.023193359375 17.32568359375
40.206787109375 -21.3255615234375 13.40283203125
50.712890625 -20.9923095703125 10.2073974609375
84.476806640625 32.837890625 -30.103515625
105.9677734375 -26.843994140625 5.3731689453125
79.41845703125 -31.6605224609375 -5.68603515625
54.109130859375 41.50732421875 -2.593017578125
97.640869140625 -27.645263671875 -2.849853515625
-11.400634765625 30.0877685546875 -13.6768798828125
41.170166015625 23.1644287109375 -19.7294921875
81.907470703125 2.5328369140625 -20.41748046875
-79.746337890625 -34.27734375 22.8009033203125
-54.5400390625 -6.99853515625 -0.1109619140625
-61.336669921875 -31.5694580078125 28.8927001953125
-50.900146484375 17.744140625 -0.6832275390625
48.806884765625 39.6910400390625 -19.8272705078125
-49.439208984375 -11.90087890625 -1.2308349609375
12.96435546875 38.0421142578125 -0.89208984375
62.89990234375 -25.6837158203125 3.9835205078125
-59.99609375 9.7109375 13.6385498046875
-23.16796875 9.703369140625 -11.080810546875
51.098388671875 -6.3779296875 -1.8060302734375
14.7880859375 -0.55029296875 11.279052734375
20.520263671875 -15.8551025390625 9.3795166015625
27.133056640625 -39.9517822265625 23.7496337890625
77.16064453125 10.1990966796875 -21.375
77.5205078125 -37.193603515625 -9.06201171875
74.96923828125 -27.36767578125 -4.8734130859375
44.627197265625 44.590576171875 -16.5748291015625
78.310791015625 -41.1614990234375 -3.7542724609375
39.850830078125 39.7264404296875 -19.8841552734375
84.38134765625 -33.762451171875 -5.247802734375
47.2177734375 46.4212646484375 -18.3927001953125
-52.592041015625 -13.6549072265625 6.6448974609375
-93.140625 -36.7032470703125 -0.4320068359375
-61.447509765625 16.8935546875 8.7032470703125
42.887939453125 19.470703125 -17.2435302734375
-51.7578125 14.0106201171875 0.00341796875
31.78125 17.36083984375 -19.621337890625
-15.202880859375 10.95751953125 -11.40625
86.295654296875 -26.0777587890625 0.5137939453125
-38.642578125 2.514404296875 -2.4527587890625
-40.935791015625 -15.550048828125 -2.761474609375
101.601806640625 -19.9266357421875 -12.9976806640625
51.037841796875 1.7681884765625 -15.5411376953125
50.771484375 -12.06005859375 4.7158203125
37.792724609375 -3.847412109375 -4.524169921875
102.856201171875 -32.419677734375 6.300537109375
70.49560546875 -47.3087158203125 13.356689453125
23.721923828125 -8.30322265625 0.826171875
44.75927734375 0.826904296875 -13.72802734375
78.731689453125 18.0516357421875 -24.7850341796875
45.30322265625 -14.081787109375 6.73046875
43.486083984375 -1.978515625 -8.1885986328125
-63.090087890625 -25.1343994140625 19.62255859375
43.978759765625 -6.5028076171875 -1.6400146484375
60.6875 -25.6905517578125 0.925537109375
-13.07568359375 3.612548828125 -10.31103515625
4.31103515625 35.036376953125 -1.3997802734375
-42.438720703125 2.2593994140625 -5.6600341796875
-46.518798828125 20.9512939453125 0.386474609375
73.220947265625 22.2967529296875 -25.9766845703125
-26.12060546875 -29.0194091796875 17.70166015625
42.42236328125 -26.323486328125 14.5272216796875
57.25537109375 43.253173828125 -19.28759765625
54.900390625 32.314208984375 -19.6123046875
-42.4736328125 -25.439453125 19.269287109375
-14.99609375 -1.198486328125 -6.828857421875
-29.317138671875 8.63671875 -10.5211181640625
-79.6328125 -26.8782958984375 10.169189453125
66.3515625 -49.5323486328125 15.832763671875
-0.55859375 12.8968505859375 0.9620361328125
-77.466552734375 -26.70361328125 16.8060302734375
-69.463623046875 -15.09521484375 8.4010009765625
-49.3701171875 -27.6114501953125 21.954345703125
-24.43994140625 -9.158447265625 -2.78466796875
-75.182373046875 -22.5169677734375 14.4267578125
-78.7568359375 -23.8548583984375 10.178955078125
-3.22119140625 -34.9639892578125 18.556640625
-40.46142578125 -5.09765625 -4.1971435546875
66.539794921875 -43.67138671875 -0.2603759765625
-17.61865234375 -37.698974609375 20.157958984375
-82.091064453125 -29.8421630859375 -3.9150390625
83.90966796875 11.7652587890625 -20.204345703125
84.1689453125 -40.4625244140625 1.1405029296875
-61.3505859375 11.71044921875 11.721435546875
-58.821044921875 -12.9541015625 6.1534423828125
79.44482421875 41.456787109375 -29.21240234375
-2.15478515625 -1.2518310546875 -6.2884521484375
14.436767578125 -0.247802734375 3.9102783203125
31.2578125 23.2301025390625 -19.841064453125
-9.968505859375 -17.0555419921875 8.58935546875
-58.275146484375 -28.1837158203125 22.8052978515625
78.024169921875 24.879638671875 -25.1820068359375
-41.80859375 -16.727294921875 10.9832763671875
35.71630859375 -17.211181640625 10.6268310546875
14.55126953125 -42.6026611328125 24.3370361328125
8.72900390625 -12.100341796875 4.148681640625
75.346435546875 -49.4637451171875 11.140625
70.677734375 18.789794921875 -23.263671875
9.413818359375 33.48095703125 -0.6361083984375
-81.743408203125 -7.8399658203125 5.5810546875
53.208740234375 20.2662353515625 -19.46435546875
72.52392578125 -3.9256591796875 -13.575439453125
96.264404296875 -24.8482666015625 -6.48291015625
83.674072265625 43.5845947265625 -33.2584228515625
77.879638671875 45.228759765625 -33.202880859375
38.546875 16.9759521484375 -19.7705078125
21.21142578125 -34.205078125 17.7789306640625
-14.827392578125 -12.0941162109375 3.100341796875
81.593505859375 38.6741943359375 -31.22119140625
-92.735595703125 -22.39599609375 -1.7294921875
2.716064453125 -35.3321533203125 18.043701171875
53.903564453125 47.47119140625 -20.0018310546875
80.68359375 -8.0621337890625 -15.353759765625
38.577392578125 -25.0860595703125 19.784423828125
14.308837890625 -12.40771484375 6.10009765625
79.24951171875 -3.28369140625 -18.8409423828125
85.007080078125 38.185546875 -31.7696533203125
25.071533203125 -6.50390625 -1.2139892578125
-64.0234375 9.1844482421875 16.5048828125
16.630859375 -20.89453125 14.560791015625
79.210205078125 7.1158447265625 -22.5250244140625
103.0146484375 -31.7987060546875 10.8602294921875
-29.145751953125 2.25 -8.27197265625
41.2548828125 11.2747802734375 -19.3558349609375
-64.007568359375 -34.8994140625 26.281494140625
73.404296875 43.5887451171875 -32.42626953125
4.365234375 42.1700439453125 -3.98779296875
-37.74609375 -12.864990234375 -4.278564453125
-1.68994140625 -42.5823974609375 23.923828125
-26.541259765625 12.001953125 -10.966064453125
50.7919921875 -1.1790771484375 -10.1182861328125
-83.91943359375 -15.642333984375 3.6473388671875
21.49755859375 -12.667724609375 5.6719970703125
99.975830078125 -9.981201171875 -21.264404296875
-21.03466796875 16.59130859375 -11.658935546875
-58.6728515625 -23.4195556640625 17.49267578125
-60.646728515625 22.2657470703125 5.2757568359375
48.99072265625 -30.0841064453125 12.4078369140625
-12.171142578125 26.892578125 -13.123291015625
41.03662109375 4.7120361328125 -18.0714111328125
-0.76953125 -31.596435546875 15.6639404296875
-20.414306640625 -13.190185546875 4.3834228515625
29.46337890625 -10.2247314453125 3.1407470703125
36.721923828125 13.5843505859375 -19.71533203125
13.328857421875 -36.8575439453125 20.79931640625
77.237060546875 5.084228515625 7.0821533203125
-20.18994140625 -40.8460693359375 22.4114990234375
-1.388671875 -26.6214599609375 12.7384033203125
34.600341796875 -13.0826416015625 6.3536376953125
-22.57958984375 -10.1461181640625 -0.43017578125
71.79443359375 -45.8302001953125 9.6075439453125
-70.472412109375 -32.7469482421875 24.4276123046875
-6.672119140625 -8.704833984375 2.267333984375
-81.66259765625 -18.8487548828125 4.6219482421875
-55.1572265625 -24.241455078125 22.0550537109375
-47.02685546875 27.84130859375 0.4384765625
45.185791015625 25.423828125 -19.4949951171875
96.29443359375 -19.8052978515625 -12.5634765625
37.603759765625 43.4356689453125 -20.2532958984375
-69.283447265625 -29.360595703125 24.063232421875
-17.7646484375 -26.1702880859375 15.4559326171875
33.344482421875 13.766357421875 -19.640869140625
80.572998046875 -21.5755615234375 2.8570556640625
14.13720703125 -6.766845703125 -0.2496337890625
50.9541015625 26.767578125 -19.783935546875
-0.910400390625 19.95068359375 1.0257568359375
50.52978515625 20.268310546875 6.586181640625
96.92138671875 -17.0997314453125 -15.158935546875
10.247314453125 13.2557373046875 0.6817626953125
5.311767578125 14.4268798828125 0.480712890625
56.559326171875 -6.127197265625 -2.3944091796875
-42.888916015625 -0.549560546875 -4.8807373046875
49.83447265625 33.6494140625 -19.7451171875
-5.9765625 -39.5152587890625 21.930419921875
-12.125 17.07275390625 -12.4888916015625
45.6435546875 -16.0108642578125 9.201416015625
-94.572509765625 -25.148193359375 1.177001953125
6.265869140625 -43.2811279296875 24.831787109375
83.341796875 -5.0777587890625 -4.2259521484375
51.26513671875 25.491943359375 4.5435791015625
-80.23046875 -37.404541015625 17.7022705078125
44.663330078125 -11.3643798828125 3.9832763671875
10.833740234375 42.787109375 -3.8255615234375
81.767578125 -5.572998046875 -14.259521484375
38.358154296875 -0.9583740234375 -10.411865234375
41.704345703125 -18.7674560546875 10.9986572265625
10.0078125 36.5841064453125 -1.63232421875
95.152587890625 -34.597900390625 -6.1109619140625
40.493896484375 7.6788330078125 -19.4638671875
5.564453125 -39.9310302734375 22.077880859375
49.17041015625 -18.455322265625 9.6285400390625
-24.4033203125 -12.4459228515625 3.416259765625
9.245361328125 2.10498046875 -1.510009765625
7.87255859375 38.532958984375 -0.8817138671875
-55.971435546875 16.4996337890625 3.5206298828125
22.572509765625 -20.6778564453125 15.2244873046875
42.4501953125 34.134521484375 -19.980712890625
-66.9208984375 16.615234375 13.2357177734375
93.888671875 -41.834228515625 13.24560546875
-49.459228515625 23.6881103515625 0.39697265625
-19.60205078125 -20.6414794921875 12.0103759765625
4.74169921875 21.161376953125 0.8934326171875
-52.3984375 -24.8668212890625 22.7833251953125
10.90185546875 -18.45068359375 12.685546875
74.05615234375 49.7200927734375 -34.31201171875
-4.13720703125 -43.76123046875 25.285400390625
8.838623046875 22.81689453125 1.44384765625
-38.109619140625 -9.742919921875 -4.0855712890625
-76.9453125 -11.9205322265625 8.284423828125
2.8583984375 -32.3282470703125 16.26953125
29.559814453125 11.5234375 -19.5743408203125
78.532470703125 8.612548828125 7.1893310546875
14.825439453125 -10.4884033203125 3.85986328125
82.51513671875 -10.759521484375 2.5693359375
99.464599609375 -20.945556640625 -10.6728515625
47.405029296875 -8.1435546875 0.3634033203125
66.317138671875 -33.435546875 -7.3277587890625
-71.271240234375 -13.5379638671875 10.3697509765625
14.828369140625 -17.1800537109375 11.2655029296875
37.593505859375 20.0078125 -19.89404296875
6.599853515625 -12.546142578125 -5.9434814453125
99.613037109375 -42.074951171875 15.4212646484375
72.78515625 12.7039794921875 -22.2264404296875
42.46435546875 -23.4697265625 14.3880615234375
-79.152587890625 -35.51904296875 11.7271728515625
24.028076171875 -32.701171875 18.6197509765625
-76.120361328125 -27.272216796875 19.2587890625
11.180908203125 -7.8446044921875 0.48681640625
-4.13623046875 29.8629150390625 -13.08740234375
35.81982421875 8.0224609375 -19.525634765625
10.808349609375 -31.049072265625 14.8460693359375
-89.28515625 -26.097412109375 1.7674560546875
-35.59912109375 -5.433837890625 -0.9642333984375
56.650146484375 -18.035888671875 8.8226318359375
-81.568603515625 -13.6185302734375 4.0098876953125
86.541748046875 -30.90673828125 0.0587158203125
78.455078125 12.5062255859375 -23.527587890625
106.443115234375 -23.801025390625 3.7467041015625
48.244384765625 19.0382080078125 -19.631103515625
-63.617431640625 -13.119384765625 6.6033935546875
-46.304443359375 -21.037841796875 14.900146484375
35.187744140625 3.486328125 -17.0357666015625
-38.302001953125 -20.40234375 14.293701171875
-79.795166015625 -23.0782470703125 0.3873291015625
84.192138671875 -29.013916015625 -4.9229736328125
71.72119140625 -0.8665771484375 -15.9417724609375
-63.796142578125 13.361572265625 13.1639404296875
-6.11474609375 -31.03173828125 15.3046875
67.68408203125 -27.2713623046875 -0.1546630859375
8.55224609375 -43.6202392578125 26.6134033203125
-48.24853515625 12.8807373046875 1.15966796875
0.265869140625 5.773681640625 2.33837890625
-3.742431640625 11.4385986328125 -12.38427734375
-89.146240234375 -33.6844482421875 -0.745361328125
105.744873046875 -20.6490478515625 0.3455810546875
-66.591796875 -19.455322265625 12.64892578125
103.3564453125 -30.6541748046875 -2.5146484375
-7.759765625 23.906005859375 -13.30029296875
73.325927734375 -13.1251220703125 -10.3858642578125
65.286376953125 -10.837646484375 -4.5880126953125
34.325927734375 -26.484619140625 20.45751953125
-17.07177734375 -13.96923828125 4.81689453125
-48.1943359375 -31.328857421875 26.2572021484375
12.481201171875 9.0543212890625 5.5262451171875
-4.496826171875 21.1573486328125 1.640625
-78.2216796875 -33.1658935546875 1.4974365234375
96.384765625 -30.220703125 -1.3770751953125
71.260986328125 -28.929931640625 -0.13720703125
-46.9521484375 5.6243896484375 1.51171875
42.92431640625 14.53857421875 -17.101806640625
2.917724609375 18.801513671875 0.7393798828125
-14.49609375 22.53662109375 -8.475341796875
-2.421630859375 -39.906005859375 21.959716796875
-17.132568359375 21.6068115234375 -11.695556640625
-29.839599609375 -27.732666015625 19.7154541015625
32.548095703125 29.6854248046875 -19.9384765625
52.928955078125 16.16943359375 -19.6043701171875
81.5556640625 33.7322998046875 -30.3616943359375
82.288330078125 -0.3990478515625 -16.646484375
63.25439453125 -8.248291015625 -3.5443115234375
76.9345703125 29.0596923828125 -27.796875
85.694580078125 31.088623046875 -26.2984619140625
-86.544677734375 -26.20361328125 0.6424560546875
-6.503662109375 7.749755859375 -11.8416748046875
-91.510009765625 -31.9532470703125 -4.54638671875
-72.249755859375 -28.8111572265625 22.843505859375
76.713623046875 -45.7376708984375 14.9423828125
9.060791015625 10.872802734375 3.8824462890625
36.393798828125 -7.479736328125 -0.1531982421875
-80.343994140625 -10.151611328125 6.1558837890625
34.677734375 41.926513671875 -20.1192626953125
-6.259033203125 -35.4609375 18.5631103515625
3.938720703125 29.833984375 0.1107177734375
-31.697998046875 -5.913330078125 -2.4837646484375
-3.936279296875 19.783935546875 -13.3516845703125
3.2734375 -4.250244140625 -3.2501220703125
79.6357421875 -23.4510498046875 -3.8590087890625
74.6669921875 30.6495361328125 -29.177734375
-75.15869140625 -14.809326171875 8.451904296875
71.383544921875 -46.7958984375 0.56884765625
82.557373046875 -43.8663330078125 2.429443359375
-29.2216796875 21.868408203125 -11.68115234375
79.315185546875 30.5147705078125 -28.095947265625
-19.9365234375 -36.241455078125 19.6903076171875
-75.357177734375 -30.9315185546875 24.028076171875
26.0244140625 -11.443359375 4.69677734375
6.291748046875 9.3134765625 2.90576171875
71.198974609375 -39.4805908203125 -7.2574462890625
85.385986328125 24.6759033203125 -26.444580078125
-69.836669921875 24.7039794921875 10.5855712890625
-51.895263671875 -28.4156494140625 23.1175537109375
-68.162353515625 12.53564453125 16.4229736328125
-31.976318359375 -26.0462646484375 20.3056640625
-42.66943359375 -13.2431640625 6.422119140625
-61.03857421875 13.9168701171875 9.8125
57.640625 28.994873046875 -18.0296630859375
71.521240234375 31.1787109375 -27.0211181640625
-39.40380859375 -12.2945556640625 0.988037109375
-73.320556640625 -34.07373046875 25.246826171875
13.43994140625 -2.7783203125 -1.5606689453125
77.310302734375 -47.6463623046875 11.5721435546875
-80.856201171875 -31.960693359375 -5.0673828125
67.323486328125 -47.3341064453125 13.4091796875
-52.871826171875 -21.1064453125 14.929443359375
78.486083984375 -13.3831787109375 5.7039794921875
75.051513671875 33.7406005859375 -30.568359375
-20.086181640625 -9.448974609375 0.327880859375
40.275634765625 1.882568359375 -15.4512939453125
78.686767578125 -6.2470703125 -3.824462890625
-68.35693359375 -25.349853515625 19.9195556640625
45.8544921875 36.16552734375 -19.5040283203125
12.805908203125 27.768798828125 1.27978515625
-15.13720703125 17.712890625 -11.9766845703125
-54.79150390625 -21.580810546875 20.030029296875
-34.461181640625 -23.9229736328125 18.5384521484375
-23.176025390625 -6.4381103515625 -3.26611328125
-3.693115234375 11.6427001953125 2.5185546875
82.513427734375 -14.18603515625 6.441650390625
-5.444580078125 36.743896484375 -1.52099609375
82.8125 28.5655517578125 -29.4664306640625
77.7587890625 15.5386962890625 -23.1568603515625
-45.31884765625 -13.6876220703125 -4.7335205078125
33.148193359375 0.7305908203125 -13.2646484375
-16.158203125 5.3372802734375 -10.4376220703125
43.490478515625 -0.485107421875 -11.7757568359375
28.80322265625 -14.4102783203125 7.8780517578125
-12.615966796875 -16.61083984375 5.237060546875
65.8681640625 -24.4713134765625 0.57763671875
47.9130859375 12.5369873046875 -19.58984375
76.571044921875 -18.8636474609375 5.162841796875
80.748779296875 -11.249267578125 -11.0250244140625
37.698486328125 -19.7127685546875 13.546630859375
86.69677734375 -32.248046875 2.844970703125
73.973876953125 7.0576171875 -19.0152587890625
7.4716796875 -34.699462890625 17.662353515625
-7.9189453125 12.979248046875 -12.3443603515625
42.76904296875 -10.2215576171875 2.5042724609375
59.477294921875 -29.19140625 -2.9005126953125
30.54296875 -0.0452880859375 -11.526123046875
-77.5712890625 -23.0438232421875 12.6500244140625
79.085693359375 -43.2235107421875 -2.0963134765625
-39.304931640625 -3.9178466796875 -0.46240234375
-27.565185546875 -2.4248046875 -5.290283203125
-44.0244140625 21.962890625 0.595703125
96.300537109375 -15.769287109375 -17.787109375
101.85986328125 -28.4185791015625 -2.0426025390625
73.95458984375 -17.4661865234375 -8.44091796875
-0.746337890625 21.2781982421875 -12.2999267578125
-11.87548828125 -6.238525390625 -1.173095703125
-79.60595703125 -31.9373779296875 9.3253173828125
-61.01513671875 -20.59375 14.7293701171875
11.7578125 18.7203369140625 2.5107421875
72.2470703125 -47.9410400390625 11.124755859375
-41.19384765625 13.1434326171875 1.167236328125
62.9287109375 -41.1297607421875 0.487548828125
25.796630859375 -15.0404052734375 8.7672119140625
-22.211181640625 -20.315185546875 11.987060546875
6.322509765625 33.38916015625 0.139404296875
27.35693359375 -36.2296142578125 19.5906982421875
-40.35888671875 -28.4583740234375 22.988525390625
51.58447265625 11.123291015625 -19.4923095703125
-36.395263671875 -0.312255859375 -3.678955078125
3.638671875 -45.2137451171875 26.536376953125
50.4912109375 23.98388671875 -19.689453125
45.06640625 3.1185302734375 -17.0621337890625
14.1396484375 40.1329345703125 -1.9466552734375
79.113037109375 53.5604248046875 -33.208984375
14.669189453125 -32.16552734375 15.7554931640625
75.1748046875 -41.4444580078125 -5.093017578125
-6.865966796875 -42.422119140625 24.0367431640625
74.168212890625 15.4053955078125 -23.074951171875
42.1943359375 48.220703125 -17.35302734375
-16.0595703125 -18.5357666015625 9.93408203125
0.072265625 17.0345458984375 0.5538330078125
-79.037353515625 -36.3056640625 5.256103515625
40.130126953125 -12.489990234375 5.1751708984375
0.144775390625 -5.9368896484375 -1.628173828125
59.80419921875 -22.0985107421875 3.7720947265625
57.464599609375 1.7330322265625 -13.413330078125
-11.892333984375 -13.9718017578125 4.105712890625
85.82568359375 -23.456787109375 1.3524169921875
75.712890625 11.00830078125 8.1402587890625
10.319580078125 30.556884765625 0.3758544921875
77.333740234375 -17.450439453125 -11.1295166015625
34.795166015625 37.2469482421875 -20.0732421875
-0.483154296875 30.2896728515625 0.533935546875
11.2451171875 -9.452880859375 2.5706787109375
-89.3544921875 -31.8143310546875 -2.573486328125
0.638671875 -1.090576171875 -7.3433837890625
-20.1787109375 -24.6539306640625 15.1063232421875
-65.48779296875 -15.9034423828125 9.0545654296875
98.929443359375 -12.95556640625 -18.6873779296875
-7.09423828125 -20.707763671875 11.157470703125
7.90380859375 -16.4404296875 10.456787109375
-79.3154296875 -27.6170654296875 6.6551513671875
-79.49267578125 -32.3243408203125 19.0133056640625
-79.39697265625 -33.1922607421875 -1.582763671875
73.1953125 -35.821044921875 -10.5947265625
56.841552734375 33.9617919921875 -19.7994384765625
-25.10400390625 -31.552490234375 18.6085205078125
-82.065185546875 -36.8663330078125 0.5023193359375
74.27001953125 -39.47607421875 -7.2557373046875
50.659423828125 30.481689453125 2.373291015625
-28.09716796875 -10.165283203125 -0.0643310546875
-95.72021484375 -21.1304931640625 2.6407470703125
-1.59228515625 -16.899658203125 10.375244140625
-8.5673828125 -9.85498046875 3.5103759765625
-77.1591796875 -29.130615234375 20.6424560546875
-46.26025390625 -14.854248046875 3.016845703125
-1.6904296875 15.067138671875 0.2900390625
56.811767578125 22.9229736328125 -19.416259765625
100.351806640625 -31.79443359375 -0.883056640625
70.8388671875 -16.64892578125 -6.9727783203125
-15.52978515625 -16.6715087890625 7.053466796875
77.623779296875 39.0706787109375 -31.2427978515625
-31.03759765625 10.138916015625 -9.1617431640625
-50.671142578125 -22.002197265625 20.4100341796875
14.834716796875 34.7421875 -0.5213623046875
-12.3837890625 10.4344482421875 -11.6859130859375
-43.60205078125 16.30126953125 -0.129638671875
15.628662109375 45.2547607421875 -4.31201171875
-34.537841796875 -11.3470458984375 4.1458740234375
58.323974609375 -15.30517578125 7.5579833984375
-28.397705078125 15.80419921875 -10.9163818359375
-64.3662109375 17.8828125 10.7569580078125
11.30126953125 2.315185546875 0.4801025390625
83.33642578125 8.1878662109375 -19.2120361328125
-11.9033203125 -24.67626953125 13.744140625
77.931396484375 -17.3209228515625 8.9903564453125
-5.71875 32.7501220703125 -0.20849609375
12.757568359375 14.3238525390625 1.3218994140625
-22.848388671875 -35.8389892578125 20.06689453125
82.329833984375 -7.644775390625 -0.949951171875
9.135986328125 -11.854736328125 -3.3433837890625
65.9375 -30.055419921875 0.541259765625
77.64990234375 5.1568603515625 -20.6572265625
-52.73193359375 -32.0994873046875 26.50537109375
46.954833984375 8.2640380859375 -19.3843994140625
15.07373046875 -2.960205078125 0.3265380859375
74.1103515625 38.139892578125 -31.2943115234375
79.685302734375 0.166015625 -20.327880859375
-4.774658203125 13.7119140625 -12.511962890625
-18.822998046875 13.6422119140625 -11.6044921875
-53.888916015625 -9.546630859375 2.5953369140625
40.485107421875 18.2650146484375 -17.1278076171875
44.47216796875 -20.7545166015625 11.163818359375
-78.591064453125 -18.5716552734375 5.6123046875
82.158935546875 -27.1414794921875 -1.40966796875
29.989501953125 -5.7813720703125 -2.082275390625
-46.9208984375 -25.3228759765625 19.3955078125
7.138916015625 -13.847412109375 2.983642578125
0.97802734375 -38.4215087890625 20.6575927734375
79.92724609375 25.34130859375 -27.57080078125
53.832763671875 2.3182373046875 -16.3155517578125
5.5849609375 5.17919921875 -0.0767822265625
94.344970703125 -29.8968505859375 3.8958740234375
-56.639404296875 13.9427490234375 7.2108154296875
