-13.1376953125 -8.4471435546875 10.288330078125
-43.6943359375 -6.282470703125 7.9072265625
79.537109375 6.484130859375 -21.1287841796875
-80.03125 -34.03076171875 15.5400390625
-52.92138671875 -21.8392333984375 24.9642333984375
-85.982666015625 -31.887451171875 16.1297607421875
-34.451171875 -20.1644287109375 16.8724365234375
7.74755859375 -20.64208984375 23.6600341796875
47.93359375 -7.055908203125 8.6751708984375
98.68994140625 -20.8616943359375 -2.1195068359375
39.12744140625 16.905517578125 -7.487060546875
55.24169921875 -21.9034423828125 22.27685546875
-1.298828125 17.1290283203125 -0.980712890625
43.9658203125 -9.529052734375 11.9315185546875
18.146240234375 -37.2987060546875 30.8330078125
-85.6005859375 -34.5137939453125 13.984375
47.434326171875 41.98388671875 -3.6524658203125
96.578125 -27.522705078125 7.4508056640625
-9.931884765625 24.4010009765625 0.538818359375
-42.250732421875 -17.3946533203125 8.60107421875
1.84814453125 -12.455322265625 14.2574462890625
1.266845703125 13.137451171875 0.4632568359375
-43.68798828125 9.2701416015625 14.01220703125
-61.90869140625 -17.9420166015625 23.0987548828125
45.58935546875 31.753173828125 -7.710693359375
-49.000732421875 -10.55419921875 12.640625
40.314208984375 46.88525390625 -8.0592041015625
98.0048828125 -38.1265869140625 20.14208984375
85.420166015625 13.355224609375 -26.3653564453125
79.8837890625 17.91357421875 -25.78173828125
64.558837890625 -44.5643310546875 17.572021484375
9.4794921875 1.04638671875 12.2774658203125
1.157958984375 -40.4827880859375 31.64794921875
-7.904052734375 -30.72998046875 27.5174560546875
98.190673828125 -29.6925048828125 20.1585693359375
-46.56640625 1.3524169921875 16.6539306640625
-29.174072265625 -23.7706298828125 25.296630859375
-51.979736328125 -26.873046875 30.4053955078125
79.816650390625 -18.186767578125 -5.93994140625
67.51513671875 -46.1927490234375 21.3447265625
46.1875 -23.85107421875 24.071044921875
75.63818359375 -41.3819580078125 4.895751953125
75.585693359375 -36.65966796875 4.6812744140625
47.842529296875 46.369140625 -6.1873779296875
68.141357421875 -7.402587890625 -1.0596923828125
27.13671875 -11.7393798828125 14.221435546875
97.175048828125 -0.5250244140625 2.41015625
-29.352294921875 10.9033203125 2.433837890625
-61.504638671875 -31.5836181640625 35.13427734375
71.738037109375 0.0860595703125 -8.528076171875
62.958740234375 -22.83203125 15.25537109375
103.787109375 -17.5091552734375 -3.8985595703125
97.448974609375 -21.0062255859375 7.7296142578125
68.198974609375 -17.2064208984375 4.546630859375
38.725830078125 22.2425537109375 -7.521484375
80.41259765625 12.625732421875 -23.5501708984375
42.6669921875 44.989013671875 -6.59716796875
74.29931640625 -31.255859375 10.922607421875
47.441162109375 34.6513671875 -7.956298828125
4.668212890625 -10.013427734375 9.9036865234375
-8.83349609375 -46.2171630859375 36.434814453125
1.57958984375 -26.74951171875 23.8868408203125
66.78125 -46.7144775390625 15.548828125
54.971435546875 19.8240966796875 -7.2823486328125
-32.63818359375 -21.197509765625 24.574462890625
58.406982421875 -8.514892578125 10.1865234375
-87.52197265625 -41.5989990234375 17.9150390625
-77.800048828125 -33.169921875 11.6669921875
63.477294921875 -15.5396728515625 17.3968505859375
74.26806640625 -34.193115234375 8.6917724609375
-7.623291015625 17.9644775390625 -0.0299072265625
-17.65478515625 6.8414306640625 1.908935546875
0.9853515625 -17.9024658203125 20.7030029296875
44.1123046875 -6.9906005859375 8.91064453125
72.52392578125 40.60595703125 -23.4581298828125
68.048095703125 -13.783935546875 3.470458984375
19.661865234375 -41.3426513671875 33.6934814453125
-3.149169921875 -33.8331298828125 27.7191162109375
3.51123046875 -16.1787109375 12.267822265625
-7.689453125 -7.733154296875 9.290771484375
-43.608642578125 -19.2144775390625 22.02294921875
20.5341796875 -17.5533447265625 20.6044921875
70.99560546875 35.3326416015625 -21.9580078125
33.09619140625 -10.58935546875 12.7271728515625
67.76318359375 -23.005126953125 17.1009521484375
95.555908203125 -15.5704345703125 -6.481689453125
102.4599609375 -13.1173095703125 -10.6455078125
76.12646484375 10.2298583984375 -21.0701904296875
53.298828125 7.7860107421875 -7.20751953125
54.275146484375 1.16552734375 -4.78759765625
-31.642333984375 -15.772216796875 15.1124267578125
-57.0888671875 -28.781005859375 31.9254150390625
74.49462890625 -7.0933837890625 -10.160888671875
-6.824462890625 5.953125 1.8568115234375
-37.73486328125 -2.013671875 9.2696533203125
4.671630859375 -18.672119140625 11.899169921875
76.88525390625 33.5440673828125 -25.5206298828125
53.7158203125 40.51904296875 -8.3040771484375
98.22119140625 -31.2354736328125 12.766845703125
-0.259765625 -45.7041015625 35.5174560546875
6.94580078125 -3.07080078125 8.7080078125
76.406005859375 -1.7183837890625 -16.1524658203125
74.96826171875 -8.3663330078125 -3.6689453125
72.68359375 -17.0535888671875 17.3189697265625
80.64208984375 -0.1082763671875 -16.653076171875
-69.63525390625 -21.3076171875 23.212646484375
-37.072509765625 5.65576171875 16.0494384765625
84.384521484375 -38.7122802734375 4.7230224609375
97.832763671875 -19.3447265625 12.6273193359375
-78.596923828125 -41.521484375 16.3123779296875
22.835693359375 -40.5474853515625 32.314697265625
13.2412109375 -6.87646484375 9.1234130859375
45.675537109375 40.9853515625 -5.5888671875
-35.701416015625 -13.5841064453125 8.400146484375
74.25830078125 -24.165283203125 3.1373291015625
69.845458984375 -34.362548828125 5.9771728515625
-44.9716796875 -25.8409423828125 29.1513671875
82.616455078125 36.2557373046875 -29.3988037109375
55.556640625 23.5687255859375 -7.2586669921875
65.23974609375 -19.9595947265625 20.2325439453125
77.657470703125 -12.19091796875 -9.8560791015625
97.33984375 -7.900634765625 0.6861572265625
68.6640625 -23.3568115234375 12.2701416015625
67.751220703125 35.4866943359375 -18.806884765625
98.753662109375 -26.1875 3.84765625
31.69287109375 22.6688232421875 -6.474853515625
55.507080078125 27.717041015625 -7.45703125
-49.226318359375 -19.8717041015625 22.301025390625
-58.50341796875 -18.3896484375 20.944580078125
81.868408203125 22.4151611328125 -26.633056640625
59.48291015625 -13.710205078125 15.9119873046875
31.75439453125 29.212158203125 -6.5780029296875
-13.350341796875 10.8028564453125 1.384765625
-2.3046875 3.07666015625 0.9967041015625
-7.591064453125 13.9566650390625 0.16357421875
52.5625 -29.103271484375 19.8602294921875
-88.11474609375 -47.3460693359375 23.22900390625
94.25244140625 -25.552001953125 19.0303955078125
-21.66552734375 -24.8336181640625 25.76611328125
-48.3583984375 -23.22216796875 26.4029541015625
95.772705078125 -25.079345703125 15.884033203125
-22.368896484375 2.1082763671875 2.48876953125
-14.355712890625 -1.18017578125 3.3243408203125
61.73876953125 -30.772705078125 8.9849853515625
50.952880859375 30.5682373046875 -7.713623046875
69.34521484375 -2.7960205078125 -5.3377685546875
50.505859375 4.0823974609375 -6.8485107421875
74.265625 -12.15625 -4.561279296875
-22.538818359375 -8.6666259765625 8.7432861328125
44.5732421875 0.05078125 -3.01318359375
50.866943359375 -0.8524169921875 -2.3817138671875
14.59375 1.865966796875 16.28662109375
-48.60400390625 -17.8472900390625 20.6539306640625
34.898193359375 33.6781005859375 -7.8292236328125
1.76513671875 -4.23046875 6.1339111328125
8.7255859375 -10.9100341796875 8.7841796875
68.320068359375 -0.6658935546875 -3.95263671875
-36.1494140625 -20.60888671875 20.88232421875
79.81689453125 -22.5130615234375 -1.469482421875
-18.892578125 -0.7197265625 3.2532958984375
-4.070068359375 0.2852783203125 2.060791015625
-1.3154296875 -23.732666015625 23.6708984375
-17.23681640625 -42.0081787109375 35.4449462890625
82.84619140625 41.5616455078125 -29.91455078125
59.86376953125 -28.7239990234375 13.8150634765625
-5.5166015625 27.1400146484375 -1.4952392578125
-43.556396484375 -22.9560546875 26.2261962890625
30.243408203125 10.7781982421875 -7.675537109375
41.961669921875 11.5570068359375 -7.4383544921875
47.457763671875 -25.64794921875 25.3746337890625
-54.452392578125 -26.7718505859375 29.76953125
74.99267578125 -3.349365234375 -13.8433837890625
93.3154296875 -28.9625244140625 15.5460205078125
67.814697265625 3.08447265625 -6.9947509765625
-28.81982421875 -12.6031494140625 14.355712890625
-4.2763671875 7.922119140625 0.5838623046875
36.70263671875 7.8916015625 -7.2279052734375
-15.155029296875 -44.7506103515625 37.8848876953125
-9.64990234375 8.7635498046875 0.7388916015625
107.334228515625 -23.801025390625 3.1025390625
-55.3466796875 -15.221435546875 17.0950927734375
-25.92724609375 7.3272705078125 3.206787109375
-62.867431640625 -18.667236328125 20.825927734375
23.66943359375 -35.235107421875 27.5394287109375
-17.880859375 -2.7275390625 4.41552734375
-14.533447265625 -4.781005859375 6.5899658203125
-53.90869140625 -17.287353515625 19.4888916015625
67.39306640625 -18.2744140625 20.3175048828125
-8.20068359375 -11.00048828125 12.8038330078125
61.80615234375 -39.2802734375 17.9085693359375
-31.16748046875 -24.598876953125 27.832763671875
41.62255859375 41.5594482421875 -8.1246337890625
-10.484375 -0.4315185546875 2.898193359375
74.601318359375 25.252685546875 -18.036865234375
37.930908203125 33.72900390625 -7.6033935546875
72.246826171875 -12.2315673828125 13.4371337890625
-13.78466796875 -14.1614990234375 14.55859375
51.114990234375 26.821533203125 -8.1015625
-78.70263671875 -31.7979736328125 16.721435546875
30.27783203125 -2.614013671875 2.982177734375
70.197265625 -21.79541015625 18.3990478515625
60.599609375 -28.10302734375 21.251708984375
-62.678955078125 -29.0015869140625 32.161376953125
-88.765869140625 -37.887939453125 22.196533203125
44.259033203125 -23.330322265625 22.5478515625
63.202880859375 -42.432861328125 19.3643798828125
95.965087890625 -24.34765625 2.885498046875
75.92529296875 18.865478515625 -22.287353515625
44.6474609375 37.509765625 -7.83349609375
28.91015625 -18.62646484375 21.63134765625
-82.838623046875 -40.92919921875 16.0699462890625
70.091552734375 -7.8624267578125 6.3087158203125
-21.627685546875 4.8834228515625 2.0938720703125
-32.602294921875 1.987060546875 16.2164306640625
46.5478515625 -4.515380859375 4.070556640625
14.161865234375 -18.9957275390625 16.1971435546875
11.7958984375 -43.150634765625 33.643310546875
-20.34375 -5.4888916015625 7.630126953125
73.152587890625 -19.4351806640625 2.8826904296875
100.405029296875 -0.548095703125 3.9122314453125
51.63916015625 15.2423095703125 -7.70458984375
-10.888671875 -20.4825439453125 20.426513671875
13.0087890625 -37.8914794921875 29.46875
62.6826171875 -36.91357421875 12.1458740234375
-28.550537109375 6.9337158203125 2.4052734375
97.556396484375 -15.17138671875 -8.028564453125
-32.361328125 -27.542236328125 31.221435546875
3.878662109375 -21.7716064453125 22.7025146484375
-12.137939453125 -39.091552734375 31.4742431640625
0.686767578125 -33.9417724609375 26.914794921875
67.786376953125 -45.1221923828125 25.694580078125
51.22021484375 37.993408203125 -8.2777099609375
14.021240234375 -20.8494873046875 25.478759765625
42.6279296875 25.1387939453125 -7.5706787109375
76.3125 -15.5513916015625 -7.34814453125
-37.591064453125 12.0325927734375 13.7640380859375
52.320068359375 -16.1658935546875 19.0775146484375
-32.319580078125 12.0081787109375 13.6451416015625
99.52734375 -6.6590576171875 -9.8367919921875
41.36767578125 -21.1383056640625 24.321044921875
18.44287109375 -12.81982421875 15.09521484375
-6.35205078125 22.3348388671875 -1.19580078125
11.98779296875 -30.445556640625 23.8551025390625
-2.287353515625 -37.2958984375 29.4935302734375
102.615966796875 -20.560791015625 -0.4219970703125
60.673583984375 -27.407470703125 11.8995361328125
-52.23583984375 -13.2850341796875 15.22412109375
-27.33544921875 2.581298828125 4.1126708984375
-45.394775390625 -13.43896484375 14.9407958984375
99.24365234375 -18.5374755859375 15.3023681640625
34.967529296875 41.043212890625 -7.9453125
-38.7919921875 -21.8436279296875 24.8873291015625
-11.822021484375 14.81103515625 1.5736083984375
-81.4697265625 -37.67431640625 11.991455078125
75.652587890625 7.84912109375 -16.7733154296875
-89.46484375 -35.7197265625 10.3060302734375
68.9033203125 -9.1343994140625 10.668212890625
-80.991943359375 -34.656494140625 13.09765625
80.495361328125 -28.681884765625 4.816650390625
43.994140625 -19.8892822265625 22.8284912109375
17.5498046875 -46.0601806640625 35.348388671875
-5.944580078125 -45.0296630859375 35.55078125
66.120361328125 -27.59130859375 12.4293212890625
-5.031005859375 -13.5506591796875 15.3948974609375
-26.0595703125 -23.4010009765625 23.2489013671875
82.10791015625 15.889404296875 -24.7674560546875
102.779296875 -29.0396728515625 7.94189453125
73.5302734375 -40.4019775390625 4.0487060546875
-82.625244140625 -28.86865234375 15.061767578125
-48.6259765625 -1.40771484375 18.0223388671875
-3.773681640625 -23.2384033203125 23.452880859375
-24.10107421875 -2.6356201171875 4.5283203125
71.931884765625 27.6339111328125 -19.7279052734375
-3.54248046875 -17.748291015625 18.3564453125
-50.306640625 -9.7535400390625 15.5281982421875
-15.765625 -19.10546875 19.864990234375
-18.354248046875 20.3856201171875 0.962890625
36.212646484375 30.00048828125 -7.919921875
32.149169921875 -5.12060546875 6.1456298828125
69.51708984375 -23.443359375 15.09375
-78.0283203125 -35.022705078125 10.119873046875
-27.209716796875 -27.245361328125 29.5589599609375
-57.642333984375 -24.1739501953125 27.30810546875
17.372802734375 -32.389892578125 25.79296875
78.501953125 41.090087890625 -29.6619873046875
56.577392578125 -17.576171875 20.23388671875
80.58349609375 -46.1893310546875 10.6807861328125
-26.191650390625 -6.59228515625 8.5390625
-59.4248046875 -28.28369140625 31.557861328125
46.188232421875 1.260986328125 -4.346435546875
100.519287109375 -29.4451904296875 9.25244140625
9.708740234375 -2.283935546875 9.4168701171875
40.6591796875 3.35888671875 -6.188232421875
74.6640625 1.6536865234375 -14.448486328125
-48.12890625 -6.2078857421875 11.5225830078125
-79.163330078125 -46.1044921875 21.4859619140625
48.520751953125 24.76416015625 -7.504150390625
-28.15478515625 -20.0135498046875 20.66015625
-24.150390625 23.940673828125 0.859130859375
73.097900390625 -15.141357421875 0.4515380859375
25.52490234375 -17.244384765625 19.973388671875
-83.452880859375 -47.1983642578125 23.4468994140625
76.95166015625 21.1982421875 -25.7607421875
-41.2978515625 -30.6124267578125 33.563720703125
68.56201171875 16.645751953125 -14.975830078125
-43.83447265625 -10.249755859375 10.582763671875
71.574462890625 -23.7261962890625 5.944580078125
2.30078125 -1.00341796875 2.7935791015625
100.212890625 -32.616455078125 12.5965576171875
97.861328125 -13.1187744140625 2.98291015625
-88.715087890625 -34.6666259765625 19.965087890625
-8.341796875 10.7589111328125 0.5677490234375
-67.459716796875 -25.0799560546875 27.6964111328125
-37.52783203125 -16.321533203125 8.35888671875
-16.35205078125 -37.2484130859375 31.3818359375
-66.546630859375 -19.03857421875 24.4141845703125
-87.658203125 -39.007080078125 13.06982421875
-29.856201171875 -15.857666015625 17.9073486328125
68.472900390625 24.381103515625 -18.167724609375
76.18994140625 -5.87109375 -13.5125732421875
76.705322265625 -31.1781005859375 6.13916015625
98.954345703125 -11.8802490234375 11.0062255859375
67.788330078125 23.2877197265625 -14.845703125
98.3486328125 -28.5196533203125 9.9149169921875
-12.236083984375 -10.4996337890625 11.2161865234375
76.526611328125 24.169921875 -23.6834716796875
10.71875 -0.6339111328125 11.1639404296875
60.82080078125 -30.3692626953125 24.06689453125
39.129638671875 8.2869873046875 -7.2198486328125
1.074951171875 -16.2169189453125 19.05224609375
-48.111572265625 8.5205078125 14.89404296875
-77.646240234375 -29.3944091796875 14.0086669921875
50.036865234375 21.467529296875 -7.3375244140625
17.784423828125 -36.32861328125 28.3995361328125
78.468017578125 26.0673828125 -27.2484130859375
26.41845703125 -46.886474609375 35.3675537109375
-34.87451171875 -3.6507568359375 8.8548583984375
69.46044921875 -31.1351318359375 12.15576171875
-20.8818359375 -14.386474609375 13.1494140625
99.824951171875 -19.4718017578125 17.630859375
97.1904296875 -20.9149169921875 3.0142822265625
-35.683349609375 -8.8193359375 10.1212158203125
-5.083740234375 13.9637451171875 0.58203125
68.352783203125 -19.7989501953125 6.361083984375
11.72119140625 -45.803955078125 35.389404296875
39.288330078125 25.12255859375 -7.4853515625
102.648681640625 -35.0291748046875 16.01611328125
44.384765625 3.7315673828125 -6.459228515625
-76.627685546875 -42.191650390625 12.8807373046875
-76.389404296875 -25.6136474609375 15.9832763671875
-60.829833984375 -25.3023681640625 28.0584716796875
61.845947265625 -18.5877685546875 21.304443359375
55.99755859375 40.1748046875 -7.8365478515625
98.3583984375 -23.4927978515625 0.3599853515625
59.748779296875 -5.559326171875 5.9761962890625
-42.763916015625 -16.3447265625 17.9344482421875
96.543212890625 -10.472900390625 -1.7508544921875
102.821044921875 -14.423583984375 -8.7506103515625
-76.120361328125 -38.1759033203125 9.828125
55.015869140625 33.9373779296875 -7.6376953125
45.47265625 28.4464111328125 -7.7904052734375
97.5869140625 -17.4027099609375 -0.855712890625
51.911376953125 -20.9398193359375 21.7994384765625
67.7021484375 -11.7083740234375 13.56298828125
78.160400390625 -29.0040283203125 3.7071533203125
-22.53271484375 19.6033935546875 1.56494140625
37.54541015625 -16.2420654296875 18.6588134765625
20.8203125 -43.98779296875 34.0970458984375
-42.274169921875 -13.4329833984375 8.408203125
98.197998046875 -18.7684326171875 2.880615234375
-6.42578125 -26.1324462890625 25.6737060546875
-11.156005859375 -17.5191650390625 16.2091064453125
-85.1171875 -29.9412841796875 15.0704345703125
-27.56298828125 12.061279296875 1.5423583984375
13.397705078125 -11.8553466796875 12.0743408203125
36.72998046875 -6.027587890625 7.292236328125
-19.556884765625 -11.9595947265625 10.300048828125
-49.0654296875 -26.6121826171875 32.01904296875
67.069091796875 39.478515625 -20.5948486328125
-45.843994140625 -3.073974609375 11.6502685546875
19.57470703125 -23.1533203125 26.819091796875
65.23388671875 -36.7864990234375 6.77783203125
-70.214599609375 -25.377685546875 27.259521484375
38.10791015625 -10.2630615234375 12.076904296875
-11.73583984375 -2.01513671875 4.0260009765625
84.228271484375 -45.51611328125 11.3878173828125
-83.438232421875 -45.8822021484375 21.2291259765625
47.0009765625 18.1497802734375 -7.3819580078125
61.169677734375 -32.62353515625 13.59423828125
33.4921875 -18.3070068359375 21.042236328125
-30.545166015625 -7.7169189453125 9.7059326171875
-9.61279296875 16.869140625 3.1041259765625
73.767333984375 -35.7791748046875 5.7518310546875
59.80029296875 -20.2734375 21.364501953125
-60.62353515625 -17.5380859375 21.003662109375
42.865234375 -17.682861328125 20.9097900390625
7.33935546875 -13.731689453125 6.4007568359375
23.9716796875 -8.3134765625 10.37353515625
-35.77490234375 -22.3563232421875 25.6165771484375
68.197265625 -9.1021728515625 2.0521240234375
-77.273681640625 -48.0579833984375 19.9508056640625
61.20361328125 -34.866455078125 16.061279296875
47.54833984375 13.7952880859375 -1.09326171875
-21.333251953125 -21.83984375 20.7396240234375
-21.471923828125 -27.387451171875 28.140380859375
83.422119140625 -42.2724609375 7.90234375
-22.213623046875 -17.6741943359375 17.8868408203125
31.163818359375 18.140625 -7.1885986328125
-77.7001953125 -49.5833740234375 25.40478515625
-17.0341796875 25.1700439453125 0.748779296875
97.69482421875 -25.2349853515625 1.66259765625
-5.917724609375 -22.3319091796875 22.90576171875
0.39599609375 -9.527099609375 11.4791259765625
-22.571044921875 -29.8883056640625 29.7593994140625
-8.570556640625 -25.6339111328125 25.1273193359375
81.794921875 -35.62841796875 5.3912353515625
2.870361328125 -14.553955078125 15.346923828125
-1.656005859375 -3.3692626953125 4.9310302734375
53.302490234375 45.4876708984375 -8.332275390625
52.191650390625 -2.92919921875 2.0023193359375
-16.880859375 -6.7564697265625 8.2626953125
43.2294921875 -14.6527099609375 17.3345947265625
60.463134765625 -25.73876953125 13.8642578125
50.93359375 -25.6436767578125 21.190673828125
-89.260009765625 -39.209228515625 10.993896484375
84.752685546875 -34.05419921875 6.5843505859375
41.459716796875 -4.435546875 4.594482421875
60.1767578125 -23.6077880859375 14.9248046875
81.2685546875 -33.1298828125 8.28466796875
98.092041015625 -5.3016357421875 4.519775390625
41.955810546875 -7.375244140625 9.4288330078125
43.368408203125 40.8533935546875 -6.8955078125
-80.9609375 -32.5191650390625 17.37255859375
48.32568359375 -1.6414794921875 -0.947509765625
-26.96044921875 -28.9898681640625 32.0799560546875
-77.310546875 -49.4490966796875 23.1427001953125
96.742919921875 -28.2784423828125 18.840576171875
-1.967529296875 -22.0164794921875 22.3756103515625
-86.52294921875 -34.718505859375 19.198486328125
98.885498046875 -16.2633056640625 10.301025390625
-38.666015625 -19.9151611328125 10.735595703125
98.479736328125 -10.9603271484375 3.04052734375
57.259521484375 36.435791015625 -8.0615234375
-15.976318359375 -12.87255859375 12.91015625
97.24365234375 -15.2750244140625 2.92529296875
-46.345458984375 -21.625244140625 24.8948974609375
-59.414306640625 -21.6265869140625 24.0347900390625
-27.888671875 15.2366943359375 1.6669921875
-40.153564453125 -19.7088623046875 21.83349609375
72.689697265625 -8.32568359375 -4.0125732421875
80.39892578125 -30.8978271484375 6.97265625
97.542236328125 -5.7603759765625 -5.5042724609375
-25.76123046875 -20.0653076171875 19.9947509765625
6.8837890625 -9.6407470703125 8.8116455078125
-1.14013671875 11.1014404296875 -0.494384765625
68.24365234375 13.7967529296875 -13.2020263671875
31.28271484375 -22.16259765625 24.9610595703125
39.021728515625 44.8271484375 -7.746337890625
38.9599609375 38.2587890625 -7.6427001953125
46.449951171875 47.4678955078125 -7.6124267578125
83.769287109375 -30.2486572265625 10.2852783203125
-32.76318359375 -5.2789306640625 9.624755859375
-14.609375 -42.89208984375 34.1649169921875
96.222412109375 -27.3809814453125 2.6011962890625
-36.03857421875 -27.8297119140625 31.1234130859375
-2.870361328125 -11.5308837890625 14.1390380859375
99.12890625 -20.8465576171875 21.2177734375
3.4697265625 -1.8165283203125 4.9307861328125
-23.100341796875 -4.2442626953125 5.6851806640625
44.514404296875 -24.267578125 25.46826171875
32.751953125 -3.0677490234375 2.298583984375
101.384765625 -16.1470947265625 -5.011962890625
76.8525390625 8.1669921875 -20.7049560546875
60.913330078125 -33.372314453125 22.6993408203125
7.640380859375 -38.988525390625 30.27783203125
40.71533203125 32.5206298828125 -7.7510986328125
2.07763671875 -11.2071533203125 12.0513916015625
4.18994140625 -13.6995849609375 10.0072021484375
82.83837890625 31.687744140625 -30.31591796875
68.912353515625 -28.9132080078125 10.506103515625
-34.870361328125 -26.1785888671875 29.6683349609375
-2.347412109375 -48.3031005859375 38.0472412109375
27.785400390625 -20.3245849609375 23.1259765625
76.0205078125 -32.9453125 8.1964111328125
55.298828125 -5.91015625 6.87744140625
99.90478515625 -3.221923828125 -5.9398193359375
-77.3544921875 -45.683837890625 19.64990234375
34.865478515625 -2.6861572265625 1.7835693359375
27.515625 -13.8712158203125 16.5908203125
55.3125 -26.220458984375 21.7156982421875
77.940673828125 -46.937255859375 10.6456298828125
61.068115234375 -29.08203125 10.227783203125
-82.796142578125 -31.173583984375 14.710693359375
-35.129638671875 8.824951171875 14.4000244140625
34.813232421875 24.6763916015625 -7.687255859375
70.935302734375 -9.166259765625 8.349609375
44.21533203125 -5.7313232421875 6.67138671875
16.8076171875 -9.8492431640625 12.1383056640625
-48.715087890625 -5.0072021484375 15.017333984375
61.04345703125 -33.731689453125 20.5196533203125
50.375732421875 -15.6729736328125 17.5755615234375
-17.337646484375 2.4432373046875 1.80224609375
75.232177734375 -21.5531005859375 -0.7095947265625
61.61865234375 -34.8365478515625 26.2559814453125
70.539306640625 -21.969482421875 5.125244140625
-78.031494140625 -29.4639892578125 16.210693359375
-49.97265625 -12.5333251953125 14.4266357421875
-42.458984375 -21.732177734375 24.6640625
77.550537109375 15.089599609375 -24.0849609375
97.1689453125 -22.5072021484375 17.7647705078125
-46.59765625 -1.4627685546875 13.776611328125
10.630126953125 -6.0074462890625 8.6593017578125
-42.15185546875 -27.6409912109375 31.539794921875
68.497802734375 43.500244140625 -22.203369140625
-29.876220703125 8.40380859375 15.1395263671875
101.08154296875 -27.6685791015625 7.779296875
29.42431640625 -15.1988525390625 18.21875
-9.318115234375 -16.334228515625 16.15234375
-55.85302734375 -16.431396484375 18.9730224609375
69.541259765625 -17.8924560546875 20.42333984375
99.384521484375 -14.0972900390625 12.400634765625
68.297607421875 -22.87060546875 10.1744384765625
32.27294921875 6.297607421875 -6.5772705078125
23.368896484375 -23.2574462890625 26.6241455078125
11.30419921875 -7.6685791015625 9.9093017578125
51.03466796875 -17.4429931640625 20.2908935546875
99.62158203125 -10.5062255859375 -8.9078369140625
-12.2275390625 -43.419921875 34.2615966796875
6.747802734375 -18.0220947265625 19.1156005859375
72.722412109375 -44.468017578125 8.9976806640625
59.273681640625 -24.4842529296875 16.7034912109375
24.150146484375 -15.0693359375 17.5313720703125
0.237548828125 19.1217041015625 -1.591552734375
96.7587890625 -29.896240234375 13.6678466796875
76.768798828125 31.0701904296875 -25.608642578125
61.26123046875 -8.565673828125 9.904296875
78.4951171875 30.465087890625 -29.369140625
14.80126953125 -41.0584716796875 31.958251953125
9.113525390625 -15.841796875 7.9583740234375
64.869384765625 -25.45166015625 14.346435546875
-27.87060546875 -15.8841552734375 16.4298095703125
33.94580078125 -20.052978515625 22.697265625
-85.1572265625 -43.31103515625 18.778564453125
-34.60888671875 14.420166015625 13.4232177734375
-32.221923828125 -29.2421875 32.565185546875
-8.78515625 -39.654052734375 31.62890625
-89.672607421875 -31.5006103515625 19.47412109375
-51.9833984375 -23.5106201171875 26.1824951171875
-49.615234375 12.889892578125 14.2904052734375
55.29345703125 -13.18896484375 15.697509765625
-39.99658203125 -27.705810546875 31.3411865234375
6.901123046875 -16.6383056640625 9.91650390625
6.143310546875 -18.681884765625 10.3114013671875
95.672119140625 -20.7996826171875 -1.2081298828125
-41.767578125 10.0428466796875 13.38623046875
96.241943359375 -13.442138671875 -7.029052734375
1.489013671875 -19.9984130859375 20.8330078125
-10.670654296875 22.408935546875 0.923583984375
6.81005859375 -35.46337890625 27.7239990234375
97.542236328125 -13.929443359375 -3.150146484375
-85.630615234375 -44.9752197265625 20.8917236328125
42.0439453125 29.2374267578125 -7.8486328125
-18.120361328125 16.816162109375 1.537841796875
52.129638671875 -9.6812744140625 11.42529296875
64.947998046875 -14.26513671875 16.4693603515625
-45.9501953125 -7.4310302734375 9.6663818359375
-39.330810546875 -24.3453369140625 27.72509765625
68.265625 -5.294189453125 -2.4210205078125
-14.322998046875 19.9949951171875 0.9422607421875
51.537841796875 -12.67236328125 14.537353515625
-79.55126953125 -42.755859375 18.193603515625
73.972412109375 -13.4508056640625 -0.5504150390625
31.45068359375 -43.5537109375 33.6243896484375
41.7998046875 15.685546875 -7.058837890625
24.88623046875 -43.265625 33.4166259765625
107.9912109375 -26.4832763671875 4.7657470703125
-23.310546875 12.8544921875 2.0220947265625
47.04150390625 -17.7769775390625 20.3651123046875
97.72119140625 -19.4993896484375 -4.87451171875
75.49365234375 11.524658203125 -19.19970703125
-38.45751953125 9.6361083984375 13.888427734375
-76.048095703125 -31.6513671875 10.7899169921875
61.68994140625 -6.4376220703125 8.1795654296875
29.985595703125 -20.390625 23.5291748046875
59.53173828125 -24.218994140625 23.4691162109375
-65.20556640625 -23.096923828125 25.75146484375
-6.083984375 -28.6680908203125 26.4228515625
-7.5498046875 -19.715087890625 18.7786865234375
-85.878173828125 -48.6629638671875 23.7110595703125
68.029541015625 28.2049560546875 -16.0714111328125
32.237060546875 -16.5438232421875 18.8697509765625
53.01708984375 -2.1192626953125 -0.568603515625
77.1220703125 39.633056640625 -26.73876953125
-89.5693359375 -37.9444580078125 9.037353515625
48.498046875 13.194091796875 -7.1893310546875
99.1591796875 -4.0478515625 -1.966796875
-45.39892578125 12.04443359375 13.0374755859375
-74.549072265625 -27.216796875 15.40869140625
63.010498046875 -39.5958251953125 14.2791748046875
38.169677734375 28.7926025390625 -7.8375244140625
-34.7001953125 -24.49560546875 28.0179443359375
21.280029296875 -10.3546142578125 12.4281005859375
1.2763671875 -44.45703125 34.74951171875
-41.9697265625 13.648193359375 13.77099609375
-18.2548828125 -21.5538330078125 22.3221435546875
-81.27734375 -45.5379638671875 20.32080078125
-39.67822265625 -3.1822509765625 7.9814453125
56.143310546875 -0.9215087890625 -2.65380859375
-76.082275390625 -27.8831787109375 13.687255859375
53.173828125 31.812255859375 -8.1165771484375
83.157958984375 18.3687744140625 -24.78759765625
76.646728515625 -7.968505859375 -12.104736328125
44.5 21.8504638671875 -7.5865478515625
-23.684814453125 -24.34912109375 25.3651123046875
75.201904296875 29.7860107421875 -18.7335205078125
39.870361328125 1.734375 -5.08935546875
12.275146484375 -9.341552734375 10.845947265625
15.197998046875 -6.083740234375 9.2000732421875
23.39501953125 -18.90576171875 21.4031982421875
50.802001953125 33.0345458984375 -8.0172119140625
6.157958984375 -28.563232421875 23.62939453125
75.744873046875 -5.84521484375 -6.2689208984375
58.8681640625 -23.21826171875 18.4093017578125
79.23876953125 2.3802490234375 -18.6495361328125
69.025390625 1.3795166015625 -8.108642578125
47.004150390625 36.7120361328125 -7.938720703125
69.07666015625 -9.1094970703125 -1.865234375
-53.16455078125 -25.563720703125 28.6212158203125
74.591552734375 -18.5574951171875 -0.98193359375
61.797607421875 -21.5338134765625 16.5714111328125
5.386962890625 -17.11572265625 16.59326171875
41.548583984375 -13.3194580078125 15.3671875
-47.720703125 5.7794189453125 17.8245849609375
57.447998046875 7.333740234375 -7.6529541015625
-7.336181640625 -15.5643310546875 16.3765869140625
-56.70849609375 -30.491455078125 33.9493408203125
42.795654296875 7.0386962890625 -6.75830078125
-17.672119140625 -25.8023681640625 26.43212890625
-23.62890625 -31.6068115234375 32.410400390625
7.0166015625 -45.609619140625 35.64501953125
67.67333984375 20.7943115234375 -14.93701171875
-17.531005859375 -15.726806640625 16.245361328125
-1.966552734375 -28.7677001953125 25.2933349609375
76.70458984375 35.0394287109375 -27.856201171875
-40.21484375 -18.270751953125 10.183837890625
75.069580078125 -17.6766357421875 -3.9810791015625
-39.072509765625 -13.0921630859375 6.8326416015625
-11.418701171875 -6.04296875 8.2427978515625
100.67138671875 -24.947509765625 4.2471923828125
-81.17626953125 -34.5347900390625 19.0556640625
96.02294921875 -19.488525390625 -2.9093017578125
70.7822265625 -37.687255859375 2.9500732421875
68.076171875 -10.8052978515625 3.4234619140625
-11.814453125 -28.500732421875 27.10546875
65.27001953125 -32.94775390625 6.71728515625
-15.5283203125 -28.4083251953125 28.044677734375
81.067626953125 -43.0218505859375 7.540283203125
44.224609375 2.0999755859375 -5.142333984375
-22.145751953125 22.7789306640625 1.339599609375
13.646240234375 1.0235595703125 14.6300048828125
31.589111328125 3.03955078125 -6.0341796875
-87.810791015625 -31.0687255859375 16.711669921875
79.93994140625 37.793212890625 -30.3311767578125
-34.022216796875 7.23779296875 15.8585205078125
-2.824951171875 -24.9581298828125 24.4256591796875
-47.29345703125 -19.1072998046875 21.674072265625
-5.1220703125 -19.3878173828125 19.84912109375
85.296630859375 -40.1673583984375 7.5328369140625
33.49609375 36.52294921875 -7.856201171875
-83.860107421875 -33.771240234375 13.1214599609375
64.879150390625 -30.050048828125 9.8641357421875
97.040283203125 -7.0350341796875 -2.601806640625
31.944580078125 -12.2655029296875 14.9434814453125
-69.269775390625 -26.648681640625 28.6025390625
-43.688720703125 -14.635986328125 12.01025390625
87.8427734375 -29.112548828125 11.5628662109375
0.4697265625 -25.033935546875 23.520751953125
0.8857421875 -36.9857177734375 29.1976318359375
74.12060546875 -29.4906005859375 9.849365234375
59.035888671875 -21.964599609375 20.2232666015625
70.2470703125 17.43359375 -16.1632080078125
50.31298828125 -30.4683837890625 24.4090576171875
47.546630859375 -13.02197265625 15.3828125
-0.2265625 -5.826171875 7.63916015625
-2.340576171875 -16.1181640625 17.9227294921875
57.656005859375 -25.93212890625 24.6025390625
-38.1181640625 -17.9241943359375 9.9586181640625
60.09375 -27.972900390625 17.2894287109375
45.70654296875 44.2955322265625 -5.6409912109375
30.239013671875 -4.6689453125 7.7884521484375
78.4384765625 -43.342041015625 7.5042724609375
49.197265625 38.832275390625 -7.6436767578125
-84.967041015625 -40.048828125 15.87548828125
5.306884765625 -49.9964599609375 38.9598388671875
11.12548828125 -14.237060546875 7.2977294921875
-32.415771484375 -8.884521484375 10.473876953125
12.85009765625 -36.13525390625 28.2388916015625
-3.093994140625 18.367431640625 -0.113037109375
29.078125 -40.7445068359375 31.14111328125
67.821044921875 42.9080810546875 -18.9239501953125
-87.1904296875 -45.3778076171875 22.28515625
99.626708984375 -4.102294921875 -10.47216796875
-9.21875 16.9544677734375 5.5687255859375
-19.67626953125 -15.6656494140625 15.6024169921875
-31.9775390625 -12.9453125 15.2454833984375
64.338623046875 -43.8309326171875 20.3619384765625
81.652099609375 -41.25146484375 6.093017578125
-33.886474609375 -1.254150390625 11.765625
-7.9580078125 -18.436767578125 17.0592041015625
77.813720703125 -36.3529052734375 5.652587890625
40.674072265625 37.0311279296875 -7.95361328125
-18.394287109375 4.4580078125 2.298583984375
67.8408203125 -14.7667236328125 16.9710693359375
37.834716796875 -21.918212890625 25.1201171875
27.728271484375 -23.8076171875 26.5377197265625
72.216796875 10.03662109375 -13.162841796875
3.546630859375 -11.636962890625 10.4722900390625
66.757080078125 44.775146484375 -21.190673828125
78.5419921875 24.0223388671875 -27.08984375
74.736083984375 -12.1513671875 -6.79345703125
8.94140625 -35.1004638671875 27.2196044921875
20.74658203125 -20.571044921875 23.637939453125
70.1767578125 -47.152099609375 12.933349609375
34.115234375 45.94189453125 -7.9234619140625
36.966796875 27.1639404296875 -7.400634765625
-64.16650390625 -20.266845703125 22.9354248046875
37.316162109375 -3.543701171875 3.4139404296875
-39.519775390625 -15.047607421875 5.955322265625
-62.546142578125 -30.677001953125 33.6192626953125
-0.431396484375 2.250732421875 1.0848388671875
-43.6044921875 0.0802001953125 12.6134033203125
96.748046875 -8.320556640625 -5.085693359375
34.91015625 4.2354736328125 -6.1353759765625
-86.3720703125 -35.772705078125 8.7882080078125
73.86962890625 -45.8592529296875 9.96533203125
105.988037109375 -26.483642578125 7.12451171875
-81.958984375 -43.0499267578125 18.4456787109375
79.959228515625 39.8380126953125 -30.3634033203125
79.649658203125 45.978759765625 -30.2799072265625
-39.612060546875 6.8682861328125 15.30615234375
-47.68701171875 2.993408203125 18.9857177734375
74.435546875 -25.9058837890625 4.18994140625
48.2060546875 -20.836181640625 21.5279541015625
97.707275390625 -7.468017578125 8.427978515625
80.61181640625 29.6766357421875 -29.2003173828125
64.883544921875 -12.953369140625 14.7703857421875
15.557373046875 -13.1748046875 15.0914306640625
-10.897705078125 -8.4891357421875 10.19921875
-10.672119140625 -51.03173828125 40.5050048828125
20.014892578125 -36.5079345703125 30.653076171875
97.317626953125 -18.35791015625 6.0142822265625
-82.33935546875 -35.2625732421875 10.7197265625
-16.156982421875 13.6046142578125 1.09814453125
57.78759765625 1.1270751953125 -4.7337646484375
58.431396484375 -10.66064453125 12.6263427734375
20.1640625 -7.4119873046875 9.5819091796875
68.692626953125 -42.62255859375 9.8236083984375
62.053955078125 -34.2784423828125 11.1109619140625
-23.861083984375 -9.8515625 9.7359619140625
16.832275390625 -42.049560546875 33.025390625
-58.869384765625 -25.3807373046875 28.587158203125
-49.458740234375 -0.1728515625 21.041259765625
71.756591796875 -34.88037109375 6.54150390625
-42.395263671875 -17.1883544921875 19.744384765625
42.907470703125 9.9254150390625 -6.671875
-1.800048828125 -8.6627197265625 10.8314208984375
-36.77197265625 -29.086669921875 32.5361328125
78.82470703125 -5.4962158203125 -14.09619140625
-0.622802734375 -14.9139404296875 17.5902099609375
44.983154296875 46.377197265625 -5.30908203125
64.652587890625 -10.3489990234375 12.01318359375
-36.568115234375 1.1893310546875 12.563720703125
-2.671875 24.800537109375 -0.3919677734375
59.25048828125 -27.771484375 26.3643798828125
77.308837890625 28.3125 -23.41943359375
32.052001953125 8.74365234375 -7.0084228515625
96.947021484375 -21.099853515625 13.6754150390625
74.3779296875 31.3685302734375 -19.9234619140625
73.754150390625 -36.9713134765625 3.527587890625
-50.426025390625 -15.346923828125 17.43212890625
-24.540283203125 -12.6749267578125 12.08935546875
-41.24072265625 -11.478759765625 8.6805419921875
-59.06591796875 -15.9781494140625 20.54541015625
-3.709716796875 -4.5506591796875 6.2891845703125
95.759033203125 -16.4005126953125 -8.9935302734375
-26.80322265625 17.19921875 1.112060546875
101.41064453125 -38.2015380859375 18.8743896484375
-48.79052734375 -5.4024658203125 22.7529296875
45.131103515625 -15.9954833984375 18.84130859375
74.3974609375 3.305908203125 -15.5762939453125
52.031005859375 47.5537109375 -8.081787109375
76.90576171875 37.06103515625 -28.3201904296875
86.357177734375 -36.190185546875 4.4864501953125
99.485595703125 -6.200439453125 2.1083984375
-6.843505859375 3.94091796875 1.8885498046875
-34.1552734375 1.988525390625 14.8233642578125
48.306884765625 15.7900390625 -3.7889404296875
-37.509765625 14.0391845703125 13.8658447265625
-8.092529296875 7.5576171875 1.139892578125
-5.725830078125 -7.362060546875 9.50732421875
-11.617919921875 5.583251953125 1.412109375
8.648193359375 -28.6231689453125 22.94677734375
49.677734375 -11.7760009765625 13.9508056640625
34.841552734375 18.953125 -7.4661865234375
4.205078125 -18.413818359375 21.4349365234375
-80.794189453125 -40.5675048828125 14.908203125
35.231689453125 -11.9039306640625 13.8712158203125
28.476806640625 -37.6220703125 29.1358642578125
98.094970703125 -30.8553466796875 14.8082275390625
67.7822265625 38.7850341796875 -18.85888671875
-81.903564453125 -48.4339599609375 23.17236328125
97.047607421875 -24.880859375 5.8316650390625
64.867431640625 -23.76171875 15.85107421875
47.152587890625 -19.09912109375 22.21533203125
-15.308349609375 6.011474609375 1.2552490234375
-14.9912109375 23.1690673828125 0.4193115234375
97.673095703125 -16.6370849609375 7.1812744140625
-6.167724609375 19.5443115234375 -0.76220703125
55.899658203125 -3.822021484375 2.36181640625
34.23388671875 -15.73193359375 18.064208984375
-42.441650390625 -1.5421142578125 10.445556640625
78.42822265625 -35.205810546875 8.7490234375
55.41357421875 45.9613037109375 -8.14306640625
-16.7099609375 -40.6336669921875 32.6641845703125
81.26611328125 -44.85107421875 9.3724365234375
77.54052734375 44.960693359375 -27.003662109375
-44.608154296875 -3.49658203125 9.603515625
-64.530029296875 -25.6005859375 28.5595703125
98.916015625 -15.3643798828125 8.1180419921875
-27.0009765625 0.1888427734375 3.97509765625
-25.197021484375 2.1468505859375 3.0675048828125
-48.519287109375 -3.01513671875 16.358642578125
-34.17822265625 -12.05615234375 11.5379638671875
-3.982421875 -45.547607421875 35.6907958984375
-37.044921875 -11.1756591796875 9.1947021484375
-54.760498046875 -30.1304931640625 33.3272705078125
-27.73876953125 -10.584716796875 10.9876708984375
-18.895751953125 -34.21142578125 30.8226318359375
48.337158203125 -8.333984375 10.138916015625
-75.215576171875 -30.6019287109375 12.8287353515625
70.962646484375 -1.992431640625 -7.404296875
-67.015380859375 -19.37646484375 22.226318359375
15.145751953125 -34.902587890625 27.0980224609375
98.1513671875 -13.646484375 14.3900146484375
39.83740234375 -6.0784912109375 7.5625
2.948974609375 -45.40625 35.2298583984375
-52.496826171875 -28.9539794921875 32.3721923828125
-0.668212890625 -12.406005859375 14.7977294921875
-23.794189453125 -14.7415771484375 14.583251953125
31.168701171875 -41.743408203125 32.2152099609375
94.578369140625 -28.1695556640625 17.3013916015625
30.733642578125 -45.80908203125 35.919921875
71.158203125 15.7955322265625 -15.537109375
73.5517578125 -49.058349609375 13.3983154296875
68.88134765625 -33.158203125 9.0606689453125
49.052490234375 -29.49755859375 22.34716796875
-32.79833984375 -16.1092529296875 12.7100830078125
2.01611328125 -28.463623046875 24.764892578125
-78.231689453125 -33.6798095703125 14.80712890625
98.32666015625 -2.2794189453125 1.8643798828125
72.638427734375 -32.8671875 9.2879638671875
-76.473876953125 -45.5323486328125 16.5579833984375
-26.087890625 10.896728515625 2.761474609375
-31.9326171875 4.8267822265625 17.5238037109375
73.857177734375 -26.3931884765625 7.1070556640625
103.85546875 -36.4962158203125 18.4638671875
97.0556640625 -16.1114501953125 0.5350341796875
33.202392578125 -22.23193359375 25.70458984375
67.827392578125 18.343994140625 -13.93017578125
-78.489013671875 -38.6422119140625 13.2935791015625
69.883056640625 -7.43017578125 10.5465087890625
97.21875 -12.6427001953125 -1.48876953125
62.315185546875 -32.45068359375 7.605224609375
81.901611328125 27.6949462890625 -28.0909423828125
-57.499755859375 -21.2672119140625 23.4180908203125
75.88623046875 3.2578125 -17.7186279296875
47.68310546875 41.4393310546875 -5.528076171875
99.752685546875 -3.689453125 -12.39306640625
15.602783203125 -33.1865234375 26.1204833984375
93.8623046875 -26.355224609375 16.2401123046875
-27.186767578125 -4.9744873046875 7.3729248046875
97.498046875 -13.09765625 1.0491943359375
57.865234375 -3.8511962890625 2.3052978515625
58.44775390625 15.2294921875 -7.87841796875
14.01611328125 -39.251708984375 30.46728515625
61.24609375 -36.260009765625 18.531982421875
-7.57861328125 -20.575927734375 20.5440673828125
64.31591796875 -8.192138671875 9.897216796875
79.591552734375 -1.763916015625 -16.6522216796875
90.749755859375 -31.3310546875 9.771728515625
5.1435546875 -34.539794921875 27.2611083984375
-38.2646484375 -20.1710205078125 22.0836181640625
31.667724609375 -3.8741455078125 3.7186279296875
48.541748046875 8.648681640625 -6.9854736328125
71.517822265625 -48.5357666015625 13.4346923828125
52.635986328125 23.5240478515625 -7.9356689453125
100.052001953125 -34.52685546875 16.88427734375
60.390380859375 -25.9791259765625 23.260498046875
7.8818359375 -32.033203125 25.1646728515625
-52.9775390625 -18.53271484375 20.676513671875
98.81640625 -15.861328125 13.8892822265625
71.837890625 -25.92431640625 7.9049072265625
-3.114013671875 -13.182861328125 15.4873046875
-11.439453125 -21.3287353515625 22.0989990234375
-89.232666015625 -33.615478515625 23.000732421875
62.276123046875 -16.8370361328125 19.5340576171875
72.385009765625 17.4417724609375 -15.9815673828125
22.88916015625 -13.7645263671875 16.1492919921875
49.51611328125 1.62744140625 -5.2816162109375
96.690673828125 -23.27197265625 12.63916015625
-27.960205078125 -22.9544677734375 24.0057373046875
77.468505859375 -41.9051513671875 5.3184814453125
53.438720703125 -12.2828369140625 14.3468017578125
72.5556640625 25.2037353515625 -18.78515625
17.806640625 -16.19140625 18.3116455078125
23.4111328125 -44.5423583984375 34.3447265625
68.76904296875 -1.4957275390625 -1.7989501953125
24.762939453125 -40.58056640625 31.368896484375
42.359130859375 35.8458251953125 -7.55810546875
45.3759765625 -2.8367919921875 1.404052734375
-7.35205078125 -2.0789794921875 3.698486328125
98.58642578125 -21.2103271484375 17.455322265625
78.6337890625 -39.7108154296875 3.21875
39.37744140625 -9.0174560546875 10.8946533203125
75.376220703125 -37.8614501953125 2.9276123046875
103.868896484375 -21.9268798828125 1.288818359375
15.938720703125 -38.007568359375 29.509521484375
32.209228515625 -19.146484375 22.238037109375
-4.83642578125 -46.8458251953125 36.858154296875
69.23486328125 -12.608642578125 14.34619140625
27.712646484375 -43.3724365234375 33.1689453125
-19.97119140625 14.8218994140625 1.494140625
-26.302978515625 5.34521484375 3.413330078125
96.158203125 -26.7742919921875 12.7423095703125
67.1923828125 -21.26806640625 17.746337890625
-40.38330078125 -4.7530517578125 10.2772216796875
77.428466796875 42.53857421875 -26.405029296875
71.885986328125 23.1544189453125 -18.2586669921875
-27.01123046875 -18.7947998046875 19.238525390625
74.987060546875 6.98779296875 -18.3740234375
-36.872314453125 3.6231689453125 14.65478515625
79.800048828125 -47.518798828125 11.848876953125
65.103515625 -16.020751953125 18.328857421875
-49.6904296875 6.20458984375 18.296875
-20.451904296875 -24.011474609375 24.466796875
33.09130859375 23.8641357421875 -7.345703125
48.118896484375 -10.8875732421875 13.037841796875
76.733154296875 26.62060546875 -24.15869140625
100.582763671875 -2.74755859375 1.3387451171875
33.118896484375 18.14501953125 -7.1246337890625
-46.735107421875 -17.0794677734375 19.892333984375
21.60546875 -36.6141357421875 31.746337890625
68.546142578125 -24.6798095703125 13.6739501953125
-10.283447265625 -43.5113525390625 34.3919677734375
49.3984375 -4.556640625 4.656005859375
40.155517578125 30.04541015625 -7.793701171875
-86.9765625 -36.1993408203125 18.048828125
35.826904296875 -19.671630859375 22.5155029296875
2.796630859375 -34.4556884765625 27.326904296875
-25.493408203125 22.348388671875 0.8931884765625
79.745361328125 -10.543701171875 -11.260498046875
-46.673583984375 -24.947998046875 28.2847900390625
-85.734375 -38.3575439453125 13.7882080078125
-28.0849609375 -17.1177978515625 17.8917236328125
4.16552734375 -33.203857421875 26.27978515625
-38.168701171875 -0.0032958984375 11.080810546875
95.1396484375 -18.985107421875 -6.2392578125
75.1484375 -42.7239990234375 6.466796875
55.784912109375 8.18603515625 -7.19921875
-83.005615234375 -37.67919921875 13.355712890625
75.040771484375 -44.5469970703125 8.6173095703125
69.729248046875 -17.6483154296875 3.0584716796875
100.51708984375 -13.95556640625 -7.6246337890625
18.97607421875 -17.07763671875 19.5511474609375
-60.04541015625 -26.9996337890625 30.0133056640625
55.01708984375 -18.4140625 21.00927734375
-15.187744140625 -10.84228515625 10.8175048828125
-11.13916015625 -37.4183349609375 30.6075439453125
55.429931640625 -7.183837890625 8.66796875
67.885986328125 -25.0302734375 11.15576171875
74.599609375 -29.411865234375 6.776123046875
82.78271484375 44.830810546875 -30.0916748046875
-37.34619140625 -3.614013671875 8.289306640625
3.085693359375 -14.53271484375 13.1519775390625
-10.384765625 -23.064208984375 24.2271728515625
28.875 -12.6270751953125 15.546875
35.237060546875 13.220703125 -7.42529296875
-49.34765625 9.7025146484375 14.033203125
-2.2060546875 -6.2001953125 8.275390625
-58.883056640625 -30.4163818359375 34.0028076171875
69.24169921875 26.810302734375 -19.2681884765625
99.37255859375 -4.9346923828125 -6.5999755859375
25.63818359375 -7.509033203125 9.9012451171875
-30.5869140625 -25.8870849609375 29.1171875
-23.751708984375 -23.0137939453125 21.4268798828125
12.948486328125 -1.9061279296875 10.95703125
-72.416748046875 -20.0008544921875 21.5242919921875
56.745361328125 -1.7529296875 -0.9669189453125
-15.126708984375 -39.415771484375 32.0517578125
70.607177734375 -33.255859375 10.1004638671875
16.302978515625 -44.6893310546875 34.8154296875
74.98583984375 6.21533203125 -15.543701171875
62.017333984375 -12.0289306640625 14.2703857421875
39.587158203125 -1.1171875 -1.6051025390625
52.104736328125 -14.8489990234375 17.093505859375
25.041259765625 -22.4212646484375 25.2373046875
37.27685546875 21.007568359375 -7.484375
-36.10595703125 -7.214111328125 9.1751708984375
-0.17431640625 13.9197998046875 -0.5023193359375
