78.29150390625 40.0889892578125 -20.1212158203125
3.6943359375 2.882568359375 9.552978515625
7.3662109375 -44.2767333984375 34.5345458984375
-3.91064453125 -31.9951171875 29.8519287109375
57.0068359375 6.094482421875 1.887451171875
74.270263671875 -12.9005126953125 4.286865234375
-85.34228515625 -57.6015625 32.4053955078125
43.838134765625 30.6368408203125 0.8599853515625
55.781494140625 -24.88427734375 22.55908203125
-24.392333984375 -32.2841796875 31.3519287109375
77.69970703125 31.2039794921875 -14.6729736328125
28.88134765625 -29.31005859375 28.27490234375
99.986328125 -41.7122802734375 15.9022216796875
7.2744140625 -17.2208251953125 16.694580078125
81.920166015625 -6.9891357421875 -4.841064453125
76.384033203125 8.496337890625 -13.348876953125
53.94091796875 -1.64697265625 1.4697265625
2.52587890625 -15.037353515625 14.1038818359375
37.837890625 -16.6549072265625 12.5701904296875
105.173095703125 -32.665283203125 5.7730712890625
43.722900390625 18.488037109375 1.3243408203125
70.105712890625 -27.6231689453125 24.802001953125
0.900390625 -3.8243408203125 9.9256591796875
-31.930908203125 -22.560791015625 21.4598388671875
57.2470703125 -44.318115234375 30.9539794921875
87.970947265625 32.579833984375 -18.4755859375
100.46826171875 -28.730224609375 13.8546142578125
-78.21142578125 -46.16845703125 19.855712890625
73.3271484375 -13.3154296875 0.317626953125
20.385986328125 -28.5157470703125 27.9281005859375
50.280029296875 12.337646484375 1.885986328125
-18.449951171875 -29.2430419921875 27.714111328125
58.380859375 -23.274658203125 20.346435546875
-48.32177734375 -30.357177734375 31.748291015625
-2.7783203125 4.6239013671875 10.22412109375
-75.19970703125 -49.490966796875 21.2991943359375
38.976318359375 32.6981201171875 1.4722900390625
80.815673828125 -34.58251953125 7.8511962890625
41.668701171875 27.4305419921875 1.4195556640625
38.999755859375 10.0247802734375 1.271484375
9.9453125 -18.9482421875 18.8802490234375
1.192626953125 -1.0513916015625 9.4757080078125
-33.26416015625 -9.0478515625 24.015380859375
-37.566162109375 -24.2265625 16.66650390625
-85.711181640625 -54.21044921875 28.21240234375
34.88037109375 19.0294189453125 2.5826416015625
-26.757568359375 -19.576416015625 19.19921875
78.3662109375 42.509033203125 -20.138671875
-11.73388671875 9.1405029296875 10.2646484375
45.86865234375 4.6927490234375 3.0189208984375
15.2314453125 -50.338134765625 38.403564453125
-2.791259765625 9.353271484375 9.13671875
38.0126953125 -21.650634765625 19.8123779296875
62.48583984375 -21.72998046875 18.8402099609375
71.39111328125 -35.6845703125 19.0347900390625
-7.595947265625 14.642578125 10.794921875
-11.150390625 -47.1475830078125 38.9163818359375
-20.263671875 -26.6640625 23.34619140625
101.094482421875 -14.5306396484375 11.9444580078125
-14.12451171875 -36.128662109375 34.44921875
-3.1455078125 6.9893798828125 9.4571533203125
21.48193359375 -48.123046875 37.271484375
66.9892578125 -37.7342529296875 23.8465576171875
34.32080078125 -19.427978515625 17.81005859375
-22.13134765625 -28.25146484375 26.74951171875
100.5712890625 -29.812744140625 -0.0511474609375
-39.174560546875 -29.5386962890625 29.5791015625
62.657958984375 -35.8665771484375 25.6705322265625
67.3095703125 -27.94189453125 25.267333984375
-20.545166015625 -33.6475830078125 30.072265625
99.31201171875 -40.083984375 20.5
39.101318359375 -18.7698974609375 16.81298828125
-3.4189453125 -28.6739501953125 26.3831787109375
-26.660400390625 -33.4130859375 32.3179931640625
79.920654296875 -31.999755859375 7.2308349609375
33.31494140625 -15.6773681640625 13.8172607421875
-27.072509765625 4.3885498046875 12.874755859375
76.506591796875 -9.730224609375 -4.4171142578125
78.995361328125 -39.2740478515625 12.58154296875
84.39111328125 -37.728515625 8.5867919921875
-9.67041015625 -6.6939697265625 11.662353515625
84.1787109375 -31.307861328125 5.2730712890625
-28.685302734375 -17.9102783203125 17.1444091796875
46.65869140625 -2.697021484375 1.70654296875
78.61376953125 4.44189453125 -11.599365234375
85.72216796875 9.621826171875 -12.552490234375
106.87939453125 -27.9364013671875 -1.558837890625
86.0791015625 42.20166015625 -19.990234375
48.11767578125 -22.456298828125 20.0772705078125
100.32080078125 -19.233642578125 6.4573974609375
86.390625 -40.7720947265625 7.921630859375
80.6259765625 33.9521484375 -21.3486328125
-17.290771484375 13.5653076171875 10.55224609375
-20.868896484375 2.2769775390625 12.102294921875
-42.810791015625 -31.85205078125 33.187744140625
6.932861328125 -50.7198486328125 39.1561279296875
41.567138671875 21.3583984375 1.5888671875
53.9013671875 26.5927734375 1.381103515625
-53.76708984375 -32.54638671875 34.3123779296875
-5.602294921875 -21.6151123046875 21.3038330078125
49.976318359375 -15.0076904296875 9.25732421875
-5.509521484375 -30.2197265625 26.91357421875
78.317138671875 -36.7064208984375 12.944580078125
-45.072265625 -24.437744140625 25.34716796875
98.457763671875 -32.3232421875 3.3863525390625
41.859619140625 -11.0921630859375 3.7142333984375
101.32568359375 -35.0855712890625 26.3837890625
31.03076171875 -28.5570068359375 27.73681640625
99.7041015625 -31.025146484375 24.0841064453125
80.509521484375 -28.6136474609375 4.425537109375
53.21044921875 -36.3795166015625 29.8662109375
-34.15234375 -11.8082275390625 20.747314453125
-5.972900390625 6.74365234375 12.500732421875
-36.97314453125 -14.4705810546875 18.021728515625
-23.2431640625 -12.9775390625 13.6478271484375
56.65234375 -11.12744140625 3.6573486328125
66.39013671875 -50.5322265625 14.9873046875
52.06201171875 -28.592041015625 26.241943359375
48.9267578125 4.6640625 3.876953125
-4.42529296875 -44.528564453125 36.423828125
54.851806640625 -7.392333984375 2.3421630859375
59.990966796875 -26.3375244140625 23.558837890625
-80.370849609375 -54.693115234375 30.07763671875
-18.319580078125 -20.2900390625 18.172119140625
5.732666015625 -26.913330078125 19.412353515625
87.92626953125 26.158935546875 -16.968505859375
-26.239501953125 -21.9949951171875 21.1761474609375
-21.5302734375 -22.966064453125 19.929931640625
6.452880859375 -28.6397705078125 23.1151123046875
-3.256103515625 -8.8721923828125 11.001708984375
72.2529296875 -24.1495361328125 10.4332275390625
-42.363525390625 -24.9066162109375 22.8656005859375
-11.56103515625 -15.3515625 14.483154296875
-32.0341796875 -13.06298828125 20.62890625
73.56640625 -20.8651123046875 18.4339599609375
60.841796875 32.3111572265625 1.039794921875
61.47998046875 -16.6341552734375 10.70068359375
-26.8115234375 -26.4176025390625 25.4986572265625
73.482421875 -20.826904296875 9.841552734375
-37.65283203125 -33.3468017578125 34.69384765625
86.87451171875 -13.345703125 -3.495361328125
2.515380859375 -16.6463623046875 15.754638671875
105.934326171875 -40.1934814453125 13.1094970703125
-47.142578125 -20.4146728515625 25.31103515625
35.337158203125 -30.451171875 29.163818359375
-46.09619140625 -28.4315185546875 29.8358154296875
62.48876953125 -44.920166015625 28.119384765625
-28.243408203125 -22.326904296875 22.5069580078125
80.95068359375 -39.7486572265625 11.039306640625
-74.47509765625 -52.3338623046875 23.1705322265625
24.96728515625 -29.138671875 28.2803955078125
55.106201171875 -39.8399658203125 28.3226318359375
-87.52099609375 -47.1392822265625 34.3564453125
-25.05322265625 -0.3798828125 11.97509765625
101.084228515625 -23.594970703125 16.4600830078125
108.89794921875 -35.4813232421875 9.16943359375
-41.056640625 -10.3900146484375 23.60009765625
-20.84521484375 -29.9561767578125 28.414306640625
99.573974609375 -37.9642333984375 22.136474609375
75.90576171875 -39.206298828125 15.432373046875
5.658935546875 -36.216552734375 31.937255859375
-40.99462890625 -26.97412109375 24.8680419921875
77.296630859375 30.1256103515625 -18.3624267578125
-81.251708984375 -47.214111328125 21.5277099609375
97.86376953125 -18.291748046875 12.782470703125
-32.17578125 -17.0018310546875 18.910888671875
74.747802734375 -48.9290771484375 15.749755859375
74.95703125 9.5196533203125 -8.6826171875
-27.3779296875 -30.4935302734375 29.871826171875
91.88671875 -16.4044189453125 3.7034912109375
107.26513671875 -33.6275634765625 6.4049072265625
72.28759765625 -20.77099609375 6.8330078125
-45.93310546875 -18.466064453125 21.401611328125
-21.248046875 12.056884765625 10.7923583984375
-7.0283203125 4.0697021484375 15.620361328125
-64.89111328125 -30.7232666015625 30.6951904296875
45.380126953125 -5.9158935546875 2.153564453125
52.48876953125 -7.3359375 1.8101806640625
54.501220703125 -4.11376953125 1.68359375
9.38232421875 -39.7197265625 31.966064453125
85.692626953125 -45.363525390625 18.3111572265625
38.3369140625 -2.4996337890625 1.66943359375
-73.192138671875 -36.754638671875 25.84521484375
78.55224609375 1.2098388671875 -10.2188720703125
43.3984375 1.83203125 1.0106201171875
-38.4443359375 -16.7720947265625 18.743896484375
83.708251953125 -21.1583251953125 -0.5377197265625
100.03759765625 -29.0198974609375 5.21337890625
61.1748046875 4.3634033203125 1.507568359375
0.097900390625 -19.393310546875 18.9515380859375
75.65966796875 15.7696533203125 -14.62158203125
79.345458984375 44.8236083984375 -17.0826416015625
60.208740234375 23.697021484375 1.2869873046875
-80.024658203125 -59.19873046875 33.2515869140625
55.58056640625 10.2159423828125 1.7763671875
-11.15771484375 -29.147216796875 26.723876953125
43.55908203125 10.374755859375 1.5086669921875
75.867431640625 -26.964599609375 21.9041748046875
73.425048828125 -27.5302734375 8.00439453125
25.018798828125 -22.8223876953125 21.76806640625
29.79541015625 -26.8001708984375 25.688720703125
3.612060546875 -44.940673828125 35.5361328125
32.538818359375 -14.0247802734375 9.5797119140625
-87.358642578125 -42.653076171875 29.2896728515625
-78.888427734375 -43.4599609375 27.74462890625
53.914794921875 12.27197265625 1.4268798828125
-75.168212890625 -56.17626953125 29.59423828125
77.828125 -42.2779541015625 15.3648681640625
77.235107421875 -16.766357421875 -0.442626953125
58.427978515625 10.5775146484375 1.554931640625
73.632568359375 -9.1822509765625 -0.1546630859375
71.41748046875 -33.9493408203125 17.5526123046875
83.876953125 -34.7222900390625 7.77001953125
62.312255859375 -41.5184326171875 29.17919921875
42.63525390625 -2.1988525390625 1.53076171875
14.38525390625 -14.210205078125 20.4376220703125
78.9384765625 -4.4705810546875 -6.8206787109375
42.958740234375 -20.161865234375 18.220703125
71.75927734375 -38.3582763671875 22.5626220703125
99.871337890625 -22.2149658203125 8.7196044921875
3.725341796875 -5.8909912109375 10.1187744140625
62.28515625 -39.389892578125 29.7772216796875
-85.11669921875 -47.6607666015625 20.214599609375
46.64794921875 26.2149658203125 1.6123046875
104.076904296875 -24.439697265625 -1.2220458984375
86.30810546875 7.1568603515625 -12.348876953125
-12.205078125 -3.8641357421875 11.0340576171875
14.8251953125 -18.7174072265625 18.295654296875
42.29541015625 -7.056396484375 2.0001220703125
-41.6962890625 -13.9156494140625 19.9337158203125
100.13134765625 -18.7996826171875 12.96435546875
16.07763671875 -48.6522216796875 37.2672119140625
72.364013671875 -24.2501220703125 21.2506103515625
-5.27490234375 -52.1329345703125 40.4847412109375
35.1123046875 -11.6927490234375 4.566162109375
12.166259765625 -50.1435546875 38.1424560546875
21.405029296875 -19.781005859375 18.9197998046875
38.6240234375 6.8046875 1.602294921875
-46.6083984375 -16.5001220703125 25.2332763671875
86.556396484375 37.099609375 -17.895751953125
109.486572265625 -37.7208251953125 11.340087890625
48.628662109375 -17.857421875 13.962890625
33.84375 -27.82275390625 26.68505859375
44.786376953125 -14.837890625 8.9105224609375
-11.35595703125 -25.84765625 23.6671142578125
-24.494873046875 -34.754638671875 33.06103515625
-7.260986328125 -29.7012939453125 25.429931640625
-77.14111328125 -49.4412841796875 22.5782470703125
-64.4599609375 -31.582763671875 32.6767578125
-85.763671875 -40.2940673828125 25.9490966796875
101.109130859375 -33.4691162109375 12.1593017578125
65.63916015625 -47.09423828125 14.4833984375
-14.7275390625 -34.427734375 33.226806640625
58.5244140625 -7.087646484375 1.879150390625
101.061279296875 -23.1285400390625 10.94140625
11.57470703125 -47.08349609375 36.1304931640625
86.234375 3.893798828125 -11.64501953125
25.9970703125 -25.3740234375 24.242919921875
57.068603515625 -20.258544921875 17.5728759765625
-39.554443359375 -30.366455078125 31.559326171875
51.517333984375 2.512451171875 2.0380859375
66.76904296875 -26.1885986328125 23.6795654296875
-30.5908203125 -29.3995361328125 23.630859375
91.837890625 -41.7708740234375 17.1422119140625
-79.430419921875 -51.422607421875 26.1290283203125
63.279296875 -47.066162109375 27.138916015625
2.013916015625 -10.2298583984375 10.617431640625
39.13330078125 -7.7760009765625 2.4036865234375
51.792236328125 -26.0018310546875 23.460693359375
52.42578125 -21.7784423828125 19.7186279296875
-44.7373046875 -16.9388427734375 20.1839599609375
62.758544921875 -43.3931884765625 32.9248046875
55.23974609375 -44.583740234375 29.5228271484375
-36.046630859375 -31.755126953125 32.4095458984375
102.01904296875 -20.562744140625 1.320556640625
69.978515625 -52.71923828125 12.2498779296875
47.698974609375 -14.93408203125 8.83349609375
67.901123046875 -41.1031494140625 20.93408203125
87.1123046875 -0.5989990234375 -9.68505859375
46.77294921875 0.242919921875 5.26953125
82.665771484375 34.0120849609375 -20.6995849609375
85.527099609375 -39.5048828125 9.472900390625
75.08984375 -36.142578125 13.4705810546875
85.69189453125 -25.02001953125 2.2054443359375
73.93408203125 -19.1473388671875 2.0877685546875
-29.212646484375 -32.1090087890625 33.44775390625
62.921875 -44.6279296875 19.8992919921875
40.262451171875 13.6630859375 1.50732421875
37.587890625 -28.409912109375 27.1400146484375
37.365478515625 14.907958984375 1.4638671875
83.251953125 30.4830322265625 -19.1707763671875
-18.13818359375 8.8741455078125 10.9400634765625
-86.837646484375 -46.2764892578125 31.8790283203125
3.69140625 -18.7166748046875 18.6556396484375
53.219482421875 -30.372802734375 28.0499267578125
-17.249755859375 -9.62451171875 12.8876953125
-23.56640625 -22.4901123046875 20.3109130859375
12.26904296875 -42.818115234375 32.9630126953125
84.947021484375 -5.47265625 -8.28466796875
49.7890625 -28.9254150390625 26.6475830078125
54.975341796875 -37.736328125 29.526123046875
-12.283203125 0.475341796875 10.6292724609375
103.484130859375 -14.195556640625 8.8494873046875
-1.294677734375 -29.61181640625 27.6956787109375
33.98095703125 -18.17041015625 15.7188720703125
-23.77197265625 -25.3155517578125 23.485107421875
75.802734375 -18.795654296875 1.1490478515625
-85.66650390625 -45.654052734375 18.745849609375
-45.037109375 -33.397216796875 35.1162109375
87.652587890625 2.6695556640625 -10.4544677734375
98.681396484375 -36.6915283203125 7.8858642578125
78.47216796875 33.67431640625 -19.5960693359375
72.249755859375 -35.5936279296875 13.8048095703125
46.18310546875 8.3157958984375 1.8675537109375
32.0732421875 -24.35888671875 22.9599609375
-38.77734375 -23.420654296875 18.5411376953125
59.6982421875 -16.9901123046875 11.774169921875
105.579833984375 -26.60205078125 -2.5482177734375
-25.348876953125 3.54541015625 11.9993896484375
50.4775390625 -41.8116455078125 30.638427734375
-11.631591796875 -33.3197021484375 32.0177001953125
83.627197265625 2.7493896484375 -10.3408203125
73.459228515625 -42.5655517578125 17.9354248046875
73.740478515625 -4.2529296875 -2.2774658203125
0.0419921875 -8.577880859375 10.318603515625
-82.232177734375 -48.3902587890625 23.20458984375
-5.1337890625 -40.7470703125 35.7635498046875
-7.073974609375 -5.1953125 10.5277099609375
19.138671875 -46.658447265625 35.7415771484375
13.786865234375 -27.64111328125 17.89208984375
73.7021484375 -39.5380859375 15.985107421875
-0.4521484375 1.379150390625 9.6741943359375
59.05908203125 -4.6353759765625 1.8037109375
-45.00830078125 -20.4532470703125 20.761962890625
79.1064453125 -43.5848388671875 14.3388671875
41.030029296875 -16.352783203125 12.1820068359375
29.19189453125 -20.07080078125 18.9886474609375
84.389404296875 7.62744140625 -11.5513916015625
-80.7509765625 -42.8953857421875 26.2603759765625
35.43798828125 -28.74658203125 27.6776123046875
76.69775390625 25.8936767578125 -15.0604248046875
103.994140625 -20.623779296875 -2.798583984375
107.903564453125 -29.3072509765625 2.36572265625
88.664794921875 11.2159423828125 -12.80859375
6.821533203125 -15.18212890625 16.60400390625
81.758056640625 4.865234375 -9.554931640625
-11.737060546875 -7.0367431640625 11.2530517578125
46.79052734375 -24.9476318359375 22.712890625
99.066162109375 -22.15234375 1.689697265625
86.28125 15.2586669921875 -14.685302734375
15.309814453125 -44.2803955078125 34.0926513671875
61.40966796875 -5.9327392578125 1.6513671875
-2.467041015625 -43.8134765625 36.4949951171875
-33.1982421875 -10.6451416015625 22.51904296875
73.194580078125 -27.7503662109375 24.7554931640625
39.69140625 -24.241943359375 22.51123046875
74.648681640625 10.24267578125 -11.09521484375
101.75048828125 -34.64501953125 5.6085205078125
83.0166015625 -39.893310546875 12.3992919921875
75.6484375 17.4580078125 -13.4139404296875
40.369140625 -2.950439453125 1.8212890625
7.610595703125 -29.826416015625 18.780029296875
-82.88525390625 -56.9879150390625 32.245361328125
103.4248046875 -18.4935302734375 -3.589599609375
-36.6923828125 -19.9786376953125 18.9398193359375
-82.468505859375 -52.4232177734375 26.895263671875
-7.76708984375 9.0982666015625 10.8348388671875
83.376953125 22.1478271484375 -16.0771484375
-82.87890625 -42.7647705078125 26.1268310546875
-4.10498046875 -26.1654052734375 24.2066650390625
57.1796875 29.4755859375 1.6492919921875
102.085205078125 -38.1817626953125 9.5435791015625
85.39501953125 -27.5496826171875 3.96435546875
-20.1630859375 4.6075439453125 11.607421875
43.511474609375 26.2039794921875 1.3258056640625
84.652099609375 -13.6988525390625 -4.3314208984375
-78.942138671875 -56.8319091796875 31.64453125
-14.7578125 -17.6309814453125 17.0494384765625
36.140380859375 -18.2481689453125 16.0269775390625
2.90625 -51.7608642578125 39.7440185546875
8.08984375 -18.470458984375 18.1259765625
-54.31005859375 -29.6630859375 31.0753173828125
-22.94775390625 -36.0335693359375 32.607421875
79.726806640625 -26.48681640625 4.6571044921875
83.259765625 26.1182861328125 -17.6866455078125
-23.754150390625 -16.51123046875 17.069091796875
80.62353515625 -12.723388671875 -1.58447265625
89.09423828125 35.8438720703125 -18.5025634765625
105.380615234375 -38.8292236328125 11.677001953125
58.556640625 -0.1065673828125 1.5743408203125
11.75439453125 -24.30322265625 18.2637939453125
44.309326171875 -16.46484375 11.9256591796875
82.474609375 -46.8494873046875 16.90478515625
102.947021484375 -12.9945068359375 -3.1207275390625
58.937744140625 -14.4775390625 7.735107421875
-50.35546875 -30.24658203125 31.1617431640625
81.6875 23.6475830078125 -18.270263671875
-15.044921875 -2.20361328125 11.518798828125
64.16015625 -27.3819580078125 25.1712646484375
52.372802734375 21.2945556640625 1.591796875
43.80712890625 -11.5531005859375 4.4349365234375
74.466064453125 3.35205078125 -9.690185546875
100.26904296875 -27.400146484375 11.4945068359375
70.822998046875 -37.74609375 17.6356201171875
72.581787109375 -28.359130859375 9.6884765625
54.75390625 -15.1658935546875 8.955810546875
66.33349609375 -24.0172119140625 21.4947509765625
33.88427734375 -1.5587158203125 2.9130859375
45.521728515625 -18.9984130859375 16.0506591796875
36.1328125 -1.6324462890625 1.947265625
0.3828125 -12.5677490234375 11.9111328125
10.4169921875 -29.16796875 20.2591552734375
73.8408203125 1.8223876953125 -6.45751953125
61.375 -37.056884765625 24.628173828125
-13.187744140625 -10.5457763671875 12.1153564453125
85.616455078125 38.968017578125 -19.7841796875
27.940185546875 -25.8802490234375 25.0299072265625
-17.005126953125 -4.1148681640625 12.171142578125
86.019775390625 -18.733154296875 -1.6822509765625
-2.50732421875 -13.27001953125 12.5433349609375
6.910400390625 -26.5128173828125 16.6326904296875
70.175537109375 -35.37353515625 26.0240478515625
1.901123046875 3.6954345703125 8.832763671875
81.6484375 10.496337890625 -12.5626220703125
-13.5390625 -26.578857421875 24.760986328125
80.857666015625 -16.8851318359375 0.934326171875
-48.08056640625 -20.7503662109375 23.4088134765625
-45.574951171875 -12.598388671875 26.1773681640625
64.45361328125 -50.697509765625 20.922119140625
76.4716796875 -18.8358154296875 16.6151123046875
-76.087646484375 -46.3046875 19.9765625
79.0166015625 40.3409423828125 -17.292236328125
72.45068359375 -25.445556640625 12.8729248046875
-5.16943359375 12.97314453125 9.5582275390625
78.575439453125 38.7545166015625 -21.6103515625
101.100830078125 -31.9056396484375 21.02783203125
-44.66943359375 -27.271728515625 28.1607666015625
-39.6650390625 -28.463134765625 18.0028076171875
-19.61669921875 -23.0361328125 19.2901611328125
100.25830078125 -38.1595458984375 11.9791259765625
-81.7275390625 -45.517578125 26.1265869140625
73.904052734375 -20.850341796875 11.8134765625
61.57568359375 -20.4228515625 17.481689453125
-12.936767578125 4.443115234375 10.83154296875
-1.135009765625 -40.498046875 34.449462890625
-76.546142578125 -58.218994140625 32.4366455078125
84.8505859375 -38.67578125 11.2999267578125
-23.835205078125 5.0653076171875 11.40673828125
52.220458984375 -12.2200927734375 4.492919921875
3.133056640625 -26.92919921875 27.0328369140625
-46.967041015625 -16.100341796875 27.168701171875
81.199462890625 0.392822265625 -8.0936279296875
-22.641357421875 9.7274169921875 10.843994140625
-24.7763671875 -19.252197265625 18.6861572265625
-76.40185546875 -41.578125 25.5948486328125
85.044921875 24.225830078125 -15.361328125
10.95361328125 -14.91455078125 18.745361328125
-20.18359375 -0.4962158203125 11.892578125
-70.601318359375 -33.591796875 31.5135498046875
-12.090576171875 -21.343994140625 19.6011962890625
81.0078125 6.461181640625 -11.239990234375
81.627197265625 37.523681640625 -22.157470703125
78.052734375 -13.06494140625 -2.2379150390625
-12.244873046875 -24.17431640625 21.967529296875
61.692626953125 0.241455078125 1.734375
82.900146484375 -11.9879150390625 -4.6715087890625
76.52197265625 -14.6708984375 -1.47998046875
44.220703125 14.4315185546875 1.548095703125
-22.99365234375 -7.4832763671875 12.93310546875
50.716064453125 0.5120849609375 3.11279296875
-9.04638671875 -31.2659912109375 26.4853515625
88.06103515625 38.6781005859375 -18.6407470703125
-26.37158203125 -31.7774658203125 31.01708984375
-20.703369140625 -14.2445068359375 14.2696533203125
67.542724609375 -34.0115966796875 28.119384765625
-2.374267578125 -3.33056640625 10.603515625
99.809326171875 -25.9912109375 1.46728515625
0.822021484375 -39.3328857421875 33.64794921875
-23.2666015625 -33.8956298828125 29.2681884765625
-74.807373046875 -55.6068115234375 26.5020751953125
6.09130859375 -34.164306640625 31.7364501953125
-59.22705078125 -33.084228515625 34.8052978515625
-62.625 -30.839599609375 30.96875
-62.867431640625 -32.8916015625 34.4029541015625
-40.172607421875 -10.8209228515625 21.87890625
-34.50634765625 -22.8194580078125 19.08251953125
-56.429931640625 -29.56640625 31.1868896484375
-84.6005859375 -53.5596923828125 41.0650634765625
64.3955078125 -21.380859375 19.350341796875
106.364013671875 -16.4361572265625 8.5146484375
103.821533203125 -33.9100341796875 6.819580078125
-19.166259765625 -10.3558349609375 12.7294921875
-64.47119140625 -35.254638671875 36.78857421875
-39.79443359375 -28.606201171875 24.72998046875
43.359130859375 -29.9471435546875 28.40966796875
-10.21533203125 12.6422119140625 9.5286865234375
-14.139404296875 -0.254150390625 11.3985595703125
-74.536376953125 -58.13623046875 29.259521484375
-16.28369140625 -8.08154296875 12.093994140625
61.390380859375 -9.6297607421875 2.5018310546875
45.62060546875 -29.6156005859375 28.0067138671875
32.227294921875 -21.01220703125 19.2027587890625
-78.451416015625 -54.34326171875 28.6544189453125
-59.193115234375 -29.4049072265625 29.8829345703125
89.570556640625 -43.8529052734375 18.4576416015625
16.041015625 -17.1304931640625 19.4073486328125
-17.3515625 11.6005859375 10.56640625
-41.451416015625 -29.6168212890625 20.6253662109375
46.969482421875 -21.14990234375 19.049072265625
101.220947265625 -29.670166015625 16.91796875
75.83251953125 -11.35009765625 -3.2154541015625
-37.928955078125 -18.7601318359375 19.8896484375
-82.852783203125 -44.3582763671875 27.3072509765625
66.656005859375 -43.0557861328125 17.8466796875
-86.528076171875 -41.837890625 27.2213134765625
99.894287109375 -23.866943359375 0.1561279296875
58.607666015625 -16.1214599609375 10.1910400390625
42.938232421875 -23.9486083984375 22.134765625
56.850830078125 18.813720703125 1.7261962890625
99.0458984375 -27.02783203125 20.9368896484375
1.28076171875 -31.416015625 29.827880859375
39.786865234375 -27.2225341796875 25.86083984375
-47.0 -20.378173828125 21.138671875
8.651611328125 -25.37841796875 17.1104736328125
102.423828125 -41.7598876953125 13.5245361328125
75.328125 -27.839599609375 24.817138671875
52.47265625 -42.2607421875 28.3271484375
100.68603515625 -17.9609375 10.2281494140625
109.5546875 -39.0631103515625 12.833251953125
36.735595703125 11.6798095703125 1.4188232421875
-77.568603515625 -51.89892578125 25.6414794921875
58.01806640625 -37.9276123046875 30.99560546875
-2.38134765625 -37.107421875 33.70947265625
5.584716796875 -19.1920166015625 18.70751953125
-60.347412109375 -30.9820556640625 32.1943359375
34.93310546875 -10.074951171875 3.48974609375
101.615478515625 -27.9407958984375 15.9639892578125
-18.453369140625 -1.342529296875 11.0137939453125
76.4912109375 -31.4847412109375 10.2386474609375
29.61376953125 -30.6229248046875 29.513427734375
43.7119140625 32.696044921875 1.2789306640625
-5.8994140625 -18.36083984375 18.15625
-80.666259765625 -46.0211181640625 19.90625
-73.54736328125 -33.73974609375 28.6563720703125
51.9921875 -15.0738525390625 9.2928466796875
77.081787109375 -47.0301513671875 18.12255859375
102.546630859375 -29.4991455078125 1.718994140625
41.8291015625 18.1031494140625 1.4298095703125
75.24365234375 -23.9254150390625 20.1768798828125
-0.453857421875 -23.875732421875 23.909423828125
45.971435546875 21.738525390625 1.57568359375
71.430419921875 -33.766357421875 28.444580078125
33.44921875 -4.7904052734375 2.4351806640625
48.60693359375 -25.878173828125 23.97119140625
-17.536865234375 -31.7760009765625 30.421875
-23.556884765625 -36.076904296875 34.940673828125
82.8330078125 -6.210693359375 -6.3492431640625
46.421875 18.8912353515625 1.6651611328125
5.817138671875 -39.578369140625 33.2349853515625
81.4462890625 -3.2672119140625 -5.6259765625
71.220947265625 -40.761962890625 18.3358154296875
101.212158203125 -19.697265625 11.65234375
45.926025390625 -23.6397705078125 21.35205078125
-28.43701171875 -34.18896484375 34.2120361328125
-7.476806640625 -23.9718017578125 22.228759765625
-75.691162109375 -59.52734375 33.5501708984375
-55.52685546875 -26.4130859375 29.16845703125
100.293212890625 -32.1214599609375 11.0643310546875
75.88818359375 -33.597412109375 11.6217041015625
-19.8779296875 -26.2486572265625 21.51513671875
88.9072265625 4.282470703125 -10.8984375
82.906005859375 -17.3763427734375 -2.4183349609375
-87.610107421875 -46.792724609375 21.03662109375
2.446533203125 -33.148681640625 31.1356201171875
1.29931640625 12.06494140625 8.8807373046875
-19.8486328125 -28.353759765625 26.760009765625
83.628662109375 -29.5865478515625 4.4744873046875
-16.758544921875 -34.3184814453125 32.8876953125
63.02294921875 -23.03076171875 20.396484375
74.035888671875 -0.6536865234375 -6.74951171875
-5.67724609375 -31.467529296875 28.3497314453125
-66.37255859375 -35.9681396484375 37.4207763671875
80.506591796875 -19.378173828125 1.2691650390625
-87.1220703125 -50.9088134765625 38.7589111328125
-25.798095703125 -36.3731689453125 35.0526123046875
100.05517578125 -33.939208984375 16.3160400390625
54.71875 -42.8709716796875 30.1739501953125
100.2236328125 -39.54736328125 15.417236328125
100.439697265625 -26.8956298828125 4.2850341796875
104.1220703125 -17.25634765625 -5.38623046875
-36.11669921875 -21.9600830078125 18.47509765625
79.154541015625 -34.55078125 9.784912109375
72.513916015625 -47.577880859375 16.8865966796875
39.053955078125 0.728515625 1.8399658203125
-68.794189453125 -35.3917236328125 35.7789306640625
48.90673828125 -19.5391845703125 16.654541015625
74.66943359375 -20.4844970703125 19.9332275390625
39.928466796875 29.0672607421875 1.635498046875
-0.28759765625 -36.3714599609375 33.18359375
102.486083984375 -16.7386474609375 8.38818359375
-49.810546875 -24.6312255859375 25.5111083984375
99.869873046875 -32.4322509765625 5.8282470703125
73.6611328125 -1.840087890625 -5.18359375
-21.86474609375 -25.7862548828125 22.8475341796875
64.287353515625 -40.4688720703125 20.1673583984375
101.1689453125 -28.2413330078125 7.2647705078125
84.711181640625 44.8543701171875 -21.8079833984375
54.603271484375 -9.4317626953125 2.796142578125
51.438232421875 23.34130859375 1.5653076171875
44.16357421875 -13.1864013671875 6.472412109375
100.688720703125 -26.20849609375 19.533935546875
73.123779296875 -35.005126953125 22.8431396484375
102.724609375 -16.7828369140625 -3.2225341796875
77.09765625 11.693603515625 -14.5321044921875
-40.00439453125 -14.7564697265625 18.1309814453125
69.55322265625 -40.7886962890625 21.78125
-44.6806640625 -31.7567138671875 32.9869384765625
73.48974609375 -8.8026123046875 -3.0640869140625
35.2080078125 -13.7109375 7.7254638671875
39.97607421875 -11.0345458984375 3.81396484375
1.748046875 -24.3807373046875 24.4967041015625
56.61474609375 -14.815673828125 8.02099609375
58.843017578125 26.9888916015625 1.3094482421875
-9.8046875 -51.873046875 40.828369140625
72.96484375 -15.36376953125 4.0313720703125
47.574951171875 12.356689453125 1.54052734375
77.8095703125 -24.7412109375 5.4573974609375
53.635498046875 32.7298583984375 1.394287109375
-49.955322265625 -27.0340576171875 28.1048583984375
-38.1376953125 -12.07421875 19.89208984375
63.447998046875 -46.415771484375 21.464599609375
-66.74365234375 -33.4866943359375 34.4447021484375
-12.293701171875 -50.8763427734375 40.5108642578125
-15.00048828125 12.7197265625 9.8675537109375
77.321044921875 -40.57080078125 16.0059814453125
59.60107421875 15.904541015625 1.5281982421875
-9.89306640625 9.1419677734375 11.101318359375
63.244873046875 -25.6126708984375 23.037841796875
12.39453125 -27.554931640625 16.38818359375
99.9150390625 -29.38916015625 1.75390625
-62.594482421875 -31.6827392578125 33.003173828125
30.98095703125 -21.80078125 20.3514404296875
83.971435546875 -15.7493896484375 -3.1192626953125
107.31103515625 -32.318115234375 5.0745849609375
5.8681640625 -29.5589599609375 29.44140625
-86.23486328125 -51.658935546875 24.74658203125
64.020751953125 -49.92626953125 23.1878662109375
55.307373046875 -19.7730712890625 17.1983642578125
14.843505859375 -21.5947265625 20.8323974609375
41.507080078125 -24.7388916015625 23.029296875
77.03662109375 -30.08154296875 25.8411865234375
-17.696533203125 -24.738525390625 21.24755859375
-74.34619140625 -35.9981689453125 27.964111328125
25.423095703125 -21.1727294921875 20.006103515625
79.57275390625 20.0474853515625 -17.5726318359375
74.395751953125 -14.185791015625 -0.933349609375
8.273681640625 -31.1021728515625 19.9610595703125
67.294189453125 -45.9537353515625 15.3004150390625
1.759765625 -41.0694580078125 34.5635986328125
85.623291015625 -36.9100341796875 7.4217529296875
83.625732421875 43.165771484375 -22.44873046875
-78.88916015625 -48.9896240234375 23.3126220703125
6.2294921875 -20.8475341796875 19.88916015625
75.245849609375 12.6251220703125 -12.400390625
-9.048583984375 -14.642333984375 14.034912109375
98.4326171875 -39.2568359375 8.3643798828125
107.039794921875 -35.3740234375 8.2059326171875
-53.15673828125 -31.3421630859375 32.72509765625
56.49169921875 -26.196044921875 23.6612548828125
81.83349609375 -27.8153076171875 3.4041748046875
47.56396484375 -10.4493408203125 3.407470703125
2.084716796875 -43.185302734375 35.2618408203125
5.8076171875 -28.5750732421875 21.2247314453125
38.9521484375 -5.34423828125 2.00927734375
32.8701171875 -16.4835205078125 15.4224853515625
-15.646484375 -12.4417724609375 12.69677734375
74.62353515625 7.4886474609375 -8.3592529296875
-6.104248046875 -38.18603515625 34.7066650390625
104.4140625 -15.5064697265625 10.0738525390625
73.709228515625 -6.697265625 -0.172607421875
98.39599609375 -33.621337890625 4.7020263671875
-87.028564453125 -45.1837158203125 33.3585205078125
-42.14501953125 -26.5855712890625 27.8602294921875
41.353759765625 2.699951171875 1.541015625
19.949462890625 -22.2080078125 21.3642578125
-8.36376953125 -50.671142578125 39.9364013671875
101.501708984375 -27.9949951171875 20.66357421875
-67.572998046875 -31.004638671875 31.416748046875
62.955322265625 -17.9395751953125 14.263671875
86.515869140625 20.5455322265625 -15.2752685546875
-9.19384765625 -48.5123291015625 39.1436767578125
35.39453125 -5.659912109375 1.78271484375
69.15087890625 -46.8621826171875 14.357177734375
78.95166015625 -9.793212890625 -3.896240234375
-16.479248046875 -20.3616943359375 18.219482421875
81.872314453125 12.898193359375 -13.6856689453125
102.0068359375 -33.333251953125 25.067626953125
-13.208984375 -32.3961181640625 30.775146484375
83.340576171875 -2.549560546875 -8.499755859375
66.24267578125 -48.791748046875 13.983154296875
-42.966064453125 -14.65673828125 21.8291015625
-34.019775390625 -13.392578125 19.392578125
33.5615234375 -26.5361328125 25.40185546875
43.098876953125 -22.6873779296875 20.8072509765625
35.290283203125 -24.0672607421875 22.586181640625
31.30810546875 -29.849853515625 29.02685546875
-7.85888671875 -34.7584228515625 33.0233154296875
-14.70263671875 8.8074951171875 10.639892578125
81.49169921875 35.5506591796875 -21.604248046875
70.476318359375 -39.5919189453125 23.0111083984375
41.254638671875 11.2247314453125 1.6619873046875
51.9443359375 7.4013671875 1.6920166015625
68.439208984375 -23.66748046875 20.8082275390625
81.424560546875 -8.621826171875 -4.0762939453125
101.602294921875 -19.2767333984375 3.391357421875
41.20849609375 -21.774658203125 20.157958984375
48.93017578125 -0.6341552734375 4.8646240234375
-1.982421875 -31.6771240234375 29.91552734375
78.1298828125 -46.1756591796875 16.6683349609375
-5.638671875 -48.7032470703125 38.7554931640625
-26.236572265625 -23.5972900390625 22.1339111328125
11.900390625 -28.781982421875 17.98291015625
99.919677734375 -30.378173828125 10.5108642578125
-72.341064453125 -32.68994140625 30.3751220703125
-63.93017578125 -29.6220703125 31.7943115234375
-6.8212890625 4.4041748046875 13.559326171875
-53.621826171875 -34.18408203125 35.6824951171875
71.75 -37.746826171875 16.060791015625
-8.7841796875 -32.5313720703125 27.865478515625
15.299072265625 -52.077880859375 39.4439697265625
-8.370361328125 -40.1656494140625 35.83203125
84.984130859375 -3.423583984375 -8.9859619140625
43.4375 -9.9229736328125 3.0989990234375
-69.41748046875 -30.9066162109375 31.0953369140625
78.919921875 11.2532958984375 -14.77392578125
-14.238525390625 -23.686279296875 21.65283203125
-51.7763671875 -26.5550537109375 27.9124755859375
76.053466796875 1.2618408203125 -10.1640625
85.21435546875 28.9935302734375 -17.287109375
35.224609375 14.9501953125 1.8724365234375
-36.9111328125 -8.945068359375 22.9605712890625
-15.556396484375 -33.1201171875 31.6121826171875
54.591796875 -23.981689453125 21.5186767578125
23.966552734375 -25.714111328125 24.9102783203125
104.232421875 -27.8450927734375 -0.2242431640625
-24.541259765625 7.0440673828125 11.6214599609375
-74.336181640625 -40.7935791015625 22.5924072265625
79.190185546875 41.6868896484375 -15.845703125
59.334228515625 -41.9029541015625 32.3795166015625
100.243896484375 -39.8018798828125 9.325927734375
67.430908203125 -49.6500244140625 12.8321533203125
-3.982421875 -15.614990234375 14.9056396484375
105.3349609375 -37.0633544921875 10.1900634765625
-9.787841796875 -26.7430419921875 24.876953125
10.42333984375 -25.04345703125 16.8953857421875
35.025146484375 8.4921875 1.9190673828125
-13.823486328125 -31.117431640625 29.5697021484375
-1.236328125 3.784912109375 9.7646484375
80.8798828125 -38.0255126953125 10.1697998046875
-74.968994140625 -54.3447265625 25.0704345703125
49.93310546875 -23.37646484375 21.32373046875
-44.57958984375 -14.208740234375 22.962158203125
42.4697265625 -19.3060302734375 16.7000732421875
-5.770751953125 -32.7274169921875 29.9251708984375
75.56005859375 -43.1031494140625 17.98876953125
3.07080078125 -22.3670654296875 21.806884765625
74.8115234375 -3.8367919921875 -0.8804931640625
79.662353515625 45.1328125 -22.4378662109375
-81.809326171875 -58.27294921875 32.9232177734375
71.125 -49.4139404296875 12.2459716796875
21.010986328125 -29.8116455078125 29.021728515625
76.023193359375 -23.4063720703125 4.390380859375
11.26318359375 -48.7950439453125 37.3492431640625
40.860107421875 -29.415283203125 28.392578125
73.74462890625 -15.400634765625 0.9735107421875
-5.70703125 -23.24365234375 22.849853515625
-84.5458984375 -54.89013671875 43.3951416015625
49.982666015625 -20.0023193359375 18.2584228515625
61.508544921875 -38.7318115234375 23.43212890625
74.506591796875 -10.0068359375 2.4085693359375
102.58203125 -15.0753173828125 -0.2069091796875
35.483154296875 20.607421875 1.956787109375
-29.819580078125 -23.0631103515625 22.97119140625
-11.0673828125 -10.613525390625 11.850341796875
-33.12646484375 -22.09912109375 19.9849853515625
102.467529296875 -16.3345947265625 1.6837158203125
-3.756591796875 3.0535888671875 10.2177734375
54.984375 -18.4996337890625 15.2117919921875
0.37353515625 -32.6302490234375 30.7945556640625
58.63525390625 -21.161865234375 18.41064453125
34.085693359375 -16.1158447265625 12.043212890625
51.5712890625 -17.961181640625 14.611328125
62.298095703125 -41.4169921875 26.1796875
106.208740234375 -28.3565673828125 0.2532958984375
-40.482666015625 -17.8741455078125 19.1317138671875
100.016845703125 -36.2354736328125 21.927734375
-47.399658203125 -33.6715087890625 34.830810546875
64.40478515625 -35.56591796875 27.420166015625
54.761474609375 24.947021484375 1.27783203125
79.044677734375 2.81689453125 -10.970458984375
-19.34375 -35.8316650390625 33.328369140625
49.73828125 -5.21533203125 2.0126953125
62.486328125 -42.4482421875 30.9764404296875
-10.091796875 -21.835205078125 20.736328125
1.55615234375 8.8720703125 8.724609375
2.014892578125 -46.122802734375 36.1544189453125
-21.357421875 -27.0419921875 24.7171630859375
74.049072265625 -46.4986572265625 19.6551513671875
68.382568359375 -45.2255859375 16.774658203125
103.3701171875 -14.2950439453125 -6.4322509765625
-46.065185546875 -32.5111083984375 33.8414306640625
76.00537109375 -44.85888671875 18.68310546875
76.8466796875 26.183837890625 -16.82275390625
-7.23681640625 -47.3480224609375 38.342529296875
77.973388671875 31.7080078125 -18.8580322265625
-20.34716796875 -21.4168701171875 19.5091552734375
70.95849609375 -37.818603515625 19.9788818359375
-87.635498046875 -55.5762939453125 27.664794921875
-18.62060546875 -16.6943359375 16.572998046875
4.8193359375 -50.1573486328125 38.79345703125
-81.719970703125 -53.7464599609375 28.78125
-3.712646484375 -39.96484375 34.8795166015625
84.959716796875 -10.8187255859375 -6.05224609375
6.537353515625 -28.326904296875 28.0714111328125
-5.38623046875 -24.884521484375 23.5146484375
3.774658203125 -40.7379150390625 33.9027099609375
-22.455322265625 -15.7645263671875 16.10009765625
87.3994140625 28.1497802734375 -17.712646484375
-44.302734375 -28.5147705078125 29.900146484375
53.2275390625 -14.2943115234375 7.449951171875
7.71875 -40.4788818359375 32.445556640625
-88.057373046875 -48.2249755859375 20.07568359375
101.626708984375 -23.50634765625 -0.346923828125
48.197509765625 -15.772216796875 10.322265625
-1.37060546875 -5.355224609375 10.0809326171875
-23.31005859375 -1.97412109375 12.821533203125
4.966064453125 -13.111328125 13.38720703125
75.12255859375 -20.439697265625 2.3671875
78.693359375 -35.4111328125 11.2933349609375
75.45068359375 -2.3453369140625 -7.4765625
83.9560546875 -0.1051025390625 -9.138427734375
7.758056640625 -22.520263671875 18.597412109375
99.939453125 -29.110595703125 11.8359375
100.67626953125 -34.5225830078125 21.9998779296875
-18.530029296875 -12.345947265625 13.1903076171875
-12.88037109375 -28.6689453125 26.9229736328125
-2.60400390625 -14.8623046875 14.0531005859375
72.808837890625 -41.2235107421875 16.97607421875
-36.19384765625 -32.59326171875 33.9649658203125
109.1884765625 -33.2911376953125 6.7615966796875
-80.015625 -49.760009765625 24.625732421875
-8.40185546875 0.0018310546875 11.078857421875
-30.437255859375 -21.4356689453125 21.681396484375
78.90283203125 -6.9195556640625 -5.4261474609375
-75.424560546875 -53.270263671875 26.83251953125
98.5791015625 -24.2728271484375 4.5023193359375
-6.7958984375 -36.4888916015625 34.2017822265625
62.172119140625 -41.706298828125 22.331787109375
62.46875 -29.90869140625 27.314453125
-57.39111328125 -32.7567138671875 34.04345703125
100.470947265625 -26.9581298828125 9.6954345703125
-10.746337890625 -14.1876220703125 13.434326171875
84.45556640625 -7.9158935546875 -6.8297119140625
-30.514404296875 -16.670166015625 19.512939453125
71.4892578125 -32.1669921875 13.3013916015625
5.66064453125 -42.9151611328125 33.9910888671875
-41.682373046875 -26.8470458984375 19.976318359375
66.14208984375 -35.20654296875 26.9246826171875
-22.560302734375 -11.427734375 13.157958984375
-24.155517578125 -28.974609375 27.266845703125
-80.5 -45.77099609375 22.204345703125
-34.947998046875 -28.692138671875 18.6214599609375
-1.3984375 -42.60205078125 35.791015625
49.744140625 2.6585693359375 5.8646240234375
-5.306396484375 -0.8837890625 10.1573486328125
-15.472900390625 2.140380859375 11.29150390625
22.63671875 -24.3990478515625 23.480712890625
6.5859375 -47.2396240234375 36.6788330078125
81.218994140625 -24.421875 1.7637939453125
81.8857421875 -4.919921875 -4.9825439453125
38.564453125 -20.000244140625 18.3084716796875
-2.404541015625 -26.259521484375 25.5518798828125
101.4638671875 -37.394775390625 13.4715576171875
4.542724609375 -25.6976318359375 22.906982421875
-17.8720703125 6.111328125 10.782958984375
62.9921875 -24.315185546875 21.87841796875
32.245849609375 -18.52783203125 18.3372802734375
64.61328125 -47.09716796875 15.9112548828125
-15.054931640625 -22.432373046875 20.099853515625
82.145263671875 -20.2689208984375 0.07861328125
-86.525146484375 -45.06884765625 30.514892578125
100.10693359375 -36.5936279296875 18.5792236328125
49.971923828125 -39.271484375 32.0345458984375
-40.465087890625 -24.52783203125 18.7529296875
-37.893310546875 -28.9764404296875 19.7864990234375
5.171142578125 -24.8785400390625 20.7276611328125
102.099853515625 -18.4456787109375 0.0079345703125
-77.512939453125 -45.9130859375 21.4453125
0.282470703125 -28.8690185546875 27.93701171875
-75.837158203125 -43.1727294921875 26.0572509765625
107.7509765625 -30.599853515625 3.5538330078125
76.67529296875 4.480224609375 -11.4798583984375
-13.3193359375 -33.6556396484375 32.3529052734375
-54.98095703125 -30.853515625 32.5240478515625
3.283935546875 -23.610107421875 23.0478515625
84.688720703125 -17.4371337890625 -2.7840576171875
-85.762451171875 -50.1055908203125 23.7764892578125
78.1533203125 -40.1334228515625 14.2921142578125
77.952392578125 35.482666015625 -17.1339111328125
44.194091796875 -1.0140380859375 1.602294921875
-31.3720703125 -23.787841796875 22.6163330078125
87.768798828125 23.33544921875 -16.3984375
-27.67626953125 -29.641357421875 28.3743896484375
76.809814453125 -28.9393310546875 8.46044921875
-15.69140625 -26.475830078125 24.1824951171875
-76.1806640625 -42.683349609375 24.2615966796875
-25.1533203125 -26.0694580078125 24.3385009765625
86.397705078125 26.2454833984375 -15.683349609375
-2.555419921875 -47.1610107421875 37.3907470703125
8.210693359375 -42.615966796875 33.4149169921875
62.152099609375 -40.1661376953125 27.388427734375
56.519775390625 -36.9769287109375 30.253173828125
99.92578125 -35.8740234375 25.3070068359375
-49.60302734375 -33.1629638671875 34.8037109375
77.496826171875 31.899169921875 -16.2589111328125
77.776611328125 -0.7958984375 -9.1544189453125
-17.991943359375 -26.7779541015625 24.179443359375
57.742919921875 15.113037109375 1.7647705078125
101.05810546875 -42.0889892578125 12.4935302734375
-20.01904296875 -34.9190673828125 31.140869140625
53.611083984375 17.1873779296875 1.448974609375
82.663330078125 41.55322265625 -22.311767578125
42.196533203125 -27.32177734375 25.733642578125
82.009033203125 14.91259765625 -14.2518310546875
-2.571044921875 -38.7669677734375 34.314208984375
76.79931640625 14.892822265625 -15.7110595703125
54.1533203125 -25.671875 23.189453125
-83.799560546875 -58.1497802734375 33.157470703125
49.786376953125 22.520751953125 1.3641357421875
72.230712890625 -21.24658203125 19.4759521484375
101.504638671875 -23.592041015625 13.5660400390625
30.49072265625 -24.7181396484375 23.5770263671875
27.049072265625 -29.233642578125 28.4818115234375
-1.3828125 -45.1300048828125 36.81689453125
-83.422607421875 -49.52880859375 24.39306640625
34.385986328125 -12.8765869140625 6.44580078125
48.94970703125 -13.7467041015625 6.995361328125
-9.064453125 -43.896728515625 37.368896484375
75.386474609375 -6.0029296875 -5.3919677734375
82.345947265625 -2.908203125 -7.127685546875
53.90478515625 -5.738525390625 1.6259765625
-20.916015625 7.375 11.693115234375
-1.686279296875 -11.7052001953125 11.4893798828125
70.728271484375 -42.5167236328125 20.61474609375
82.99560546875 6.8599853515625 -10.6822509765625
46.08154296875 -22.3778076171875 20.024658203125
-42.8330078125 -18.16943359375 17.9620361328125
77.895263671875 -26.44091796875 7.0269775390625
76.064208984375 -18.82470703125 19.6185302734375
72.578857421875 -33.033203125 12.0146484375
5.4755859375 -27.384033203125 23.7891845703125
-42.18798828125 -11.9305419921875 23.2027587890625
51.678466796875 -40.1239013671875 29.3026123046875
79.456787109375 -38.4049072265625 11.0675048828125
87.938720703125 -42.4722900390625 18.3408203125
-45.47998046875 -15.3568115234375 23.8812255859375
-38.23193359375 -8.1080322265625 23.7930908203125
-28.66064453125 -24.7374267578125 25.299560546875
84.18408203125 10.489013671875 -11.9432373046875
80.939208984375 8.0706787109375 -12.053466796875
-27.18310546875 -23.5802001953125 23.7491455078125
76.135498046875 23.016845703125 -15.64697265625
103.11767578125 -18.0479736328125 6.5552978515625
88.46728515625 17.25830078125 -15.253662109375
4.838134765625 -27.421630859375 27.549560546875
-5.056396484375 -11.993408203125 12.0452880859375
44.59521484375 -20.640380859375 18.4609375
38.9755859375 20.95703125 1.374755859375
74.061767578125 -12.5223388671875 -1.455078125
65.3134765625 -48.8082275390625 15.5440673828125
80.085693359375 9.2386474609375 -13.8431396484375
23.843994140625 -21.941162109375 20.62109375
54.25830078125 5.72021484375 1.5433349609375
12.796875 -44.1353759765625 33.9312744140625
47.399658203125 15.6319580078125 1.82666015625
-77.798583984375 -52.745361328125 27.1181640625
-6.027587890625 -3.6339111328125 10.6593017578125
59.34228515625 25.35009765625 1.390625
74.2646484375 -34.699951171875 25.8658447265625
71.897216796875 -26.663330078125 10.773193359375
2.861328125 -34.84033203125 31.9586181640625
100.402099609375 -34.987060546875 4.608154296875
47.125 -12.0595703125 4.9896240234375
-42.992919921875 -30.6103515625 31.8199462890625
89.747802734375 24.1390380859375 -16.5301513671875
-0.279541015625 -21.0096435546875 20.8055419921875
-10.8583984375 -23.416259765625 21.109375
18.321044921875 -23.3914794921875 22.696044921875
74.345703125 -28.83740234375 8.614501953125
-58.785888671875 -31.8634033203125 32.833251953125
-62.287109375 -34.971923828125 36.813232421875
39.157958984375 -15.8780517578125 11.5645751953125
102.546630859375 -14.25439453125 -4.2041015625
-45.72216796875 -23.208251953125 23.9378662109375
-74.0458984375 -46.3751220703125 18.947021484375
77.522705078125 34.9327392578125 -18.9395751953125
72.67626953125 -44.29638671875 19.8050537109375
-15.6826171875 -15.6055908203125 15.2630615234375
