-84.715576171875 -33.7379150390625 22.3194580078125
-23.050048828125 14.660888671875 8.4285888671875
-0.744873046875 6.793212890625 7.7991943359375
-11.904296875 16.7030029296875 6.5833740234375
84.419677734375 -39.3765869140625 17.7801513671875
36.537109375 24.16796875 -1.3760986328125
-89.913818359375 -31.758544921875 19.338134765625
80.445556640625 -19.4647216796875 13.769287109375
-1.23486328125 0.54443359375 12.0323486328125
-15.080810546875 5.630126953125 9.49609375
-19.139404296875 2.4012451171875 10.8048095703125
66.715087890625 -7.013916015625 4.0909423828125
31.5537109375 20.758056640625 -2.0128173828125
-44.07958984375 -2.4173583984375 16.0535888671875
75.685791015625 -2.3746337890625 0.9326171875
-29.368896484375 2.696533203125 12.2437744140625
40.333251953125 11.7926025390625 -0.7568359375
69.6689453125 -20.8131103515625 11.844482421875
-23.0146484375 -10.49658203125 22.65771484375
-79.8232421875 -31.0404052734375 16.93408203125
67.669677734375 20.416748046875 -6.6572265625
62.0888671875 -30.6085205078125 10.9879150390625
92.373046875 -27.2586669921875 15.9073486328125
-12.63623046875 -12.633544921875 22.1290283203125
-29.67333984375 3.1512451171875 15.3460693359375
67.2646484375 -0.1104736328125 0.7490234375
75.79638671875 -25.636962890625 13.275634765625
70.918212890625 -27.150146484375 16.7135009765625
53.13330078125 40.284912109375 -2.309814453125
-33.196044921875 -2.718994140625 16.2034912109375
61.04736328125 -34.282958984375 18.3192138671875
-10.388427734375 25.815185546875 6.4906005859375
10.429443359375 3.1258544921875 12.1234130859375
84.036376953125 -31.158447265625 10.1944580078125
66.340576171875 -30.4423828125 8.7813720703125
55.161376953125 12.66796875 -1.9908447265625
-88.193359375 -24.5704345703125 23.0572509765625
45.500244140625 21.7489013671875 0.904052734375
77.228271484375 -29.6612548828125 10.3143310546875
-51.225830078125 -8.8804931640625 23.739501953125
71.7744140625 -43.8505859375 17.6513671875
73.30078125 -22.2353515625 13.3160400390625
39.625 36.802490234375 -2.2564697265625
75.94873046875 -10.84521484375 4.7342529296875
4.3408203125 -6.8406982421875 14.482177734375
101.023193359375 -32.7950439453125 24.1956787109375
100.65869140625 -12.8360595703125 1.708251953125
0.36376953125 -8.9378662109375 21.969482421875
48.26611328125 1.674072265625 8.0079345703125
42.26025390625 2.361328125 6.8646240234375
32.188720703125 10.0709228515625 -1.73388671875
-9.0751953125 29.6082763671875 5.3629150390625
20.075439453125 -0.225341796875 16.1546630859375
44.837890625 15.7945556640625 -2.1668701171875
-92.310302734375 -21.51416015625 25.159423828125
76.84716796875 -6.220458984375 2.0819091796875
18.360595703125 2.3212890625 13.07763671875
-17.5078125 14.719970703125 7.756103515625
-25.850830078125 1.332763671875 12.1759033203125
32.796630859375 -1.8359375 14.748291015625
69.215087890625 2.795166015625 -1.876708984375
50.735107421875 13.95361328125 -2.244873046875
-54.8701171875 -9.8695068359375 24.271484375
83.7431640625 -1.4967041015625 10.9539794921875
83.0830078125 -22.3695068359375 17.63330078125
-77.984375 -22.3916015625 19.9481201171875
73.433837890625 -31.502197265625 7.0101318359375
69.073974609375 -42.9744873046875 29.794677734375
57.03564453125 30.5003662109375 -2.2503662109375
88.581298828125 -33.01220703125 15.5009765625
66.42919921875 -18.8857421875 19.3438720703125
47.566650390625 3.3148193359375 4.9268798828125
-85.948486328125 -29.7125244140625 18.3436279296875
65.197265625 -40.7994384765625 19.3424072265625
-8.396484375 -2.9931640625 16.537109375
-92.0263671875 -24.996337890625 26.01806640625
103.02978515625 -33.2440185546875 26.3193359375
54.016845703125 1.496337890625 7.984375
-4.080810546875 24.282470703125 6.13525390625
33.427734375 25.8924560546875 -1.44921875
58.667236328125 -26.4202880859375 14.4327392578125
-0.728271484375 21.927978515625 5.58203125
-19.544677734375 -12.576904296875 24.7957763671875
78.91015625 -11.257080078125 5.09521484375
78.6904296875 -39.833984375 14.576416015625
68.16552734375 -26.7452392578125 14.464599609375
97.69873046875 -1.1990966796875 -1.3759765625
14.114501953125 -0.2694091796875 15.324462890625
57.944580078125 -24.2108154296875 16.7244873046875
-45.459228515625 -11.394287109375 16.108642578125
96.13671875 -20.3568115234375 8.8953857421875
95.627685546875 -18.3094482421875 17.151123046875
67.86767578125 -14.7166748046875 7.899169921875
63.595703125 -23.4530029296875 17.2554931640625
78.881103515625 -24.4788818359375 13.38330078125
79.940185546875 -6.985595703125 4.1822509765625
-1.974365234375 28.02880859375 4.925537109375
51.889404296875 -4.6846923828125 17.2723388671875
43.421875 -0.7457275390625 12.2796630859375
-45.049072265625 -5.595458984375 16.3790283203125
-9.74365234375 10.0218505859375 8.0390625
43.18408203125 30.1650390625 -1.7366943359375
74.401611328125 3.949462890625 -0.2340087890625
-81.9443359375 -26.4417724609375 22.94482421875
43.499267578125 34.9779052734375 -2.400390625
-40.158447265625 -3.07177734375 15.6051025390625
67.322998046875 -33.1588134765625 7.7100830078125
55.665283203125 -3.216796875 15.3504638671875
-28.896484375 -12.952392578125 25.37939453125
73.026123046875 12.5120849609375 -4.96826171875
15.208984375 -4.9090576171875 18.3980712890625
93.27099609375 -23.538330078125 15.94091796875
91.550537109375 -0.7650146484375 11.406982421875
39.081298828125 43.580322265625 -2.2525634765625
38.6533203125 26.0615234375 -1.8109130859375
71.870361328125 -2.4176025390625 1.8486328125
-39.218017578125 8.0738525390625 17.0501708984375
66.640380859375 -23.65478515625 15.0870361328125
79.425048828125 -30.795654296875 7.470458984375
-25.380859375 -2.2469482421875 14.2459716796875
51.299560546875 2.11083984375 6.9244384765625
30.05078125 -5.0057373046875 18.22119140625
-78.959228515625 -27.389892578125 15.458740234375
-19.0263671875 -6.0909423828125 17.672607421875
76.5087890625 -16.4234619140625 7.1595458984375
83.20654296875 5.4002685546875 -1.4991455078125
-79.3876953125 -35.1318359375 20.421875
7.714111328125 -1.492431640625 14.702392578125
-20.878662109375 5.1885986328125 8.794189453125
-15.577392578125 -7.7923583984375 19.540283203125
96.35205078125 -25.500732421875 20.490966796875
79.0869140625 -21.192626953125 11.5927734375
-77.63818359375 -16.145751953125 25.8271484375
-47.68603515625 -0.8507080078125 15.3250732421875
101.21875 -27.1484375 15.9234619140625
52.82861328125 28.6241455078125 -1.8787841796875
88.591796875 -4.321044921875 15.0335693359375
83.927001953125 -23.580810546875 14.4111328125
-76.730224609375 -21.5614013671875 25.588134765625
104.837646484375 -23.8970947265625 14.3482666015625
-9.07666015625 6.12744140625 8.9578857421875
-12.2734375 5.1591796875 9.585205078125
-3.84326171875 8.9033203125 7.6259765625
-4.0537109375 14.698486328125 6.1658935546875
10.222900390625 7.1048583984375 11.4346923828125
69.36376953125 36.43359375 -10.9622802734375
-16.673095703125 1.2943115234375 11.5499267578125
75.35546875 -35.918212890625 9.4163818359375
53.64892578125 9.0882568359375 -1.64306640625
80.135009765625 32.969482421875 -11.7999267578125
-20.9150390625 19.546875 6.92333984375
66.73095703125 -5.6781005859375 16.868408203125
47.885009765625 17.028564453125 -1.9451904296875
-15.93017578125 23.22314453125 8.4205322265625
18.987548828125 -5.331298828125 18.83642578125
97.09033203125 -6.9490966796875 -4.3271484375
-28.68359375 -6.7979736328125 18.5406494140625
68.547119140625 29.7620849609375 -8.557861328125
71.96923828125 -17.30517578125 11.287109375
-12.99072265625 19.8511962890625 5.905517578125
57.302734375 2.94384765625 4.6268310546875
87.115478515625 -26.0843505859375 11.2794189453125
50.696533203125 5.345947265625 2.2197265625
7.8671875 3.812744140625 11.3341064453125
97.72900390625 -21.0872802734375 11.2056884765625
-3.5908203125 -2.49853515625 15.8404541015625
96.326904296875 -11.5977783203125 -0.3553466796875
-45.23291015625 2.7822265625 13.8018798828125
-17.16845703125 -3.0487060546875 15.2991943359375
81.25537109375 17.1944580078125 -6.5452880859375
46.328369140625 0.32421875 10.42626953125
37.3330078125 1.381103515625 8.7679443359375
103.54248046875 -15.82421875 4.8658447265625
-32.9111328125 -10.1224365234375 24.5096435546875
75.1044921875 10.2091064453125 -2.824951171875
56.955322265625 25.1475830078125 -1.9327392578125
-3.59716796875 -5.746337890625 19.292236328125
74.546142578125 -43.813232421875 28.7232666015625
-25.56884765625 21.79248046875 7.05078125
103.145751953125 -18.71630859375 8.104736328125
-3.590576171875 3.53076171875 9.1234130859375
84.34326171875 -36.5926513671875 15.3770751953125
-40.148681640625 -11.3890380859375 16.830078125
-88.51611328125 -20.5587158203125 21.0247802734375
1.205322265625 4.3255615234375 12.4510498046875
10.099365234375 -12.865478515625 20.8873291015625
57.67529296875 -0.6044921875 11.3270263671875
62.285888671875 -19.5731201171875 21.1136474609375
-2.994140625 -0.55126953125 13.8931884765625
40.340576171875 5.8514404296875 1.5135498046875
33.22216796875 29.465576171875 -2.0389404296875
66.0517578125 -34.9962158203125 12.096435546875
-79.9140625 -18.96630859375 23.940185546875
85.270263671875 -32.2313232421875 12.919921875
69.38525390625 -11.082763671875 6.18017578125
66.360107421875 -4.0557861328125 5.8028564453125
-13.41259765625 30.6378173828125 5.613525390625
20.106201171875 6.892822265625 11.6990966796875
68.40234375 25.15087890625 -9.8929443359375
-29.932861328125 8.6356201171875 8.3858642578125
77.053955078125 -33.9273681640625 7.6522216796875
-86.611572265625 -43.55615234375 31.48828125
-17.816650390625 17.436767578125 7.0965576171875
-27.33349609375 16.8408203125 8.3780517578125
-37.898193359375 -8.7999267578125 14.397216796875
68.2646484375 -29.296875 10.525146484375
-24.841552734375 4.6533203125 9.4013671875
96.3193359375 -1.4801025390625 10.8675537109375
75.089111328125 28.86181640625 -10.7449951171875
88.318359375 -28.196044921875 16.62841796875
48.571044921875 10.5394287109375 -1.4127197265625
-6.5458984375 20.759521484375 5.361083984375
81.311767578125 -19.299072265625 16.2730712890625
46.74560546875 20.5284423828125 -1.503662109375
33.08056640625 3.193603515625 5.918212890625
78.05419921875 -1.0120849609375 0.1519775390625
23.70703125 -4.1964111328125 17.363037109375
106.015869140625 -21.2900390625 13.22802734375
95.3076171875 -3.3336181640625 -0.394287109375
45.1376953125 38.7572021484375 -2.3455810546875
4.243408203125 -4.2410888671875 14.89794921875
34.092041015625 34.8089599609375 -2.302734375
1.85205078125 -0.3707275390625 13.5777587890625
87.572509765625 -36.1953125 19.70361328125
-21.980224609375 -5.0523681640625 16.53564453125
98.23681640625 -26.442626953125 16.7227783203125
-27.861328125 26.0703125 8.49755859375
-50.5732421875 3.960693359375 18.9915771484375
69.294921875 -2.80810546875 1.651123046875
58.0146484375 -23.8114013671875 23.8125
-35.343017578125 1.50634765625 13.2572021484375
38.97119140625 21.0601806640625 -1.7708740234375
48.201904296875 -2.9747314453125 15.391845703125
-51.802001953125 -6.28564453125 20.845947265625
102.11376953125 -8.31494140625 -5.760986328125
-43.3828125 -6.9755859375 14.430419921875
-14.27783203125 9.272705078125 7.865478515625
39.027587890625 -2.7493896484375 15.17529296875
72.7900390625 -6.951416015625 5.0216064453125
81.0615234375 -26.658447265625 13.2208251953125
-45.261962890625 -8.1497802734375 16.004638671875
37.651123046875 5.7066650390625 2.169677734375
-7.90087890625 -6.867431640625 20.8643798828125
31.754638671875 31.9122314453125 -2.341064453125
76.874755859375 -44.2490234375 26.9708251953125
-32.596923828125 -4.62744140625 18.4486083984375
34.0068359375 37.4232177734375 -2.0528564453125
30.8349609375 15.2529296875 -1.11474609375
-9.331298828125 -5.20751953125 19.061767578125
-26.163818359375 29.4537353515625 7.4293212890625
75.131591796875 -8.5540771484375 3.941162109375
74.5498046875 25.7830810546875 -10.041015625
-80.42724609375 -28.10791015625 17.424072265625
39.31494140625 39.5301513671875 -2.9185791015625
81.434814453125 -13.7506103515625 13.431640625
-33.63134765625 3.7718505859375 15.6563720703125
33.986328125 5.8006591796875 2.1302490234375
66.095458984375 -25.0634765625 17.8382568359375
98.955078125 -0.0220947265625 -7.2147216796875
-24.695068359375 -8.8634033203125 19.0552978515625
-19.927001953125 13.3204345703125 8.401611328125
55.453369140625 19.2890625 -2.0679931640625
-28.974853515625 15.0098876953125 9.0418701171875
-35.827392578125 3.894287109375 14.3658447265625
99.5478515625 -3.372802734375 -4.4915771484375
74.925048828125 -43.6767578125 17.07958984375
-83.465576171875 -24.46533203125 22.4696044921875
42.730712890625 12.803466796875 -1.3001708984375
38.918701171875 16.8681640625 -1.8895263671875
35.267578125 13.6270751953125 -0.6260986328125
-16.27490234375 28.09716796875 6.6041259765625
-80.292724609375 -42.5208740234375 29.7191162109375
75.941162109375 25.5155029296875 -6.9967041015625
74.205322265625 -40.2601318359375 13.692626953125
72.2958984375 36.3968505859375 -13.236328125
68.61767578125 14.561767578125 -5.4188232421875
-8.356201171875 27.24365234375 5.8836669921875
-5.0849609375 30.147216796875 4.7515869140625
-40.453125 2.578369140625 13.588623046875
-21.959716796875 -8.9007568359375 20.88916015625
41.744140625 32.2777099609375 -1.803955078125
85.17138671875 -44.595947265625 20.5806884765625
-22.15185546875 8.6627197265625 9.2564697265625
85.947021484375 -39.4263916015625 19.787353515625
55.27392578125 -1.6290283203125 13.4283447265625
34.10107421875 0.4158935546875 10.9302978515625
28.27734375 1.2578125 10.332275390625
100.999267578125 -29.0067138671875 20.5208740234375
-79.69482421875 -37.711669921875 23.4827880859375
45.015380859375 25.7325439453125 -2.330322265625
-8.768798828125 15.747314453125 6.4564208984375
51.21923828125 23.0081787109375 -2.518798828125
-38.995361328125 -13.6993408203125 17.586669921875
5.651123046875 -10.453857421875 18.320556640625
92.25830078125 -21.552490234375 17.12109375
84.82763671875 -18.6436767578125 17.7291259765625
39.371337890625 2.798095703125 6.6387939453125
-78.021240234375 -32.5472412109375 15.7960205078125
29.86181640625 10.9730224609375 -1.6890869140625
82.4072265625 0.617919921875 -0.9326171875
31.41259765625 24.0184326171875 -2.2325439453125
35.49560546875 -5.8800048828125 18.7384033203125
-12.0068359375 -9.7535400390625 22.0908203125
77.62255859375 20.6875 -7.6082763671875
72.9052734375 16.14013671875 -6.6302490234375
66.52978515625 -27.99267578125 12.3736572265625
-82.998779296875 -41.1502685546875 29.9903564453125
-48.37939453125 4.5223388671875 16.756591796875
46.1552734375 21.6558837890625 3.291259765625
57.527099609375 -20.6878662109375 21.0186767578125
-28.227783203125 -11.3245849609375 23.642822265625
-22.405517578125 -12.4803466796875 24.79931640625
68.0849609375 -42.0850830078125 23.6805419921875
0.253173828125 -6.9046630859375 18.51416015625
96.001708984375 -22.9840087890625 15.1622314453125
80.0166015625 24.677978515625 -9.2135009765625
49.3798828125 24.749755859375 -2.4451904296875
-5.347900390625 32.578857421875 4.4637451171875
-19.69677734375 -2.0050048828125 14.267578125
81.539306640625 35.3326416015625 -12.124267578125
11.01806640625 -1.1807861328125 14.6917724609375
101.229248046875 -20.97412109375 10.4522705078125
-17.306396484375 -10.687255859375 22.648681640625
24.044189453125 -6.1451416015625 19.5382080078125
41.142822265625 -0.49951171875 11.4063720703125
59.73681640625 -34.332763671875 23.62451171875
82.85546875 22.3011474609375 -6.08984375
36.8583984375 38.4647216796875 -2.5062255859375
78.511474609375 6.9385986328125 -3.74169921875
-81.54052734375 -39.0697021484375 26.4315185546875
42.60791015625 8.9705810546875 -0.303466796875
48.81591796875 42.4820556640625 -2.36083984375
53.650390625 42.6363525390625 -2.8204345703125
-40.375 -13.7288818359375 22.314697265625
61.214111328125 -37.2044677734375 24.0281982421875
70.47265625 16.2310791015625 -7.8529052734375
-82.029541015625 -23.90478515625 19.77734375
73.932861328125 6.1666259765625 -1.1986083984375
6.400634765625 8.0306396484375 14.26708984375
59.9169921875 -18.9315185546875 19.9708251953125
30.169677734375 39.294677734375 -1.7735595703125
69.637451171875 -42.2877197265625 16.8909912109375
66.593505859375 -1.94189453125 4.472900390625
79.4443359375 -5.44775390625 2.179931640625
70.698974609375 -35.0916748046875 8.7042236328125
38.23779296875 -1.181640625 13.160888671875
95.17822265625 -5.49169921875 -2.233642578125
-23.371337890625 16.992919921875 7.869140625
-30.41943359375 19.335693359375 8.104736328125
-15.150390625 14.195556640625 7.61083984375
5.275390625 3.0809326171875 12.8992919921875
66.464599609375 -15.3255615234375 10.2054443359375
80.81201171875 27.9913330078125 -10.45556640625
67.94677734375 24.7584228515625 -7.3541259765625
-27.645751953125 6.19677734375 8.739501953125
37.615966796875 13.104736328125 -0.770751953125
45.103515625 13.0477294921875 -1.6441650390625
71.03564453125 21.5531005859375 -9.2833251953125
-12.02294921875 -3.2066650390625 16.8685302734375
-50.60498046875 0.8990478515625 16.885986328125
83.499267578125 -26.5306396484375 10.5972900390625
-83.197021484375 -20.3709716796875 17.3858642578125
68.939453125 28.2257080078125 -10.5960693359375
7.8681640625 -9.0433349609375 12.8018798828125
67.12646484375 6.48486328125 -0.7740478515625
-88.2890625 -33.3489990234375 21.60986328125
75.989501953125 5.0841064453125 -3.2667236328125
-0.572509765625 12.1802978515625 6.3983154296875
-90.01416015625 -30.73486328125 16.608642578125
1.220703125 -11.446044921875 17.1025390625
0.917724609375 -2.610107421875 15.948486328125
67.862060546875 9.7869873046875 -3.5078125
72.53369140625 -14.0924072265625 9.32275390625
57.143798828125 -4.6005859375 16.6275634765625
100.796142578125 -18.9312744140625 8.59228515625
10.31689453125 -6.2891845703125 17.3173828125
98.2783203125 0.6112060546875 0.669189453125
62.44482421875 -32.2738037109375 12.737060546875
-23.5869140625 24.568115234375 8.07177734375
-49.1630859375 -3.0888671875 17.5853271484375
43.862548828125 41.06982421875 -1.87060546875
78.447021484375 1.966552734375 -0.958984375
87.326171875 -21.4725341796875 15.023193359375
47.346923828125 32.3819580078125 -2.3433837890625
64.01953125 -30.2734375 9.163818359375
34.736328125 10.1282958984375 -1.3076171875
-27.86376953125 12.63134765625 9.51953125
97.007080078125 2.0169677734375 6.921875
102.1767578125 -14.5986328125 3.0401611328125
82.732177734375 18.4532470703125 -5.0892333984375
51.060302734375 -3.1036376953125 15.2420654296875
67.102294921875 -41.600830078125 17.782470703125
11.328125 -3.853515625 17.1917724609375
27.46875 -0.854248046875 16.216064453125
86.765380859375 -31.506591796875 14.5576171875
70.052978515625 7.27099609375 -3.422119140625
77.19482421875 -18.1502685546875 8.5867919921875
82.78466796875 -0.963623046875 6.7406005859375
34.5810546875 40.5830078125 -2.626953125
44.862060546875 28.2408447265625 -2.3509521484375
-87.094970703125 -26.614501953125 23.1524658203125
38.539794921875 31.2210693359375 -2.6668701171875
-83.54248046875 -35.8985595703125 23.771240234375
98.324462890625 -23.045166015625 13.4986572265625
42.55419921875 24.2896728515625 -1.8194580078125
31.655029296875 37.223388671875 -1.571044921875
81.554443359375 11.11328125 -4.7227783203125
-6.785400390625 4.4105224609375 8.975341796875
89.879150390625 -31.3916015625 17.4180908203125
-9.094970703125 20.8746337890625 6.8443603515625
1.39794921875 -11.46044921875 22.02587890625
-39.6796875 -10.13330078125 13.75341796875
63.321044921875 -38.318115234375 19.08349609375
54.932373046875 33.91552734375 -2.2666015625
75.525390625 -32.5533447265625 6.2828369140625
95.7802734375 -17.666748046875 4.7366943359375
-6.66748046875 -9.529541015625 22.0211181640625
36.377197265625 33.0816650390625 -2.282470703125
35.41455078125 18.2265625 -1.822021484375
57.776611328125 -22.580322265625 18.34423828125
77.439453125 13.447021484375 -5.58154296875
15.97412109375 6.9715576171875 11.553955078125
73.21337890625 19.3955078125 -8.096923828125
-15.97021484375 -1.259033203125 14.3941650390625
-82.94189453125 -18.9071044921875 20.238037109375
42.98974609375 17.1427001953125 -1.99365234375
73.969482421875 -0.1871337890625 1.1790771484375
-43.731689453125 5.4798583984375 14.7454833984375
80.7919921875 -2.08349609375 2.5213623046875
-84.255615234375 -28.721435546875 19.5037841796875
97.3955078125 -9.5863037109375 -0.396484375
2.812255859375 -8.6348876953125 13.75244140625
15.728271484375 1.156494140625 14.61328125
1.320068359375 -8.34326171875 16.2957763671875
66.05908203125 -7.6781005859375 6.157958984375
68.73974609375 -44.611083984375 32.01318359375
74.426025390625 16.7069091796875 -4.710205078125
-4.337890625 18.1849365234375 5.3062744140625
-87.92041015625 -22.601806640625 19.2550048828125
-56.907470703125 -9.115478515625 23.7060546875
4.04248046875 4.7227783203125 14.160400390625
33.771240234375 8.55810546875 0.25244140625
60.830810546875 -32.51220703125 16.9661865234375
68.720458984375 -30.197509765625 8.436279296875
106.898193359375 -20.882080078125 9.910888671875
65.615234375 -37.5111083984375 15.531982421875
31.79541015625 -3.850830078125 16.4708251953125
90.818115234375 4.2515869140625 11.1519775390625
97.552490234375 -33.0208740234375 26.428955078125
95.3212890625 -3.12841796875 1.825927734375
72.281005859375 -33.92919921875 6.8707275390625
82.62353515625 -28.5633544921875 8.7857666015625
-88.6767578125 -35.031982421875 23.120849609375
-27.612060546875 -5.570068359375 17.03173828125
96.468505859375 -29.2144775390625 24.4586181640625
105.008056640625 -17.512451171875 8.191162109375
30.610595703125 8.6749267578125 -1.04052734375
46.326904296875 -3.884521484375 16.47265625
36.458740234375 30.478271484375 -2.531494140625
-24.72900390625 2.998291015625 10.8631591796875
-88.2451171875 -36.6558837890625 25.1173095703125
60.8447265625 -3.9920654296875 16.18994140625
83.452392578125 -41.333740234375 18.0867919921875
-16.380615234375 3.7010498046875 9.8433837890625
68.464111328125 -42.6156005859375 21.1224365234375
37.7861328125 3.9945068359375 4.8524169921875
-78.919677734375 -42.0196533203125 26.2794189453125
96.0048828125 -5.8233642578125 15.0142822265625
49.371826171875 -0.0050048828125 11.0750732421875
66.39111328125 2.452880859375 0.94873046875
-21.285400390625 0.29296875 13.412353515625
-30.109619140625 0.541748046875 16.3712158203125
-83.9296875 -22.583251953125 19.9603271484375
-49.876953125 -10.8662109375 25.9383544921875
4.31884765625 -14.3485107421875 17.4788818359375
-19.124755859375 25.9427490234375 7.494140625
-87.373291015625 -40.9749755859375 30.0120849609375
86.687744140625 -41.4302978515625 20.212890625
77.41162109375 29.4361572265625 -10.123779296875
28.258056640625 2.4495849609375 13.104736328125
58.999267578125 -29.1473388671875 20.6614990234375
83.44384765625 36.2801513671875 -11.6953125
-26.22705078125 -10.69775390625 23.0902099609375
52.397216796875 34.6468505859375 -2.7626953125
-81.998291015625 -33.9559326171875 21.75732421875
6.8544921875 -3.387451171875 15.2899169921875
29.74560546875 -1.1507568359375 13.8509521484375
20.453369140625 3.7412109375 10.929931640625
-81.79443359375 -21.1441650390625 21.271240234375
-35.809326171875 -7.43212890625 20.0067138671875
98.90087890625 -31.9427490234375 23.9093017578125
50.333984375 40.061279296875 -1.9205322265625
87.424072265625 -28.323974609375 14.12744140625
80.960693359375 31.0982666015625 -11.1199951171875
-2.606689453125 2.2449951171875 10.54541015625
58.940673828125 -31.3040771484375 24.04345703125
51.611083984375 -0.6781005859375 11.91015625
41.561279296875 -5.451171875 17.9090576171875
-29.8193359375 26.9598388671875 8.501953125
91.84130859375 -22.0599365234375 14.9503173828125
66.528564453125 -43.1676025390625 32.5477294921875
97.791748046875 -12.3555908203125 1.622802734375
29.296875 7.548095703125 0.5943603515625
-90.602783203125 -38.5916748046875 27.0850830078125
74.955078125 23.5321044921875 -8.020751953125
5.56640625 0.6929931640625 13.3236083984375
54.769287109375 21.3017578125 -2.351806640625
-7.755859375 -11.203369140625 23.512939453125
66.186279296875 -5.7518310546875 7.173583984375
61.048095703125 -25.427978515625 13.7427978515625
46.874267578125 23.2640380859375 -2.069091796875
-23.78759765625 0.98046875 12.625244140625
96.360595703125 -15.94873046875 3.4696044921875
-23.504638671875 21.460205078125 7.4949951171875
88.52587890625 -0.356689453125 11.0335693359375
68.513916015625 5.5245361328125 -2.492919921875
49.527099609375 28.678466796875 -1.9564208984375
-32.679443359375 -0.3515625 15.83935546875
1.939453125 -12.0308837890625 14.8780517578125
70.552978515625 -44.072265625 30.8590087890625
90.860595703125 -33.84619140625 23.439453125
52.578857421875 4.01708984375 3.546142578125
57.34228515625 1.447265625 6.6834716796875
72.86767578125 -27.029052734375 17.5386962890625
36.97216796875 43.5533447265625 -2.45361328125
60.7880859375 -30.4339599609375 13.375244140625
67.184326171875 -34.6036376953125 10.3499755859375
95.57958984375 -7.2086181640625 0.5662841796875
-75.38916015625 -18.0535888671875 30.34228515625
89.58935546875 3.302490234375 9.1871337890625
30.823486328125 5.6025390625 2.55615234375
-84.0263671875 -30.585693359375 18.33935546875
56.97802734375 35.7841796875 -1.612548828125
70.517822265625 11.807861328125 -6.130615234375
-28.7734375 1.7095947265625 19.2867431640625
71.421875 -30.7740478515625 8.1131591796875
16.39111328125 4.6361083984375 10.7232666015625
73.837646484375 -42.39892578125 27.33251953125
97.443115234375 -28.8868408203125 22.342041015625
-46.004150390625 -10.955322265625 24.42138671875
97.148193359375 -20.91015625 15.277587890625
-7.090576171875 18.7325439453125 5.492431640625
-23.411376953125 -6.42724609375 15.84130859375
8.410888671875 7.80615234375 12.237060546875
76.638916015625 36.1993408203125 -11.1669921875
55.029296875 38.5694580078125 -2.248291015625
72.612060546875 25.177001953125 -9.507080078125
42.524169921875 23.2005615234375 -0.025390625
-31.91748046875 2.7830810546875 16.774658203125
94.048583984375 -17.923583984375 3.4935302734375
76.217041015625 38.0380859375 -13.081298828125
91.201416015625 -35.7574462890625 26.279541015625
73.7939453125 -41.904541015625 15.534912109375
83.543701171875 -43.900390625 21.6868896484375
103.791259765625 -12.285888671875 1.04443359375
9.346435546875 -12.1783447265625 15.2562255859375
-90.8642578125 -23.1041259765625 23.7454833984375
28.78173828125 14.9049072265625 -1.0804443359375
-3.632568359375 1.03369140625 12.039306640625
106.67236328125 -24.01171875 15.8843994140625
93.768310546875 -27.3587646484375 17.487548828125
49.205078125 -24.37451171875 25.4769287109375
33.9267578125 21.0023193359375 -2.3568115234375
-79.816650390625 -32.762451171875 18.2513427734375
-6.65380859375 2.365234375 10.54052734375
61.93994140625 -28.5377197265625 11.0806884765625
-62.003173828125 -12.245361328125 27.112060546875
73.848388671875 -30.2401123046875 9.0452880859375
54.308349609375 26.5560302734375 -1.6761474609375
13.419677734375 -6.45703125 20.253173828125
54.1181640625 17.3524169921875 -1.71484375
-7.179931640625 0.1593017578125 12.9881591796875
-59.621826171875 -10.96826171875 25.8857421875
62.13134765625 -34.694091796875 16.602294921875
88.45703125 -30.920166015625 15.599365234375
97.339111328125 -18.5184326171875 8.1282958984375
58.514892578125 -26.2923583984375 22.180419921875
16.1064453125 8.7132568359375 13.250244140625
-11.1181640625 2.470947265625 10.4385986328125
52.40234375 36.5860595703125 -2.040283203125
83.050537109375 -36.0521240234375 13.8555908203125
28.1865234375 3.0439453125 9.2738037109375
73.578369140625 14.4857177734375 -5.240234375
-41.697998046875 5.8260498046875 14.71875
12.44140625 2.6588134765625 12.1575927734375
79.343994140625 -19.4031982421875 10.4892578125
-91.833984375 -28.5264892578125 17.2769775390625
-43.723876953125 -0.6986083984375 14.816162109375
7.138916015625 -11.478759765625 16.1029052734375
45.760498046875 -5.5430908203125 18.0621337890625
-17.525634765625 -12.3040771484375 24.4864501953125
-19.16845703125 21.5469970703125 6.8074951171875
4.81640625 -13.764404296875 21.5889892578125
-2.240478515625 20.076416015625 4.87451171875
40.93212890625 21.7933349609375 0.675537109375
-10.201416015625 -8.2393798828125 20.09619140625
-43.562744140625 -11.9959716796875 15.58837890625
65.759521484375 -9.5322265625 8.49853515625
75.125732421875 31.4937744140625 -11.5726318359375
42.663330078125 -2.180419921875 14.5982666015625
67.873291015625 22.458740234375 -6.756103515625
59.893310546875 -31.615966796875 19.0103759765625
-37.30224609375 -5.64599609375 17.136962890625
48.225830078125 -22.9091796875 24.42578125
-87.94091796875 -29.744140625 17.8568115234375
-23.7431640625 -8.1585693359375 17.083984375
-29.317626953125 3.22314453125 9.6998291015625
83.1982421875 31.58447265625 -9.5628662109375
40.992431640625 17.60107421875 -2.02392578125
46.74365234375 34.49609375 -2.3577880859375
-87.835693359375 -23.3421630859375 21.3599853515625
79.4306640625 -27.60986328125 12.4283447265625
-23.942626953125 -9.136962890625 21.3389892578125
28.378662109375 4.688232421875 7.7625732421875
27.692138671875 -2.943115234375 16.25830078125
-73.74169921875 -15.87841796875 29.2808837890625
-13.26123046875 -6.1689453125 18.081298828125
73.865966796875 -17.7755126953125 9.6492919921875
74.822265625 -5.8319091796875 3.2802734375
-29.337646484375 -8.7591552734375 20.498291015625
44.548095703125 5.118896484375 2.2537841796875
-86.211181640625 -20.8555908203125 20.084716796875
65.917236328125 -19.533935546875 16.59814453125
73.99169921875 -11.1678466796875 6.4156494140625
69.26611328125 -34.04150390625 7.705810546875
-11.8515625 20.6942138671875 7.3690185546875
80.93115234375 -34.973876953125 10.9326171875
-19.75732421875 31.0115966796875 6.270263671875
91.85400390625 -3.723388671875 14.4935302734375
-22.61962890625 28.470947265625 7.2608642578125
64.19775390625 -20.1512451171875 20.7197265625
-3.114990234375 6.9327392578125 8.04443359375
32.635498046875 41.8587646484375 -2.7230224609375
80.78173828125 20.8853759765625 -8.0335693359375
91.885498046875 1.163330078125 9.3067626953125
-14.641845703125 1.2525634765625 11.621826171875
54.49609375 29.73388671875 -2.208984375
-26.07470703125 19.079833984375 7.655029296875
-0.41162109375 4.845947265625 8.258544921875
3.027587890625 -2.9696044921875 16.4058837890625
-47.2294921875 1.0499267578125 14.783935546875
-42.83544921875 2.333251953125 13.9339599609375
56.648681640625 13.9915771484375 -1.6053466796875
67.39697265625 -9.0216064453125 4.3734130859375
33.322509765625 15.6187744140625 -1.0552978515625
71.056396484375 -9.983154296875 5.85205078125
84.11376953125 -2.7679443359375 12.48828125
-35.489990234375 -8.7734375 22.923583984375
53.7626953125 -3.772216796875 16.1884765625
-22.890869140625 -3.3260498046875 15.1368408203125
72.1513671875 -42.926513671875 22.3203125
60.60595703125 -21.885498046875 16.4324951171875
82.629638671875 -33.1077880859375 10.40478515625
46.615966796875 11.03857421875 -1.3087158203125
29.180908203125 20.5137939453125 -1.6688232421875
45.337646484375 8.041748046875 -0.38916015625
49.025634765625 12.4326171875 -1.9517822265625
101.879150390625 -23.2896728515625 12.984130859375
-46.143798828125 -10.8182373046875 19.9661865234375
11.051513671875 -8.2249755859375 19.5853271484375
66.54833984375 -20.6680908203125 13.71533203125
76.957763671875 26.055419921875 -9.0543212890625
31.688232421875 1.6337890625 9.0672607421875
-33.63525390625 -6.524658203125 20.5888671875
68.11572265625 -41.453857421875 28.88134765625
-42.12841796875 -9.783447265625 13.20849609375
30.168701171875 3.590576171875 5.5570068359375
30.27001953125 41.2735595703125 -2.140625
66.20263671875 -17.1220703125 17.97705078125
65.869873046875 -11.0323486328125 10.710693359375
11.68359375 9.322509765625 13.4639892578125
15.26416015625 -1.8980712890625 15.60546875
-42.155517578125 -11.6915283203125 16.9949951171875
69.026123046875 32.3818359375 -11.81982421875
27.89013671875 10.7066650390625 -1.386962890625
66.4501953125 -17.2313232421875 10.8486328125
86.216796875 -2.1356201171875 13.491943359375
59.74169921875 -28.8489990234375 14.7744140625
99.63916015625 -11.419189453125 0.7109375
48.6650390625 19.985595703125 -1.7427978515625
64.9609375 -4.5491943359375 16.1590576171875
5.625 -7.6395263671875 13.163818359375
-82.347900390625 -21.59375 19.222900390625
-52.28955078125 -0.9110107421875 20.74951171875
8.7353515625 -13.4429931640625 16.7230224609375
-2.447265625 4.8858642578125 8.1883544921875
-36.331787109375 1.1793212890625 14.9697265625
37.39111328125 22.2626953125 -2.041748046875
21.360107421875 -0.2664794921875 14.618896484375
86.726806640625 -33.1966552734375 16.2327880859375
-20.26904296875 1.08154296875 11.8800048828125
-18.07275390625 6.5609130859375 8.10986328125
97.39697265625 -26.30419921875 18.9898681640625
-10.314208984375 28.133056640625 5.887939453125
-17.4150390625 29.7125244140625 6.325439453125
-20.66162109375 27.5814208984375 7.2564697265625
74.2998046875 -23.9566650390625 13.176513671875
-80.122802734375 -21.3037109375 22.6090087890625
72.631103515625 6.5579833984375 -2.7969970703125
72.052490234375 -4.16259765625 3.0296630859375
67.437255859375 -12.8287353515625 7.162353515625
55.1513671875 4.434326171875 2.3778076171875
33.569091796875 11.68701171875 -1.7174072265625
105.8759765625 -18.7974853515625 9.807373046875
-2.8193359375 16.1678466796875 5.64306640625
-9.669677734375 12.3306884765625 7.438720703125
-14.990234375 19.1978759765625 6.31005859375
-23.92626953125 12.013916015625 9.210693359375
-10.805419921875 13.9395751953125 7.1611328125
-6.028564453125 14.8148193359375 6.370361328125
-81.670654296875 -31.015625 18.6097412109375
49.40283203125 31.9691162109375 -2.1776123046875
54.41064453125 7.1512451171875 0.262451171875
82.533203125 13.7952880859375 -4.0228271484375
101.248046875 -11.005859375 -0.6400146484375
7.145263671875 -10.7889404296875 13.9425048828125
87.2490234375 -34.830322265625 18.29931640625
-14.0546875 -3.5137939453125 17.034912109375
89.431640625 -32.4434814453125 20.0897216796875
-4.705810546875 2.211181640625 10.19775390625
-85.93408203125 -25.01611328125 21.4149169921875
43.803955078125 1.8564453125 8.184326171875
96.064697265625 -14.12841796875 0.92529296875
57.177734375 8.496337890625 -1.909912109375
37.48095703125 8.8885498046875 0.3255615234375
38.84521484375 14.568359375 -1.2916259765625
52.972412109375 12.584228515625 -2.4586181640625
72.96484375 10.59619140625 -4.469970703125
77.711669921875 -37.8482666015625 12.202880859375
66.207275390625 -33.162109375 9.3436279296875
-84.784912109375 -21.3885498046875 17.9822998046875
48.39208984375 36.334716796875 -3.0244140625
74.25537109375 36.281494140625 -13.439208984375
-77.24609375 -21.1490478515625 23.7308349609375
64.37646484375 -37.969482421875 17.0218505859375
49.240234375 15.2374267578125 -2.246826171875
-39.064453125 -4.754150390625 15.6044921875
75.29541015625 -29.5146484375 10.657958984375
50.738037109375 20.337890625 -1.777587890625
75.0322265625 -4.107666015625 2.0576171875
-77.735595703125 -24.189208984375 19.19287109375
-51.169189453125 2.131103515625 18.3092041015625
91.84619140625 -28.5938720703125 17.2490234375
-84.76318359375 -31.7978515625 20.05810546875
93.446044921875 -25.6158447265625 15.9835205078125
100.235107421875 -7.401611328125 -5.6239013671875
57.224609375 5.9127197265625 0.546875
78.308349609375 32.8369140625 -11.1015625
72.357666015625 2.933349609375 -1.0858154296875
-79.133056640625 -15.7860107421875 27.1326904296875
71.481201171875 -42.4852294921875 16.2637939453125
72.620849609375 -35.2359619140625 8.3631591796875
-15.291259765625 0.017333984375 13.0751953125
-48.95654296875 -6.6943359375 21.22412109375
-24.477783203125 -0.2918701171875 13.9407958984375
78.28759765625 15.3170166015625 -6.161376953125
-77.071044921875 -14.994140625 27.29736328125
95.873779296875 -1.357666015625 -0.66552734375
74.627197265625 -38.2373046875 11.75830078125
74.82421875 -28.249267578125 12.5255126953125
105.328369140625 -15.043212890625 4.9119873046875
12.0029296875 4.4102783203125 9.4716796875
71.181640625 -21.435791015625 12.900390625
-11.933837890625 -1.032470703125 14.161865234375
86.8837890625 -24.5604248046875 12.4549560546875
75.449951171875 7.14990234375 -1.931640625
-30.9970703125 -5.811279296875 18.8677978515625
-77.932373046875 -35.47509765625 19.015869140625
-17.44580078125 -9.373046875 21.245849609375
28.26171875 -4.70166015625 17.5751953125
-88.58837890625 -42.3905029296875 30.8203125
70.599365234375 1.7620849609375 -1.02734375
70.972412109375 -8.157470703125 4.9388427734375
61.83251953125 -38.39794921875 22.3837890625
2.01513671875 4.8017578125 14.2266845703125
66.397216796875 -16.76318359375 21.170654296875
83.068603515625 -24.1849365234375 17.00390625
-91.48583984375 -36.12548828125 23.14306640625
103.8359375 -28.4561767578125 23.3905029296875
-20.05810546875 23.9288330078125 7.665283203125
30.39111328125 12.9385986328125 -1.95849609375
-91.590576171875 -30.0625 15.7532958984375
85.072998046875 -41.1866455078125 19.096923828125
99.05615234375 -12.8677978515625 2.9666748046875
-89.34130859375 -23.031982421875 22.5009765625
-78.574951171875 -17.5545654296875 24.931884765625
-21.918212890625 4.3729248046875 10.1776123046875
-19.31591796875 10.8065185546875 8.370849609375
85.92236328125 0.4189453125 10.517333984375
76.69580078125 -27.1468505859375 14.017822265625
-29.01318359375 2.8087158203125 17.18896484375
70.634521484375 -40.0496826171875 14.062255859375
-34.64990234375 5.2332763671875 16.318115234375
58.234375 -28.296630859375 26.2047119140625
95.091796875 -20.4317626953125 15.2421875
61.10986328125 -35.5023193359375 20.3271484375
45.908203125 1.464599609375 8.4942626953125
-12.552734375 1.285400390625 11.9708251953125
67.401123046875 15.7047119140625 -4.5205078125
48.2255859375 6.8837890625 0.1639404296875
75.916015625 18.410400390625 -5.7738037109375
-40.251953125 6.954833984375 15.9307861328125
-38.058349609375 0.6634521484375 14.39892578125
71.7900390625 -36.093505859375 9.8841552734375
47.991943359375 38.2998046875 -2.26171875
71.353271484375 31.479736328125 -11.8646240234375
71.106689453125 -15.319580078125 9.1943359375
61.518798828125 -20.4896240234375 18.9256591796875
70.846435546875 -37.3953857421875 11.2347412109375
90.011474609375 -26.5745849609375 14.92236328125
-2.0517578125 -8.049072265625 21.872314453125
69.833984375 -27.5555419921875 14.7823486328125
-73.718994140625 -13.6793212890625 28.098388671875
78.9453125 -41.2215576171875 15.8204345703125
105.71826171875 -19.9195556640625 11.9765625
-40.213623046875 -9.673583984375 15.495849609375
101.301025390625 -9.7340087890625 -2.022705078125
67.712646484375 -21.0517578125 12.2911376953125
58.00244140625 -23.954833984375 19.6053466796875
75.9794921875 -40.631591796875 14.1865234375
-35.4345703125 -4.184814453125 18.2138671875
78.2421875 -28.9383544921875 11.8377685546875
8.293212890625 5.6866455078125 10.6507568359375
-79.759033203125 -36.463134765625 21.691162109375
86.891357421875 -3.5113525390625 14.71142578125
-49.148681640625 -9.211181640625 24.347412109375
78.61669921875 -14.188232421875 6.4888916015625
59.0537109375 -28.5386962890625 17.856689453125
17.8837890625 6.3878173828125 11.169921875
49.193603515625 2.501708984375 6.615966796875
98.20947265625 -8.28125 -3.0751953125
29.81494140625 34.29248046875 -2.8717041015625
98.794189453125 -6.20654296875 -4.4217529296875
77.5810546875 -42.800537109375 26.0411376953125
67.75048828125 18.6258544921875 -5.759521484375
28.0146484375 7.5670166015625 1.9365234375
62.156005859375 -37.581787109375 20.4256591796875
-81.308837890625 -29.7255859375 17.21142578125
79.789306640625 11.43115234375 -5.194091796875
98.90869140625 1.2684326171875 -5.6051025390625
82.88525390625 -2.943603515625 10.178955078125
27.810302734375 -1.348388671875 14.4403076171875
-20.112060546875 -7.3582763671875 19.045166015625
-15.8154296875 21.6571044921875 7.44091796875
71.258056640625 9.4609375 -4.2755126953125
54.4970703125 10.9583740234375 -2.222900390625
78.998046875 -16.2088623046875 8.33349609375
96.780517578125 -24.451416015625 14.353515625
81.902099609375 -41.06396484375 17.1204833984375
-27.269287109375 -15.2552490234375 26.3983154296875
-1.615234375 3.4144287109375 8.9189453125
59.4677734375 -33.176513671875 25.0914306640625
99.65625 -33.343505859375 25.298828125
72.46240234375 -41.9237060546875 29.4427490234375
-79.707275390625 -25.507568359375 20.2088623046875
-36.444091796875 -8.8868408203125 19.081298828125
-85.5751953125 -22.739990234375 19.01220703125
-28.55615234375 1.22265625 12.9776611328125
52.685302734375 25.0780029296875 -2.4683837890625
-92.284423828125 -22.769287109375 26.834716796875
66.600341796875 -9.7957763671875 6.02880859375
-76.386474609375 -18.176513671875 27.87841796875
-91.20849609375 -32.119873046875 17.395751953125
-28.639892578125 1.732666015625 14.826171875
52.307373046875 7.1513671875 0.061279296875
56.69140625 39.2982177734375 -2.47900390625
4.03369140625 -0.2647705078125 14.2103271484375
69.15771484375 -37.111572265625 12.27001953125
-86.169189453125 -39.588134765625 29.0623779296875
-6.006103515625 -3.134033203125 16.2896728515625
68.53759765625 17.110107421875 -7.8486328125
42.06884765625 5.52783203125 1.991943359375
-77.938232421875 -18.730224609375 23.4945068359375
-13.675048828125 -14.2403564453125 23.904052734375
-40.317138671875 -7.301513671875 13.551513671875
-29.21923828125 -1.830810546875 15.3524169921875
-85.901611328125 -32.668701171875 21.447509765625
88.44189453125 -34.8115234375 20.4996337890625
9.413330078125 -0.3465576171875 14.5146484375
62.29931640625 -33.338623046875 15.3150634765625
88.769775390625 -37.1915283203125 21.0706787109375
-16.685791015625 -4.4384765625 16.3603515625
-80.727294921875 -37.6387939453125 25.669677734375
-89.422607421875 -37.622802734375 26.1002197265625
-21.358154296875 -2.756591796875 14.35400390625
96.811767578125 -22.38427734375 12.5762939453125
0.4990234375 -7.7532958984375 20.0950927734375
67.69287109375 -1.982421875 1.4788818359375
44.967529296875 -1.6519775390625 13.7232666015625
-46.693359375 -7.786376953125 20.4720458984375
-28.09814453125 -17.4871826171875 27.3798828125
-24.8359375 -16.11181640625 26.640625
56.97412109375 22.8953857421875 -2.417724609375
32.878173828125 -1.0240478515625 13.137939453125
84.871826171875 -4.931640625 15.472900390625
99.27490234375 1.4288330078125 -3.5921630859375
51.97607421875 16.1920166015625 -1.614990234375
20.947021484375 -4.7398681640625 18.1409912109375
-91.328125 -39.0384521484375 28.7823486328125
70.722900390625 -25.74462890625 15.60205078125
36.02001953125 -0.50830078125 12.324462890625
-29.85302734375 -12.0098876953125 24.01123046875
-45.11279296875 -12.28466796875 22.506591796875
98.928466796875 -35.3603515625 27.5091552734375
95.644287109375 -2.55224609375 -1.9910888671875
-35.177734375 -2.602294921875 16.4085693359375
83.4951171875 -38.1011962890625 15.8642578125
-28.38427734375 -9.6912841796875 21.8536376953125
82.363037109375 6.909423828125 -2.08740234375
74.32763671875 12.13720703125 -3.3773193359375
44.73486328125 -4.5372314453125 16.9852294921875
30.78125 -2.108154296875 15.05712890625
22.768798828125 -2.7701416015625 16.3321533203125
-52.27685546875 -3.87890625 18.91552734375
88.547607421875 1.958984375 10.281005859375
48.618408203125 0.84814453125 9.5587158203125
80.665771484375 -40.48486328125 15.734375
-26.26171875 -7.9945068359375 19.0184326171875
-51.683349609375 0.1085205078125 18.4315185546875
-15.128173828125 7.39794921875 8.44677734375
10.773193359375 -2.4915771484375 15.9813232421875
-52.19677734375 -1.9111328125 18.5538330078125
58.68896484375 -3.9835205078125 15.97216796875
-15.607177734375 -11.03271484375 23.156005859375
-37.349365234375 -12.3203125 20.0684814453125
57.118896484375 12.168212890625 -2.094970703125
76.027099609375 20.37158203125 -6.1395263671875
-8.826904296875 24.9490966796875 6.52734375
40.87646484375 38.6640625 -2.8818359375
-27.40283203125 27.978515625 7.9542236328125
-7.513671875 28.7421875 5.399658203125
-4.92333984375 22.783935546875 6.619140625
-7.055419921875 30.650390625 4.8564453125
46.243896484375 20.156982421875 1.2237548828125
63.526611328125 -27.59375 11.86572265625
-31.73583984375 24.2611083984375 7.7535400390625
72.01416015625 -39.1212158203125 12.901123046875
70.492431640625 4.296630859375 -2.263427734375
-4.578857421875 -1.1951904296875 14.39892578125
69.03662109375 -38.8243408203125 13.7857666015625
49.296630859375 8.5765380859375 -0.995849609375
77.26025390625 -32.1759033203125 6.4293212890625
-79.057373046875 -22.040283203125 21.3253173828125
-81.702880859375 -28.3350830078125 16.172119140625
17.2861328125 -4.9544677734375 18.4744873046875
77.6865234375 -4.7275390625 1.599853515625
-2.17724609375 11.5037841796875 6.761962890625
-11.435302734375 18.988525390625 5.942138671875
-27.123046875 11.045654296875 9.8380126953125
-4.892822265625 13.205810546875 6.64794921875
-23.185546875 10.42822265625 9.5291748046875
100.447265625 -26.981689453125 18.328369140625
-13.447265625 17.950439453125 6.44677734375
-6.49755859375 12.529296875 7.0115966796875
66.080810546875 -18.191650390625 15.302001953125
94.017578125 -15.45361328125 0.3067626953125
35.10302734375 2.3955078125 7.7047119140625
46.388671875 6.002197265625 1.2078857421875
52.563720703125 18.214599609375 -1.7513427734375
80.188232421875 3.8714599609375 -1.3524169921875
-42.398681640625 -7.7435302734375 13.1650390625
39.735107421875 0.512939453125 10.3907470703125
84.150390625 -42.9666748046875 18.2677001953125
66.60595703125 -5.2708740234375 4.413818359375
79.694091796875 -34.7979736328125 9.6708984375
84.451171875 -30.2830810546875 8.70654296875
99.29833984375 -20.4344482421875 10.697509765625
38.22119140625 18.489013671875 -2.072509765625
85.247802734375 -44.6224365234375 18.4073486328125
81.5224609375 -36.926513671875 13.3427734375
96.208984375 -20.1810302734375 11.3084716796875
33.865234375 19.0858154296875 -1.8585205078125
52.05078125 8.414306640625 -1.2808837890625
58.62841796875 -18.6048583984375 21.1417236328125
68.831787109375 14.03271484375 -7.094970703125
75.35546875 -12.171142578125 5.90283203125
96.458251953125 -25.8065185546875 17.3985595703125
81.93505859375 -27.181396484375 11.1024169921875
-88.603759765625 -38.953857421875 27.688232421875
-83.484130859375 -38.5433349609375 26.6766357421875
90.41064453125 -24.0413818359375 15.1597900390625
72.9697265625 32.91455078125 -12.4239501953125
67.744873046875 -22.26318359375 14.1363525390625
66.094970703125 -29.2996826171875 10.1773681640625
94.474365234375 -13.34228515625 -2.5274658203125
-43.7548828125 -9.0643310546875 12.6219482421875
95.661376953125 3.4375 7.340087890625
77.056884765625 16.8377685546875 -6.7042236328125
-80.02587890625 -40.0096435546875 26.044677734375
-10.94970703125 -1.94580078125 15.4996337890625
-85.095703125 -35.07080078125 23.594970703125
95.488037109375 1.4058837890625 7.5697021484375
38.320068359375 28.0086669921875 -2.270263671875
44.064697265625 22.7431640625 1.2757568359375
70.63818359375 -23.8902587890625 14.6732177734375
76.89892578125 8.8707275390625 -4.3448486328125
59.010009765625 -30.389404296875 22.5433349609375
71.64013671875 -32.2926025390625 6.826416015625
-31.439453125 -10.7811279296875 23.7298583984375
33.041015625 4.9859619140625 3.502197265625
-85.79248046875 -27.8690185546875 19.4676513671875
-78.6025390625 -39.0343017578125 23.099609375
37.5341796875 -5.2139892578125 18.325927734375
-81.265869140625 -32.736083984375 20.03076171875
26.604248046875 -3.8978271484375 17.2542724609375
0.476806640625 0.6002197265625 12.423828125
8.35693359375 -7.778564453125 14.5516357421875
65.494873046875 -20.7591552734375 18.36669921875
43.393310546875 22.595703125 3.3780517578125
-39.7509765625 5.2850341796875 14.474853515625
78.935302734375 38.6051025390625 -12.5045166015625
4.036376953125 -10.532958984375 14.5498046875
-4.739501953125 0.0933837890625 13.02001953125
4.714111328125 -12.5010986328125 16.6524658203125
48.503662109375 4.5213623046875 3.4462890625
35.777587890625 -2.5972900390625 15.3662109375
