83.6552734375 -22.05908203125 17.779052734375
71.522216796875 -27.592529296875 11.25390625
66.374267578125 -19.965576171875 21.1142578125
62.701904296875 -27.443359375 15.4080810546875
71.67724609375 0.060546875 6.8609619140625
82.85888671875 2.1605224609375 10.8900146484375
67.242431640625 -26.0384521484375 13.7083740234375
75.107666015625 -7.0523681640625 10.0552978515625
77.902099609375 16.8590087890625 -0.6165771484375
81.18310546875 51.6470947265625 -8.248779296875
77.0146484375 -27.048095703125 11.5230712890625
67.711669921875 -29.464599609375 12.8043212890625
67.585693359375 3.4149169921875 8.0062255859375
89.23291015625 -30.143798828125 25.8397216796875
58.22509765625 6.2264404296875 12.26171875
83.094482421875 17.2100830078125 0.0284423828125
97.3349609375 -17.21826171875 13.53662109375
69.1484375 -19.553466796875 18.0631103515625
73.65185546875 -17.562744140625 17.123046875
50.803466796875 8.0673828125 10.0693359375
63.5546875 -21.1480712890625 20.5731201171875
77.973876953125 31.781005859375 -2.6993408203125
-85.7421875 -33.722900390625 37.585693359375
73.06982421875 -2.9573974609375 9.7110595703125
73.14453125 52.02099609375 -10.390869140625
37.617919921875 26.415283203125 4.6798095703125
67.141357421875 -35.3590087890625 19.5416259765625
98.93212890625 2.4967041015625 -0.338134765625
71.3984375 20.7586669921875 -0.8709716796875
72.56689453125 24.3218994140625 -2.42724609375
81.904541015625 8.44189453125 3.50830078125
33.357666015625 9.6466064453125 9.67724609375
-86.16943359375 -23.0302734375 26.213623046875
68.144287109375 -37.5782470703125 20.9481201171875
60.037353515625 -22.718017578125 17.9776611328125
80.65673828125 15.562255859375 -0.421142578125
29.78369140625 21.1336669921875 4.9443359375
82.85107421875 28.354248046875 -3.7818603515625
-83.547607421875 -17.9437255859375 30.6123046875
49.366943359375 6.7725830078125 12.647216796875
75.536865234375 1.843994140625 6.645263671875
69.030517578125 8.52001953125 2.9716796875
83.960693359375 13.1524658203125 1.70654296875
71.160888671875 43.0848388671875 -7.9365234375
83.340576171875 46.5906982421875 -8.2822265625
77.162109375 38.4166259765625 -6.4234619140625
96.948486328125 -22.7862548828125 17.8743896484375
98.957275390625 -8.8729248046875 6.05224609375
76.106689453125 -22.4583740234375 17.7359619140625
93.463623046875 -19.131103515625 20.587646484375
73.42236328125 5.2244873046875 5.1473388671875
95.807373046875 -4.4117431640625 3.7203369140625
63.499267578125 -30.2535400390625 17.7091064453125
77.2275390625 54.0670166015625 -11.14501953125
62.581298828125 -23.672119140625 16.048583984375
47.48974609375 25.3812255859375 4.101806640625
-80.12158203125 -17.3587646484375 28.537841796875
76.06982421875 29.8489990234375 -3.8878173828125
96.390380859375 -12.6658935546875 8.31201171875
64.35546875 -36.973388671875 22.9974365234375
55.85498046875 15.3944091796875 4.88916015625
80.373046875 41.14306640625 -6.479248046875
76.8076171875 24.5914306640625 -0.902099609375
94.761474609375 -7.9403076171875 2.3309326171875
49.7578125 10.1761474609375 7.0848388671875
29.214599609375 10.843017578125 8.8203125
72.505859375 -26.3564453125 13.623779296875
-76.766357421875 -17.5623779296875 26.5147705078125
-86.554931640625 -14.478759765625 29.0867919921875
70.214599609375 -35.1097412109375 17.5625
-79.34814453125 -22.7742919921875 23.47607421875
44.100341796875 18.1181640625 3.8902587890625
105.447998046875 -12.17578125 8.996826171875
77.21435546875 42.0955810546875 -7.701416015625
36.862060546875 7.12353515625 13.150146484375
94.10498046875 -23.0760498046875 21.54541015625
85.742919921875 -26.59814453125 16.110107421875
78.59130859375 -25.5291748046875 15.388916015625
100.936279296875 -3.8974609375 -1.2042236328125
74.27490234375 -29.87646484375 10.652099609375
78.731689453125 47.7362060546875 -7.8887939453125
71.854248046875 36.0792236328125 -6.7337646484375
-83.115478515625 -22.656494140625 24.981201171875
51.041748046875 21.12646484375 4.123779296875
79.980712890625 -18.442138671875 16.5755615234375
95.131103515625 -0.5692138671875 5.892822265625
76.980712890625 14.184814453125 1.2891845703125
98.547119140625 -19.5001220703125 16.447021484375
87.592041015625 -28.38623046875 21.84033203125
-90.225341796875 -35.4898681640625 37.2984619140625
75.023681640625 44.579833984375 -9.11279296875
72.8779296875 7.734619140625 3.7744140625
106.6787109375 -16.8558349609375 13.786376953125
74.87646484375 -25.1041259765625 16.415283203125
-89.8193359375 -23.2274169921875 24.0693359375
79.38232421875 30.8509521484375 -4.148193359375
58.556640625 14.7874755859375 4.643798828125
-84.195068359375 -25.4083251953125 28.916015625
83.86572265625 -20.73876953125 20.176025390625
82.798095703125 37.41015625 -6.26708984375
82.96142578125 40.4561767578125 -6.981689453125
84.34375 -28.3243408203125 15.207763671875
76.8681640625 -6.2115478515625 8.8753662109375
88.972412109375 -21.409423828125 18.389404296875
81.98828125 -23.332275390625 17.1004638671875
63.73046875 -27.103515625 13.419189453125
97.364501953125 -0.7105712890625 1.0496826171875
74.943359375 -32.909912109375 13.73486328125
65.607666015625 -33.712158203125 19.2362060546875
78.665771484375 0.94970703125 5.374267578125
32.914306640625 27.4884033203125 4.8101806640625
74.302001953125 -11.960205078125 13.2149658203125
58.22802734375 -20.700439453125 23.1944580078125
-86.5478515625 -26.304931640625 29.74169921875
66.95263671875 -11.2879638671875 14.402587890625
70.487548828125 -38.908203125 21.0673828125
72.730224609375 -31.3851318359375 12.6751708984375
-86.792724609375 -20.975830078125 26.4085693359375
-82.51513671875 -20.2174072265625 25.486572265625
99.9912109375 -5.9014892578125 0.2542724609375
-78.30029296875 -32.5770263671875 30.718994140625
96.3154296875 -15.614501953125 11.37060546875
84.443115234375 -30.6983642578125 17.5245361328125
74.593505859375 16.9072265625 0.425048828125
-84.22509765625 -28.8363037109375 31.8701171875
-38.70556640625 -4.63671875 21.9642333984375
81.364013671875 -24.240966796875 14.5545654296875
85.29345703125 -21.6319580078125 16.3961181640625
-90.487060546875 -26.8433837890625 29.845458984375
49.36181640625 17.1527099609375 4.2391357421875
47.66845703125 13.882080078125 5.3677978515625
51.056640625 25.51220703125 3.71337890625
77.157470703125 60.8851318359375 -12.827392578125
-82.2890625 -27.97705078125 30.6749267578125
44.92236328125 8.1671142578125 10.8804931640625
43.403076171875 13.890625 4.6573486328125
94.59521484375 -19.313232421875 12.6033935546875
68.22314453125 -27.2054443359375 12.218994140625
-83.869140625 -36.0921630859375 38.4482421875
74.398681640625 -15.6458740234375 14.933349609375
78.63427734375 -9.9434814453125 10.65625
85.923095703125 46.220458984375 -6.664794921875
84.291015625 -35.262451171875 21.1387939453125
99.488525390625 4.266845703125 -2.70751953125
58.822509765625 12.4620361328125 5.134033203125
-83.83740234375 -32.9449462890625 35.81494140625
84.82177734375 -40.5494384765625 23.47412109375
79.04443359375 7.1883544921875 2.8775634765625
79.711181640625 38.7435302734375 -5.111083984375
77.309326171875 27.5755615234375 -1.7969970703125
68.94384765625 19.3916015625 -0.358154296875
3.419921875 -6.4378662109375 20.5247802734375
70.70458984375 15.079345703125 0.5166015625
68.052734375 2.4859619140625 6.0897216796875
88.677978515625 -28.4847412109375 23.6959228515625
87.00048828125 -20.716064453125 17.3016357421875
73.1494140625 -37.122314453125 18.494384765625
80.777587890625 -20.6708984375 19.68701171875
79.738037109375 12.9583740234375 0.3001708984375
72.4560546875 -19.4844970703125 19.2353515625
89.2431640625 -24.8497314453125 21.5662841796875
-80.139892578125 -27.1409912109375 27.2950439453125
86.920166015625 -31.5179443359375 22.3419189453125
75.146728515625 54.0938720703125 -11.289794921875
74.174072265625 31.5301513671875 -5.306884765625
44.8056640625 12.1641845703125 6.0174560546875
41.31494140625 6.516357421875 13.251220703125
47.61328125 18.5648193359375 4.6053466796875
78.175537109375 10.0589599609375 2.788818359375
67.96435546875 -32.470703125 15.95068359375
79.779052734375 24.6563720703125 -2.9439697265625
70.37841796875 -13.50634765625 14.42041015625
43.3837890625 10.93603515625 7.2294921875
66.73046875 -3.7008056640625 11.9669189453125
49.61279296875 12.9931640625 5.4400634765625
30.16552734375 25.471435546875 4.488525390625
67.51513671875 -23.453125 18.4298095703125
101.397705078125 -22.341552734375 17.2943115234375
75.89208984375 33.7203369140625 -5.9027099609375
-88.21533203125 -35.8514404296875 38.272216796875
74.96435546875 57.9185791015625 -12.132080078125
75.6240234375 -19.4666748046875 16.375244140625
85.864990234375 -35.368896484375 23.2135009765625
67.1611328125 -7.7039794921875 12.368408203125
98.83935546875 3.71728515625 4.2459716796875
-90.514892578125 -23.96533203125 26.1846923828125
53.7705078125 6.4830322265625 12.386962890625
-79.73095703125 -30.5274658203125 30.601318359375
77.340576171875 -31.954833984375 13.17822265625
75.5146484375 -0.392333984375 7.4510498046875
82.29150390625 -37.2069091796875 20.958740234375
79.921142578125 20.0552978515625 -1.919677734375
95.410888671875 -20.2979736328125 19.505859375
-88.0966796875 -24.20556640625 27.7569580078125
73.117431640625 -23.763427734375 20.4149169921875
84.33837890625 -24.5762939453125 13.7628173828125
92.035888671875 -19.7545166015625 19.2509765625
47.4033203125 9.9864501953125 7.4617919921875
55.041259765625 21.2606201171875 3.8197021484375
72.204345703125 33.816650390625 -4.8216552734375
38.512451171875 21.3372802734375 4.243408203125
82.917724609375 -32.2646484375 17.348388671875
75.446044921875 -8.975341796875 10.592041015625
66.037109375 -29.5411376953125 13.9390869140625
-82.362548828125 -16.651123046875 29.421875
-85.69140625 -27.18701171875 31.7037353515625
82.46337890625 44.75048828125 -7.7401123046875
74.865966796875 9.369384765625 4.1488037109375
97.31298828125 -7.0596923828125 6.4647216796875
67.90966796875 7.7005615234375 7.283203125
56.750732421875 22.352783203125 3.6231689453125
45.66455078125 6.9306640625 12.54052734375
72.2900390625 -7.3546142578125 11.5618896484375
-88.1064453125 -32.23291015625 36.1119384765625
56.427490234375 11.5078125 5.690185546875
68.750244140625 15.48193359375 3.0408935546875
3.79736328125 -3.196044921875 18.846923828125
54.9541015625 13.1651611328125 5.52294921875
-81.4990234375 -34.5059814453125 36.8671875
51.283447265625 19.1475830078125 4.3919677734375
52.546142578125 10.3675537109375 6.7928466796875
103.169677734375 -24.2078857421875 22.5162353515625
-80.249755859375 -21.1632080078125 25.3800048828125
77.01806640625 2.1300048828125 4.8994140625
81.500244140625 -27.30224609375 11.5323486328125
71.74072265625 10.86279296875 1.6181640625
71.56591796875 -4.54931640625 9.54541015625
42.557373046875 7.9765625 11.259033203125
31.80224609375 22.496826171875 4.3486328125
30.924560546875 13.390625 6.5401611328125
72.625244140625 50.8702392578125 -7.8800048828125
72.804931640625 17.9654541015625 -0.4364013671875
55.236572265625 19.244873046875 3.9560546875
71.853515625 -33.9197998046875 15.8758544921875
70.934326171875 -25.1658935546875 16.98828125
61.58935546875 -20.4833984375 19.3460693359375
80.28271484375 43.96728515625 -6.669921875
78.460205078125 -2.980712890625 7.473388671875
76.530029296875 -4.2919921875 8.33984375
-78.00439453125 -19.4554443359375 22.674560546875
96.99853515625 -3.7449951171875 0.189208984375
-87.0712890625 -17.736572265625 30.6273193359375
72.276123046875 47.6600341796875 -8.8438720703125
-79.1484375 -14.9754638671875 28.7314453125
78.426025390625 -23.4267578125 17.626953125
97.4267578125 -13.8687744140625 10.369384765625
67.475341796875 0.2110595703125 11.4200439453125
77.231689453125 -14.201416015625 13.0103759765625
84.168701171875 53.839111328125 -9.8992919921875
84.436279296875 49.703369140625 -8.706787109375
84.110595703125 11.6058349609375 4.9881591796875
70.197021484375 34.625732421875 -3.848388671875
66.70068359375 -13.0406494140625 15.5830078125
105.18994140625 -15.0159912109375 12.5244140625
74.8427734375 -2.857666015625 8.8447265625
75.1806640625 15.1783447265625 1.6116943359375
86.634033203125 -19.075927734375 19.1019287109375
85.632080078125 -37.74951171875 23.4827880859375
-88.435546875 -21.108154296875 25.2412109375
80.268798828125 -4.0765380859375 8.35205078125
73.012451171875 56.9959716796875 -10.3428955078125
70.197021484375 -10.6260986328125 12.7498779296875
48.364013671875 21.3875732421875 4.5908203125
61.08837890625 -26.4920654296875 17.642822265625
75.748046875 5.763916015625 4.5482177734375
68.97265625 26.31298828125 -1.787841796875
35.43115234375 17.6080322265625 4.94384765625
-89.763916015625 -16.80517578125 30.50634765625
69.9306640625 22.4095458984375 -1.03759765625
65.069580078125 -25.386962890625 14.310546875
53.09228515625 22.149169921875 3.74755859375
-81.556884765625 -24.745361328125 26.9521484375
71.2412109375 -36.938232421875 18.8719482421875
34.4736328125 7.283935546875 13.3038330078125
75.20703125 47.993408203125 -9.91357421875
72.382568359375 38.702392578125 -7.4041748046875
102.59326171875 -20.160888671875 16.3262939453125
63.849365234375 -36.5574951171875 25.087158203125
-39.428955078125 -5.920166015625 23.2373046875
-79.4365234375 -24.63134765625 24.052490234375
67.487548828125 5.6407470703125 5.6005859375
81.41015625 10.251953125 2.579833984375
103.0478515625 -11.8582763671875 8.0745849609375
76.908447265625 -37.686279296875 18.8341064453125
79.464111328125 4.9627685546875 3.762939453125
79.36572265625 -38.0103759765625 20.053955078125
71.380615234375 42.1768798828125 -5.730224609375
51.378173828125 15.2249755859375 4.9759521484375
77.861328125 21.53515625 -1.380615234375
94.789306640625 -13.5345458984375 7.7012939453125
70.087890625 -29.8575439453125 11.533203125
79.544921875 26.6297607421875 -3.213134765625
76.359130859375 -34.9263916015625 16.2052001953125
-40.40673828125 -1.886962890625 19.5400390625
43.231689453125 19.9180908203125 4.3343505859375
74.444580078125 -35.8717041015625 16.987548828125
80.670654296875 -29.126708984375 12.2110595703125
68.97314453125 12.0855712890625 2.608642578125
-81.528076171875 -31.129150390625 33.3189697265625
41.30810546875 9.138671875 9.2532958984375
66.591796875 -9.4765625 15.088623046875
88.5078125 -23.146240234375 17.7906494140625
-91.2724609375 -29.45068359375 32.7183837890625
73.044189453125 -39.97265625 20.498046875
61.91796875 -32.97119140625 24.093017578125
80.20068359375 -8.326171875 10.9581298828125
67.954833984375 -20.34326171875 19.7666015625
56.208984375 7.1461181640625 10.698974609375
76.027587890625 46.159912109375 -9.179931640625
96.226806640625 -22.796630859375 21.4879150390625
83.675537109375 -26.3909912109375 12.6385498046875
53.14111328125 18.1873779296875 4.2000732421875
82.2119140625 19.039794921875 -0.846923828125
32.3212890625 10.5865478515625 8.4381103515625
77.906494140625 45.9483642578125 -8.3839111328125
66.3818359375 -23.08935546875 19.8594970703125
81.072998046875 -36.5723876953125 19.6353759765625
100.92041015625 -17.645751953125 14.329345703125
84.015869140625 42.801513671875 -7.2264404296875
60.683349609375 -29.50439453125 22.7261962890625
-42.9736328125 -5.3392333984375 23.168212890625
62.3623046875 -29.9063720703125 19.1304931640625
57.25048828125 8.8533935546875 8.089599609375
-80.073974609375 -33.4981689453125 33.9425048828125
102.36865234375 -7.9564208984375 3.88818359375
104.849853515625 -18.2991943359375 16.0390625
88.082275390625 -25.177490234375 19.6741943359375
84.76220703125 -18.8580322265625 19.6219482421875
58.35498046875 -20.390869140625 20.8369140625
60.594970703125 -32.25048828125 27.4609375
99.9404296875 -24.0509033203125 18.49658203125
70.71044921875 -32.5330810546875 14.396484375
71.751708984375 -22.3902587890625 20.7508544921875
86.615234375 -33.726806640625 23.49609375
102.41796875 -16.14892578125 12.27294921875
76.428955078125 -12.653564453125 12.4752197265625
53.083740234375 16.3128662109375 4.7802734375
99.180419921875 -21.31494140625 17.6793212890625
88.142822265625 -35.0015869140625 25.8651123046875
71.189697265625 31.1417236328125 -4.3607177734375
34.325439453125 25.413330078125 4.9346923828125
85.402587890625 -30.8519287109375 19.0751953125
81.27294921875 14.2139892578125 0.674072265625
83.811279296875 38.9912109375 -6.33251953125
75.36376953125 38.3421630859375 -6.876953125
56.210693359375 9.8311767578125 6.983154296875
77.572265625 51.4652099609375 -10.3138427734375
68.5048828125 -34.8333740234375 18.484619140625
82.137939453125 -29.6177978515625 14.1807861328125
46.950927734375 14.7451171875 3.96044921875
80.73779296875 -35.2113037109375 18.177001953125
-79.0712890625 -35.9503173828125 33.9190673828125
54.87744140625 25.486083984375 4.2078857421875
79.0986328125 -15.291015625 14.0369873046875
77.776611328125 57.0716552734375 -11.9049072265625
-87.31982421875 -28.9127197265625 32.6170654296875
73.60400390625 13.88623046875 1.105224609375
49.41455078125 24.8382568359375 3.9521484375
77.12060546875 4.0411376953125 4.4510498046875
60.50830078125 -31.7684326171875 25.687255859375
38.94287109375 11.1527099609375 7.2244873046875
69.274658203125 -2.746826171875 8.1331787109375
-80.345458984375 -29.820556640625 32.1253662109375
83.393310546875 30.2659912109375 -4.146728515625
99.675537109375 -10.97509765625 7.6104736328125
64.5234375 -20.1102294921875 21.8642578125
78.02880859375 -28.92431640625 10.487548828125
53.3505859375 24.554443359375 3.60546875
76.86669921875 -26.3021240234375 13.140625
79.53515625 10.906982421875 1.6710205078125
67.769287109375 9.1488037109375 5.05810546875
74.16015625 3.5699462890625 6.74365234375
79.81005859375 -12.0279541015625 12.4493408203125
80.38720703125 2.032470703125 5.1783447265625
67.0869140625 -0.325439453125 9.2216796875
56.796875 18.3880615234375 4.0760498046875
62.640380859375 -31.64208984375 20.6802978515625
-41.93017578125 -2.4281005859375 20.315185546875
107.327880859375 -18.335205078125 12.82421875
-79.123779296875 -26.823974609375 25.0758056640625
96.854248046875 -18.9783935546875 18.3916015625
71.9892578125 -16.35546875 16.6341552734375
83.395263671875 -33.9366455078125 19.3079833984375
-38.4443359375 -2.7158203125 19.88623046875
76.046630859375 25.8125 -2.3858642578125
59.845458984375 -26.07861328125 21.3143310546875
75.46728515625 42.0579833984375 -8.024658203125
73.166015625 20.1097412109375 -1.4107666015625
67.031982421875 -21.6107177734375 21.2430419921875
76.896484375 -10.28564453125 10.53564453125
79.162109375 -19.8980712890625 17.1724853515625
95.50244140625 -3.096923828125 2.439697265625
38.70703125 8.732177734375 10.3035888671875
-81.197998046875 -21.812255859375 23.8046875
95.8681640625 -18.389892578125 13.4102783203125
58.895263671875 -23.099853515625 19.7216796875
73.6513671875 12.0826416015625 1.946044921875
61.39208984375 -26.064208984375 15.8717041015625
101.3115234375 -6.9229736328125 2.923583984375
98.691162109375 -16.0999755859375 13.3909912109375
69.79296875 5.7977294921875 5.09130859375
75.4658203125 23.14111328125 -1.8427734375
81.326171875 -31.0654296875 14.7725830078125
-85.715576171875 -30.6099853515625 34.8182373046875
40.930908203125 23.415283203125 4.74462890625
-87.0283203125 -34.8905029296875 37.2967529296875
53.357421875 12.529052734375 5.8936767578125
39.1318359375 25.5228271484375 4.6678466796875
36.922607421875 28.0076904296875 4.4169921875
73.1865234375 53.8790283203125 -9.8050537109375
95.793212890625 1.15966796875 4.814453125
74.625 -21.528564453125 17.88525390625
71.908447265625 23.01123046875 -1.45458984375
-89.70361328125 -31.5296630859375 35.0072021484375
64.37158203125 -24.2945556640625 15.491455078125
81.033447265625 34.452392578125 -5.490966796875
75.015625 -27.880859375 10.8240966796875
73.7939453125 28.251953125 -2.765869140625
33.5146484375 18.148681640625 5.0928955078125
32.5966796875 15.5472412109375 5.8134765625
39.59033203125 15.3525390625 4.8660888671875
36.470703125 15.2275390625 5.3367919921875
59.518310546875 -26.2747802734375 24.27685546875
48.917724609375 7.9114990234375 10.6683349609375
77.963623046875 23.4407958984375 -1.82763671875
59.49755859375 -28.691162109375 26.5030517578125
-90.94482421875 -21.783447265625 23.0516357421875
-89.329345703125 -28.260009765625 31.1580810546875
98.524169921875 -5.753173828125 3.786376953125
66.095947265625 -30.7760009765625 15.8309326171875
73.073974609375 44.3597412109375 -8.786376953125
-79.044189453125 -33.4908447265625 32.046875
-79.969970703125 -18.2264404296875 26.254150390625
31.6552734375 7.443359375 13.3704833984375
78.406982421875 59.7877197265625 -12.3212890625
70.8720703125 -19.6026611328125 18.2808837890625
71.48291015625 16.8485107421875 -0.286376953125
100.68408203125 -0.2303466796875 -1.1312255859375
95.590576171875 -0.45703125 1.6817626953125
37.1455078125 10.337158203125 8.396484375
66.4013671875 -17.6903076171875 20.291259765625
45.759521484375 17.7158203125 4.183837890625
72.835205078125 -28.5810546875 10.7081298828125
99.451904296875 5.26953125 1.0059814453125
96.248779296875 -8.739013671875 4.3465576171875
91.8896484375 -22.4810791015625 19.890625
35.59326171875 11.9329833984375 6.5003662109375
81.524658203125 2.83203125 6.90185546875
100.844482421875 -18.973388671875 15.6988525390625
79.159423828125 35.724365234375 -4.3475341796875
30.0498046875 8.64013671875 11.404541015625
60.211181640625 -25.11376953125 18.1986083984375
78.867431640625 -31.8858642578125 13.9769287109375
-76.990966796875 -15.849609375 27.0260009765625
-82.64208984375 -26.5244140625 29.81591796875
71.84326171875 -1.31494140625 7.885986328125
81.937255859375 53.0203857421875 -8.9595947265625
67.916015625 -24.707275390625 16.4183349609375
83.128662109375 56.220703125 -10.29248046875
77.9306640625 -35.970703125 17.5550537109375
104.44482421875 -17.353515625 14.66943359375
56.258056640625 24.4788818359375 3.7987060546875
84.91455078125 52.2952880859375 -9.5089111328125
-81.187255859375 -27.509033203125 29.2550048828125
77.4638671875 33.1827392578125 -3.5302734375
67.06787109375 -3.30322265625 10.34423828125
76.888916015625 -40.0421142578125 30.454345703125
81.681884765625 -32.0281982421875 16.1282958984375
68.7841796875 -31.9896240234375 14.5462646484375
74.607666015625 0.98095703125 7.8587646484375
63.948486328125 -35.439208984375 22.4063720703125
68.318603515625 0.1605224609375 6.5799560546875
70.246337890625 -16.695068359375 16.508544921875
69.131591796875 -9.6116943359375 11.6317138671875
-79.2587890625 -36.9520263671875 37.3994140625
105.070068359375 -20.64013671875 18.51953125
76.107666015625 -30.241943359375 11.351318359375
97.606201171875 -23.572021484375 22.0826416015625
75.654296875 20.347412109375 -0.2139892578125
66.944091796875 -2.913330078125 13.548828125
59.09423828125 -24.4991455078125 24.8463134765625
46.488037109375 12.1387939453125 6.2235107421875
83.595458984375 27.482421875 -2.520751953125
-90.20458984375 -34.0989990234375 36.1002197265625
7.906005859375 -5.1649169921875 20.0450439453125
70.768798828125 -7.4656982421875 10.764404296875
73.988037109375 -14.126708984375 14.3480224609375
69.893310546875 -22.030029296875 20.0255126953125
48.672607421875 15.483642578125 3.9857177734375
101.779541015625 -13.4541015625 9.6580810546875
68.434814453125 17.455078125 1.320068359375
66.285400390625 -15.9935302734375 20.5283203125
74.21044921875 56.5545654296875 -11.426513671875
60.712646484375 -28.59716796875 21.161865234375
53.8984375 9.675048828125 7.49365234375
-84.96728515625 -23.6781005859375 27.3370361328125
81.309326171875 22.317138671875 -2.338623046875
75.683837890625 -15.556640625 13.83544921875
71.875244140625 -13.0474853515625 15.00048828125
-87.01708984375 -19.900146484375 27.77734375
58.127685546875 21.349609375 3.215087890625
74.380126953125 -5.9473876953125 11.0947265625
77.333740234375 37.09619140625 -5.4210205078125
70.038818359375 7.5108642578125 3.934814453125
68.290771484375 -6.2401123046875 10.2457275390625
83.525146484375 33.65673828125 -5.0810546875
49.981201171875 22.4058837890625 4.13037109375
70.541259765625 12.0333251953125 1.231201171875
95.03076171875 -16.6119384765625 19.3343505859375
36.654541015625 18.6544189453125 4.5328369140625
69.6650390625 17.459716796875 0.1236572265625
70.868896484375 25.3917236328125 -1.8475341796875
37.123046875 12.879150390625 5.7774658203125
44.694091796875 20.802734375 4.8040771484375
74.63623046875 -9.4132080078125 11.993896484375
82.84375 25.418212890625 -2.6766357421875
61.321533203125 -23.0032958984375 16.966552734375
6.078125 -4.54052734375 18.8287353515625
81.3857421875 50.002685546875 -8.1962890625
71.581787109375 1.8466796875 5.88134765625
69.52587890625 -18.093505859375 17.3779296875
-91.016845703125 -24.2349853515625 24.6097412109375
103.41552734375 -10.26123046875 6.326171875
74.96337890625 50.6802978515625 -10.489013671875
99.758544921875 -24.089111328125 20.2083740234375
66.520751953125 -12.2462158203125 17.22802734375
67.950439453125 -15.341552734375 16.52685546875
79.044189453125 18.2154541015625 -1.377685546875
51.474365234375 13.8363037109375 5.8638916015625
59.05029296875 -23.8907470703125 21.8343505859375
74.83447265625 35.7152099609375 -6.20556640625
72.574462890625 41.3984375 -7.8988037109375
96.75146484375 -11.45263671875 6.655517578125
80.96923828125 -0.207763671875 7.670654296875
79.927490234375 47.2945556640625 -6.644287109375
85.9306640625 -31.7501220703125 20.8651123046875
73.178955078125 55.69873046875 -9.3455810546875
97.5 -18.0458984375 15.35791015625
84.423828125 -38.6187744140625 22.7891845703125
85.879638671875 -29.3355712890625 18.663330078125
31.23095703125 19.1019287109375 5.2003173828125
57.914306640625 7.11669921875 10.91015625
98.786865234375 2.1800537109375 1.5081787109375
74.217041015625 26.0960693359375 -3.06396484375
80.5546875 31.858642578125 -4.6888427734375
68.1396484375 -1.14990234375 7.784423828125
99.22119140625 -13.8853759765625 10.7154541015625
71.612060546875 -9.8369140625 12.96533203125
78.53173828125 -6.280517578125 8.95068359375
104.81005859375 -22.2799072265625 18.470458984375
75.83251953125 -39.427978515625 19.97900390625
99.188232421875 2.875244140625 -1.914306640625
35.54736328125 8.9559326171875 10.5533447265625
95.06494140625 -16.1566162109375 10.479248046875
52.38671875 8.3223876953125 9.786865234375
64.047119140625 -22.7489013671875 18.91162109375
84.108154296875 36.33203125 -5.6251220703125
68.88671875 -34.3369140625 16.9827880859375
72.875 -24.73095703125 17.660400390625
84.080810546875 -29.7349853515625 16.161376953125
74.795166015625 -26.574462890625 13.201171875
84.430908203125 31.08056640625 -2.72314453125
80.242431640625 -26.2835693359375 12.21533203125
-43.310546875 -1.00341796875 20.916015625
102.2392578125 -9.279296875 5.08935546875
50.883056640625 27.188232421875 3.798583984375
34.4931640625 21.1671142578125 4.4146728515625
76.117919921875 7.1953125 3.8773193359375
67.551025390625 4.2086181640625 6.357421875
83.5087890625 21.174560546875 -0.3438720703125
56.325927734375 16.8912353515625 4.4825439453125
66.56494140625 -24.0904541015625 17.0654296875
41.28369140625 27.0042724609375 4.466552734375
29.966796875 17.2940673828125 5.7899169921875
73.716552734375 23.1217041015625 -2.1724853515625
69.94921875 -27.8458251953125 11.534423828125
62.026123046875 -34.4298095703125 25.0140380859375
-37.269775390625 -4.564453125 20.8677978515625
-90.071044921875 -25.484619140625 28.7581787109375
-80.111572265625 -36.3245849609375 36.0538330078125
81.56787109375 47.9788818359375 -8.0545654296875
96.91259765625 -5.65478515625 3.845703125
47.1357421875 20.337158203125 5.00341796875
39.877197265625 19.9576416015625 3.92578125
-84.62451171875 -22.8050537109375 25.8004150390625
82.456298828125 10.277587890625 4.340087890625
68.33935546875 14.5096435546875 0.981201171875
-86.236572265625 -16.331298828125 29.898681640625
-84.197509765625 -14.58740234375 29.213623046875
80.861083984375 37.5699462890625 -6.0286865234375
31.49658203125 24.0517578125 4.0390625
29.3955078125 13.8992919921875 6.6414794921875
-85.1357421875 -17.569580078125 30.0235595703125
67.997314453125 -12.9552001953125 14.4837646484375
-83.861328125 -30.2703857421875 32.87158203125
38.67138671875 7.9483642578125 11.9644775390625
78.596923828125 27.982177734375 -2.9482421875
78.085205078125 13.017578125 0.2294921875
90.59619140625 -24.33056640625 20.4937744140625
78.623291015625 -16.8013916015625 14.447265625
65.42333984375 -35.082275390625 20.4683837890625
71.97119140625 49.21044921875 -9.152587890625
50.87451171875 9.2674560546875 8.4569091796875
61.565185546875 -30.8853759765625 22.16162109375
76.641845703125 12.411376953125 2.1790771484375
82.940673828125 -38.2669677734375 22.01220703125
99.871826171875 -15.2928466796875 11.8399658203125
47.702880859375 27.024658203125 4.1395263671875
75.01318359375 5.7728271484375 5.97509765625
69.877197265625 -4.128173828125 9.2459716796875
49.70751953125 11.6029052734375 6.3280029296875
63.199951171875 -28.911376953125 16.2615966796875
41.271240234375 11.6895751953125 6.6263427734375
76.517578125 -17.465576171875 14.597900390625
96.50390625 1.5438232421875 3.2984619140625
73.684326171875 -16.043212890625 16.623291015625
82.372802734375 13.6287841796875 1.6768798828125
86.856689453125 -37.6339111328125 24.501220703125
37.574951171875 22.7237548828125 4.645751953125
67.0224609375 -5.850830078125 14.953857421875
82.84619140625 -24.0367431640625 14.00048828125
66.73193359375 -6.305419921875 13.004638671875
66.55322265625 -13.0894775390625 18.9227294921875
79.929443359375 -33.485107421875 16.41015625
98.85498046875 -5.18408203125 1.2705078125
84.99560546875 39.9757080078125 -5.7015380859375
83.10546875 50.3876953125 -9.2564697265625
100.118896484375 -12.996337890625 9.49169921875
67.661376953125 3.6781005859375 10.606689453125
77.937744140625 49.240966796875 -9.5709228515625
79.32958984375 16.2796630859375 -0.978759765625
39.87548828125 13.4168701171875 5.26513671875
41.40478515625 12.908203125 5.1636962890625
-44.899658203125 -3.0400390625 22.187744140625
36.348876953125 20.2093505859375 4.2232666015625
41.282958984375 17.889892578125 4.0501708984375
78.292236328125 -33.5982666015625 15.33349609375
102.36572265625 -17.0836181640625 13.544677734375
86.003662109375 -22.7122802734375 15.3406982421875
-79.78173828125 -19.0078125 24.394775390625
35.491943359375 23.1177978515625 4.267578125
98.3525390625 -11.470703125 8.65234375
78.14453125 8.563720703125 3.279296875
70.038330078125 3.0899658203125 5.671142578125
85.680419921875 -40.7744140625 24.7711181640625
-86.96826171875 -33.40625 36.6573486328125
83.745849609375 24.6519775390625 -1.02001953125
66.597412109375 -32.24755859375 16.68505859375
82.8046875 22.82275390625 -1.7896728515625
32.80029296875 12.0885009765625 6.56982421875
34.10546875 14.657958984375 5.801513671875
69.848876953125 20.8865966796875 -0.6802978515625
97.47216796875 -8.569091796875 5.3095703125
68.0302734375 -18.2957763671875 17.9361572265625
97.246337890625 -2.1322021484375 0.2237548828125
99.878662109375 -5.09228515625 -1.361572265625
73.4833984375 60.293701171875 -11.4482421875
74.71728515625 29.0689697265625 -3.9549560546875
73.663330078125 48.120849609375 -9.7236328125
70.85595703125 33.0345458984375 -4.8880615234375
7.501953125 -2.948486328125 19.0057373046875
69.56640625 -37.7750244140625 20.3428955078125
78.793212890625 54.3251953125 -10.265869140625
30.68896484375 10.64697265625 8.3634033203125
75.528076171875 -24.0245361328125 17.873291015625
80.86865234375 4.6466064453125 4.36962890625
98.98486328125 4.9500732421875 7.3707275390625
84.7451171875 46.326171875 -7.692138671875
98.263671875 -23.583251953125 18.3240966796875
71.094482421875 -26.1524658203125 14.2203369140625
72.21337890625 14.18994140625 0.5045166015625
78.2099609375 38.912353515625 -4.7904052734375
77.349365234375 15.6092529296875 0.6212158203125
-82.265380859375 -33.3858642578125 36.1329345703125
40.7314453125 7.5030517578125 12.2183837890625
55.948974609375 8.065673828125 9.4881591796875
33.1884765625 8.765869140625 10.9310302734375
99.629638671875 -6.9964599609375 3.911865234375
68.573486328125 -30.6025390625 13.380126953125
101.574462890625 -6.3797607421875 0.28369140625
64.590087890625 -28.240966796875 13.9959716796875
73.990966796875 -4.0523681640625 10.422607421875
103.32421875 -23.4556884765625 18.3382568359375
33.9150390625 10.4921875 8.3798828125
83.914306640625 48.1678466796875 -8.43017578125
83.691162109375 -18.8438720703125 21.2958984375
72.591796875 -24.409423828125 19.128173828125
70.82763671875 29.008056640625 -3.3896484375
29.485595703125 9.6190185546875 10.37939453125
60.77490234375 -21.43603515625 18.4783935546875
-78.3935546875 -17.271240234375 25.52587890625
35.448486328125 10.7119140625 7.96630859375
80.227783203125 -25.0987548828125 14.0186767578125
33.09912109375 7.948974609375 12.4583740234375
70.6611328125 35.7657470703125 -5.33544921875
60.530517578125 -17.9229736328125 21.4791259765625
-89.706787109375 -24.582275390625 27.353759765625
44.811279296875 9.5811767578125 8.509033203125
-78.88427734375 -21.3004150390625 23.0758056640625
79.6513671875 41.22900390625 -5.0819091796875
-79.740234375 -28.1614990234375 28.332763671875
72.006591796875 5.15771484375 4.62939453125
78.7958984375 -26.69482421875 11.77783203125
-85.120361328125 -36.154052734375 37.607421875
74.685546875 -36.8892822265625 18.074951171875
88.017578125 -26.88623046875 21.2872314453125
77.117919921875 -1.5064697265625 6.5924072265625
79.847412109375 -5.5494384765625 8.8941650390625
60.3388671875 -30.106201171875 25.7904052734375
68.702880859375 -26.217041015625 13.24755859375
66.974365234375 -15.8779296875 17.537109375
-82.703857421875 -25.3065185546875 27.817138671875
72.681396484375 -18.1026611328125 18.135498046875
83.1865234375 8.3289794921875 4.82666015625
99.5791015625 -3.2991943359375 -0.713134765625
71.737548828125 46.83935546875 -7.71142578125
79.526611328125 37.137451171875 -5.012451171875
58.096923828125 19.128173828125 4.0172119140625
95.394287109375 -1.5479736328125 3.71630859375
72.3046875 21.2061767578125 -1.973388671875
100.236328125 -25.571044921875 23.0872802734375
73.083251953125 -34.737548828125 16.182861328125
79.22509765625 -29.5340576171875 11.7740478515625
72.60791015625 -8.65771484375 13.0037841796875
85.204833984375 -33.0008544921875 20.495849609375
75.73291015625 18.201171875 0.8472900390625
78.9736328125 -8.142822265625 9.7547607421875
-89.7041015625 -30.528564453125 33.904296875
77.185546875 18.0015869140625 0.393798828125
-91.544189453125 -30.463134765625 35.904296875
47.6259765625 24.0374755859375 5.122802734375
75.885009765625 43.5030517578125 -8.556640625
69.924072265625 31.880859375 -4.7838134765625
64.8779296875 -18.78076171875 22.423828125
76.800048828125 28.98095703125 -2.62841796875
57.7451171875 25.3736572265625 4.2694091796875
-82.620849609375 -31.9178466796875 35.2625732421875
73.215576171875 0.5675048828125 7.55908203125
-80.952392578125 -18.7628173828125 29.264892578125
54.29931640625 15.522705078125 5.08056640625
47.199462890625 8.29052734375 10.2335205078125
101.629638671875 -11.1363525390625 7.3699951171875
-85.304443359375 -25.542236328125 29.970458984375
-79.0380859375 -17.6162109375 27.5723876953125
-79.096923828125 -30.1658935546875 28.40869140625
-80.632568359375 -14.0301513671875 29.018798828125
30.010009765625 12.2440185546875 6.6390380859375
75.03564453125 30.442626953125 -4.747314453125
34.390625 12.72216796875 6.200439453125
99.78857421875 -10.029296875 6.4921875
75.56005859375 -26.8701171875 11.9825439453125
90.480224609375 -22.488525390625 19.4832763671875
65.8603515625 -26.4248046875 13.4036865234375
59.626220703125 -19.686767578125 20.6475830078125
69.01123046875 -23.008056640625 19.01708984375
82.8486328125 -21.3126220703125 21.0596923828125
79.007568359375 51.96923828125 -8.7430419921875
-87.31591796875 -29.9105224609375 33.717041015625
66.81787109375 -37.336181640625 21.8299560546875
50.31640625 7.2459716796875 11.5118408203125
73.05078125 3.7911376953125 5.8193359375
-79.108154296875 -27.8089599609375 26.154052734375
101.38623046875 -15.450439453125 11.51123046875
72.825439453125 50.665283203125 -9.6038818359375
83.4228515625 -40.5390625 23.064208984375
96.349365234375 -4.1077880859375 1.81884765625
81.46337890625 -39.8084716796875 21.9681396484375
61.741455078125 -34.49609375 26.740234375
-88.92431640625 -26.9215087890625 29.9300537109375
68.87060546875 10.1781005859375 3.05615234375
71.29052734375 37.401123046875 -6.5201416015625
52.595458984375 7.3701171875 10.86328125
91.448486328125 -20.50244140625 21.337890625
53.87939453125 8.5103759765625 9.236572265625
71.661865234375 -6.3482666015625 10.5322265625
62.994873046875 -33.724609375 22.603271484375
-76.8369140625 -15.1949462890625 28.3079833984375
82.203857421875 16.0933837890625 0.2618408203125
107.153076171875 -20.1650390625 19.34130859375
37.88330078125 24.817626953125 4.8583984375
78.167236328125 -21.8209228515625 17.4493408203125
-82.313232421875 -23.6488037109375 26.23681640625
61.417236328125 -28.9405517578125 19.642333984375
93.927001953125 -22.6182861328125 19.7852783203125
37.085693359375 9.1766357421875 10.1378173828125
73.26416015625 32.5771484375 -5.994140625
71.721435546875 -31.95849609375 13.5350341796875
96.276123046875 -21.3094482421875 18.850341796875
88.530029296875 -31.775634765625 25.6932373046875
93.170166015625 -24.59912109375 21.8704833984375
71.804931640625 44.358642578125 -7.738037109375
-84.56787109375 -31.422607421875 35.1329345703125
103.446533203125 -19.0604248046875 15.95556640625
-81.54052734375 -29.1082763671875 31.2607421875
104.181396484375 -13.7752685546875 10.5850830078125
64.1845703125 -33.5125732421875 19.8399658203125
69.362548828125 -20.94091796875 19.2503662109375
63.504638671875 -35.9647216796875 23.7926025390625
76.720458984375 31.1136474609375 -3.6846923828125
80.696533203125 -22.6849365234375 17.8885498046875
-37.833740234375 -1.7401123046875 20.74462890625
-91.72802734375 -33.5657958984375 36.341552734375
65.8193359375 -32.7069091796875 18.234130859375
38.285400390625 12.0557861328125 5.945068359375
67.639892578125 -38.5157470703125 22.2811279296875
33.206298828125 24.0721435546875 4.375
77.01171875 21.12353515625 -0.143798828125
95.564208984375 -15.6806640625 12.6885986328125
63.411865234375 -32.841552734375 20.992919921875
77.98193359375 -19.6612548828125 16.0850830078125
74.03515625 -33.439208984375 14.8671875
-86.58203125 -28.385986328125 31.37646484375
72.990234375 -20.573486328125 20.011474609375
98.21533203125 2.244873046875 3.1912841796875
105.179931640625 -16.31005859375 14.0260009765625
75.694091796875 -20.93212890625 17.1478271484375
78.8427734375 34.349609375 -3.552001953125
106.073974609375 -17.7830810546875 16.81298828125
84.122802734375 -21.0712890625 18.6973876953125
-38.301025390625 -7.133544921875 23.4996337890625
71.8193359375 -23.865478515625 21.530517578125
66.717529296875 -14.758544921875 18.8251953125
80.0048828125 -20.0762939453125 18.4503173828125
76.690673828125 -18.87255859375 15.639892578125
78.445556640625 44.2113037109375 -6.1728515625
64.3095703125 -30.1591796875 16.3875732421875
71.06884765625 -30.564697265625 12.2852783203125
61.909912109375 -27.148193359375 16.6363525390625
61.88671875 -18.2998046875 21.9788818359375
-77.040283203125 -19.1241455078125 24.60546875
60.180908203125 -26.010009765625 19.7506103515625
2.95458984375 -4.28271484375 19.2130126953125
74.64208984375 33.0172119140625 -5.710693359375
-43.946533203125 -4.4920654296875 21.3607177734375
70.410888671875 4.5218505859375 4.9998779296875
-89.345458984375 -32.97119140625 36.0152587890625
83.654541015625 3.2227783203125 10.385986328125
35.5244140625 7.822265625 12.4393310546875
31.5283203125 26.2882080078125 4.6939697265625
70.312255859375 0.0313720703125 6.473388671875
-40.63671875 -6.58837890625 23.5601806640625
57.983154296875 11.3795166015625 5.498779296875
57.430908203125 15.648193359375 4.6080322265625
-77.547119140625 -28.5699462890625 26.8214111328125
50.076416015625 18.479736328125 4.7147216796875
74.212158203125 -39.3204345703125 20.034912109375
79.5634765625 -39.0587158203125 21.0140380859375
29.095458984375 8.5545654296875 12.44482421875
42.108642578125 20.7769775390625 4.2987060546875
40.17333984375 24.587890625 4.4393310546875
66.75390625 -8.5281982421875 13.9534912109375
71.724365234375 -39.733642578125 21.3787841796875
97.115478515625 -16.1966552734375 12.585693359375
74.537109375 -18.5697021484375 16.4755859375
95.622314453125 -3.0306396484375 5.937744140625
78.8916015625 -24.780029296875 17.1180419921875
81.9619140625 36.331787109375 -5.9036865234375
40.79345703125 16.0181884765625 4.54443359375
38.163330078125 17.7650146484375 4.5208740234375
82.47119140625 31.318115234375 -4.8377685546875
74.30322265625 59.16552734375 -12.1768798828125
38.040771484375 15.48046875 5.0567626953125
42.689453125 15.0968017578125 4.4847412109375
72.091552734375 19.1717529296875 -0.6090087890625
33.208984375 19.70361328125 4.783203125
68.809326171875 23.2669677734375 -1.0732421875
81.840087890625 41.3135986328125 -7.017333984375
32.923583984375 21.639404296875 4.38427734375
31.7607421875 14.468994140625 6.1768798828125
79.015380859375 29.436279296875 -3.483642578125
-86.942626953125 -31.659423828125 35.2303466796875
78.125732421875 -37.0126953125 18.508544921875
83.166748046875 -25.07421875 13.0035400390625
79.28125 -35.6142578125 17.729248046875
99.854736328125 -1.0587158203125 0.1923828125
73.9775390625 53.095458984375 -10.7528076171875
68.04931640625 -8.71728515625 11.7303466796875
76.223876953125 59.719482421875 -12.719482421875
74.73876953125 39.269775390625 -7.8670654296875
42.4326171875 9.7403564453125 8.6630859375
75.7763671875 -33.8583984375 15.3057861328125
73.645751953125 -32.5013427734375 13.3853759765625
80.5439453125 23.487060546875 -2.641357421875
80.38525390625 7.573486328125 3.0396728515625
86.56103515625 -24.5467529296875 16.427490234375
42.486083984375 18.5555419921875 3.728515625
64.267822265625 -31.4476318359375 18.019775390625
-87.334228515625 -25.2786865234375 28.6112060546875
77.64453125 55.5089111328125 -11.676025390625
82.239501953125 -34.03515625 18.444580078125
-80.71826171875 -31.814208984375 34.236572265625
-80.796142578125 -17.0784912109375 29.73388671875
97.9775390625 -3.2020263671875 -0.6529541015625
-85.610107421875 -20.3414306640625 25.9534912109375
67.531005859375 -28.4410400390625 11.8663330078125
83.93017578125 12.312255859375 3.0789794921875
73.269775390625 -30.447021484375 11.5079345703125
96.607666015625 -13.6771240234375 9.2520751953125
74.63720703125 11.4259033203125 2.68701171875
48.48291015625 13.5093994140625 4.1693115234375
80.965087890625 44.92041015625 -7.4205322265625
62.52978515625 -19.833740234375 20.7220458984375
95.50390625 0.642822265625 7.4970703125
71.059326171875 13.558837890625 0.95703125
99.127197265625 -7.902587890625 5.07080078125
100.347412109375 -9.08935546875 5.4617919921875
70.875732421875 -28.80224609375 11.0361328125
81.55322265625 28.7166748046875 -4.1171875
9.408447265625 -4.6162109375 19.26220703125
97.68994140625 -9.5721435546875 6.2430419921875
85.737548828125 49.3558349609375 -8.37451171875
-84.611083984375 -34.9229736328125 37.9927978515625
70.039306640625 9.0526123046875 2.12451171875
80.174560546875 -1.1619873046875 6.9649658203125
76.16943359375 14.5247802734375 2.35302734375
78.4248046875 42.0057373046875 -5.3768310546875
40.3603515625 9.7996826171875 8.5028076171875
-87.2919921875 -22.205810546875 26.0426025390625
50.420654296875 15.8770751953125 4.232421875
79.506591796875 60.3779296875 -11.740966796875
-77.5498046875 -26.19677734375 24.710205078125
66.882080078125 -36.3916015625 20.409423828125
58.40380859375 -19.7286376953125 22.0391845703125
102.39453125 -6.5550537109375 1.371337890625
97.68115234375 -19.628662109375 17.509033203125
78.5771484375 33.01220703125 -2.625
36.022216796875 25.779541015625 5.0504150390625
71.265625 39.556396484375 -7.4395751953125
-78.772705078125 -24.8939208984375 22.8814697265625
-84.978759765625 -33.1376953125 36.6083984375
99.421630859375 1.163818359375 -0.6873779296875
59.4140625 -26.1982421875 22.6083984375
74.8701171875 40.827880859375 -8.0947265625
41.95068359375 22.0997314453125 4.605712890625
77.234130859375 40.657470703125 -7.0875244140625
72.764404296875 -11.1824951171875 14.4510498046875
85.83251953125 -17.6455078125 19.80419921875
-88.984375 -21.8131103515625 23.48828125
59.740234375 -24.0029296875 17.56640625
72.690673828125 8.71337890625 2.8470458984375
83.5810546875 -39.8983154296875 24.413330078125
-80.09033203125 -24.342529296875 25.363525390625
79.550048828125 44.7813720703125 -5.5809326171875
99.40283203125 -24.205810546875 21.510986328125
79.010498046875 -30.9117431640625 12.8516845703125
99.618896484375 -11.8948974609375 8.8662109375
-79.27392578125 -16.2545166015625 28.3121337890625
88.14208984375 -21.589111328125 17.3380126953125
85.477783203125 54.5938720703125 -9.964599609375
58.4990234375 -21.69140625 20.50927734375
72.327392578125 -27.045166015625 12.18701171875
101.627685546875 -24.304931640625 19.6866455078125
84.623291015625 -35.877197265625 22.2901611328125
73.088623046875 -22.4090576171875 21.02001953125
69.303955078125 -15.9686279296875 15.8785400390625
95.403564453125 -10.9383544921875 5.1123046875
98.536865234375 0.5574951171875 1.4725341796875
105.973876953125 -16.214599609375 12.8359375
79.27294921875 -10.95556640625 11.6865234375
69.5322265625 -14.597900390625 14.7882080078125
76.020751953125 -31.9293212890625 12.9188232421875
-90.271728515625 -23.0479736328125 22.8193359375
73.31494140625 -6.530029296875 11.8243408203125
79.586669921875 34.659423828125 -5.041748046875
67.327392578125 -4.90185546875 10.522216796875
-84.564453125 -30.396240234375 34.16748046875
79.7685546875 14.4481201171875 -0.188232421875
79.976806640625 3.5308837890625 4.6024169921875
70.78759765625 -1.054443359375 7.0931396484375
80.074951171875 -34.546630859375 17.2254638671875
-80.413818359375 -25.875732421875 27.62158203125
102.809814453125 -14.1485595703125 10.415771484375
96.491943359375 -17.4052734375 12.499267578125
76.431884765625 37.4466552734375 -6.969970703125
61.777099609375 -34.2523193359375 28.053466796875
76.69140625 33.2813720703125 -4.6094970703125
59.3232421875 -27.647216796875 25.5283203125
70.2421875 -12.46435546875 13.6070556640625
76.62158203125 34.6851806640625 -5.3546142578125
92.99560546875 -22.7781982421875 20.716796875
81.595458984375 -20.489013671875 20.74560546875
67.21044921875 1.9769287109375 8.6815185546875
71.16015625 -34.937255859375 16.648681640625
-81.1552734375 -33.934326171875 35.6593017578125
46.204345703125 7.7864990234375 11.229736328125
82.441162109375 7.3944091796875 4.259033203125
93.8798828125 -20.1400146484375 19.83984375
80.774658203125 -37.631591796875 20.3681640625
29.71826171875 11.27001953125 7.48388671875
72.039306640625 35.13916015625 -5.8233642578125
-87.683349609375 -23.1793212890625 27.034912109375
78.9052734375 57.322509765625 -11.107421875
99.587158203125 -17.2431640625 13.974853515625
101.971435546875 -21.1546630859375 17.2471923828125
70.936767578125 -37.993896484375 19.6015625
45.870361328125 16.364013671875 3.74609375
78.325439453125 58.268798828125 -11.9649658203125
-85.75830078125 -22.006591796875 25.493896484375
73.78369140625 35.919921875 -6.97119140625
100.861083984375 -23.889892578125 17.570068359375
74.321533203125 -22.578125 18.61767578125
67.31005859375 -25.3963623046875 14.8809814453125
81.260986328125 16.779541015625 -0.34521484375
-86.570556640625 -24.0301513671875 27.0703125
83.2138671875 -31.2119140625 16.61962890625
96.964599609375 -23.105712890625 20.2283935546875
31.959716796875 9.1781005859375 10.717041015625
77.422119140625 30.5902099609375 -2.6435546875
50.450927734375 14.0740966796875 5.075927734375
76.877197265625 10.4356689453125 2.44775390625
40.212646484375 10.7767333984375 7.56884765625
76.7587890625 -30.894287109375 12.2857666015625
44.461181640625 19.5126953125 4.54443359375
82.057861328125 12.2344970703125 2.4786376953125
34.49072265625 24.0872802734375 4.6273193359375
51.42724609375 9.7666015625 7.3818359375
82.06396484375 4.8428955078125 5.3341064453125
