-15.116455078125 -10.275634765625 23.5045166015625
3.88623046875 -18.857177734375 23.9945068359375
94.989501953125 7.76025390625 -7.376220703125
49.092529296875 7.9287109375 3.4599609375
-60.4990234375 -3.5184326171875 18.4910888671875
1.597412109375 7.075439453125 7.5615234375
100.143798828125 -11.4703369140625 0.619384765625
-7.193359375 15.2584228515625 0.80712890625
46.61083984375 -14.393798828125 17.731689453125
24.2001953125 4.8035888671875 8.4776611328125
96.147216796875 -1.5853271484375 4.390625
66.625732421875 -28.5753173828125 1.8592529296875
-24.46826171875 15.0623779296875 1.322021484375
62.2138671875 2.356201171875 9.9578857421875
75.749267578125 10.6019287109375 -13.6055908203125
-30.342529296875 7.807861328125 6.6998291015625
-18.627685546875 31.08447265625 0.01611328125
-30.119384765625 16.3370361328125 2.126953125
93.67333984375 -1.7384033203125 12.7828369140625
75.32958984375 22.604736328125 -16.560302734375
27.121826171875 11.5933837890625 0.2901611328125
16.53076171875 36.6243896484375 -6.2568359375
80.666015625 33.9322509765625 -22.0028076171875
98.584228515625 -0.4202880859375 -13.479248046875
38.55712890625 50.71533203125 -9.109130859375
67.9931640625 3.72607421875 6.9805908203125
-9.89794921875 -3.733154296875 16.22607421875
-55.244873046875 4.3721923828125 13.986328125
0.339111328125 0.156982421875 11.6334228515625
63.955078125 -0.9654541015625 13.6827392578125
79.786865234375 13.212890625 -16.278564453125
-45.950439453125 4.0899658203125 8.41943359375
27.489501953125 26.6510009765625 -7.7171630859375
17.622802734375 44.2828369140625 -8.90478515625
94.535400390625 9.6864013671875 0.4158935546875
95.053466796875 -8.390380859375 6.37890625
35.6826171875 4.401611328125 9.1383056640625
8.833740234375 28.995361328125 -6.9940185546875
44.63818359375 32.541015625 -8.9573974609375
29.45654296875 39.5 -3.03515625
77.108154296875 42.589599609375 -21.4302978515625
80.089599609375 18.492431640625 -15.9794921875
10.43994140625 2.50146484375 10.7095947265625
-11.350830078125 12.3682861328125 1.7301025390625
-25.26025390625 -10.310791015625 21.21533203125
-33.954345703125 -7.1715087890625 21.9599609375
52.58056640625 -15.2698974609375 18.323486328125
51.735107421875 30.1705322265625 -9.489501953125
72.62548828125 35.12646484375 -16.8880615234375
43.796142578125 9.8568115234375 1.2061767578125
13.92431640625 -24.2628173828125 27.7694091796875
96.8037109375 -5.388916015625 14.458251953125
-19.0322265625 -16.660400390625 26.4559326171875
57.02783203125 -14.7791748046875 7.862548828125
13.166748046875 25.6484375 -3.1279296875
75.119384765625 -45.5760498046875 23.1473388671875
99.6162109375 -14.657470703125 4.4105224609375
68.17578125 -12.382568359375 5.8790283203125
7.05517578125 7.878662109375 6.589111328125
73.869140625 15.8643798828125 -9.5582275390625
72.61181640625 -34.3707275390625 18.4559326171875
71.6650390625 -7.654541015625 1.81201171875
25.683349609375 -2.1048583984375 16.3355712890625
-40.198486328125 8.458984375 6.529052734375
-58.7109375 -9.91357421875 25.290283203125
82.394775390625 -30.1893310546875 8.451904296875
96.44580078125 9.5362548828125 -13.3431396484375
-12.08740234375 34.19580078125 -0.517578125
-12.782958984375 29.1278076171875 0.518310546875
56.021728515625 38.9490966796875 -9.31494140625
69.10009765625 14.4195556640625 -9.1407470703125
55.780029296875 56.140625 -9.2213134765625
57.516357421875 3.686767578125 9.1148681640625
72.660400390625 -22.3087158203125 1.1981201171875
71.758544921875 45.5650634765625 -20.2923583984375
-53.37158203125 11.827880859375 15.2689208984375
58.810302734375 -25.3515625 10.31640625
2.8408203125 34.963623046875 -14.8365478515625
33.073486328125 40.4124755859375 -8.952392578125
77.10205078125 37.0303955078125 -21.2025146484375
4.47119140625 17.48046875 8.5714111328125
42.278564453125 15.5274658203125 -7.024658203125
25.789306640625 43.334716796875 -5.34375
-2.4384765625 -25.2738037109375 28.8338623046875
43.1240234375 25.78125 -8.0164794921875
51.58740234375 23.62890625 -9.5037841796875
53.0673828125 9.6318359375 0.8201904296875
71.61083984375 50.1990966796875 -21.402099609375
-4.667724609375 1.530029296875 13.292724609375
-40.000244140625 -4.3026123046875 18.2176513671875
-22.8359375 23.325439453125 1.249267578125
58.132080078125 -30.1630859375 16.883544921875
-1.750732421875 10.23291015625 3.692626953125
74.98974609375 30.61328125 -15.355224609375
-10.344970703125 -24.723388671875 28.0201416015625
-9.53857421875 -19.14404296875 25.0948486328125
-4.491455078125 39.7095947265625 -2.1663818359375
-0.741455078125 -19.0667724609375 23.7381591796875
74.74169921875 -42.836669921875 19.43212890625
-45.471435546875 17.8743896484375 13.259765625
67.858154296875 1.170654296875 -2.1861572265625
57.406494140625 -21.05419921875 18.43017578125
55.40380859375 -2.4732666015625 16.07568359375
-41.914306640625 -1.318359375 10.6258544921875
5.1826171875 -1.832275390625 10.6773681640625
76.959228515625 -28.046630859375 1.3504638671875
82.93798828125 53.114990234375 -25.192626953125
47.69775390625 -0.6676025390625 13.940673828125
69.914306640625 54.3797607421875 -19.2353515625
23.021240234375 37.704833984375 -3.515380859375
-31.507080078125 4.06787109375 9.53564453125
79.404296875 5.3533935546875 -8.9556884765625
-13.58349609375 -15.8653564453125 25.66748046875
64.159912109375 -25.01806640625 0.2431640625
16.158447265625 2.5733642578125 12.183837890625
-22.73974609375 4.087646484375 7.7349853515625
80.595458984375 43.77783203125 -24.0035400390625
73.24365234375 -16.009033203125 4.3795166015625
94.78564453125 4.2576904296875 -4.614013671875
29.9892578125 -0.086181640625 14.3548583984375
79.113525390625 -15.69482421875 6.848876953125
-18.251220703125 -4.77392578125 17.4598388671875
-16.5634765625 32.798828125 3.6790771484375
38.38671875 41.81982421875 -8.9005126953125
98.5322265625 -6.240478515625 -5.349609375
63.77197265625 -19.3856201171875 4.45166015625
-32.91845703125 30.6641845703125 1.271484375
4.848388671875 0.04541015625 4.7991943359375
50.949462890625 13.4139404296875 -5.4534912109375
77.271484375 57.447998046875 -22.3250732421875
48.68359375 5.51220703125 7.561279296875
12.1748046875 16.82275390625 6.6092529296875
40.3466796875 33.5750732421875 -9.2080078125
66.18701171875 -15.841064453125 8.105712890625
64.35693359375 -32.10693359375 8.58642578125
-17.78271484375 7.4617919921875 6.7318115234375
-36.7587890625 5.3165283203125 9.1187744140625
-28.34765625 29.033203125 0.978515625
-18.714111328125 -25.236572265625 29.195068359375
-3.518798828125 31.705810546875 -1.9849853515625
67.12890625 -7.9190673828125 12.7044677734375
-4.891845703125 7.238525390625 7.0133056640625
5.212646484375 -23.5523681640625 27.561279296875
68.72412109375 29.12158203125 -12.469482421875
28.676513671875 28.6256103515625 1.738037109375
62.413818359375 -32.34716796875 14.5819091796875
22.223388671875 45.0565185546875 -7.1688232421875
20.32080078125 -22.6846923828125 26.46826171875
28.810546875 44.4444580078125 -8.7802734375
57.339111328125 7.7259521484375 4.5732421875
-6.427490234375 26.32763671875 -0.83447265625
68.83349609375 8.8209228515625 -6.0758056640625
56.57421875 -11.847412109375 15.3399658203125
95.361572265625 -1.7196044921875 -5.7236328125
94.2900390625 -1.0811767578125 -11.51123046875
16.620361328125 15.619384765625 5.526123046875
97.353271484375 -20.8848876953125 14.17431640625
22.27197265625 30.8245849609375 -1.18994140625
76.988037109375 -21.552734375 1.834716796875
69.367431640625 -38.2352294921875 26.3876953125
14.685791015625 9.669921875 7.113037109375
38.84814453125 9.3758544921875 1.7225341796875
1.408203125 2.628173828125 7.7158203125
-31.656982421875 20.985595703125 2.1251220703125
7.760498046875 35.8592529296875 -11.1737060546875
-12.97119140625 4.352294921875 10.16259765625
94.815673828125 -16.6197509765625 6.76025390625
44.011962890625 43.5321044921875 -9.291259765625
94.594970703125 -12.775634765625 4.846923828125
21.384521484375 19.0501708984375 3.4559326171875
76.7119140625 26.242919921875 -18.189697265625
39.97119140625 4.1346435546875 9.2779541015625
-10.93017578125 -9.1357421875 21.7288818359375
-14.516357421875 21.5743408203125 0.43994140625
-27.938720703125 -4.4261474609375 17.185546875
-5.63330078125 -11.5362548828125 22.9268798828125
63.862060546875 -42.669921875 29.53271484375
-4.253662109375 18.0546875 -0.9024658203125
45.267333984375 12.9412841796875 -3.63720703125
-14.887939453125 -4.924560546875 15.001708984375
60.0126953125 -23.96875 5.3660888671875
-26.0166015625 -11.9530029296875 24.9595947265625
44.241455078125 4.2584228515625 9.2734375
17.963623046875 -2.0833740234375 16.6510009765625
59.617919921875 -18.8062744140625 3.756591796875
76.339111328125 -3.5078125 -5.079345703125
-50.4052734375 6.5980224609375 8.6656494140625
-25.67333984375 6.2427978515625 5.624267578125
10.187744140625 39.4169921875 -11.31982421875
95.356689453125 -29.0389404296875 24.1007080078125
65.568115234375 -2.234619140625 4.60205078125
-43.7685546875 -9.140869140625 24.532958984375
47.967529296875 18.5936279296875 -9.201904296875
-5.423583984375 -16.879638671875 25.0791015625
13.126220703125 -18.483154296875 23.2777099609375
41.503662109375 19.0421142578125 -9.061767578125
-15.20458984375 14.870361328125 1.65478515625
94.4091796875 -13.7484130859375 15.4410400390625
-64.18017578125 -8.237060546875 23.7945556640625
72.099365234375 -19.4503173828125 6.384033203125
70.72607421875 23.56201171875 -13.0159912109375
101.86767578125 -19.424072265625 10.5645751953125
72.95361328125 -6.34423828125 -2.054931640625
-49.998291015625 -0.142822265625 14.8941650390625
3.4580078125 -4.296142578125 19.172607421875
32.71142578125 30.1336669921875 -8.93212890625
10.429443359375 11.098876953125 5.61572265625
69.61279296875 44.40869140625 -16.248046875
-20.053466796875 27.30322265625 0.1688232421875
102.777587890625 -22.43505859375 18.3468017578125
-52.098388671875 -8.4013671875 23.70556640625
-5.87646484375 35.5496826171875 -1.741943359375
-27.194091796875 0.08935546875 12.100830078125
44.41943359375 -12.62109375 20.5667724609375
-24.063232421875 11.3326416015625 2.6993408203125
97.26318359375 -26.5819091796875 20.0882568359375
78.651611328125 -10.3387451171875 0.9197998046875
94.271240234375 4.960205078125 -10.362060546875
6.290283203125 11.7528076171875 4.412353515625
31.2939453125 15.40478515625 -6.65380859375
56.225341796875 21.6259765625 -9.3865966796875
82.584716796875 11.823486328125 -8.9703369140625
69.888427734375 -34.9068603515625 7.851318359375
5.736572265625 -5.5673828125 14.3623046875
67.56298828125 -33.671875 20.601806640625
63.89990234375 -13.3482666015625 10.48388671875
-5.65576171875 -5.531494140625 18.0240478515625
67.7109375 17.4810791015625 -7.0704345703125
71.460205078125 7.9466552734375 -8.8895263671875
35.472900390625 11.069580078125 -0.549560546875
8.666748046875 32.633056640625 -8.8089599609375
55.520751953125 11.06689453125 -1.927490234375
-55.68310546875 -4.2750244140625 19.213623046875
66.51513671875 9.1160888671875 -2.578369140625
1.3701171875 -3.7904052734375 10.4412841796875
28.65185546875 24.6798095703125 3.22412109375
66.826416015625 -8.5321044921875 4.521240234375
74.439453125 -10.388427734375 -1.2591552734375
72.64453125 -25.481201171875 -2.355224609375
58.08544921875 -26.576171875 14.43212890625
30.603515625 12.3880615234375 -2.098388671875
89.496826171875 9.8992919921875 0.3470458984375
-16.099365234375 0.501220703125 11.51416015625
17.055419921875 40.6429443359375 -7.6507568359375
96.685791015625 5.1610107421875 -0.9290771484375
93.4775390625 -10.3677978515625 12.42529296875
22.216796875 3.029296875 11.31005859375
73.135986328125 -31.74365234375 4.5682373046875
15.99267578125 23.14990234375 -0.6829833984375
28.560302734375 3.2943115234375 10.960205078125
-9.51904296875 19.8953857421875 -0.0242919921875
-49.96826171875 12.394287109375 10.6224365234375
57.61865234375 -17.012939453125 21.7298583984375
57.53759765625 -9.9659423828125 18.5992431640625
30.92041015625 37.219970703125 -9.0040283203125
95.361572265625 -9.9931640625 2.30810546875
32.724853515625 7.047607421875 5.6644287109375
-24.633544921875 -7.099853515625 19.20166015625
60.302490234375 -3.58544921875 16.354736328125
44.636962890625 1.0313720703125 12.373779296875
-39.15576171875 -6.1871337890625 21.761474609375
44.3291015625 47.353271484375 -9.3291015625
52.490478515625 36.962646484375 -9.2764892578125
-47.69677734375 0.6124267578125 11.92333984375
38.880859375 27.286376953125 -8.288330078125
-23.82421875 19.63330078125 1.352294921875
14.85595703125 33.5177001953125 -3.5823974609375
90.857666015625 2.0284423828125 9.07470703125
46.99560546875 38.918212890625 -9.17041015625
35.753662109375 21.028076171875 -8.7867431640625
95.25439453125 -4.4210205078125 -2.16943359375
80.307861328125 -19.62548828125 4.6173095703125
30.001220703125 35.7462158203125 -3.233642578125
-26.847900390625 24.7197265625 0.843994140625
64.169921875 5.6435546875 9.4031982421875
97.515625 -1.1907958984375 -9.5311279296875
-47.536865234375 -6.6959228515625 22.1724853515625
-2.125244140625 -3.8697509765625 18.7333984375
11.1171875 -4.264892578125 19.0013427734375
55.774169921875 17.365234375 -9.4521484375
37.854736328125 14.2164306640625 -5.4482421875
22.208740234375 23.8321533203125 1.602294921875
48.291015625 52.0494384765625 -8.968994140625
35.94384765625 47.871826171875 -9.1309814453125
-0.994384765625 -0.908203125 15.8345947265625
-34.370361328125 -1.029541015625 15.8663330078125
-12.970458984375 37.9439697265625 -0.9503173828125
28.54296875 -4.8223876953125 18.771484375
26.680908203125 31.6951904296875 0.0799560546875
101.8916015625 -17.83544921875 6.2530517578125
94.02294921875 -22.833251953125 19.8687744140625
97.230224609375 -9.346435546875 -1.2447509765625
-53.52734375 1.1875 13.13623046875
-42.02587890625 0.8228759765625 5.695556640625
69.55908203125 37.03076171875 -15.822998046875
18.4697265625 12.4993896484375 4.090576171875
-16.33837890625 -22.2523193359375 28.237548828125
27.9560546875 12.277099609375 5.5758056640625
28.33056640625 17.3876953125 -8.253662109375
92.813232421875 -14.749267578125 12.1602783203125
-21.24853515625 -1.32177734375 14.0606689453125
28.609130859375 23.9586181640625 -5.0875244140625
-25.55322265625 32.20166015625 0.0540771484375
46.061767578125 -15.7254638671875 21.471923828125
53.266357421875 46.0181884765625 -9.4136962890625
-9.677001953125 7.5035400390625 6.169189453125
32.227783203125 2.8525390625 10.8912353515625
-53.99365234375 7.954345703125 13.753662109375
70.314453125 -3.8084716796875 0.4571533203125
95.631103515625 7.820068359375 -3.1429443359375
-17.126220703125 10.2392578125 3.8321533203125
93.749755859375 -7.598388671875 -7.1468505859375
-43.227783203125 -2.889892578125 17.4403076171875
51.222412109375 3.2193603515625 10.0135498046875
21.122802734375 26.9842529296875 -0.1376953125
-60.7255859375 -7.708740234375 22.927978515625
-38.551513671875 14.880615234375 10.301025390625
66.014404296875 -21.3116455078125 1.156005859375
52.344482421875 -18.33154296875 21.096923828125
75.19189453125 37.3980712890625 -17.927734375
12.575927734375 19.396240234375 9.067626953125
-8.4384765625 2.956298828125 11.6148681640625
56.836669921875 -17.03125 11.3944091796875
50.699462890625 49.387939453125 -9.3995361328125
29.98828125 16.5416259765625 6.2003173828125
28.997802734375 23.609130859375 -8.8201904296875
35.31201171875 -2.859619140625 16.9774169921875
-0.455078125 -11.4688720703125 20.395263671875
29.93115234375 8.4742431640625 3.5977783203125
69.277099609375 -44.291259765625 32.5751953125
30.542236328125 48.0830078125 -8.6981201171875
3.86865234375 -20.8009033203125 2.5751953125
-47.10107421875 -4.1998291015625 19.69140625
-9.49462890625 -27.2728271484375 30.329345703125
49.5615234375 -7.2796630859375 18.565185546875
14.27587890625 4.4793701171875 9.8709716796875
62.977294921875 -36.873779296875 26.9229736328125
95.30859375 -5.359375 4.5750732421875
-1.770751953125 24.22021484375 -1.1173095703125
67.630859375 0.3104248046875 7.8082275390625
0.83154296875 -16.4967041015625 21.893798828125
77.009033203125 -35.3837890625 9.3831787109375
61.67724609375 -42.2808837890625 32.606201171875
69.352783203125 -27.7105712890625 -0.197998046875
74.854736328125 51.4500732421875 -21.9461669921875
10.646240234375 -1.9747314453125 11.760498046875
67.26416015625 -0.96337890625 0.5390625
-3.599365234375 -20.0361328125 25.5284423828125
-33.953857421875 -9.661376953125 24.4312744140625
-43.638916015625 11.27587890625 6.14794921875
-19.15771484375 22.33837890625 0.76904296875
62.46484375 -30.5693359375 23.13232421875
-45.515380859375 0.7325439453125 7.589599609375
-31.314697265625 -5.597900390625 18.6044921875
14.348388671875 38.503662109375 -8.2041015625
-30.60302734375 -8.5548095703125 21.81103515625
28.728759765625 30.5203857421875 -5.8660888671875
67.947509765625 21.20263671875 -8.17529296875
65.65576171875 4.62646484375 0.11669921875
77.39013671875 -30.1044921875 4.1011962890625
-4.69970703125 12.0792236328125 1.8333740234375
28.18359375 35.541259765625 -7.7200927734375
-12.73193359375 -2.14794921875 14.58203125
95.69384765625 1.70751953125 -12.9793701171875
48.217041015625 22.243408203125 -9.3621826171875
7.295654296875 -19.0712890625 23.5489501953125
70.84130859375 -10.8486328125 4.3299560546875
73.907470703125 9.73828125 -10.828125
-42.93408203125 6.2867431640625 8.4248046875
50.4716796875 16.0201416015625 -7.6396484375
60.157470703125 -8.51806640625 13.3770751953125
69.660888671875 -29.9490966796875 3.2242431640625
-16.67724609375 -28.1689453125 31.2598876953125
25.90087890625 39.5458984375 -3.6107177734375
-7.93359375 -0.318603515625 14.19873046875
41.05126953125 13.2762451171875 -4.550048828125
-38.4033203125 1.2977294921875 8.5101318359375
9.205810546875 0.400146484375 8.3382568359375
74.517822265625 18.6068115234375 -13.908447265625
69.080810546875 -6.040283203125 16.7381591796875
-20.24462890625 2.251708984375 9.7659912109375
-6.590087890625 -24.9864501953125 28.510986328125
77.133056640625 29.3250732421875 -19.693115234375
16.4921875 30.1373291015625 -3.502197265625
56.231201171875 -8.6865234375 14.1727294921875
100.746826171875 -25.3994140625 19.7540283203125
74.024658203125 13.7564697265625 -12.1976318359375
32.580322265625 34.2774658203125 -8.9390869140625
77.712890625 20.0721435546875 -17.788330078125
-49.4609375 10.164306640625 7.5546875
-19.417236328125 34.502197265625 -0.152099609375
96.466552734375 7.5130615234375 -10.5440673828125
-13.4560546875 -23.8367919921875 28.9677734375
45.6376953125 8.1708984375 4.0712890625
81.400146484375 11.560791015625 -13.3062744140625
37.286865234375 -0.204833984375 13.9404296875
38.78369140625 37.0655517578125 -9.1700439453125
-16.736328125 17.8077392578125 0.803955078125
7.740966796875 -5.8043212890625 8.93505859375
-21.8466796875 30.465576171875 0.7659912109375
41.810302734375 22.7484130859375 -9.098388671875
-16.890380859375 -7.0970458984375 19.9405517578125
24.21240234375 17.7547607421875 4.6988525390625
-10.769287109375 10.0928955078125 4.3585205078125
29.290771484375 42.3704833984375 -4.7357177734375
94.781494140625 4.524658203125 5.9212646484375
19.70263671875 36.667724609375 -4.468505859375
72.4931640625 -45.6219482421875 21.108642578125
5.837646484375 -15.0272216796875 21.8062744140625
78.335693359375 46.111328125 -23.315673828125
-56.851806640625 -1.9588623046875 16.921630859375
79.6767578125 50.1256103515625 -24.3011474609375
95.940185546875 -8.0765380859375 12.71826171875
81.390869140625 -16.3475341796875 9.16748046875
96.08349609375 0.89208984375 1.3631591796875
79.261962890625 -25.22802734375 -0.1925048828125
51.53759765625 -1.5673828125 15.0045166015625
100.298828125 -22.0697021484375 15.08203125
23.39990234375 34.21630859375 -2.2271728515625
94.747314453125 -22.0643310546875 16.7445068359375
-19.776123046875 -9.8138427734375 22.842529296875
11.5009765625 32.3697509765625 -6.6192626953125
73.178955078125 -1.1920166015625 -5.102294921875
42.700439453125 -0.6669921875 14.4134521484375
52.642333984375 33.68212890625 -9.30908203125
44.4873046875 29.205810546875 -4.2440185546875
48.1923828125 32.0142822265625 -9.315185546875
71.25048828125 0.74462890625 -2.1082763671875
31.045654296875 22.8817138671875 4.5389404296875
71.9599609375 6.3021240234375 -4.40966796875
90.73583984375 -2.5809326171875 13.941650390625
35.212158203125 8.927978515625 2.9161376953125
65.91455078125 -36.4755859375 23.365966796875
35.76025390625 43.75439453125 -8.8262939453125
-31.291259765625 1.4149169921875 11.4217529296875
62.375244140625 -32.72314453125 11.1317138671875
62.46337890625 -7.7581787109375 15.682373046875
-14.08349609375 34.2342529296875 2.0556640625
65.412353515625 2.0826416015625 10.50244140625
57.983154296875 -23.7183837890625 20.8388671875
64.93212890625 -5.41357421875 4.894287109375
-38.060791015625 10.902587890625 6.3563232421875
74.3671875 1.7115478515625 -9.3779296875
71.576416015625 29.1845703125 -14.2603759765625
21.877197265625 -0.9384765625 15.97607421875
-54.14208984375 5.42529296875 11.1363525390625
36.122314453125 39.3853759765625 -9.2393798828125
79.363037109375 -6.5911865234375 -0.2291259765625
72.183837890625 18.4727783203125 -10.42138671875
48.33642578125 43.3760986328125 -9.203857421875
74.7158203125 -43.0306396484375 25.427978515625
-39.9697265625 -4.279296875 8.2086181640625
-42.487548828125 15.04150390625 10.04150390625
75.766357421875 -12.6597900390625 0.5921630859375
-50.384521484375 -2.123779296875 17.4630126953125
3.813720703125 31.838623046875 -13.2813720703125
35.7412109375 26.9610595703125 -8.8726806640625
49.416748046875 -15.7357177734375 16.941162109375
-3.604248046875 -9.7552490234375 21.19482421875
71.698974609375 -42.78857421875 26.9825439453125
72.87890625 -37.4423828125 21.1934814453125
-9.404296875 -5.7601318359375 18.656982421875
-46.159423828125 -2.9669189453125 7.2694091796875
-63.662841796875 -3.336181640625 18.9249267578125
82.13818359375 20.8985595703125 -15.4859619140625
-20.96435546875 16.0457763671875 1.307861328125
103.537353515625 -10.7037353515625 2.6505126953125
40.05419921875 6.53271484375 6.3167724609375
4.63818359375 -1.9197998046875 7.5306396484375
66.05078125 -9.2835693359375 15.3839111328125
66.41162109375 -44.5054931640625 30.0643310546875
56.258544921875 -12.90478515625 10.510498046875
-2.401611328125 -23.03271484375 26.5809326171875
41.722900390625 -4.0394287109375 17.6671142578125
8.899658203125 4.718505859375 9.046142578125
70.58935546875 -45.0338134765625 14.2576904296875
36.80078125 1.99462890625 11.7130126953125
-24.375244140625 1.4326171875 8.2457275390625
97.463134765625 9.6759033203125 -7.003173828125
55.646240234375 30.39111328125 -9.3731689453125
94.658447265625 12.173095703125 -1.4989013671875
77.7861328125 6.9302978515625 -11.1370849609375
-20.571044921875 10.2110595703125 3.9288330078125
96.572509765625 -1.1961669921875 7.4683837890625
89.2490234375 -12.39990234375 13.296875
4.5478515625 14.9793701171875 6.0880126953125
-43.336669921875 -4.263427734375 9.3206787109375
-28.4208984375 -10.3687744140625 23.1246337890625
73.159423828125 5.6944580078125 -7.2318115234375
-8.1220703125 12.55419921875 2.0408935546875
57.45361328125 -23.2542724609375 16.22705078125
98.803955078125 -18.9066162109375 10.41162109375
13.0791015625 2.2822265625 12.4906005859375
69.59130859375 7.662109375 9.112060546875
89.502197265625 4.9140625 6.2774658203125
4.22998046875 9.0849609375 6.1690673828125
1.92529296875 -9.8203125 21.50146484375
18.6240234375 24.7105712890625 -0.2066650390625
95.585693359375 7.12353515625 1.79736328125
96.9072265625 -12.66552734375 2.0924072265625
67.479736328125 -1.3380126953125 13.928466796875
68.2529296875 -17.8521728515625 6.9913330078125
64.53857421875 -30.34912109375 6.0574951171875
34.35791015625 15.266357421875 -6.973388671875
52.4794921875 11.379638671875 -2.3048095703125
17.439453125 8.7403564453125 8.2176513671875
46.846923828125 49.18896484375 -9.391845703125
42.239013671875 49.899169921875 -9.2000732421875
53.460693359375 42.3099365234375 -9.3009033203125
-44.93359375 -2.466064453125 13.9405517578125
74.646728515625 -39.3729248046875 22.9287109375
95.068359375 -0.097900390625 10.5947265625
63.148193359375 -26.7659912109375 2.9644775390625
-1.936279296875 7.9134521484375 6.5616455078125
54.0927734375 3.6492919921875 9.028564453125
97.615966796875 -3.91796875 -7.2578125
74.896484375 27.58349609375 -15.767578125
65.401611328125 -2.7296142578125 15.7197265625
-9.43359375 26.826171875 -0.667724609375
14.954345703125 -1.8531494140625 17.0677490234375
46.476806640625 -11.2442626953125 18.7967529296875
32.686279296875 -1.1856689453125 15.23486328125
70.831787109375 39.29541015625 -17.393310546875
-61.392333984375 -5.2266845703125 20.8358154296875
87.240478515625 2.396728515625 8.837890625
-48.566650390625 15.4390869140625 11.9434814453125
5.33056640625 36.08203125 -13.4951171875
46.61376953125 -17.38818359375 18.2200927734375
-5.859375 4.066650390625 10.260986328125
53.431884765625 27.66650390625 -9.4439697265625
94.859130859375 -8.6043701171875 9.389404296875
-30.5048828125 13.364990234375 2.5281982421875
71.87939453125 -45.0986328125 29.4599609375
41.38671875 8.52685546875 3.121337890625
-42.677001953125 -1.504638671875 7.49951171875
78.83154296875 -32.05126953125 6.904541015625
74.79541015625 43.5255126953125 -19.7396240234375
4.817138671875 -26.1507568359375 29.03466796875
53.7021484375 7.4786376953125 4.113037109375
89.1064453125 13.207763671875 1.55517578125
42.17333984375 35.938232421875 -8.819580078125
-16.6162109375 28.193359375 -0.0931396484375
-1.31787109375 17.9007568359375 -0.2889404296875
71.461669921875 -13.3551025390625 5.861328125
73.7802734375 47.72314453125 -21.406494140625
-25.590087890625 -1.4649658203125 14.09423828125
26.87890625 13.1217041015625 -2.269287109375
6.780029296875 16.9827880859375 6.7406005859375
-26.9169921875 18.2440185546875 1.3380126953125
56.875244140625 -14.282470703125 17.1990966796875
63.279296875 -39.65478515625 27.949951171875
-13.130859375 -13.2381591796875 24.340576171875
72.302001953125 53.087158203125 -21.596923828125
69.348876953125 3.274169921875 -4.1773681640625
57.87158203125 5.52294921875 6.801513671875
60.930908203125 -10.9434814453125 11.682861328125
45.030029296875 28.189453125 -7.5008544921875
-0.682861328125 12.6649169921875 1.7916259765625
-25.933349609375 9.7274169921875 4.62841796875
8.258544921875 -23.7515869140625 27.2918701171875
36.7919921875 12.5531005859375 -2.7454833984375
42.981689453125 11.29638671875 -1.4622802734375
-33.91650390625 5.974853515625 8.6795654296875
-10.775390625 -21.344482421875 26.6207275390625
-31.542236328125 -3.3568115234375 16.711181640625
-13.069580078125 6.75634765625 7.589599609375
95.353759765625 -15.1463623046875 3.294921875
31.914306640625 29.502197265625 1.517822265625
-20.555908203125 5.642333984375 6.5499267578125
28.653564453125 21.1954345703125 4.69287109375
-28.287109375 5.4619140625 6.695556640625
95.789306640625 -17.7972412109375 9.3876953125
94.922119140625 -4.60986328125 -5.859375
-56.039794921875 -9.028564453125 24.4893798828125
27.110595703125 4.8658447265625 8.7337646484375
74.420654296875 23.9442138671875 -13.4251708984375
79.29248046875 26.010498046875 -19.5302734375
-13.33837890625 25.444091796875 -0.3402099609375
25.452880859375 24.2896728515625 2.4735107421875
-13.437744140625 10.9324951171875 3.1676025390625
45.546630859375 17.297119140625 -8.2322998046875
63.242919921875 -22.284912109375 0.6544189453125
-53.415283203125 -5.8074951171875 20.9986572265625
70.722412109375 20.913818359375 -11.70556640625
-21.101318359375 -4.9241943359375 18.0050048828125
-10.24609375 14.404052734375 -0.0159912109375
-8.267578125 -16.50927734375 24.6475830078125
1.396484375 -22.095458984375 1.199462890625
91.82470703125 0.1397705078125 11.0377197265625
78.357666015625 40.0799560546875 -22.1336669921875
-7.5751953125 23.7783203125 -0.1016845703125
7.736572265625 10.7415771484375 6.70068359375
28.816162109375 33.57421875 -0.6065673828125
88.675048828125 7.4261474609375 3.596923828125
82.822265625 -19.9073486328125 3.133056640625
60.1220703125 -25.791748046875 7.5916748046875
94.991943359375 1.8868408203125 -10.193603515625
60.128662109375 4.6705322265625 8.4168701171875
95.02685546875 -3.47265625 1.312744140625
5.776611328125 -21.596435546875 25.533935546875
-18.791259765625 0.0926513671875 12.4541015625
-0.130615234375 2.63623046875 10.2691650390625
46.780517578125 9.0843505859375 1.6083984375
74.702880859375 -26.97119140625 -1.0335693359375
30.762451171875 28.0452880859375 -8.7786865234375
59.2646484375 -13.0272216796875 8.1478271484375
-47.309814453125 12.33349609375 8.67578125
-20.89501953125 -18.6837158203125 27.4857177734375
94.56689453125 -1.22265625 -8.6768798828125
5.4931640625 33.7449951171875 -11.87451171875
45.222900390625 24.200439453125 -9.11572265625
2.328125 0.26416015625 6.10498046875
-56.6533203125 1.8533935546875 13.6871337890625
-51.53857421875 13.36328125 13.215576171875
96.02685546875 1.2484130859375 4.466796875
70.953125 -34.6287841796875 20.740966796875
-60.40771484375 -1.46484375 16.22314453125
18.8935546875 -4.6224365234375 18.9720458984375
-7.47998046875 17.8985595703125 -0.1678466796875
61.56640625 -29.110107421875 9.05029296875
57.3046875 -18.23876953125 18.6600341796875
17.222900390625 10.281005859375 5.62890625
-1.88330078125 1.1383056640625 13.570068359375
45.2001953125 35.2926025390625 -9.2513427734375
-19.72607421875 -3.012939453125 15.8193359375
101.33154296875 -6.4581298828125 -5.6282958984375
25.654296875 -3.955078125 18.463623046875
29.284423828125 18.572021484375 -0.1612548828125
52.83251953125 -3.8475341796875 16.912353515625
23.24560546875 41.84814453125 -5.5592041015625
94.139892578125 -16.5487060546875 15.5267333984375
-60.3154296875 -11.660888671875 26.8028564453125
53.59375 -13.1591796875 19.8812255859375
15.606201171875 0.643310546875 14.1993408203125
-22.974853515625 -10.7548828125 23.7034912109375
70.569091796875 26.3636474609375 -12.9688720703125
14.586669921875 28.0557861328125 -3.3616943359375
30.36572265625 41.8021240234375 -8.981689453125
93.98974609375 4.73193359375 -7.5850830078125
1.29443359375 10.1561279296875 5.501220703125
76.5439453125 40.6024169921875 -19.545654296875
-5.89892578125 29.06787109375 -0.9859619140625
84.315673828125 -15.673583984375 6.48388671875
78.9619140625 56.2716064453125 -24.2115478515625
-47.93701171875 6.8145751953125 7.3812255859375
88.37158203125 -1.330322265625 13.1224365234375
76.16357421875 18.0064697265625 -16.73876953125
38.37451171875 19.56005859375 -8.8797607421875
50.2158203125 0.242919921875 13.1192626953125
70.552001953125 32.4434814453125 -14.9468994140625
73.779296875 -34.7813720703125 7.0574951171875
-55.53466796875 4.2593994140625 16.7442626953125
47.175048828125 -2.643310546875 16.001708984375
64.813720703125 -33.4190673828125 20.8455810546875
-58.70263671875 -5.14013671875 20.18212890625
66.643310546875 -41.929443359375 28.2716064453125
59.218505859375 -29.6153564453125 14.399169921875
93.81494140625 -12.00439453125 -2.2054443359375
58.932373046875 -16.0601806640625 6.3387451171875
-6.29248046875 -19.111572265625 26.4404296875
-36.025634765625 -5.68603515625 20.9189453125
-16.311279296875 5.7335205078125 8.34326171875
1.896240234375 -6.4322509765625 21.01416015625
75.851806640625 55.1131591796875 -22.6099853515625
61.25634765625 -0.1783447265625 13.0692138671875
78.885009765625 16.0321044921875 -15.8887939453125
26.29248046875 16.4439697265625 -6.68798828125
3.07958984375 4.8494873046875 8.1475830078125
-18.455810546875 -20.2811279296875 27.1611328125
56.867919921875 -17.8724365234375 8.1011962890625
52.8955078125 51.73583984375 -9.307373046875
27.34033203125 9.6043701171875 2.8807373046875
-2.751708984375 20.9969482421875 -0.9017333984375
-27.911376953125 14.1888427734375 2.4859619140625
76.6259765625 -15.9512939453125 3.492431640625
37.71435546875 34.197021484375 -8.9508056640625
54.994140625 53.5418701171875 -9.3199462890625
6.9443359375 29.4385986328125 -9.14892578125
10.203369140625 -4.7044677734375 16.0841064453125
11.55908203125 28.5821533203125 -5.960693359375
67.164794921875 23.81982421875 -8.32080078125
18.84716796875 -20.7154541015625 25.0252685546875
-41.556396484375 -7.9688720703125 23.4971923828125
64.892822265625 -12.0509033203125 7.7125244140625
66.73681640625 -26.5850830078125 0.031494140625
-36.586669921875 -7.9498291015625 23.029052734375
-43.67919921875 13.086669921875 8.151123046875
13.665771484375 33.9024658203125 -6.1170654296875
28.026123046875 6.7725830078125 6.5474853515625
57.17041015625 -18.6783447265625 14.04736328125
28.888671875 -1.75439453125 16.1629638671875
53.160888671875 21.455078125 -9.72509765625
70.912109375 -37.6275634765625 23.80029296875
0.48974609375 33.994873046875 -15.932373046875
76.361572265625 3.7003173828125 -9.65869140625
42.7646484375 2.6085205078125 11.2613525390625
68.647216796875 22.595947265625 -11.4117431640625
67.3740234375 -34.1014404296875 8.3480224609375
6.457275390625 -4.8743896484375 16.8543701171875
70.022216796875 11.0103759765625 -7.765625
1.2626953125 -2.7822265625 18.11328125
-11.59033203125 30.987060546875 2.0391845703125
50.96630859375 6.2255859375 6.35009765625
-7.539794921875 -14.0216064453125 23.9788818359375
46.288818359375 6.1190185546875 6.5374755859375
40.114013671875 39.780029296875 -8.875244140625
74.85986328125 -30.3013916015625 3.1265869140625
28.818603515625 46.64111328125 -7.2568359375
44.118896484375 30.6356201171875 -6.9544677734375
9.677978515625 12.866455078125 3.766357421875
54.053955078125 15.92626953125 -8.0137939453125
80.308837890625 -21.2415771484375 1.6314697265625
102.2685546875 -13.2872314453125 3.5511474609375
76.7177734375 -6.183349609375 -3.9423828125
73.64501953125 32.724365234375 -16.367919921875
12.924072265625 -20.91064453125 25.148193359375
2.060302734375 -20.3990478515625 25.157470703125
67.09814453125 2.64306640625 4.7275390625
-8.47998046875 -23.136962890625 26.9969482421875
78.004638671875 9.41845703125 -12.8646240234375
24.77294921875 3.604248046875 10.772216796875
86.29345703125 6.333984375 4.0013427734375
5.2392578125 6.3330078125 7.7535400390625
6.2138671875 19.387939453125 9.1534423828125
-32.94482421875 0.9212646484375 13.828369140625
100.46630859375 -9.989990234375 -1.549072265625
-26.870361328125 8.3314208984375 6.7169189453125
34.96435546875 18.515625 -9.0048828125
10.593505859375 -19.0279541015625 23.797607421875
56.948486328125 -19.7979736328125 21.8468017578125
28.65673828125 29.6260986328125 -8.612548828125
27.06591796875 17.7562255859375 5.7725830078125
78.901611328125 32.0927734375 -21.33251953125
30.297607421875 21.1737060546875 -8.6051025390625
80.250732421875 -13.331298828125 6.674560546875
18.394775390625 3.274169921875 10.993896484375
-16.641845703125 33.87109375 1.2811279296875
-4.11474609375 -6.87353515625 19.6754150390625
9.5673828125 17.0047607421875 6.864501953125
73.902587890625 -20.9775390625 3.0836181640625
-29.914794921875 24.6923828125 1.8128662109375
1.9912109375 -25.6995849609375 28.7230224609375
61.927734375 -29.130126953125 21.0186767578125
-1.117431640625 -21.2056884765625 25.189697265625
19.34130859375 31.093994140625 -2.5018310546875
72.977294921875 -43.7274169921875 17.357421875
58.963134765625 -23.2156982421875 7.6331787109375
70.0107421875 51.852294921875 -18.606201171875
98.455810546875 -16.4385986328125 6.1226806640625
-41.453125 -1.90771484375 5.2205810546875
79.329833984375 -27.119140625 1.904541015625
67.082275390625 -6.030029296875 10.55078125
59.077880859375 -21.8515625 4.172607421875
-22.492919921875 -8.9678955078125 21.4583740234375
104.458740234375 -14.6552734375 6.4910888671875
71.648193359375 13.999267578125 -8.852783203125
-29.74365234375 18.8790283203125 1.740966796875
-61.26220703125 -9.452392578125 25.1239013671875
66.769287109375 6.169921875 8.7174072265625
-13.948486328125 -29.495361328125 31.59228515625
9.99609375 8.9097900390625 6.93212890625
11.7978515625 -23.0262451171875 26.9599609375
-14.42822265625 1.899169921875 10.11669921875
60.55224609375 -30.0213623046875 17.7767333984375
-22.304931640625 12.84423828125 1.5599365234375
21.67626953125 4.6800537109375 9.00146484375
-11.57373046875 21.447509765625 0.136474609375
27.677490234375 13.3895263671875 2.0537109375
13.980224609375 36.3951416015625 -6.7694091796875
19.6337890625 43.4959716796875 -7.5013427734375
95.21826171875 -3.4176025390625 13.9803466796875
-44.896240234375 -7.0955810546875 22.4615478515625
39.9306640625 16.9351806640625 -8.154541015625
28.31982421875 13.85986328125 7.9478759765625
73.861572265625 1.3455810546875 -6.8846435546875
-25.159912109375 21.9444580078125 1.0233154296875
-7.0712890625 33.357421875 -1.1451416015625
32.949951171875 48.97216796875 -8.71875
81.413330078125 36.3863525390625 -22.052978515625
-11.754638671875 31.544189453125 -0.4593505859375
49.697509765625 26.74755859375 -9.1490478515625
94.686279296875 -9.6705322265625 -1.2578125
-39.569091796875 6.7396240234375 8.3243408203125
103.01220703125 -10.372802734375 0.163330078125
27.720703125 45.0146484375 -5.4715576171875
61.494873046875 -5.8946533203125 17.1495361328125
-9.545166015625 34.0382080078125 -0.7783203125
22.3994140625 0.5517578125 13.9610595703125
-10.9013671875 36.384765625 -1.1124267578125
-26.828125 0.81982421875 8.643798828125
23.25537109375 21.0596923828125 3.20361328125
81.103271484375 -29.808837890625 6.20751953125
-28.111083984375 -9.6435546875 20.5325927734375
35.19873046875 33.6575927734375 -9.195556640625
-10.06201171875 -1.7847900390625 14.579833984375
-4.240966796875 15.5240478515625 -0.5540771484375
85.395263671875 9.7330322265625 0.19970703125
69.27294921875 -0.9031982421875 -1.034912109375
0.135009765625 -17.8731689453125 5.5887451171875
-11.822509765625 -5.39892578125 16.0535888671875
-50.301025390625 -9.6798095703125 25.2904052734375
69.225830078125 16.7437744140625 -10.181884765625
56.962158203125 2.108154296875 11.0281982421875
11.762939453125 38.193603515625 -9.7489013671875
-19.605224609375 24.8189697265625 0.4691162109375
62.289306640625 -24.594482421875 1.90234375
-37.3447265625 15.975341796875 12.244384765625
-15.897216796875 -5.59375 17.9254150390625
4.133056640625 -16.453369140625 23.2318115234375
95.2451171875 -25.0479736328125 19.8026123046875
-15.223876953125 -2.3238525390625 14.9630126953125
35.393310546875 24.4737548828125 -9.140625
82.295166015625 -32.3682861328125 11.1705322265625
49.22021484375 12.334228515625 -3.2178955078125
-43.38916015625 17.1693115234375 12.0245361328125
3.3466796875 -4.1715087890625 8.924072265625
-28.712158203125 8.0343017578125 8.6070556640625
40.436279296875 31.4857177734375 -7.804443359375
27.834716796875 37.73583984375 -2.26708984375
-13.89599609375 34.5904541015625 4.538818359375
15.32958984375 43.0205078125 -9.664306640625
74.0556640625 -3.36962890625 -4.0338134765625
-49.6865234375 -7.80322265625 23.330322265625
68.264404296875 -36.85986328125 24.1639404296875
77.173828125 50.8011474609375 -21.2353515625
-7.327392578125 -3.92626953125 17.0614013671875
63.52734375 0.940185546875 11.6976318359375
36.255859375 5.95361328125 7.256103515625
-18.513916015625 -11.8399658203125 23.9910888671875
-25.779541015625 29.829833984375 0.810546875
92.180908203125 11.8748779296875 -1.38232421875
-0.578369140625 -13.7459716796875 21.4151611328125
59.336669921875 -27.9100341796875 11.7122802734375
95.035888671875 0.2586669921875 -4.23486328125
76.837158203125 12.61669921875 -14.6011962890625
55.5791015625 9.6949462890625 0.154541015625
-11.31396484375 -16.3819580078125 24.7882080078125
67.72900390625 2.8043212890625 9.2763671875
78.323486328125 2.5904541015625 -8.610595703125
-33.365478515625 -5.7197265625 20.0006103515625
63.96337890625 -34.9659423828125 23.083740234375
29.39111328125 10.5904541015625 0.3580322265625
-37.20849609375 2.3240966796875 10.42529296875
98.6796875 -8.5247802734375 -3.080810546875
80.56103515625 52.36328125 -24.895263671875
-20.979248046875 -14.52392578125 25.77197265625
-20.809326171875 -26.242919921875 30.63232421875
3.365478515625 -22.46240234375 26.322509765625
-5.280517578125 0.0052490234375 15.142578125
32.87451171875 4.4708251953125 9.136474609375
40.237060546875 -0.611083984375 14.2269287109375
59.039794921875 -27.7889404296875 18.1474609375
-47.29248046875 3.9556884765625 10.4886474609375
57.9521484375 -22.53271484375 10.876708984375
-2.940185546875 -12.4608154296875 22.014892578125
97.740478515625 -31.2178955078125 25.1053466796875
95.48974609375 -6.532470703125 10.8538818359375
11.052978515625 14.771240234375 4.501220703125
48.534423828125 -12.8758544921875 17.518310546875
58.208984375 -24.5633544921875 12.56494140625
1.896240234375 -2.4407958984375 13.435302734375
16.910400390625 34.4632568359375 -5.1593017578125
3.728271484375 37.226318359375 -15.157958984375
71.2900390625 -32.8524169921875 5.7386474609375
91.9423828125 4.7315673828125 6.189453125
-45.998291015625 -4.7886962890625 8.9697265625
93.36572265625 -20.381591796875 19.1524658203125
54.002685546875 24.006591796875 -9.5057373046875
-43.914306640625 2.5458984375 7.23681640625
96.2841796875 -15.0548095703125 5.5897216796875
-28.904541015625 1.531005859375 10.9178466796875
82.931884765625 55.7235107421875 -25.704345703125
15.3232421875 12.0960693359375 5.2261962890625
96.986083984375 0.2381591796875 -11.434326171875
77.9716796875 49.1378173828125 -22.8660888671875
71.44384765625 8.0997314453125 -6.4578857421875
15.047119140625 16.9124755859375 6.8602294921875
-25.08203125 34.552490234375 0.961669921875
15.28857421875 -22.3558349609375 26.494140625
69.538818359375 -25.665283203125 -1.8975830078125
16.2451171875 25.5714111328125 -1.4571533203125
70.985595703125 43.822265625 -18.797119140625
75.291015625 7.0743408203125 -12.0863037109375
68.888671875 6.292724609375 7.2445068359375
53.863525390625 12.943603515625 -4.3934326171875
42.182373046875 41.9979248046875 -8.9068603515625
76.867919921875 34.2374267578125 -21.0625
44.355224609375 40.8612060546875 -9.0958251953125
45.735107421875 29.85009765625 -9.1094970703125
75.601806640625 28.4827880859375 -18.0234375
41.364501953125 10.380126953125 0.08251953125
-12.4951171875 14.47119140625 0.8663330078125
7.36767578125 1.425048828125 7.1552734375
41.708740234375 27.6175537109375 -5.6541748046875
16.4208984375 5.9486083984375 8.4000244140625
-7.093994140625 8.6412353515625 5.8707275390625
99.3369140625 -1.2596435546875 -11.3560791015625
-27.713134765625 -2.5208740234375 15.38916015625
-22.92041015625 25.7816162109375 0.7828369140625
56.70703125 8.5389404296875 2.40625
-43.99462890625 8.76318359375 6.5255126953125
77.0791015625 -10.7918701171875 -0.8302001953125
62.391357421875 -2.7108154296875 15.5723876953125
-37.14892578125 7.357666015625 7.9281005859375
-8.101318359375 -21.0047607421875 25.5496826171875
-11.894287109375 -11.0377197265625 22.814697265625
73.931640625 -23.592041015625 -1.3328857421875
-2.11767578125 3.0255126953125 11.793212890625
-63.47265625 -6.692138671875 22.1185302734375
26.363037109375 -0.02734375 14.5609130859375
65.386962890625 -22.9241943359375 -0.486328125
-3.170166015625 37.7335205078125 -1.9716796875
25.30810546875 29.7762451171875 0.4183349609375
56.270263671875 -0.9722900390625 13.8409423828125
31.088134765625 1.579345703125 12.5496826171875
95.892333984375 -6.7099609375 -2.3017578125
-15.39501953125 12.1341552734375 2.54833984375
26.82568359375 26.19970703125 2.138427734375
-49.88134765625 1.97412109375 12.74658203125
57.767578125 -2.6632080078125 16.0015869140625
98.262451171875 2.5091552734375 -13.0091552734375
-52.55517578125 6.7281494140625 9.6500244140625
-27.26318359375 -5.760986328125 19.018310546875
5.849609375 -4.439208984375 8.549560546875
78.774169921875 -0.1290283203125 -6.5308837890625
72.134033203125 -9.5255126953125 0.449951171875
92.800048828125 -15.2281494140625 9.7491455078125
44.863525390625 -8.2010498046875 18.8778076171875
21.568603515625 35.251220703125 -3.2786865234375
2.03955078125 -17.4051513671875 23.7200927734375
46.728515625 41.663818359375 -9.24169921875
-21.22607421875 21.2939453125 1.15185546875
69.04443359375 -9.5809326171875 3.505615234375
-38.525146484375 3.728271484375 9.08984375
67.7265625 -7.64990234375 15.474365234375
73.685791015625 7.2496337890625 -9.0987548828125
-29.406005859375 9.6693115234375 5.6356201171875
-6.95263671875 39.552490234375 -1.6387939453125
-52.6240234375 -4.136962890625 19.56689453125
-1.181884765625 -26.95703125 29.860595703125
0.4599609375 5.833740234375 9.1806640625
76.072509765625 35.850830078125 -19.43798828125
-41.7841796875 -6.5972900390625 21.622802734375
93.836181640625 -11.3790283203125 7.424072265625
-13.91064453125 -8.9610595703125 22.0035400390625
-25.51123046875 13.069091796875 2.145263671875
-54.81298828125 -0.5518798828125 15.5130615234375
-46.81689453125 -1.2618408203125 13.314208984375
-18.8115234375 4.6444091796875 7.7113037109375
-9.1630859375 -10.63232421875 21.870849609375
45.27685546875 2.666259765625 10.6015625
5.97802734375 14.3988037109375 4.3599853515625
39.3876953125 48.5572509765625 -8.9837646484375
11.94384765625 -3.31201171875 16.7032470703125
50.6865234375 -13.6568603515625 17.19580078125
54.7724609375 1.565673828125 11.5316162109375
55.731201171875 41.240966796875 -9.366455078125
32.87646484375 21.381591796875 -9.020263671875
95.13134765625 -18.348876953125 14.178955078125
1.7353515625 36.2255859375 -16.4212646484375
96.00634765625 8.8699951171875 -5.1634521484375
30.119873046875 25.6546630859375 -8.7530517578125
6.610107421875 -1.4354248046875 4.9315185546875
-18.961669921875 -22.9554443359375 28.3526611328125
95.60107421875 -6.5101318359375 8.5528564453125
65.79833984375 -1.7679443359375 2.3583984375
-18.931640625 -6.3568115234375 19.1744384765625
47.473876953125 4.1651611328125 9.1005859375
56.6259765625 -7.8681640625 18.3529052734375
19.3857421875 38.9102783203125 -5.4473876953125
75.915283203125 -35.53369140625 19.3145751953125
56.985595703125 -18.2806396484375 16.2952880859375
78.4736328125 -2.69775390625 -4.91796875
96.73779296875 6.875732421875 -13.1416015625
95.2744140625 -3.2059326171875 -10.317626953125
60.447998046875 1.7452392578125 11.26611328125
-5.617919921875 5.601318359375 8.594970703125
-31.580322265625 32.6539306640625 1.1900634765625
-27.810546875 31.8187255859375 0.9534912109375
30.609130859375 39.471435546875 -9.0543212890625
45.2314453125 11.5169677734375 -1.7005615234375
13.3994140625 10.8876953125 5.1890869140625
30.906982421875 31.6231689453125 -9.0595703125
50.54052734375 -17.8255615234375 19.4134521484375
-0.005859375 -4.1671142578125 19.4954833984375
79.217041015625 11.9620361328125 -13.760009765625
-12.10546875 1.4927978515625 11.4871826171875
29.20751953125 31.380859375 0.5093994140625
34.83203125 -4.712646484375 18.18359375
37.822265625 4.939453125 8.6395263671875
-56.7451171875 -10.5867919921875 26.1796875
13.24658203125 15.4205322265625 5.1982421875
-30.020751953125 30.5516357421875 0.9710693359375
66.128173828125 6.4788818359375 -1.0860595703125
77.823974609375 -17.19189453125 5.7628173828125
94.563232421875 -27.1053466796875 23.2569580078125
94.919921875 6.516845703125 -4.838623046875
101.0302734375 -23.46142578125 17.3612060546875
-14.77099609375 18.714111328125 0.177001953125
74.842529296875 -28.7989501953125 1.17724609375
-49.531982421875 4.7379150390625 10.0477294921875
79.813720703125 20.5565185546875 -18.4366455078125
-16.70458984375 22.0999755859375 0.390625
79.808837890625 -23.325439453125 -1.2591552734375
20.933349609375 -5.50439453125 19.4954833984375
75.280517578125 -0.72314453125 -5.7420654296875
69.051513671875 6.0140380859375 -5.189208984375
40.501953125 -2.16650390625 15.9150390625
-46.76611328125 0.2845458984375 9.9088134765625
16.6220703125 -3.5443115234375 17.915771484375
96.33642578125 3.048095703125 -0.270263671875
57.124755859375 -19.252685546875 11.4241943359375
-51.533203125 9.5570068359375 8.8126220703125
101.3310546875 -15.346435546875 5.6751708984375
6.958740234375 -5.862548828125 11.154052734375
94.240234375 0.748779296875 -7.2027587890625
21.960205078125 -24.0203857421875 27.1881103515625
68.41259765625 14.804443359375 -7.05126953125
