101.472412109375 -1.0059814453125 5.409912109375
59.349609375 -2.9112548828125 8.17919921875
70.806396484375 2.1710205078125 -2.368896484375
93.818115234375 17.3046875 -15.2249755859375
66.746337890625 33.9742431640625 -8.0228271484375
28.80078125 14.255126953125 1.5853271484375
60.2021484375 11.840576171875 0.444091796875
1.944091796875 12.3143310546875 9.20263671875
-47.931884765625 -5.01611328125 12.408935546875
-24.45458984375 33.4359130859375 5.4134521484375
76.939453125 -18.63916015625 6.2425537109375
66.668701171875 10.909912109375 -5.206298828125
64.5048828125 8.3883056640625 1.004638671875
61.7421875 -25.871337890625 6.89697265625
88.769287109375 7.3289794921875 -7.597900390625
-57.93701171875 4.1356201171875 13.639892578125
53.038330078125 -20.49658203125 11.4117431640625
-21.717041015625 12.4119873046875 7.5894775390625
-19.93115234375 -3.14697265625 17.2601318359375
-17.1484375 0.8314208984375 15.4913330078125
58.3251953125 -27.210693359375 10.48681640625
73.633544921875 17.3892822265625 -6.8369140625
-43.513916015625 5.129150390625 12.0384521484375
49.696533203125 12.5931396484375 8.32080078125
24.3544921875 9.280517578125 10.4945068359375
-76.907958984375 -5.21728515625 21.7811279296875
101.073974609375 -3.0025634765625 10.6181640625
-55.78271484375 -3.324951171875 19.5982666015625
-89.02978515625 -19.266357421875 7.02783203125
87.458251953125 -2.928955078125 4.6783447265625
48.916015625 30.9744873046875 -2.8599853515625
31.025634765625 36.4659423828125 -3.90966796875
95.14208984375 -14.60595703125 13.256591796875
71.34765625 23.328125 -12.2841796875
-40.96240234375 -0.6583251953125 19.34521484375
-37.41455078125 16.5733642578125 4.40087890625
-10.342529296875 33.416259765625 3.1146240234375
-35.236572265625 29.84033203125 4.246337890625
88.7138671875 -14.7373046875 19.2445068359375
30.07861328125 46.7548828125 -3.2479248046875
75.568603515625 -28.184814453125 12.866455078125
71.502197265625 45.8106689453125 -17.0167236328125
-35.31640625 8.3621826171875 9.3634033203125
-40.520263671875 11.8798828125 9.797607421875
63.663818359375 3.300537109375 2.943603515625
66.680419921875 -3.78662109375 1.5401611328125
-41.6826171875 -6.8326416015625 23.5628662109375
-62.991943359375 -1.0889892578125 19.0228271484375
45.700439453125 14.1107177734375 1.8643798828125
74.19580078125 57.637939453125 -19.21044921875
-97.23583984375 -22.7708740234375 9.3380126953125
24.15966796875 18.8233642578125 -1.6744384765625
-26.076904296875 16.7333984375 4.0931396484375
92.539306640625 9.63525390625 -8.5518798828125
12.564453125 6.626953125 14.9007568359375
71.510498046875 31.1134033203125 -14.021728515625
-16.63525390625 17.9541015625 3.484619140625
64.546875 -5.7451171875 7.18505859375
-53.33740234375 11.732177734375 9.0498046875
-50.99658203125 1.255615234375 11.167724609375
-9.237548828125 9.3511962890625 10.3995361328125
-21.87841796875 24.379638671875 3.46142578125
-67.931396484375 -4.2869873046875 21.90576171875
-48.771240234375 -0.2388916015625 6.035400390625
-22.466796875 4.96142578125 12.91748046875
97.0625 5.071533203125 -7.8634033203125
27.347900390625 27.27392578125 -4.713623046875
33.35986328125 9.807373046875 11.8480224609375
63.381591796875 51.898681640625 -13.5032958984375
-58.76171875 -7.0965576171875 23.6336669921875
70.935302734375 17.4940185546875 -10.2431640625
95.89599609375 -3.08544921875 1.615966796875
67.2607421875 -22.8272705078125 2.8966064453125
58.890625 -21.034912109375 3.9525146484375
88.41650390625 3.3487548828125 -4.8663330078125
-1.644775390625 8.905029296875 11.943115234375
87.38427734375 -1.1636962890625 0.74169921875
-11.807861328125 -1.6982421875 19.8360595703125
21.223876953125 24.21337890625 -6.2529296875
59.564697265625 3.2122802734375 4.1298828125
77.92626953125 15.6531982421875 7.13525390625
-1.500244140625 1.18505859375 7.4375
-34.20751953125 22.2841796875 4.294677734375
-27.31884765625 -5.7734375 21.4525146484375
-33.617919921875 -6.3155517578125 20.72216796875
93.6376953125 -7.0760498046875 4.17236328125
92.080322265625 -12.2791748046875 11.583740234375
34.831298828125 43.59228515625 -3.672119140625
-29.297119140625 28.98046875 3.42333984375
-18.972412109375 9.7156982421875 9.190185546875
32.12109375 32.2181396484375 -3.8863525390625
-47.41064453125 -1.2880859375 17.5035400390625
101.80859375 -4.1326904296875 0.6343994140625
-30.87890625 11.992919921875 6.3046875
72.1845703125 -24.5706787109375 6.989990234375
64.00634765625 45.39208984375 -12.4716796875
-37.489013671875 25.2364501953125 4.2894287109375
-9.142822265625 4.1075439453125 16.9559326171875
67.8955078125 -29.5858154296875 9.414794921875
-26.593994140625 9.983642578125 9.52734375
2.436767578125 3.7666015625 13.1712646484375
72.681396484375 37.6600341796875 -16.1728515625
93.20849609375 -21.977294921875 18.8458251953125
65.7451171875 27.0850830078125 -6.6185302734375
8.712890625 7.7901611328125 12.5914306640625
-26.4326171875 1.523681640625 15.609375
47.77294921875 16.5048828125 -0.6568603515625
-13.427978515625 24.259765625 3.3131103515625
33.05517578125 13.8797607421875 3.0028076171875
21.080810546875 13.465087890625 4.548583984375
35.396484375 35.70703125 -2.2294921875
-47.764404296875 7.6658935546875 11.2711181640625
-11.4658203125 11.660400390625 7.0244140625
-36.2490234375 -2.226806640625 18.7996826171875
-89.321533203125 -22.4140625 9.9840087890625
-39.593994140625 3.592041015625 14.5911865234375
39.098388671875 17.613037109375 -0.3009033203125
69.588623046875 -10.7384033203125 5.9210205078125
-54.821533203125 0.3311767578125 16.9239501953125
42.133056640625 9.4705810546875 10.524169921875
48.901123046875 39.3841552734375 -2.34912109375
-1.81298828125 -0.5938720703125 18.1224365234375
19.5634765625 7.37939453125 11.79443359375
66.509521484375 37.6458740234375 -9.3692626953125
-17.797119140625 27.3631591796875 2.8480224609375
61.091552734375 33.22314453125 -7.4134521484375
69.84423828125 -5.6676025390625 2.654296875
55.15869140625 -23.5660400390625 10.4437255859375
41.395751953125 -11.984619140625 19.90185546875
95.845703125 -9.1998291015625 6.46435546875
22.701171875 31.9171142578125 -6.09033203125
40.6484375 25.2901611328125 -4.42529296875
-29.813232421875 22.314453125 3.534912109375
-5.815673828125 14.28271484375 8.8074951171875
-51.857666015625 -3.740478515625 20.9920654296875
-49.1806640625 -5.267578125 23.492919921875
-22.30908203125 20.6298828125 3.68017578125
-85.401123046875 -17.184814453125 6.372802734375
36.84814453125 12.2288818359375 5.9068603515625
42.83349609375 19.8084716796875 -2.894287109375
25.98828125 36.2705078125 -3.3414306640625
41.1025390625 11.853515625 7.3243408203125
67.162841796875 56.302978515625 -14.7430419921875
78.13671875 11.391845703125 8.848388671875
1.45166015625 -1.6038818359375 13.4051513671875
-29.39501953125 -0.251220703125 17.6314697265625
-30.423583984375 3.466552734375 11.3555908203125
29.174072265625 11.6802978515625 8.5794677734375
65.391845703125 20.0765380859375 -3.9114990234375
-27.2041015625 33.08984375 2.984619140625
69.683349609375 28.173583984375 -12.8173828125
46.37255859375 27.3629150390625 -4.097412109375
24.6669921875 14.7662353515625 3.7274169921875
41.39697265625 33.4039306640625 -4.0084228515625
89.247802734375 -11.2769775390625 8.8524169921875
93.718017578125 5.8426513671875 -9.357666015625
101.076171875 -4.7513427734375 4.422607421875
100.63623046875 -9.4176025390625 11.845458984375
-19.295654296875 -4.312744140625 20.955078125
-13.0380859375 4.7725830078125 15.2574462890625
-13.685546875 7.2177734375 12.0655517578125
71.8828125 2.2138671875 1.0819091796875
65.34033203125 -10.1668701171875 8.1158447265625
74.31396484375 25.5325927734375 -9.62841796875
64.830078125 -27.897705078125 8.2633056640625
0.660888671875 3.7318115234375 10.0350341796875
-33.719970703125 0.7418212890625 15.6644287109375
-48.048095703125 -1.424072265625 10.703125
-67.564697265625 -7.9910888671875 23.021484375
41.6630859375 14.8677978515625 3.69287109375
-45.6943359375 13.1492919921875 8.9898681640625
73.228515625 12.44287109375 -5.6524658203125
78.40869140625 -18.737548828125 9.6158447265625
60.833740234375 39.35693359375 -8.0401611328125
4.576416015625 3.9466552734375 16.4581298828125
35.268798828125 19.9891357421875 -3.6558837890625
68.572509765625 24.6888427734375 -10.53857421875
26.17333984375 6.9556884765625 13.7978515625
-55.44140625 8.3682861328125 9.4013671875
59.674072265625 0.0540771484375 6.0989990234375
61.806640625 14.1600341796875 -1.6380615234375
38.772705078125 37.771728515625 -4.53076171875
92.933837890625 -1.358154296875 -0.5584716796875
26.900146484375 45.328125 -2.9227294921875
-20.50732421875 33.914794921875 4.4483642578125
-43.09912109375 -2.4844970703125 21.3818359375
25.15234375 39.8470458984375 -4.343505859375
95.38916015625 2.764892578125 -4.935546875
-85.760498046875 -16.238037109375 11.71728515625
-1.832275390625 -0.5836181640625 12.5498046875
45.029541015625 34.0968017578125 -4.2989501953125
-12.63525390625 15.731201171875 4.52978515625
-60.7978515625 2.62890625 14.87890625
-71.0751953125 -3.80126953125 20.5987548828125
36.626220703125 31.4937744140625 -3.1685791015625
26.055419921875 17.133056640625 0.623291015625
-64.512451171875 -4.454345703125 21.919677734375
97.850830078125 -11.932861328125 14.5721435546875
89.91845703125 -17.4515380859375 17.5474853515625
-19.235595703125 14.383056640625 5.6868896484375
-44.701171875 1.2972412109375 12.5211181640625
-25.528564453125 6.4486083984375 10.380615234375
-46.05078125 -2.4241943359375 13.565673828125
66.187744140625 48.848388671875 -13.4183349609375
77.78564453125 -24.16845703125 12.9063720703125
58.665771484375 -11.7681884765625 -14.8511962890625
-20.009521484375 6.6734619140625 11.332275390625
99.0634765625 -9.24609375 8.5123291015625
-28.1513671875 25.183349609375 4.231689453125
19.79931640625 4.670166015625 15.223388671875
40.16796875 30.09228515625 -3.4766845703125
-30.037841796875 -4.3994140625 19.367431640625
74.2607421875 -21.9908447265625 6.298095703125
45.913330078125 38.88720703125 -3.84521484375
72.35302734375 53.6702880859375 -17.571044921875
-8.20751953125 -0.3919677734375 19.01171875
-33.038330078125 5.80224609375 9.5098876953125
2.084228515625 15.388916015625 7.5303955078125
31.229248046875 15.947021484375 0.0186767578125
65.46533203125 4.970703125 -0.0587158203125
-15.244873046875 30.8441162109375 3.004150390625
63.633056640625 16.9427490234375 -2.892822265625
-28.695068359375 19.2010498046875 3.79443359375
72.366943359375 41.18603515625 -16.689697265625
-22.845458984375 -2.8973388671875 18.86669921875
38.534912109375 41.13037109375 -3.686279296875
100.46435546875 3.0306396484375 1.232421875
-35.186279296875 18.9725341796875 4.8035888671875
-29.48486328125 14.5845947265625 4.815673828125
97.299560546875 -17.01611328125 19.7169189453125
75.27880859375 49.384033203125 -17.787353515625
-19.46142578125 2.912109375 14.49365234375
99.003662109375 1.7322998046875 -2.201171875
-4.01123046875 -1.3963623046875 15.8460693359375
69.39208984375 -0.8397216796875 -0.8797607421875
96.168701171875 11.4410400390625 -11.286376953125
42.27392578125 40.9508056640625 -3.6002197265625
59.43798828125 -7.4105224609375 -23.5675048828125
29.817626953125 23.957763671875 -4.01611328125
74.185546875 44.062255859375 -17.53076171875
96.33447265625 -12.73583984375 8.026123046875
55.759033203125 -20.65478515625 6.5306396484375
58.64111328125 4.8953857421875 -26.75634765625
67.71435546875 14.54736328125 -7.2899169921875
-33.67919921875 10.378173828125 7.4541015625
10.6396484375 13.0626220703125 10.2109375
7.93017578125 13.829833984375 8.6500244140625
75.244140625 31.2886962890625 -12.2630615234375
-8.43603515625 17.6915283203125 4.212158203125
63.197509765625 11.100341796875 -0.4339599609375
-24.744140625 36.2325439453125 3.868896484375
-15.67333984375 -0.785400390625 17.8355712890625
59.036865234375 -6.8035888671875 10.9842529296875
-46.125244140625 1.07763671875 8.71630859375
67.6318359375 2.5501708984375 -2.2471923828125
28.517578125 13.8570556640625 5.7200927734375
16.213134765625 3.3690185546875 16.0445556640625
-79.201904296875 -7.2735595703125 23.1121826171875
-33.912109375 15.278076171875 5.1158447265625
69.190673828125 53.662109375 -15.372802734375
2.034912109375 9.7384033203125 11.2548828125
46.152587890625 11.7938232421875 8.52587890625
68.011474609375 31.122802734375 -11.8350830078125
62.09912109375 26.7493896484375 -6.0921630859375
70.002197265625 38.1378173828125 -14.5831298828125
65.23974609375 -24.56787109375 5.230712890625
-19.246337890625 19.915771484375 3.8099365234375
99.2568359375 -2.3466796875 1.87158203125
63.2275390625 39.2188720703125 -10.41259765625
-37.426025390625 32.1929931640625 3.8170166015625
59.697509765625 -1.0924072265625 -25.8792724609375
-16.39501953125 7.9849853515625 10.504638671875
-13.618408203125 21.1572265625 3.518798828125
-9.619140625 27.69677734375 3.525146484375
-85.27685546875 -22.3897705078125 10.181640625
64.998779296875 -1.2176513671875 2.9493408203125
35.755615234375 6.697265625 12.5570068359375
59.52978515625 11.0523681640625 -27.939208984375
-12.40576171875 35.6517333984375 2.59716796875
-84.755859375 -6.1236572265625 20.67919921875
70.0205078125 11.0489501953125 -6.8372802734375
87.340576171875 -9.391357421875 7.352294921875
79.085693359375 -13.7557373046875 12.22802734375
-99.6904296875 -22.3292236328125 7.563720703125
63.3271484375 -9.98046875 11.105712890625
-50.566650390625 -1.8717041015625 18.951416015625
-32.178955078125 29.858154296875 3.913330078125
101.071533203125 -4.5172119140625 7.9764404296875
-6.118408203125 8.869384765625 11.6962890625
61.406005859375 -23.7318115234375 4.773193359375
48.53955078125 22.7200927734375 -3.4046630859375
70.314208984375 4.7896728515625 -3.7867431640625
32.282958984375 11.45166015625 9.5584716796875
69.6787109375 -23.9525146484375 5.45458984375
70.4951171875 -27.437744140625 7.9310302734375
28.637939453125 38.2589111328125 -3.774658203125
82.928466796875 14.2567138671875 6.347412109375
60.3955078125 21.154541015625 -3.4051513671875
92.880615234375 -16.29296875 14.2193603515625
71.7451171875 -0.2039794921875 4.064453125
60.85009765625 -5.4722900390625 8.198486328125
1.18994140625 6.3953857421875 12.650390625
24.82861328125 30.1136474609375 -4.794921875
37.7275390625 24.8231201171875 -5.890869140625
64.6357421875 31.357177734375 -8.02783203125
-9.171875 21.6715087890625 3.6302490234375
64.667236328125 42.5780029296875 -11.9110107421875
-24.475341796875 14.4207763671875 4.9461669921875
-37.1826171875 6.2275390625 10.6573486328125
62.82275390625 -3.5106201171875 6.412353515625
-41.799072265625 9.0535888671875 11.1129150390625
71.330322265625 -8.4530029296875 5.3851318359375
-3.066650390625 14.01708984375 9.7520751953125
-38.880859375 9.17724609375 7.789794921875
-66.134521484375 -2.8515625 20.0386962890625
-59.50048828125 5.6312255859375 11.6666259765625
-28.266845703125 6.713134765625 9.4398193359375
-14.64208984375 11.1368408203125 6.9677734375
-16.638427734375 3.7125244140625 15.7750244140625
-18.556884765625 12.432861328125 8.2689208984375
46.666259765625 12.5677490234375 4.689453125
23.225830078125 22.785400390625 -4.7265625
58.99072265625 -9.405517578125 -21.383544921875
-49.217041015625 8.9345703125 9.126220703125
-14.291015625 38.8125 2.2340087890625
-34.61474609375 32.819091796875 3.9144287109375
72.308349609375 19.966796875 -10.7916259765625
91.994384765625 -8.9056396484375 6.5101318359375
-7.570556640625 10.9952392578125 8.7227783203125
4.25830078125 11.5130615234375 10.7177734375
74.5947265625 -25.9329833984375 9.8426513671875
-35.867431640625 -4.4224853515625 21.149658203125
68.69580078125 45.1793212890625 -13.779052734375
5.477783203125 6.01708984375 14.0789794921875
-45.408203125 -1.427734375 19.549560546875
73.138916015625 25.74755859375 -12.87353515625
30.9775390625 40.2291259765625 -4.7364501953125
-86.51025390625 -20.623779296875 7.0313720703125
37.905517578125 44.7464599609375 -3.1961669921875
67.881591796875 17.7384033203125 -8.3323974609375
-69.995361328125 -5.7249755859375 23.2373046875
39.625 13.2093505859375 5.3048095703125
45.417236328125 18.4896240234375 -2.740478515625
-53.330078125 -1.8585205078125 18.3179931640625
-4.838623046875 -3.0416259765625 11.9598388671875
-56.2802734375 -5.1253662109375 21.73095703125
-28.876708984375 2.9093017578125 14.0443115234375
-37.572265625 2.160888671875 13.0360107421875
25.30908203125 32.5975341796875 -3.010009765625
65.90869140625 10.7333984375 -2.4951171875
-0.864501953125 12.1898193359375 8.9669189453125
42.56982421875 -14.0087890625 21.7987060546875
-85.431640625 -11.00439453125 17.11181640625
42.831787109375 27.0582275390625 -4.5079345703125
9.773681640625 10.8707275390625 12.5135498046875
90.828125 -5.9248046875 4.449462890625
28.7626953125 20.00244140625 -3.5072021484375
-39.493408203125 5.3582763671875 12.4124755859375
97.769287109375 -0.62255859375 0.244384765625
-3.308837890625 0.771240234375 10.53173828125
38.08935546875 19.0228271484375 -2.7440185546875
34.82421875 10.81884765625 7.21240234375
62.7548828125 5.6688232421875 1.7803955078125
65.896484375 24.1951904296875 -5.280029296875
56.095947265625 -26.809326171875 12.1884765625
65.8046875 -5.4288330078125 3.6070556640625
-61.5107421875 -6.8309326171875 22.6890869140625
-50.60986328125 -5.111572265625 11.6978759765625
-95.47900390625 -21.3697509765625 7.5333251953125
79.799560546875 13.4969482421875 6.595947265625
68.510498046875 42.175048828125 -12.9176025390625
42.033935546875 7.73193359375 12.6689453125
-33.189697265625 -8.608642578125 22.9737548828125
95.813232421875 -16.3092041015625 15.3175048828125
-58.728271484375 -2.1124267578125 18.3819580078125
69.94140625 47.91943359375 -16.203125
93.44580078125 1.063720703125 -3.4625244140625
-57.01025390625 6.4840087890625 10.919921875
-34.79736328125 25.10498046875 3.8260498046875
-51.2744140625 -0.9703369140625 6.85302734375
23.10498046875 25.6793212890625 -4.614501953125
49.033447265625 11.443115234375 5.9329833984375
66.900146484375 -10.4176025390625 5.561279296875
90.16162109375 -10.3892822265625 13.5035400390625
72.88037109375 7.9139404296875 -2.2916259765625
-39.581787109375 -0.4383544921875 17.008056640625
-43.35205078125 0.004638671875 18.223388671875
53.078369140625 -22.66162109375 13.0606689453125
87.7890625 1.555419921875 -1.482421875
-19.016357421875 36.479248046875 2.8345947265625
-56.166259765625 10.9825439453125 9.3526611328125
-42.357177734375 3.6053466796875 13.9578857421875
93.3916015625 11.3836669921875 -10.5406494140625
-33.801025390625 2.2734375 12.7945556640625
-0.76025390625 -2.22021484375 14.828857421875
-61.7099609375 0.5338134765625 17.2864990234375
-56.828369140625 2.718505859375 15.6534423828125
-25.4921875 24.7965087890625 4.0848388671875
-24.494873046875 12.1728515625 7.2674560546875
74.372802734375 46.8096923828125 -18.0927734375
33.3173828125 34.6705322265625 -3.566162109375
66.995361328125 -12.909423828125 6.9825439453125
-23.139404296875 -1.1788330078125 16.659423828125
77.478271484375 -21.20947265625 9.982421875
70.052734375 52.333251953125 -17.618896484375
73.88916015625 3.720947265625 -0.566650390625
77.68359375 54.8973388671875 -15.5
72.4775390625 35.0830078125 -15.5438232421875
-47.679931640625 -1.6336669921875 8.0174560546875
26.778564453125 10.729736328125 9.2293701171875
-0.53515625 0.8968505859375 10.76416015625
95.219970703125 -12.8372802734375 11.2816162109375
-13.109619140625 13.12255859375 5.54345703125
90.500244140625 -20.1175537109375 17.820556640625
74.522705078125 54.2308349609375 -18.9859619140625
41.484619140625 18.559814453125 -0.9483642578125
48.439697265625 11.0020751953125 10.0233154296875
26.260986328125 43.2349853515625 -4.4034423828125
29.388427734375 28.905517578125 -3.930908203125
95.013916015625 13.4376220703125 -12.73828125
61.290771484375 -27.877685546875 9.0909423828125
-44.4326171875 7.0264892578125 10.4215087890625
-10.204833984375 31.26611328125 4.5894775390625
60.841796875 8.9681396484375 1.2501220703125
26.6123046875 25.232421875 -3.274658203125
46.87548828125 32.28515625 -4.002685546875
-52.483642578125 9.3944091796875 8.30322265625
-28.90283203125 11.040283203125 7.695068359375
42.920654296875 44.7984619140625 -3.3697509765625
29.995361328125 43.1761474609375 -4.23291015625
-21.14794921875 -4.85498046875 18.8843994140625
67.80810546875 7.4471435546875 -4.818359375
-84.89501953125 -18.2193603515625 13.6922607421875
76.252685546875 -21.048583984375 7.6375732421875
-73.125 -4.9859619140625 21.6177978515625
-64.926025390625 -0.2470703125 17.5418701171875
-50.37255859375 -3.6578369140625 13.9041748046875
-38.76171875 -6.9212646484375 23.6177978515625
-55.99853515625 -7.1097412109375 24.2669677734375
-45.861328125 -3.95849609375 11.3206787109375
101.24755859375 -1.4984130859375 7.916259765625
64.811279296875 34.924072265625 -9.40478515625
98.783447265625 -7.609619140625 6.410400390625
-15.24560546875 27.2125244140625 2.872802734375
-21.845947265625 29.7589111328125 3.376220703125
67.677490234375 43.95556640625 -11.2923583984375
-94.455810546875 -21.3382568359375 10.66015625
-46.877197265625 10.381103515625 8.324951171875
6.01416015625 8.5543212890625 11.03662109375
-24.505859375 -4.534912109375 20.536865234375
-19.173828125 -0.33935546875 16.498291015625
93.5244140625 -12.7589111328125 9.32470703125
-85.4912109375 -18.5579833984375 4.2353515625
22.1435546875 11.571533203125 7.145751953125
31.34228515625 8.6412353515625 12.8509521484375
2.526123046875 2.606201171875 15.802001953125
39.57861328125 35.356201171875 -4.6998291015625
57.037109375 -24.914794921875 9.4130859375
64.8798828125 -30.114501953125 9.8092041015625
-41.72021484375 -4.19384765625 22.6324462890625
-26.7724609375 28.9482421875 3.5333251953125
36.26513671875 15.6390380859375 1.5267333984375
-45.40576171875 2.7371826171875 10.5692138671875
-39.439697265625 -3.0015869140625 19.0531005859375
-11.6376953125 8.64453125 10.74462890625
4.372802734375 13.523681640625 8.237548828125
-16.294677734375 9.744140625 8.3345947265625
77.77587890625 -26.2109375 14.618896484375
-36.0087890625 -7.01953125 21.0657958984375
88.729736328125 -1.7066650390625 2.79296875
-32.480224609375 -4.0865478515625 20.544921875
21.30810546875 17.454833984375 -0.3729248046875
65.93115234375 52.3687744140625 -14.4884033203125
-31.540283203125 20.046142578125 4.2794189453125
2.368408203125 0.610595703125 12.6900634765625
46.47607421875 24.4879150390625 -4.680419921875
43.780517578125 11.0953369140625 8.866943359375
36.15185546875 13.6519775390625 3.9779052734375
31.747314453125 18.2161865234375 -2.6934814453125
27.365478515625 16.3560791015625 -1.3533935546875
-42.48046875 11.0115966796875 8.5206298828125
73.634521484375 29.7413330078125 -13.8892822265625
89.765869140625 -1.01611328125 0.0177001953125
67.734619140625 -24.98095703125 4.0484619140625
-62.848388671875 -3.052001953125 20.5433349609375
71.6318359375 -2.6851806640625 4.0843505859375
68.917236328125 51.3565673828125 -14.49169921875
-44.801513671875 -0.4620361328125 14.691162109375
66.900390625 20.7672119140625 -6.70361328125
70.144287109375 -13.097900390625 9.412353515625
27.14404296875 29.9326171875 -3.8148193359375
-23.295654296875 10.5340576171875 9.1021728515625
32.38671875 29.7689208984375 -3.15283203125
76.271240234375 55.4022216796875 -17.6512451171875
96.4501953125 -17.810546875 17.54248046875
23.442138671875 38.0654296875 -4.693115234375
90.156494140625 6.5799560546875 -5.707763671875
40.3857421875 39.40283203125 -3.30517578125
-79.575439453125 -5.6778564453125 21.2799072265625
98.064697265625 -3.981201171875 3.4295654296875
88.565673828125 -4.586181640625 6.3450927734375
-17.909423828125 -2.4285888671875 18.44873046875
75.144287109375 37.720458984375 -13.6126708984375
-42.075439453125 1.6209716796875 16.493896484375
-51.547119140625 -5.22021484375 22.9056396484375
91.263671875 5.5447998046875 -7.8248291015625
-11.156494140625 10.1864013671875 8.9302978515625
8.411376953125 15.371826171875 6.8358154296875
33.4814453125 41.5753173828125 -3.6624755859375
71.505615234375 -5.3902587890625 4.400390625
24.856201171875 45.0263671875 -5.2266845703125
11.08935546875 8.2437744140625 12.5565185546875
62.248291015625 19.6761474609375 -3.88671875
-25.306640625 19.0098876953125 3.826416015625
71.023681640625 -11.8038330078125 7.569091796875
-76.8115234375 -7.06787109375 23.389404296875
87.419921875 -7.1231689453125 8.1768798828125
-37.881591796875 28.8544921875 3.8912353515625
23.64697265625 17.407958984375 0.20751953125
64.884765625 1.0845947265625 1.8017578125
67.952392578125 49.5045166015625 -11.916748046875
69.83740234375 -3.2257080078125 0.684326171875
69.041748046875 20.6026611328125 -10.52392578125
-20.70361328125 26.472900390625 3.5531005859375
-19.7001953125 5.1995849609375 13.23828125
75.015869140625 -20.2200927734375 4.8795166015625
20.609130859375 18.8834228515625 -2.3094482421875
65.723388671875 7.681396484375 -1.3936767578125
-37.973876953125 18.98583984375 4.1646728515625
-60.800537109375 -1.868408203125 19.525390625
-35.01611328125 27.46484375 4.0355224609375
78.385986328125 -21.9371337890625 12.3433837890625
-32.679443359375 4.2166748046875 11.3302001953125
74.8603515625 39.0634765625 -15.58203125
-14.841064453125 33.15478515625 2.683837890625
30.74755859375 33.963623046875 -4.6964111328125
61.141845703125 -10.8310546875 10.8114013671875
71.20361328125 43.670166015625 -16.064453125
-98.066650390625 -20.750244140625 8.44189453125
-36.485595703125 9.6343994140625 7.7545166015625
35.3681640625 35.8558349609375 -4.5855712890625
98.521728515625 -11.8990478515625 8.3135986328125
-0.126953125 -1.8974609375 11.585693359375
-31.377197265625 0.4432373046875 16.5594482421875
69.776123046875 -21.7437744140625 2.92919921875
60.6923828125 -2.130859375 6.407470703125
33.06689453125 37.400146484375 -4.6181640625
-51.357421875 -1.365478515625 10.59326171875
-46.98974609375 5.46630859375 10.6044921875
-44.650146484375 -0.5391845703125 11.060546875
41.40380859375 23.072021484375 -4.5111083984375
-32.044189453125 1.6571044921875 11.3714599609375
38.814208984375 31.82666015625 -4.28271484375
92.26123046875 2.902587890625 -4.523193359375
73.098876953125 12.5250244140625 6.99267578125
72.135009765625 4.0946044921875 -2.2962646484375
89.51904296875 -8.7852783203125 7.9356689453125
92.070556640625 -14.117919921875 13.0230712890625
-38.436767578125 10.3662109375 9.7481689453125
77.716064453125 -16.9434814453125 7.6444091796875
60.908447265625 25.1748046875 -4.8568115234375
-14.705078125 3.1285400390625 16.934326171875
-14.971435546875 5.3564453125 14.0982666015625
-23.72412109375 3.602783203125 14.330078125
-33.41064453125 -0.732177734375 17.5704345703125
97.912841796875 -11.900390625 17.547119140625
-44.723876953125 3.6527099609375 13.37060546875
-84.6982421875 -19.8446044921875 8.2642822265625
72.829345703125 16.2171630859375 -8.67333984375
92.119384765625 16.9808349609375 -13.6773681640625
13.816650390625 7.9803466796875 13.49365234375
28.25341796875 48.26806640625 -3.8017578125
23.2490234375 10.426025390625 8.8201904296875
72.49072265625 -26.609619140625 9.1885986328125
-3.352783203125 1.5712890625 13.6854248046875
94.093994140625 -5.6141357421875 2.4522705078125
45.861572265625 22.254638671875 -3.8841552734375
53.74951171875 -19.6995849609375 8.674072265625
-83.90576171875 -8.1639404296875 20.0654296875
49.67626953125 15.9300537109375 0.484375
95.056884765625 4.724609375 -6.8115234375
-33.0546875 8.4715576171875 8.5447998046875
76.156494140625 10.485595703125 9.5357666015625
62.801513671875 34.0042724609375 -8.7071533203125
59.6572265625 -25.387451171875 7.6845703125
91.587646484375 11.703857421875 -8.525390625
100.54296875 -10.616455078125 9.9139404296875
96.985107421875 -12.9832763671875 12.7060546875
-18.81591796875 33.694091796875 2.8602294921875
74.2841796875 -24.458740234375 8.141845703125
58.51953125 -6.511962890625 -25.7021484375
-57.81005859375 -4.252685546875 20.3018798828125
-44.743896484375 -3.63037109375 22.4427490234375
47.677734375 29.171630859375 -3.716796875
71.43310546875 -8.6873779296875 7.632080078125
32.641357421875 31.7379150390625 -1.739013671875
66.494140625 13.22900390625 -5.919189453125
-9.09423828125 11.864501953125 7.29931640625
88.13720703125 -10.3133544921875 11.027099609375
48.585205078125 41.6160888671875 -2.2913818359375
32.44580078125 25.5264892578125 -4.2154541015625
9.414794921875 6.35595703125 14.5355224609375
88.56982421875 -17.594482421875 19.3427734375
3.11572265625 5.8138427734375 13.8050537109375
94.977783203125 -20.306884765625 18.8447265625
64.0927734375 49.8040771484375 -13.87451171875
98.082763671875 -9.70751953125 14.422119140625
65.35546875 -7.24755859375 5.5577392578125
20.3818359375 14.8936767578125 2.612060546875
14.70751953125 5.9876708984375 15.0068359375
-50.89404296875 12.7017822265625 8.386962890625
37.374755859375 7.8251953125 11.5125732421875
72.050048828125 48.102783203125 -16.911376953125
90.222900390625 3.0045166015625 -3.604736328125
-17.194091796875 15.5631103515625 4.671875
-37.02587890625 14.2669677734375 5.2017822265625
75.8671875 12.177490234375 7.3626708984375
-39.38818359375 26.3282470703125 3.9825439453125
36.27197265625 21.88720703125 -4.1800537109375
-24.581787109375 31.658203125 4.1104736328125
69.30615234375 9.2244873046875 -5.82177734375
-20.56640625 8.459716796875 10.1629638671875
70.064208984375 50.316650390625 -16.0615234375
65.732421875 54.643310546875 -14.9427490234375
78.80615234375 -22.4404296875 15.36767578125
61.5732421875 3.8917236328125 3.2882080078125
101.362060546875 -2.4805908203125 3.7894287109375
1.6220703125 0.1007080078125 14.77490234375
-18.697998046875 17.3931884765625 3.9619140625
71.759765625 28.6185302734375 -13.8173828125
-23.18310546875 18.578857421875 4.11669921875
25.650390625 46.8865966796875 -4.4005126953125
-39.922119140625 1.70947265625 16.1512451171875
-0.73583984375 6.9769287109375 11.4957275390625
73.544189453125 14.35546875 -6.6370849609375
60.422607421875 -29.156005859375 10.90185546875
-31.241455078125 -5.8619384765625 20.687255859375
-32.4072265625 23.8154296875 4.00830078125
-85.522216796875 -12.9365234375 18.0906982421875
-36.039794921875 21.1295166015625 4.3509521484375
-11.581298828125 31.67041015625 2.7921142578125
-28.5673828125 1.435302734375 15.9501953125
43.1416015625 21.65576171875 -3.9757080078125
45.914794921875 36.0245361328125 -3.8792724609375
67.824951171875 -1.931640625 0.131103515625
99.755615234375 -5.5537109375 6.6199951171875
-26.43603515625 35.1951904296875 3.0289306640625
-10.984619140625 13.2022705078125 5.2100830078125
49.442138671875 18.6181640625 -2.91796875
65.742431640625 2.8441162109375 -0.19970703125
61.00634765625 -21.6273193359375 3.0928955078125
72.44677734375 5.981201171875 -3.2689208984375
73.018798828125 10.3409423828125 -5.2855224609375
70.4365234375 45.8349609375 -15.1566162109375
-13.8046875 -2.3682861328125 20.2254638671875
-13.676513671875 -0.1153564453125 17.4462890625
-31.407958984375 15.50634765625 4.9111328125
29.172607421875 35.1826171875 -3.92822265625
62.585205078125 31.9080810546875 -8.2421875
73.872314453125 31.808837890625 -14.361328125
21.552734375 8.046875 11.4066162109375
25.4599609375 8.135009765625 12.1689453125
-45.6767578125 -0.7169189453125 7.322021484375
-95.113037109375 -22.9124755859375 9.3123779296875
-25.331298828125 8.48486328125 10.964111328125
-20.287353515625 31.3997802734375 4.1505126953125
31.07373046875 13.21484375 3.3890380859375
33.224853515625 16.8603515625 -0.6739501953125
43.587890625 14.5390625 4.5321044921875
1.80810546875 1.9525146484375 10.20166015625
-22.41015625 14.10986328125 5.3187255859375
69.455322265625 26.118408203125 -12.3497314453125
68.343994140625 12.5244140625 -7.286376953125
24.0419921875 34.2418212890625 -4.3818359375
-3.113037109375 0.0614013671875 8.477783203125
57.778076171875 -11.0970458984375 -21.768310546875
70.47509765625 32.943603515625 -13.7843017578125
-82.101806640625 -8.7850341796875 21.71875
59.80908203125 5.331787109375 3.3203125
65.67578125 22.141357421875 -4.8271484375
-12.75634765625 33.464599609375 2.5155029296875
-50.176025390625 -0.706298828125 8.6329345703125
-34.363037109375 13.277587890625 5.594482421875
64.242919921875 47.7989501953125 -13.2647705078125
-87.363037109375 -21.7568359375 9.6021728515625
69.4755859375 30.436767578125 -13.1754150390625
63.376708984375 -23.4951171875 4.0946044921875
-16.92431640625 12.013427734375 7.0203857421875
42.134521484375 30.3038330078125 -5.659912109375
35.7353515625 45.451416015625 -3.3280029296875
-19.232421875 29.4853515625 3.3153076171875
65.046875 -4.1292724609375 5.0654296875
94.967529296875 10.142822265625 -9.936767578125
62.747802734375 54.265869140625 -13.9215087890625
65.295166015625 39.2794189453125 -10.734130859375
59.66552734375 -22.543701171875 5.1767578125
47.85986328125 12.5845947265625 7.230712890625
65.2080078125 10.5799560546875 -0.2313232421875
-17.191162109375 20.2242431640625 3.643798828125
43.41943359375 -12.4810791015625 20.0843505859375
67.95068359375 4.6744384765625 -3.516845703125
-81.94775390625 -5.8184814453125 19.4886474609375
-14.556884765625 17.8936767578125 3.546630859375
-9.34619140625 15.40771484375 4.95556640625
0.0 0.329345703125 8.8387451171875
33.421142578125 8.113525390625 13.04443359375
-21.251220703125 10.84326171875 8.9356689453125
-30.14990234375 25.26611328125 3.6824951171875
60.84326171875 35.2818603515625 -7.4525146484375
-29.239013671875 1.78369140625 11.605712890625
43.688232421875 42.458984375 -3.461181640625
-24.518310546875 26.6385498046875 3.473876953125
68.584716796875 57.7130126953125 -14.2265625
38.443359375 29.5986328125 -4.898681640625
-28.0458984375 -2.868408203125 18.1383056640625
74.23193359375 23.653564453125 -10.470947265625
96.171875 7.8314208984375 -8.7218017578125
-10.36669921875 29.76416015625 2.9822998046875
90.332763671875 -12.9217529296875 13.912841796875
-47.572021484375 -1.815673828125 15.5238037109375
-30.4462890625 31.913818359375 3.4774169921875
-10.592529296875 23.033447265625 3.05908203125
-84.672119140625 -22.332275390625 8.2255859375
25.41552734375 26.3677978515625 -4.486328125
-46.756591796875 -4.3056640625 22.835205078125
-1.28955078125 10.7855224609375 10.3861083984375
-65.65283203125 -6.84423828125 22.4951171875
-30.25732421875 6.291748046875 9.5206298828125
-41.8310546875 5.9102783203125 11.20263671875
60.671630859375 23.2275390625 -4.322998046875
91.6630859375 -18.05517578125 16.143798828125
-19.9755859375 24.062744140625 2.8240966796875
68.310791015625 55.38427734375 -13.3419189453125
-26.64453125 26.447998046875 3.7269287109375
43.2001953125 33.3291015625 -4.9388427734375
70.7001953125 39.9212646484375 -15.25244140625
-28.58544921875 -7.3770751953125 23.16845703125
-29.301513671875 -6.193115234375 21.5330810546875
53.02392578125 -24.18798828125 14.739501953125
47.28759765625 38.361572265625 -1.6767578125
-10.46728515625 36.0718994140625 3.0040283203125
-37.6025390625 3.6405029296875 11.6572265625
60.87890625 40.739013671875 -9.514892578125
-57.809814453125 10.0819091796875 10.1083984375
20.060546875 16.1068115234375 1.0286865234375
24.203857421875 13.4857177734375 5.219970703125
22.657958984375 6.9012451171875 13.0810546875
23.953857421875 15.945556640625 2.0985107421875
22.328369140625 14.8131103515625 3.14697265625
18.69384765625 5.815673828125 13.549072265625
92.967529296875 15.200439453125 -13.009521484375
76.42138671875 44.621337890625 -16.555419921875
58.449951171875 -2.7135009765625 -26.18408203125
66.01708984375 15.6954345703125 -4.6348876953125
25.84033203125 19.4771728515625 -2.578125
76.753173828125 49.1337890625 -16.4337158203125
-26.5107421875 31.2408447265625 3.7034912109375
-55.018310546875 6.655517578125 11.15087890625
-69.822265625 -2.6851806640625 19.4874267578125
33.5166015625 15.1552734375 1.51611328125
33.714599609375 18.632568359375 -2.7734375
44.100341796875 9.8870849609375 10.4442138671875
38.623046875 16.089111328125 1.4921875
-26.038818359375 -1.086181640625 16.599609375
-22.965087890625 6.884765625 11.35400390625
89.73095703125 -3.3497314453125 2.0626220703125
24.95849609375 41.72900390625 -5.0233154296875
-39.697265625 28.19775390625 3.313232421875
47.822998046875 24.569580078125 -3.0892333984375
64.45947265625 -25.901123046875 6.5128173828125
-47.34765625 9.0802001953125 9.8411865234375
-85.059814453125 -9.4969482421875 18.3828125
70.830078125 0.54150390625 -1.199462890625
94.644287109375 15.63623046875 -14.4794921875
47.66015625 14.525634765625 1.7847900390625
-45.68994140625 0.556640625 17.0135498046875
-49.873779296875 -3.5697021484375 21.22216796875
75.223876953125 32.9947509765625 -13.4769287109375
48.94189453125 32.8048095703125 -2.053466796875
95.183349609375 -11.3739013671875 7.1248779296875
68.917724609375 1.072509765625 -1.85498046875
-27.95751953125 5.2391357421875 11.345703125
73.802978515625 9.7926025390625 9.8741455078125
-10.766845703125 3.2174072265625 17.70263671875
-7.742431640625 7.9793701171875 12.4429931640625
-6.32763671875 12.1025390625 7.6202392578125
-49.396240234375 -2.013671875 16.3077392578125
71.006103515625 15.6080322265625 -9.2080078125
48.6455078125 27.2994384765625 -3.0430908203125
101.353759765625 0.684814453125 9.1295166015625
36.6279296875 42.7333984375 -3.6702880859375
57.113525390625 -10.957763671875 -12.928466796875
94.1962890625 8.553955078125 -8.7744140625
-29.410400390625 27.0771484375 4.0447998046875
-48.403564453125 -3.4884033203125 14.132568359375
39.589599609375 27.1376953125 -4.62890625
-47.6572265625 1.693115234375 7.6072998046875
60.01611328125 6.3642578125 -27.028564453125
93.29443359375 -2.834228515625 0.72216796875
65.302490234375 15.910888671875 -2.589111328125
-17.3740234375 25.40625 2.9442138671875
-40.68603515625 -2.9442138671875 20.5947265625
91.6015625 13.2379150390625 -9.7816162109375
74.087890625 18.645263671875 -8.30078125
26.6279296875 14.93505859375 3.954833984375
27.24169921875 12.01025390625 7.7369384765625
65.535400390625 18.1856689453125 -3.338134765625
17.838623046875 4.50146484375 14.99609375
20.61767578125 12.1845703125 6.0411376953125
22.22021484375 19.7664794921875 -3.05029296875
62.743408203125 48.8033447265625 -12.20556640625
-74.759033203125 -7.0062255859375 23.531005859375
-45.445556640625 4.8460693359375 11.7222900390625
69.4501953125 43.7598876953125 -15.1549072265625
96.237060546875 -7.668212890625 5.278564453125
71.42724609375 36.6822509765625 -15.0030517578125
40.3125 -13.4757080078125 20.6304931640625
70.7548828125 34.79296875 -14.4151611328125
64.148193359375 -7.19287109375 8.4658203125
29.304443359375 16.2757568359375 -0.820556640625
44.810791015625 8.71240234375 12.0667724609375
34.89501953125 12.060791015625 5.680419921875
40.613037109375 10.081298828125 9.423828125
39.497802734375 10.973876953125 8.062255859375
-16.754150390625 32.1014404296875 2.82763671875
-10.278076171875 -0.591552734375 19.2667236328125
91.972412109375 7.796630859375 -8.971923828125
30.3798828125 30.5914306640625 -4.1512451171875
61.65625 16.0382080078125 -2.2066650390625
47.978759765625 13.322021484375 3.35595703125
49.605712890625 14.6929931640625 2.0103759765625
-28.80810546875 17.3380126953125 4.40771484375
69.261474609375 3.083740234375 -3.2003173828125
-27.957763671875 20.9825439453125 4.1541748046875
92.918701171875 20.7237548828125 -16.63525390625
55.20361328125 -18.841552734375 6.0341796875
98.77490234375 -10.0244140625 11.75927734375
-34.5556640625 16.9515380859375 4.3270263671875
68.623046875 28.52197265625 -11.2081298828125
27.756103515625 25.0035400390625 -4.8446044921875
96.77734375 1.6715087890625 -2.8360595703125
90.3984375 -16.4285888671875 15.9544677734375
60.4306640625 1.65771484375 4.9320068359375
60.75537109375 37.255126953125 -8.5169677734375
71.48046875 26.7939453125 -13.1923828125
59.0537109375 -5.3819580078125 9.6546630859375
28.97216796875 21.8363037109375 -4.1229248046875
-18.09912109375 -4.3670654296875 19.422607421875
66.077880859375 -1.9398193359375 1.4820556640625
78.517822265625 -18.6534423828125 11.6346435546875
55.651123046875 -22.548095703125 8.8662109375
-21.73583984375 -4.04736328125 20.547607421875
75.873779296875 -25.49560546875 11.232421875
73.287353515625 49.5887451171875 -18.2496337890625
68.720947265625 -4.5970458984375 1.4989013671875
96.29833984375 -5.7935791015625 3.380126953125
21.598388671875 26.7977294921875 -6.344482421875
-34.8486328125 1.64501953125 14.286865234375
31.91796875 23.6634521484375 -4.11376953125
66.394775390625 7.9495849609375 -3.563720703125
91.668212890625 -12.68212890625 8.8145751953125
72.143798828125 2.21826171875 -0.826416015625
71.81396484375 1.0050048828125 2.5732421875
63.367919921875 15.1414794921875 -2.287353515625
66.40283203125 45.22216796875 -11.963623046875
23.0263671875 30.688720703125 -4.4869384765625
-16.867431640625 34.3709716796875 2.94873046875
-20.5556640625 18.2041015625 3.971435546875
58.40380859375 0.4449462890625 -26.23388671875
65.286865234375 -8.44873046875 7.03955078125
89.681396484375 -4.6497802734375 3.4581298828125
68.833740234375 22.828857421875 -10.873291015625
30.906005859375 11.86328125 7.809814453125
-98.716552734375 -23.6544189453125 8.5328369140625
100.96728515625 -8.94921875 8.3551025390625
94.830078125 -1.3013916015625 -0.4193115234375
74.57958984375 -27.6322021484375 11.3399658203125
42.23779296875 39.196533203125 -4.3275146484375
-8.8056640625 1.2386474609375 18.2528076171875
-12.4111328125 -0.069580078125 19.078369140625
68.082763671875 -9.364013671875 4.51220703125
64.10986328125 27.91162109375 -7.091796875
32.419189453125 19.847900390625 -3.4234619140625
-11.79833984375 20.71044921875 3.2818603515625
-44.271240234375 11.5853271484375 8.3656005859375
66.042236328125 28.8095703125 -7.318115234375
62.189697265625 0.82373046875 4.3785400390625
33.98681640625 35.4453125 -1.0111083984375
88.818115234375 -19.2442626953125 18.4737548828125
-27.869384765625 8.5499267578125 9.3675537109375
-10.86669921875 26.60498046875 2.6597900390625
42.405029296875 24.7293701171875 -4.72998046875
-24.3076171875 16.1556396484375 4.2520751953125
-23.2724609375 23.140380859375 3.4801025390625
-18.904052734375 22.288330078125 3.580078125
65.671142578125 -21.8966064453125 2.614501953125
68.938232421875 16.4647216796875 -9.18408203125
39.315673828125 33.591552734375 -3.991943359375
67.25341796875 -28.0125732421875 7.310791015625
68.830810546875 -26.015625 5.174072265625
69.029052734375 -28.4593505859375 8.4681396484375
75.81396484375 57.01416015625 -18.5555419921875
-28.95751953125 30.7738037109375 3.739501953125
61.99365234375 40.605224609375 -11.470458984375
91.798583984375 1.779296875 -3.012451171875
-3.594482421875 -0.1795654296875 18.374267578125
-67.63671875 -5.9605712890625 22.62109375
-47.39208984375 -1.5985107421875 19.3194580078125
22.09814453125 29.296142578125 -6.99072265625
29.390869140625 27.2093505859375 -4.6478271484375
-17.430419921875 29.1429443359375 3.1610107421875
63.783447265625 1.576171875 3.5762939453125
101.2236328125 -1.7825927734375 0.968505859375
-0.13134765625 -0.1790771484375 17.5155029296875
12.80419921875 9.4512939453125 13.075927734375
68.904296875 36.693603515625 -14.1900634765625
-13.373046875 27.743896484375 3.3609619140625
63.81591796875 26.1890869140625 -6.3929443359375
44.16015625 39.35791015625 -3.616455078125
74.73974609375 51.0950927734375 -18.137451171875
-29.879638671875 -2.70654296875 18.7001953125
-53.2294921875 -0.09228515625 16.1392822265625
100.634033203125 -7.5865478515625 14.286376953125
32.97021484375 12.389404296875 4.8411865234375
-80.91357421875 -4.689453125 20.4693603515625
-14.294921875 15.205322265625 5.0521240234375
90.796630859375 -7.326171875 5.7628173828125
62.46923828125 51.060791015625 -12.177490234375
-35.793212890625 23.6383056640625 4.2066650390625
70.235595703125 54.12451171875 -17.406005859375
-13.6923828125 31.73876953125 2.7286376953125
62.49462890625 -6.4544677734375 8.4813232421875
-10.78662109375 37.8326416015625 2.7347412109375
32.356689453125 39.0899658203125 -4.4652099609375
66.1328125 4.6519775390625 -1.708740234375
-85.560791015625 -19.783203125 5.7467041015625
-0.689697265625 14.2801513671875 8.0560302734375
-32.968994140625 18.93212890625 4.3818359375
-2.913330078125 9.8955078125 11.1329345703125
62.889892578125 21.8883056640625 -4.67724609375
-34.476806640625 -7.635009765625 22.1748046875
-56.271240234375 5.539306640625 12.26220703125
-74.747314453125 -5.6297607421875 22.0579833984375
33.07666015625 34.0035400390625 -1.5872802734375
48.18896484375 40.2108154296875 -3.7801513671875
60.475830078125 13.8809814453125 -0.4595947265625
64.64453125 -8.85302734375 9.1280517578125
70.87841796875 -4.2236328125 2.3756103515625
35.21923828125 41.8558349609375 -4.356201171875
-29.297119140625 13.0009765625 5.639404296875
-29.12890625 33.683349609375 3.311767578125
69.58544921875 18.645263671875 -9.9755859375
89.34765625 -15.790283203125 17.9091796875
-57.91064453125 -6.0189208984375 22.4805908203125
-25.74267578125 11.0611572265625 8.3743896484375
-16.5771484375 37.5892333984375 2.2459716796875
94.126220703125 -12.792724609375 7.3939208984375
-35.68505859375 10.8258056640625 6.6864013671875
-12.846923828125 17.4312744140625 3.7900390625
-10.904296875 7.707275390625 12.076416015625
-15.66162109375 7.0477294921875 11.83642578125
5.92529296875 13.1571044921875 9.0408935546875
-49.444091796875 0.8890380859375 11.9710693359375
-31.105224609375 5.2183837890625 10.6690673828125
-30.529296875 1.5166015625 15.4110107421875
-24.572021484375 2.529541015625 15.478515625
-24.79541015625 5.5113525390625 11.71240234375
-39.582763671875 -5.514892578125 22.1533203125
-35.4013671875 -1.153564453125 17.6512451171875
41.725830078125 34.9271240234375 -4.8800048828125
-13.49609375 37.2174072265625 2.1470947265625
36.6591796875 38.339111328125 -4.7454833984375
97.679931640625 -10.0933837890625 7.77587890625
-20.018310546875 -1.408447265625 17.6422119140625
11.01806640625 6.9921875 14.1004638671875
3.845947265625 4.8802490234375 15.131591796875
7.109619140625 7.1539306640625 13.0263671875
-17.627685546875 -0.7044677734375 17.298583984375
-25.772705078125 -6.1385498046875 22.2528076171875
-6.60400390625 0.2442626953125 18.5767822265625
71.103271484375 21.0516357421875 -11.518798828125
44.453369140625 20.324951171875 -3.4066162109375
-33.708740234375 31.376220703125 3.4193115234375
73.21533203125 45.588623046875 -17.535888671875
24.09033203125 11.490966796875 7.6806640625
-52.47119140625 -3.5347900390625 9.3172607421875
-85.28466796875 -15.2259521484375 13.091796875
-47.401611328125 -3.5948486328125 10.523681640625
23.513427734375 8.215576171875 11.6339111328125
29.745361328125 8.007568359375 13.2843017578125
28.318603515625 10.3660888671875 10.0264892578125
62.6005859375 45.642333984375 -11.4229736328125
48.8173828125 36.503173828125 -1.91015625
44.662841796875 27.44482421875 -3.64501953125
-88.2509765625 -20.2861328125 8.2470703125
-29.200439453125 4.1318359375 12.4483642578125
58.947021484375 -11.16845703125 -17.16650390625
78.556884765625 -17.0284423828125 10.0391845703125
69.614501953125 24.10546875 -11.83935546875
97.19384765625 -15.471923828125 16.066650390625
66.179931640625 18.9053955078125 -5.674072265625
43.0556640625 12.0216064453125 7.55078125
39.69580078125 14.4512939453125 3.7728271484375
40.499755859375 8.09423828125 11.8748779296875
36.740478515625 17.162841796875 -0.266357421875
-33.84521484375 20.5770263671875 4.557373046875
27.06298828125 47.1375732421875 -3.15625
93.40478515625 18.789794921875 -16.08056640625
-35.657958984375 15.487060546875 5.1854248046875
54.081298828125 -22.67919921875 11.6181640625
-52.115966796875 -2.0357666015625 7.9930419921875
65.193603515625 56.2589111328125 -15.371826171875
45.86962890625 17.0797119140625 -1.798095703125
-14.455322265625 29.281494140625 2.9163818359375
97.5234375 -13.87548828125 15.4266357421875
0.444091796875 -2.9903564453125 13.76171875
63.5625 18.490966796875 -3.7059326171875
61.324462890625 30.9259033203125 -7.066650390625
-16.6728515625 21.873291015625 3.388671875
68.16357421875 23.196044921875 -9.2222900390625
-87.455810546875 -18.641845703125 6.600830078125
-90.037841796875 -21.49853515625 8.6829833984375
