-86.19580078125 -5.281494140625 11.9942626953125
11.29345703125 -41.732666015625 35.16259765625
-60.23876953125 -8.1688232421875 4.995849609375
3.750732421875 -23.998779296875 18.069580078125
94.662841796875 -38.392578125 28.197265625
1.839599609375 -10.2193603515625 -20.2431640625
-16.678955078125 -37.0589599609375 -6.3316650390625
-49.412109375 -32.0013427734375 28.9256591796875
22.229248046875 -28.563232421875 -0.2808837890625
-34.19921875 -55.4947509765625 26.950927734375
-13.687744140625 -35.5535888671875 30.5521240234375
-88.989501953125 -13.8968505859375 -13.6197509765625
-71.781982421875 -52.7921142578125 29.1314697265625
-47.750732421875 -21.8341064453125 -12.4219970703125
20.878662109375 -3.7269287109375 -2.0465087890625
-30.47607421875 -27.7490234375 22.3397216796875
29.47900390625 -44.0806884765625 18.0072021484375
-7.194091796875 -14.01318359375 7.341552734375
-61.87060546875 -22.4920654296875 -5.8900146484375
107.647216796875 -21.2347412109375 20.9915771484375
-24.203369140625 -48.2254638671875 -0.005126953125
21.753173828125 -14.9239501953125 7.2208251953125
-0.25634765625 -0.585205078125 -5.429931640625
-77.6240234375 -26.6680908203125 30.96826171875
1.67724609375 -34.3480224609375 27.7999267578125
24.153076171875 -37.44580078125 31.4302978515625
-56.964599609375 -23.0526123046875 19.923583984375
-94.01220703125 -11.1153564453125 21.82470703125
-20.954833984375 -49.7757568359375 25.2108154296875
-1.9521484375 -44.5999755859375 36.9375
-73.97705078125 -14.1434326171875 -13.712646484375
36.974365234375 -20.183349609375 12.345458984375
32.952392578125 -16.6910400390625 -14.483642578125
71.603515625 -39.776611328125 -7.349609375
37.210205078125 27.880859375 -29.621337890625
-72.386962890625 -9.4178466796875 10.311767578125
-54.548583984375 -42.1856689453125 35.604248046875
-82.804443359375 -16.9112548828125 22.965576171875
-6.761962890625 -21.8685302734375 -13.7325439453125
-10.9345703125 -8.2901611328125 -20.8985595703125
-8.27685546875 -28.95458984375 21.814208984375
-64.982666015625 -27.506103515625 28.012939453125
-89.047119140625 -23.5203857421875 -4.7672119140625
13.373291015625 -34.1099853515625 25.2969970703125
-43.213134765625 -40.2557373046875 37.333251953125
99.81591796875 -30.867431640625 21.11767578125
-53.60546875 -14.8414306640625 11.8094482421875
11.32373046875 -15.6824951171875 -15.3447265625
11.447509765625 -18.4764404296875 12.136962890625
26.489501953125 -34.4088134765625 8.1943359375
-97.01318359375 -3.513427734375 13.9190673828125
13.441162109375 -32.76416015625 4.927978515625
-19.38720703125 -30.0257568359375 23.037353515625
-38.253173828125 -31.18310546875 28.5377197265625
62.54443359375 -31.434326171875 18.02978515625
-102.759765625 -11.506591796875 28.644287109375
-64.1806640625 -15.23779296875 12.523193359375
-44.255126953125 -53.7998046875 26.969970703125
-5.545166015625 -22.11083984375 14.3551025390625
-28.802490234375 -34.0491943359375 -8.9510498046875
38.3408203125 -41.972412109375 23.0272216796875
10.740478515625 -4.2010498046875 -2.9876708984375
20.57861328125 -40.5654296875 22.7425537109375
79.616455078125 -43.1650390625 -2.7005615234375
-23.447021484375 -35.775634765625 29.8388671875
-8.87451171875 -33.0006103515625 -10.5438232421875
-44.065185546875 -26.476806640625 22.3720703125
-63.40283203125 -49.32763671875 25.8026123046875
2.17041015625 -17.675048828125 9.624755859375
32.4296875 -29.4957275390625 2.5501708984375
-59.01953125 -33.271240234375 32.744384765625
70.2802734375 -52.7640380859375 10.7056884765625
79.91796875 -50.9302978515625 7.725341796875
-95.441162109375 -18.9315185546875 -9.897216796875
-56.63720703125 -17.7979736328125 -11.3511962890625
104.683837890625 -38.4527587890625 20.7427978515625
30.963134765625 -4.9404296875 -2.924072265625
-15.326416015625 -16.5416259765625 9.457763671875
-76.8203125 -14.093505859375 17.1990966796875
30.41162109375 -16.091796875 7.86181640625
16.374755859375 -10.3489990234375 2.0390625
30.502197265625 -38.4796142578125 25.6448974609375
-80.987060546875 -18.6090087890625 -10.079833984375
-26.350341796875 -41.479248046875 -4.9578857421875
-70.391845703125 -19.532958984375 -8.1943359375
80.04833984375 -38.09619140625 -9.40869140625
92.50146484375 -29.0223388671875 24.8455810546875
23.270751953125 -41.3299560546875 13.12841796875
-7.278564453125 -40.564697265625 31.9635009765625
26.47705078125 -9.390380859375 2.3270263671875
-86.918212890625 -11.9686279296875 17.861572265625
32.677490234375 -39.486083984375 12.125
-52.218505859375 -8.955810546875 5.984619140625
72.06591796875 -35.244873046875 -14.0101318359375
25.083251953125 -18.1942138671875 -13.6968994140625
-13.193115234375 -49.1336669921875 23.631103515625
3.642333984375 -38.808837890625 34.0675048828125
6.94775390625 -30.10107421875 22.9420166015625
107.73046875 -29.48291015625 20.739013671875
99.260986328125 -23.1165771484375 20.9644775390625
-55.790283203125 -28.1361083984375 26.9007568359375
-5.965576171875 -34.6473388671875 27.0126953125
-84.251220703125 -21.144775390625 29.2015380859375
-15.146240234375 -56.03662109375 26.3427734375
97.253173828125 -39.7913818359375 21.140625
14.13134765625 -10.9737548828125 -21.2025146484375
-31.314697265625 -45.8773193359375 -0.547607421875
-77.2158203125 -22.0496826171875 25.1226806640625
38.56103515625 21.1986083984375 -32.6156005859375
-64.442626953125 -17.2845458984375 -12.0128173828125
-73.92626953125 -31.9337158203125 36.2093505859375
-30.9013671875 -33.5081787109375 29.71630859375
-0.239013671875 -28.513427734375 22.725830078125
-7.5771484375 -0.12353515625 -7.1842041015625
16.936279296875 -38.1981201171875 31.3148193359375
-63.8427734375 -22.3779296875 22.1192626953125
-49.147705078125 -22.1253662109375 19.6392822265625
-103.717529296875 -0.2679443359375 16.511962890625
-49.82421875 -36.8006591796875 35.019287109375
-90.053955078125 -15.843017578125 25.5115966796875
-23.520751953125 -25.17578125 19.7254638671875
30.00146484375 -40.764892578125 33.7947998046875
-95.872802734375 -15.0416259765625 29.5048828125
-79.15234375 -9.5322265625 12.336181640625
-37.13427734375 -25.250732421875 21.8099365234375
-38.635498046875 -36.7406005859375 32.8353271484375
18.622802734375 -35.6754150390625 8.665283203125
-25.94189453125 -54.43701171875 26.8197021484375
8.98193359375 -36.1038818359375 30.5286865234375
35.727294921875 34.8475341796875 -30.4677734375
72.876953125 -45.23193359375 -3.4500732421875
-53.406982421875 -13.9664306640625 -15.9708251953125
13.507080078125 -14.4412841796875 7.0634765625
-3.164306640625 -50.42822265625 31.508544921875
-100.204833984375 -7.3968505859375 21.6236572265625
-56.86083984375 -48.55908203125 27.0189208984375
-65.662353515625 -9.55224609375 8.630126953125
-70.9970703125 -25.493408203125 25.95703125
-20.46142578125 -43.24609375 -2.378662109375
-30.043701171875 -32.9752197265625 -2.5037841796875
17.62646484375 -17.776611328125 -15.4134521484375
78.8798828125 -47.8255615234375 1.8441162109375
32.720703125 -35.24365234375 6.4613037109375
-60.51806640625 -18.1898193359375 17.037841796875
-13.3076171875 -31.168212890625 25.255615234375
21.666748046875 -45.2119140625 18.0679931640625
-14.07373046875 -27.0902099609375 19.685791015625
-70.89306640625 -29.7943115234375 30.9368896484375
-46.671630859375 -15.4345703125 11.340087890625
-24.789794921875 -30.3907470703125 26.498779296875
-91.3857421875 -7.5311279296875 15.0048828125
-71.114013671875 -14.2802734375 14.3662109375
-49.88037109375 -26.7108154296875 24.8775634765625
94.342041015625 -33.865478515625 21.131591796875
-5.69287109375 -11.4678955078125 -19.74462890625
15.053466796875 -39.28955078125 20.1788330078125
37.898681640625 -40.4163818359375 17.0394287109375
7.41015625 -12.8740234375 -19.70654296875
-68.115478515625 -13.1156005859375 -15.4229736328125
-22.493408203125 -36.30224609375 -8.2462158203125
4.2529296875 -4.41650390625 -3.70751953125
-44.54736328125 -33.862060546875 32.16845703125
26.6513671875 -16.596435546875 -19.4058837890625
-59.63916015625 -12.44580078125 9.496826171875
-10.075439453125 -18.3660888671875 12.712158203125
-88.208740234375 -19.8438720703125 -9.551025390625
36.447509765625 -15.664306640625 8.2279052734375
-1.973876953125 -37.5118408203125 31.4615478515625
-34.7294921875 -34.9532470703125 -8.1920166015625
-83.03759765625 -23.3358154296875 -4.080322265625
-82.486083984375 -27.0849609375 34.48095703125
-61.591796875 -38.23828125 34.85595703125
-3.795166015625 -17.4088134765625 10.879638671875
-52.431396484375 -19.2869873046875 15.5946044921875
22.193115234375 -32.1123046875 4.4573974609375
-26.307373046875 -39.13818359375 33.888916015625
67.53564453125 -30.9447021484375 21.0814208984375
-68.267578125 -23.9058837890625 -4.9940185546875
7.437255859375 -15.8436279296875 7.994873046875
-10.81201171875 -23.9422607421875 15.9849853515625
-95.86279296875 -24.2442626953125 -4.8583984375
-65.693359375 -32.9039306640625 31.99462890625
-18.579345703125 -33.4862060546875 27.534912109375
-60.34326171875 -53.7047119140625 28.220703125
76.402099609375 -42.83740234375 -7.8876953125
-1.936279296875 -24.5289306640625 18.1478271484375
-44.105224609375 -30.4002685546875 27.6099853515625
-14.73779296875 -4.6395263671875 -15.7130126953125
74.35205078125 -52.7393798828125 6.1435546875
6.582275390625 -20.5225830078125 14.1160888671875
-51.04833984375 -17.402099609375 -11.01220703125
33.252197265625 -41.018310546875 20.7205810546875
-75.89501953125 -18.848388671875 20.7847900390625
-37.045166015625 -39.8006591796875 37.1724853515625
34.998291015625 -40.8387451171875 27.7840576171875
-19.001708984375 -19.242431640625 12.496826171875
-66.315673828125 -18.727294921875 17.1171875
20.106201171875 -37.11962890625 26.8902587890625
-60.7275390625 -26.89208984375 24.7303466796875
75.661376953125 -39.034423828125 -12.640380859375
-75.697998046875 -12.981689453125 -8.74462890625
4.86865234375 -43.3934326171875 36.3843994140625
0.120849609375 -20.7371826171875 13.399169921875
-55.156005859375 -36.5738525390625 34.1451416015625
-81.716796875 -11.5953369140625 17.0987548828125
-19.28955078125 -37.8763427734375 32.281005859375
-8.235595703125 -48.958740234375 25.3709716796875
-95.62158203125 -7.0748291015625 18.0775146484375
-86.619140625 -23.4576416015625 33.264404296875
-54.42138671875 -31.702392578125 30.843994140625
-40.77734375 -23.303466796875 18.6412353515625
25.609375 -39.9017333984375 23.853515625
27.325927734375 -29.3843994140625 1.6085205078125
12.725830078125 -36.32958984375 8.62353515625
-78.953857421875 -15.5712890625 -13.8243408203125
32.510009765625 -11.6368408203125 6.266845703125
-65.4921875 -54.0694580078125 27.9083251953125
15.597900390625 -4.8331298828125 -1.38818359375
-49.3837890625 -54.1630859375 26.658935546875
63.563720703125 -33.8380126953125 23.8419189453125
17.106201171875 -42.941650390625 16.9459228515625
94.91552734375 -25.86279296875 21.24365234375
-94.227783203125 -14.9942626953125 -12.9666748046875
104.498779296875 -25.5042724609375 21.023193359375
21.232666015625 -9.03271484375 1.0341796875
17.50146484375 -30.080322265625 1.0125732421875
-1.517578125 -13.8551025390625 8.0120849609375
-59.038818359375 -42.185791015625 32.8780517578125
-34.11669921875 -30.807373046875 25.6068115234375
-20.835693359375 -54.311767578125 27.445556640625
-49.3720703125 -11.4715576171875 9.7894287109375
26.107666015625 -6.0135498046875 -2.243896484375
88.908935546875 19.5965576171875 -25.7059326171875
-74.970458984375 -17.700439453125 -10.3594970703125
-97.8486328125 -10.6431884765625 24.95849609375
7.781982421875 -27.13671875 19.109375
7.722900390625 -32.951416015625 26.8721923828125
7.47314453125 -6.62890625 -0.2501220703125
-39.5283203125 -54.1771240234375 28.20849609375
12.3837890625 -7.49755859375 1.163818359375
-78.06689453125 -29.6790771484375 34.9239501953125
26.8515625 -12.28076171875 6.24853515625
35.811279296875 -4.596923828125 -2.6300048828125
30.93359375 -7.859375 0.972900390625
-58.84814453125 -15.3541259765625 13.507080078125
-13.54296875 -34.0323486328125 -9.889892578125
-60.71728515625 -30.453369140625 29.232666015625
-54.656982421875 -6.6580810546875 2.5347900390625
-3.427001953125 -31.679931640625 -11.462890625
37.766357421875 -39.1256103515625 12.4337158203125
-6.573486328125 -26.393798828125 18.1512451171875
27.96337890625 -41.4686279296875 14.042724609375
26.81787109375 -38.7235107421875 10.195556640625
-18.55517578125 -25.6605224609375 20.3800048828125
108.172607421875 -34.750244140625 20.8604736328125
-26.949951171875 -36.279052734375 -5.21142578125
110.47802734375 -25.639404296875 20.90576171875
-54.127197265625 -25.3118896484375 23.38427734375
-31.469970703125 -41.144775390625 -3.1680908203125
99.923828125 -35.9150390625 20.89697265625
37.035888671875 -24.8533935546875 12.6302490234375
-0.796142578125 -40.333740234375 35.416259765625
15.682861328125 -13.474853515625 -17.618408203125
19.3798828125 -38.4591064453125 12.5035400390625
22.74951171875 -15.9951171875 -16.998779296875
-3.30810546875 -31.5992431640625 24.8602294921875
-57.807861328125 -15.2388916015625 -14.95361328125
-57.861572265625 -20.5267333984375 -7.8941650390625
103.8193359375 -33.392578125 21.008544921875
-101.784912109375 -4.2122802734375 18.7706298828125
-84.173828125 -16.905517578125 -12.8516845703125
33.206298828125 -18.07275390625 10.9437255859375
-21.983154296875 -40.79296875 -5.8939208984375
2.911376953125 -31.5975341796875 24.315185546875
-37.976318359375 -28.005859375 25.361572265625
-86.4775390625 -14.81298828125 21.4637451171875
19.993408203125 -11.794189453125 4.532958984375
25.98291015625 -16.6475830078125 7.916748046875
28.85400390625 -38.0716552734375 29.76904296875
-56.33447265625 -10.2354736328125 7.0557861328125
-74.997314453125 -20.35498046875 -6.815673828125
93.832275390625 -34.2950439453125 25.4976806640625
-16.19873046875 -51.7734375 25.491943359375
103.2353515625 -21.20654296875 21.013916015625
-25.976806640625 -27.546142578125 22.5123291015625
-34.967529296875 -34.7724609375 30.7744140625
-29.254150390625 -30.9510498046875 26.55419921875
-9.6865234375 -32.3701171875 27.424560546875
-66.239990234375 -20.639892578125 -9.04443359375
-98.453369140625 -23.3009033203125 -9.2545166015625
-87.98291015625 -18.9342041015625 27.8116455078125
17.537353515625 -15.128173828125 8.6075439453125
37.264892578125 -29.3951416015625 10.890380859375
-25.498779296875 -44.30126953125 -1.750732421875
-5.51123046875 -44.461181640625 32.7237548828125
-74.574951171875 -11.56494140625 13.3719482421875
11.434326171875 -11.558349609375 3.6478271484375
13.6435546875 -36.297119140625 29.259765625
7.623779296875 -39.7310791015625 32.6649169921875
-68.545654296875 -16.0396728515625 -11.581298828125
-86.738037109375 -8.579833984375 14.70263671875
36.125244140625 17.771728515625 -33.4910888671875
28.65625 -16.6363525390625 -15.4635009765625
21.327880859375 -39.574951171875 33.83740234375
-92.236083984375 -22.058349609375 -7.216796875
-80.265380859375 -22.43408203125 28.0777587890625
111.69384765625 -31.01318359375 20.9794921875
-47.643798828125 -39.3056640625 37.6790771484375
-68.583984375 -50.890869140625 27.087158203125
-45.014404296875 -23.1326904296875 18.78466796875
70.687255859375 -50.2105712890625 7.3560791015625
-91.274169921875 -17.077880859375 -10.4757080078125
35.8330078125 -36.9073486328125 9.16845703125
29.74560546875 -32.01806640625 4.5474853515625
-60.636474609375 -18.8018798828125 -10.6307373046875
-72.447998046875 -23.739013671875 -4.8768310546875
-72.64404296875 -22.3095703125 23.8074951171875
-70.099609375 -32.4554443359375 34.6171875
33.753173828125 -40.306640625 32.03466796875
-81.771240234375 -6.599853515625 10.9488525390625
-68.203125 -11.5936279296875 11.2274169921875
-68.008544921875 -23.7891845703125 23.6199951171875
-91.413818359375 -10.2955322265625 18.6954345703125
4.879150390625 -35.81591796875 30.25927734375
79.39892578125 -36.1090087890625 -14.1834716796875
-103.971923828125 -7.786865234375 27.3541259765625
26.241943359375 -42.65771484375 20.8607177734375
25.3876953125 -37.4285888671875 27.1351318359375
-44.326416015625 -36.982177734375 34.832275390625
15.30615234375 -40.966064453125 34.7613525390625
33.827880859375 -41.759765625 15.3428955078125
5.416259765625 -8.7745361328125 -21.6187744140625
-20.656494140625 -22.5323486328125 16.63720703125
-94.097900390625 -14.0177001953125 25.96240234375
-38.635986328125 -35.933837890625 -7.48828125
-27.530029296875 -35.677001953125 32.1192626953125
77.058349609375 -46.5107421875 -1.5380859375
-56.324951171875 -18.2264404296875 14.870361328125
17.47021484375 -33.15625 5.1190185546875
34.61865234375 -32.551513671875 4.109130859375
7.751708984375 -24.4876708984375 16.0665283203125
-12.932373046875 -20.27685546875 14.822265625
-4.333740234375 -28.3314208984375 22.351806640625
4.09375 -28.137939453125 20.377197265625
-8.831298828125 -36.4326171875 29.2049560546875
-29.87646484375 -55.1885986328125 27.213134765625
-90.082275390625 -13.211669921875 22.260009765625
10.58349609375 -31.1673583984375 24.6810302734375
-10.8544921875 -15.2486572265625 8.42431640625
-53.463134765625 -19.49462890625 -8.59033203125
-79.3818359375 -16.8922119140625 20.8074951171875
5.843505859375 -13.768798828125 4.97412109375
-53.8486328125 -51.1683349609375 27.301025390625
77.0263671875 -50.723876953125 3.864990234375
-80.215087890625 -21.447998046875 -6.165283203125
6.991455078125 -15.27734375 -16.559326171875
-3.547119140625 -53.3236083984375 28.810302734375
-73.564453125 -26.964111328125 30.1490478515625
-29.152587890625 -41.0411376953125 35.9906005859375
-84.611328125 -20.5537109375 -8.0435791015625
-14.722900390625 -39.3460693359375 30.929443359375
-27.776611328125 -47.235107421875 1.3526611328125
-11.392333984375 -52.460693359375 26.438232421875
3.6044921875 -34.091552734375 -10.8763427734375
25.595458984375 -43.5205078125 16.41748046875
79.966796875 -40.2265625 -5.2237548828125
-64.10986328125 -13.072998046875 -14.857666015625
-33.191162109375 -36.955810546875 -5.2764892578125
-51.46826171875 -34.1072998046875 31.421142578125
5.799072265625 -18.1473388671875 10.819580078125
-34.07080078125 -27.44775390625 23.681396484375
95.028076171875 -30.087158203125 21.2750244140625
-70.216064453125 -16.691650390625 17.201904296875
2.799072265625 -14.6163330078125 7.408935546875
31.7119140625 -16.8310546875 -18.068359375
-47.511962890625 -17.7083740234375 14.248779296875
18.75390625 -6.9044189453125 -1.435546875
-59.93212890625 -24.502685546875 21.9197998046875
-2.12109375 -10.5 -20.4835205078125
11.697265625 -38.6993408203125 31.420166015625
-41.678955078125 -31.943603515625 30.0498046875
-46.941162109375 -29.130859375 25.472900390625
-91.4169921875 -5.14697265625 12.0836181640625
-52.267822265625 -29.3253173828125 27.4840087890625
-92.1201171875 -16.884521484375 28.4744873046875
-21.512451171875 -26.9859619140625 22.4569091796875
-52.872802734375 -22.5167236328125 19.8428955078125
-52.646240234375 -38.5843505859375 36.7080078125
14.29296875 -16.5733642578125 10.0352783203125
79.895751953125 -44.27978515625 0.8592529296875
-63.5302734375 -35.066162109375 34.44287109375
-11.010986328125 -39.6595458984375 31.173828125
95.217041015625 -22.142822265625 21.2684326171875
-5.552978515625 -51.362060546875 26.3560791015625
29.5556640625 -36.5367431640625 7.935791015625
103.76171875 -29.6715087890625 21.1031494140625
-59.92236328125 -50.5579833984375 26.2744140625
72.102783203125 -38.61865234375 -10.842529296875
100.5263671875 -26.599609375 21.1336669921875
-47.929931640625 -25.18408203125 21.33154296875
-10.59814453125 -0.2177734375 -9.3248291015625
-71.933349609375 -13.060546875 -10.8310546875
-85.1064453125 -18.33447265625 25.579833984375
-28.97412109375 -43.8489990234375 -2.8951416015625
71.586669921875 -46.150390625 0.26708984375
-14.145751953125 -7.45849609375 -19.3114013671875
-55.308837890625 -20.967041015625 17.3931884765625
-81.584228515625 -19.7945556640625 24.87646484375
35.6357421875 31.2320556640625 -29.8839111328125
-69.417236328125 -9.4471435546875 8.1697998046875
-4.328857421875 -0.8736572265625 -5.677001953125
-61.857421875 -10.3846435546875 7.444091796875
-83.495849609375 -24.1839599609375 31.5115966796875
11.747314453125 -12.80419921875 -19.126220703125
-67.5341796875 -15.0047607421875 14.3116455078125
35.788818359375 -6.7862548828125 0.292724609375
-1.95166015625 -35.3314208984375 28.550537109375
-100.988525390625 -8.7186279296875 24.917724609375
9.87841796875 -13.9691162109375 5.86865234375
-73.617919921875 -17.43408203125 18.19287109375
1.650146484375 -37.0130615234375 31.3577880859375
35.493896484375 38.4317626953125 -32.095947265625
1.421630859375 -12.3936767578125 -17.4019775390625
-67.103759765625 -29.7606201171875 30.9581298828125
-57.93603515625 -39.0045166015625 34.140625
90.392822265625 20.98876953125 -22.7503662109375
-67.162109375 -21.25830078125 20.36865234375
-78.97265625 -12.2569580078125 14.94140625
22.171630859375 -34.2418212890625 7.3004150390625
29.355224609375 -40.0325927734375 22.6651611328125
100.777587890625 -39.4130859375 20.9456787109375
-77.238525390625 -24.2864990234375 28.1090087890625
-62.588623046875 -20.0657958984375 19.2236328125
94.42236328125 -37.3575439453125 21.731201171875
33.2392578125 -40.3831787109375 24.4656982421875
20.10595703125 -42.388916015625 14.289794921875
-97.729736328125 -12.0302734375 28.2012939453125
-51.4501953125 -16.5634765625 -14.4149169921875
-98.404541015625 -5.377197265625 16.739990234375
-18.503173828125 -40.779296875 -5.37158203125
-48.7587890625 -19.7650146484375 16.803955078125
-50.77587890625 -17.2015380859375 13.0643310546875
-53.885986328125 -11.544189453125 9.1854248046875
-47.812744140625 -34.8284912109375 32.9530029296875
29.6943359375 -10.6209716796875 4.4715576171875
-16.11083984375 -28.93603515625 21.8365478515625
23.2353515625 -10.59228515625 3.429931640625
-64.531982421875 -12.31201171875 10.653564453125
-18.213623046875 -35.2979736328125 -8.9237060546875
-4.346923828125 -39.8397216796875 33.702392578125
-22.350830078125 -32.8114013671875 27.0604248046875
-23.06787109375 -38.179443359375 33.11083984375
-77.790771484375 -19.3470458984375 -8.5966796875
-77.326171875 -8.030029296875 9.8133544921875
-68.409423828125 -27.64208984375 28.446044921875
-83.453125 -13.8448486328125 20.1033935546875
-82.622802734375 -8.660888671875 13.5714111328125
72.8662109375 -42.867431640625 -5.9410400390625
38.205078125 -41.54541015625 28.738525390625
-11.6669921875 -28.6212158203125 22.1060791015625
79.947998046875 -48.9688720703125 4.8837890625
97.986083984375 -19.9564208984375 21.0196533203125
-64.68408203125 -24.413818359375 24.709716796875
15.85986328125 -37.0533447265625 10.0777587890625
19.222412109375 -15.2991943359375 -18.4769287109375
-49.98046875 -15.0565185546875 10.5802001953125
-40.81201171875 -26.7364501953125 23.2244873046875
-57.165283203125 -52.5264892578125 27.139404296875
-49.332275390625 -19.1224365234375 -13.8536376953125
17.038330078125 -35.8731689453125 27.476318359375
-78.0595703125 -19.03369140625 23.3441162109375
91.679931640625 -25.5462646484375 22.0447998046875
-8.858642578125 -30.366943359375 24.8756103515625
0.470458984375 -26.06005859375 20.568115234375
-24.1279296875 -51.662109375 27.2391357421875
-73.956298828125 -25.009033203125 27.4749755859375
-31.331787109375 -35.979248046875 32.9521484375
1.638427734375 -43.0299072265625 35.645751953125
36.995849609375 -41.8323974609375 19.9884033203125
-57.037109375 -30.192626953125 29.4559326171875
8.079833984375 -42.6837158203125 35.9345703125
65.703125 -33.704833984375 21.311767578125
-73.58447265625 -28.9483642578125 32.7982177734375
-3.3837890625 -46.77734375 34.9146728515625
39.144775390625 16.49169921875 -33.8309326171875
-16.954345703125 -35.9149169921875 30.7806396484375
-30.415771484375 -34.253662109375 -6.0933837890625
-14.450439453125 -24.443115234375 16.089111328125
-13.318115234375 -18.351806640625 12.189208984375
-8.025146484375 -16.0244140625 9.9007568359375
-15.352294921875 -33.7437744140625 28.3804931640625
-27.250732421875 -33.2496337890625 29.937744140625
-9.1787109375 -22.1251220703125 13.8096923828125
15.950927734375 -12.3236083984375 4.612548828125
3.744384765625 -21.69580078125 15.2435302734375
10.666748046875 -15.85791015625 8.5157470703125
-10.427734375 -25.859619140625 18.607421875
24.474365234375 -7.8306884765625 -0.0687255859375
-1.512451171875 -22.5543212890625 15.5743408203125
32.5322265625 -9.4476318359375 3.3441162109375
-94.236083984375 -5.46484375 15.59619140625
-105.06201171875 -2.0142822265625 18.91455078125
-93.775146484375 -17.900146484375 31.473388671875
0.0849609375 -32.76611328125 25.4381103515625
-41.089111328125 -38.8668212890625 35.296142578125
-95.8408203125 -22.072509765625 -7.7578125
64.7265625 -29.614013671875 19.6016845703125
-99.9677734375 -2.5654296875 16.3016357421875
-5.525390625 -20.164794921875 11.757080078125
-20.215087890625 -35.546630859375 30.034912109375
35.741943359375 -11.407958984375 6.4630126953125
26.515869140625 -31.80615234375 4.7196044921875
-39.21630859375 -34.01318359375 30.376953125
-92.255859375 -23.98876953125 -4.6395263671875
-59.123779296875 -20.299072265625 19.029052734375
-88.298095703125 -16.4971923828125 -11.541015625
77.10302734375 -44.201416015625 -5.0640869140625
-60.616943359375 -16.8790283203125 -13.1978759765625
-65.064208984375 -22.71826171875 -6.083740234375
20.95654296875 -36.7076416015625 29.9471435546875
-16.60791015625 -48.7557373046875 24.522705078125
2.21044921875 -2.975341796875 -5.6956787109375
75.517333984375 -48.9029541015625 1.420166015625
22.526123046875 -37.999755859375 12.3782958984375
15.26416015625 -15.878173828125 -14.47119140625
36.24365234375 -34.994140625 6.6749267578125
-36.364990234375 -53.240966796875 27.4486083984375
31.81591796875 -39.2237548828125 29.793212890625
-11.687744140625 -55.582275390625 26.747802734375
-97.486328125 -8.8466796875 20.9739990234375
-19.783935546875 -37.045166015625 -6.8323974609375
9.48388671875 -8.19482421875 2.1553955078125
-61.732177734375 -16.546630859375 14.6529541015625
-23.547607421875 -42.533447265625 -3.810546875
-98.802490234375 -25.275146484375 -5.18115234375
29.669677734375 -13.053466796875 7.7191162109375
-61.97216796875 -28.702880859375 26.9573974609375
-79.922607421875 -14.0718994140625 17.751708984375
-59.4501953125 -36.059326171875 34.078125
97.779541015625 -28.512451171875 21.0609130859375
-7.58251953125 -23.9566650390625 16.5057373046875
-70.9306640625 -14.279541015625 -14.3045654296875
-57.179931640625 -8.1962890625 4.46044921875
-28.019775390625 -29.1552734375 24.3455810546875
-35.8037109375 -37.272216796875 33.9857177734375
15.497314453125 -31.5303955078125 2.87890625
-68.6474609375 -22.0113525390625 -7.5853271484375
-1.073974609375 -19.1202392578125 11.052490234375
28.113037109375 -7.3299560546875 -0.1728515625
-54.227294921875 -16.1861572265625 -13.1312255859375
20.24267578125 -30.8319091796875 2.44287109375
94.733154296875 -37.4615478515625 24.795166015625
-86.165283203125 -12.9705810546875 -14.419189453125
-87.592041015625 -21.41064453125 31.1824951171875
77.190185546875 -40.8330078125 -10.6671142578125
30.3408203125 -38.4739990234375 10.4093017578125
-34.014892578125 -40.14990234375 36.8359375
11.443115234375 -33.86474609375 27.6676025390625
18.12158203125 -39.8021240234375 33.6429443359375
-85.835693359375 -22.8106689453125 -5.217041015625
97.485595703125 -32.841064453125 20.97412109375
-71.142333984375 -12.1754150390625 11.8121337890625
78.68505859375 -38.71630859375 -12.3729248046875
77.38720703125 -52.5244140625 6.32763671875
-89.20703125 -9.1337890625 16.9453125
-50.850830078125 -24.5877685546875 22.92529296875
-87.326904296875 -16.624267578125 23.752685546875
-7.853515625 -24.6929931640625 -13.9437255859375
107.68017578125 -24.4637451171875 20.8641357421875
-32.49267578125 -43.9915771484375 -3.018798828125
17.81494140625 -40.046630859375 21.619873046875
-80.244873046875 -25.5411376953125 31.9681396484375
-24.8134765625 -38.911865234375 -5.3526611328125
36.830078125 -17.573974609375 10.8399658203125
-32.4267578125 -25.61865234375 21.491943359375
-56.77001953125 -12.7366943359375 10.3311767578125
-53.239990234375 -27.2059326171875 25.5352783203125
-63.183349609375 -31.858154296875 30.727294921875
71.980224609375 -53.0147705078125 7.932373046875
23.616943359375 -12.7529296875 6.377197265625
-53.727783203125 -17.4169921875 13.41259765625
-67.15771484375 -25.5771484375 25.8804931640625
-61.296630859375 -14.04541015625 11.37744140625
-28.84033203125 -40.1859130859375 -5.909423828125
-56.590576171875 -26.4705810546875 24.5501708984375
9.518798828125 -20.7802734375 13.9051513671875
-33.36328125 -32.5916748046875 28.364013671875
-67.93115234375 -18.2716064453125 -9.7467041015625
-22.305908203125 -28.8658447265625 24.5914306640625
-73.1845703125 -20.2523193359375 21.7635498046875
-46.161376953125 -32.5062255859375 30.10546875
-71.80517578125 -33.9420166015625 36.6007080078125
-6.72607421875 -31.886962890625 26.2271728515625
4.9013671875 -33.635498046875 27.3482666015625
-16.938720703125 -30.939208984375 24.385498046875
26.998779296875 -37.9483642578125 32.0460205078125
-31.6728515625 -29.6580810546875 24.4501953125
2.5546875 -19.5924072265625 12.2471923828125
9.033447265625 -17.675048828125 10.69091796875
30.86767578125 -18.549560546875 -15.4268798828125
-16.851318359375 -24.3094482421875 18.3294677734375
-91.469482421875 -20.1986083984375 -9.3343505859375
-73.23681640625 -15.5491943359375 15.9962158203125
-62.652099609375 -20.8660888671875 -8.1846923828125
-2.36328125 -42.5897216796875 34.4359130859375
74.03076171875 -47.0555419921875 -1.50341796875
-11.18798828125 -34.388427734375 28.8775634765625
-58.650146484375 -28.0926513671875 26.3983154296875
-29.01806640625 -37.697998046875 33.5718994140625
-41.251708984375 -29.953125 27.45556640625
-43.680419921875 -28.6549072265625 25.3431396484375
-3.900146484375 -15.237060546875 8.9791259765625
-63.39208984375 -18.3934326171875 16.863525390625
16.897705078125 -10.3031005859375 -21.669189453125
7.084716796875 -4.947998046875 -2.5570068359375
-18.613525390625 -20.92333984375 14.8038330078125
10.3173828125 -5.9393310546875 -0.72998046875
-65.261474609375 -37.222900390625 35.2467041015625
-5.9853515625 -36.5855712890625 29.6002197265625
32.824462890625 -42.171875 18.119873046875
30.719970703125 -41.851806640625 14.745361328125
-36.043212890625 -37.2181396484375 -7.0164794921875
-41.015869140625 -35.1495361328125 32.6405029296875
-2.360107421875 -26.5035400390625 20.7213134765625
21.65380859375 -7.30126953125 -1.2144775390625
17.95849609375 -13.3968505859375 6.35888671875
-62.7099609375 -52.919189453125 26.8031005859375
22.46630859375 -43.506591796875 15.912841796875
-46.7265625 -20.8511962890625 18.571533203125
-32.218994140625 -35.8397216796875 -2.829833984375
-36.1669921875 -33.1490478515625 28.418212890625
33.625732421875 -16.348388671875 8.7039794921875
9.76025390625 -14.369140625 -17.3431396484375
-88.75927734375 -6.090087890625 12.9466552734375
-10.196533203125 -50.720947265625 24.298583984375
23.78662109375 -29.87158203125 1.7098388671875
17.890869140625 -40.4163818359375 13.931396484375
-14.33642578125 -35.7244873046875 -7.75146484375
71.625732421875 -50.5242919921875 4.5484619140625
-67.530029296875 -33.80078125 33.94677734375
66.3544921875 -33.989501953125 24.2333984375
-102.797607421875 -2.768798828125 15.5841064453125
-83.792724609375 -18.8077392578125 -10.2501220703125
-88.225830078125 -21.5330810546875 -7.2958984375
4.8857421875 -41.7042236328125 34.1292724609375
-42.675048828125 -21.1402587890625 17.2587890625
-79.831298828125 -23.1087646484375 -3.8858642578125
-4.97119140625 -47.1026611328125 31.9053955078125
-26.382568359375 -37.045166015625 -7.857421875
-17.68701171875 -53.6158447265625 27.0045166015625
17.275390625 -11.9378662109375 -19.4254150390625
-49.8017578125 -30.313720703125 26.609375
14.70263671875 -35.00732421875 7.163330078125
97.16748046875 -36.23876953125 21.1405029296875
-21.889404296875 -45.168701171875 -0.9583740234375
-72.572509765625 -21.7158203125 -6.8570556640625
24.404541015625 -45.2535400390625 18.548828125
35.797119140625 -40.4427490234375 13.8883056640625
-52.150390625 -54.8338623046875 27.1256103515625
-54.859619140625 -34.2471923828125 31.8536376953125
38.249755859375 -36.4130859375 12.7000732421875
78.60888671875 -41.171142578125 -7.9873046875
15.03076171875 -41.367919921875 15.7159423828125
36.968505859375 -42.2847900390625 25.404296875
106.169677734375 -31.751220703125 20.866455078125
32.703857421875 -36.8934326171875 8.663818359375
-83.8876953125 -10.5010986328125 15.8345947265625
-75.354248046875 -21.157470703125 23.16357421875
1.3056640625 -23.3270263671875 17.044921875
-94.328369140625 -3.4527587890625 13.4371337890625
28.110107421875 -36.276611328125 10.224609375
110.15185546875 -36.610107421875 20.791259765625
-1.41748046875 -16.2733154296875 10.240234375
-20.57958984375 -31.683349609375 24.814453125
80.4365234375 -36.3607177734375 -11.4432373046875
-50.493408203125 -39.752197265625 37.833251953125
-18.98486328125 -51.8646240234375 25.4208984375
-68.521484375 -19.51171875 18.6082763671875
-102.64794921875 -6.30126953125 21.4288330078125
-95.44970703125 -16.533447265625 -11.0992431640625
-0.9296875 -32.6258544921875 -11.2122802734375
73.705810546875 -40.5836181640625 -9.9810791015625
-6.744873046875 -29.0198974609375 19.62109375
29.74658203125 -41.7198486328125 20.6324462890625
-60.822265625 -21.5340576171875 20.6767578125
-20.268310546875 -24.2132568359375 18.944091796875
28.531494140625 -33.4114990234375 6.4605712890625
6.529541015625 -37.3753662109375 32.09814453125
27.68505859375 -19.0203857421875 -14.8157958984375
-99.0087890625 -6.55517578125 19.04052734375
-95.617431640625 -12.2427978515625 24.7135009765625
29.676513671875 -29.92724609375 2.69921875
109.331787109375 -32.2012939453125 20.99462890625
-54.6943359375 -39.5079345703125 35.317138671875
-66.83837890625 -14.94970703125 -13.2711181640625
-88.83837890625 -19.2698974609375 30.281005859375
-50.813232421875 -20.8946533203125 17.9947509765625
-79.593017578125 -27.5845947265625 33.4744873046875
-61.94091796875 -24.4375 23.601318359375
-42.418701171875 -24.6448974609375 20.1793212890625
-2.732421875 -20.33642578125 12.6734619140625
71.112548828125 -47.0701904296875 2.9989013671875
-27.5869140625 -26.43994140625 20.7835693359375
12.758544921875 -5.0343017578125 -1.5604248046875
-82.970703125 -21.760009765625 -6.42529296875
3.576416015625 -30.0152587890625 -12.599853515625
64.18994140625 -33.4249267578125 26.3321533203125
35.193115234375 -13.9488525390625 6.494140625
33.78125 -5.7130126953125 -1.4534912109375
-3.946533203125 -23.6990966796875 16.726318359375
33.759033203125 -7.90234375 1.46923828125
18.0029296875 -9.018310546875 0.513427734375
110.496337890625 -28.718017578125 20.875
105.26416015625 -23.0301513671875 21.0390625
-57.3203125 -50.437255859375 25.2969970703125
-52.70751953125 -35.910400390625 33.638671875
-5.22021484375 -29.8660888671875 24.771484375
-100.639892578125 -10.088623046875 27.078369140625
-37.841552734375 -38.3927001953125 35.1668701171875
17.29541015625 -15.0147705078125 -15.792236328125
5.005859375 -16.7449951171875 8.822021484375
32.27490234375 -32.01025390625 3.0216064453125
98.10595703125 -25.39697265625 21.11669921875
24.805908203125 -39.59228515625 11.51953125
5.720703125 -32.124755859375 25.4564208984375
-75.322998046875 -14.3814697265625 -10.84912109375
-90.611328125 -15.2222900390625 -12.10009765625
-8.009521484375 -37.939453125 31.095458984375
-74.956787109375 -13.456298828125 15.575439453125
-81.699951171875 -15.6978759765625 20.1815185546875
-84.37451171875 -7.0343017578125 11.661376953125
-70.923583984375 -27.94921875 28.7276611328125
-61.562744140625 -33.219482421875 32.7987060546875
35.0830078125 -41.001220703125 18.101318359375
36.068115234375 21.6473388671875 -32.836669921875
-91.928955078125 -14.477294921875 24.4752197265625
-79.76513671875 -24.1331787109375 29.895263671875
19.446533203125 -16.643310546875 7.901123046875
5.028564453125 -14.4669189453125 -17.947509765625
-7.576171875 -18.1806640625 12.342529296875
110.0634765625 -23.1409912109375 20.94482421875
-28.294921875 -34.61962890625 -3.8509521484375
25.765869140625 -28.312744140625 -0.0662841796875
20.21875 -33.197998046875 5.601806640625
-22.3955078125 -53.2401123046875 25.770751953125
-51.736572265625 -10.6478271484375 7.798583984375
-36.572021484375 -29.711181640625 26.57470703125
-65.93408203125 -16.8499755859375 14.9287109375
-92.759765625 -8.6334228515625 16.805419921875
107.410400390625 -37.1470947265625 20.845458984375
73.989013671875 -51.167236328125 3.98583984375
13.896240234375 -10.5299072265625 2.4022216796875
-64.915283203125 -50.847900390625 27.1094970703125
-8.792236328125 -27.0743408203125 20.2320556640625
-62.1484375 -12.5018310546875 9.443359375
26.281494140625 -16.2177734375 -16.1524658203125
-17.950927734375 -56.02587890625 26.367919921875
-74.91015625 -22.982666015625 25.4083251953125
38.47216796875 18.926513671875 -33.6585693359375
-56.57080078125 -24.5008544921875 21.9205322265625
102.0859375 -24.65087890625 21.2303466796875
31.88330078125 -13.9561767578125 6.9967041015625
19.993896484375 -16.6632080078125 -16.533935546875
-4.3994140625 -21.228271484375 -14.2213134765625
-67.971923828125 -52.8231201171875 28.5404052734375
1.023681640625 -15.1251220703125 9.0848388671875
-55.880615234375 -14.891845703125 12.82763671875
19.30859375 -43.8587646484375 16.1307373046875
24.2978515625 -17.234130859375 -18.9190673828125
100.4091796875 -20.4827880859375 21.101318359375
-10.46630859375 -16.9295654296875 10.731201171875
106.906005859375 -26.816162109375 20.944580078125
-32.39453125 -35.257080078125 -7.4232177734375
14.81884765625 -7.0811767578125 0.985595703125
-70.430419921875 -21.5213623046875 22.309326171875
-65.052001953125 -20.240234375 19.07421875
22.923095703125 -37.2711181640625 27.2830810546875
-47.8193359375 -26.9991455078125 23.0018310546875
-13.69677734375 -29.7373046875 23.2825927734375
33.39208984375 -4.2822265625 -3.426513671875
23.686279296875 -5.9420166015625 -2.7156982421875
14.130859375 -38.3968505859375 31.1446533203125
-33.805419921875 -41.7777099609375 -2.6849365234375
103.469482421875 -36.3311767578125 21.04833984375
-93.26318359375 -17.9239501953125 -11.655517578125
4.538330078125 -29.78759765625 22.148681640625
-79.318603515625 -20.8653564453125 25.5968017578125
7.3056640625 -34.43359375 28.78857421875
-26.286865234375 -45.75390625 0.0684814453125
-46.548828125 -30.5733642578125 27.4617919921875
-0.017822265625 -30.8663330078125 23.8883056640625
-86.12451171875 -15.4908447265625 -13.298828125
-77.372802734375 -17.6295166015625 -10.8275146484375
23.737548828125 -38.9219970703125 33.3389892578125
-80.60107421875 -20.0284423828125 -8.12255859375
-62.109375 -14.4783935546875 -14.9052734375
-12.892578125 -16.3692626953125 9.60546875
-39.47900390625 -39.9730224609375 37.0247802734375
-16.568115234375 -19.070068359375 12.64453125
-31.687744140625 -31.1234130859375 26.406494140625
12.109619140625 -40.2279052734375 33.2781982421875
26.97314453125 -14.436767578125 7.6328125
-54.244384765625 -17.86865234375 -10.885009765625
-63.03662109375 -19.4522705078125 -10.13427734375
-75.370361328125 -27.7281494140625 31.6796875
-15.33740234375 -32.2843017578125 26.4320068359375
-59.228759765625 -16.98388671875 15.3648681640625
-45.058349609375 -17.5345458984375 14.397705078125
-106.12939453125 -0.30078125 17.568115234375
32.48095703125 -41.2684326171875 33.8634033203125
34.69677734375 -41.215576171875 22.655517578125
-34.693115234375 -25.3228759765625 22.2855224609375
3.446533203125 -25.939208984375 19.60498046875
102.20947265625 -31.593994140625 21.0074462890625
-14.128662109375 -51.23583984375 24.3760986328125
-63.71044921875 -29.576416015625 28.374267578125
26.777587890625 -44.95654296875 18.282958984375
-54.263916015625 -8.3594970703125 4.8699951171875
-51.66552734375 -12.3671875 9.5858154296875
19.868896484375 -28.966796875 -0.1080322265625
22.342041015625 -17.442626953125 -15.1273193359375
-75.3564453125 -16.281005859375 -12.3167724609375
-45.27587890625 -39.5560302734375 36.3331298828125
-93.689208984375 -20.3685302734375 -8.4541015625
-102.66357421875 -7.8233642578125 23.4608154296875
30.35791015625 -34.5953369140625 5.46533203125
36.361572265625 -22.5828857421875 12.9627685546875
27.586181640625 -40.082275390625 12.1309814453125
25.218505859375 -42.1341552734375 14.5057373046875
35.420166015625 -39.0562744140625 11.9766845703125
12.6875 -12.922607421875 5.159423828125
35.03564453125 -19.9422607421875 10.9722900390625
-2.1357421875 -11.9307861328125 -18.5732421875
7.919677734375 -22.2236328125 15.33349609375
79.267333984375 -45.077880859375 -1.3203125
17.880126953125 -31.47216796875 2.931640625
69.837890625 -8.5732421875 -24.844970703125
5.396484375 -15.1409912109375 6.991943359375
-75.927001953125 -16.9910888671875 18.5615234375
6.288330078125 -3.5401611328125 -4.5626220703125
-89.074462890625 -12.2579345703125 20.3328857421875
-25.073974609375 -33.06494140625 29.009521484375
-6.541748046875 -32.6015625 -10.7147216796875
-98.729736328125 -9.0628662109375 22.983154296875
8.57177734375 -12.12890625 4.2193603515625
-84.182861328125 -24.879150390625 33.6688232421875
19.394287109375 -37.0394287109375 10.608154296875
5.757080078125 -22.282470703125 16.3402099609375
25.65185546875 -11.150390625 4.55126953125
30.140380859375 -6.4571533203125 -1.0245361328125
-13.324951171875 -32.8709716796875 27.52880859375
93.002685546875 -28.8677978515625 21.282470703125
32.958740234375 -39.939208984375 26.9981689453125
34.563232421875 -10.3946533203125 4.67236328125
-17.360595703125 -39.1939697265625 -7.080810546875
-14.228271484375 -2.55078125 -13.1380615234375
29.93505859375 -39.9158935546875 12.2734375
-75.587890625 -9.898681640625 12.0491943359375
67.21240234375 -11.0750732421875 -24.2723388671875
36.67578125 25.781005859375 -30.5428466796875
11.772705078125 -35.5521240234375 30.4755859375
-7.8505859375 -51.7369384765625 26.02099609375
-69.56591796875 -34.742431640625 36.9732666015625
-93.989013671875 -8.8482666015625 18.798095703125
-4.885009765625 -48.8232421875 30.3109130859375
89.630859375 21.76953125 -25.1903076171875
19.741943359375 -37.9993896484375 31.4849853515625
12.0166015625 -9.2265625 2.908203125
-33.400390625 -40.113037109375 -4.8470458984375
63.742919921875 -33.23876953125 20.1409912109375
-58.682861328125 -31.2933349609375 30.6715087890625
-12.08837890625 -37.035400390625 29.7559814453125
-62.732666015625 -26.338134765625 25.75830078125
92.978515625 -31.25830078125 24.4739990234375
-15.009521484375 -6.3343505859375 -17.4814453125
-25.921875 -37.29638671875 31.7403564453125
-58.476806640625 -19.6177978515625 16.916259765625
31.276611328125 -39.8026123046875 31.96435546875
14.092529296875 -14.7742919921875 -16.1285400390625
-46.56689453125 -36.5699462890625 35.2169189453125
-63.0380859375 -8.4962158203125 6.83642578125
111.3134765625 -33.621826171875 20.7982177734375
-37.003173828125 -35.6488037109375 31.6295166015625
-32.22705078125 -54.645751953125 26.1224365234375
24.53173828125 -33.8382568359375 7.1275634765625
13.880615234375 -38.6121826171875 11.8538818359375
-52.43994140625 -32.24365234375 29.80908203125
-16.222900390625 -26.2943115234375 19.3016357421875
72.09521484375 -37.0369873046875 -12.509033203125
19.606689453125 -10.1201171875 2.2352294921875
-12.84423828125 -25.3016357421875 17.486083984375
21.32080078125 -40.7615966796875 12.065673828125
-105.215087890625 -5.330078125 23.877197265625
0.050537109375 -36.157958984375 29.9664306640625
93.274169921875 -24.2471923828125 21.0506591796875
-73.377197265625 -18.55224609375 -8.9736328125
35.88720703125 -41.16162109375 31.78466796875
-10.823974609375 -33.8397216796875 -9.7249755859375
-59.62158203125 -10.71533203125 7.1865234375
-85.952392578125 -19.8941650390625 27.533203125
-74.47021484375 -30.132568359375 34.506591796875
-22.8984375 -37.9669189453125 -6.084228515625
-22.26904296875 -47.3927001953125 -0.8177490234375
-97.40283203125 -23.5054931640625 -6.3341064453125
-70.302490234375 -10.627197265625 9.873291015625
35.9599609375 15.532470703125 -33.5458984375
1.634521484375 -29.6514892578125 22.269775390625
-8.134765625 -34.2364501953125 27.383544921875
-87.91455078125 -17.5494384765625 25.702880859375
-57.09912109375 -41.0538330078125 34.4581298828125
-39.1708984375 -29.431640625 26.82470703125
-83.66748046875 -20.218505859375 27.252197265625
5.994384765625 -24.763427734375 17.42041015625
78.22021484375 -45.1610107421875 -3.3848876953125
93.066162109375 -31.1436767578125 21.409423828125
17.776123046875 -43.13232421875 14.6839599609375
-84.73681640625 -12.3118896484375 18.123046875
75.180419921875 -45.8328857421875 -2.9591064453125
-70.908203125 -31.277587890625 32.9171142578125
-58.014404296875 -14.0599365234375 11.90673828125
-67.93701171875 -31.05419921875 32.5576171875
-82.4404296875 -22.5963134765625 28.4884033203125
6.15771484375 -28.7044677734375 20.9525146484375
-96.274169921875 -13.303466796875 27.119384765625
-54.985107421875 -29.3092041015625 28.59375
-74.968994140625 -22.398681640625 -4.3287353515625
-48.614990234375 -33.66015625 31.2667236328125
-90.123046875 -17.23046875 27.6253662109375
21.725341796875 -15.335205078125 -19.474853515625
-33.364990234375 -36.611328125 33.4813232421875
-23.943603515625 -26.9140625 21.9832763671875
8.71728515625 -3.856201171875 -3.7628173828125
-32.130615234375 -34.8155517578125 31.272705078125
-21.091796875 -25.4918212890625 20.525146484375
-26.82275390625 -31.0228271484375 27.02783203125
100.970703125 -28.7296142578125 20.8709716796875
-6.365234375 -49.4544677734375 27.047607421875
-10.873779296875 -30.0235595703125 24.1036376953125
32.892822265625 -18.27392578125 -16.1939697265625
-44.83837890625 -20.93798828125 17.4273681640625
0.8330078125 -38.281494140625 32.92626953125
8.574462890625 -28.2911376953125 20.7755126953125
5.77490234375 -26.794677734375 18.3404541015625
-2.744140625 -34.177001953125 26.884521484375
9.73974609375 -32.3243408203125 26.347412109375
105.806640625 -34.24853515625 20.7803955078125
-77.718017578125 -21.98681640625 -5.55517578125
38.049072265625 -39.74462890625 14.49462890625
-85.580810546875 -13.6221923828125 19.7431640625
9.29443359375 -41.3919677734375 34.396728515625
28.404296875 -38.0784912109375 26.0096435546875
-91.8984375 -11.4609375 20.4481201171875
24.19873046875 -32.663330078125 5.0267333984375
-2.390869140625 -38.9940185546875 33.3779296875
-70.648193359375 -22.6334228515625 -7.0645751953125
-92.525146484375 -15.65625 26.769775390625
-71.87939453125 -18.2969970703125 19.0892333984375
-81.155029296875 -18.2689208984375 22.904052734375
71.62548828125 -43.5020751953125 -3.491455078125
-56.887451171875 -33.3516845703125 32.66552734375
17.23193359375 -16.2135009765625 -13.71728515625
12.524169921875 -13.9359130859375 -17.4927978515625
-47.416259765625 -54.49853515625 27.412841796875
-55.5712890625 -51.4603271484375 25.9620361328125
-4.712890625 -25.9287109375 19.0814208984375
-89.1357421875 -7.4971923828125 14.4991455078125
37.489990234375 39.3614501953125 -31.9580078125
29.408447265625 -17.6513671875 -13.7506103515625
95.283203125 -40.1883544921875 21.83935546875
12.742431640625 -34.67333984375 6.412353515625
22.361328125 -16.9041748046875 7.697021484375
14.9619140625 -35.4443359375 27.3272705078125
24.560546875 -30.9989013671875 3.3369140625
-13.36181640625 -53.0731201171875 26.9508056640625
-66.8818359375 -12.7366943359375 12.43359375
37.641845703125 -35.2021484375 9.074951171875
-82.0419921875 -13.1148681640625 18.5443115234375
-86.542236328125 -10.5667724609375 16.3143310546875
-99.69873046875 -11.794921875 28.9547119140625
-78.955078125 -15.6165771484375 19.1688232421875
-23.86083984375 -45.6676025390625 -0.3660888671875
-73.914306640625 -8.0367431640625 9.8204345703125
-4.6494140625 -51.0523681640625 28.24462890625
-42.851806640625 -23.087646484375 18.287841796875
-91.137451171875 -18.6915283203125 30.23095703125
34.784423828125 -40.7188720703125 30.038818359375
-67.95849609375 -16.2730712890625 15.941162109375
-20.209228515625 -39.664306640625 -5.964599609375
