35.811279296875 19.045654296875 -1.2529296875
101.249267578125 -3.73779296875 -4.1859130859375
14.066650390625 1.4273681640625 13.634033203125
104.08349609375 -30.4423828125 15.80712890625
52.999755859375 8.49169921875 -0.766357421875
41.528564453125 9.9117431640625 -0.690673828125
-48.41357421875 0.0283203125 20.456787109375
-6.7333984375 -5.6556396484375 19.712646484375
64.0166015625 -36.449462890625 17.777587890625
49.34326171875 17.4202880859375 3.6158447265625
69.257080078125 -18.2850341796875 13.5509033203125
81.75927734375 -6.288330078125 -4.05029296875
46.179443359375 -4.7403564453125 15.568359375
-3.577392578125 8.0498046875 9.55126953125
31.88818359375 1.2431640625 7.9798583984375
96.518798828125 -2.2462158203125 9.015869140625
52.0751953125 11.311279296875 -1.389404296875
73.375244140625 -9.0263671875 4.7261962890625
-87.69189453125 -40.883544921875 32.1434326171875
101.751953125 -11.5242919921875 -4.263916015625
-37.123291015625 -14.9466552734375 22.2860107421875
100.340576171875 -14.1151123046875 14.3603515625
-75.235107421875 -22.271240234375 23.7734375
82.324462890625 -10.6920166015625 -1.063232421875
104.481201171875 -22.1181640625 5.7982177734375
31.787353515625 -4.713134765625 16.8692626953125
99.056396484375 -15.09228515625 8.337890625
-4.58740234375 21.343505859375 6.6649169921875
107.73046875 -31.4296875 19.4024658203125
32.08837890625 5.14892578125 3.2391357421875
-87.193115234375 -24.4222412109375 25.9735107421875
-3.506103515625 -8.044677734375 21.98095703125
78.53564453125 3.4176025390625 -6.10986328125
97.12158203125 -19.62841796875 0.0550537109375
62.062744140625 -35.7591552734375 23.5821533203125
-24.302978515625 -3.18896484375 15.6873779296875
-25.665283203125 11.37890625 9.94482421875
57.050048828125 3.28125 0.281005859375
-43.947998046875 -5.343505859375 20.5858154296875
-23.243896484375 8.88916015625 9.908935546875
83.087158203125 19.988525390625 -15.0289306640625
-74.614501953125 -17.1492919921875 29.9205322265625
-26.689697265625 -0.65185546875 15.8671875
31.85205078125 8.8880615234375 -0.303466796875
-22.1123046875 21.740478515625 8.520751953125
-17.4521484375 6.791259765625 10.994140625
-31.987548828125 1.893798828125 16.342041015625
84.633056640625 -5.123046875 -3.085693359375
43.69091796875 14.4130859375 -1.735107421875
102.139892578125 -17.7645263671875 2.19970703125
5.54296875 -10.021240234375 16.6182861328125
84.591796875 -45.2877197265625 18.244140625
48.71044921875 6.0472412109375 0.169677734375
85.575439453125 0.8271484375 -5.17236328125
98.953125 -20.674072265625 2.9268798828125
44.3818359375 19.1497802734375 1.114990234375
-20.97314453125 -4.0162353515625 15.483642578125
-76.650634765625 -36.830322265625 25.0987548828125
82.5009765625 -41.5177001953125 13.1441650390625
71.861572265625 7.2606201171875 -0.8291015625
48.005126953125 23.204345703125 -1.7354736328125
77.240478515625 6.848876953125 -2.875244140625
-0.8544921875 -5.314453125 18.874267578125
-20.89501953125 3.1033935546875 10.2266845703125
60.48486328125 23.5087890625 -2.141845703125
61.9697265625 -37.49462890625 25.8175048828125
98.413818359375 -6.8778076171875 0.8369140625
48.485595703125 15.3271484375 0.9547119140625
99.539794921875 -6.7318115234375 6.645263671875
72.020751953125 2.827880859375 0.4085693359375
68.7431640625 -7.781494140625 17.4268798828125
99.804931640625 -24.896484375 17.3857421875
98.740234375 -7.7811279296875 -2.835205078125
-32.187255859375 -10.5546875 20.835205078125
84.026123046875 -32.5518798828125 10.658447265625
-24.5166015625 6.43798828125 10.3778076171875
100.408935546875 -8.820068359375 12.4749755859375
-5.57275390625 -3.6024169921875 17.5313720703125
-44.455810546875 4.314208984375 18.6358642578125
-73.504638671875 -18.1146240234375 27.41552734375
100.520751953125 -2.3826904296875 -0.513427734375
76.44873046875 -46.8074951171875 21.900634765625
101.158935546875 -25.87744140625 23.0938720703125
-1.72216796875 -1.354736328125 14.2391357421875
16.807861328125 2.478515625 12.4547119140625
99.2548828125 -18.841796875 16.92431640625
77.5927734375 0.060546875 -0.7584228515625
50.83935546875 18.9920654296875 -1.6221923828125
94.297119140625 -6.3843994140625 13.889892578125
77.404541015625 11.6214599609375 -4.4564208984375
42.311279296875 -7.08056640625 18.7830810546875
58.37646484375 0.782470703125 3.77880859375
32.002685546875 0.645263671875 10.651123046875
-41.150390625 -1.7552490234375 16.1402587890625
79.9443359375 -1.248046875 -6.0010986328125
-77.052001953125 -28.459228515625 19.959716796875
96.78759765625 -8.16845703125 15.46826171875
99.827392578125 -1.1595458984375 6.06005859375
52.65625 15.49853515625 -1.919677734375
108.63134765625 -25.511962890625 9.937255859375
12.536865234375 -13.0771484375 15.8170166015625
81.03564453125 20.9395751953125 -10.1605224609375
80.478271484375 12.34423828125 -11.39990234375
63.145751953125 -26.29931640625 16.8707275390625
56.995361328125 19.495849609375 -2.0650634765625
41.766845703125 3.0057373046875 2.3162841796875
77.78662109375 -7.0858154296875 -1.75146484375
77.255859375 19.6298828125 -8.29443359375
72.153564453125 17.75146484375 -5.2440185546875
71.72900390625 4.06103515625 3.4530029296875
98.5390625 -24.7760009765625 13.9268798828125
99.692626953125 -24.337890625 7.833251953125
58.046142578125 10.461669921875 -1.9569091796875
8.338134765625 -13.145751953125 17.6539306640625
2.106201171875 -6.265869140625 20.0078125
70.720458984375 -39.6512451171875 12.08251953125
-36.18896484375 -11.0537109375 17.2803955078125
63.914306640625 -40.4781494140625 21.437744140625
4.21533203125 -9.6988525390625 21.6602783203125
77.065185546875 -10.4356689453125 2.1839599609375
8.367919921875 4.5103759765625 14.4136962890625
101.0146484375 -8.545654296875 9.905517578125
47.634033203125 7.6773681640625 -1.6258544921875
-32.072021484375 -7.612060546875 20.7305908203125
-20.310302734375 10.902099609375 10.7432861328125
77.436767578125 -5.130859375 0.9263916015625
8.1845703125 -11.3603515625 14.3824462890625
69.9072265625 -9.135009765625 8.119140625
-75.25146484375 -42.6937255859375 28.7303466796875
-76.47998046875 -34.6429443359375 21.6658935546875
-12.402099609375 12.147216796875 8.2786865234375
61.8818359375 -31.032958984375 19.100341796875
87.539794921875 -27.7274169921875 14.990234375
81.09521484375 17.898193359375 -13.1258544921875
-82.2265625 -33.1298828125 25.3736572265625
44.07177734375 5.82568359375 -0.1925048828125
61.522705078125 -31.443115234375 27.8238525390625
77.992919921875 -48.006103515625 17.5633544921875
-77.85009765625 -21.1956787109375 26.9437255859375
38.31787109375 -0.00537109375 7.560791015625
-23.400634765625 -7.3272705078125 19.4627685546875
83.08056640625 14.9525146484375 -13.0965576171875
79.00341796875 2.47265625 1.697265625
98.90283203125 -22.3033447265625 13.2088623046875
-16.9521484375 1.5889892578125 12.1602783203125
82.39208984375 -37.9716796875 9.3448486328125
78.044677734375 -42.073486328125 12.5902099609375
72.798095703125 15.1552734375 -5.2806396484375
50.852783203125 -2.8564453125 12.255859375
79.619384765625 -39.230224609375 9.5545654296875
-78.589599609375 -41.61669921875 32.41796875
70.936279296875 -10.1756591796875 14.5853271484375
40.62890625 19.959228515625 -1.61767578125
-13.426513671875 3.8243408203125 10.6409912109375
-86.13623046875 -34.187255859375 24.3375244140625
-21.180908203125 -7.9781494140625 18.355712890625
-25.099609375 -4.837646484375 17.6402587890625
76.29931640625 -17.7437744140625 7.84033203125
74.40185546875 -6.7078857421875 3.5218505859375
72.8505859375 -45.8406982421875 24.944580078125
11.569091796875 -8.3651123046875 15.91650390625
61.847900390625 -31.0732421875 25.3131103515625
6.33935546875 -4.140625 17.81201171875
12.447509765625 6.7373046875 14.2789306640625
61.880615234375 -25.397216796875 25.3150634765625
51.3115234375 6.060791015625 -0.0360107421875
61.513427734375 -25.58984375 20.3017578125
83.641845703125 -27.42578125 14.560791015625
39.162353515625 5.1541748046875 0.9769287109375
47.290283203125 0.8961181640625 5.2327880859375
99.0947265625 -14.8514404296875 5.621337890625
-40.001708984375 -14.0946044921875 22.5260009765625
-37.058837890625 1.4349365234375 15.044677734375
-20.295166015625 -0.4951171875 14.25244140625
76.264892578125 -37.62744140625 6.98828125
101.523193359375 -12.0989990234375 15.3443603515625
58.6923828125 -7.4908447265625 17.6005859375
102.975830078125 -26.64794921875 11.0501708984375
-27.614501953125 -4.893798828125 19.3350830078125
39.13818359375 15.72998046875 -1.1610107421875
56.333984375 -1.83447265625 8.9466552734375
95.977783203125 0.2239990234375 8.3660888671875
-9.399658203125 -5.33056640625 19.5118408203125
43.9599609375 11.4549560546875 -1.5712890625
42.03857421875 7.5223388671875 -0.063720703125
0.525390625 23.815673828125 7.158935546875
79.152587890625 -13.387451171875 0.4749755859375
2.28271484375 13.79296875 6.5184326171875
99.005615234375 -12.18798828125 2.1793212890625
101.712646484375 -15.6737060546875 0.0574951171875
70.808349609375 -42.1312255859375 14.74755859375
-36.123046875 3.9466552734375 16.4593505859375
98.31884765625 -17.2103271484375 -2.5908203125
-23.5576171875 14.631591796875 10.6937255859375
-10.30615234375 6.47607421875 9.127685546875
2.94677734375 20.0474853515625 7.275390625
72.78125 19.640625 -3.320556640625
70.24267578125 -20.529296875 13.14453125
78.94482421875 10.026123046875 -5.6700439453125
81.46826171875 -15.580078125 1.9305419921875
98.646484375 -14.6297607421875 2.8883056640625
-40.47607421875 -8.351318359375 16.6302490234375
-0.340576171875 5.5064697265625 9.3067626953125
105.817626953125 -29.3507080078125 12.554931640625
91.2578125 -34.9024658203125 20.2354736328125
41.9931640625 -3.48828125 13.957763671875
66.289794921875 -44.1180419921875 20.30029296875
91.419189453125 -8.971923828125 16.2247314453125
-52.46826171875 -7.603759765625 24.1300048828125
-29.6396484375 -3.1099853515625 16.4608154296875
47.854248046875 19.5869140625 0.7412109375
13.3056640625 -4.900146484375 17.64208984375
-18.976806640625 3.670654296875 12.1903076171875
20.960693359375 -0.8511962890625 15.916259765625
86.883056640625 -13.8465576171875 10.8092041015625
36.687744140625 9.1180419921875 -1.51123046875
49.46484375 11.6968994140625 -1.2813720703125
78.6533203125 -24.489501953125 8.3687744140625
-38.234375 -2.1695556640625 17.5782470703125
54.25537109375 12.5582275390625 -1.7880859375
-79.023681640625 -40.00244140625 30.0430908203125
8.898681640625 -6.3841552734375 15.47021484375
12.23193359375 2.26513671875 12.0594482421875
-5.2900390625 -9.740234375 22.2093505859375
-43.05712890625 -9.4140625 24.6705322265625
-19.362548828125 -9.908447265625 19.0096435546875
93.48583984375 -4.0614013671875 10.8326416015625
66.86572265625 -24.9837646484375 20.8192138671875
54.13671875 0.8441162109375 4.4049072265625
54.240478515625 -2.3526611328125 10.5128173828125
79.0263671875 -4.7142333984375 -4.376953125
69.787353515625 -36.127197265625 8.3760986328125
-7.9736328125 1.3201904296875 11.934326171875
-81.040283203125 -29.9923095703125 20.64599609375
-14.546875 18.936279296875 9.8125
-25.574462890625 16.314453125 10.8214111328125
-19.158935546875 12.84375 9.9437255859375
70.350830078125 -4.8203125 6.224609375
-22.68212890625 1.2821044921875 13.1380615234375
-40.63330078125 2.3863525390625 15.779541015625
96.0615234375 -35.2598876953125 27.197998046875
33.5810546875 14.1905517578125 -1.435791015625
87.61474609375 -8.7476806640625 6.5164794921875
-76.3583984375 -43.4310302734375 31.459716796875
-80.19921875 -34.3304443359375 25.43896484375
-7.244384765625 12.212646484375 9.507568359375
66.6845703125 -41.197998046875 17.543701171875
-85.57763671875 -39.6083984375 30.131103515625
52.880615234375 20.4403076171875 -1.3515625
86.421142578125 -31.6690673828125 10.656005859375
78.434814453125 2.4412841796875 -3.2918701171875
61.736083984375 -29.2386474609375 23.636474609375
69.556396484375 -24.366943359375 17.453125
-25.055908203125 -12.00927734375 24.939697265625
-17.6875 22.4005126953125 8.80419921875
98.807861328125 -29.9449462890625 24.9359130859375
1.17431640625 9.4407958984375 7.9095458984375
99.187255859375 -18.00927734375 14.7474365234375
70.712158203125 -6.6424560546875 9.3658447265625
70.459716796875 -15.4727783203125 10.5985107421875
-3.6875 23.84423828125 6.2933349609375
-49.741455078125 -9.41845703125 25.1640625
99.77587890625 -6.58447265625 12.6290283203125
86.653564453125 -42.051513671875 17.049072265625
9.691650390625 -11.3380126953125 16.15625
85.988525390625 16.924560546875 -14.0465087890625
104.89404296875 -35.4912109375 21.1912841796875
-18.8173828125 15.6180419921875 9.1563720703125
12.218017578125 5.0230712890625 12.727783203125
-7.447021484375 -12.7340087890625 24.2276611328125
14.512939453125 -10.306884765625 18.3248291015625
55.285400390625 -4.4049072265625 14.4058837890625
63.447509765625 -8.1644287109375 18.0732421875
85.677734375 -34.218994140625 8.718994140625
-88.307861328125 -26.216796875 31.208740234375
43.148193359375 19.41162109375 -0.8179931640625
76.493896484375 9.5452880859375 -4.0302734375
-17.552490234375 -9.8990478515625 20.6875
77.801025390625 -0.5325927734375 -3.0557861328125
15.135498046875 -1.003662109375 15.826416015625
-81.972412109375 -36.878173828125 29.2640380859375
0.776123046875 20.8089599609375 7.1734619140625
75.5986328125 -46.1522216796875 16.0096435546875
80.133056640625 -41.318359375 12.005615234375
-80.93603515625 -22.676025390625 24.151123046875
70.748779296875 -24.4390869140625 15.035888671875
-76.05908203125 -25.888671875 22.357177734375
22.858642578125 2.098388671875 12.093994140625
73.85791015625 -21.1356201171875 12.137451171875
61.433837890625 -34.003173828125 28.12939453125
5.562744140625 -10.993896484375 14.3336181640625
-12.419921875 -6.5087890625 18.4415283203125
71.21728515625 -44.570556640625 27.21435546875
81.7841796875 -20.3592529296875 5.4462890625
47.068603515625 -2.6094970703125 11.836181640625
-84.901611328125 -26.5751953125 25.412109375
77.306396484375 -34.1483154296875 9.427978515625
-5.40234375 -11.5706787109375 23.55029296875
-19.513671875 -11.9923095703125 24.60888671875
36.22265625 -7.8731689453125 19.5875244140625
86.59619140625 -26.3232421875 17.5654296875
70.878662109375 0.28515625 2.3863525390625
-19.343505859375 -4.9361572265625 16.76171875
105.599853515625 -32.5557861328125 18.267822265625
70.160400390625 -12.124755859375 8.2781982421875
-29.271240234375 -6.15185546875 21.266845703125
-84.26318359375 -34.3309326171875 25.5963134765625
73.837158203125 -24.8787841796875 14.83154296875
-14.486572265625 16.577880859375 9.05908203125
-33.65087890625 -11.018310546875 17.2342529296875
6.053466796875 -7.32861328125 18.8582763671875
35.6640625 -2.8009033203125 13.77880859375
-81.932861328125 -38.8568115234375 31.832275390625
37.63134765625 20.355224609375 -1.4051513671875
5.253173828125 -0.8162841796875 14.055419921875
100.32080078125 -27.3074951171875 14.254150390625
61.775634765625 -28.592529296875 20.45263671875
57.895263671875 7.9158935546875 -1.7860107421875
-1.71630859375 -7.06396484375 20.5665283203125
-12.749267578125 -8.1588134765625 20.4571533203125
82.792236328125 9.3408203125 -11.6134033203125
82.881591796875 3.120361328125 -9.2413330078125
76.561279296875 17.6845703125 -7.448486328125
-13.82470703125 -2.8643798828125 16.0721435546875
-76.7705078125 -17.6593017578125 29.6551513671875
-49.16455078125 -5.98583984375 21.837646484375
79.94873046875 20.214599609375 -6.615966796875
52.441162109375 2.3988037109375 2.2650146484375
97.694580078125 -22.69873046875 3.602783203125
-15.6806640625 -1.7794189453125 15.4730224609375
99.873046875 -27.0621337890625 21.7247314453125
33.959228515625 4.2867431640625 1.4405517578125
0.329345703125 11.878662109375 7.5294189453125
-2.48486328125 13.2030029296875 7.9639892578125
98.465087890625 -21.18212890625 8.4332275390625
74.840576171875 -29.203369140625 16.87255859375
7.417236328125 2.0740966796875 13.4180908203125
24.693359375 -7.14111328125 19.9287109375
-25.35107421875 2.351318359375 12.611083984375
-42.782470703125 -8.256591796875 20.6688232421875
74.145751953125 -33.3690185546875 11.300048828125
-18.0947265625 19.1724853515625 8.06982421875
72.464111328125 -34.9000244140625 8.0218505859375
73.8505859375 9.934326171875 -3.919677734375
61.927978515625 -32.483642578125 22.621826171875
19.427734375 0.7528076171875 13.8765869140625
49.057861328125 -7.840576171875 18.7200927734375
-82.741943359375 -26.83837890625 26.0030517578125
70.0615234375 -10.4388427734375 11.7183837890625
106.327880859375 -25.2869873046875 9.0875244140625
82.715087890625 -42.9151611328125 14.828857421875
63.29296875 -34.501708984375 16.790771484375
103.95361328125 -18.997314453125 2.362548828125
77.7099609375 -8.9471435546875 -0.58447265625
71.107666015625 -1.9947509765625 5.311279296875
-37.881103515625 -10.6287841796875 15.681396484375
5.0302734375 -9.905517578125 18.930908203125
-15.974365234375 -10.5718994140625 23.12060546875
76.543701171875 4.893798828125 -2.0250244140625
-20.609619140625 -10.0528564453125 22.061767578125
99.056640625 -9.6734619140625 5.391357421875
-7.7607421875 8.12646484375 8.681884765625
-88.149658203125 -36.94775390625 26.99365234375
38.60009765625 1.2681884765625 5.8074951171875
-79.662841796875 -31.811279296875 21.66650390625
66.41357421875 -36.5172119140625 12.986328125
100.014404296875 0.832275390625 6.936279296875
99.173583984375 -3.1087646484375 8.8668212890625
77.552490234375 -4.1995849609375 2.898193359375
44.88916015625 -5.7119140625 17.037353515625
83.50341796875 -29.7891845703125 15.7200927734375
-9.40576171875 10.9912109375 8.4127197265625
33.540283203125 0.922119140625 6.5948486328125
40.153564453125 -5.087158203125 16.4232177734375
37.78662109375 14.048583984375 -0.875
78.605224609375 -21.6234130859375 5.76708984375
-76.07177734375 -40.6968994140625 28.453857421875
3.111083984375 2.7178955078125 9.73095703125
-29.376220703125 -0.852783203125 16.9793701171875
99.90869140625 -5.3897705078125 -3.7518310546875
79.913818359375 -35.37255859375 7.4794921875
-12.298583984375 23.1610107421875 9.3087158203125
70.806396484375 -7.291015625 6.718994140625
65.623779296875 -41.7203369140625 19.357177734375
68.804931640625 -27.00732421875 19.3787841796875
68.3583984375 -45.440185546875 20.068115234375
62.818115234375 -36.631103515625 21.3004150390625
75.51318359375 -39.0238037109375 8.5654296875
63.7353515625 -38.478515625 20.6348876953125
72.1572265625 -13.88525390625 8.0020751953125
98.858154296875 -13.0975341796875 7.53857421875
75.94970703125 -23.6885986328125 12.20703125
77.59423828125 -31.62158203125 13.39599609375
58.430908203125 -1.636962890625 9.5400390625
73.73046875 19.3193359375 -8.951416015625
56.566162109375 17.444580078125 -1.60498046875
35.840576171875 13.06591796875 -1.1024169921875
21.2626953125 -4.364501953125 17.4014892578125
77.881591796875 5.3966064453125 -0.2833251953125
-28.622802734375 -9.699462890625 24.15478515625
-82.381591796875 -31.302734375 22.279296875
79.39111328125 13.46923828125 -7.3336181640625
-76.966064453125 -22.355224609375 25.385986328125
52.135986328125 -1.73193359375 9.7178955078125
83.393310546875 -3.8968505859375 -4.92431640625
78.512939453125 -2.715576171875 -4.906494140625
70.80712890625 -18.614990234375 11.98779296875
-78.611083984375 -29.9892578125 18.578857421875
76.014404296875 -47.4788818359375 18.1446533203125
42.95703125 -2.307373046875 11.669921875
79.46728515625 -18.5545654296875 4.076904296875
25.057373046875 -5.393798828125 18.17919921875
33.5732421875 -2.7493896484375 14.1627197265625
75.545654296875 -0.8594970703125 0.88671875
99.6796875 -8.3634033203125 -0.00537109375
-40.285400390625 -13.82861328125 18.27490234375
97.768310546875 -18.54052734375 2.888916015625
20.374755859375 5.34130859375 13.1539306640625
-7.96533203125 -1.6812744140625 15.1829833984375
-87.134521484375 -26.717529296875 28.7655029296875
72.056884765625 22.61767578125 -6.435791015625
34.624755859375 -1.9422607421875 12.1260986328125
73.95751953125 -2.416015625 1.7086181640625
72.00244140625 -45.9635009765625 17.1151123046875
46.004638671875 -1.183349609375 9.009765625
83.38525390625 6.99072265625 -10.8511962890625
75.77490234375 -28.12255859375 13.714111328125
55.950927734375 21.3021240234375 -1.721923828125
-52.240966796875 -9.420166015625 25.3485107421875
80.23486328125 17.1888427734375 -11.03271484375
-83.652587890625 -40.1337890625 31.6566162109375
-10.879638671875 14.7735595703125 9.856201171875
79.12744140625 8.733642578125 -8.783203125
91.840576171875 -0.8924560546875 7.81201171875
48.546875 20.1192626953125 -1.9576416015625
82.85595703125 -44.345947265625 16.37255859375
74.486572265625 -32.23681640625 14.7451171875
100.98046875 -36.054443359375 22.9442138671875
-14.40576171875 -7.224853515625 19.161376953125
85.5029296875 12.256591796875 -12.241943359375
-16.312744140625 -5.275634765625 16.8531494140625
62.41455078125 -34.098876953125 18.8472900390625
-11.804443359375 -1.7115478515625 15.400390625
77.001953125 -43.59765625 13.6014404296875
99.50732421875 -16.59033203125 13.2261962890625
-0.14892578125 15.9007568359375 6.6527099609375
-7.30810546875 15.416259765625 8.7230224609375
-37.29638671875 -7.6624755859375 15.7548828125
-83.3564453125 -43.0665283203125 33.5953369140625
36.63916015625 2.0660400390625 4.11572265625
81.45849609375 -24.4344482421875 8.457275390625
-12.275390625 -0.0491943359375 13.6142578125
-36.1337890625 -5.3526611328125 16.491943359375
-0.035888671875 18.0311279296875 6.587890625
31.847412109375 12.1329345703125 -0.9482421875
69.549072265625 -23.94873046875 21.43310546875
67.202392578125 -29.7984619140625 14.3753662109375
80.47900390625 -27.3802490234375 10.8515625
58.97509765625 14.4599609375 -1.6837158203125
10.030517578125 -0.862548828125 15.1361083984375
97.5849609375 -23.9893798828125 15.6016845703125
50.307373046875 2.005126953125 2.6053466796875
81.159912109375 -37.052001953125 7.560546875
-16.64208984375 -7.318603515625 18.9561767578125
57.1396484375 5.5289306640625 -0.9827880859375
63.776611328125 -27.8721923828125 15.5216064453125
-42.0263671875 -11.119384765625 19.2125244140625
106.383056640625 -29.3665771484375 14.5526123046875
-40.30078125 -11.78076171875 16.30419921875
48.14697265625 3.7818603515625 1.39599609375
10.010009765625 -10.75048828125 13.2296142578125
37.23095703125 -6.3963623046875 18.4189453125
-4.47216796875 10.447021484375 9.0286865234375
-47.392578125 -3.4337158203125 20.0595703125
32.9375 22.7880859375 -1.407470703125
99.93896484375 -31.0833740234375 23.628173828125
21.439697265625 1.069580078125 13.2496337890625
17.94677734375 -3.320068359375 16.668212890625
103.68017578125 -37.78271484375 23.0067138671875
-86.435791015625 -32.113525390625 22.4893798828125
-10.959228515625 18.778076171875 8.8753662109375
-3.7841796875 18.461669921875 7.0013427734375
-2.1259765625 15.187744140625 7.3695068359375
-78.140625 -37.9193115234375 28.0025634765625
42.775390625 -0.4759521484375 8.68310546875
99.267578125 -19.2769775390625 1.4520263671875
66.032958984375 -25.7891845703125 19.121337890625
-5.397705078125 4.2808837890625 9.9942626953125
79.932373046875 6.827392578125 -9.5345458984375
-28.0673828125 22.0030517578125 10.076171875
-14.39501953125 12.6336669921875 8.699462890625
-20.103515625 20.4564208984375 8.2952880859375
-22.048828125 18.5499267578125 9.3021240234375
-46.933837890625 -6.6524658203125 22.38525390625
40.090576171875 -3.731689453125 14.883544921875
76.243408203125 -41.8353271484375 11.6414794921875
61.773681640625 -27.337890625 24.398193359375
-38.8779296875 -6.4222412109375 17.5067138671875
48.48779296875 -3.5296630859375 13.2421875
74.99365234375 -34.1785888671875 9.3775634765625
71.375732421875 -10.935791015625 18.751708984375
98.400390625 -15.7568359375 -0.056884765625
76.860595703125 -6.5748291015625 3.8538818359375
81.372802734375 -8.901123046875 -2.443115234375
-75.2138671875 -19.3961181640625 27.390869140625
36.98388671875 3.367919921875 2.5198974609375
-78.409912109375 -33.3612060546875 22.0274658203125
-20.91552734375 23.72607421875 7.86279296875
80.91064453125 3.397705078125 -9.613525390625
35.82666015625 -5.0579833984375 16.8975830078125
-80.72509765625 -25.6558837890625 25.63623046875
84.61328125 -41.23291015625 14.58984375
74.649169921875 2.178466796875 -0.658447265625
32.128173828125 3.138427734375 3.7315673828125
9.415771484375 -14.91943359375 17.2969970703125
100.341064453125 -28.939208984375 21.1549072265625
22.474853515625 -6.753662109375 19.915283203125
61.916259765625 -32.47607421875 20.505859375
-10.712646484375 -10.462890625 23.186279296875
-76.98388671875 -31.1617431640625 18.7410888671875
-85.095703125 -23.1444091796875 26.0379638671875
1.70947265625 -4.90478515625 18.5831298828125
50.77734375 -0.7802734375 8.4693603515625
39.811767578125 -1.3990478515625 10.406494140625
52.534912109375 -26.172119140625 26.2645263671875
-78.628173828125 -26.796142578125 25.9896240234375
33.614013671875 -5.490234375 17.0869140625
8.09619140625 -4.821533203125 16.6536865234375
83.536376953125 -34.3568115234375 8.1285400390625
88.363037109375 -32.0284423828125 10.9154052734375
74.206298828125 -17.0550537109375 9.10498046875
-73.216796875 -16.1959228515625 28.4844970703125
-24.70458984375 -8.2432861328125 21.048095703125
58.73876953125 2.6937255859375 1.1558837890625
60.1845703125 4.1629638671875 0.0548095703125
79.884521484375 -34.19580078125 9.082275390625
50.34814453125 16.90234375 -1.30419921875
-41.77197265625 0.0552978515625 16.673095703125
72.083984375 13.97705078125 -1.7130126953125
100.882080078125 -2.8577880859375 -2.4049072265625
69.899169921875 -28.16162109375 17.9569091796875
102.144287109375 -28.3837890625 15.281005859375
58.792724609375 20.366455078125 -2.2613525390625
98.121337890625 -9.236083984375 16.4627685546875
46.4296875 17.44091796875 0.9852294921875
102.805419921875 -34.732666015625 20.6610107421875
69.2900390625 -44.543212890625 32.2408447265625
-37.903564453125 -14.55126953125 24.05517578125
39.018798828125 12.38818359375 -0.794677734375
68.60546875 -36.69189453125 9.8621826171875
8.635986328125 -14.9873046875 22.63818359375
83.76416015625 -32.0999755859375 12.884765625
66.48486328125 -20.954833984375 23.3084716796875
71.119140625 2.479248046875 2.4603271484375
72.7861328125 -43.065185546875 14.2701416015625
69.068115234375 -44.4544677734375 18.40625
77.59912109375 -1.8123779296875 -1.3172607421875
-73.74755859375 -26.413330078125 21.7008056640625
58.2744140625 -3.8792724609375 12.7596435546875
-37.718994140625 5.6236572265625 18.125732421875
56.087158203125 -3.4544677734375 12.8988037109375
101.91845703125 -30.8641357421875 18.1234130859375
100.23681640625 -26.4027099609375 18.5496826171875
18.32177734375 4.281982421875 12.6119384765625
101.352294921875 -10.48779296875 12.8160400390625
10.271728515625 -13.0059814453125 18.1102294921875
76.321533203125 -14.4520263671875 5.2823486328125
100.0126953125 -7.128662109375 8.572509765625
68.009765625 -33.28955078125 9.8563232421875
3.026611328125 16.027587890625 8.2598876953125
15.10693359375 -6.2081298828125 19.1944580078125
47.8779296875 -1.66796875 10.3428955078125
-47.497314453125 1.740478515625 20.437744140625
46.162109375 19.488525390625 2.07958984375
-76.142333984375 -35.9180908203125 23.4671630859375
99.530517578125 -10.7054443359375 -2.490478515625
-77.0830078125 -39.3026123046875 29.3397216796875
51.154052734375 -25.1539306640625 24.96142578125
-19.591064453125 -1.884521484375 15.4014892578125
61.068115234375 -6.397216796875 16.5029296875
-42.03466796875 -11.6134033203125 22.4583740234375
-76.271484375 -23.6973876953125 22.9779052734375
103.924560546875 -28.4853515625 10.5423583984375
-44.919189453125 -2.6229248046875 18.03662109375
76.60302734375 -19.873046875 7.9443359375
39.885009765625 1.8109130859375 4.4761962890625
100.18896484375 -15.542724609375 -1.114501953125
70.0947265625 -10.464111328125 9.79248046875
62.3955078125 -37.5362548828125 27.8551025390625
82.578125 0.1649169921875 -7.4091796875
68.006591796875 -38.654541015625 12.9156494140625
98.921142578125 -16.575439453125 3.82373046875
68.977294921875 -41.549072265625 15.6192626953125
85.736572265625 -24.626220703125 17.3746337890625
72.407958984375 -36.7442626953125 7.3067626953125
78.334228515625 -6.6607666015625 -3.5322265625
-80.294189453125 -42.470458984375 32.290771484375
-82.611083984375 -41.1309814453125 32.907958984375
69.466796875 -30.6141357421875 14.48486328125
51.40283203125 -4.3564453125 14.9248046875
-32.877197265625 0.2191162109375 16.5089111328125
98.034912109375 -17.778564453125 0.548828125
-2.778076171875 -5.06201171875 18.318115234375
69.9638671875 -43.164306640625 16.1015625
42.125244140625 0.3555908203125 6.9444580078125
98.56787109375 -12.386474609375 -0.4281005859375
76.582763671875 -10.83642578125 4.1337890625
49.994384765625 -6.3953857421875 17.3988037109375
30.880859375 -3.079833984375 16.533935546875
-42.700927734375 -9.8408203125 22.856689453125
64.996826171875 -38.2593994140625 17.267578125
64.766357421875 -42.1605224609375 21.626953125
37.062255859375 -4.128662109375 15.2869873046875
-15.687744140625 -3.8193359375 15.8192138671875
98.590576171875 -31.9691162109375 25.8697509765625
53.084716796875 -7.8175048828125 18.5009765625
84.858154296875 6.5103759765625 -9.6182861328125
102.93310546875 -23.063720703125 7.51171875
48.29248046875 13.40478515625 -1.2210693359375
98.435546875 -6.46728515625 -1.0086669921875
61.76025390625 -23.154052734375 23.533203125
82.093505859375 -22.900390625 7.5537109375
-36.889404296875 -12.207275390625 19.560546875
100.97216796875 -14.04638671875 16.5269775390625
54.555908203125 -5.732666015625 16.1671142578125
38.83447265625 -2.16650390625 12.5845947265625
5.10986328125 -11.32470703125 21.9951171875
64.91796875 -32.8876953125 11.9691162109375
76.1005859375 -19.4810791015625 9.7181396484375
76.232666015625 -30.6048583984375 14.2108154296875
46.875732421875 -7.824462890625 18.9576416015625
78.576904296875 -26.3858642578125 9.556884765625
101.216552734375 -30.4111328125 20.3751220703125
72.796630859375 -12.357421875 7.0992431640625
100.454833984375 -19.5872802734375 3.811279296875
58.6328125 18.2091064453125 -2.1888427734375
85.507568359375 10.4661865234375 -10.953857421875
76.804443359375 -8.88916015625 3.24169921875
33.386962890625 -7.166748046875 19.134521484375
106.850830078125 -22.074951171875 5.8455810546875
-81.025146484375 -39.15771484375 30.2164306640625
71.884521484375 -25.9908447265625 15.817138671875
-13.162109375 -11.2015380859375 23.8681640625
-82.9814453125 -29.5185546875 21.0557861328125
80.8369140625 -17.101318359375 2.8258056640625
-9.539794921875 2.7021484375 10.854736328125
85.91162109375 -37.889404296875 11.8292236328125
70.222412109375 -41.131591796875 13.276611328125
2.75341796875 0.136474609375 12.9830322265625
71.8310546875 -21.8665771484375 12.8721923828125
-28.1005859375 -0.47119140625 18.3603515625
100.326171875 -8.0858154296875 -5.9339599609375
74.49658203125 -40.3502197265625 10.54296875
11.2109375 -3.1004638671875 16.395751953125
67.62890625 -43.4796142578125 19.0771484375
-5.402587890625 19.7333984375 7.12353515625
16.747314453125 5.2039794921875 12.980224609375
-84.273193359375 -37.129150390625 28.041748046875
70.691162109375 -31.68994140625 13.378173828125
99.60107421875 -21.6348876953125 4.3819580078125
43.09765625 3.986083984375 1.0364990234375
-1.80712890625 19.1746826171875 6.2845458984375
5.82568359375 1.3375244140625 14.03564453125
73.572509765625 16.7406005859375 -5.8883056640625
35.55517578125 5.96630859375 -0.4139404296875
36.5830078125 17.3592529296875 -1.2086181640625
-78.727783203125 -24.8951416015625 25.2213134765625
65.626220703125 -30.1048583984375 12.9749755859375
70.614501953125 -44.7359619140625 16.8382568359375
48.758544921875 -5.35009765625 16.4193115234375
39.78955078125 10.704345703125 -0.75048828125
89.017822265625 -30.5172119140625 11.934814453125
46.049072265625 6.9437255859375 -1.0107421875
-10.013671875 1.36962890625 12.311279296875
95.20458984375 -5.3406982421875 12.660400390625
98.47900390625 -10.1566162109375 1.639892578125
-1.696044921875 1.287109375 11.231201171875
76.84619140625 -26.986328125 10.872314453125
-17.84619140625 -5.97021484375 17.6109619140625
58.5869140625 -5.7069091796875 15.94482421875
55.488525390625 0.306396484375 5.540283203125
-3.744384765625 16.4593505859375 7.49169921875
-5.36279296875 17.7310791015625 7.6138916015625
-8.88671875 14.6856689453125 9.3355712890625
64.4345703125 -6.260498046875 16.794189453125
69.536376953125 -17.0985107421875 14.93408203125
57.54296875 -4.7928466796875 14.4151611328125
84.856201171875 18.7989501953125 -14.8779296875
98.72021484375 -23.6026611328125 11.2689208984375
62.1240234375 -20.681396484375 22.815185546875
71.38134765625 5.016845703125 0.5494384765625
61.42822265625 -4.4298095703125 13.7940673828125
-15.892822265625 0.1485595703125 13.05810546875
99.73388671875 -11.2388916015625 17.2540283203125
-15.959228515625 11.5072021484375 9.4072265625
-15.84814453125 5.923583984375 10.7747802734375
-12.727783203125 8.5753173828125 9.261474609375
-22.00927734375 16.5556640625 9.79052734375
-15.09375 7.8826904296875 10.0789794921875
103.16552734375 -14.9981689453125 -0.8531494140625
73.24169921875 13.111572265625 -4.8897705078125
3.038818359375 18.0804443359375 7.910400390625
86.39599609375 -36.4044189453125 10.630126953125
71.326904296875 -30.388427734375 15.4921875
71.729248046875 -27.935546875 16.873779296875
64.92822265625 -26.7181396484375 16.8404541015625
79.337158203125 8.609130859375 -4.5699462890625
71.76171875 -16.947265625 9.7435302734375
-45.338623046875 0.6094970703125 17.5052490234375
75.11767578125 -16.0201416015625 7.90380859375
81.791748046875 19.428466796875 -13.8662109375
87.293212890625 -2.7977294921875 -0.9664306640625
-79.12109375 -30.8839111328125 20.1903076171875
-35.703125 -8.5245361328125 15.536865234375
-29.390869140625 -4.57080078125 19.073486328125
-86.620849609375 -43.8487548828125 33.8759765625
61.587890625 -26.3946533203125 18.545654296875
73.331787109375 -45.3251953125 15.8990478515625
78.996826171875 6.0491943359375 -7.56982421875
66.92138671875 -31.1468505859375 12.0203857421875
76.552734375 -16.612060546875 5.243408203125
-7.45556640625 -9.759521484375 22.29345703125
-32.387939453125 3.9140625 17.5994873046875
-24.01123046875 -10.9593505859375 23.88720703125
-84.182373046875 -25.0753173828125 24.68212890625
5.189453125 -12.4248046875 17.316162109375
-81.045654296875 -36.7628173828125 27.707275390625
-4.640380859375 -7.012939453125 21.009521484375
-32.044677734375 -4.2872314453125 18.7308349609375
60.038330078125 7.908203125 -2.029296875
-30.51318359375 -3.5955810546875 17.9754638671875
88.616455078125 -23.1044921875 18.180908203125
68.884765625 -21.97412109375 16.5079345703125
54.23046875 16.913818359375 -1.6859130859375
80.188720703125 -25.639892578125 8.9312744140625
60.791259765625 -1.214599609375 7.578125
62.94091796875 -36.5516357421875 19.4927978515625
14.808349609375 4.6309814453125 12.6302490234375
64.15966796875 -25.2032470703125 17.898681640625
65.255126953125 -23.8526611328125 20.0869140625
97.602294921875 -4.033203125 10.6014404296875
71.923828125 -1.919677734375 2.1380615234375
79.224853515625 -44.267333984375 14.550537109375
-14.123779296875 -9.96044921875 21.9569091796875
-75.810546875 -44.9188232421875 32.3267822265625
-26.0927734375 -5.8382568359375 18.8248291015625
-35.15283203125 -2.8277587890625 18.055908203125
79.402587890625 11.17919921875 -7.7811279296875
-79.754638671875 -28.728759765625 20.762939453125
100.22607421875 -15.67431640625 19.1436767578125
75.680908203125 -32.08251953125 13.3348388671875
41.026123046875 -6.0731201171875 17.6544189453125
-9.89990234375 -2.35888671875 16.046630859375
-76.307373046875 -33.276123046875 20.3360595703125
-7.8583984375 -4.6314697265625 18.74853515625
41.94873046875 15.2042236328125 -1.7945556640625
87.06103515625 -12.10693359375 8.913818359375
-2.20947265625 -3.6317138671875 17.129150390625
102.822509765625 -11.8450927734375 -5.6724853515625
-20.61865234375 -10.958740234375 23.637451171875
102.72998046875 -29.4091796875 16.6365966796875
98.22802734375 -19.60009765625 5.8182373046875
99.879638671875 -8.4281005859375 14.1474609375
-85.7861328125 -35.8236083984375 26.3846435546875
46.503662109375 10.6268310546875 -1.720947265625
-24.3212890625 10.25537109375 10.3521728515625
-1.031494140625 2.77734375 10.3443603515625
86.88525390625 -29.2528076171875 13.9586181640625
79.453857421875 11.80029296875 -4.0323486328125
61.6328125 -27.824462890625 22.0672607421875
74.63427734375 -19.1192626953125 11.42138671875
31.84423828125 4.2962646484375 1.680419921875
-74.837646484375 -36.211669921875 21.925537109375
42.250244140625 21.017822265625 -1.1444091796875
27.868408203125 -6.0946044921875 18.6287841796875
39.12353515625 21.3260498046875 -1.21337890625
98.60009765625 -37.30810546875 27.9407958984375
-19.28466796875 -10.3375244140625 20.7659912109375
99.3125 -18.1353759765625 12.232666015625
98.271728515625 -8.3887939453125 1.7767333984375
75.5556640625 -13.9583740234375 7.4417724609375
36.833740234375 -1.9168701171875 12.03369140625
44.546875 1.213623046875 5.0501708984375
-85.656494140625 -28.9969482421875 19.7813720703125
69.552001953125 -12.5487060546875 12.0347900390625
52.41650390625 17.2606201171875 -1.78759765625
100.18359375 -34.5570068359375 23.8819580078125
66.719482421875 -28.1683349609375 16.0159912109375
105.805419921875 -23.1904296875 6.761474609375
14.719970703125 -13.3271484375 21.9429931640625
42.0869140625 -1.3349609375 10.4580078125
61.754150390625 -24.0228271484375 19.490966796875
66.036376953125 -39.6278076171875 16.805908203125
45.434814453125 13.6212158203125 -1.67578125
-89.39990234375 -31.9033203125 19.6669921875
85.7529296875 -30.40478515625 14.7318115234375
-25.142578125 -0.4013671875 16.707275390625
-40.40966796875 -2.6661376953125 17.4744873046875
99.270751953125 -5.19140625 5.8011474609375
-30.24609375 0.741455078125 16.65185546875
101.721435546875 -0.9146728515625 5.127685546875
53.514892578125 -4.40869140625 14.5382080078125
-2.706787109375 22.337158203125 6.90380859375
66.722412109375 -38.03125 13.97021484375
98.840576171875 -20.6810302734375 14.6112060546875
83.0625 -40.0015869140625 12.0909423828125
73.801025390625 -14.774658203125 7.7772216796875
-51.1875 -6.350830078125 23.9630126953125
54.922607421875 2.3314208984375 1.7760009765625
73.511474609375 6.7088623046875 -3.0198974609375
37.714599609375 6.799072265625 -0.7109375
61.893798828125 -33.9661865234375 23.888427734375
14.70263671875 -9.0777587890625 19.8509521484375
77.9208984375 -38.319091796875 7.7335205078125
100.37744140625 -36.176513671875 24.6005859375
16.70458984375 -5.0577392578125 18.4716796875
-73.347900390625 -22.4151611328125 24.8973388671875
5.6533203125 -12.8980712890625 22.5838623046875
-8.610107421875 -15.1143798828125 25.1400146484375
56.66552734375 9.1802978515625 -1.767822265625
1.322021484375 -2.21484375 15.6444091796875
58.9609375 22.1214599609375 -2.2344970703125
74.220703125 -34.912109375 7.887939453125
29.744140625 -4.2144775390625 17.3006591796875
-9.13134765625 -8.8177490234375 20.98779296875
-87.281494140625 -23.6683349609375 27.5623779296875
-34.40185546875 3.5946044921875 16.5736083984375
-45.14501953125 -8.59716796875 24.7021484375
-26.493408203125 -9.6180419921875 22.5484619140625
53.811767578125 -0.0675048828125 5.9189453125
73.462646484375 3.2357177734375 -1.454833984375
1.3623046875 19.3140869140625 7.890380859375
-34.58251953125 -0.22314453125 16.5899658203125
21.291015625 -5.715576171875 18.939208984375
-34.0732421875 -14.102294921875 23.8975830078125
2.900634765625 -7.243408203125 21.232421875
97.93994140625 -24.055419921875 5.265869140625
-46.310302734375 -8.085693359375 23.39990234375
62.060546875 -27.412109375 26.1292724609375
100.7412109375 -25.794677734375 11.0899658203125
-29.5771484375 2.557373046875 18.669921875
-34.447998046875 -6.9947509765625 18.2484130859375
98.571533203125 -26.5423583984375 9.7459716796875
-79.765625 -33.8995361328125 23.4752197265625
-6.1376953125 14.1204833984375 8.5625
52.575439453125 22.1668701171875 -1.3602294921875
74.79638671875 -46.322021484375 22.22900390625
63.196044921875 -30.405517578125 13.7117919921875
-79.449951171875 -23.1961669921875 25.4720458984375
-75.309326171875 -18.2581787109375 28.7554931640625
68.622314453125 -34.8287353515625 8.5384521484375
77.80078125 -35.9134521484375 6.9932861328125
72.183349609375 -9.1439208984375 6.11572265625
11.044189453125 -12.392578125 15.2081298828125
35.4677734375 10.3724365234375 -1.4930419921875
99.355712890625 -8.0794677734375 4.7347412109375
35.876708984375 -0.4603271484375 9.361083984375
61.499267578125 -24.3333740234375 22.1173095703125
33.494140625 6.4150390625 -0.131591796875
-3.70458984375 14.4571533203125 7.9820556640625
101.34375 -9.6634521484375 -7.1793212890625
75.387451171875 -26.4503173828125 15.506103515625
58.213134765625 12.20263671875 -1.9300537109375
71.310791015625 -4.6578369140625 3.3341064453125
-18.38525390625 20.9150390625 8.2078857421875
98.838134765625 -7.333740234375 -4.519775390625
75.141357421875 3.6097412109375 -1.8348388671875
-82.92236328125 -32.6220703125 23.8572998046875
52.99072265625 5.6263427734375 -0.215576171875
77.567138671875 -39.330078125 9.1090087890625
90.816162109375 -37.411376953125 20.80419921875
87.531982421875 -6.9334716796875 5.0345458984375
72.717529296875 19.207275390625 -6.2730712890625
20.0615234375 6.5526123046875 14.4794921875
-24.056884765625 12.9300537109375 10.7611083984375
80.634765625 19.0614013671875 -10.5972900390625
70.827392578125 -14.4906005859375 9.209228515625
79.28759765625 -28.9656982421875 11.57275390625
100.970703125 -3.9857177734375 5.2137451171875
82.40380859375 -32.8895263671875 11.1846923828125
67.317626953125 -39.842529296875 15.6439208984375
77.50927734375 0.07666015625 0.9775390625
57.122314453125 -7.79443359375 18.28125
-81.95751953125 -24.0985107421875 23.3564453125
57.275146484375 2.0330810546875 2.059814453125
47.792236328125 9.40771484375 -1.5987548828125
61.8896484375 -28.538818359375 16.5506591796875
104.797119140625 -21.121337890625 4.4107666015625
99.5205078125 -22.9415283203125 6.302734375
40.384033203125 7.1507568359375 0.3121337890625
98.373046875 -33.99560546875 26.8046875
41.9326171875 23.141845703125 -1.2518310546875
96.850341796875 -1.27197265625 7.6107177734375
10.763671875 -9.310791015625 13.8394775390625
-23.25146484375 2.41357421875 11.0408935546875
74.223876953125 -42.1533203125 12.2708740234375
98.792724609375 -20.52978515625 17.2916259765625
-75.55810546875 -21.3638916015625 26.039794921875
99.90576171875 -29.4019775390625 23.2164306640625
72.133544921875 7.7620849609375 2.589599609375
77.0107421875 -23.600830078125 8.593505859375
98.30224609375 -6.1331787109375 -3.12841796875
71.65673828125 -20.2921142578125 12.1763916015625
-3.90869140625 -4.0390625 17.3563232421875
51.0029296875 -5.3271484375 16.329345703125
-17.86669921875 -11.6239013671875 24.2374267578125
-22.113037109375 -10.3133544921875 22.872314453125
51.926513671875 -0.3076171875 6.835205078125
-17.914306640625 -1.4796142578125 15.17529296875
49.7001953125 0.072265625 6.83203125
77.385498046875 -15.6170654296875 3.9083251953125
-83.41357421875 -23.122314453125 24.1427001953125
-86.716552734375 -41.9349365234375 33.10205078125
100.484375 -13.96533203125 -1.761962890625
59.985595703125 1.1173095703125 3.2569580078125
76.16455078125 1.4683837890625 -0.207763671875
89.026123046875 -27.4508056640625 14.162109375
31.630859375 -0.960693359375 11.154296875
103.283935546875 -24.5814208984375 8.50146484375
-3.191162109375 -0.6878662109375 13.6346435546875
29.4892578125 -5.75732421875 18.1031494140625
84.951416015625 -39.79833984375 13.091064453125
100.327392578125 -32.9888916015625 22.9019775390625
-41.982177734375 -9.8310546875 17.5732421875
52.4208984375 -3.5391845703125 12.8704833984375
103.648193359375 -28.936767578125 14.6512451171875
73.01123046875 11.591552734375 -4.10595703125
49.880126953125 19.092529296875 0.3134765625
79.13037109375 -40.7100830078125 10.74609375
-88.773681640625 -32.849365234375 20.9727783203125
46.864990234375 15.80322265625 1.2767333984375
-17.549560546875 -8.997802734375 19.1221923828125
-42.449462890625 -5.08837890625 19.7850341796875
-36.002685546875 5.671875 18.1435546875
-10.675048828125 -9.518798828125 21.752685546875
-14.65771484375 22.09619140625 8.885498046875
44.934814453125 23.15087890625 -1.56396484375
45.116943359375 20.409912109375 -0.5887451171875
72.359130859375 4.9921875 -1.2525634765625
39.50927734375 14.0616455078125 -1.0120849609375
79.958740234375 16.3125 -9.5560302734375
37.415283203125 15.716064453125 -1.0238037109375
-39.432861328125 5.575439453125 18.10791015625
86.428955078125 -27.8441162109375 16.565185546875
72.854736328125 -31.14013671875 15.9647216796875
8.092041015625 -11.6708984375 16.675048828125
100.373779296875 -15.7845458984375 14.769287109375
54.589599609375 5.9591064453125 -0.7340087890625
-22.957275390625 -0.2183837890625 13.9178466796875
-6.129638671875 8.4957275390625 8.310791015625
71.77001953125 -46.5316162109375 18.7137451171875
55.3056640625 -0.9384765625 7.448486328125
45.698486328125 2.6387939453125 2.1800537109375
-14.4208984375 1.1998291015625 12.063720703125
57.17431640625 0.2738037109375 5.2611083984375
-8.217041015625 3.6356201171875 9.4349365234375
80.46923828125 21.7940673828125 -8.690185546875
-14.14453125 -4.4140625 16.7138671875
34.58642578125 20.304931640625 -1.2347412109375
-76.7822265625 -24.5888671875 24.614990234375
-6.894775390625 -2.7340087890625 15.9925537109375
-27.8056640625 -6.33203125 20.412841796875
97.840087890625 -20.5491943359375 1.640625
54.131591796875 21.6463623046875 -1.8238525390625
69.338623046875 -25.0927734375 20.17333984375
101.034912109375 -11.03369140625 -5.7303466796875
-85.325439453125 -42.5859375 34.0111083984375
55.91064453125 23.3297119140625 -2.218505859375
-75.1787109375 -25.8262939453125 20.6785888671875
73.97607421875 -39.3299560546875 9.231201171875
-32.367919921875 -5.8309326171875 19.3707275390625
-80.886962890625 -35.80322265625 26.3118896484375
78.29345703125 -0.96875 -4.77685546875
-12.099609375 16.027587890625 9.874267578125
-3.41748046875 20.0458984375 6.5048828125
-8.96630859375 18.690185546875 8.3548583984375
-5.086181640625 1.2740478515625 11.491943359375
100.2822265625 -18.2049560546875 2.2940673828125
-39.5048828125 -14.080810546875 24.373291015625
77.76123046875 -13.616455078125 1.422607421875
3.072021484375 -3.102294921875 17.0819091796875
-22.16796875 7.5250244140625 9.46630859375
6.96630859375 -8.9898681640625 15.4664306640625
97.587646484375 -14.06884765625 -1.9788818359375
78.419677734375 -27.908447265625 10.501220703125
97.851806640625 -21.2257080078125 6.3275146484375
-33.615478515625 -2.536376953125 17.3995361328125
80.4208984375 -10.7640380859375 -1.2078857421875
-41.60595703125 -13.2266845703125 22.7454833984375
-27.186279296875 17.5809326171875 10.9432373046875
-14.252197265625 5.4547119140625 10.4576416015625
-16.689697265625 8.3515625 10.3961181640625
-12.3623046875 10.153076171875 8.76708984375
76.839599609375 14.572265625 -6.23486328125
-49.363525390625 -4.1544189453125 22.42138671875
-19.881591796875 9.289306640625 11.0302734375
-16.04638671875 15.894287109375 8.332763671875
-17.56298828125 12.3748779296875 9.626708984375
-21.68359375 20.127685546875 8.8077392578125
31.933837890625 13.8184814453125 -1.060791015625
-38.356201171875 -12.795166015625 18.9599609375
-19.253173828125 -3.5758056640625 15.401611328125
34.7822265625 0.3487548828125 7.58544921875
-85.3251953125 -40.5670166015625 31.579833984375
81.47021484375 -0.95361328125 -6.658935546875
-84.8857421875 -38.130126953125 29.2540283203125
103.642578125 -13.7362060546875 -2.8511962890625
-47.2998046875 -0.0977783203125 18.2161865234375
-39.043701171875 1.9193115234375 15.4637451171875
101.453369140625 -28.3416748046875 17.61865234375
-72.855224609375 -19.485595703125 28.7203369140625
79.76953125 -9.2347412109375 -1.923095703125
98.365966796875 -24.13427734375 8.846923828125
69.7939453125 -38.20703125 10.772705078125
