-96.93505859375 -20.8514404296875 7.3251953125
-13.15625 -44.93115234375 36.074462890625
9.950927734375 -36.871337890625 9.6011962890625
-81.898681640625 -24.1190185546875 9.9293212890625
-18.3291015625 -22.6092529296875 9.6866455078125
108.98388671875 -25.00634765625 12.490478515625
-58.183837890625 -35.488037109375 24.74267578125
-38.553955078125 -71.3770751953125 33.0947265625
1.388916015625 -44.6868896484375 11.1131591796875
3.725341796875 -49.491943359375 37.133544921875
70.32763671875 -45.2569580078125 30.427490234375
-35.1865234375 -48.6529541015625 34.8956298828125
-32.849365234375 -27.02734375 13.3360595703125
-29.14697265625 -38.719970703125 25.5380859375
-12.31689453125 -11.09130859375 -0.740478515625
-30.862060546875 -64.913330078125 31.2548828125
106.217041015625 -37.439453125 21.49755859375
-69.040283203125 -35.1669921875 26.6932373046875
0.509033203125 -41.38818359375 26.7843017578125
-94.998779296875 -28.493408203125 -6.2679443359375
-96.6025390625 -28.17919921875 17.1708984375
-70.993896484375 -27.9837646484375 16.7886962890625
-29.41796875 16.1710205078125 -23.3721923828125
-104.74169921875 -18.4111328125 8.8013916015625
-44.148193359375 -30.97509765625 16.857421875
91.015869140625 -41.7760009765625 21.852783203125
-81.875 -28.427490234375 -8.2249755859375
41.606689453125 -36.3226318359375 20.53662109375
-7.774658203125 -21.1754150390625 5.6573486328125
-90.06640625 -63.817138671875 30.079833984375
-90.80078125 -23.23046875 11.2005615234375
-81.5927734375 -73.5272216796875 29.747802734375
-43.38134765625 -43.869384765625 31.2066650390625
-41.171875 -71.7247314453125 25.7796630859375
-4.096923828125 -37.9520263671875 5.0467529296875
-29.193359375 -43.3050537109375 31.6590576171875
-14.703857421875 -36.2501220703125 24.4803466796875
74.34912109375 -24.6217041015625 22.2733154296875
100.0146484375 -21.6968994140625 21.60498046875
-25.89990234375 -52.992431640625 41.148681640625
-19.948486328125 -46.9677734375 37.4925537109375
-79.39599609375 -61.9832763671875 29.0469970703125
-73.67529296875 -71.6146240234375 39.2310791015625
82.189453125 -37.5582275390625 21.9801025390625
7.25146484375 -54.312744140625 40.7039794921875
-1.3310546875 -17.824462890625 2.1795654296875
85.28125 -26.013916015625 22.1134033203125
-84.414306640625 -32.35107421875 20.5413818359375
-31.083251953125 17.4404296875 -30.5294189453125
-37.3076171875 -30.490478515625 17.2723388671875
-44.614501953125 -37.3028564453125 25.2425537109375
-10.31640625 -50.447509765625 40.1678466796875
-78.02197265625 -41.0255126953125 29.0623779296875
95.858642578125 -31.9451904296875 21.6585693359375
-28.55908203125 -7.8905029296875 -3.9857177734375
-61.183349609375 -75.8299560546875 42.5472412109375
-55.009521484375 -64.6654052734375 29.5269775390625
-37.455322265625 -71.1343994140625 40.42822265625
-63.83154296875 -65.2646484375 32.2730712890625
-44.823486328125 -67.6678466796875 34.650390625
-53.93359375 -44.2578125 33.0908203125
-34.01708984375 -23.236328125 8.0877685546875
5.681396484375 -50.049072265625 15.18896484375
-28.138671875 -60.0010986328125 38.204345703125
-73.46484375 -31.819580078125 21.5318603515625
107.755126953125 -28.5609130859375 17.7742919921875
-85.058349609375 -75.482666015625 42.6329345703125
33.9814453125 32.638671875 -31.3343505859375
6.679931640625 -20.7490234375 7.083740234375
-13.147216796875 -40.7216796875 30.6986083984375
12.3115234375 -14.6282958984375 3.7791748046875
-8.610107421875 -15.8681640625 2.186279296875
-82.760986328125 -67.5810546875 27.4639892578125
-15.149169921875 -26.2578125 15.0570068359375
-76.241455078125 -20.915771484375 6.7821044921875
-31.53759765625 -60.2891845703125 27.087890625
-72.0185546875 -46.191162109375 36.8990478515625
-83.33642578125 -48.3641357421875 36.0245361328125
76.931396484375 -43.161865234375 22.2261962890625
-95.410888671875 -37.5230712890625 25.745849609375
-92.529296875 -33.1700439453125 20.375244140625
10.911865234375 -46.112060546875 33.7322998046875
11.982177734375 -43.4110107421875 17.46142578125
-65.936279296875 -43.5726318359375 34.343994140625
-4.180419921875 -25.3765869140625 11.581787109375
11.2685546875 -24.47119140625 10.7825927734375
-50.712890625 -72.073486328125 39.6240234375
-6.43359375 -47.587158203125 13.7744140625
-63.862060546875 -38.077880859375 27.322265625
-82.69482421875 -38.6033935546875 26.3662109375
-67.003662109375 -71.5826416015625 38.0906982421875
6.13330078125 -40.7041015625 6.291259765625
-90.429931640625 -44.01904296875 32.403076171875
-2.63671875 -49.942626953125 36.7476806640625
-76.844482421875 -44.34521484375 33.6822509765625
-74.3984375 -65.777587890625 31.3172607421875
-52.131103515625 -35.7884521484375 26.08447265625
13.51123046875 -46.9053955078125 25.966064453125
-90.2080078125 -26.2401123046875 -8.535400390625
-96.97509765625 -24.77490234375 12.56298828125
-13.080810546875 -20.542724609375 7.7398681640625
-25.660400390625 -39.088623046875 30.07177734375
-27.225830078125 -27.597412109375 14.9716796875
-89.24462890625 -39.5096435546875 28.848876953125
-32.622802734375 -35.17529296875 22.2569580078125
-42.4384765625 -63.041259765625 28.837158203125
14.89111328125 -35.0654296875 13.251708984375
-59.888671875 -44.359619140625 36.3353271484375
-80.32275390625 -71.37890625 37.8834228515625
-82.11474609375 -19.4229736328125 6.9471435546875
-17.977783203125 -11.9783935546875 -0.4342041015625
-8.653564453125 -43.8446044921875 31.6009521484375
73.576904296875 -32.467529296875 22.2962646484375
-66.146728515625 -62.13134765625 27.7254638671875
2.7421875 -26.525634765625 -12.9503173828125
-84.3623046875 -27.2222900390625 13.6943359375
0.644775390625 -41.2203369140625 6.3643798828125
-38.134033203125 -68.087890625 28.7637939453125
69.020263671875 -23.8680419921875 22.932861328125
-30.333251953125 -51.6328125 36.4234619140625
100.661376953125 -34.3992919921875 21.586669921875
-7.891845703125 -47.3935546875 36.462646484375
-85.614013671875 -70.3924560546875 31.2489013671875
104.488037109375 -24.0927734375 20.065185546875
-77.053466796875 -25.972412109375 13.1590576171875
90.99560546875 -29.140869140625 22.020263671875
-40.20556640625 -38.685302734375 27.7752685546875
-56.5595703125 -72.2529296875 38.955810546875
-27.292236328125 -34.1390380859375 23.7047119140625
71.178955078125 -42.44140625 26.0782470703125
-38.423828125 -45.1646728515625 32.710693359375
110.579345703125 -29.8856201171875 13.506591796875
-24.043701171875 -31.003662109375 20.0185546875
16.459228515625 -47.633056640625 36.626953125
-73.70458984375 -38.679443359375 27.357177734375
83.891845703125 -31.0213623046875 21.965576171875
105.394287109375 -32.5352783203125 20.070556640625
-22.793212890625 -44.0574951171875 33.658935546875
7.112548828125 -11.84912109375 -0.7430419921875
14.0693359375 -23.846435546875 -14.7718505859375
-28.54931640625 -64.8543701171875 36.730224609375
-54.582275390625 -38.635986328125 29.5096435546875
-47.1396484375 -54.819580078125 2.257568359375
-33.89404296875 -69.417236328125 31.1990966796875
79.994873046875 -24.6727294921875 22.22412109375
-85.951416015625 -21.2987060546875 9.6290283203125
69.43359375 -33.72265625 26.5089111328125
2.27880859375 -12.67578125 -0.3890380859375
-18.8173828125 -31.11767578125 20.9827880859375
-4.63720703125 -41.158203125 28.63427734375
97.315185546875 -26.5001220703125 21.67724609375
-79.14111328125 -31.9776611328125 20.8612060546875
0.5302734375 -42.953857421875 31.8370361328125
-21.940185546875 -38.9329833984375 26.942138671875
-99.765625 -28.3525390625 -7.1966552734375
-57.291748046875 -67.612548828125 32.6397705078125
11.5107421875 -41.79248046875 12.604248046875
9.447021484375 -29.11181640625 14.72119140625
-15.388916015625 -48.3924560546875 38.8623046875
-37.35546875 -73.7647705078125 29.09912109375
-64.73193359375 -34.9952392578125 23.5733642578125
1.546142578125 -25.4268798828125 11.5430908203125
74.0751953125 -19.6328125 22.3270263671875
12.65869140625 -43.898193359375 29.8204345703125
-85.48876953125 -63.3037109375 28.90869140625
92.813232421875 -36.440185546875 21.896484375
-69.300048828125 -64.474365234375 30.367431640625
-23.1796875 -25.1318359375 12.3046875
3.092529296875 -19.073974609375 4.28759765625
-73.837890625 -76.0924072265625 41.875244140625
78.113525390625 -35.171630859375 22.005615234375
-47.92138671875 -65.7757568359375 31.6402587890625
-33.612060546875 -44.5826416015625 32.6802978515625
-34.359619140625 -39.3304443359375 25.5440673828125
-2.888427734375 -43.8167724609375 9.2857666015625
0.12255859375 -52.1396484375 40.1126708984375
-34.895751953125 -70.685302734375 36.467529296875
-37.347900390625 -69.2750244140625 23.3282470703125
-92.408935546875 -26.646240234375 15.25927734375
-41.8603515625 -58.7623291015625 26.9952392578125
9.55126953125 -46.689453125 15.0577392578125
-41.064208984375 -69.984375 36.682861328125
-16.77880859375 -43.3902587890625 33.701416015625
-23.641357421875 -48.6993408203125 39.7313232421875
86.6455078125 -40.451416015625 22.0078125
-69.891357421875 -24.8707275390625 13.5653076171875
-64.697265625 -40.8109130859375 30.8453369140625
-47.3740234375 -44.366943359375 33.5029296875
-5.903564453125 -23.2418212890625 -14.8951416015625
-22.50830078125 -20.8070068359375 10.6622314453125
-87.45361328125 -74.3084716796875 30.1138916015625
-2.13720703125 -46.5789794921875 13.0943603515625
-8.17822265625 -12.9322509765625 -1.670654296875
-32.87890625 -29.9346923828125 17.2174072265625
-44.18505859375 -34.6092529296875 21.7091064453125
-96.6181640625 -24.6151123046875 -7.7647705078125
-51.548583984375 -46.994140625 37.1185302734375
-36.85595703125 -25.6163330078125 10.827880859375
-100.815185546875 -26.8145751953125 17.271240234375
-60.991943359375 -48.1920166015625 38.2581787109375
-100.686279296875 -20.9320068359375 10.982177734375
-34.447998046875 -64.810791015625 28.6854248046875
-43.248046875 -46.9532470703125 34.351806640625
-82.0029296875 -34.3768310546875 23.6234130859375
-64.766357421875 -68.53369140625 35.073486328125
-75.608642578125 -69.396240234375 35.9658203125
-47.45458984375 -70.2684326171875 37.0107421875
-30.02685546875 19.6181640625 -26.5030517578125
-69.008056640625 -31.9920654296875 22.45458984375
-28.299560546875 -60.7894287109375 32.5244140625
-29.210693359375 -25.0748291015625 11.2916259765625
-77.518310546875 -28.118896484375 -7.960693359375
-89.67236328125 -59.745361328125 28.5455322265625
9.00341796875 -17.468505859375 4.057373046875
41.803955078125 -40.2257080078125 22.879150390625
-17.135498046875 -39.074951171875 27.878173828125
-28.795654296875 -55.6739501953125 36.923828125
4.87646484375 -47.324951171875 11.89111328125
-54.9345703125 -33.5562744140625 22.66552734375
-40.104736328125 -28.751708984375 14.513916015625
-3.329833984375 -20.493408203125 5.187255859375
-99.938232421875 -30.5045166015625 20.0179443359375
-30.65673828125 13.4935302734375 -28.2838134765625
-83.4892578125 -70.9022216796875 35.0938720703125
8.10888671875 -48.2244873046875 36.1204833984375
10.381103515625 -41.7037353515625 8.52294921875
-92.063232421875 -31.4449462890625 -4.5567626953125
-61.036865234375 -33.6314697265625 22.0712890625
68.87890625 -41.1412353515625 30.4854736328125
-73.755859375 -35.111572265625 25.121826171875
70.1279296875 -34.8675537109375 22.2943115234375
110.932373046875 -36.6968994140625 20.05078125
-80.891845703125 -45.361083984375 34.4114990234375
4.5419921875 -40.7481689453125 29.5120849609375
-91.643310546875 -20.7216796875 7.9737548828125
-93.647705078125 -44.9244384765625 34.892578125
-66.942626953125 -28.184814453125 17.6868896484375
107.341064453125 -24.684326171875 16.407470703125
85.880126953125 -20.6407470703125 21.9891357421875
-21.146240234375 -52.788818359375 41.8621826171875
-97.0087890625 -30.7889404296875 -3.511962890625
-31.234130859375 -47.0667724609375 36.369873046875
-59.084228515625 -64.7789306640625 29.99072265625
-88.46826171875 -32.3941650390625 19.96923828125
-83.170166015625 -29.578369140625 17.0286865234375
-88.42041015625 -25.8426513671875 13.2655029296875
-55.365966796875 -69.822265625 35.892333984375
-59.824462890625 -38.0350341796875 27.89208984375
-69.215087890625 -38.9608154296875 28.17724609375
-62.415771484375 -73.37158203125 39.541259765625
-0.3046875 -46.6158447265625 36.601806640625
-45.851318359375 -40.2957763671875 29.05078125
-18.756103515625 -25.060546875 12.896728515625
-29.990966796875 -22.708984375 8.0084228515625
-4.556640625 -22.9918212890625 8.3358154296875
-39.8759765625 -42.0821533203125 30.1116943359375
-48.638427734375 -37.587890625 24.99853515625
-25.304931640625 -36.4193115234375 27.0611572265625
-13.119140625 -13.93994140625 2.6893310546875
13.322265625 -48.1776123046875 22.13330078125
-81.47119140625 -71.1575927734375 26.134765625
17.30078125 -46.2340087890625 27.1033935546875
-74.654541015625 -29.21923828125 17.8714599609375
-41.348876953125 -32.4715576171875 19.2923583984375
4.651611328125 -23.3040771484375 10.1837158203125
-81.38037109375 -58.4459228515625 28.0968017578125
-87.412109375 -46.1978759765625 34.7701416015625
-34.510498046875 -32.229248046875 20.0308837890625
-15.124755859375 -23.8349609375 11.8226318359375
-30.774658203125 -41.246826171875 28.662353515625
-13.122802734375 -38.3084716796875 27.47705078125
-56.747314453125 -60.9945068359375 27.6661376953125
-51.0673828125 -64.488525390625 29.6669921875
-86.239013671875 -29.4515380859375 -7.5341796875
-15.615478515625 -32.5855712890625 23.4422607421875
72.550537109375 -42.3914794921875 22.411376953125
-16.757080078125 -19.360107421875 6.0904541015625
-49.428955078125 -75.389892578125 41.200439453125
15.73583984375 -44.3421630859375 17.143798828125
-6.806884765625 -50.5528564453125 38.388671875
-31.281982421875 -67.9871826171875 35.298095703125
-4.814208984375 -41.6070556640625 6.033203125
-9.066650390625 -21.2269287109375 9.2777099609375
13.85888671875 -38.7225341796875 12.6824951171875
97.13818359375 -35.8974609375 21.8428955078125
2.305419921875 -48.303955078125 14.677490234375
-4.4921875 -15.685302734375 1.828857421875
-74.238525390625 -49.4825439453125 37.673828125
-85.445068359375 -39.8240966796875 29.0953369140625
-26.712890625 18.4871826171875 -24.73876953125
-10.641845703125 -17.948974609375 4.65185546875
-17.180908203125 -28.3385009765625 17.5225830078125
9.104736328125 -13.6448974609375 1.966552734375
-104.146728515625 -29.380615234375 -6.503173828125
-70.43798828125 -70.175537109375 37.33544921875
-77.207763671875 -72.806884765625 40.2760009765625
-81.048095703125 -65.777587890625 30.2843017578125
7.03076171875 -50.9874267578125 38.42138671875
-74.393310546875 -41.4976806640625 30.2572021484375
-32.23583984375 -55.1231689453125 29.8436279296875
95.597900390625 -22.0245361328125 21.8541259765625
-13.156982421875 -28.0535888671875 17.7667236328125
-56.764892578125 -45.9110107421875 34.860595703125
-82.65087890625 -16.899169921875 4.261474609375
80.76513671875 -40.9971923828125 22.0614013671875
-91.90673828125 -30.46630859375 17.880126953125
-85.26025390625 -35.827880859375 25.056884765625
-78.24560546875 -23.6162109375 9.8248291015625
-95.794189453125 -35.353759765625 22.786865234375
-27.76904296875 -56.1624755859375 41.402099609375
-36.951904296875 -65.9088134765625 26.034912109375
74.54931640625 -28.2921142578125 22.2578125
-70.38037109375 -43.8873291015625 34.074462890625
85.708251953125 -36.5130615234375 21.84912109375
102.7001953125 -38.4788818359375 21.6280517578125
-36.480712890625 -28.2529296875 14.41015625
-77.99951171875 -38.836181640625 26.1396484375
-18.30859375 -36.2642822265625 23.9393310546875
-23.171875 -41.9139404296875 30.735107421875
-80.714111328125 -27.2078857421875 14.2418212890625
88.396484375 -23.4832763671875 22.1878662109375
-23.619140625 -46.5274658203125 36.8319091796875
-84.3642578125 -73.9892578125 32.03076171875
6.646240234375 -25.7799072265625 -13.340576171875
-9.03271484375 -53.7449951171875 40.8363037109375
3.747314453125 -47.3372802734375 34.2569580078125
-34.513671875 -58.60205078125 26.0247802734375
-78.998046875 -17.8656005859375 6.1207275390625
-19.76806640625 -50.0142822265625 40.1016845703125
-9.987548828125 -41.228271484375 29.134033203125
-0.804443359375 -14.6904296875 0.5709228515625
76.681640625 -38.42138671875 22.2781982421875
94.524658203125 -41.1871337890625 21.8470458984375
81.744384765625 -27.765380859375 22.178955078125
-69.6611328125 -73.38232421875 39.6103515625
2.71875 -16.4478759765625 0.719482421875
80.157470703125 -44.8980712890625 22.2183837890625
-74.13330078125 -19.7264404296875 9.3634033203125
104.02490234375 -20.6903076171875 20.882568359375
89.31787109375 -38.1470947265625 21.96142578125
-84.75146484375 -70.0555419921875 25.081787109375
-81.078125 -69.64111328125 29.7734375
-90.061279296875 -29.3944091796875 -6.986572265625
-81.90771484375 -73.3753662109375 40.3056640625
-56.886474609375 -74.587646484375 41.5540771484375
-93.400146484375 -39.0889892578125 28.1512451171875
-75.87060546875 -62.0938720703125 27.8311767578125
-30.86376953125 -8.7587890625 -6.739013671875
-70.015869140625 -47.7508544921875 39.2947998046875
-61.888916015625 -42.556640625 33.6148681640625
-96.658203125 -31.6905517578125 20.05810546875
-38.17626953125 -36.8468017578125 25.6331787109375
104.94921875 -28.8509521484375 20.146728515625
108.9580078125 -33.0198974609375 19.114990234375
-71.016357421875 -30.1817626953125 19.72314453125
-25.39501953125 -8.157958984375 -2.626708984375
-29.112548828125 -35.341552734375 21.02783203125
-50.7216796875 -44.756591796875 34.25634765625
-26.038330078125 -29.4501953125 17.6324462890625
32.824462890625 36.1636962890625 -31.9910888671875
9.87890625 -21.245849609375 8.24462890625
-11.0927734375 -48.3408203125 37.2315673828125
-13.9140625 -51.1827392578125 40.5916748046875
-11.828125 -25.8819580078125 14.3179931640625
76.715576171875 -46.574951171875 22.2822265625
98.996337890625 -30.591064453125 21.7906494140625
3.810546875 -41.1124267578125 25.9468994140625
-56.72509765625 -42.0009765625 31.9056396484375
100.48193359375 -25.2396240234375 21.713623046875
34.265380859375 29.3414306640625 -30.5599365234375
-16.402587890625 -45.775146484375 36.9473876953125
-85.05419921875 -24.6162109375 11.636962890625
93.299560546875 -26.1162109375 22.015869140625
-76.12451171875 -33.384765625 20.1580810546875
-29.568359375 -61.89501953125 29.3043212890625
-12.270751953125 -43.1593017578125 33.34619140625
4.13037109375 -43.319580078125 9.7115478515625
70.439208984375 -26.8739013671875 22.4415283203125
-73.8134765625 -26.23095703125 14.008056640625
-52.342041015625 -62.3927001953125 27.3760986328125
-101.484130859375 -19.0201416015625 8.3031005859375
-35.347412109375 -35.4359130859375 24.186767578125
-63.84521484375 -45.591064453125 36.8607177734375
-52.992919921875 -66.36962890625 31.646240234375
-44.185546875 -70.9080810546875 37.4327392578125
-86.46435546875 -72.461669921875 34.1181640625
83.552978515625 -23.0205078125 22.0609130859375
-3.326171875 -48.5400390625 15.5308837890625
87.836669921875 -30.1732177734375 22.1763916015625
-27.47216796875 -50.701904296875 37.843017578125
77.349853515625 -20.2166748046875 22.3565673828125
-34.63037109375 -61.5496826171875 28.0565185546875
-44.763916015625 -61.7982177734375 26.8145751953125
-52.599365234375 -41.2041015625 30.977294921875
-26.426025390625 -23.7354736328125 12.956298828125
-0.41845703125 -37.0565185546875 3.2344970703125
-60.795166015625 -66.47314453125 32.699462890625
12.8828125 -47.6470947265625 36.09033203125
-53.844482421875 -73.4683837890625 41.001953125
-84.174560546875 -45.4822998046875 34.316650390625
80.801513671875 -33.2886962890625 22.08447265625
-51.70751953125 -33.8138427734375 23.5111083984375
-61.418212890625 -35.960205078125 24.871337890625
41.99609375 -40.79638671875 26.0911865234375
-39.87890625 -64.4942626953125 27.4188232421875
-92.54931640625 -35.1239013671875 22.983642578125
-38.134521484375 -32.72802734375 20.1346435546875
-30.052490234375 -28.76611328125 16.0946044921875
-41.7880859375 -36.13427734375 24.1197509765625
-82.064453125 -41.554931640625 29.14208984375
-10.671630859375 -46.1492919921875 34.3677978515625
-39.55419921875 -70.9825439453125 29.1724853515625
-87.43408203125 -43.169677734375 30.97265625
-27.6123046875 -45.3634033203125 34.65576171875
-40.044189453125 -46.9674072265625 34.8685302734375
8.066162109375 -24.938720703125 10.9100341796875
108.986083984375 -31.2166748046875 15.992431640625
108.58154296875 -27.4818115234375 14.532470703125
12.331298828125 -12.6900634765625 1.1915283203125
91.892578125 -32.24560546875 21.9283447265625
-50.691650390625 -69.96044921875 36.8031005859375
44.769775390625 -36.336669921875 21.046630859375
3.7060546875 -51.4072265625 39.6905517578125
-94.923828125 -23.159423828125 10.722412109375
-90.9541015625 -37.6954345703125 26.668701171875
-80.62939453125 -49.8028564453125 36.8577880859375
-11.4072265625 -14.12939453125 -0.5721435546875
-77.674560546875 -65.9366455078125 31.734375
-67.97119140625 -45.1751708984375 36.169921875
-15.54150390625 -10.5904541015625 -1.9107666015625
77.673583984375 -26.8094482421875 22.4891357421875
-53.43310546875 -71.32763671875 38.2047119140625
-64.7744140625 -75.4156494140625 41.90673828125
-46.182373046875 -33.298095703125 19.6463623046875
-20.814697265625 -29.8065185546875 18.920166015625
6.51513671875 -38.6929931640625 3.8983154296875
-28.757568359375 -59.218994140625 41.18115234375
14.10009765625 -45.16845703125 32.9664306640625
11.457763671875 -27.5283203125 12.9169921875
-1.8525390625 -41.9217529296875 30.0872802734375
-91.58935546875 -41.6090087890625 30.7811279296875
-34.252197265625 -71.6328125 29.023681640625
-47.38916015625 -73.8076171875 38.9342041015625
-81.73291015625 -75.6494140625 42.4227294921875
-66.491943359375 -66.6002197265625 33.169921875
-63.561767578125 -71.106689453125 36.3359375
-75.413818359375 -24.1478271484375 10.9752197265625
-67.773681640625 -30.1961669921875 20.24609375
-98.6240234375 -26.8521728515625 15.0831298828125
-67.53271484375 -41.740966796875 31.6480712890625
-73.200927734375 -43.35791015625 32.9285888671875
-79.251220703125 -42.8140869140625 31.2620849609375
-28.3974609375 -53.3060302734375 39.2066650390625
7.560546875 -48.1328125 16.91357421875
-32.02001953125 -24.5474853515625 10.1505126953125
-48.604736328125 -42.649658203125 31.267333984375
-63.02490234375 -62.852294921875 29.174072265625
-83.84814453125 -71.8641357421875 37.984375
-79.691162109375 -21.1767578125 7.6171875
-7.36962890625 -23.9144287109375 9.1322021484375
-1.3603515625 -23.72998046875 9.8189697265625
72.19482421875 -22.4635009765625 22.5501708984375
-6.67724609375 -45.6260986328125 34.2890625
-4.6591796875 -43.321533203125 31.522216796875
-55.1953125 -43.8441162109375 -2.560791015625
3.454345703125 -50.0968017578125 17.252197265625
-1.051025390625 -47.3302001953125 33.7474365234375
-34.461669921875 -67.6318359375 27.5653076171875
11.912353515625 -18.2081298828125 4.5003662109375
-97.8759765625 -22.396728515625 9.759033203125
-41.5947265625 -72.829833984375 38.7615966796875
-30.718017578125 20.9130859375 -29.1273193359375
-58.659423828125 -42.5709228515625 34.1357421875
7.642578125 -48.04052734375 12.8089599609375
-31.32666015625 -33.6175537109375 19.87646484375
-73.24072265625 -67.3443603515625 33.591064453125
-72.032958984375 -63.96142578125 29.2572021484375
-82.578125 -61.15869140625 27.68994140625
12.660888671875 -40.698974609375 15.1380615234375
-4.945556640625 -47.725341796875 36.1297607421875
-45.17529296875 -63.93896484375 29.61181640625
-66.99462890625 -33.313720703125 24.533935546875
84.02099609375 -34.06103515625 21.9219970703125
14.62109375 -46.09033203125 29.4000244140625
-50.79150390625 -38.8570556640625 27.1142578125
-78.480224609375 -46.40576171875 36.1822509765625
-28.02783203125 -63.662841796875 31.9063720703125
-24.068115234375 -33.426513671875 23.2530517578125
-15.50732421875 -21.9251708984375 9.2105712890625
-42.91650390625 -28.4666748046875 13.6961669921875
-85.81982421875 -73.4168701171875 39.7535400390625
-85.614013671875 -30.7276611328125 18.1851806640625
-87.271240234375 -34.2618408203125 22.6514892578125
-70.645263671875 -33.5723876953125 24.3125
-49.431884765625 -53.82666015625 0.5745849609375
-85.01708984375 -19.7547607421875 7.196533203125
106.893798828125 -22.2454833984375 17.969970703125
-6.990966796875 -26.0579833984375 12.055908203125
-25.59375 -43.7735595703125 32.8443603515625
2.669677734375 -21.274169921875 7.1627197265625
-4.979248046875 -18.9320068359375 3.3424072265625
-75.2431640625 -45.6903076171875 35.728759765625
-56.18359375 -37.2908935546875 27.463134765625
-16.376708984375 -13.323486328125 1.6123046875
-28.081298828125 -57.9659423828125 35.251953125
16.208984375 -37.291259765625 14.981201171875
9.094970703125 -45.861328125 17.905029296875
-21.24169921875 -32.2578125 22.130126953125
-47.00927734375 -35.53564453125 22.508544921875
-99.557861328125 -23.5318603515625 13.0789794921875
-98.26513671875 -22.1539306640625 -7.3404541015625
-103.55126953125 -21.3809814453125 11.1373291015625
102.982177734375 -31.1834716796875 21.26318359375
-11.5048828125 -36.7469482421875 25.641357421875
-31.945068359375 -38.19482421875 24.4013671875
-33.5751953125 -40.962890625 27.847900390625
-27.57568359375 -41.74365234375 29.8233642578125
93.80810546875 -29.8419189453125 21.929443359375
-40.844482421875 -73.451416015625 28.3670654296875
-88.385009765625 -20.4908447265625 8.17138671875
-95.770751953125 -26.4049072265625 14.9287109375
86.371826171875 -43.4403076171875 21.9410400390625
-96.241943359375 -39.534423828125 28.3050537109375
-100.580322265625 -30.32421875 -4.68798828125
9.74072265625 -44.041748046875 30.783447265625
5.1923828125 -47.6572265625 19.4613037109375
-35.1201171875 -69.467041015625 33.8695068359375
-26.34619140625 -39.00390625 26.3525390625
-55.3583984375 -35.5308837890625 25.239013671875
-38.3916015625 -70.932861328125 36.2554931640625
-88.087158203125 -62.25830078125 28.3038330078125
-29.63037109375 -26.79931640625 13.5313720703125
-26.87255859375 -32.41455078125 21.4649658203125
-13.4658203125 -18.875244140625 5.4512939453125
-43.8271484375 -38.94189453125 27.5555419921875
70.835693359375 -40.0799560546875 22.390380859375
-84.190673828125 -70.6712646484375 28.79150390625
-92.551513671875 -27.477294921875 -7.4910888671875
-48.337646484375 -68.385986328125 35.064453125
-15.955322265625 -41.16162109375 30.8505859375
12.67724609375 -21.7711181640625 9.38134765625
-32.790771484375 -42.5953369140625 30.151611328125
-65.626220703125 -73.6329345703125 39.863525390625
-80.709716796875 -37.13232421875 24.9622802734375
15.44189453125 -47.7830810546875 24.08154296875
-78.742431640625 -69.853759765625 36.090576171875
-66.170654296875 -64.48828125 30.8720703125
3.776123046875 -39.825439453125 4.9864501953125
74.91455078125 -34.9637451171875 22.19775390625
-11.907958984375 -23.8492431640625 12.34130859375
-88.002685546875 -22.9141845703125 11.4697265625
-32.266357421875 -62.65771484375 29.6690673828125
-33.55126953125 -70.388671875 40.0379638671875
4.31640625 -25.0064697265625 -14.736328125
-87.308349609375 -37.9254150390625 27.542236328125
-93.434814453125 -42.50830078125 32.7159423828125
-36.50830078125 -70.27099609375 26.623291015625
-19.57958984375 -43.1064453125 32.886962890625
-68.929931640625 -61.9892578125 27.341064453125
-39.845458984375 -69.3466796875 26.479736328125
1.349365234375 -48.7032470703125 35.7103271484375
-46.355224609375 -53.146728515625 0.1435546875
70.380126953125 -37.681884765625 28.2816162109375
-87.302978515625 -71.359130859375 29.2274169921875
44.56787109375 -39.79248046875 22.7294921875
-19.999755859375 -45.0653076171875 35.4398193359375
74.832275390625 -40.7796630859375 22.276123046875
9.903564453125 -39.6661376953125 6.6693115234375
16.47607421875 -45.9571533203125 34.3896484375
-58.130859375 -69.2130126953125 34.88427734375
-27.963623046875 -36.8365478515625 23.45361328125
13.48291015625 -37.093994140625 10.447509765625
103.42138671875 -34.0750732421875 21.342041015625
-4.85009765625 -45.1287841796875 10.7347412109375
-7.974365234375 -45.8193359375 11.17236328125
11.449951171875 -39.8251953125 10.6787109375
72.133056640625 -45.010498046875 25.84716796875
-0.50830078125 -39.6597900390625 4.099365234375
-94.079345703125 -20.1590576171875 6.8433837890625
-93.64501953125 -28.203369140625 17.1484375
10.314697265625 -43.9969482421875 15.3648681640625
-71.05419921875 -75.2911376953125 41.000732421875
-45.19189453125 -65.5823974609375 31.805908203125
-18.6328125 -33.7177734375 22.982421875
-4.24169921875 -51.49169921875 38.56884765625
16.193603515625 -42.8740234375 14.777099609375
-79.47998046875 -25.412109375 12.0333251953125
13.742431640625 -27.6358642578125 14.4052734375
-74.381591796875 -73.5152587890625 41.1866455078125
-82.939208984375 -62.9434814453125 29.7799072265625
-74.7578125 -37.63427734375 25.0367431640625
71.404052734375 -41.8800048828125 28.7237548828125
-23.2216796875 -29.2506103515625 17.8033447265625
-11.888427734375 -21.9110107421875 9.7537841796875
-43.4443359375 -40.8516845703125 30.16748046875
-53.95556640625 -46.4383544921875 36.0018310546875
94.331787109375 -34.19873046875 21.77783203125
70.637451171875 -39.800048828125 25.82470703125
107.39306640625 -35.40771484375 20.154052734375
-30.41064453125 -44.838134765625 33.51904296875
-36.87841796875 -63.508544921875 27.269775390625
-10.317138671875 -38.1097412109375 27.647216796875
76.67822265625 -22.8277587890625 22.232177734375
-28.434326171875 -65.3338623046875 34.0767822265625
108.537353515625 -22.8350830078125 14.8524169921875
6.427734375 -17.1961669921875 4.79296875
1.74267578125 -41.4268798828125 29.984375
-67.091552734375 -38.0635986328125 26.8013916015625
-22.71044921875 -36.31201171875 26.06689453125
106.91162109375 -25.3690185546875 18.9625244140625
-0.258056640625 -50.4918212890625 37.8511962890625
-58.521240234375 -47.1578369140625 37.008056640625
102.905517578125 -26.0701904296875 20.9898681640625
-81.229248046875 -69.7071533203125 32.4288330078125
-76.697509765625 -30.8282470703125 19.7047119140625
-67.111328125 -40.0096435546875 29.3994140625
10.73779296875 -44.963134765625 12.9346923828125
-75.432373046875 -35.054443359375 23.0047607421875
100.32421875 -37.3232421875 21.6163330078125
-28.845703125 -67.474609375 36.8740234375
98.262451171875 -33.1207275390625 21.6702880859375
-27.93115234375 21.059814453125 -25.4755859375
-97.723388671875 -34.7303466796875 24.98193359375
102.44970703125 -23.1324462890625 21.4232177734375
-41.25439453125 -61.5496826171875 27.0274658203125
-1.704345703125 -42.3251953125 7.4761962890625
-58.90625 -73.123046875 39.754150390625
-37.865478515625 -58.2164306640625 26.4110107421875
-62.5205078125 -31.776611328125 23.17431640625
-99.10595703125 -28.729736328125 17.7752685546875
107.366455078125 -30.8853759765625 18.892822265625
-77.4765625 -27.710693359375 15.4168701171875
-82.376220703125 -31.2305908203125 19.3602294921875
-90.51123046875 -34.0032958984375 21.802490234375
-39.28271484375 -26.998779296875 12.2987060546875
-62.25830078125 -39.1796875 29.0439453125
-85.240234375 -66.9814453125 26.9835205078125
-98.92333984375 -19.3240966796875 8.5887451171875
77.580810546875 -32.62255859375 22.1513671875
-18.778076171875 -27.2410888671875 15.8077392578125
-23.599365234375 -26.8563232421875 14.54443359375
-94.124267578125 -24.572998046875 12.7359619140625
-49.26220703125 -47.620361328125 34.309326171875
-85.908447265625 -48.21484375 36.1822509765625
-32.148193359375 -67.6861572265625 32.8857421875
69.938232421875 -32.0657958984375 22.6585693359375
-21.556396484375 -40.5938720703125 29.2215576171875
-19.923828125 -37.58447265625 25.452880859375
-84.431640625 -34.060791015625 22.82373046875
75.483154296875 -30.73583984375 22.2313232421875
-85.172119140625 -73.3477783203125 29.4168701171875
-49.656494140625 -48.595458984375 37.7982177734375
-12.701904296875 -49.65576171875 38.739013671875
-7.044677734375 -42.5296630859375 30.0933837890625
-17.96044921875 -10.275634765625 -2.7073974609375
-76.154541015625 -18.3992919921875 7.2757568359375
-92.733154296875 -47.9227294921875 36.502197265625
14.8564453125 -48.9427490234375 38.1285400390625
-40.92431640625 -30.262451171875 16.40576171875
-9.851806640625 -19.3455810546875 6.641357421875
-72.6025390625 -36.37939453125 27.250244140625
-13.18603515625 -34.60107421875 23.259765625
5.890625 -13.388427734375 1.1243896484375
10.269287109375 -44.1785888671875 19.4173583984375
-17.509521484375 -21.0986328125 7.7947998046875
-84.666748046875 -30.53173828125 -5.84619140625
88.887451171875 -25.982177734375 22.1373291015625
-33.181396484375 -50.1810302734375 34.5330810546875
-30.021240234375 -59.4122314453125 28.990478515625
-83.815673828125 -22.572998046875 9.0985107421875
72.313720703125 -44.2762451171875 29.1856689453125
-33.92431640625 -68.772705078125 37.8203125
11.83740234375 -29.4228515625 15.50830078125
10.489990234375 -48.5343017578125 36.9044189453125
-62.421142578125 -69.516845703125 34.6240234375
-22.13818359375 -50.7713623046875 40.4974365234375
-70.877685546875 -65.7637939453125 31.845703125
5.388916015625 -42.1968994140625 27.6414794921875
-51.90576171875 -39.363525390625 29.3814697265625
-78.5869140625 -64.277099609375 30.0888671875
79.09423828125 -39.1295166015625 22.1640625
-58.499755859375 -71.451904296875 37.583740234375
74.2353515625 -44.2437744140625 22.308349609375
-85.4775390625 -61.0504150390625 27.8135986328125
79.445068359375 -21.5802001953125 22.2451171875
-79.721435546875 -34.2999267578125 22.6009521484375
15.13037109375 -32.381591796875 15.05615234375
-29.567626953125 22.1842041015625 -27.2325439453125
-86.52734375 -68.744873046875 29.6119384765625
-3.5595703125 -23.546875 -14.123291015625
-73.2646484375 -69.7012939453125 36.7376708984375
-76.377197265625 -68.03759765625 34.0303955078125
-76.41064453125 -71.3372802734375 38.435546875
-7.872802734375 -24.5589599609375 -13.4405517578125
-30.109375 -54.8402099609375 33.90380859375
-100.447265625 -25.196533203125 15.42431640625
-81.985595703125 -32.667236328125 21.341064453125
95.243896484375 -38.81689453125 21.87158203125
-7.15869140625 -42.2423095703125 6.5181884765625
1.79541015625 -43.0157470703125 8.94287109375
-47.90234375 -63.8974609375 29.1328125
-60.843994140625 -72.0872802734375 38.0687255859375
11.33740234375 -24.2745361328125 -14.6239013671875
-36.15185546875 -23.7672119140625 9.2197265625
-20.386962890625 -10.6905517578125 -2.5296630859375
-57.361083984375 -33.97119140625 22.84326171875
-33.685302734375 -66.1590576171875 30.60595703125
0.6611328125 -18.889404296875 3.9124755859375
9.096923828125 -19.3720703125 5.6187744140625
-90.4970703125 -45.372314453125 34.455322265625
-45.081787109375 -45.2181396484375 33.2447509765625
-41.370849609375 -34.652099609375 22.203369140625
-11.01953125 -15.5545654296875 1.3929443359375
-46.239013671875 -38.87060546875 27.085693359375
-75.3701171875 -21.2843017578125 11.2535400390625
-87.801513671875 -44.7666015625 32.796630859375
97.640625 -23.376220703125 21.744384765625
-65.059326171875 -36.7042236328125 25.30029296875
2.254150390625 -22.75048828125 9.0714111328125
-33.225830078125 -46.002197265625 34.6375732421875
71.86767578125 -44.670654296875 22.983642578125
-85.59912109375 -29.2623291015625 16.2288818359375
-82.138427734375 -50.522216796875 35.0777587890625
8.2666015625 -27.51416015625 12.40234375
-29.640869140625 -49.3541259765625 36.9417724609375
-45.066162109375 -42.177001953125 31.6871337890625
-53.759521484375 -37.1192626953125 27.6102294921875
-67.986083984375 -46.6346435546875 38.118408203125
-76.82958984375 -42.8857421875 31.73388671875
17.697509765625 -47.435546875 24.92431640625
-85.071044921875 -37.7340087890625 26.6143798828125
5.7255859375 -48.154052734375 35.6561279296875
-74.42578125 -63.7921142578125 28.8968505859375
-43.76318359375 -32.642578125 19.14599609375
-50.70703125 -43.302978515625 32.315673828125
-39.334228515625 -72.0020751953125 38.4749755859375
-57.343017578125 -64.12646484375 28.4442138671875
16.147216796875 -45.4173583984375 21.986083984375
-1.375 -25.1778564453125 11.751953125
83.098876953125 -40.3839111328125 22.0794677734375
90.339599609375 -21.2491455078125 21.99462890625
-30.63720703125 17.31982421875 -25.0970458984375
4.02197265625 -16.883056640625 4.000732421875
-1.08349609375 -44.74951171875 33.986328125
92.0927734375 -38.720458984375 21.9669189453125
88.705078125 -42.9354248046875 21.8643798828125
0.204833984375 -46.178466796875 12.9228515625
-0.984130859375 -48.1395263671875 15.359375
3.754638671875 -41.9385986328125 7.807373046875
-80.478271484375 -39.3851318359375 26.741455078125
-87.305419921875 -59.57763671875 28.6890869140625
-34.0791015625 -37.0230712890625 26.003173828125
-82.091552734375 -44.230712890625 32.7142333984375
-23.732666015625 -22.109130859375 12.21240234375
-24.520751953125 -20.2203369140625 9.5654296875
-57.81201171875 -38.6217041015625 28.98876953125
-30.469482421875 -30.248291015625 18.0108642578125
-94.756591796875 -31.401123046875 18.686767578125
110.97607421875 -32.1165771484375 14.1727294921875
-87.80078125 -64.2796630859375 29.6151123046875
-34.883544921875 -29.350341796875 16.1251220703125
-32.4912109375 -31.35986328125 19.1824951171875
-34.898193359375 -30.8040771484375 18.0657958984375
-20.775390625 -25.929931640625 13.7449951171875
-34.039306640625 -25.4168701171875 10.998779296875
-36.537353515625 -33.825439453125 21.8494873046875
-16.798095703125 -30.248291015625 20.134521484375
-7.390625 -14.5712890625 0.642333984375
-35.26123046875 -26.9560546875 12.8662109375
-41.400390625 -37.5594482421875 26.0848388671875
-24.86181640625 -50.698974609375 39.481689453125
97.370849609375 -28.8919677734375 21.7010498046875
10.751953125 -43.554443359375 11.0540771484375
4.683349609375 -20.1669921875 5.99560546875
-35.608642578125 -44.0006103515625 31.5921630859375
-15.119384765625 -37.7264404296875 26.3890380859375
-24.349609375 -39.5859375 27.4405517578125
-36.42724609375 -45.7467041015625 33.7987060546875
-11.9326171875 -39.4298095703125 29.1607666015625
-19.545166015625 -39.7279052734375 28.376708984375
-39.65478515625 -69.6695556640625 23.4971923828125
-38.005859375 -43.447021484375 30.4798583984375
-32.475341796875 11.6297607421875 -27.6163330078125
-81.482666015625 -70.0478515625 35.92431640625
94.85546875 -24.39111328125 21.9259033203125
-62.7119140625 -44.0733642578125 35.5142822265625
-51.314697265625 -75.195556640625 42.526123046875
0.5302734375 -13.8555908203125 -1.33837890625
-13.716064453125 -16.74755859375 4.581298828125
-28.19482421875 -56.29541015625 39.0667724609375
-92.566650390625 -36.83349609375 25.2659912109375
-82.32666015625 -26.3458251953125 12.8392333984375
-87.211669921875 -28.4002685546875 14.8262939453125
-10.612548828125 -27.7613525390625 13.77001953125
-75.587890625 -39.8807373046875 27.910400390625
-83.7763671875 -64.793212890625 28.5447998046875
-72.09716796875 -39.5386962890625 28.7552490234375
-21.4619140625 -48.8465576171875 39.022705078125
-20.88232421875 -19.7196044921875 9.4613037109375
-83.67041015625 -40.6964111328125 27.7449951171875
-67.7724609375 -68.1346435546875 35.496826171875
-64.991943359375 -32.868896484375 22.21337890625
10.51123046875 -15.9310302734375 3.2359619140625
-28.39111328125 -23.5640869140625 9.3997802734375
-19.948486328125 -23.6923828125 10.8828125
-7.010498046875 -16.7232666015625 3.5777587890625
-67.040771484375 -35.44970703125 25.3446044921875
-37.84912109375 -47.598876953125 34.8095703125
-14.37646484375 -43.4613037109375 34.16943359375
-59.1103515625 -62.5750732421875 29.4114990234375
-37.5830078125 -41.2467041015625 27.604736328125
6.264404296875 -22.225341796875 8.9923095703125
-2.94384765625 -21.9129638671875 7.14453125
-86.125732421875 -70.107177734375 27.737060546875
-0.922607421875 -20.081787109375 5.010986328125
70.31396484375 -37.883056640625 22.24951171875
-40.41552734375 -44.0999755859375 30.978271484375
-1.036376953125 -48.872314453125 35.565673828125
-56.925048828125 -65.607421875 30.252685546875
-68.950927734375 -26.3746337890625 14.9554443359375
103.845947265625 -36.281005859375 21.4854736328125
-35.807861328125 -72.5 27.6490478515625
1.40234375 -49.1192626953125 16.5682373046875
-36.670166015625 -71.906494140625 32.010009765625
-17.927490234375 -50.1583251953125 38.8463134765625
-25.673095703125 -25.8050537109375 13.31982421875
-94.81103515625 -31.0867919921875 -3.75244140625
-2.96435546875 -14.2576904296875 0.910888671875
-11.393310546875 -42.1123046875 31.5858154296875
72.595947265625 -29.354736328125 22.3900146484375
10.364990234375 -39.04736328125 8.7572021484375
-81.166015625 -47.6575927734375 36.679443359375
-93.55517578125 -29.916259765625 -5.3663330078125
-32.1220703125 -65.1134033203125 29.4512939453125
-25.70849609375 -36.9539794921875 24.958740234375
72.978759765625 -36.0101318359375 22.3287353515625
-83.656005859375 -59.5299072265625 28.7095947265625
-92.47021484375 -22.0054931640625 9.5611572265625
-76.95166015625 -16.740478515625 4.9346923828125
-60.9951171875 -64.32763671875 30.9862060546875
85.533935546875 -32.4969482421875 22.246826171875
-26.98876953125 16.7181396484375 -23.464599609375
-37.08984375 -70.9736328125 28.621826171875
-31.0478515625 -52.8355712890625 34.7320556640625
-35.68798828125 -68.9232177734375 24.719970703125
-71.03125 -31.647216796875 21.679443359375
-77.421875 -22.337646484375 8.2437744140625
-89.26708984375 -31.23046875 18.289794921875
-75.097412109375 -32.9114990234375 22.737548828125
-73.52001953125 -22.685302734375 10.0806884765625
77.58544921875 -40.6910400390625 22.3472900390625
-74.158935546875 -47.4930419921875 36.7904052734375
-79.8857421875 -66.8729248046875 31.9288330078125
9.93408203125 -11.1650390625 -1.218994140625
-15.1640625 -27.71142578125 16.9976806640625
4.40771484375 -25.2110595703125 11.2021484375
-35.80126953125 -72.6689453125 30.16796875
81.85888671875 -30.265869140625 22.1046142578125
-84.64111328125 -17.6495361328125 4.6981201171875
33.908447265625 34.401611328125 -32.646484375
-15.136474609375 -39.4156494140625 28.6441650390625
-25.57666015625 -42.0843505859375 30.5892333984375
-17.519287109375 -37.4140625 25.5987548828125
-38.6142578125 -24.5531005859375 10.1390380859375
-2.516845703125 -15.912353515625 2.6900634765625
-40.07568359375 -68.923828125 29.5794677734375
-82.68017578125 -36.475341796875 25.558349609375
-40.710205078125 -69.9285888671875 34.552978515625
-26.71044921875 -54.2508544921875 42.7047119140625
-7.825927734375 -40.9036865234375 27.7987060546875
-13.5205078125 -48.4046630859375 37.18701171875
10.54833984375 -42.788330078125 29.2335205078125
8.91650390625 -46.9710693359375 34.570556640625
-7.04931640625 -54.0830078125 41.59619140625
70.449462890625 -39.625 29.18798828125
-78.52099609375 -50.115234375 37.100341796875
-79.50341796875 -28.7362060546875 -7.444091796875
-82.681640625 -29.91455078125 -6.36279296875
16.6962890625 -46.609619140625 29.4462890625
-80.351318359375 -74.2071533203125 41.6593017578125
-91.12744140625 -28.34033203125 15.415283203125
-76.343994140625 -48.9271240234375 37.1075439453125
14.633056640625 -39.849853515625 14.3095703125
-70.8623046875 -23.0430908203125 14.04736328125
-29.54443359375 -53.7105712890625 36.624267578125
108.968505859375 -37.093505859375 20.75
-33.330078125 -69.40576171875 35.0006103515625
-79.945556640625 -72.7652587890625 39.795166015625
-76.550048828125 -75.0128173828125 41.9027099609375
-78.20458984375 -19.739013671875 6.6943359375
-78.837646484375 -60.23876953125 28.0001220703125
-60.076171875 -68.8814697265625 34.1390380859375
-2.12060546875 -44.9354248046875 10.9002685546875
-4.833251953125 -43.4853515625 8.5406494140625
-30.388671875 -65.9415283203125 34.5853271484375
-63.105224609375 -33.9072265625 22.371826171875
-81.619384765625 -20.8489990234375 8.41650390625
110.155029296875 -32.5303955078125 17.452392578125
-20.034423828125 -21.656494140625 8.902099609375
8.051025390625 -40.930419921875 7.127197265625
-27.88916015625 -57.0499267578125 43.30615234375
6.82421875 -46.7193603515625 11.38427734375
-34.579833984375 -6.2421875 -7.378662109375
-90.269775390625 -61.3944091796875 29.6923828125
-83.98876953125 -71.1666259765625 26.6854248046875
-101.10791015625 -22.1920166015625 12.6009521484375
-7.6513671875 -52.18310546875 40.682373046875
106.057373046875 -21.0823974609375 19.4908447265625
-86.311279296875 -41.6492919921875 29.6219482421875
-94.4990234375 -21.4140625 8.45556640625
-80.612060546875 -16.5096435546875 4.0576171875
8.884765625 -50.08349609375 38.7255859375
-47.719970703125 -74.203369140625 41.2879638671875
74.185546875 -21.852783203125 22.5445556640625
76.9990234375 -29.0252685546875 22.14208984375
-79.534423828125 -30.78515625 19.2064208984375
-76.68017578125 -29.11865234375 17.42236328125
-50.211669921875 -55.037109375 2.0712890625
-68.476806640625 -69.5657958984375 36.8251953125
86.933837890625 -27.2694091796875 22.0760498046875
2.96240234375 -50.24169921875 15.02392578125
112.885986328125 -36.003173828125 20.138671875
-92.09521484375 -25.1644287109375 13.8416748046875
5.576171875 -48.872314453125 17.82958984375
-81.268798828125 -42.7139892578125 30.8148193359375
-61.839599609375 -37.6915283203125 27.1199951171875
-79.66748046875 -44.05908203125 32.8612060546875
-62.280517578125 -41.3690185546875 31.9666748046875
-82.8564453125 -72.7454833984375 32.7080078125
-98.241455078125 -23.7664794921875 11.2757568359375
-36.978515625 -70.1290283203125 38.687255859375
-69.983642578125 -36.8924560546875 27.3243408203125
-29.103759765625 -33.1378173828125 20.8311767578125
-43.797607421875 -36.034423828125 23.6741943359375
-28.04296875 -28.8658447265625 16.5400390625
-18.80029296875 -29.421630859375 18.71875
3.876220703125 -13.773193359375 1.3258056640625
-32.46435546875 -28.69482421875 15.6246337890625
-63.051025390625 -48.2279052734375 38.2379150390625
82.486328125 -35.5325927734375 22.2025146484375
-56.56298828125 -43.6473388671875 33.12353515625
-28.840576171875 18.8411865234375 -25.0181884765625
4.262939453125 -22.1259765625 8.548583984375
-20.31005859375 -36.1649169921875 23.49560546875
-33.946533203125 -38.095458984375 23.9576416015625
-40.43017578125 -45.5478515625 32.9112548828125
-33.238037109375 -33.3336181640625 21.2027587890625
-71.835693359375 -26.2183837890625 14.5538330078125
-57.6953125 -44.8916015625 36.3756103515625
70.50927734375 -21.30029296875 22.4908447265625
-72.826416015625 -24.600341796875 13.2593994140625
-28.7470703125 -21.4613037109375 9.05126953125
-89.10107421875 -41.05810546875 30.1767578125
-41.439697265625 -41.4359130859375 31.2598876953125
-2.239501953125 -40.7481689453125 28.4586181640625
-2.263916015625 -43.15185546875 31.66748046875
-54.192138671875 -61.5665283203125 27.6409912109375
-73.125 -45.51953125 35.3236083984375
-29.928955078125 -36.8463134765625 22.912109375
-3.01416015625 -47.612548828125 36.772216796875
-77.590087890625 -33.6468505859375 21.55029296875
-69.38623046875 -29.334228515625 18.8433837890625
-83.15771484375 -28.357177734375 15.3984375
-90.498779296875 -32.7821044921875 20.1722412109375
-73.024658203125 -28.37158203125 16.99169921875
-75.040283203125 -27.2940673828125 15.2384033203125
-74.66943359375 -30.6846923828125 19.8277587890625
-75.806884765625 -22.955322265625 9.3203125
-87.70166015625 -36.73291015625 25.8873291015625
-97.394287109375 -29.6201171875 -5.13427734375
1.7275390625 -50.5904541015625 38.2913818359375
0.30908203125 -17.100830078125 1.218017578125
7.969970703125 -15.04443359375 2.908203125
-48.720703125 -71.7982177734375 39.3299560546875
-19.144775390625 -52.16650390625 41.34130859375
83.853759765625 -20.55615234375 22.0625
-59.83447265625 -34.5189208984375 23.444091796875
-13.1396484375 -12.6080322265625 1.158935546875
-53.73486328125 -34.6866455078125 24.36279296875
-65.083984375 -39.13671875 28.5477294921875
-75.220947265625 -43.5009765625 32.80615234375
-70.003662109375 -46.5345458984375 37.671142578125
-59.809814453125 -36.575439453125 25.943603515625
-84.256103515625 -29.0728759765625 -7.732421875
41.8232421875 -38.3253173828125 20.3421630859375
-80.719482421875 -22.6976318359375 8.4681396484375
-90.418701171875 -30.7257080078125 -5.50634765625
-40.1513671875 -33.3551025390625 20.659423828125
