27.705078125 -3.699951171875 -9.8006591796875
22.1064453125 21.5330810546875 -19.56103515625
-101.611572265625 -34.395263671875 3.2183837890625
4.713623046875 -19.4453125 10.7899169921875
10.799072265625 27.678955078125 2.498046875
-7.386962890625 -5.0357666015625 -5.335205078125
-21.893310546875 -19.4794921875 6.7591552734375
59.633056640625 -48.285400390625 8.4888916015625
47.2568359375 -27.6812744140625 3.5191650390625
1.997314453125 30.5565185546875 1.49072265625
-12.0234375 0.267822265625 -9.3868408203125
56.764892578125 29.999267578125 0.56982421875
21.04150390625 -6.854248046875 -3.6214599609375
-81.414306640625 -18.8145751953125 12.711181640625
-5.157470703125 -15.32763671875 -0.083740234375
-51.99853515625 -15.236572265625 1.8179931640625
-5.32421875 -18.500244140625 10.08837890625
84.230712890625 -20.2706298828125 -5.0360107421875
60.876953125 2.8521728515625 -21.4847412109375
-49.010009765625 -18.719482421875 11.689453125
40.501953125 1.1854248046875 -18.399658203125
84.341552734375 -15.884765625 -13.8316650390625
52.892333984375 -17.923583984375 6.4708251953125
-91.1435546875 -36.597900390625 1.08642578125
7.66552734375 22.7843017578125 4.502197265625
-39.233642578125 -2.6434326171875 -5.4747314453125
21.88623046875 1.2847900390625 -17.181640625
32.168701171875 -20.896728515625 9.223388671875
18.978515625 20.6236572265625 4.6624755859375
27.513671875 6.8892822265625 -19.3875732421875
30.747802734375 -24.385986328125 14.1844482421875
77.7626953125 -15.388671875 3.058349609375
-7.713134765625 -22.7706298828125 12.781494140625
-42.946533203125 18.5819091796875 -7.5069580078125
57.919677734375 -9.7574462890625 -14.189453125
-47.014892578125 -16.1240234375 3.0692138671875
34.970458984375 -5.0869140625 -7.260009765625
87.38623046875 -18.7352294921875 -15.599853515625
-27.61474609375 -5.6417236328125 -3.4794921875
-53.071533203125 -34.87060546875 29.1907958984375
-16.9453125 -46.307861328125 24.2725830078125
-71.48828125 6.4630126953125 17.1414794921875
-5.340576171875 -40.058349609375 19.398193359375
-68.8330078125 -24.627197265625 18.454833984375
30.095947265625 2.4249267578125 -18.924560546875
86.40869140625 5.1143798828125 -30.20166015625
66.198486328125 6.061767578125 -21.3416748046875
-61.929931640625 -3.37548828125 9.79931640625
86.38720703125 -28.0489501953125 -5.1053466796875
22.195556640625 6.4564208984375 -20.435302734375
52.55322265625 -36.914306640625 -8.836669921875
-36.179443359375 -15.0906982421875 4.9063720703125
-49.046142578125 -5.5989990234375 -2.360107421875
87.61962890625 -34.486083984375 3.02734375
86.75732421875 -25.1866455078125 -8.5213623046875
69.0029296875 18.365966796875 -25.97314453125
-30.747802734375 -31.032958984375 19.25146484375
71.33447265625 -19.97265625 -6.6090087890625
0.486328125 -16.43017578125 2.3079833984375
80.529052734375 -23.1361083984375 6.0679931640625
-33.416259765625 31.15185546875 2.9873046875
21.521484375 30.362060546875 -20.08447265625
-92.71435546875 -26.65185546875 2.6636962890625
74.35595703125 29.64306640625 -29.8958740234375
47.890869140625 -21.5211181640625 4.052978515625
25.5673828125 -18.165283203125 8.3240966796875
42.032958984375 -1.72314453125 -14.4554443359375
1.203857421875 -21.544677734375 13.8380126953125
-63.559814453125 6.5235595703125 14.3861083984375
66.005615234375 34.01025390625 -29.9041748046875
-42.911865234375 1.8367919921875 9.6505126953125
70.063232421875 -44.8994140625 -4.3778076171875
-55.052734375 -4.6253662109375 -2.8331298828125
89.8193359375 -10.63671875 -24.6700439453125
82.569580078125 -8.439208984375 -4.5953369140625
42.005126953125 8.6685791015625 -21.20849609375
-0.000732421875 -47.04443359375 24.0943603515625
-58.467041015625 13.4744873046875 3.2974853515625
-16.218017578125 -1.54052734375 -7.46240234375
-71.294921875 -27.1888427734375 20.910888671875
-40.458984375 -25.661376953125 16.800048828125
-33.123291015625 22.3582763671875 -10.8106689453125
-41.014404296875 -5.8072509765625 -2.4576416015625
-22.227294921875 23.400390625 -11.8203125
-37.97900390625 -20.9515380859375 9.7689208984375
47.2646484375 -32.28564453125 9.552001953125
35.4072265625 -29.228759765625 8.2694091796875
21.02490234375 35.73095703125 -0.4488525390625
8.017822265625 -36.1322021484375 15.9700927734375
0.8818359375 -32.41259765625 13.0960693359375
86.269287109375 -41.2987060546875 12.86181640625
18.05615234375 7.27490234375 13.7523193359375
46.576416015625 -12.213134765625 0.693359375
45.03173828125 -24.720703125 10.7823486328125
12.836669921875 -43.8453369140625 21.532958984375
84.162109375 -23.6978759765625 0.077880859375
59.302734375 -4.63720703125 8.349365234375
20.52001953125 -1.9263916015625 -12.3980712890625
85.7275390625 -5.9119873046875 -19.976806640625
17.505859375 -45.2850341796875 23.244140625
11.788330078125 35.54736328125 0.4151611328125
-94.819091796875 -42.101318359375 7.4241943359375
21.688232421875 -25.791748046875 17.0562744140625
39.751953125 14.4169921875 -20.0477294921875
86.21630859375 -37.883544921875 9.31982421875
53.23046875 -31.215087890625 -5.2017822265625
61.241943359375 26.6849365234375 2.6470947265625
-6.85693359375 -49.732666015625 26.8182373046875
-14.720703125 -49.7525634765625 30.28466796875
-89.375 -42.9285888671875 4.2103271484375
-89.5908203125 -22.4517822265625 9.687255859375
33.630859375 -29.4947509765625 19.807861328125
58.669677734375 -14.1732177734375 -12.87451171875
54.64208984375 -14.921875 3.673095703125
-54.20556640625 5.7030029296875 5.7105712890625
-14.5048828125 -38.1854248046875 18.401611328125
55.76513671875 -24.6165771484375 0.422119140625
-46.9658203125 1.0677490234375 2.90625
62.95654296875 -32.94384765625 -3.7274169921875
-42.784912109375 9.7318115234375 3.07763671875
-54.29833984375 -23.0078125 16.5181884765625
62.55419921875 16.1199951171875 5.0704345703125
-43.4423828125 -16.301513671875 8.228759765625
-7.040771484375 -15.34130859375 -4.2337646484375
-60.26513671875 0.8345947265625 7.53271484375
85.77978515625 -17.37353515625 3.2689208984375
5.5087890625 -42.6771240234375 21.1865234375
-11.4423828125 -55.6075439453125 31.420654296875
15.113037109375 -38.0205078125 17.060546875
-2.174072265625 17.6103515625 2.832763671875
-76.479248046875 19.0421142578125 14.8109130859375
-63.098876953125 11.2481689453125 7.1082763671875
36.900146484375 -8.69921875 -2.12939453125
38.057861328125 -23.3583984375 9.379638671875
30.564208984375 -5.5721435546875 -6.93798828125
97.329345703125 -14.459228515625 -21.281494140625
35.45654296875 1.1922607421875 -17.651123046875
67.64111328125 12.7493896484375 -24.132080078125
42.1494140625 33.3570556640625 -20.4927978515625
85.585693359375 -31.27783203125 4.1363525390625
-65.29736328125 -1.678955078125 22.2420654296875
61.118896484375 -26.8814697265625 -5.645263671875
7.333984375 10.5350341796875 10.2528076171875
64.76220703125 -7.5091552734375 -14.572265625
-91.78564453125 -46.95947265625 12.73046875
64.596435546875 30.3648681640625 -30.3597412109375
69.344970703125 -50.0531005859375 7.5921630859375
94.367919921875 -25.698486328125 -7.3565673828125
-1.415283203125 23.0303955078125 1.72509765625
83.07861328125 -42.591796875 19.2943115234375
-47.919189453125 15.3878173828125 2.5556640625
34.82470703125 -1.720458984375 -13.443115234375
-35.265380859375 -18.1988525390625 8.3740234375
55.053466796875 -49.0069580078125 9.7646484375
-8.30126953125 -18.56005859375 -1.14208984375
-18.70166015625 -27.2872314453125 15.0025634765625
-15.640625 -59.83203125 35.7274169921875
-17.328857421875 18.4483642578125 -12.0631103515625
-21.114990234375 12.954345703125 -9.73779296875
-97.236572265625 -33.6392822265625 4.9149169921875
-78.914794921875 -25.1553955078125 18.9073486328125
-51.153564453125 10.0478515625 3.855224609375
-10.21630859375 -10.3795166015625 -0.1317138671875
-16.952392578125 -31.4443359375 15.463623046875
17.7109375 -20.070068359375 10.617919921875
71.549072265625 -16.2305908203125 -9.629150390625
65.866455078125 -34.517333984375 -10.9185791015625
-43.017578125 -22.0677490234375 13.46630859375
59.8134765625 23.420166015625 4.16748046875
-28.054443359375 19.9697265625 -9.393798828125
50.49169921875 -42.3660888671875 2.639404296875
-40.662353515625 -27.9205322265625 20.9820556640625
8.32275390625 -15.4271240234375 6.5849609375
-62.500244140625 17.68408203125 5.4638671875
37.63623046875 26.2418212890625 -20.477783203125
34.174560546875 17.3336181640625 -17.7987060546875
27.607177734375 0.037353515625 -16.0125732421875
81.553466796875 -13.5294189453125 0.8369140625
21.235595703125 27.6527099609375 2.415283203125
-60.760498046875 -5.1837158203125 1.1656494140625
-19.52294921875 -50.998779296875 30.8509521484375
-93.93115234375 -29.5274658203125 4.9171142578125
17.0146484375 39.132568359375 -1.877685546875
70.38623046875 25.6488037109375 -28.0325927734375
41.833740234375 -5.0828857421875 -8.159912109375
38.74560546875 -12.627685546875 1.7567138671875
-2.20068359375 31.110595703125 0.9666748046875
-4.417236328125 -4.6429443359375 -1.8990478515625
39.498046875 -15.8614501953125 5.1168212890625
-16.1767578125 -12.9625244140625 4.6719970703125
5.19287109375 19.698974609375 3.0814208984375
-17.31396484375 33.01318359375 0.7835693359375
20.631591796875 10.4478759765625 -19.4261474609375
-9.175537109375 33.4827880859375 1.1629638671875
-1.932373046875 9.1949462890625 2.0902099609375
32.0400390625 -13.7694091796875 3.3775634765625
-7.224853515625 -18.545654296875 3.263671875
74.981689453125 -1.771484375 -15.3048095703125
-26.921630859375 -28.3585205078125 17.043212890625
-58.367919921875 -0.021240234375 3.39208984375
19.122802734375 -42.5511474609375 21.08154296875
17.625 24.4208984375 4.1724853515625
-50.83203125 -31.556396484375 25.71533203125
-67.68701171875 -13.0826416015625 6.2274169921875
58.107666015625 -35.207763671875 -11.80810546875
-10.956787109375 -36.2587890625 16.78759765625
-32.379150390625 0.5423583984375 -7.15869140625
-29.998046875 7.426025390625 -8.5924072265625
34.23486328125 8.786865234375 -19.55029296875
-74.3037109375 23.285888671875 10.8560791015625
-10.137451171875 -44.709228515625 23.0460205078125
65.664306640625 20.0518798828125 -25.590087890625
28.197265625 10.488037109375 -20.4052734375
-37.34912109375 5.4742431640625 -8.67724609375
-46.94140625 5.8472900390625 7.1553955078125
-56.255615234375 -29.540771484375 22.9901123046875
-60.50537109375 -15.446533203125 8.189208984375
-78.609130859375 -32.6495361328125 26.7554931640625
-94.314208984375 -34.93310546875 -0.711181640625
88.592529296875 -37.86181640625 6.443115234375
60.004150390625 33.2850341796875 -1.09521484375
57.34033203125 38.43798828125 -1.52734375
56.27734375 -2.4495849609375 6.5020751953125
75.021240234375 -27.6199951171875 -6.41943359375
62.501708984375 -48.49609375 -2.2923583984375
-49.46826171875 -22.310791015625 15.168212890625
1.623779296875 9.588134765625 3.25537109375
82.44921875 -34.2470703125 4.9722900390625
85.318115234375 -22.869140625 7.0513916015625
-42.1787109375 -10.9930419921875 3.00048828125
-47.9716796875 -26.167724609375 19.5430908203125
-53.2529296875 -19.0338134765625 3.8564453125
10.12744140625 -45.8038330078125 23.1025390625
-40.356201171875 1.19384765625 -6.8494873046875
-72.406005859375 -31.453369140625 25.754638671875
-40.7333984375 -15.0792236328125 5.51953125
-54.57958984375 -8.3138427734375 -0.66650390625
8.527099609375 30.9830322265625 2.0252685546875
32.780029296875 -27.438720703125 13.9525146484375
-22.936767578125 20.5379638671875 -9.6451416015625
-73.40771484375 -16.906005859375 10.839599609375
-2.225341796875 -11.865234375 -2.2078857421875
65.13232421875 26.9598388671875 -28.7178955078125
-62.062255859375 10.6826171875 2.7999267578125
84.619140625 -22.2208251953125 -8.5997314453125
-100.472412109375 -32.9261474609375 7.0673828125
-71.90478515625 2.2279052734375 21.3094482421875
-12.411376953125 -15.385498046875 7.063720703125
13.965576171875 -7.596435546875 -2.1451416015625
71.8310546875 -35.4031982421875 -11.7095947265625
-14.297119140625 -5.3341064453125 -3.82177734375
-60.4658203125 21.414794921875 4.7041015625
55.132568359375 -53.482421875 11.661865234375
-32.884765625 -5.9849853515625 -2.411376953125
87.810546875 -2.7418212890625 -15.548095703125
59.681640625 14.08251953125 6.3460693359375
0.786865234375 4.4058837890625 5.37646484375
-65.903076171875 -33.944580078125 28.0877685546875
31.98388671875 30.2523193359375 -20.651123046875
-54.72607421875 -11.5927734375 -2.4534912109375
12.763427734375 21.643798828125 6.1773681640625
39.73974609375 -25.88525390625 7.169921875
-66.11376953125 17.36572265625 9.9091796875
57.580078125 -10.669189453125 -3.8162841796875
-0.657958984375 -35.887939453125 15.5474853515625
-26.53857421875 -36.0843505859375 19.225341796875
-32.967529296875 -37.945068359375 21.461181640625
23.804931640625 -21.7738037109375 12.4912109375
80.3525390625 -25.5455322265625 -2.5565185546875
-98.099609375 -35.97998046875 0.5941162109375
59.4033203125 30.1146240234375 -28.8409423828125
-46.65185546875 22.46142578125 3.263916015625
87.973876953125 -7.5643310546875 -26.0438232421875
92.46142578125 -4.5516357421875 -28.5057373046875
-21.753173828125 -40.2308349609375 19.5218505859375
55.656005859375 -15.677001953125 -9.2752685546875
-5.265625 -47.03125 24.5064697265625
-44.110107421875 17.92578125 3.5887451171875
58.1416015625 -2.804931640625 -17.7218017578125
70.19775390625 -53.2803955078125 5.9482421875
-61.5205078125 -25.2845458984375 18.7349853515625
-41.2607421875 -19.6693115234375 10.230224609375
96.14306640625 -23.8546142578125 -14.1025390625
48.638671875 -34.9664306640625 3.567626953125
85.160400390625 -16.02978515625 -5.734619140625
58.2568359375 18.279052734375 -24.6234130859375
30.6708984375 -11.71142578125 0.837646484375
-77.781005859375 -20.970947265625 14.1529541015625
47.401611328125 -30.2474365234375 1.0794677734375
-39.702880859375 28.202880859375 2.700927734375
-14.52734375 -57.541259765625 33.2701416015625
2.054931640625 -37.7440185546875 17.1376953125
-60.7666015625 5.2728271484375 8.4906005859375
-20.60791015625 -15.5836181640625 4.8284912109375
-23.5791015625 3.644775390625 -9.531494140625
95.591552734375 -18.6959228515625 -18.611083984375
19.334716796875 -16.7667236328125 7.2886962890625
-13.99462890625 -41.2938232421875 20.3653564453125
17.304931640625 31.6865234375 -0.074462890625
58.83837890625 5.568359375 -22.378662109375
-6.490966796875 -10.9139404296875 -3.2379150390625
63.927490234375 3.721435546875 -19.9954833984375
-23.4150390625 -11.345458984375 0.9556884765625
12.349365234375 -17.6392822265625 8.0518798828125
-70.373046875 -0.8822021484375 22.62451171875
44.64990234375 -21.01904296875 7.1669921875
-21.318359375 -50.54736328125 27.8839111328125
60.121337890625 29.4764404296875 -0.2547607421875
-26.880859375 8.52978515625 -9.72265625
55.37939453125 -24.884033203125 -3.4434814453125
55.685791015625 -40.59228515625 -8.3651123046875
73.3017578125 22.306640625 -28.086669921875
69.121826171875 -50.6234130859375 0.3406982421875
-36.689697265625 -5.537353515625 -3.7364501953125
92.04833984375 -40.93798828125 11.8963623046875
-42.271484375 15.1788330078125 -7.7315673828125
12.092529296875 16.6546630859375 7.5103759765625
44.42529296875 -29.705322265625 12.2764892578125
70.906982421875 -7.6580810546875 -16.09521484375
-98.325927734375 -40.3489990234375 5.9820556640625
-68.924072265625 4.0142822265625 17.322265625
-5.931396484375 -32.156005859375 12.698486328125
25.250244140625 -8.517822265625 -1.8427734375
-57.87890625 -25.3204345703125 22.9932861328125
18.298828125 -5.3494873046875 -6.2662353515625
16.520751953125 -24.0289306640625 15.23681640625
43.10595703125 -7.578857421875 -3.7838134765625
13.904296875 -15.4332275390625 5.885986328125
68.275390625 -40.225830078125 -9.774169921875
71.091064453125 -47.08349609375 -1.900634765625
89.017333984375 -23.136962890625 -11.7366943359375
-32.977783203125 -9.856201171875 -0.8392333984375
21.614501953125 17.922607421875 -20.2578125
61.474609375 -19.763916015625 -8.938720703125
-27.69091796875 -15.9647216796875 5.8983154296875
69.917724609375 -51.9007568359375 13.0927734375
44.412109375 25.2874755859375 -20.3006591796875
-51.61083984375 27.474365234375 3.509765625
-66.60400390625 -28.886474609375 22.853515625
34.32763671875 35.268798828125 -20.0916748046875
14.098876953125 27.1649169921875 1.6873779296875
-61.004150390625 -22.0889892578125 15.33447265625
41.927490234375 -3.19189453125 -11.3658447265625
3.09716796875 34.6629638671875 0.2393798828125
-68.497802734375 23.2694091796875 6.5390625
27.868408203125 -2.23486328125 -12.8848876953125
-46.792236328125 -29.0245361328125 22.614990234375
-14.6826171875 -48.1866455078125 26.0048828125
20.719970703125 24.60498046875 -19.04052734375
55.951904296875 -30.2611083984375 -2.37158203125
-9.6845703125 36.795654296875 0.5465087890625
-2.732666015625 35.763916015625 -1.1732177734375
-61.640625 -27.9302978515625 25.509033203125
-35.9658203125 -11.560791015625 -0.59423828125
-72.461181640625 -19.7509765625 13.3653564453125
-90.8828125 -32.3968505859375 2.0638427734375
2.099365234375 27.241943359375 2.2220458984375
-20.25537109375 36.3848876953125 0.8380126953125
70.670166015625 -41.8052978515625 -6.4716796875
-87.679931640625 -37.0892333984375 0.2244873046875
-65.85302734375 -20.653076171875 14.5322265625
60.03173828125 -39.4041748046875 -11.89453125
7.966552734375 16.7777099609375 8.6431884765625
15.541015625 -12.578857421875 2.6856689453125
-17.562255859375 -23.25146484375 11.173583984375
-65.830078125 -17.5716552734375 10.83447265625
-62.493408203125 2.1710205078125 13.8961181640625
1.578125 -13.567626953125 3.7381591796875
-9.396484375 -15.5123291015625 1.6572265625
-57.975830078125 -11.4423828125 2.7926025390625
86.312744140625 -31.2900390625 -3.8074951171875
57.947509765625 -15.0205078125 2.7655029296875
-56.9111328125 22.5201416015625 3.4503173828125
-26.14501953125 -23.0546875 13.2008056640625
17.1015625 1.57958984375 -17.0596923828125
0.552734375 -0.5914306640625 0.365234375
32.188232421875 17.5098876953125 -15.0772705078125
-55.190185546875 18.4310302734375 3.90380859375
12.93115234375 7.227294921875 12.30859375
13.20361328125 11.8304443359375 11.1763916015625
-74.589111328125 -27.5789794921875 21.4229736328125
-47.2275390625 28.154541015625 2.1202392578125
69.26611328125 28.735107421875 -30.7945556640625
62.427978515625 -44.52001953125 -6.97265625
35.58349609375 -28.1763916015625 11.896728515625
18.341064453125 -39.05029296875 18.526611328125
28.07470703125 20.79345703125 -20.0689697265625
40.495849609375 5.88720703125 -20.1458740234375
43.32568359375 -27.183349609375 9.3111572265625
94.61083984375 -24.975830078125 -10.603271484375
64.157958984375 -0.5174560546875 -17.892822265625
-38.548828125 13.588134765625 -7.9256591796875
-54.93798828125 -17.6461181640625 6.9622802734375
26.49560546875 -26.89501953125 17.7620849609375
51.303955078125 -8.2373046875 -1.7254638671875
-38.4697265625 -30.3922119140625 21.2774658203125
-17.0078125 6.387451171875 -9.552001953125
-11.761474609375 -21.2593994140625 9.7711181640625
18.185302734375 31.1826171875 -19.6685791015625
-27.8681640625 26.7725830078125 -11.0062255859375
-23.576416015625 15.8311767578125 -9.704833984375
-30.157958984375 -3.9346923828125 -4.961181640625
-55.561279296875 1.515380859375 4.228515625
71.185791015625 -30.9720458984375 -8.061279296875
4.912353515625 28.8138427734375 1.0699462890625
89.08642578125 -43.00537109375 13.0179443359375
80.263427734375 -39.178466796875 7.0819091796875
-46.0791015625 8.43603515625 5.308837890625
79.50244140625 -3.8826904296875 -9.597412109375
-2.37548828125 -42.4287109375 20.5150146484375
-29.696044921875 -38.8636474609375 20.751220703125
-11.44873046875 -25.861572265625 12.6346435546875
-19.32373046875 -33.426025390625 16.58544921875
69.6494140625 15.1715087890625 -25.0826416015625
57.45068359375 -33.830810546875 -8.5367431640625
-50.659423828125 22.5809326171875 4.3642578125
69.351318359375 32.0047607421875 -28.3487548828125
-61.759765625 -0.3720703125 11.9095458984375
50.418701171875 -38.4317626953125 -2.2379150390625
3.677734375 -39.9412841796875 19.477783203125
25.0537109375 29.259765625 -19.987548828125
-57.463623046875 -13.9964599609375 6.67138671875
90.58740234375 -15.5335693359375 -21.544189453125
-47.6416015625 3.598388671875 4.8468017578125
-50.927001953125 18.986083984375 3.749755859375
56.4697265625 -46.6231689453125 2.2830810546875
63.36767578125 -51.378662109375 14.0888671875
21.81494140625 -5.282470703125 -6.4207763671875
-66.765625 12.5198974609375 11.203857421875
84.067626953125 -14.459716796875 -10.9290771484375
-71.3466796875 17.0770263671875 11.279296875
-28.599853515625 -20.603515625 10.5992431640625
94.081787109375 -10.9029541015625 -24.4447021484375
-58.504150390625 -5.6787109375 -1.4591064453125
43.4013671875 19.1279296875 -20.6376953125
-20.601318359375 -47.0264892578125 25.4661865234375
73.74169921875 -37.2452392578125 -7.515380859375
-24.135986328125 -45.9908447265625 23.947265625
69.15869140625 -1.0029296875 -18.846435546875
-29.3095703125 -43.679443359375 22.6123046875
-8.52294921875 -42.8594970703125 20.93603515625
89.872314453125 -20.709228515625 -14.9781494140625
50.2177734375 -16.4293212890625 5.443115234375
-67.7216796875 -31.4041748046875 25.6181640625
-47.761962890625 -2.780029296875 -1.0897216796875
36.459716796875 -6.6279296875 -4.5655517578125
-43.376708984375 -29.014404296875 22.34228515625
50.6689453125 -34.336181640625 -8.3880615234375
-50.273681640625 -0.035400390625 0.296630859375
76.572998046875 -6.3876953125 -6.5994873046875
-94.17138671875 -36.8714599609375 2.15576171875
13.0029296875 -39.9083251953125 18.9765625
84.74755859375 -4.88330078125 -12.96435546875
2.977294921875 -9.8184814453125 0.9437255859375
6.870849609375 -39.5169677734375 22.040283203125
-8.45849609375 -56.3382568359375 32.3646240234375
-52.59423828125 -14.7608642578125 -2.005615234375
26.88037109375 -22.841064453125 13.480712890625
-11.284423828125 -31.202880859375 13.8133544921875
55.59912109375 -21.99169921875 -6.4281005859375
69.164306640625 -15.60498046875 -12.747802734375
-22.87744140625 -22.7137451171875 12.37451171875
49.32958984375 -10.6685791015625 -0.6123046875
-30.983154296875 13.8375244140625 -9.7855224609375
56.89892578125 -7.9912109375 -11.7322998046875
85.49609375 -14.84326171875 0.3927001953125
9.6640625 -11.9107666015625 2.4586181640625
16.066162109375 4.38720703125 14.974609375
33.6240234375 3.341796875 -19.1302490234375
64.28662109375 27.95751953125 1.8682861328125
-77.223388671875 -23.3927001953125 16.8643798828125
83.45458984375 -34.8919677734375 9.042724609375
-6.27099609375 -2.5357666015625 -3.713134765625
-3.700927734375 27.5487060546875 0.9832763671875
-21.83203125 -2.1170654296875 -7.3934326171875
-2.746826171875 14.676025390625 1.5816650390625
-55.7265625 14.984619140625 3.8431396484375
67.481201171875 26.1636962890625 -25.63037109375
39.79443359375 -19.3309326171875 7.4315185546875
-59.915771484375 -19.6212158203125 12.6248779296875
-24.965087890625 -18.7283935546875 6.6070556640625
85.05322265625 -17.87939453125 -17.559814453125
22.228515625 35.0029296875 -18.995361328125
59.116455078125 -0.6483154296875 4.19677734375
73.234619140625 -8.3050537109375 -11.2220458984375
17.718017578125 13.57666015625 -18.33056640625
-57.611083984375 6.3900146484375 7.346435546875
-60.21826171875 -2.672607421875 3.0447998046875
47.695556640625 -35.08544921875 10.9696044921875
-4.700439453125 5.13427734375 3.62744140625
77.334716796875 -13.18603515625 0.85546875
31.58447265625 24.05712890625 -19.62353515625
75.08740234375 -42.64013671875 -1.058349609375
46.875 -30.792236328125 16.0128173828125
23.789794921875 -13.1563720703125 3.10546875
33.614990234375 -9.87158203125 -1.1103515625
18.87548828125 15.8533935546875 8.65771484375
-88.59033203125 -32.406005859375 -0.59326171875
84.692626953125 -45.2635498046875 19.076171875
87.953125 19.4061279296875 -38.26904296875
32.7744140625 -18.06201171875 8.0467529296875
18.1875 8.1778564453125 -19.7022705078125
-19.517822265625 25.3221435546875 -13.0234375
-14.645263671875 8.35595703125 -10.5037841796875
-15.152099609375 11.9755859375 -11.1912841796875
-25.927734375 -9.9825439453125 -0.3138427734375
65.20654296875 -23.8311767578125 -8.1898193359375
-17.424072265625 -37.5096435546875 17.50634765625
61.8984375 39.570556640625 -3.0697021484375
-0.292236328125 -14.376708984375 -0.1513671875
-25.422119140625 -2.44384765625 -6.4720458984375
47.651123046875 -29.27490234375 6.7879638671875
86.2470703125 -1.6075439453125 -25.9053955078125
-55.8798828125 -5.2646484375 2.0911865234375
64.253173828125 34.33056640625 -1.2445068359375
-46.870361328125 -17.3184814453125 9.9283447265625
44.640380859375 -4.147705078125 -10.196533203125
10.5673828125 21.866455078125 3.896240234375
-86.58251953125 -27.926513671875 8.6546630859375
-64.607421875 5.845947265625 17.2252197265625
-97.89208984375 -44.88818359375 10.6534423828125
4.52392578125 5.3065185546875 6.921875
-50.347412109375 -12.87939453125 -3.22998046875
-21.96044921875 -26.7796630859375 15.80322265625
-30.043701171875 22.5489501953125 -10.5753173828125
57.97216796875 0.4207763671875 -18.5838623046875
39.78759765625 -31.767333984375 8.1505126953125
59.9052734375 31.339111328125 -26.04833984375
-81.516845703125 -28.7235107421875 22.7958984375
1.1044921875 -8.0919189453125 -0.798828125
-53.29541015625 8.6839599609375 5.60595703125
-100.8603515625 -37.563232421875 0.968505859375
-92.646240234375 -49.1236572265625 14.7430419921875
-71.705322265625 -23.2703857421875 16.9459228515625
-35.665771484375 -23.4466552734375 12.0521240234375
80.231201171875 -28.2244873046875 -0.47705078125
7.65673828125 -20.52587890625 11.6126708984375
67.75439453125 3.0887451171875 -21.438232421875
-5.73046875 -27.2635498046875 11.3470458984375
-33.61328125 -30.1265869140625 19.8499755859375
-55.709228515625 -19.164306640625 12.337158203125
68.97412109375 -12.9586181640625 -14.5078125
50.086669921875 -39.162109375 9.618896484375
54.4892578125 -45.454345703125 -1.2545166015625
0.3212890625 15.8870849609375 2.5257568359375
81.947265625 -10.691650390625 -2.6427001953125
-19.3955078125 -42.8575439453125 21.72021484375
-73.73046875 -29.733642578125 23.5289306640625
8.797607421875 3.1900634765625 16.5679931640625
-9.19970703125 -17.086181640625 8.9537353515625
20.548828125 -12.4324951171875 2.8056640625
-44.931396484375 -9.9647216796875 2.22021484375
9.693603515625 4.80859375 13.7742919921875
-28.33984375 -25.7635498046875 14.9539794921875
38.9677734375 32.37060546875 -20.3929443359375
53.70751953125 -52.95849609375 15.7197265625
60.88671875 14.794921875 -25.2396240234375
74.614990234375 -24.42919921875 -2.97802734375
83.26513671875 -30.375732421875 -0.6583251953125
-42.797607421875 -23.7265625 15.9910888671875
-25.419677734375 -6.9127197265625 -1.8240966796875
-20.72900390625 10.16552734375 -10.84814453125
-26.590087890625 -48.4566650390625 27.8309326171875
87.03125 -14.8704833984375 -2.21142578125
-55.85986328125 -14.2696533203125 -3.282470703125
-30.538330078125 -11.244140625 0.2784423828125
69.67041015625 -37.8695068359375 -11.0491943359375
-18.580810546875 -18.0225830078125 7.35791015625
35.675537109375 19.033203125 -19.7908935546875
61.243408203125 -5.23583984375 -17.5267333984375
-91.1611328125 -30.7568359375 4.5762939453125
83.85498046875 -40.904541015625 15.68603515625
54.537841796875 -36.884521484375 -11.432861328125
65.623779296875 22.6910400390625 -27.0316162109375
-36.021728515625 -13.4903564453125 2.336669921875
-30.65283203125 -13.643798828125 3.019287109375
60.306396484375 -16.513916015625 -11.9407958984375
-17.31103515625 -10.5078125 2.23095703125
25.2197265625 -4.265869140625 -8.1224365234375
-50.951416015625 -5.5771484375 -0.040283203125
5.5126953125 22.5869140625 2.3291015625
-5.70654296875 16.7786865234375 1.7591552734375
26.00341796875 -28.69775390625 22.6871337890625
46.020263671875 3.480712890625 -18.4615478515625
86.832763671875 -3.7716064453125 -18.1810302734375
83.3828125 -6.7249755859375 -7.0106201171875
21.490234375 3.6739501953125 -19.5987548828125
45.88818359375 -28.0172119140625 14.3775634765625
59.509521484375 20.511962890625 -26.1632080078125
-63.634765625 11.919921875 11.812255859375
74.5732421875 -39.5980224609375 -3.54638671875
56.865234375 -3.4259033203125 -14.4886474609375
62.04296875 19.1075439453125 4.5291748046875
63.45068359375 -48.07470703125 3.638916015625
34.897705078125 -22.969482421875 9.4654541015625
-63.168212890625 -13.06201171875 5.766845703125
-47.549072265625 -8.3397216796875 0.2886962890625
64.6005859375 -10.7135009765625 -13.4476318359375
83.220947265625 -7.815185546875 -16.4111328125
-37.501953125 -25.6632080078125 16.481201171875
-16.3447265625 25.4886474609375 -11.31103515625
28.339599609375 31.5772705078125 -19.929443359375
65.384033203125 -15.967041015625 -11.9461669921875
-87.575927734375 -24.0335693359375 7.5623779296875
46.08056640625 -7.1861572265625 -4.36181640625
-67.648193359375 -15.170166015625 8.3291015625
-1.876953125 -4.8897705078125 -3.400634765625
-4.056396484375 39.10107421875 -1.56591796875
4.522705078125 11.6397705078125 2.3175048828125
-14.067626953125 34.6031494140625 -0.3216552734375
31.86865234375 -23.173828125 11.0789794921875
58.9111328125 24.447998046875 -24.188232421875
-53.4833984375 -30.220703125 23.7388916015625
8.931640625 -24.1044921875 15.608642578125
-18.260009765625 3.6287841796875 -10.3712158203125
-26.65966796875 1.3433837890625 -8.1368408203125
-23.29541015625 7.2261962890625 -10.4327392578125
-24.19921875 32.8079833984375 2.76806640625
-82.700927734375 -23.9156494140625 16.871826171875
-65.6435546875 2.6800537109375 18.58544921875
37.83154296875 22.374755859375 -20.4901123046875
-55.5498046875 -33.8277587890625 27.9105224609375
-33.63623046875 -27.2984619140625 16.4534912109375
83.37890625 -12.9208984375 -22.50390625
-20.87060546875 -6.5133056640625 -2.5325927734375
-29.5166015625 17.3836669921875 -11.0113525390625
37.99462890625 -5.0728759765625 -7.5985107421875
18.8720703125 10.562255859375 10.593994140625
-61.636962890625 -6.59130859375 4.50634765625
24.8720703125 -2.850830078125 -11.3955078125
-62.478515625 0.0479736328125 15.9071044921875
50.072998046875 -29.4239501953125 -4.3790283203125
67.020751953125 9.1434326171875 -22.9605712890625
28.23974609375 34.8236083984375 -20.6458740234375
-58.803955078125 10.230224609375 3.970458984375
-60.52880859375 15.94873046875 3.310302734375
-62.992431640625 -17.1947021484375 10.27978515625
41.135498046875 16.9654541015625 -20.3480224609375
63.960693359375 15.26806640625 -25.5379638671875
-3.817138671875 -37.41845703125 16.9622802734375
27.666015625 17.0919189453125 -19.439453125
-20.545166015625 20.146240234375 -11.54736328125
47.0146484375 -24.234619140625 3.503662109375
68.718017578125 6.2430419921875 -22.7730712890625
11.956787109375 2.8258056640625 16.489013671875
26.907470703125 -15.6219482421875 5.5986328125
-63.19287109375 -4.2047119140625 22.2291259765625
-62.946533203125 5.5137939453125 11.73583984375
58.913818359375 11.5714111328125 -24.1138916015625
8.952880859375 34.1649169921875 -0.9423828125
50.280517578125 -26.734619140625 -1.2352294921875
-63.259521484375 21.498046875 5.47119140625
24.832275390625 22.505126953125 -19.549072265625
-29.45654296875 2.6234130859375 -7.6434326171875
-36.20703125 17.184326171875 -9.0830078125
-23.8740234375 13.2265625 -11.64599609375
7.34423828125 19.8841552734375 5.2576904296875
87.274169921875 -45.5985107421875 16.548583984375
-55.5029296875 -17.8505859375 1.6185302734375
-36.59326171875 -1.99462890625 -6.6910400390625
19.44775390625 -0.0731201171875 -15.355224609375
-34.093994140625 6.6053466796875 -7.90380859375
72.9658203125 31.816162109375 -31.1904296875
49.05712890625 -35.7947998046875 -1.594970703125
-3.039306640625 -44.676025390625 22.8079833984375
-54.52783203125 -0.58349609375 0.3104248046875
46.14892578125 -22.8740234375 8.7840576171875
2.804443359375 -44.6287841796875 22.7509765625
79.3515625 -17.9290771484375 5.755859375
88.70703125 -32.353759765625 -2.6314697265625
14.809814453125 -19.37255859375 10.0391845703125
-8.289794921875 -47.428466796875 24.9166259765625
-21.142578125 -55.405029296875 33.3880615234375
-95.65673828125 -39.650146484375 5.0706787109375
49.78125 -23.10205078125 2.28857421875
-10.725830078125 -23.009765625 11.7772216796875
-2.88916015625 1.03759765625 0.44677734375
2.783447265625 17.0908203125 1.731201171875
-41.361572265625 8.374755859375 -8.2132568359375
-67.668701171875 -3.6607666015625 23.3638916015625
10.288330078125 -7.9288330078125 -1.2052001953125
47.933349609375 -32.3148193359375 -3.63134765625
42.71826171875 11.1278076171875 -19.9598388671875
-64.7880859375 0.5556640625 20.55078125
5.897705078125 36.649169921875 -1.004150390625
-91.85205078125 -44.888916015625 10.2147216796875
86.202392578125 -2.52880859375 -12.32470703125
-4.350830078125 22.20947265625 2.390625
30.80712890625 27.4066162109375 -19.8360595703125
-52.942626953125 12.4066162109375 3.317626953125
69.432861328125 -26.9805908203125 -4.6424560546875
0.3740234375 -40.4635009765625 19.1143798828125
44.678955078125 -10.3861083984375 -0.7791748046875
-1.8583984375 -31.6456298828125 12.82177734375
59.57568359375 -48.0218505859375 -1.7508544921875
-13.224609375 -34.0184326171875 15.0050048828125
-23.000732421875 -32.4954833984375 17.40673828125
-29.6064453125 -28.6041259765625 18.3731689453125
64.29931640625 -26.00439453125 -5.8709716796875
87.01513671875 -15.88916015625 -18.5682373046875
53.868896484375 -19.3016357421875 3.642822265625
1.345947265625 38.4405517578125 -0.134033203125
-57.453125 -31.3033447265625 25.2762451171875
60.453369140625 -50.8533935546875 11.71484375
47.864013671875 -13.9310302734375 2.853271484375
-2.550048828125 -18.807861328125 10.4197998046875
19.285888671875 -8.9189453125 -0.9351806640625
-6.29638671875 -52.0455322265625 28.797607421875
36.107177734375 -26.4010009765625 9.5555419921875
42.52587890625 -0.06396484375 -16.665283203125
56.4052734375 4.0263671875 3.705810546875
-90.50390625 -36.641357421875 -1.6981201171875
-74.783447265625 -32.6041259765625 26.6875
18.770263671875 20.01806640625 -19.93798828125
-45.482421875 24.900634765625 2.5440673828125
83.232666015625 -15.3511962890625 2.606201171875
59.456298828125 -24.6920166015625 -7.5865478515625
-90.808349609375 -38.7222900390625 2.8724365234375
72.017333984375 10.739501953125 -24.2222900390625
44.885986328125 -0.959716796875 -15.263916015625
-44.322021484375 3.038818359375 7.568603515625
43.13330078125 2.06005859375 -18.669677734375
58.4775390625 -43.2763671875 -6.83056640625
38.063720703125 7.1710205078125 -19.7559814453125
53.36474609375 -44.6551513671875 4.2838134765625
-52.046630859375 3.77490234375 4.37939453125
-62.081787109375 -33.5159912109375 27.775146484375
67.375732421875 18.8648681640625 -23.756103515625
56.244140625 -19.353759765625 -8.4249267578125
35.443115234375 6.29296875 -19.4853515625
-10.018798828125 -3.8848876953125 -5.5245361328125
94.682861328125 -21.3958740234375 -14.605224609375
38.0859375 -29.3953857421875 7.02294921875
-71.55322265625 20.20556640625 10.11474609375
20.93896484375 -27.658203125 18.9580078125
-12.2001953125 -10.46435546875 1.7950439453125
59.647705078125 8.192138671875 4.02685546875
-68.6630859375 -5.958740234375 24.8629150390625
10.833984375 39.49267578125 -2.693603515625
67.00146484375 -49.049560546875 -0.4737548828125
30.615966796875 -6.7633056640625 -4.4454345703125
-70.87841796875 9.1844482421875 15.8353271484375
48.519287109375 -37.6207275390625 5.7965087890625
19.006103515625 18.3671875 6.246337890625
-12.562744140625 -50.140869140625 27.2730712890625
-5.82958984375 -20.5849609375 12.7950439453125
-90.9365234375 -40.9990234375 6.391845703125
-43.7158203125 -5.990966796875 -2.9583740234375
-15.747314453125 22.010009765625 -11.67529296875
12.453857421875 -12.207275390625 2.777099609375
9.689208984375 -39.209716796875 20.9979248046875
-15.634033203125 -52.0611572265625 29.1104736328125
16.644775390625 -15.3541259765625 5.969482421875
28.541748046875 -25.037353515625 15.6756591796875
63.525390625 -21.1279296875 -7.2940673828125
85.679443359375 -11.8013916015625 -23.5780029296875
13.866455078125 14.5550537109375 7.6715087890625
79.936767578125 -7.76953125 -5.2642822265625
19.807861328125 -3.4407958984375 -9.498046875
91.66796875 -28.9208984375 -5.6798095703125
69.56396484375 -20.260009765625 -10.2349853515625
37.625732421875 -14.43701171875 3.7220458984375
21.008056640625 5.923828125 13.2315673828125
86.248046875 -23.43701171875 -10.7132568359375
64.1103515625 -32.490478515625 -6.2423095703125
86.318359375 -21.9005126953125 9.8880615234375
-90.459716796875 -24.90185546875 7.616943359375
60.2724609375 8.731689453125 -23.6763916015625
33.722900390625 12.766845703125 -17.130615234375
59.021484375 23.3646240234375 -26.6800537109375
7.445068359375 39.50048828125 -2.093505859375
67.006103515625 14.138671875 -21.88427734375
-71.3759765625 5.3037109375 19.596923828125
-23.27099609375 -42.4288330078125 22.015625
-94.3623046875 -32.020751953125 7.0240478515625
10.6142578125 -38.718505859375 18.486572265625
13.809814453125 -24.0689697265625 15.2952880859375
7.9638671875 28.3316650390625 2.084228515625
63.210693359375 -13.4747314453125 -12.07861328125
-72.447265625 -35.05615234375 29.6688232421875
7.119873046875 -33.396728515625 14.364013671875
-16.434814453125 -19.002197265625 8.6832275390625
63.950927734375 21.34716796875 4.2193603515625
62.776611328125 -31.68994140625 -1.3380126953125
59.75439453125 5.649169921875 2.572998046875
-22.761962890625 35.5487060546875 1.3895263671875
-19.91357421875 -48.2110595703125 29.254150390625
8.41064453125 25.256103515625 3.7257080078125
-2.281982421875 3.7938232421875 3.0814208984375
-4.091064453125 11.6839599609375 1.9539794921875
-17.141845703125 -25.2813720703125 14.1036376953125
91.91064453125 -33.994384765625 2.9794921875
-8.44921875 -12.7259521484375 -3.6058349609375
58.469970703125 12.6551513671875 -21.359619140625
68.341552734375 -43.91455078125 -6.19677734375
83.60107421875 -22.117919921875 -3.18408203125
-8.986083984375 -52.0560302734375 28.841796875
56.6484375 -22.09228515625 -0.0521240234375
60.52197265625 -29.2760009765625 -4.580322265625
53.055419921875 -13.1195068359375 1.918701171875
54.97314453125 -21.9312744140625 3.3997802734375
-8.136962890625 -39.3023681640625 18.9598388671875
77.107421875 -2.7091064453125 -9.90087890625
-31.0546875 33.1253662109375 1.8701171875
-60.14501953125 -9.9117431640625 2.4013671875
83.658203125 -10.150390625 -21.51318359375
88.594482421875 -33.0623779296875 0.97802734375
-25.05029296875 -13.5264892578125 2.91845703125
3.627685546875 -35.72119140625 16.231201171875
61.619873046875 24.571044921875 -29.0341796875
-75.301025390625 12.68798828125 16.786865234375
39.055419921875 29.518310546875 -19.7635498046875
-65.6220703125 8.2135009765625 14.578857421875
-66.34228515625 21.7110595703125 6.7921142578125
20.8251953125 32.9383544921875 -19.9766845703125
66.9013671875 -47.71923828125 9.0015869140625
82.434326171875 -22.5931396484375 8.909423828125
85.8671875 -18.7083740234375 5.5736083984375
-31.737548828125 -24.931396484375 15.2049560546875
-75.809814453125 21.343994140625 11.8939208984375
-32.71337890625 -33.02685546875 20.26171875
-33.380615234375 25.36474609375 -10.6097412109375
-70.384765625 13.0333251953125 12.1044921875
-73.435302734375 17.4935302734375 13.2918701171875
24.8935546875 14.60791015625 -20.42041015625
17.716796875 -0.54052734375 -9.57470703125
72.604248046875 -27.37060546875 -4.7423095703125
-19.293212890625 -1.2554931640625 -7.649169921875
51.68310546875 -32.0535888671875 -7.4923095703125
-62.42529296875 7.3411865234375 8.4830322265625
-83.466796875 -20.4674072265625 13.013916015625
-5.9833984375 0.25732421875 -0.718994140625
-0.3798828125 -20.242919921875 11.7066650390625
54.2998046875 -50.9288330078125 11.489501953125
59.029052734375 -54.252685546875 12.1759033203125
22.27587890625 27.8304443359375 -20.0509033203125
0.49951171875 -6.378662109375 -2.715576171875
61.50146484375 10.1875 4.698486328125
75.025634765625 -3.6729736328125 -12.087646484375
-51.17578125 -26.888916015625 20.610107421875
30.234130859375 8.81884765625 -20.595703125
-40.582763671875 30.6717529296875 2.3824462890625
89.37744140625 -24.94140625 -9.843505859375
-14.021240234375 -7.360107421875 -1.431884765625
54.38623046875 -45.2840576171875 8.7421875
7.50537109375 -17.2718505859375 8.28271484375
-23.443115234375 -19.9736328125 8.833740234375
-31.7197265625 -2.1297607421875 -6.0797119140625
84.16796875 -25.3211669921875 -8.9937744140625
71.48583984375 20.8162841796875 -26.8939208984375
37.30029296875 -2.3597412109375 -12.80810546875
-45.45068359375 -21.1829833984375 13.9481201171875
72.154541015625 -32.6552734375 -10.54150390625
62.964599609375 -35.02880859375 -11.1788330078125
-30.72802734375 19.8526611328125 -11.073486328125
-63.210693359375 -27.192138671875 22.5301513671875
-16.226318359375 -43.216552734375 21.9588623046875
-14.150634765625 5.13720703125 -9.90478515625
64.15478515625 -36.2003173828125 -13.2821044921875
-47.260986328125 -32.2945556640625 26.094482421875
12.45068359375 0.28515625 16.9327392578125
-48.822021484375 -11.537841796875 -0.8990478515625
33.81201171875 32.7099609375 -19.8690185546875
-25.2177734375 5.68798828125 -9.5390625
-39.96435546875 24.0772705078125 -9.6064453125
29.16552734375 4.8294677734375 -19.380126953125
32.5048828125 -2.4278564453125 -12.4591064453125
-62.319580078125 -10.9144287109375 3.8939208984375
61.02880859375 29.991943359375 -31.1171875
27.46875 -5.819580078125 -5.66748046875
15.95654296875 16.072265625 8.169189453125
72.518310546875 27.489990234375 -29.5640869140625
59.170166015625 17.070068359375 5.8048095703125
47.123779296875 -27.848876953125 0.083251953125
46.770263671875 -22.937255859375 5.938720703125
19.618408203125 2.1634521484375 -18.56103515625
1.4580078125 7.23486328125 4.3643798828125
-1.85546875 20.4862060546875 2.0836181640625
-16.146728515625 -3.675048828125 -5.672607421875
15.226318359375 21.98779296875 5.4053955078125
12.427978515625 19.149169921875 6.8438720703125
63.45947265625 19.94775390625 -27.31396484375
34.62646484375 -3.219970703125 -10.4990234375
-71.72412109375 -25.0303955078125 18.858154296875
66.930419921875 -29.763916015625 -5.574951171875
73.220458984375 -0.49853515625 -19.075927734375
-61.330322265625 -3.4466552734375 17.4080810546875
-19.470703125 7.7310791015625 -10.6439208984375
28.017822265625 -17.822998046875 7.5560302734375
83.578125 -31.65380859375 2.066650390625
24.807373046875 5.5430908203125 -19.3111572265625
-50.62060546875 -16.1314697265625 -0.7962646484375
-98.547119140625 -30.9791259765625 6.392333984375
-39.447265625 20.072998046875 -8.8336181640625
-30.712890625 5.0540771484375 -7.8472900390625
5.854248046875 -37.034912109375 21.3995361328125
-56.8623046875 -10.62939453125 0.5068359375
11.697509765625 25.158203125 2.8232421875
-48.4521484375 -24.4017333984375 17.5670166015625
71.53662109375 -51.7669677734375 7.5477294921875
-52.273681640625 -19.5062255859375 1.251220703125
-39.64404296875 3.5562744140625 -7.591552734375
11.829833984375 -21.232421875 12.0096435546875
58.6083984375 16.6414794921875 -22.6527099609375
91.810546875 -37.2862548828125 7.0565185546875
57.04345703125 -28.84716796875 -4.2215576171875
-5.20263671875 36.6619873046875 -0.68408203125
-69.7568359375 2.7308349609375 19.388671875
55.255615234375 -27.26611328125 -2.3388671875
-60.46630859375 -34.96728515625 29.208740234375
2.16552734375 -19.8443603515625 11.24853515625
65.592529296875 -50.8173828125 11.703369140625
66.41064453125 -11.88623046875 -15.2344970703125
57.02490234375 -18.850830078125 3.3663330078125
-33.16552734375 -14.06591796875 3.3238525390625
16.919921875 12.1387939453125 10.059814453125
83.333251953125 -7.07080078125 -19.037353515625
84.259765625 -25.000732421875 -2.35009765625
84.55029296875 -12.7484130859375 -17.559814453125
-26.916259765625 31.410400390625 1.2703857421875
-19.814208984375 -10.3541259765625 1.2198486328125
86.481201171875 -2.256591796875 -28.8687744140625
-55.62060546875 12.623291015625 2.857666015625
-24.11669921875 -35.74609375 18.46630859375
-15.0029296875 19.98095703125 -13.069091796875
50.182861328125 -19.64599609375 6.90869140625
-54.915771484375 24.1234130859375 4.3662109375
26.25244140625 -19.94970703125 10.31494140625
82.82666015625 -25.8172607421875 0.5784912109375
42.9755859375 -15.4510498046875 4.577392578125
60.583984375 -34.0589599609375 -7.65185546875
-24.937744140625 -50.598876953125 27.681396484375
-75.10302734375 15.8240966796875 15.50146484375
-69.09716796875 -20.1053466796875 13.3267822265625
-79.357421875 -35.1885986328125 29.4190673828125
-90.153076171875 -34.3739013671875 -0.165283203125
-63.338623046875 -21.0428466796875 14.4141845703125
-5.28271484375 -18.115966796875 7.571044921875
79.711669921875 -9.60986328125 -3.5225830078125
57.850830078125 3.9029541015625 -16.4466552734375
62.55078125 31.940673828125 -1.5035400390625
-27.015869140625 12.92138671875 -10.6917724609375
57.519775390625 6.61474609375 -19.5369873046875
-22.2880859375 -54.4256591796875 30.992431640625
43.934326171875 27.744384765625 -20.729736328125
-68.0615234375 9.1004638671875 15.0618896484375
-42.584716796875 4.2696533203125 9.00048828125
71.00830078125 23.2730712890625 -27.322998046875
-55.068603515625 -25.16259765625 18.75341796875
-9.353271484375 39.2589111328125 -0.111572265625
67.052001953125 -21.22412109375 -10.5191650390625
77.06884765625 -10.264892578125 -2.0888671875
-57.718505859375 25.4532470703125 3.339599609375
18.693115234375 -11.47314453125 1.3719482421875
31.771484375 17.9747314453125 -18.2813720703125
-81.19873046875 -32.2987060546875 26.556884765625
-58.591552734375 -33.8704833984375 27.910400390625
11.420166015625 37.8204345703125 -0.8876953125
83.6005859375 -4.894775390625 -8.7413330078125
-17.32666015625 -57.1673583984375 32.897216796875
62.599609375 -3.1334228515625 -17.8792724609375
68.65185546875 -50.388671875 5.186279296875
-32.663330078125 -23.1551513671875 13.3489990234375
-32.178466796875 -18.5133056640625 8.587646484375
85.709228515625 5.8251953125 -32.520263671875
10.695068359375 32.8155517578125 0.2874755859375
56.0283203125 -34.6043701171875 -10.5140380859375
38.667724609375 16.9990234375 -19.8297119140625
30.5126953125 -9.913818359375 -0.923828125
-30.374267578125 -5.9600830078125 -2.6300048828125
-44.96337890625 -24.7398681640625 17.685546875
66.356201171875 29.6629638671875 -28.4979248046875
-53.81591796875 -5.9891357421875 0.3714599609375
21.09423828125 -14.24853515625 4.4637451171875
-45.819091796875 15.7930908203125 3.885009765625
-8.484130859375 -9.2069091796875 -2.9012451171875
-14.468017578125 -14.3541259765625 6.0401611328125
57.59814453125 -46.1524658203125 -3.3499755859375
-81.076904296875 -26.966064453125 20.76416015625
54.741455078125 -55.7318115234375 14.260986328125
58.043701171875 -41.0950927734375 -9.083251953125
65.388427734375 -4.9063720703125 -16.547607421875
68.20263671875 -34.2061767578125 -11.818115234375
-46.263916015625 -5.7498779296875 -1.4827880859375
42.3935546875 -11.4932861328125 0.4700927734375
19.000244140625 -18.605712890625 9.0364990234375
89.85498046875 -14.3353271484375 -24.0018310546875
18.371826171875 25.1204833984375 -18.330810546875
-38.844970703125 -27.11474609375 18.0484619140625
86.38037109375 -5.44970703125 -25.910888671875
-89.175537109375 -46.0863037109375 7.376220703125
37.826416015625 1.9290771484375 -18.4869384765625
81.734619140625 -0.2916259765625 -9.449951171875
-70.115966796875 -32.148681640625 26.462646484375
20.480224609375 -21.4742431640625 12.111083984375
-71.04833984375 -16.5765380859375 10.10009765625
65.2451171875 -38.591552734375 -12.532470703125
19.85302734375 33.6820068359375 0.3507080078125
81.345947265625 -27.77978515625 -3.036865234375
61.37646484375 -47.6033935546875 10.170166015625
-55.42041015625 -17.0869140625 9.94677734375
-22.34228515625 -14.22607421875 3.3223876953125
-32.905517578125 12.29931640625 -8.891845703125
14.304931640625 33.8095703125 0.1055908203125
86.645751953125 -12.2264404296875 -4.333984375
35.200439453125 -28.201416015625 14.3470458984375
