20.6884765625 -68.8951416015625 -19.8438720703125
-16.735595703125 -52.991455078125 -34.6156005859375
-26.7421875 -5.5513916015625 18.5550537109375
-2.4453125 -67.335205078125 -32.0208740234375
-14.626953125 -55.93896484375 -42.32080078125
-8.620361328125 -74.703125 -26.59765625
-17.6865234375 -51.060302734375 -37.907958984375
-9.7568359375 -60.846923828125 -33.300048828125
-2.430908203125 -70.762451171875 -24.20947265625
-5.595703125 -29.90869140625 -10.8162841796875
-18.402099609375 -21.9361572265625 -11.1844482421875
-13.640625 -60.34521484375 -42.22265625
4.405517578125 -20.2567138671875 -10.718017578125
21.787841796875 -20.4249267578125 0.0941162109375
2.420654296875 -21.399169921875 -9.3966064453125
17.791748046875 -23.416259765625 -3.021240234375
29.824951171875 -16.407958984375 3.3782958984375
24.134521484375 2.766357421875 -4.64892578125
24.349365234375 -19.244873046875 1.5753173828125
17.144775390625 -7.380615234375 -11.3350830078125
-24.843505859375 -43.7080078125 -39.3995361328125
-26.09619140625 3.5115966796875 29.1309814453125
-14.702392578125 -30.4412841796875 -10.2901611328125
1.65478515625 -69.7032470703125 -20.2474365234375
-8.946533203125 -62.341552734375 -39.8604736328125
20.875732421875 -69.62158203125 -26.6834716796875
-22.6923828125 -45.7559814453125 -38.1278076171875
1.653076171875 -18.365966796875 -8.7431640625
-16.66552734375 0.257568359375 22.66796875
1.61865234375 -7.4874267578125 17.7255859375
-17.002197265625 -2.9129638671875 23.9495849609375
-2.1513671875 -71.208984375 -27.5718994140625
-18.792236328125 1.4742431640625 20.3526611328125
14.899169921875 -34.24169921875 -15.402587890625
-18.6796875 -63.860107421875 -42.552978515625
18.47265625 0.310302734375 5.125244140625
-16.82080078125 -4.3909912109375 19.51806640625
18.890869140625 -17.7333984375 1.615478515625
19.71240234375 -68.7589111328125 -23.02197265625
-6.178955078125 -63.0113525390625 -40.491455078125
18.106201171875 5.302978515625 30.332275390625
19.2373046875 -26.2265625 -6.27392578125
20.714111328125 -14.6644287109375 3.0899658203125
7.031494140625 -29.543212890625 -9.67431640625
1.615966796875 -22.3343505859375 -13.2445068359375
-1.19091796875 -21.7816162109375 -4.2125244140625
18.827880859375 -32.828125 -14.18310546875
17.400634765625 -67.3310546875 -25.0098876953125
18.974365234375 -65.88134765625 -21.3909912109375
-2.3046875 -63.5145263671875 -31.6151123046875
-17.2060546875 2.7930908203125 23.38818359375
19.65087890625 -70.8577880859375 -25.882568359375
17.257568359375 -75.1588134765625 -8.4898681640625
21.692138671875 -2.978515625 -0.7899169921875
-2.1669921875 -35.239990234375 -15.8216552734375
21.091552734375 -4.76123046875 -1.3697509765625
25.445068359375 -24.6025390625 -4.5220947265625
4.443115234375 -31.101318359375 -11.47607421875
1.20068359375 -19.873779296875 -10.40478515625
17.41552734375 -69.40283203125 -8.31298828125
19.16796875 3.93701171875 3.9822998046875
24.126953125 1.4808349609375 -10.172119140625
7.76611328125 -39.3856201171875 -18.140380859375
7.24951171875 -68.915283203125 -29.15380859375
21.6962890625 14.1885986328125 -5.2503662109375
-22.58154296875 8.21337890625 23.0166015625
6.651611328125 -68.03515625 -21.88232421875
19.020263671875 -4.4482421875 -13.6593017578125
11.19140625 -29.9559326171875 -10.189453125
0.2802734375 -21.86279296875 -0.83837890625
11.943115234375 -77.104248046875 -26.4456787109375
-11.104248046875 -74.3988037109375 -24.018310546875
6.601318359375 -32.6607666015625 -13.3966064453125
22.468994140625 6.7137451171875 -1.1453857421875
23.38818359375 10.6923828125 -5.34375
14.100341796875 -30.9432373046875 -11.800537109375
21.228759765625 9.590087890625 -0.7060546875
-1.801513671875 -69.2716064453125 -34.18408203125
15.964599609375 -62.0810546875 -19.2115478515625
21.754150390625 -74.544921875 -22.1458740234375
2.97607421875 -59.421875 -19.3717041015625
22.404296875 -67.3046875 -20.841552734375
20.892822265625 -3.95361328125 -10.98388671875
7.00634765625 -47.4617919921875 -18.8780517578125
23.843017578125 8.65087890625 -5.8031005859375
10.26953125 -60.760498046875 -19.2882080078125
7.031494140625 -51.406494140625 -18.90673828125
17.804443359375 1.9228515625 32.0390625
14.82373046875 -39.1163330078125 -18.156005859375
20.9990234375 -70.7235107421875 -22.83935546875
11.483642578125 -28.2445068359375 -5.51416015625
-18.780029296875 -24.62646484375 -14.1973876953125
-25.07177734375 -45.69873046875 -43.239501953125
18.501953125 -73.0692138671875 -8.3070068359375
16.572021484375 -4.527587890625 33.3673095703125
6.097412109375 -69.239501953125 -36.4703369140625
-24.409423828125 -46.38134765625 -36.7882080078125
-5.721923828125 -73.1226806640625 -28.383544921875
18.150390625 -34.4879150390625 -15.7393798828125
13.679443359375 -23.17626953125 -0.8995361328125
7.377685546875 -38.0213623046875 -23.1942138671875
27.21484375 -44.22900390625 10.10400390625
26.633056640625 -37.4822998046875 -17.73828125
2.46142578125 -40.9718017578125 -19.1226806640625
4.764892578125 -61.79833984375 -19.1959228515625
4.564208984375 -66.8858642578125 -25.4212646484375
-18.236328125 -27.5404052734375 -11.7740478515625
9.78955078125 -53.792236328125 -18.923828125
3.19189453125 -67.5775146484375 -39.6331787109375
-23.56689453125 3.4166259765625 16.9398193359375
20.65087890625 -12.236083984375 0.67041015625
26.763671875 -31.73974609375 -12.9024658203125
24.468505859375 -33.1033935546875 -14.1512451171875
-16.297119140625 -27.292236328125 -7.8858642578125
16.398193359375 -58.8126220703125 -18.8177490234375
5.373291015625 -39.609619140625 -18.2032470703125
19.658935546875 2.2257080078125 3.7149658203125
-2.6962890625 -63.0927734375 -36.2060546875
6.478515625 -65.00244140625 -19.437744140625
18.1025390625 12.59765625 -0.4163818359375
24.183349609375 -70.5662841796875 -18.342529296875
7.436279296875 -57.3135986328125 -19.1895751953125
10.9052734375 -41.115478515625 -18.0888671875
-15.238037109375 -5.31201171875 18.40087890625
2.54833984375 -47.38720703125 -19.5220947265625
0.62255859375 -68.8184814453125 -23.0313720703125
16.2216796875 -24.7027587890625 -5.3536376953125
12.69482421875 -32.388671875 -13.260009765625
18.505859375 -68.658447265625 -24.326416015625
-21.718017578125 -48.1990966796875 -43.5986328125
5.932373046875 -24.349853515625 -6.4248046875
-18.465576171875 -31.3428955078125 -12.712646484375
19.317626953125 -8.3485107421875 -5.3779296875
20.078369140625 -71.912841796875 -24.52392578125
-6.26708984375 -61.6575927734375 -32.826904296875
19.102783203125 -71.7734375 -27.697998046875
20.238037109375 -4.63134765625 4.78759765625
6.3271484375 -27.6322021484375 -6.9334716796875
-19.232177734375 -22.2418212890625 -6.262939453125
-15.087890625 -54.31787109375 -41.0455322265625
14.600830078125 -14.3851318359375 -4.8370361328125
15.080078125 -71.5433349609375 -28.5137939453125
5.166748046875 -34.1236572265625 -14.87353515625
-4.320068359375 -61.2318115234375 -31.118896484375
-3.347412109375 -39.4444580078125 -17.985107421875
-3.565185546875 -31.474853515625 -11.498291015625
18.183837890625 -61.8033447265625 -17.894775390625
22.591064453125 -37.5045166015625 -17.4696044921875
8.710693359375 -29.373046875 -5.2161865234375
8.967529296875 -42.1259765625 -18.365966796875
20.286865234375 -1.41455078125 3.3248291015625
18.101318359375 -6.47021484375 9.7509765625
15.296630859375 -65.76708984375 -22.52001953125
-3.383056640625 -64.2606201171875 -39.7989501953125
23.29638671875 7.340087890625 -2.9862060546875
21.37548828125 -34.732177734375 -16.073486328125
10.20654296875 -48.7833251953125 -18.6195068359375
21.46826171875 -64.535400390625 -18.548095703125
9.008544921875 -73.469482421875 -33.0802001953125
-21.19775390625 -33.50537109375 -13.2093505859375
-0.344970703125 -34.7227783203125 -15.708740234375
-16.194091796875 -51.9024658203125 -38.296875
24.269287109375 1.3114013671875 -6.6549072265625
-14.5244140625 -55.120849609375 -34.5640869140625
20.046630859375 -6.878173828125 6.9385986328125
21.428955078125 -11.1944580078125 8.9464111328125
-21.792724609375 -46.1468505859375 -40.64404296875
-19.6181640625 4.1094970703125 25.9100341796875
6.454833984375 -60.96484375 -19.406982421875
19.32373046875 -3.38134765625 6.1915283203125
21.471923828125 -6.9945068359375 3.599365234375
-27.4375 -41.67919921875 -41.510009765625
19.349365234375 -12.380126953125 -2.27392578125
0.0859375 -38.151123046875 -17.4517822265625
23.760009765625 -75.9013671875 -21.02099609375
-18.5244140625 -49.210693359375 -39.0546875
-23.407958984375 -20.1246337890625 -11.1644287109375
25.1953125 -45.81884765625 8.5457763671875
22.718017578125 -1.2332763671875 -11.7901611328125
-20.009521484375 -0.0069580078125 19.8017578125
9.056884765625 -72.291748046875 -27.8544921875
-20.089111328125 -25.8446044921875 -14.574462890625
-18.809814453125 6.1983642578125 19.7039794921875
3.284912109375 -25.060546875 -9.923828125
12.466064453125 -34.134033203125 -15.2098388671875
17.698486328125 -45.1556396484375 -33.140869140625
22.84228515625 -53.4423828125 -19.5286865234375
-20.748046875 -3.6275634765625 19.3779296875
-19.444580078125 -22.9619140625 -14.443115234375
9.405517578125 -75.152099609375 -29.7567138671875
13.27490234375 -73.2410888671875 -28.1236572265625
-13.063232421875 -55.0523681640625 -36.6673583984375
3.720703125 -21.375244140625 -0.8408203125
-0.856201171875 -31.91845703125 -12.5863037109375
-28.237060546875 -40.9554443359375 -39.9925537109375
22.14453125 9.9073486328125 -2.782958984375
15.1181640625 -37.0645751953125 -17.19140625
-2.30419921875 -63.0018310546875 -34.1627197265625
27.187255859375 -18.6124267578125 2.5146484375
-11.9853515625 -56.484130859375 -36.5614013671875
-5.62353515625 -71.7596435546875 -21.841064453125
16.9541015625 -32.31396484375 -13.5992431640625
7.662353515625 -71.7059326171875 -35.632568359375
17.134033203125 3.007080078125 30.363037109375
21.2177734375 -15.926513671875 4.1998291015625
-13.274658203125 -57.0479736328125 -33.1583251953125
8.591064453125 -73.5421142578125 -29.947509765625
24.018310546875 -68.8076171875 -22.9407958984375
16.413330078125 -3.5299072265625 9.3974609375
7.455078125 -70.56494140625 -28.5374755859375
12.409912109375 -64.4022216796875 -20.1231689453125
-3.3232421875 -21.3992919921875 -4.1285400390625
5.517333984375 -66.80029296875 -28.36962890625
19.45068359375 14.7423095703125 -2.78955078125
23.513671875 -45.5582275390625 8.891357421875
14.49609375 -29.0384521484375 -9.33154296875
21.20654296875 8.028564453125 0.0059814453125
20.675537109375 12.6402587890625 -2.2513427734375
19.3212890625 -62.6158447265625 -20.368408203125
-5.292724609375 -72.4698486328125 -24.246826171875
6.731201171875 -28.1307373046875 -4.153076171875
23.884033203125 -53.099609375 6.70751953125
8.320556640625 -23.796875 -2.83935546875
16.02294921875 -69.931640625 -6.3388671875
17.15576171875 -55.38623046875 -19.138427734375
-14.20556640625 -54.279541015625 -39.3741455078125
4.15869140625 -50.55517578125 -19.1328125
21.018798828125 -6.9478759765625 -2.57421875
3.304443359375 -42.630126953125 -20.1346435546875
20.343505859375 -25.34716796875 -4.9432373046875
19.12109375 -29.83642578125 -10.470947265625
2.73974609375 -32.41552734375 -13.2369384765625
-14.736572265625 -24.9271240234375 -1.9219970703125
-1.931640625 -7.593505859375 18.064453125
24.068115234375 -68.044677734375 -17.976806640625
25.31982421875 -21.1766357421875 -0.2672119140625
27.333251953125 -20.869140625 -0.534423828125
27.061767578125 -26.837158203125 -7.02880859375
19.388427734375 -6.666259765625 -8.7808837890625
17.429443359375 -1.173095703125 6.6898193359375
11.669921875 -70.7093505859375 -27.7579345703125
-10.05224609375 -64.3031005859375 -40.810791015625
19.0673828125 -6.0426025390625 -10.3372802734375
23.265380859375 -32.114990234375 -13.23095703125
29.29638671875 -30.529052734375 -11.3868408203125
8.2890625 -31.35205078125 -11.6435546875
-16.61572265625 -52.0865478515625 -40.9315185546875
10.123779296875 -32.35498046875 -13.0145263671875
22.8251953125 -26.571533203125 -6.414794921875
-15.754150390625 -61.529296875 -43.17236328125
7.678466796875 -70.169921875 -25.6051025390625
-24.040283203125 -44.1029052734375 -41.2867431640625
18.337646484375 -70.5826416015625 -28.716064453125
2.843994140625 -21.4600830078125 -12.5076904296875
23.25634765625 -18.3590087890625 4.0260009765625
1.185791015625 -35.88720703125 -16.3685302734375
-10.568115234375 -59.23095703125 -33.4906005859375
-21.88134765625 -48.5882568359375 -35.852294921875
23.642822265625 -29.448974609375 -9.7828369140625
22.120849609375 0.3406982421875 -0.2767333984375
5.71923828125 -23.2401123046875 -1.1488037109375
13.9052734375 -27.7613525390625 -6.4873046875
-21.76904296875 -30.6788330078125 -13.4273681640625
3.86376953125 -23.4674072265625 -8.305908203125
19.818115234375 -23.000244140625 -2.0953369140625
2.294189453125 -64.3348388671875 -19.3836669921875
-1.18408203125 -62.373046875 -19.1378173828125
-18.767333984375 2.6668701171875 18.751708984375
4.601318359375 -21.7894287109375 -10.08984375
-7.87109375 -62.07421875 -33.0712890625
-1.421630859375 -19.798583984375 -10.1485595703125
2.07470703125 -67.84423828125 -19.4959716796875
16.624755859375 -0.9439697265625 31.36083984375
23.826416015625 -42.8133544921875 13.059326171875
-23.58251953125 -50.6510009765625 -44.9493408203125
13.5341796875 -60.5845947265625 -19.366455078125
-0.7763671875 -23.3043212890625 -14.3203125
24.88525390625 -30.8343505859375 -11.514404296875
18.39990234375 -11.5272216796875 -4.3565673828125
20.02392578125 -32.250244140625 -13.08544921875
29.1201171875 -32.6287841796875 -14.09765625
7.2333984375 -21.81298828125 -0.3302001953125
-2.065673828125 -65.234619140625 -32.21728515625
0.19775390625 -18.5013427734375 -7.775634765625
-5.656982421875 -62.497802734375 -38.860107421875
-18.783935546875 4.025390625 24.1097412109375
21.691162109375 -0.7818603515625 1.0155029296875
-12.623046875 -73.56787109375 -23.6016845703125
24.581787109375 4.3507080078125 -10.419677734375
20.405517578125 6.0809326171875 1.6107177734375
-6.954833984375 -61.7989501953125 -28.989990234375
11.051025390625 -22.1048583984375 -0.547607421875
23.308837890625 -34.7652587890625 -15.8851318359375
1.334228515625 -30.366455078125 -11.5877685546875
-22.136474609375 -4.693115234375 17.4671630859375
-21.6875 -24.9302978515625 -16.3145751953125
22.5546875 -68.940673828125 -19.5966796875
-4.057861328125 -68.1015625 -40.438720703125
-13.70263671875 -57.298828125 -40.378173828125
2.377685546875 -21.1055908203125 -6.4129638671875
21.2353515625 -13.0101318359375 5.8470458984375
-20.019775390625 -48.364990234375 -38.6666259765625
25.244140625 -74.323974609375 -20.142822265625
-18.78662109375 -52.83447265625 -41.0323486328125
-1.88818359375 -70.1510009765625 -30.614501953125
21.014892578125 -19.6976318359375 2.20751953125
21.353515625 -2.0064697265625 -13.9119873046875
18.7802734375 -45.9044189453125 -34.358642578125
-2.52197265625 -64.2821044921875 -30.191162109375
21.385009765625 2.6763916015625 1.074951171875
16.946044921875 -16.3890380859375 -2.782470703125
-26.810302734375 -20.2396240234375 -12.2891845703125
13.855224609375 -19.9390869140625 -0.8477783203125
-21.757080078125 -49.833251953125 -41.7470703125
16.721435546875 -13.3321533203125 -4.700439453125
-25.010498046875 -19.2279052734375 -10.0977783203125
-19.487060546875 -50.5518798828125 -35.251220703125
-18.450439453125 -25.2220458984375 -11.957763671875
10.662353515625 -37.3326416015625 -17.4002685546875
25.50927734375 -51.105712890625 -19.11083984375
8.98095703125 -35.5528564453125 -16.2532958984375
13.328125 -39.7840576171875 -17.991943359375
-23.224609375 4.653076171875 27.7039794921875
9.876708984375 -65.129638671875 -19.7694091796875
8.04736328125 -29.491455078125 -1.9742431640625
15.976806640625 -67.0009765625 -26.0218505859375
11.0986328125 -74.4779052734375 -27.7655029296875
1.020751953125 -68.7540283203125 -34.7802734375
-10.330322265625 -60.840087890625 -40.84228515625
-30.394775390625 -63.048583984375 -46.7198486328125
-2.712158203125 -65.806640625 -37.7806396484375
-1.1044921875 -29.1378173828125 -11.351806640625
19.0908203125 -53.613037109375 -19.026611328125
7.596923828125 -69.5548095703125 -21.731689453125
20.498779296875 1.938232421875 2.38525390625
-24.526123046875 -47.9766845703125 -44.4049072265625
-2.28271484375 -59.1141357421875 -19.333740234375
6.939208984375 -67.7333984375 -25.3779296875
2.7216796875 -67.9005126953125 -34.9468994140625
20.628662109375 -36.38525390625 -17.01708984375
-16.228759765625 -29.66259765625 -10.458984375
17.633056640625 1.5394287109375 5.912841796875
4.4189453125 -67.9539794921875 -18.9990234375
-25.135009765625 -38.369873046875 -8.1168212890625
14.8681640625 -22.0050048828125 -0.5660400390625
2.8115234375 -34.7357177734375 -15.7554931640625
-11.825927734375 -73.915283203125 -25.5577392578125
16.710205078125 -26.173095703125 -6.0078125
14.89697265625 -58.4832763671875 -19.19775390625
16.93994140625 -27.9830322265625 -8.3284912109375
0.713134765625 -68.9964599609375 -21.4617919921875
24.541748046875 1.9808349609375 -8.0614013671875
24.2392578125 -52.744384765625 -19.07373046875
-20.69677734375 -51.84765625 -43.6573486328125
18.426513671875 -69.0260009765625 -28.462158203125
24.423095703125 4.9971923828125 -6.7569580078125
20.80126953125 -10.501953125 6.501953125
23.61279296875 1.5589599609375 -12.4012451171875
-20.532958984375 -47.0816650390625 -40.3631591796875
0.177734375 -57.3427734375 -18.9739990234375
20.51611328125 -47.4346923828125 7.9351806640625
20.291259765625 -3.56689453125 -12.9932861328125
28.265380859375 -25.8890380859375 -5.756591796875
-0.65185546875 -19.554443359375 -6.1065673828125
-19.206787109375 -1.584716796875 20.0191650390625
22.817626953125 -49.8394775390625 7.06298828125
28.810302734375 -36.963134765625 -17.4366455078125
18.09814453125 17.0467529296875 -3.6416015625
14.28759765625 -66.9658203125 -23.5830078125
6.171630859375 -25.3140869140625 -3.80078125
-4.442626953125 -67.7398681640625 -19.8154296875
21.14599609375 -3.696044921875 1.91650390625
21.522705078125 -30.7396240234375 -11.684814453125
5.666259765625 -41.99365234375 -19.2374267578125
-15.305419921875 -53.013671875 -37.3077392578125
-14.5830078125 -3.303466796875 20.2266845703125
9.329833984375 -28.178466796875 -4.4295654296875
24.728271484375 -22.818359375 -2.4066162109375
21.611328125 -45.0626220703125 9.5406494140625
-21.299072265625 -46.9327392578125 -37.515380859375
22.407470703125 -2.87255859375 -3.9566650390625
20.9990234375 -77.2698974609375 -20.7901611328125
-3.97412109375 -64.4404296875 -20.004638671875
-24.391357421875 -21.2822265625 -12.86669921875
1.269775390625 -39.1595458984375 -17.769287109375
-17.856201171875 -24.0467529296875 -4.882568359375
-1.010986328125 -64.3271484375 -34.725341796875
18.072509765625 -36.7568359375 -16.9866943359375
10.16943359375 -62.3201904296875 -19.532470703125
0.274169921875 -69.3111572265625 -25.94921875
-28.061279296875 3.28369140625 28.111328125
-8.619140625 -61.0223388671875 -35.9117431640625
26.72216796875 -52.4891357421875 6.48876953125
20.2158203125 -7.0931396484375 -5.3154296875
7.886962890625 -33.2735595703125 -14.1336669921875
24.039794921875 3.8291015625 -3.4317626953125
-2.5224609375 -67.98046875 -34.62890625
-24.298095703125 -22.7408447265625 -13.7938232421875
4.12451171875 -65.9713134765625 -19.379638671875
-19.650390625 -22.4566650390625 -8.928955078125
-17.395263671875 -3.656005859375 22.6593017578125
11.293212890625 -55.9886474609375 -19.0360107421875
-5.44921875 -62.424072265625 -35.5623779296875
-19.47412109375 -20.5118408203125 -11.289794921875
-19.923095703125 -37.4989013671875 -7.8409423828125
-4.239501953125 -61.9122314453125 -26.9993896484375
15.828125 -12.6783447265625 -5.8516845703125
-8.16552734375 -69.2022705078125 -23.1641845703125
26.03955078125 -49.307373046875 7.07568359375
-30.33154296875 -61.1080322265625 -46.17138671875
-17.056884765625 -0.481689453125 21.3824462890625
25.616455078125 -18.9964599609375 2.4022216796875
-3.779052734375 -63.2032470703125 -28.65576171875
16.3232421875 -0.743408203125 7.764404296875
-19.50732421875 -32.4188232421875 -13.18359375
-16.909912109375 -32.9874267578125 -10.7862548828125
-24.462646484375 -46.9820556640625 -42.171142578125
4.798583984375 -66.9278564453125 -37.0194091796875
12.06787109375 -66.9603271484375 -21.32470703125
-26.45947265625 -45.2191162109375 -36.98046875
-8.363037109375 -63.7197265625 -39.3782958984375
-25.925048828125 7.4739990234375 21.556884765625
-17.0576171875 -53.5826416015625 -42.083251953125
-12.18115234375 -57.15771484375 -34.5545654296875
-12.56884765625 -58.8065185546875 -41.484130859375
-7.838134765625 -62.537353515625 -38.4844970703125
3.18359375 -52.2989501953125 -18.8524169921875
4.768310546875 -68.3912353515625 -22.983642578125
5.456298828125 -29.970458984375 -10.4432373046875
2.71826171875 -24.7354736328125 -13.217529296875
-19.8994140625 -23.149658203125 -7.462890625
-19.34326171875 -53.10595703125 -43.630126953125
-26.8369140625 -22.291259765625 -14.6168212890625
-21.544921875 4.4329833984375 18.364990234375
3.934814453125 -66.8541259765625 -32.9453125
3.134765625 -26.6383056640625 -10.73046875
-16.176025390625 -26.70556640625 -6.4910888671875
-1.387939453125 -62.2188720703125 -32.6583251953125
-3.6474609375 -50.2203369140625 -19.495849609375
-20.772705078125 7.836181640625 22.63525390625
-4.578125 -63.411376953125 -41.283447265625
-8.84765625 -73.4320068359375 -27.447021484375
19.0 -51.5335693359375 6.8575439453125
6.66796875 -41.359130859375 -23.5106201171875
23.19091796875 -43.401123046875 11.5101318359375
19.401123046875 -15.779541015625 0.6865234375
22.615234375 -20.091796875 1.3145751953125
-20.3271484375 -51.7384033203125 -34.2471923828125
5.4169921875 -66.9232177734375 -33.4969482421875
-26.079833984375 5.66015625 18.8978271484375
26.077880859375 -43.54833984375 10.827392578125
22.090087890625 -71.719482421875 -22.52880859375
3.8017578125 -67.3885498046875 -38.265380859375
0.270751953125 -53.9757080078125 -18.8184814453125
20.412841796875 15.1373291015625 -4.3035888671875
5.443359375 -44.4007568359375 -20.46923828125
6.873046875 -62.5042724609375 -19.454345703125
7.569580078125 -55.0283203125 -19.116455078125
-14.763427734375 -59.325927734375 -42.544677734375
-0.46630859375 -67.080810546875 -19.4814453125
-1.177490234375 -50.28369140625 -19.04833984375
9.043701171875 -23.5338134765625 -1.547119140625
-3.827392578125 -35.2755126953125 -15.7752685546875
0.1884765625 -69.237548828125 -33.3157958984375
-3.402587890625 -67.49560546875 -38.8447265625
-18.486083984375 -33.7603759765625 -11.8380126953125
-0.847412109375 -40.257568359375 -18.0028076171875
27.929931640625 -20.011474609375 0.5963134765625
-3.67626953125 -33.1737060546875 -13.533447265625
16.2236328125 -10.8233642578125 -6.706787109375
-23.413330078125 -31.0323486328125 -13.6319580078125
25.15869140625 -54.2115478515625 -18.9273681640625
1.28515625 -22.742431640625 -2.0843505859375
17.312744140625 -66.535888671875 -23.348876953125
18.55908203125 11.030029296875 0.4730224609375
17.383544921875 -63.37158203125 -21.028564453125
-23.7431640625 -3.7645263671875 18.5906982421875
-8.71142578125 -70.262451171875 -22.2093505859375
-5.00537109375 -64.911865234375 -42.4298095703125
25.0625 -72.612060546875 -20.1846923828125
17.2939453125 -17.62841796875 -0.44140625
1.19091796875 -68.3546142578125 -40.3505859375
15.197021484375 -69.2357177734375 -28.421630859375
0.669677734375 -29.0352783203125 -11.4537353515625
13.2314453125 -28.42431640625 -8.593505859375
4.93115234375 -25.5870361328125 -5.2850341796875
4.729248046875 -53.7760009765625 -19.13623046875
21.239501953125 -11.567626953125 3.35595703125
-23.47021484375 7.879638671875 21.7515869140625
5.787109375 -57.39501953125 -19.1500244140625
4.366455078125 -41.5623779296875 -20.285400390625
20.469482421875 -8.5975341796875 7.28857421875
3.518310546875 -23.6861572265625 -11.5186767578125
5.608642578125 -31.79833984375 -12.1717529296875
5.68505859375 -48.39599609375 -19.0093994140625
-22.550048828125 -39.6268310546875 -8.3687744140625
17.818115234375 -40.208984375 -18.2275390625
-4.01123046875 -22.8021240234375 -3.3193359375
0.2041015625 -33.5047607421875 -14.274658203125
18.024169921875 -8.49267578125 -8.3033447265625
4.963623046875 -28.478271484375 -9.7786865234375
18.433837890625 -4.43212890625 7.90673828125
-5.120849609375 -33.1297607421875 -14.16064453125
-20.440185546875 -29.124267578125 -13.4364013671875
14.4560546875 -32.194091796875 -12.7845458984375
18.86083984375 -38.773681640625 -18.1787109375
-4.541259765625 -61.995849609375 -29.6929931640625
-2.891357421875 -62.1396484375 -32.102294921875
-2.036376953125 -31.528076171875 -11.5064697265625
22.982666015625 -1.30615234375 -5.087646484375
15.958740234375 -29.0947265625 -9.3433837890625
-18.74658203125 5.804931640625 21.6983642578125
16.9521484375 -8.672607421875 -9.788818359375
14.74609375 -2.903564453125 9.357421875
-1.724365234375 -52.8363037109375 -18.985107421875
22.9248046875 0.389892578125 -13.115478515625
-2.08740234375 -21.875 -12.552490234375
-2.0986328125 -41.8177490234375 -18.0068359375
16.341064453125 -26.892578125 -7.2542724609375
8.303466796875 -40.7965087890625 -18.230712890625
5.409423828125 -36.270751953125 -16.8538818359375
-20.704345703125 -20.0953369140625 -10.1929931640625
1.658203125 -21.784912109375 -5.1669921875
2.530517578125 -29.5584716796875 -11.427490234375
28.8134765625 -35.4962158203125 -16.600830078125
-19.8876953125 -27.34521484375 -13.3389892578125
23.472900390625 -70.104248046875 -19.822509765625
21.41064453125 -5.41064453125 -3.063720703125
16.161865234375 16.6810302734375 -2.475830078125
-0.767578125 -63.9296875 -19.1854248046875
22.47509765625 -1.6407470703125 -2.219482421875
-14.263671875 -28.9720458984375 -9.1737060546875
-21.092529296875 -32.046875 -13.5655517578125
10.02490234375 -52.48974609375 -18.351318359375
5.83154296875 -26.3282470703125 -8.0528564453125
21.1015625 -33.0177001953125 -14.3323974609375
6.673828125 -27.6044921875 -5.4923095703125
11.129150390625 -54.297119140625 -19.079345703125
12.923828125 -54.054443359375 -18.583740234375
7.586181640625 -70.953125 -30.004638671875
13.06787109375 -68.2706298828125 -23.978271484375
16.486083984375 -19.8353271484375 0.0125732421875
11.978759765625 -35.2486572265625 -16.050537109375
-8.4443359375 -75.220458984375 -25.2706298828125
-12.518310546875 -61.364013671875 -41.900634765625
0.362548828125 -68.835205078125 -38.9051513671875
-20.663818359375 6.9925537109375 20.9300537109375
22.70166015625 -78.555908203125 -20.53271484375
-8.138671875 -73.4227294921875 -24.4560546875
13.87841796875 -29.91845703125 -10.490234375
22.091796875 -4.4178466796875 -4.075927734375
-6.633544921875 -69.802734375 -21.1353759765625
-22.701171875 5.1444091796875 26.4598388671875
23.460205078125 11.5726318359375 -6.463623046875
-6.98828125 -66.090576171875 -43.9971923828125
-21.345458984375 -40.75732421875 -9.307861328125
-24.950927734375 -24.1588134765625 -16.4439697265625
25.4228515625 -51.2591552734375 6.48779296875
6.222900390625 -68.6693115234375 -35.09619140625
-6.200439453125 -64.7275390625 -43.1795654296875
23.655517578125 -27.4991455078125 -7.573974609375
18.803955078125 -27.7205810546875 -7.912109375
25.79345703125 -69.720703125 -18.5528564453125
-18.040771484375 3.150634765625 21.9215087890625
3.63671875 -69.1396484375 -21.98876953125
-19.850341796875 -54.5277099609375 -43.5745849609375
-17.419189453125 -56.067626953125 -42.7525634765625
26.238525390625 -42.580810546875 12.38916015625
21.656982421875 -50.693359375 6.93994140625
-11.216552734375 -63.7008056640625 -41.3482666015625
-16.06494140625 -25.298095703125 -4.03955078125
22.211669921875 -47.6927490234375 7.590087890625
-14.632080078125 -24.311767578125 -3.3470458984375
1.07177734375 -51.2496337890625 -18.972900390625
16.783447265625 -34.7530517578125 -15.9842529296875
10.95458984375 -34.4808349609375 -15.4102783203125
-4.2802734375 -71.3582763671875 -19.681640625
-18.358154296875 -24.755859375 -8.3525390625
27.680419921875 -24.812744140625 -4.6964111328125
8.880859375 -62.8853759765625 -19.45849609375
-18.004150390625 -2.120361328125 21.1239013671875
24.212890625 5.9888916015625 -5.4990234375
-23.680419921875 -44.6458740234375 -38.489990234375
-4.967041015625 -62.3236083984375 -34.1409912109375
19.642333984375 -28.6517333984375 -9.0755615234375
-27.37744140625 -31.7484130859375 -13.5948486328125
-2.578369140625 -65.6185302734375 -19.3936767578125
13.80810546875 -36.54736328125 -17.036376953125
21.084228515625 -38.2452392578125 -17.87255859375
-10.335205078125 -73.76123046875 -23.0394287109375
26.998046875 -22.650390625 -2.392333984375
22.38330078125 -30.0130615234375 -10.259033203125
-22.562255859375 -2.9678955078125 19.3514404296875
25.46923828125 -38.3680419921875 -18.470458984375
18.341552734375 14.823486328125 -1.946044921875
4.586181640625 -67.65625 -39.5506591796875
3.04443359375 -36.08642578125 -16.70849609375
16.47119140625 -71.21337890625 -7.99951171875
20.107421875 -9.2872314453125 9.3822021484375
23.748779296875 -36.3121337890625 -17.10205078125
24.2626953125 6.6710205078125 -8.31298828125
12.28173828125 -58.2103271484375 -19.3441162109375
21.207275390625 -28.63037109375 -9.1339111328125
-21.266845703125 2.3485107421875 16.9500732421875
-21.229248046875 -20.941650390625 -8.634521484375
-7.3408203125 -68.1107177734375 -26.04052734375
-21.012939453125 -4.6007080078125 18.4306640625
22.286376953125 -66.9195556640625 -19.38916015625
-21.333740234375 -23.1435546875 -14.9376220703125
20.375732421875 -64.016845703125 -20.2647705078125
6.723876953125 -68.4654541015625 -27.9326171875
-22.744140625 6.109619140625 20.7686767578125
-17.923583984375 -53.3721923828125 -34.0230712890625
-4.837890625 -30.946533203125 -11.96484375
-22.44921875 -50.194580078125 -44.3065185546875
20.892333984375 -44.359375 11.0897216796875
-2.91015625 -68.48779296875 -19.6346435546875
-6.914794921875 -62.7509765625 -35.8533935546875
9.284423828125 -33.0081787109375 -13.8895263671875
3.50439453125 -22.396484375 -9.0928955078125
3.91455078125 -23.303466796875 -3.77880859375
20.377197265625 -74.1422119140625 -22.576171875
-7.268798828125 -70.179443359375 -29.031005859375
24.93212890625 -25.775146484375 -5.9034423828125
-19.9716796875 -49.5032958984375 -35.995361328125
3.027587890625 -56.7935791015625 -19.0439453125
-25.838134765625 -46.3021240234375 -44.2158203125
-6.416015625 -73.30517578125 -24.4854736328125
-1.138916015625 -37.5428466796875 -17.3394775390625
-26.383056640625 -44.0244140625 -43.0501708984375
7.0654296875 -28.657470703125 -8.0692138671875
17.759521484375 -67.207763671875 -26.9183349609375
21.460205078125 -2.632080078125 0.664794921875
28.0537109375 -33.809326171875 -15.061767578125
8.399658203125 -60.287353515625 -19.3289794921875
-21.22216796875 -26.581787109375 -14.791748046875
-22.10546875 -19.5384521484375 -10.0234375
20.866455078125 -16.932861328125 3.3408203125
14.496337890625 -65.9073486328125 -21.419921875
6.077392578125 -68.2408447265625 -37.575927734375
26.41845703125 -68.5345458984375 -18.9456787109375
-6.397216796875 -66.784423828125 -27.1138916015625
-4.5302734375 -69.0670166015625 -30.3695068359375
-2.03857421875 -67.8812255859375 -33.20458984375
16.01123046875 -37.90771484375 -17.7830810546875
-3.57958984375 -70.60009765625 -30.2198486328125
8.79443359375 -71.0352783203125 -23.482177734375
-3.26123046875 -63.354248046875 -38.7886962890625
3.037353515625 -67.5675048828125 -24.6812744140625
23.220947265625 -70.7593994140625 -21.1431884765625
2.898681640625 -69.95263671875 -20.7421875
17.59326171875 -72.5625 -7.30078125
-17.116943359375 -25.1943359375 -6.6458740234375
22.824951171875 -51.69287109375 6.6033935546875
1.903564453125 -54.637939453125 -18.687255859375
21.89599609375 -2.650390625 -10.9542236328125
-6.643798828125 -68.2867431640625 -20.8369140625
-11.499267578125 -59.0855712890625 -40.6929931640625
18.9189453125 -7.5966796875 10.1456298828125
-11.242431640625 -58.41796875 -39.34716796875
3.388427734375 -22.8916015625 -6.5106201171875
22.666015625 -21.27099609375 -0.503662109375
23.674072265625 -50.2335205078125 -18.3336181640625
21.62548828125 -9.7020263671875 5.7789306640625
16.97119140625 -2.026611328125 7.6392822265625
-17.271728515625 -27.0062255859375 -9.30224609375
9.206298828125 -57.144775390625 -19.274169921875
23.01123046875 8.7901611328125 -3.000244140625
8.70458984375 -44.1241455078125 -18.765380859375
-19.346435546875 -3.0833740234375 19.82373046875
3.5283203125 -61.2064208984375 -19.083984375
-3.86328125 -40.2713623046875 -19.2249755859375
-10.12939453125 -73.876220703125 -26.1861572265625
19.228515625 -14.678466796875 -0.7578125
15.549560546875 -32.9671630859375 -14.040771484375
21.396728515625 -27.2950439453125 -7.4066162109375
7.193115234375 -68.806640625 -31.904296875
-2.193115234375 -69.1683349609375 -38.4085693359375
-18.96728515625 -5.20263671875 17.745849609375
-7.02783203125 -63.148193359375 -39.4112548828125
7.061767578125 -68.4178466796875 -30.4423828125
17.146240234375 -24.6763916015625 -4.366943359375
1.219482421875 -31.5604248046875 -12.197509765625
20.9033203125 -7.929931640625 4.5899658203125
-3.097900390625 -66.0450439453125 -41.611083984375
-26.232421875 -43.4166259765625 -38.3046875
18.72021484375 -24.6630859375 -4.434814453125
-22.35302734375 -45.669677734375 -39.42529296875
16.222900390625 -30.5155029296875 -11.4666748046875
25.699462890625 -33.7021484375 -14.87109375
24.736083984375 -72.2078857421875 -21.4224853515625
18.92529296875 1.1544189453125 4.186279296875
20.9912109375 -9.9891357421875 0.6048583984375
18.93994140625 -68.5208740234375 -26.857421875
-23.02685546875 6.812744140625 24.802001953125
23.67822265625 -38.569091796875 -18.34326171875
22.139892578125 12.9090576171875 -4.7354736328125
-18.241455078125 -49.8575439453125 -40.1917724609375
6.0341796875 -35.064697265625 -16.0506591796875
20.3173828125 -63.876953125 -17.8572998046875
20.616455078125 -20.79736328125 0.774658203125
-11.963623046875 -35.7930908203125 -10.242919921875
25.969970703125 -46.7498779296875 7.978759765625
20.735107421875 -0.568603515625 2.39111328125
27.751708984375 -32.494873046875 -13.5323486328125
-10.17578125 -59.0281982421875 -38.1859130859375
-9.35595703125 -61.1260986328125 -39.4259033203125
-11.8779296875 -56.9686279296875 -38.6171875
-8.657958984375 -60.439453125 -37.244384765625
6.2958984375 -70.62255859375 -23.09765625
-14.009033203125 -26.7008056640625 -2.906982421875
-13.3134765625 -55.0615234375 -38.75830078125
-9.9287109375 -71.602294921875 -23.261474609375
-13.73486328125 -56.7208251953125 -41.7049560546875
18.076416015625 -63.6099853515625 -16.5496826171875
21.172119140625 -18.7496337890625 3.7376708984375
5.76611328125 -66.4344482421875 -30.624755859375
-16.83056640625 -3.57177734375 20.572509765625
22.2373046875 -22.75439453125 -2.1297607421875
7.042236328125 -28.4991455078125 -2.908203125
26.117431640625 -28.7122802734375 -9.0318603515625
-19.69580078125 4.458740234375 18.192138671875
4.67529296875 -23.0257568359375 -5.85400390625
20.70703125 -5.3238525390625 1.8548583984375
2.3173828125 -26.5870361328125 -11.781494140625
28.04638671875 -30.3134765625 -10.8616943359375
-17.35888671875 -52.0296630859375 -35.3179931640625
8.567626953125 -70.9488525390625 -24.991455078125
19.530517578125 -1.4375 4.4207763671875
18.7314453125 -16.9208984375 0.5394287109375
11.2646484375 -76.2154541015625 -27.73291015625
-16.6650390625 1.6724853515625 22.915283203125
-16.501220703125 2.66015625 24.509521484375
-19.544677734375 -51.9622802734375 -41.6900634765625
17.01171875 -61.2926025390625 -18.989990234375
21.8388671875 -43.2857666015625 11.5068359375
-4.02978515625 -36.6566162109375 -17.561279296875
-17.784912109375 4.384765625 19.6112060546875
-20.796142578125 -25.7113037109375 -15.6993408203125
4.781982421875 -25.12451171875 -9.9346923828125
24.51220703125 -21.8057861328125 -1.1121826171875
26.693115234375 -24.050537109375 -4.05810546875
4.36962890625 -67.13134765625 -35.6942138671875
8.01171875 -70.7430419921875 -31.3427734375
-22.68310546875 -47.6578369140625 -42.6346435546875
2.101318359375 -23.5159912109375 -14.2808837890625
18.151123046875 -56.0633544921875 -18.5816650390625
21.04443359375 4.819091796875 1.4859619140625
24.877685546875 -67.4949951171875 -18.8701171875
-21.02001953125 4.698974609375 26.126953125
24.580810546875 -43.9173583984375 10.678466796875
-11.473388671875 -59.77783203125 -32.6043701171875
11.52294921875 -69.175537109375 -25.623046875
12.233154296875 -22.4166259765625 -1.05322265625
3.58984375 -68.1171875 -40.797607421875
22.501220703125 3.5469970703125 -0.32275390625
-2.01708984375 -33.142578125 -13.5843505859375
18.682861328125 -13.510009765625 -2.42529296875
17.683349609375 -66.015869140625 -15.3111572265625
15.119140625 -62.7742919921875 -20.1058349609375
29.398681640625 -23.478759765625 -3.054443359375
14.419677734375 -64.0380859375 -20.295166015625
-18.0712890625 4.7586669921875 21.1705322265625
6.194580078125 -24.9906005859375 -7.5455322265625
16.827880859375 -5.1759033203125 32.230712890625
-18.700927734375 -24.7857666015625 -9.829833984375
20.1533203125 -46.1591796875 8.938720703125
-5.1513671875 -34.341796875 -15.408935546875
8.105224609375 -71.543701171875 -33.015625
20.085693359375 -11.745361328125 -0.8173828125
12.37353515625 -30.255859375 -10.6805419921875
-26.39306640625 -43.2015380859375 -41.9910888671875
9.203857421875 -38.711181640625 -17.68505859375
11.513427734375 -32.092041015625 -12.77294921875
18.1201171875 6.1180419921875 2.775146484375
15.571533203125 -54.7366943359375 -19.267822265625
20.038330078125 -9.627197265625 -2.84326171875
7.47216796875 -37.013916015625 -17.111572265625
14.78564453125 -35.1124267578125 -16.3753662109375
-4.669189453125 -71.933349609375 -23.2308349609375
17.87548828125 -20.19287109375 0.9805908203125
-2.503662109375 -21.2587890625 -1.267578125
-2.5751953125 -37.8201904296875 -17.5933837890625
3.018798828125 -21.2137451171875 -8.054443359375
4.250732421875 -22.4732666015625 -1.3040771484375
-1.396728515625 -22.0052490234375 -11.4539794921875
5.128662109375 -24.2255859375 -3.52392578125
1.922607421875 -56.1094970703125 -18.9775390625
16.76904296875 -67.3350830078125 -28.515625
-23.88671875 -40.5784912109375 -9.1343994140625
11.30224609375 -24.534912109375 -2.130126953125
-25.27587890625 -39.61962890625 -8.7489013671875
17.776123046875 -16.0577392578125 -1.56005859375
8.866455078125 -29.0823974609375 -6.8468017578125
20.050537109375 -22.0625 -1.1815185546875
-10.96630859375 -58.5029296875 -34.490234375
6.0068359375 -28.8887939453125 -6.8616943359375
11.102783203125 -42.3740234375 -17.841064453125
9.700439453125 -28.6158447265625 -7.7557373046875
8.65625 -30.3162841796875 -10.7574462890625
-4.255859375 -62.78662109375 -20.001953125
4.01416015625 -22.7691650390625 -12.451171875
24.96484375 4.4837646484375 -8.507080078125
23.32470703125 -0.3333740234375 -4.241455078125
10.01513671875 -30.4501953125 -10.7203369140625
17.67236328125 -35.5950927734375 -16.57470703125
22.39697265625 -67.0911865234375 -17.8548583984375
-17.029296875 -0.9847412109375 22.78759765625
18.828369140625 -62.492431640625 -18.7808837890625
21.528564453125 11.795166015625 -2.829833984375
6.541259765625 -38.9931640625 -23.712158203125
23.61572265625 0.191162109375 -10.0194091796875
12.704345703125 -33.1812744140625 -14.2801513671875
7.956298828125 -71.6195068359375 -27.794921875
4.51513671875 -33.41650390625 -13.9891357421875
-2.79052734375 -34.1259765625 -14.724609375
6.076416015625 -45.972412109375 -19.0269775390625
-2.572509765625 -66.1993408203125 -39.24365234375
-19.84033203125 -39.634033203125 -7.99072265625
17.974365234375 -74.196044921875 -7.9324951171875
-2.12353515625 -68.5665283203125 -31.8228759765625
-25.1044921875 -1.3470458984375 19.2540283203125
16.322265625 2.108642578125 29.931884765625
4.94189453125 -24.16064453125 -8.37890625
22.783203125 10.4833984375 -3.9710693359375
-26.26513671875 -21.368896484375 -12.7657470703125
17.194091796875 -22.3251953125 -1.946044921875
1.813232421875 -9.2232666015625 16.5853271484375
5.509033203125 -45.7569580078125 -20.1773681640625
-21.590087890625 -21.57373046875 -12.1444091796875
19.284912109375 -2.5242919921875 5.071533203125
24.96923828125 -19.944091796875 0.702392578125
1.4619140625 -33.71630859375 -14.1856689453125
-15.8388671875 -56.0767822265625 -42.7037353515625
7.230224609375 -31.7703857421875 -12.224853515625
-15.891357421875 -58.63818359375 -42.4962158203125
23.423828125 -74.685791015625 -21.223876953125
0.937744140625 -36.855712890625 -17.3134765625
-22.993896484375 -21.01806640625 -11.977294921875
-6.010009765625 -60.9892578125 -31.479736328125
-10.680908203125 -58.1512451171875 -36.7520751953125
20.52880859375 -2.9910888671875 2.7825927734375
-22.77978515625 -24.126953125 -15.6539306640625
6.6181640625 -68.3028564453125 -20.277099609375
20.9306640625 -11.208740234375 5.448486328125
-10.19091796875 -59.2022705078125 -36.0115966796875
22.220703125 -16.2138671875 4.9312744140625
25.923583984375 -26.53759765625 -6.5413818359375
23.7783203125 -24.6922607421875 -4.40771484375
23.375732421875 -31.2545166015625 -12.2696533203125
1.466552734375 -65.2978515625 -19.319091796875
-25.29248046875 -48.5821533203125 -45.3826904296875
-17.90283203125 0.69482421875 20.9666748046875
2.09326171875 -22.0706787109375 -3.9713134765625
6.398681640625 -23.2554931640625 -2.22216796875
-15.112060546875 -53.0057373046875 -38.56298828125
25.93017578125 -30.0404052734375 -10.749755859375
29.6142578125 -21.7769775390625 -1.1534423828125
-9.632568359375 -60.1534423828125 -38.6607666015625
21.193115234375 -9.4302978515625 4.61181640625
25.602294921875 -32.61376953125 -13.6246337890625
10.398681640625 -67.8084716796875 -21.119873046875
23.9560546875 5.9716796875 -4.26025390625
29.525146484375 -24.178466796875 -4.099609375
-20.3330078125 1.965576171875 17.76318359375
16.80322265625 -9.880859375 -7.6729736328125
-19.590576171875 -22.224609375 -13.344970703125
6.676025390625 -63.751708984375 -19.446044921875
9.759521484375 -36.48388671875 -16.8045654296875
21.16015625 -6.653564453125 2.3892822265625
20.500732421875 -7.3023681640625 0.3282470703125
7.214599609375 -68.7015380859375 -26.1395263671875
17.040283203125 -3.6517333984375 32.346923828125
17.0625 -21.6142578125 -0.8843994140625
-18.203369140625 -22.9439697265625 -5.6961669921875
23.076171875 6.0113525390625 -1.9967041015625
-23.024169921875 -47.6759033203125 -44.0975341796875
-21.13525390625 -0.3961181640625 19.2451171875
-14.191650390625 -54.692138671875 -36.2408447265625
6.75830078125 -69.3050537109375 -34.150634765625
24.91259765625 -47.90966796875 7.608642578125
-16.218017578125 -53.95703125 -40.625244140625
19.926025390625 -10.9471435546875 -1.88134765625
19.093017578125 -18.947021484375 1.878662109375
21.976806640625 -5.40625 -0.2296142578125
-18.8671875 -29.8154296875 -12.670166015625
7.697265625 -70.814453125 -34.0042724609375
23.13427734375 1.8009033203125 -1.797119140625
25.64990234375 -72.093017578125 -19.2039794921875
7.981689453125 -58.7552490234375 -19.2818603515625
20.827880859375 -6.075439453125 -5.7191162109375
22.232177734375 5.656982421875 -0.513671875
-18.707275390625 -51.9296875 -43.355712890625
-2.031005859375 -63.638671875 -35.29736328125
17.45361328125 -6.43017578125 10.81982421875
11.255126953125 -64.880859375 -20.0955810546875
-3.239501953125 -65.3193359375 -40.5206298828125
17.248779296875 -29.3157958984375 -9.8790283203125
-11.3095703125 -61.218994140625 -41.5184326171875
23.596435546875 1.5899658203125 -3.3310546875
25.0244140625 -75.6480712890625 -20.7166748046875
18.6171875 -8.600341796875 -6.6346435546875
8.72705078125 -54.5689697265625 -19.1456298828125
16.2744140625 -18.320068359375 -0.624755859375
4.09130859375 -40.12109375 -18.1275634765625
0.95751953125 -67.1617431640625 -19.4293212890625
16.36181640625 -62.948974609375 -20.0091552734375
-0.846435546875 -32.7242431640625 -13.6234130859375
-6.67529296875 -70.911865234375 -20.5743408203125
20.0478515625 -5.1024169921875 -10.5029296875
22.2431640625 -68.2762451171875 -22.40966796875
20.853271484375 -21.1317138671875 -0.70556640625
24.2451171875 9.095947265625 -6.8907470703125
-2.701416015625 -30.5010986328125 -10.991943359375
19.744384765625 -27.003173828125 -7.1005859375
24.260009765625 2.0728759765625 -5.6749267578125
-22.0498046875 -1.6402587890625 19.1805419921875
-18.910400390625 -36.493896484375 -7.9765625
-27.3486328125 -3.9881591796875 19.90087890625
0.853271484375 -8.4388427734375 16.6240234375
-1.2451171875 -65.03857421875 -19.468994140625
17.37353515625 -14.134033203125 -3.4539794921875
5.966064453125 -66.9664306640625 -25.3603515625
13.205810546875 -63.45458984375 -20.1854248046875
0.421630859375 -22.818603515625 -13.7816162109375
21.036865234375 -10.37109375 3.0933837890625
6.61083984375 -33.4593505859375 -14.4244384765625
5.697509765625 -54.5455322265625 -19.1568603515625
15.080810546875 -57.2601318359375 -19.206298828125
-9.565185546875 -63.199462890625 -40.5006103515625
5.9677734375 -26.368896484375 -5.939697265625
18.31689453125 -2.3128662109375 6.46533203125
13.58984375 -4.104248046875 11.1983642578125
17.20068359375 -31.67236328125 -12.3056640625
8.858642578125 -69.3873291015625 -22.0107421875
5.328369140625 -27.1353759765625 -9.2681884765625
-24.186767578125 -23.573974609375 -15.4910888671875
22.385986328125 -2.621826171875 -7.55419921875
22.2451171875 -32.5263671875 -13.803466796875
27.68505859375 -19.384521484375 1.6925048828125
-17.47705078125 -30.9945068359375 -12.0653076171875
-0.499755859375 -60.016845703125 -18.8643798828125
7.680908203125 -70.65087890625 -27.032958984375
23.79638671875 -72.2591552734375 -22.4385986328125
18.6083984375 -6.1507568359375 -11.6781005859375
14.34033203125 -23.1915283203125 -1.963134765625
3.669677734375 -28.0419921875 -10.8170166015625
22.04296875 -1.759765625 -12.671630859375
-27.991455078125 -41.756591796875 -38.954345703125
25.25244140625 -52.4737548828125 6.5291748046875
-4.3876953125 -69.171142578125 -19.51318359375
20.729736328125 -4.1729736328125 3.043212890625
-4.896484375 -22.146484375 -1.732177734375
28.40185546875 -27.365966796875 -7.802490234375
4.29833984375 -62.895263671875 -19.4771728515625
26.051513671875 -27.2398681640625 -7.590576171875
21.484130859375 -5.890869140625 -1.769287109375
-25.276611328125 -43.40283203125 -40.610107421875
-22.68603515625 -25.5850830078125 -16.5814208984375
7.10595703125 -71.9002685546875 -23.2822265625
5.9599609375 -29.1607666015625 -9.2254638671875
-22.97021484375 -45.86083984375 -40.8096923828125
-23.22900390625 -1.307373046875 19.077392578125
10.00048828125 -71.56787109375 -27.571533203125
-10.798095703125 -61.8228759765625 -31.9930419921875
-5.23876953125 -70.6309814453125 -29.6090087890625
-17.94189453125 -4.7857666015625 18.961181640625
9.418701171875 -66.226806640625 -20.05029296875
16.04833984375 -53.269775390625 -18.7882080078125
5.859619140625 -43.2611083984375 -18.9892578125
3.904541015625 -21.056396484375 -11.92822265625
-16.0 -52.96044921875 -35.669677734375
-8.168212890625 -62.15771484375 -35.75830078125
21.36474609375 -3.7576904296875 0.088623046875
0.047119140625 -20.2645263671875 -10.3604736328125
20.81103515625 -13.5164794921875 3.6712646484375
20.69873046875 0.7666015625 2.644287109375
20.994873046875 -10.9210205078125 7.7734375
22.62109375 -23.60595703125 -2.9075927734375
21.486572265625 -33.86865234375 -15.10888671875
-8.166748046875 -72.614990234375 -28.0513916015625
11.937255859375 -28.9937744140625 -9.07373046875
17.314697265625 -3.7193603515625 8.609130859375
14.21142578125 -26.0316162109375 -5.1663818359375
18.454345703125 16.06591796875 -2.887451171875
22.113525390625 -25.565185546875 -5.3004150390625
19.857177734375 -72.76171875 -23.68994140625
-3.692626953125 -71.0494384765625 -21.1103515625
20.96484375 -4.885986328125 -7.8251953125
22.686767578125 -0.4530029296875 -1.6915283203125
26.277587890625 -17.37353515625 3.91943359375
0.602783203125 -52.3280029296875 -19.2525634765625
23.8642578125 0.849853515625 -5.5589599609375
5.458251953125 -66.9915771484375 -34.701904296875
27.713134765625 -21.71533203125 -1.30712890625
