6.22216796875 -66.264892578125 -17.70654296875
-1.326171875 -18.5062255859375 -3.031494140625
-23.374755859375 8.685546875 10.52880859375
8.2998046875 -82.952392578125 -12.585205078125
18.627197265625 -21.7904052734375 -2.2762451171875
-27.41455078125 -0.4794921875 11.0992431640625
-10.240478515625 -58.0167236328125 -22.79638671875
-14.76953125 22.646484375 17.8304443359375
-23.95703125 -53.1280517578125 -26.6705322265625
7.48193359375 -0.7965087890625 -1.38134765625
24.712646484375 -4.2918701171875 -1.571044921875
14.66845703125 22.0455322265625 23.110107421875
-18.537109375 -61.3975830078125 -24.219482421875
0.128173828125 29.697021484375 10.2015380859375
-13.280517578125 -47.5140380859375 -29.7413330078125
1.95166015625 -26.6568603515625 -4.8802490234375
-26.87158203125 -37.81982421875 -26.0308837890625
-11.926025390625 -59.8006591796875 -14.2974853515625
-21.179931640625 -1.673828125 -1.9381103515625
-7.582763671875 3.12939453125 1.4920654296875
-12.598388671875 30.110107421875 8.157470703125
-1.379150390625 -68.85546875 -16.699951171875
22.027587890625 21.1444091796875 25.66259765625
12.6171875 29.3883056640625 21.858154296875
4.2265625 -13.2469482421875 -2.4874267578125
0.11767578125 -38.106201171875 -10.7825927734375
18.63037109375 -9.201171875 -1.9337158203125
-3.703125 -43.8504638671875 -22.315185546875
6.072998046875 -32.794921875 -6.0810546875
-13.926513671875 12.50439453125 2.980712890625
8.09375 19.0137939453125 21.6817626953125
-5.165771484375 -63.2318115234375 -23.811279296875
-26.154541015625 13.1541748046875 16.7760009765625
13.859619140625 -16.3748779296875 -2.1187744140625
25.68408203125 -21.14111328125 -1.063720703125
0.018310546875 16.973876953125 20.82568359375
-4.57861328125 -29.8729248046875 -6.623779296875
-3.183349609375 20.6080322265625 15.490478515625
-0.445556640625 32.4139404296875 3.609130859375
-15.55419921875 -8.81298828125 -2.3580322265625
-17.451416015625 -15.4302978515625 -2.968505859375
-8.082275390625 -7.6605224609375 -2.276611328125
-21.31591796875 2.180908203125 12.02392578125
-2.412353515625 -0.3104248046875 -0.9495849609375
6.739990234375 -72.9862060546875 -17.4063720703125
-19.8447265625 -48.819580078125 -29.6932373046875
11.605224609375 4.006591796875 1.1585693359375
-23.228515625 -44.99658203125 -25.375244140625
-23.696533203125 -58.00244140625 -21.665283203125
-13.771728515625 -20.7899169921875 -2.8133544921875
-26.196044921875 -46.6483154296875 -19.1141357421875
-9.611328125 -55.628173828125 -28.7396240234375
-13.232177734375 33.860595703125 3.000244140625
-4.065673828125 -12.7493896484375 -2.4324951171875
5.02001953125 -6.7593994140625 -2.0625
-5.86083984375 -53.428466796875 -22.72119140625
-15.552001953125 -39.53466796875 -27.149658203125
18.186279296875 -28.11669921875 -2.634521484375
-18.860107421875 10.51123046875 6.5755615234375
13.083251953125 -3.6883544921875 -1.521240234375
-7.542236328125 -19.39697265625 -2.7957763671875
13.9091796875 -80.7176513671875 -15.7926025390625
-5.0048828125 28.6417236328125 7.0423583984375
-5.186767578125 -65.833740234375 -13.0787353515625
-28.951416015625 -52.128662109375 -23.43701171875
8.4462890625 -27.7734375 -3.8895263671875
-11.865478515625 27.60302734375 16.3062744140625
-7.624267578125 -45.767822265625 -27.0848388671875
11.57666015625 -37.63818359375 -2.647216796875
0.970703125 -64.103759765625 -19.3729248046875
-3.177490234375 -24.4114990234375 -3.010986328125
-15.250732421875 20.3006591796875 12.4644775390625
16.211181640625 25.79248046875 18.9073486328125
-11.636474609375 10.786376953125 8.635009765625
13.42529296875 -24.8428955078125 -2.6181640625
-16.19580078125 35.3114013671875 11.68212890625
18.333251953125 -34.0675048828125 -2.1768798828125
8.528564453125 -78.6212158203125 -16.3623046875
23.763427734375 1.1356201171875 -0.4453125
-13.595458984375 -59.578369140625 -27.0091552734375
19.395751953125 -15.495849609375 -2.23046875
-0.62841796875 26.109130859375 14.31201171875
-24.350830078125 -33.6099853515625 -23.554443359375
3.113525390625 -21.699462890625 -2.7352294921875
-19.843017578125 -56.596435546875 -26.7208251953125
-26.79443359375 3.150146484375 15.7911376953125
-7.297119140625 -2.35302734375 -1.73291015625
19.114013671875 -3.9312744140625 -1.449951171875
16.878173828125 19.47265625 27.197021484375
-22.780517578125 -3.123291015625 11.935546875
8.629638671875 -16.1412353515625 -2.438720703125
23.020751953125 -25.5020751953125 -2.233642578125
-4.348388671875 -58.153564453125 -24.8074951171875
-10.26904296875 22.0059814453125 15.2713623046875
-11.281494140625 -62.3116455078125 -19.055419921875
3.35791015625 20.5123291015625 23.200439453125
-26.404296875 -48.610595703125 -27.3662109375
-23.91796875 -58.75048828125 -16.5478515625
-20.623779296875 -38.963623046875 -26.4490966796875
2.992919921875 -37.1376953125 -6.2264404296875
-4.000244140625 -64.537109375 -18.2049560546875
2.293701171875 -2.1685791015625 -1.4635009765625
-3.324462890625 -33.865478515625 -10.3485107421875
9.825927734375 -68.7049560546875 -15.15185546875
2.700439453125 33.860595703125 8.9990234375
-29.291748046875 -42.2296142578125 -28.1322021484375
10.021728515625 22.3873291015625 25.03369140625
19.82275390625 23.7698974609375 21.7252197265625
4.02001953125 30.091796875 3.27001953125
-15.66357421875 26.7862548828125 20.43212890625
-21.030029296875 8.0533447265625 14.77392578125
23.497802734375 -9.0677490234375 -1.671875
3.380859375 -34.0548095703125 -11.439697265625
-14.2265625 29.7528076171875 12.68212890625
-22.010009765625 -16.905517578125 -2.4862060546875
-1.0029296875 -53.7828369140625 -22.6802978515625
5.0908203125 2.78564453125 0.74853515625
0.197509765625 17.326171875 25.9560546875
-12.456298828125 -42.90625 -28.7762451171875
3.10205078125 -69.774169921875 -18.4998779296875
-12.54638671875 -52.1868896484375 -30.26025390625
-20.732421875 -61.4451904296875 -20.0057373046875
-17.237060546875 -4.3780517578125 -2.3291015625
3.580322265625 16.0853271484375 17.82470703125
-11.53564453125 -64.9144287109375 -14.8236083984375
-24.322021484375 -40.5042724609375 -28.846435546875
-18.3828125 13.74755859375 2.916748046875
-12.839111328125 -37.1544189453125 -24.3271484375
20.0185546875 17.1953125 24.1600341796875
-18.654296875 38.6865234375 9.91064453125
-26.5 6.9344482421875 13.32861328125
15.067138671875 -12.02392578125 -1.8963623046875
-19.614990234375 6.5238037109375 8.546142578125
-28.874267578125 -33.7962646484375 -26.2198486328125
-14.624267578125 16.4404296875 6.335205078125
0.23974609375 -11.12060546875 -2.47802734375
-0.566650390625 -71.188720703125 -12.971923828125
5.042236328125 -78.135498046875 -13.5108642578125
-21.45361328125 -1.0347900390625 8.2432861328125
-3.693603515625 5.019775390625 3.12646484375
-18.935791015625 -53.1793212890625 -29.32470703125
-16.894775390625 -0.01904296875 -1.9827880859375
-17.088623046875 -45.316162109375 -30.1873779296875
-22.703857421875 -5.7413330078125 -2.3463134765625
9.072021484375 -5.3857421875 -1.6668701171875
2.974853515625 -17.3076171875 -3.0806884765625
9.0537109375 -34.0054931640625 -3.2462158203125
-9.076171875 27.8592529296875 9.203857421875
11.91259765625 -84.389404296875 -14.860107421875
11.6181640625 26.519287109375 24.8587646484375
22.2109375 -18.9576416015625 -2.1881103515625
-0.721923828125 -28.5765380859375 -8.512939453125
-3.43701171875 26.415283203125 10.6072998046875
14.242919921875 -20.55517578125 -2.33642578125
5.167236328125 37.77392578125 7.257080078125
12.0078125 0.2938232421875 -0.7926025390625
-9.128662109375 -48.9434814453125 -29.3594970703125
-9.413330078125 -62.1273193359375 -22.7791748046875
-15.762939453125 -24.1253662109375 -1.345458984375
-16.11962890625 35.6468505859375 7.5513916015625
-0.848876953125 20.5152587890625 18.90234375
-9.412353515625 30.613037109375 5.5994873046875
14.623046875 -7.4794921875 -1.9271240234375
-25.87109375 -54.816162109375 -23.0943603515625
-24.465576171875 -36.3282470703125 -28.993896484375
-2.093505859375 -61.8875732421875 -21.380615234375
-2.923828125 12.9150390625 20.24462890625
-11.30908203125 26.411376953125 12.44384765625
-5.791748046875 -27.80859375 -2.7265625
-12.077880859375 -6.4183349609375 -2.399169921875
12.68701171875 20.51904296875 27.4674072265625
-6.111572265625 18.388427734375 17.1951904296875
-8.34326171875 -52.54248046875 -31.2818603515625
7.0361328125 -10.3626708984375 -2.1484375
-6.495849609375 21.586181640625 13.399658203125
1.269775390625 1.5491943359375 -0.355712890625
-14.930908203125 9.7725830078125 5.9293212890625
-18.64501953125 -11.649658203125 -2.50732421875
-26.663330078125 -4.1007080078125 12.558349609375
-23.563720703125 -47.2681884765625 -29.79833984375
-25.848388671875 10.807373046875 13.1282958984375
7.71923828125 31.3548583984375 7.187744140625
-14.74609375 -12.623046875 -2.7589111328125
5.835693359375 -24.4443359375 -3.062255859375
-16.193115234375 -50.107177734375 -29.9249267578125
-4.833740234375 -16.6473388671875 -2.7109375
-2.6142578125 16.8697509765625 18.00439453125
-13.48779296875 -16.6676025390625 -2.84716796875
-26.100341796875 -45.5384521484375 -22.798583984375
10.780029296875 18.618408203125 24.397705078125
-3.7626953125 -3.819580078125 -2.05419921875
1.42041015625 -72.26513671875 -16.0645751953125
14.668701171875 -35.3851318359375 -2.751708984375
18.214599609375 20.897216796875 23.80859375
6.5771484375 -36.8990478515625 -4.009765625
-1.483642578125 30.0169677734375 6.3443603515625
-17.305419921875 -19.4462890625 -2.7464599609375
-11.209716796875 -10.0919189453125 -2.4237060546875
-1.933837890625 -27.8179931640625 -4.889892578125
10.627197265625 -72.1258544921875 -16.7220458984375
-8.185302734375 -55.5614013671875 -25.2601318359375
-4.48974609375 -8.966552734375 -2.2178955078125
-0.1357421875 -14.9696044921875 -2.693359375
-6.23046875 -41.3447265625 -23.46923828125
-7.1826171875 -64.87548828125 -21.122802734375
-29.449462890625 -39.6900634765625 -24.0728759765625
16.255615234375 28.9859619140625 21.11181640625
-3.259521484375 23.6402587890625 13.314453125
-17.344482421875 -59.2608642578125 -27.44091796875
11.450439453125 -13.2666015625 -2.099853515625
-7.60302734375 -11.345458984375 -2.2392578125
-13.113037109375 -59.47314453125 -20.5518798828125
21.48681640625 -12.2154541015625 -1.761474609375
-19.123046875 -7.9266357421875 -2.41943359375
-26.463623046875 -44.267578125 -26.9486083984375
-10.060791015625 0.0341796875 -1.4033203125
12.226806640625 -28.2982177734375 -2.830810546875
-13.643310546875 33.2979736328125 9.5911865234375
-0.21337890625 -34.593505859375 -12.0989990234375
-12.770751953125 -57.8402099609375 -30.1505126953125
5.788818359375 18.2220458984375 24.6279296875
-23.97119140625 4.204345703125 13.4307861328125
4.45068359375 -75.44775390625 -16.0677490234375
2.01318359375 35.4495849609375 5.8240966796875
6.259033203125 -18.8912353515625 -2.5865478515625
-3.7958984375 30.9339599609375 3.061279296875
17.020751953125 -18.2081298828125 -2.2530517578125
-4.188720703125 2.5975341796875 0.4078369140625
11.031494140625 -18.823486328125 -2.4542236328125
-0.4580078125 -22.0904541015625 -2.9296875
-10.24658203125 -21.7236328125 -2.8773193359375
-12.169189453125 25.1212158203125 18.8475341796875
-0.60009765625 22.9481201171875 16.2232666015625
-30.223388671875 -46.0484619140625 -20.9482421875
-21.12353515625 -58.871826171875 -23.9410400390625
13.552734375 25.52587890625 22.0631103515625
-20.619384765625 13.62841796875 6.2156982421875
9.282470703125 34.52001953125 6.966064453125
8.526123046875 2.7867431640625 -0.0765380859375
-21.38916015625 -42.342041015625 -27.100341796875
7.706298828125 -69.6427001953125 -17.93505859375
-29.862548828125 -53.060546875 -20.120361328125
-4.000244140625 -20.7437744140625 -2.8626708984375
20.21923828125 -31.1505126953125 -2.4654541015625
-24.72705078125 5.826416015625 16.586181640625
9.41845703125 -75.3875732421875 -17.2353515625
-6.86572265625 -57.2784423828125 -22.52734375
5.355712890625 -26.9573974609375 -5.4356689453125
3.444091796875 -9.8885498046875 -2.2132568359375
16.594482421875 -31.1646728515625 -2.7823486328125
-15.88671875 -42.2191162109375 -29.2698974609375
-21.618408203125 11.4351806640625 9.4566650390625
9.9013671875 -81.6575927734375 -15.37890625
20.53564453125 -0.028076171875 -0.4605712890625
11.896240234375 -77.98193359375 -16.3121337890625
-24.11181640625 0.1043701171875 11.7808837890625
16.99853515625 -24.9132080078125 -2.55126953125
-14.874267578125 -61.1077880859375 -24.2364501953125
-18.47900390625 -39.6585693359375 -28.9971923828125
-23.142333984375 -56.195556640625 -24.56982421875
-24.046142578125 -6.061767578125 13.4627685546875
-6.688720703125 -23.020751953125 -2.8193359375
6.932373046875 22.6573486328125 26.4149169921875
-15.259521484375 29.522216796875 18.4320068359375
9.88671875 -24.7261962890625 -2.5596923828125
0.734375 -67.4290771484375 -18.9600830078125
21.500732421875 -6.28564453125 -1.5908203125
-21.36279296875 -13.63427734375 -2.7120361328125
-10.26611328125 -17.4696044921875 -2.4739990234375
-20.70654296875 -45.545166015625 -29.9415283203125
-1.58740234375 15.0714111328125 23.04638671875
15.951904296875 -2.02001953125 -1.1861572265625
-10.536376953125 -45.7880859375 -28.705810546875
25.5927734375 -27.48388671875 -1.49072265625
1.801025390625 -5.8560791015625 -2.1868896484375
25.078125 -17.334716796875 -1.85693359375
-7.63134765625 -14.8599853515625 -2.764892578125
1.523681640625 26.5081787109375 16.7745361328125
9.804931640625 -30.68359375 -3.2232666015625
-26.834716796875 -51.665771484375 -26.1051025390625
-25.516357421875 -56.993408203125 -19.1448974609375
-10.412353515625 32.2498779296875 2.665283203125
-21.79833984375 -51.721923828125 -28.7642822265625
-9.5693359375 -42.91552734375 -27.2666015625
-16.3095703125 32.30029296875 12.9127197265625
-7.01220703125 -52.8131103515625 -26.5277099609375
-4.659912109375 -44.899169921875 -25.2298583984375
5.8603515625 -3.587158203125 -1.6585693359375
-3.870849609375 -66.92919921875 -15.942626953125
-6.786865234375 -60.4678955078125 -24.2735595703125
13.73388671875 27.908203125 19.206787109375
22.127685546875 -22.413818359375 -2.5897216796875
0.2802734375 32.7838134765625 7.1783447265625
-13.066650390625 32.5830078125 5.939208984375
15.203369140625 -83.8504638671875 -15.15576171875
-0.566162109375 -3.462158203125 -1.9205322265625
-14.568359375 36.8426513671875 4.99462890625
-14.92724609375 6.2576904296875 9.9398193359375
-6.771240234375 0.6102294921875 -0.7593994140625
18.261474609375 -12.5626220703125 -1.8953857421875
19.13818359375 26.9716796875 18.879638671875
-12.52490234375 -40.3551025390625 -26.9312744140625
-1.93115234375 -59.9981689453125 -24.0126953125
0.395751953125 28.9586181640625 13.48486328125
-9.289794921875 -4.77099609375 -2.0689697265625
21.3505859375 -28.247802734375 -2.631103515625
0.43798828125 -60.8643798828125 -19.899658203125
6.853271484375 -30.447509765625 -4.1556396484375
9.080078125 -39.3084716796875 -3.4046630859375
-17.07080078125 7.940185546875 7.2025146484375
21.845947265625 -2.525390625 -1.7532958984375
-1.942138671875 -56.5062255859375 -23.8046875
3.71337890625 22.7613525390625 21.0369873046875
-2.675048828125 -31.2772216796875 -8.8262939453125
-11.0029296875 -57.363037109375 -26.64501953125
-7.9970703125 27.9991455078125 6.2982177734375
-25.822021484375 -34.958984375 -25.884521484375
3.27099609375 -35.0382080078125 -8.4144287109375
-6.3134765625 30.0853271484375 4.68310546875
2.726318359375 17.6480712890625 23.9658203125
7.10986328125 -80.492919921875 -14.4461669921875
-16.903564453125 11.400634765625 4.1243896484375
3.96533203125 0.3099365234375 -0.9337158203125
1.24267578125 19.81201171875 20.960205078125
-15.427978515625 -53.1422119140625 -30.123779296875
-6.14794921875 26.9287109375 9.4029541015625
7.834228515625 -13.2568359375 -2.2939453125
3.686767578125 -65.300048828125 -18.973876953125
16.376953125 24.197265625 21.4320068359375
-12.33447265625 8.1995849609375 6.7012939453125
10.287109375 -2.6649169921875 -1.4544677734375
11.833740234375 -6.4586181640625 -1.860595703125
-17.70458984375 -22.968994140625 -3.3294677734375
16.296875 -5.069091796875 -1.5264892578125
-12.830078125 -59.1551513671875 -17.035888671875
-22.310302734375 5.7589111328125 11.54541015625
5.48828125 -15.9693603515625 -2.3162841796875
15.052734375 -27.530029296875 -2.5096435546875
3.178466796875 -31.3109130859375 -10.4066162109375
-10.156982421875 -60.034912109375 -20.6739501953125
-22.046875 -60.9844970703125 -16.8385009765625
22.26513671875 -15.94921875 -1.9141845703125
14.68994140625 -77.579833984375 -15.564208984375
-11.505859375 -54.938232421875 -30.8511962890625
-9.484130859375 23.7890625 13.0833740234375
-5.78662109375 -48.005859375 -27.359619140625
-26.744140625 -32.1156005859375 -24.24169921875
-14.116455078125 29.7197265625 15.5836181640625
-10.958740234375 -64.92822265625 -17.6669921875
-17.598388671875 -55.7904052734375 -28.361328125
6.858154296875 21.166748046875 23.935791015625
-23.84716796875 -50.0111083984375 -27.6485595703125
-0.26513671875 -24.95751953125 -4.1292724609375
-12.522216796875 28.56103515625 10.59716796875
11.822998046875 -22.1033935546875 -2.601318359375
-5.69140625 -6.07861328125 -2.0101318359375
6.584228515625 -79.827392578125 -11.700927734375
19.817138671875 -25.419189453125 -2.363037109375
-0.97509765625 3.3905029296875 0.549072265625
-27.3154296875 -54.5452880859375 -20.638916015625
16.590087890625 -14.9447021484375 -2.29345703125
6.23974609375 16.697509765625 18.671142578125
-2.56640625 -31.5997314453125 -12.0924072265625
-6.971435546875 -43.2413330078125 -25.4583740234375
11.843505859375 -34.5137939453125 -3.0599365234375
-22.8466796875 -59.4339599609375 -19.0882568359375
-1.52734375 -65.70361328125 -18.9583740234375
3.675048828125 -72.5538330078125 -17.74609375
-2.263671875 -36.3983154296875 -11.01806640625
-14.8603515625 -5.873046875 -2.4619140625
-20.059814453125 -18.9000244140625 -2.80859375
-2.202392578125 28.823974609375 8.779296875
12.478271484375 21.1080322265625 24.6055908203125
-21.0234375 -5.3199462890625 12.4365234375
-22.51611328125 -38.370361328125 -28.705322265625
-25.405517578125 -46.7501220703125 -25.467529296875
-27.527099609375 1.2325439453125 13.2979736328125
25.403076171875 -24.0523681640625 -2.2198486328125
-11.88037109375 -62.3211669921875 -16.3372802734375
-19.94287109375 -4.983154296875 -2.1488037109375
-14.4130859375 -44.885009765625 -29.5908203125
-21.433349609375 -54.18359375 -27.067626953125
-2.753173828125 -69.05517578125 -14.31298828125
4.013916015625 32.3416748046875 5.3326416015625
-29.34423828125 -36.962646484375 -25.172607421875
-12.60205078125 -23.2579345703125 -3.13916015625
-14.771484375 24.185302734375 20.3865966796875
-14.438232421875 26.73486328125 17.975830078125
-2.87158203125 -52.975830078125 -20.8387451171875
24.322265625 -1.3402099609375 -1.4859619140625
14.689208984375 22.3365478515625 27.0347900390625
8.60302734375 -8.121826171875 -2.130126953125
4.677490234375 -35.1334228515625 -5.4793701171875
10.102294921875 -85.185791015625 -12.998046875
-26.232421875 -38.3851318359375 -28.91064453125
-15.49267578125 -58.1239013671875 -29.1328125
12.3330078125 24.0255126953125 24.1103515625
1.04443359375 -8.4425048828125 -2.2064208984375
1.0810546875 -19.89111328125 -2.912841796875
-9.716064453125 -63.8189697265625 -20.718505859375
6.90625 -76.2215576171875 -16.8240966796875
-6.509765625 -65.377197265625 -17.7926025390625
1.38134765625 -37.1871337890625 -8.3612060546875
-4.88720703125 -1.17578125 -1.467529296875
-2.540283203125 15.6494140625 20.3699951171875
2.505126953125 -24.23291015625 -3.935791015625
-20.878662109375 9.015625 8.6395263671875
21.221923828125 23.1063232421875 24.0892333984375
5.8857421875 -21.837890625 -2.6700439453125
5.26123046875 18.9248046875 22.142822265625
-4.154052734375 -63.3673095703125 -20.680908203125
1.64892578125 -35.93798828125 -10.658203125
-4.828857421875 -55.834716796875 -23.341064453125
-11.712646484375 24.1416015625 14.4222412109375
18.18115234375 15.6932373046875 25.2978515625
15.837646484375 20.040283203125 24.4688720703125
-15.5546875 -2.1861572265625 -1.428955078125
-2.099609375 -9.993408203125 -2.2218017578125
-11.46923828125 -49.7718505859375 -30.1217041015625
19.381103515625 -19.283203125 -2.3831787109375
-26.849609375 8.74365234375 11.5023193359375
-25.03564453125 1.6885986328125 13.84814453125
13.846923828125 24.940185546875 19.5640869140625
-19.21435546875 -59.2371826171875 -25.6383056640625
-1.277587890625 27.798095703125 11.2391357421875
4.510986328125 35.3255615234375 7.890625
16.891357421875 21.690185546875 21.7308349609375
-19.228271484375 -62.7138671875 -22.115234375
-21.7958984375 -59.7325439453125 -21.607421875
18.739013671875 -6.4739990234375 -1.4061279296875
-13.061279296875 11.4439697265625 5.3695068359375
-16.1650390625 33.795166015625 9.3209228515625
-16.66650390625 -61.41552734375 -26.0283203125
11.387939453125 -15.9102783203125 -2.4962158203125
5.297607421875 -68.500732421875 -18.6240234375
14.44287109375 1.005859375 -0.655029296875
1.45263671875 -27.9752197265625 -7.34912109375
-25.26171875 -2.1810302734375 11.6748046875
24.715087890625 -6.824462890625 -1.58984375
4.37060546875 15.2344970703125 15.576904296875
-15.00439453125 31.530029296875 10.8955078125
-17.376708984375 38.27783203125 7.778564453125
-12.471435546875 -58.8360595703125 -24.881591796875
-4.689208984375 -41.70166015625 -21.45458984375
15.432861328125 -22.94873046875 -2.4144287109375
24.751220703125 -11.3978271484375 -1.4969482421875
0.266357421875 -0.7008056640625 -1.51904296875
-8.21826171875 27.6568603515625 11.53955078125
-13.01318359375 -59.6080322265625 -12.062255859375
13.429931640625 -10.1326904296875 -2.0113525390625
-2.854248046875 -15.151611328125 -2.51025390625
-5.658935546875 20.3514404296875 15.471923828125
0.75537109375 -69.9942626953125 -17.28173828125
-12.288330078125 28.8349609375 14.1588134765625
9.051513671875 -36.4808349609375 -3.3863525390625
0.383056640625 -73.29296875 -13.9686279296875
-4.18017578125 -61.0023193359375 -24.224609375
-18.86181640625 -2.439208984375 -2.3177490234375
-4.8408203125 24.5194091796875 11.6429443359375
-29.65966796875 -43.90771484375 -26.2025146484375
-15.923583984375 -47.4830322265625 -30.117919921875
-10.247314453125 29.1768798828125 7.4925537109375
-15.840576171875 -17.3443603515625 -2.9793701171875
21.03369140625 -9.81494140625 -1.9345703125
-27.814697265625 -2.8406982421875 10.6043701171875
-8.2060546875 -27.74609375 -3.1016845703125
-5.482666015625 -25.3936767578125 -2.8961181640625
10.6796875 24.775634765625 26.2845458984375
-26.509033203125 4.9073486328125 17.967529296875
18.134765625 18.788330078125 25.2275390625
-26.274658203125 -56.361328125 -16.8935546875
2.286865234375 -15.0665283203125 -2.43994140625
-2.61474609375 -34.5675048828125 -12.5762939453125
1.68896484375 -32.4075927734375 -12.0377197265625
-17.203369140625 5.848388671875 8.4161376953125
9.59814453125 0.4842529296875 -0.7952880859375
-17.619140625 15.22509765625 5.202392578125
9.213623046875 20.608642578125 23.10791015625
-21.731201171875 -0.196533203125 11.524658203125
16.29443359375 -9.743896484375 -1.68798828125
-3.7265625 29.7747802734375 5.3450927734375
0.54541015625 16.774658203125 23.4449462890625
2.86669921875 16.9874267578125 26.6689453125
-3.5859375 -27.0133056640625 -3.33935546875
20.51416015625 19.6461181640625 24.566650390625
18.337158203125 24.6922607421875 18.9691162109375
-10.46044921875 -2.6591796875 -1.7401123046875
-6.05419921875 -65.0550537109375 -15.4742431640625
-8.241943359375 -59.1888427734375 -22.1710205078125
-19.7578125 -16.010986328125 -2.8507080078125
-8.984130859375 1.65087890625 0.262451171875
-1.69482421875 -12.943603515625 -2.4305419921875
-1.87841796875 25.4796142578125 12.140625
8.04833984375 -67.638671875 -16.315185546875
-9.693115234375 -66.3836669921875 -15.11767578125
-19.092041015625 -63.0108642578125 -19.318359375
-15.353759765625 -22.710693359375 -3.200927734375
-21.4482421875 7.8489990234375 12.2423095703125
-13.56494140625 -10.314697265625 -2.428466796875
8.682373046875 -18.5782470703125 -2.330322265625
5.765869140625 -71.0400390625 -18.3310546875
-24.310791015625 6.992919921875 11.8843994140625
-11.69921875 23.331298828125 16.6392822265625
6.846435546875 -34.5928955078125 -4.4276123046875
9.458984375 -11.3414306640625 -2.02587890625
-23.905029296875 -46.095947265625 -27.341552734375
-12.302734375 -18.689453125 -3.0462646484375
-24.840576171875 -42.9813232421875 -25.8348388671875
-24.40869140625 3.2796630859375 15.54052734375
-3.303955078125 -54.076416015625 -23.0135498046875
20.028076171875 26.119873046875 20.8726806640625
-25.13916015625 8.2984619140625 19.5933837890625
6.767333984375 1.45654296875 -0.8563232421875
-14.462646484375 34.314453125 5.230224609375
17.30419921875 -82.69970703125 -14.171630859375
-21.522216796875 -7.836669921875 -2.6724853515625
-9.044189453125 30.462646484375 3.2386474609375
13.53955078125 -1.405517578125 -1.1854248046875
-27.208251953125 -45.1993408203125 -24.9595947265625
-18.726318359375 12.5980224609375 5.3641357421875
-16.014404296875 13.4481201171875 2.6619873046875
-18.324462890625 -50.9678955078125 -29.6822509765625
14.25 -29.6923828125 -2.650634765625
3.45068359375 -4.2891845703125 -1.7940673828125
-13.90380859375 -54.869140625 -30.005126953125
13.812744140625 -13.92822265625 -2.227294921875
-5.80029296875 4.1483154296875 2.53271484375
-28.833251953125 -31.6041259765625 -25.5513916015625
-7.36865234375 -62.6148681640625 -23.6925048828125
-25.500244140625 -53.4931640625 -25.0281982421875
7.954833984375 -32.531982421875 -4.599853515625
-7.43212890625 -50.21630859375 -30.1961669921875
-27.97314453125 -45.783203125 -20.7266845703125
2.7548828125 -74.2047119140625 -15.1951904296875
3.070556640625 -67.498779296875 -18.5052490234375
7.88623046875 -25.7926025390625 -2.7569580078125
0.6640625 -17.4278564453125 -2.834228515625
11.58251953125 -80.2222900390625 -16.1356201171875
16.593994140625 -20.801025390625 -2.46044921875
-22.7744140625 -3.2381591796875 -2.328857421875
18.115966796875 17.2484130859375 26.9442138671875
4.117919921875 32.5758056640625 7.7879638671875
-2.437744140625 19.12548828125 17.0272216796875
-13.287109375 14.0640869140625 4.4881591796875
6.46533203125 -78.1839599609375 -15.5482177734375
2.220458984375 -12.2088623046875 -2.545654296875
-15.045654296875 -15.065673828125 -2.588623046875
10.2900390625 -27.175537109375 -2.6385498046875
-16.978515625 17.29345703125 6.860595703125
15.819580078125 -33.2718505859375 -2.7978515625
10.88427734375 2.4886474609375 -0.3302001953125
3.828369140625 -76.0274658203125 -13.7996826171875
9.2392578125 4.3056640625 1.4130859375
-11.52685546875 -38.9892578125 -25.4658203125
-2.0888671875 -63.6812744140625 -19.7105712890625
-16.329833984375 -11.0638427734375 -2.625244140625
-17.840576171875 -43.01513671875 -29.980712890625
18.416015625 29.7591552734375 21.3509521484375
-14.029541015625 -49.585693359375 -30.05322265625
11.370361328125 -74.37744140625 -16.8365478515625
-19.012451171875 -13.8280029296875 -2.710205078125
-16.813720703125 -6.9205322265625 -2.53466796875
8.931640625 -73.2633056640625 -17.6422119140625
-12.4990234375 22.9368896484375 19.0087890625
-10.468017578125 -7.936279296875 -2.4075927734375
-18.126708984375 -47.28662109375 -30.1072998046875
-2.011474609375 1.9229736328125 -0.74072265625
3.84716796875 -19.615966796875 -2.844970703125
12.067626953125 -82.3414306640625 -15.7298583984375
-3.60791015625 -18.577880859375 -2.66015625
-10.4033203125 -51.7049560546875 -30.499755859375
0.052978515625 30.422607421875 7.8782958984375
-7.763427734375 -53.498291015625 -28.4874267578125
-25.509033203125 -56.0863037109375 -21.153564453125
0.989013671875 22.0089111328125 19.90234375
-12.39697265625 -12.4024658203125 -2.75439453125
-4.577880859375 15.9796142578125 18.451416015625
-6.5400390625 -58.293701171875 -24.68408203125
-21.83056640625 7.271240234375 9.8580322265625
23.838134765625 -20.4241943359375 -2.0703125
23.788330078125 -28.357177734375 -2.378173828125
5.037841796875 -1.5565185546875 -1.644775390625
0.804443359375 24.3699951171875 17.1409912109375
-15.60986328125 30.7763671875 14.3074951171875
12.528076171875 27.7415771484375 23.2850341796875
20.6435546875 -17.392822265625 -2.0531005859375
8.193603515625 -3.0408935546875 -1.9044189453125
-22.1220703125 -18.931640625 -3.494384765625
-21.91357421875 -48.3544921875 -28.9041748046875
-0.609130859375 -70.1978759765625 -14.899658203125
-9.953369140625 -11.9825439453125 -2.2471923828125
-13.88330078125 -41.339111328125 -28.3310546875
-27.660888671875 -53.657958984375 -22.581787109375
1.196533203125 28.0596923828125 15.3028564453125
7.102294921875 -6.3900146484375 -1.6141357421875
-7.17919921875 -17.27734375 -2.7183837890625
15.827392578125 -81.6646728515625 -15.621826171875
-12.807373046875 -59.379150390625 -22.8367919921875
22.0146484375 -31.9248046875 -1.5928955078125
1.561767578125 -29.927734375 -10.6446533203125
1.23828125 2.718017578125 1.5086669921875
-20.122802734375 -40.6220703125 -28.02294921875
-5.228271484375 -14.5426025390625 -2.50927734375
-4.2265625 27.752197265625 8.823486328125
-7.021484375 -55.17724609375 -23.10791015625
-14.2841796875 35.445556640625 8.6182861328125
-0.1171875 -26.6297607421875 -5.4373779296875
5.31298828125 21.8023681640625 22.61865234375
-3.34326171875 -5.9033203125 -2.131591796875
12.72802734375 2.2276611328125 0.69580078125
-9.8427734375 -56.572021484375 -24.3970947265625
20.220947265625 -23.299560546875 -2.28466796875
5.42919921875 -8.8406982421875 -2.139892578125
2.44775390625 24.4593505859375 21.13134765625
2.6962890625 18.5455322265625 21.8402099609375
-13.23095703125 -8.2236328125 -2.47607421875
-18.1572265625 -17.51220703125 -2.85888671875
4.35791015625 -25.08447265625 -4.497802734375
-4.38623046875 0.8431396484375 -0.75341796875
5.911376953125 32.640869140625 6.533203125
17.5087890625 28.275634765625 19.16943359375
-8.60888671875 -47.0626220703125 -28.4239501953125
12.917724609375 27.33447265625 21.19384765625
-21.431396484375 -57.078369140625 -25.4176025390625
-23.869140625 10.7230224609375 10.3582763671875
14.9638671875 -18.5103759765625 -2.572265625
14.317626953125 23.6199951171875 21.6134033203125
-15.522705078125 -60.2955322265625 -27.6094970703125
16.69677734375 -7.5821533203125 -1.6080322265625
-9.239501953125 -54.2371826171875 -30.4267578125
-10.716064453125 -24.062255859375 -3.5765380859375
19.615478515625 21.87109375 22.587158203125
-13.13671875 5.4437255859375 8.55810546875
9.528564453125 17.68310546875 22.4246826171875
-22.357421875 -40.4677734375 -28.1256103515625
-17.03955078125 -13.1578369140625 -2.515625
-9.910888671875 -19.65966796875 -2.9251708984375
-2.437255859375 -29.1734619140625 -7.47705078125
-11.352783203125 31.11669921875 6.1915283203125
9.42041015625 -70.396240234375 -17.01171875
-23.57958984375 -41.683349609375 -26.86865234375
-2.302978515625 -66.8394775390625 -17.3955078125
21.037109375 -20.7000732421875 -2.1392822265625
-1.085205078125 18.575927734375 19.615966796875
10.663330078125 -32.5614013671875 -2.9862060546875
14.223388671875 -5.3896484375 -1.8492431640625
-23.15185546875 1.53173828125 12.9951171875
-4.376220703125 21.9515380859375 13.752685546875
-0.591552734375 -32.5653076171875 -11.915283203125
-12.353515625 -58.281005859375 -28.03271484375
0.6279296875 33.5728759765625 4.9398193359375
-19.679931640625 14.875244140625 4.866943359375
-3.492431640625 -62.419921875 -22.7999267578125
0.0546875 -56.9166259765625 -23.1832275390625
-9.249755859375 25.71044921875 12.3763427734375
-7.457763671875 23.469970703125 12.8873291015625
-19.1318359375 8.5152587890625 7.00634765625
-20.195556640625 -60.8272705078125 -23.1417236328125
-24.748779296875 6.0767822265625 13.988037109375
-5.764892578125 -64.69482421875 -19.5816650390625
-15.20458984375 7.778076171875 6.3602294921875
-15.069580078125 37.6502685546875 6.8509521484375
7.864013671875 -23.7403564453125 -2.742919921875
-2.508544921875 -2.2608642578125 -1.598388671875
5.908935546875 15.53955078125 17.0135498046875
-29.53466796875 -53.566650390625 -18.1632080078125
4.462158203125 -37.346923828125 -4.8154296875
3.0068359375 -7.8621826171875 -2.262451171875
9.787353515625 -14.39501953125 -2.48779296875
22.477294921875 -0.81689453125 -0.782958984375
-8.763916015625 -65.374267578125 -19.8001708984375
-6.1611328125 -4.10009765625 -2.185791015625
-16.9599609375 9.9725341796875 5.8597412109375
-6.489501953125 -9.6456298828125 -2.4140625
22.68603515625 -4.5096435546875 -1.639404296875
5.87890625 -12.117431640625 -2.0997314453125
-19.87158203125 -62.095458984375 -17.30419921875
7.982177734375 36.0748291015625 6.7806396484375
-27.6337890625 -35.8721923828125 -25.8133544921875
-24.63818359375 -4.3074951171875 12.63134765625
-9.210205078125 -9.83056640625 -2.2308349609375
-12.257568359375 -62.1519775390625 -14.355712890625
-2.4541015625 -22.3387451171875 -3.1207275390625
-12.487060546875 -45.355712890625 -29.20458984375
-17.513916015625 -9.43994140625 -2.427734375
-13.111328125 -14.4949951171875 -2.6446533203125
-8.5341796875 22.865234375 15.836669921875
-10.83203125 27.468017578125 10.72265625
8.03125 20.5771484375 25.466064453125
-7.208984375 25.369140625 10.1090087890625
22.644287109375 -13.8514404296875 -1.96142578125
-19.902587890625 -9.763427734375 -2.68359375
17.94677734375 -2.276611328125 -1.2484130859375
-11.735107421875 -60.1104736328125 -19.2327880859375
12.96533203125 -18.30126953125 -2.63623046875
-12.165771484375 32.309814453125 4.1649169921875
-11.281982421875 -4.5679931640625 -2.13330078125
10.183837890625 -83.602294921875 -14.2191162109375
18.061279296875 25.27685546875 21.4658203125
4.1328125 36.27685546875 6.1719970703125
-6.3720703125 -21.005126953125 -2.9920654296875
-19.422607421875 -54.7528076171875 -28.19287109375
-13.2724609375 -4.365234375 -2.19775390625
-1.904052734375 31.290283203125 4.3809814453125
-11.09228515625 -56.9490966796875 -28.94384765625
-25.337890625 -44.562744140625 -24.6876220703125
-1.598876953125 -20.4342041015625 -2.6077880859375
-13.342041015625 28.374755859375 17.3992919921875
-14.900634765625 11.145263671875 4.0628662109375
-24.3408203125 -56.1778564453125 -22.9796142578125
-23.043212890625 -54.698974609375 -25.8765869140625
-27.23828125 -52.6407470703125 -24.291259765625
-5.572998046875 -19.193603515625 -2.7293701171875
-18.5126953125 -20.9488525390625 -3.193115234375
-6.426513671875 -12.97021484375 -2.437255859375
-8.337646484375 -21.206787109375 -3.05810546875
-24.735595703125 -47.9879150390625 -28.2208251953125
20.216796875 -13.705322265625 -2.09033203125
-4.56591796875 -28.307373046875 -4.462646484375
-16.59033203125 -40.2069091796875 -28.8336181640625
-24.786376953125 9.0877685546875 11.8477783203125
-11.306640625 -60.567626953125 -17.0372314453125
-11.464599609375 -15.9036865234375 -2.4022216796875
4.29296875 12.8717041015625 13.0494384765625
15.479248046875 -79.38232421875 -15.448486328125
18.505615234375 -0.2496337890625 -0.530029296875
-14.642578125 -18.9046630859375 -3.050537109375
-1.47998046875 24.118896484375 14.0050048828125
-5.5615234375 -64.30810546875 -22.214111328125
7.02197265625 -28.7177734375 -5.0733642578125
-28.021240234375 -45.87060546875 -23.30322265625
-10.517578125 -62.017333984375 -20.837158203125
-21.354736328125 -2.0582275390625 11.0389404296875
-4.3671875 -22.85546875 -2.9398193359375
-6.9658203125 -52.36279296875 -29.8997802734375
-3.540283203125 11.491943359375 19.053466796875
18.2255859375 -30.118896484375 -2.5234375
4.30126953125 -23.2607421875 -2.8067626953125
-20.257080078125 10.9154052734375 7.88134765625
-17.073974609375 -54.1427001953125 -29.2706298828125
-14.09375 -0.9835205078125 -1.922607421875
-0.457275390625 31.9532470703125 5.511962890625
-5.198974609375 -43.40625 -24.0933837890625
-25.280029296875 6.4764404296875 18.341552734375
-4.148681640625 -32.530029296875 -8.587158203125
-8.629150390625 -23.1739501953125 -2.7606201171875
24.192626953125 -22.530029296875 -2.2735595703125
1.5029296875 -22.7579345703125 -2.9940185546875
-18.927978515625 -44.6900634765625 -30.126953125
-5.240966796875 -11.123291015625 -2.234375
-18.142333984375 -57.475830078125 -27.5626220703125
-21.29052734375 -50.1129150390625 -29.7850341796875
-13.229736328125 31.1309814453125 11.5672607421875
-15.7392578125 -20.5816650390625 -2.8765869140625
-11.8115234375 -20.588134765625 -2.7471923828125
-9.49462890625 -15.6976318359375 -2.33544921875
-21.019287109375 -11.5064697265625 -2.634521484375
16.260986328125 -29.0416259765625 -2.4560546875
-12.807861328125 31.54638671875 9.4376220703125
10.26123046875 -77.12158203125 -16.8880615234375
13.19287109375 -36.6065673828125 -2.3892822265625
-4.379638671875 13.6768798828125 19.22607421875
11.836669921875 -30.3985595703125 -2.907958984375
6.8115234375 -26.779296875 -4.1334228515625
-11.676513671875 25.74365234375 17.08984375
-10.987060546875 -47.556396484375 -29.3056640625
-6.58447265625 -53.65966796875 -24.4847412109375
18.1767578125 -32.2515869140625 -2.7877197265625
-0.857666015625 -58.4105224609375 -24.0828857421875
1.84033203125 -65.8070068359375 -18.9097900390625
-8.06201171875 -41.692626953125 -25.17822265625
20.1318359375 21.504150390625 24.8145751953125
-7.662353515625 -5.823486328125 -1.9481201171875
-6.3466796875 16.4588623046875 17.9051513671875
-9.55908203125 -56.1112060546875 -26.6610107421875
19.498779296875 -11.12060546875 -1.6932373046875
-10.658935546875 -41.3721923828125 -26.989501953125
7.6708984375 -38.5628662109375 -4.450439453125
-7.43798828125 20.3221435546875 14.7867431640625
-25.154052734375 -51.4195556640625 -26.9580078125
-4.051025390625 18.1278076171875 17.1351318359375
21.827392578125 -30.148681640625 -2.3311767578125
-24.24560546875 -58.190673828125 -18.397216796875
-22.148193359375 3.879150390625 12.177734375
-14.380126953125 -51.562744140625 -30.2000732421875
-0.6435546875 -62.458984375 -19.833740234375
11.04541015625 -4.3795166015625 -1.7198486328125
-8.47900390625 -56.4393310546875 -23.095947265625
2.462890625 21.25439453125 20.928955078125
-0.406982421875 -36.3399658203125 -11.3201904296875
4.692626953125 -17.747314453125 -2.4554443359375
7.4892578125 34.024658203125 6.2896728515625
-1.33447265625 -16.3936767578125 -2.892333984375
-1.322509765625 21.2642822265625 16.5966796875
-26.042724609375 0.580322265625 12.3712158203125
1.93359375 34.35791015625 7.33642578125
10.19091796875 -39.1318359375 -1.9149169921875
12.1611328125 -76.1800537109375 -16.7200927734375
-2.03759765625 22.3607177734375 15.1885986328125
11.501953125 -25.7708740234375 -2.439697265625
1.68798828125 -62.140625 -19.3807373046875
-22.564697265625 -57.74658203125 -23.6019287109375
4.649169921875 -77.1083984375 -15.2554931640625
-13.94140625 -22.9310302734375 -1.8946533203125
-12.108642578125 -0.764892578125 -1.85498046875
20.28662109375 -7.6881103515625 -1.6666259765625
12.203125 -11.5740966796875 -2.2127685546875
-5.800537109375 -46.0550537109375 -27.2613525390625
18.636474609375 -17.1837158203125 -2.1175537109375
13.9501953125 -82.5672607421875 -15.675537109375
15.833984375 -16.63232421875 -2.1805419921875
-5.40625 23.211669921875 12.8265380859375
-26.660888671875 -55.5382080078125 -19.0882568359375
7.060302734375 -14.9931640625 -2.3072509765625
7.056640625 -17.1158447265625 -2.44775390625
-2.924560546875 -7.9820556640625 -2.208740234375
-25.766845703125 -35.656982421875 -27.86474609375
-11.396484375 -58.7647705078125 -21.190185546875
-8.051513671875 -0.5887451171875 -1.3414306640625
0.653076171875 -13.1876220703125 -2.5545654296875
-28.0341796875 -43.4046630859375 -27.398193359375
14.5595703125 29.7147216796875 21.1146240234375
-21.171630859375 -43.7735595703125 -30.2344970703125
18.038330078125 23.407958984375 21.2891845703125
5.338134765625 -74.132568359375 -17.0545654296875
10.20068359375 -20.644287109375 -2.7186279296875
-9.19189453125 -44.861083984375 -27.4234619140625
0.21240234375 22.9879150390625 18.203857421875
7.7529296875 -71.5048828125 -17.81591796875
19.90673828125 -33.115234375 -2.167724609375
-11.127685546875 28.5576171875 9.271240234375
4.33056640625 19.045654296875 23.731201171875
1.444580078125 -4.085693359375 -1.85888671875
-18.038330078125 -49.10400390625 -29.8680419921875
-1.74853515625 -4.8619384765625 -1.99560546875
2.21923828125 -71.46435546875 -17.5137939453125
12.6484375 -8.4815673828125 -1.8741455078125
7.0966796875 -81.6026611328125 -12.874267578125
-8.279296875 -63.947021484375 -22.8311767578125
-2.50634765625 -58.4036865234375 -24.8704833984375
13.427001953125 -78.971923828125 -16.198486328125
0.85986328125 25.427734375 15.4599609375
-1.1572265625 -60.5130615234375 -22.1331787109375
9.72705078125 -79.9658203125 -16.0743408203125
1.9306640625 0.0357666015625 -1.130126953125
-16.77685546875 -51.8682861328125 -29.3480224609375
23.0537109375 -10.8602294921875 -1.8758544921875
8.284912109375 -81.8712158203125 -14.27392578125
-1.240478515625 -23.8492431640625 -3.0670166015625
-9.319580078125 21.8802490234375 13.7254638671875
17.42919921875 -23.15966796875 -2.350341796875
-24.451416015625 -38.7528076171875 -29.3101806640625
-6.146240234375 2.4827880859375 0.59423828125
-14.750244140625 35.385986328125 3.7965087890625
-15.948974609375 -43.9443359375 -29.81494140625
-20.079345703125 -51.77880859375 -29.38671875
-12.60009765625 28.4691162109375 12.4019775390625
-23.02490234375 -51.7686767578125 -27.4146728515625
-13.968017578125 -59.0609130859375 -28.9102783203125
-6.475830078125 27.9560546875 7.822265625
-0.5439453125 27.221435546875 12.7786865234375
-7.4375 -24.728271484375 -2.8319091796875
-12.937255859375 -56.1824951171875 -30.830810546875
10.73046875 20.810546875 24.3062744140625
13.759521484375 -22.408447265625 -2.7886962890625
10.246337890625 -7.449462890625 -1.8701171875
-30.147216796875 -46.2823486328125 -22.836669921875
19.65576171875 16.6658935546875 26.24169921875
-15.270751953125 -3.744384765625 -2.259033203125
-13.145751953125 32.5025634765625 7.721923828125
-17.329345703125 39.1669921875 5.869140625
-23.372802734375 -1.371337890625 11.1051025390625
-22.212646484375 10.076904296875 10.48828125
8.2705078125 22.5401611328125 24.74365234375
-8.448974609375 -13.2777099609375 -2.7552490234375
-1.78271484375 -26.27587890625 -4.0147705078125
15.595947265625 24.3394775390625 19.8397216796875
-12.3291015625 29.31591796875 16.265625
-20.772216796875 -3.3880615234375 -2.1385498046875
-10.8427734375 -44.1136474609375 -28.2113037109375
-26.915283203125 -33.35986328125 -25.4913330078125
-6.11474609375 -7.9156494140625 -2.3385009765625
-3.104736328125 -31.12646484375 -7.11865234375
-0.94677734375 -8.6552734375 -2.273681640625
-18.961181640625 -41.140625 -29.8236083984375
23.356689453125 -17.259765625 -2.3634033203125
11.8515625 -1.718994140625 -1.572021484375
-16.717041015625 -62.0592041015625 -24.3924560546875
13.465087890625 -33.88330078125 -2.8050537109375
12.218505859375 -20.393310546875 -2.5262451171875
-18.393310546875 -5.7694091796875 -2.4033203125
-24.603271484375 -55.1048583984375 -24.34423828125
-12.273681640625 11.992919921875 7.5328369140625
15.97119140625 -0.2723388671875 -1.045166015625
-5.537841796875 31.3909912109375 2.5386962890625
11.428466796875 -23.8094482421875 -2.6761474609375
10.665771484375 -35.8541259765625 -3.1324462890625
20.69287109375 -4.6749267578125 -1.5802001953125
3.831298828125 16.9312744140625 25.2099609375
-6.923095703125 -48.7611083984375 -29.373046875
-28.592041015625 -38.523681640625 -25.3934326171875
-21.31884765625 -40.5657958984375 -26.4345703125
24.64111328125 -26.138427734375 -2.1103515625
-29.658447265625 -40.6029052734375 -25.5455322265625
19.861328125 -29.070068359375 -2.263671875
-0.14990234375 -5.548828125 -1.9981689453125
-14.368408203125 -43.2010498046875 -29.1571044921875
-4.80419921875 -65.7073974609375 -16.7545166015625
3.28125 1.7713623046875 -0.286376953125
4.470947265625 -33.422607421875 -6.3304443359375
4.2841796875 -11.4322509765625 -2.0970458984375
10.195556640625 -28.9945068359375 -3.1495361328125
16.062255859375 -34.95361328125 -1.8125
1.74267578125 -34.362060546875 -11.9202880859375
7.82421875 -20.0341796875 -2.7176513671875
-10.559326171875 31.0389404296875 3.894287109375
5.181640625 20.5423583984375 23.9091796875
-3.63671875 -56.576416015625 -24.8201904296875
-10.033447265625 -66.1458740234375 -16.858154296875
-7.073974609375 -26.442138671875 -3.153564453125
21.431640625 -24.8193359375 -2.2310791015625
15.010498046875 -25.52392578125 -2.6207275390625
13.46923828125 -26.849609375 -2.507080078125
-8.25 -54.7001953125 -27.352783203125
16.60986328125 -13.2281494140625 -2.1552734375
10.25244140625 -17.19091796875 -2.3182373046875
-8.048828125 -61.0186767578125 -23.2445068359375
13.06787109375 22.5078125 23.525390625
-0.83349609375 0.6898193359375 -0.9390869140625
0.225830078125 -65.7169189453125 -19.481201171875
-2.94189453125 -11.4671630859375 -2.6102294921875
-21.2412109375 -20.35546875 -3.13037109375
-10.972900390625 -63.961181640625 -19.568603515625
7.4765625 -40.3319091796875 -3.66015625
15.7958984375 21.785888671875 24.367431640625
-17.225830078125 -2.12939453125 -1.935546875
-22.16650390625 -15.0908203125 -3.0966796875
16.7744140625 20.428466796875 23.02197265625
-0.510498046875 -67.5775146484375 -17.80322265625
-15.46142578125 28.1552734375 19.4312744140625
23.109130859375 -7.3973388671875 -1.5965576171875
-2.3037109375 14.345947265625 21.4423828125
12.606201171875 25.5997314453125 23.5186767578125
-14.161376953125 33.7451171875 6.80712890625
15.099365234375 -3.4703369140625 -1.452880859375
-14.638916015625 25.3685302734375 18.9727783203125
-15.05810546875 30.8870849609375 17.4342041015625
-2.23193359375 31.8638916015625 2.81298828125
-20.830810546875 -52.3831787109375 -27.532958984375
16.626953125 -26.5693359375 -2.500732421875
19.793701171875 -27.1102294921875 -2.500244140625
3.37890625 -63.681640625 -18.572998046875
17.454833984375 -10.9642333984375 -1.885009765625
-2.9208984375 28.9517822265625 7.252197265625
8.49462890625 -29.7674560546875 -3.77783203125
-12.104736328125 6.4940185546875 7.7254638671875
-22.437744140625 -6.8138427734375 13.327392578125
-15.791015625 6.42431640625 7.384033203125
18.239501953125 -14.2821044921875 -2.0343017578125
25.111083984375 -19.365478515625 -1.74560546875
7.44140625 -4.7489013671875 -1.7913818359375
-7.810302734375 26.6942138671875 9.2598876953125
5.622314453125 0.1488037109375 -0.6776123046875
-13.120361328125 29.8853759765625 9.74658203125
-22.989990234375 -4.9542236328125 12.76123046875
0.071533203125 28.6541748046875 11.8619384765625
-8.706298828125 -18.19775390625 -2.601806640625
-6.40673828125 28.99169921875 6.1834716796875
-28.985595703125 -53.0595703125 -21.553955078125
24.215087890625 -15.8397216796875 -2.099853515625
6.673828125 19.3885498046875 22.924072265625
-2.39208984375 27.4732666015625 9.7591552734375
-23.77587890625 -58.2625732421875 -20.007080078125
-16.108642578125 33.6531982421875 11.9263916015625
1.865966796875 -10.454833984375 -2.219482421875
-7.96630859375 29.849853515625 4.54443359375
-14.721435546875 35.6309814453125 6.2330322265625
5.023681640625 31.0556640625 4.20166015625
-10.904541015625 -58.158935546875 -24.32666015625
8.6201171875 -9.7955322265625 -2.1422119140625
-4.495361328125 -7.2457275390625 -2.079833984375
-9.278564453125 -6.4952392578125 -2.2071533203125
21.7568359375 -26.5469970703125 -2.55615234375
-28.1396484375 -51.4462890625 -25.0860595703125
-5.3486328125 -59.630126953125 -24.3978271484375
-1.272216796875 -54.99658203125 -24.043701171875
-27.34521484375 -30.5823974609375 -23.098388671875
-5.42041015625 25.9097900390625 10.925048828125
-11.880126953125 9.730224609375 7.1787109375
-10.77880859375 24.8968505859375 12.8927001953125
-27.494140625 4.32470703125 16.7432861328125
3.8505859375 -15.798583984375 -2.568359375
9.061767578125 -1.5401611328125 -1.511474609375
1.767822265625 17.2562255859375 25.4095458984375
15.022705078125 -31.710205078125 -2.7882080078125
-12.442138671875 -63.6575927734375 -15.521240234375
-12.783935546875 26.909912109375 17.989501953125
-16.88916015625 -57.3453369140625 -28.6866455078125
-8.97705078125 -50.8668212890625 -30.6273193359375
-13.290771484375 9.560302734375 6.0626220703125
-22.247802734375 -42.31884765625 -25.680908203125
