13.18310546875 -3.6123046875 -47.253662109375
18.42822265625 10.933837890625 -2.18701171875
-13.016357421875 20.92333984375 1.587646484375
8.872314453125 -16.9013671875 -10.42626953125
8.62890625 -7.483154296875 -12.628662109375
5.42333984375 -20.39794921875 -21.791015625
8.8828125 -19.549072265625 -48.252685546875
1.720458984375 -36.93310546875 -37.48486328125
15.492431640625 -6.278564453125 -0.530029296875
-0.4384765625 -37.30810546875 -31.032470703125
1.188232421875 -3.86328125 -34.26416015625
10.0458984375 -3.283203125 -45.1669921875
5.228271484375 1.6689453125 -35.578369140625
3.59521484375 -44.207275390625 -39.8759765625
7.002685546875 -14.792236328125 -4.93212890625
2.12060546875 -35.486083984375 -25.34033203125
11.593017578125 -3.552734375 -9.2919921875
2.440673828125 -17.463623046875 -19.7529296875
8.2958984375 -0.57177734375 -14.357177734375
15.244140625 -3.713134765625 -3.098388671875
6.724853515625 11.67138671875 -34.239013671875
9.58984375 -10.68896484375 -10.187744140625
20.606201171875 -0.37939453125 3.070556640625
-1.019287109375 -7.02685546875 -27.21435546875
9.817138671875 1.94189453125 -41.439697265625
6.96142578125 -11.313720703125 -4.556884765625
10.014404296875 -22.1962890625 -7.840576171875
-17.650634765625 26.390625 2.119873046875
-6.27099609375 13.139892578125 -7.57470703125
4.81884765625 -9.773681640625 -17.79345703125
11.78515625 2.394775390625 -10.26416015625
2.806640625 -11.541748046875 -20.163330078125
1.892822265625 -13.706787109375 -0.705322265625
17.0087890625 -22.606689453125 -40.86572265625
7.179931640625 -21.056640625 -44.605712890625
-15.59033203125 23.93115234375 -5.057373046875
6.451416015625 -38.052734375 -41.338623046875
0.275146484375 -15.0908203125 -32.618896484375
13.367431640625 2.272216796875 -42.91259765625
5.337158203125 -23.776123046875 -40.54736328125
10.27734375 -20.712646484375 -23.42529296875
-21.482666015625 21.07177734375 11.69921875
2.40966796875 -5.182373046875 -21.89111328125
10.749267578125 -6.671630859375 -5.910888671875
10.084716796875 -15.932373046875 -50.88818359375
-24.459228515625 23.80224609375 6.590576171875
-2.454833984375 -16.31884765625 -28.1494140625
19.772705078125 6.484375 0.55029296875
0.526611328125 -10.553466796875 -35.735107421875
6.663330078125 -13.87158203125 -45.515869140625
0.309326171875 -19.23876953125 -37.80419921875
8.074951171875 -49.65478515625 -38.89453125
-1.109130859375 12.125244140625 -16.802978515625
12.0791015625 -10.579833984375 -51.921875
3.28515625 -14.203369140625 -39.609130859375
10.4013671875 -8.27099609375 -47.930908203125
4.885986328125 -16.643798828125 -41.862060546875
5.111328125 19.442138671875 -28.90380859375
-19.2861328125 22.46630859375 2.163330078125
0.47412109375 -1.390869140625 -26.151123046875
1.443115234375 -1.163818359375 -57.029541015625
2.28955078125 -20.718994140625 -39.89111328125
3.588134765625 -26.59619140625 -39.973388671875
9.86572265625 -16.87744140625 -46.1328125
-0.969482421875 -39.664794921875 -35.199951171875
2.26806640625 -29.75439453125 -36.989990234375
6.12548828125 -30.78271484375 -41.718505859375
-2.26904296875 11.75 -12.333740234375
-12.125 21.742431640625 -4.46630859375
2.125732421875 -2.14404296875 -30.71240234375
0.3837890625 -12.336181640625 -23.658935546875
15.92822265625 2.906005859375 -3.826416015625
1.01123046875 -8.123291015625 -31.99951171875
10.25927734375 -16.1328125 -5.030517578125
9.84619140625 -4.837890625 -11.58544921875
11.289306640625 -23.521240234375 -43.052734375
3.548583984375 -32.81640625 -40.24365234375
17.35546875 7.80908203125 -3.171142578125
-24.808349609375 23.572509765625 1.721435546875
0.1689453125 -33.704833984375 -32.6015625
4.010009765625 -24.06201171875 -26.9345703125
7.93115234375 -19.552001953125 -12.253662109375
0.776123046875 -15.861572265625 -38.117919921875
-0.635986328125 6.532958984375 -15.5068359375
4.472412109375 0.57958984375 -30.9736328125
13.561279296875 -22.271240234375 -2.659423828125
11.051025390625 -21.583984375 -19.35205078125
5.20166015625 -10.700439453125 -44.100830078125
6.670166015625 -6.428466796875 -15.991943359375
21.9287109375 10.63671875 3.076171875
6.491943359375 4.26171875 -37.283203125
-14.603271484375 39.10546875 -11.721435546875
-14.508056640625 33.38427734375 -10.637939453125
-18.10546875 23.00732421875 5.188232421875
2.17041015625 -23.421875 -35.895263671875
1.84912109375 -20.705078125 -33.91162109375
3.704345703125 -11.0439453125 -41.271240234375
1.92919921875 -1.802490234375 -23.586669921875
5.03564453125 0.155517578125 -19.758056640625
5.86767578125 13.786376953125 -30.647216796875
8.70751953125 -20.21142578125 -9.5087890625
6.639892578125 -2.263916015625 -16.568115234375
7.188232421875 9.92041015625 -37.56396484375
7.39208984375 -40.763916015625 -41.688232421875
0.0400390625 -17.633056640625 -29.98974609375
0.900390625 -11.94677734375 -29.712158203125
6.079833984375 -14.11279296875 -15.19580078125
4.298095703125 -10.26904296875 -1.79736328125
8.270751953125 -15.736572265625 -7.507568359375
0.420166015625 -43.34619140625 -37.48779296875
4.002685546875 6.134033203125 -32.260986328125
2.869140625 -38.601806640625 -39.516357421875
0.871337890625 -30.010009765625 -31.024169921875
1.91845703125 -24.253662109375 -30.215087890625
5.705322265625 5.791259765625 -34.5673828125
4.434814453125 -1.633056640625 -36.3154296875
15.626953125 6.9140625 -5.50146484375
-0.05078125 -33.3466796875 -35.36962890625
-12.979736328125 26.174072265625 -8.735107421875
7.10107421875 15.889892578125 -25.986328125
-20.46875 21.593505859375 -0.373291015625
7.050537109375 -14.10498046875 -0.687744140625
1.8974609375 -42.07373046875 -39.439453125
0.727783203125 -4.95947265625 -27.736328125
19.094482421875 -4.507080078125 1.85595703125
-1.488037109375 -18.040771484375 -24.92333984375
1.346923828125 -1.4814453125 -54.0400390625
9.247802734375 -8.30029296875 -2.911865234375
-0.673095703125 3.747314453125 -19.134765625
13.156005859375 4.794677734375 -8.655517578125
6.473388671875 9.26123046875 -28.405517578125
5.687744140625 20.111083984375 -26.35009765625
17.121826171875 -1.22412109375 -1.66943359375
-8.129150390625 20.773681640625 -2.677734375
4.571044921875 -21.6181640625 -38.770751953125
6.142578125 -2.93115234375 -41.689697265625
9.131591796875 -8.755859375 -8.13623046875
-9.607421875 18.53857421875 -2.999267578125
9.7041015625 1.388916015625 -12.736328125
14.4130859375 1.674560546875 -6.030517578125
6.560302734375 4.36767578125 -27.320556640625
1.798583984375 -10.02001953125 -22.0849609375
9.010498046875 -13.260009765625 -50.592041015625
6.09814453125 -19.45263671875 -14.14013671875
-1.41943359375 -13.626220703125 -28.591796875
3.6923828125 -20.9501953125 -17.195556640625
6.828369140625 -15.165771484375 -9.685546875
6.317138671875 -6.427978515625 -42.82763671875
5.977783203125 14.4287109375 -36.48388671875
1.44580078125 -32.937744140625 -26.643310546875
5.387451171875 17.5009765625 -32.799560546875
-4.997802734375 18.273681640625 -5.105712890625
10.59765625 4.38232421875 -11.870361328125
2.3984375 -20.9990234375 -31.405517578125
-20.394775390625 24.21240234375 8.532958984375
12.73388671875 -22.781005859375 -45.939453125
-22.616455078125 22.84228515625 3.01611328125
-0.83984375 -39.748291015625 -30.280517578125
18.99072265625 -1.1943359375 0.770751953125
5.8349609375 -19.499267578125 -43.0869140625
1.0009765625 -8.615234375 -37.33447265625
9.203125 -2.653564453125 -12.90478515625
0.739501953125 -20.0 -25.089599609375
9.062744140625 -19.343017578125 -44.663818359375
19.3203125 3.3173828125 0.8544921875
6.86083984375 -22.08642578125 -13.218994140625
2.592041015625 -14.06005859375 -19.757080078125
8.076416015625 -10.2333984375 -12.854736328125
3.847900390625 -5.56591796875 -38.71044921875
0.09326171875 11.662109375 -14.31201171875
-0.16748046875 -20.20654296875 -35.35791015625
1.440673828125 -27.9833984375 -29.459228515625
-2.4697265625 9.035400390625 -12.845947265625
5.01123046875 -2.24072265625 -18.793701171875
7.435546875 7.16259765625 -27.4140625
4.77490234375 -7.329345703125 -18.333740234375
14.44677734375 -1.70703125 -5.46484375
11.875244140625 -8.278564453125 -4.3310546875
7.7314453125 12.209228515625 -26.030517578125
4.912841796875 0.320556640625 -37.92724609375
7.753173828125 -36.286376953125 -42.536865234375
5.511474609375 -11.843994140625 -16.005615234375
8.70556640625 -13.125244140625 -10.59912109375
12.984619140625 -5.299072265625 -3.7998046875
2.23291015625 -20.34716796875 -27.025634765625
-12.831298828125 21.313232421875 -1.124755859375
8.0986328125 -15.254638671875 -12.26416015625
6.377197265625 24.15869140625 -26.568115234375
5.2568359375 -50.18310546875 -38.464111328125
-16.723388671875 22.3857421875 -2.42236328125
3.31884765625 -46.598876953125 -39.060546875
5.685791015625 -45.426025390625 -40.157958984375
-19.645751953125 24.725830078125 -0.87548828125
11.841796875 -5.383544921875 -7.71044921875
8.59423828125 -27.817626953125 -42.409912109375
8.170166015625 -11.351806640625 -6.7197265625
10.49365234375 -19.977783203125 -5.29296875
18.88525390625 8.19140625 -0.923828125
-1.08447265625 -9.283203125 -28.087646484375
2.54541015625 -27.341552734375 -37.80859375
10.130126953125 -20.25927734375 -17.5576171875
7.593994140625 2.004638671875 -15.711181640625
8.792236328125 -5.171142578125 -44.361572265625
8.34912109375 23.770751953125 -25.107421875
12.922607421875 -18.39404296875 -1.665771484375
7.977783203125 -12.350341796875 -48.46826171875
0.290283203125 -16.464111328125 -23.15185546875
2.191162109375 -35.010009765625 -39.071533203125
15.334228515625 -5.445556640625 -46.65234375
-0.615234375 -38.83837890625 -32.846923828125
0.49951171875 -36.01611328125 -29.26806640625
1.563720703125 -7.24267578125 -22.728515625
1.77197265625 -30.991943359375 -38.95361328125
13.5087890625 -21.852294921875 -19.47607421875
8.583740234375 -22.870849609375 -45.212158203125
11.33837890625 -19.7333984375 -21.546142578125
8.896728515625 -9.25439453125 -46.38916015625
9.983154296875 6.372802734375 -40.605224609375
0.130615234375 4.912841796875 -21.030517578125
-0.041748046875 -16.47119140625 -27.8232421875
1.3076171875 3.182861328125 -23.11865234375
6.69091796875 2.242919921875 -29.921875
5.86572265625 15.996337890625 -27.97900390625
5.80419921875 9.459228515625 -35.524169921875
12.22265625 -15.6337890625 -49.93017578125
7.613525390625 -16.2451171875 -46.315673828125
5.604736328125 -16.385498046875 -15.39013671875
0.11328125 -12.884033203125 -34.09521484375
0.6044921875 -31.300048828125 -36.43017578125
7.9580078125 7.357421875 -38.911865234375
2.735595703125 -5.923095703125 -36.569580078125
11.2021484375 -20.100830078125 -47.610595703125
1.149169921875 -19.220703125 -20.8310546875
1.164306640625 -6.216064453125 -33.3173828125
10.879150390625 -14.2998046875 -52.332763671875
3.0166015625 -19.185546875 -41.79052734375
5.23193359375 -15.23486328125 -43.944091796875
0.935546875 -38.071044921875 -35.6337890625
8.691162109375 -9.9072265625 -1.2919921875
10.78125 -16.87744140625 -2.3798828125
0.846435546875 -28.367431640625 -33.744873046875
-4.31787109375 14.43212890625 -8.391357421875
9.992919921875 -2.849609375 -47.416259765625
5.072998046875 21.721923828125 -30.35009765625
6.385009765625 -22.065673828125 -41.866943359375
3.79638671875 -16.443359375 -18.16357421875
17.6494140625 2.903564453125 -1.47412109375
5.96435546875 8.5712890625 -31.361328125
16.225341796875 5.1171875 -4.192138671875
-1.553466796875 -41.73974609375 -34.54931640625
0.83837890625 -34.967529296875 -36.650634765625
1.49560546875 -25.69580078125 -33.500732421875
0.1123046875 -6.81005859375 -25.292724609375
12.948974609375 -2.401123046875 -7.189697265625
5.3291015625 -34.171142578125 -41.11181640625
4.6875 1.10400390625 -33.13330078125
1.29052734375 -20.7802734375 -22.984375
6.386474609375 4.584228515625 -30.58984375
12.495361328125 -21.040771484375 -4.19970703125
6.025634765625 -42.947998046875 -40.51123046875
-19.890625 25.079345703125 1.30810546875
0.065673828125 -17.570068359375 -32.209228515625
3.818115234375 -5.71044921875 -19.783935546875
0.460693359375 -20.73046875 -29.249755859375
-4.89208984375 11.901123046875 -9.582763671875
8.183349609375 10.736328125 -39.3544921875
7.057861328125 -0.27734375 -40.002685546875
10.717529296875 -0.064453125 -42.291259765625
6.94921875 -9.48681640625 -44.642333984375
8.680908203125 -2.55419921875 -43.61083984375
7.993408203125 2.923583984375 -40.1015625
5.494873046875 3.607666015625 -34.607421875
-0.880859375 -19.267578125 -33.51953125
1.4208984375 0.695068359375 -22.9990234375
3.213623046875 -20.492431640625 -21.554443359375
-15.01220703125 29.052001953125 -8.0654296875
1.45654296875 -12.57763671875 -21.7431640625
2.681396484375 -9.449462890625 -40.041015625
1.88916015625 -7.015380859375 -29.35009765625
12.69677734375 -19.890380859375 -46.05224609375
-2.7412109375 12.75244140625 -15.377685546875
-0.172119140625 5.10986328125 -17.0703125
9.8720703125 -11.18994140625 -52.020263671875
-23.8330078125 22.271240234375 10.743896484375
5.684326171875 13.29345703125 -32.98779296875
0.9755859375 -3.55419921875 -32.142333984375
13.135009765625 2.70068359375 -8.14794921875
5.335693359375 17.05224609375 -35.070556640625
-14.513427734375 22.092041015625 -5.34814453125
2.1220703125 -13.337890625 -37.539794921875
4.0439453125 -7.045654296875 -40.34619140625
-0.927978515625 -10.516845703125 -25.72802734375
1.37744140625 -35.146728515625 -27.51416015625
1.853759765625 -25.374267578125 -37.318359375
6.362060546875 11.76708984375 -28.52880859375
6.21875 11.9873046875 -36.2958984375
8.033203125 -25.453857421875 -42.30712890625
5.305419921875 -28.853271484375 -41.286865234375
20.952880859375 5.401123046875 2.656494140625
3.287353515625 -12.099365234375 -0.906494140625
-24.026123046875 23.953369140625 4.50634765625
0.340087890625 -34.24755859375 -25.37744140625
12.929443359375 -2.4052734375 -44.74755859375
0.650634765625 -13.500244140625 -31.137451171875
11.1982421875 -6.326904296875 -47.630126953125
-21.208984375 27.2705078125 3.7822265625
-2.778564453125 -14.556396484375 -27.015625
1.11328125 -9.94189453125 -30.556396484375
-0.32861328125 -30.404541015625 -26.2626953125
9.544189453125 -8.71923828125 -11.189208984375
4.740966796875 -20.4248046875 -26.21337890625
-1.13037109375 -12.66796875 -25.776611328125
1.292724609375 -31.32373046875 -29.443359375
9.8154296875 -6.801513671875 -7.8154296875
1.193603515625 -16.184326171875 -35.692626953125
5.439453125 -20.329345703125 -24.0546875
6.883544921875 -11.6455078125 -14.372314453125
16.527587890625 1.102783203125 -2.514404296875
-18.72509765625 20.8642578125 -2.611083984375
7.992431640625 -18.17724609375 -9.001953125
6.489013671875 -4.367431640625 -16.134765625
7.463623046875 2.505126953125 -27.274658203125
-22.41015625 20.7041015625 13.51171875
10.778564453125 -23.130615234375 -45.06689453125
3.93310546875 -3.607666015625 -39.615966796875
1.345703125 -9.21240234375 -34.036865234375
4.086181640625 -12.13720703125 -18.116455078125
6.147216796875 -13.1513671875 -4.021240234375
6.02783203125 4.99658203125 -25.325927734375
-14.115234375 39.69677734375 -13.770751953125
3.575927734375 -3.763671875 -20.41357421875
-14.603271484375 24.74853515625 -6.835205078125
-0.136474609375 -17.530029296875 -36.745849609375
11.408203125 -4.3564453125 -46.27294921875
8.104248046875 -9.6337890625 -3.97412109375
-2.908203125 13.7099609375 -12.2548828125
7.91748046875 -31.662109375 -42.166259765625
9.29248046875 -20.5126953125 -6.85986328125
-0.171875 -45.76171875 -36.39111328125
21.127685546875 8.479248046875 2.203857421875
1.166259765625 -17.200927734375 -21.3251953125
1.754638671875 -44.080810546875 -39.0107421875
-1.625 7.414794921875 -13.74560546875
7.612060546875 -9.9951171875 -48.714111328125
19.672607421875 -2.54931640625 2.128173828125
-21.51171875 22.02001953125 1.342041015625
-10.24169921875 21.34912109375 -2.936279296875
1.084228515625 -48.0771484375 -37.4658203125
8.6484375 -5.418212890625 -13.130859375
5.826416015625 -36.130615234375 -41.2548828125
-14.017333984375 42.85595703125 -15.16064453125
0.3349609375 -35.095703125 -31.15185546875
5.445068359375 -12.757080078125 -44.36181640625
5.9990234375 -8.362548828125 -16.294921875
7.75146484375 -13.55615234375 -6.428955078125
6.180419921875 10.099365234375 -32.654296875
-0.651123046875 -41.382080078125 -36.312255859375
5.68896484375 -11.37353515625 -2.89697265625
19.928955078125 1.499755859375 2.18359375
10.13623046875 -7.916748046875 -45.41748046875
5.1708984375 15.46337890625 -31.9443359375
1.551513671875 -29.644775390625 -35.13330078125
0.61669921875 -31.86376953125 -31.988037109375
1.597900390625 -18.751708984375 -39.40087890625
10.769775390625 -1.956298828125 -43.5419921875
10.39697265625 -2.925537109375 -11.340087890625
10.0966796875 4.22802734375 -40.932373046875
11.66455078125 3.14794921875 -42.395263671875
-21.7177734375 23.006103515625 11.0634765625
3.32763671875 -18.698486328125 -18.3525390625
14.528564453125 6.3388671875 -7.019775390625
7.357421875 -29.302978515625 -42.0634765625
3.62060546875 -48.54248046875 -38.857666015625
14.825439453125 8.712890625 -6.441162109375
2.427734375 -2.966064453125 -35.91357421875
2.79931640625 -24.17578125 -28.435791015625
4.71630859375 -21.506591796875 -40.911865234375
16.688720703125 -3.12353515625 -1.861328125
12.013916015625 -1.67822265625 -9.112060546875
8.11279296875 -38.982666015625 -41.84423828125
1.699462890625 -20.56298828125 -37.97509765625
4.693115234375 -0.048095703125 -34.893310546875
4.664794921875 -20.068115234375 -15.794189453125
1.782470703125 -3.881103515625 -23.15478515625
4.342041015625 -38.0126953125 -40.5849609375
8.31689453125 -10.7490234375 -8.52587890625
5.367431640625 1.71240234375 -18.70556640625
4.115966796875 -2.816650390625 -37.77294921875
9.528564453125 -18.71435546875 -46.66796875
7.46044921875 -20.22802734375 -23.94482421875
10.881591796875 -21.70361328125 -5.98681640625
-1.842529296875 -17.620361328125 -26.910400390625
7.058837890625 -14.401123046875 -2.56201171875
7.179931640625 -7.79541015625 -14.77001953125
0.567626953125 -15.94287109375 -30.665771484375
-0.707275390625 -11.793701171875 -28.729248046875
8.726806640625 -15.06591796875 -3.996826171875
5.37744140625 18.351806640625 -30.5615234375
12.304931640625 0.505615234375 -9.47802734375
5.310302734375 -21.79931640625 -43.70068359375
3.20849609375 -22.538330078125 -37.187744140625
21.187255859375 1.232177734375 3.835693359375
12.079833984375 -2.90234375 -48.66552734375
6.80029296875 2.275390625 -37.07568359375
-0.336181640625 -37.839111328125 -29.192626953125
6.836669921875 5.83203125 -38.507080078125
-11.37255859375 23.64697265625 -6.870361328125
-14.072265625 21.355224609375 3.32373046875
23.5048828125 -21.7587890625 -59.19140625
0.01123046875 -3.158447265625 -25.888916015625
0.16357421875 7.358642578125 -16.94580078125
2.415283203125 -7.435302734375 -37.5703125
-19.015625 23.901611328125 11.251220703125
6.622314453125 -24.462158203125 -41.680419921875
-14.200927734375 37.722900390625 -12.85791015625
6.184326171875 5.25439453125 -28.895263671875
8.722900390625 -11.564208984375 -11.55615234375
4.5087890625 -14.9755859375 -41.210205078125
1.52490234375 -38.68310546875 -37.967041015625
2.916748046875 -0.83251953125 -31.70458984375
7.2890625 -51.378173828125 -38.33642578125
-22.625 23.75732421875 7.682861328125
-12.09716796875 20.097412109375 0.248779296875
1.3359375 -3.453369140625 -29.721923828125
6.695068359375 -8.107177734375 -43.481201171875
1.606689453125 -25.38623046875 -31.676513671875
2.09326171875 -40.330810546875 -38.9599609375
13.447509765625 -20.08837890625 -2.2939453125
0.780029296875 -0.542724609375 -24.204833984375
-18.565673828125 27.212890625 3.45263671875
-3.513427734375 10.662109375 -11.5908203125
8.3046875 0.782470703125 -40.7802734375
18.9169921875 4.765625 -0.354248046875
-15.111572265625 32.217529296875 -9.102783203125
-2.416015625 12.885009765625 -10.58203125
5.09326171875 17.903564453125 -27.96044921875
3.793701171875 -24.477783203125 -39.939453125
19.1962890625 -22.96044921875 -41.180419921875
12.206787109375 4.279296875 -10.08544921875
2.623046875 -21.556640625 -35.28515625
11.40771484375 -23.02783203125 -7.082763671875
5.263671875 -25.513671875 -40.9697265625
14.232177734375 -23.138427734375 -42.5830078125
10.215576171875 -6.14599609375 -44.995849609375
0.23876953125 -14.398193359375 -23.2294921875
1.16015625 -12.1357421875 -36.2685546875
7.320556640625 -13.111083984375 -46.9921875
3.55859375 -12.601806640625 -40.410400390625
5.786865234375 -17.453125 -43.173583984375
1.69677734375 -5.498046875 -34.861083984375
15.397216796875 -2.07763671875 -4.002197265625
-0.911376953125 -8.50341796875 -26.221435546875
9.555419921875 -0.3828125 -12.77294921875
3.18896484375 -28.227783203125 -39.235107421875
14.9580078125 -3.5546875 -47.3310546875
4.052978515625 -42.512939453125 -40.14697265625
0.443603515625 -10.56005859375 -28.1826171875
-6.594970703125 20.55712890625 -1.81494140625
11.307861328125 -5.375 -9.4013671875
-0.54052734375 -36.778564453125 -32.866943359375
9.692626953125 -6.9560546875 -11.151123046875
1.202880859375 -24.830322265625 -35.441162109375
8.01611328125 -2.38330078125 -14.460693359375
6.546875 2.310302734375 -17.1875
7.38427734375 -19.270263671875 -44.127685546875
17.375 9.572021484375 -3.19873046875
5.1533203125 -32.178466796875 -41.256591796875
4.618408203125 -18.38330078125 -41.935302734375
8.70947265625 1.292236328125 -14.185302734375
8.45947265625 -18.73779296875 -10.602783203125
-5.8525390625 16.816162109375 -4.615966796875
7.545654296875 13.9287109375 -25.71142578125
6.102783203125 -11.51025390625 -45.4130859375
10.31640625 -17.90966796875 -48.0888671875
2.064697265625 -22.6923828125 -31.077880859375
12.595458984375 -23.3798828125 -44.21875
7.88427734375 -16.951171875 -11.874267578125
0.78076171875 -7.52294921875 -28.0927734375
7.000732421875 10.480224609375 -27.26416015625
20.658447265625 -2.04248046875 3.615478515625
6.98193359375 -2.055908203125 -40.429931640625
6.11328125 7.46923828125 -35.31640625
8.732421875 -15.3603515625 -5.864990234375
7.419921875 -22.489013671875 -43.56884765625
10.2421875 -17.704345703125 -4.066650390625
9.980224609375 -24.628173828125 -42.744384765625
9.99853515625 -8.22412109375 -6.278564453125
-1.027587890625 10.623291015625 -13.4970703125
10.582275390625 2.65283203125 -11.838623046875
2.649169921875 -15.791015625 -20.14111328125
-7.0537109375 14.35986328125 -6.63330078125
14.3955078125 -0.069091796875 -6.00146484375
12.186279296875 -21.077880859375 -20.624755859375
5.4609375 -18.120849609375 -15.424560546875
8.3935546875 4.20458984375 -26.400146484375
5.768798828125 21.76708984375 -26.810546875
15.364013671875 1.3115234375 -4.568359375
-11.02392578125 22.789794921875 -5.265625
3.85009765625 -9.841064453125 -19.20947265625
2.08984375 -12.21044921875 0.316162109375
7.580078125 0.2900390625 -15.677978515625
5.715576171875 5.471923828125 -36.349365234375
-14.471923828125 21.1337890625 -1.5869140625
19.96484375 4.8740234375 1.1689453125
-17.314208984375 22.131103515625 3.782958984375
17.336181640625 6.048095703125 -3.1435546875
10.135009765625 -9.14111328125 -9.467529296875
8.8017578125 -14.909912109375 -50.1943359375
9.579345703125 -17.714599609375 -5.830322265625
-15.73779296875 22.354736328125 -4.18603515625
18.725830078125 6.371826171875 -0.970947265625
5.4912109375 -4.4912109375 -42.392822265625
1.712646484375 -25.90283203125 -29.826171875
9.22216796875 -22.872314453125 -43.595458984375
8.102294921875 9.09912109375 -38.8955078125
-1.594482421875 12.017578125 -14.291015625
5.83056640625 13.354248046875 -35.173828125
3.65478515625 -8.99169921875 -41.357421875
11.9873046875 -25.3720703125 -42.668212890625
5.554931640625 6.383056640625 -31.05029296875
-20.32177734375 23.163818359375 -1.2412109375
8.006591796875 -16.471435546875 -9.03173828125
9.1591796875 -21.8349609375 -9.698974609375
0.751953125 -13.023681640625 -28.411865234375
1.716552734375 -4.47265625 -36.217041015625
0.734619140625 -15.637939453125 -34.156982421875
-0.636962890625 12.14013671875 -12.85888671875
11.756103515625 -6.594482421875 -4.4306640625
6.244873046875 -39.68408203125 -40.947021484375
1.720703125 -31.815673828125 -27.876708984375
12.4970703125 0.690673828125 -43.26708984375
5.608154296875 15.212646484375 -29.4521484375
7.05078125 -15.403564453125 -14.197509765625
0.83349609375 -17.560546875 -38.481689453125
2.25537109375 -0.300537109375 -55.83056640625
0.721435546875 -18.016845703125 -28.29541015625
0.888427734375 -32.518798828125 -34.050048828125
7.40380859375 3.4423828125 -38.611083984375
7.9814453125 -21.157958984375 -11.7275390625
-0.718017578125 -19.240966796875 -25.849365234375
8.22412109375 -3.782470703125 -45.11279296875
2.68701171875 -36.96337890625 -39.214111328125
-20.382568359375 22.781982421875 3.390380859375
3.4765625 -13.8154296875 -1.239990234375
5.36083984375 -14.926513671875 -16.47119140625
-0.722900390625 5.33642578125 -19.655517578125
14.634765625 -3.296630859375 -4.8564453125
6.583984375 -15.478759765625 -45.06201171875
-2.88525390625 -13.084716796875 -28.003173828125
-14.064208984375 31.7890625 -10.824951171875
0.65380859375 -28.305419921875 -27.61083984375
-0.214599609375 -38.15869140625 -34.432373046875
8.886474609375 -17.33251953125 -44.810546875
-0.32080078125 -5.370361328125 -26.001220703125
-0.049560546875 -10.892578125 -24.368408203125
8.437744140625 -8.274658203125 -1.46240234375
2.718505859375 -6.67822265625 -21.23974609375
4.9248046875 21.158935546875 -28.58740234375
3.7109375 -2.00390625 -34.86865234375
4.60546875 -11.853759765625 -42.583740234375
2.05810546875 -14.744873046875 -38.414794921875
5.595947265625 -6.79736328125 -41.38671875
5.9951171875 11.80419921875 -32.341064453125
-25.639892578125 25.167236328125 2.606689453125
1.43017578125 -29.634765625 -29.420166015625
5.169189453125 5.0693359375 -33.0087890625
1.135986328125 -20.245849609375 -32.496337890625
2.000732421875 -15.805908203125 -39.73583984375
13.495849609375 -5.101318359375 -46.61767578125
-0.23291015625 -19.23583984375 -29.18994140625
0.7099609375 -2.327392578125 -24.649169921875
8.53466796875 -21.306396484375 -45.724853515625
0.110107421875 -31.981201171875 -26.447265625
1.84130859375 -9.0322265625 -38.687744140625
1.439697265625 -10.19140625 -37.51904296875
-0.58935546875 -18.81396484375 -31.16455078125
9.59228515625 -31.62890625 -41.82177734375
18.905517578125 9.96142578125 -0.950439453125
0.988525390625 -20.105224609375 -36.56591796875
17.17578125 3.881103515625 -2.704833984375
2.690673828125 -25.789794921875 -38.666259765625
2.021728515625 -32.67919921875 -39.661376953125
3.410400390625 -34.491943359375 -40.2587890625
-12.163818359375 21.23486328125 -2.61474609375
0.886962890625 -36.519287109375 -36.142333984375
15.458740234375 3.879638671875 -5.048828125
7.972412109375 -10.3369140625 -5.440673828125
7.368408203125 8.383544921875 -36.98291015625
-0.259033203125 -39.30078125 -36.619873046875
1.398193359375 -6.66064453125 -31.39990234375
0.564208984375 -41.806396484375 -38.3388671875
0.61376953125 -0.751953125 -55.69384765625
4.9599609375 4.891845703125 -31.302978515625
-0.599365234375 -15.075439453125 -28.588623046875
6.541748046875 -49.138671875 -38.760498046875
4.489501953125 -10.239013671875 -42.6884765625
2.098876953125 3.157958984375 -24.53466796875
7.8935546875 -8.669677734375 -13.45068359375
2.979736328125 -2.221923828125 -32.533203125
12.52978515625 -3.9248046875 -7.848876953125
5.673828125 -0.646240234375 -18.02978515625
4.946533203125 18.935302734375 -33.5087890625
12.570068359375 7.09619140625 -9.487548828125
5.911376953125 -3.455810546875 -17.378662109375
-2.98193359375 -16.2080078125 -26.62890625
7.855224609375 -5.854248046875 -14.463134765625
11.3818359375 -21.26513671875 -17.81201171875
5.48779296875 -2.85986328125 -40.2275390625
-25.590576171875 23.596923828125 3.12109375
2.8115234375 -20.826904296875 -41.3984375
8.392578125 -16.269775390625 -47.7099609375
7.564453125 -14.68115234375 -46.828125
2.925048828125 -11.01953125 -39.876953125
20.939208984375 -19.66357421875 -60.36669921875
-0.07177734375 -34.38232421875 -34.027587890625
5.59228515625 -10.198974609375 -16.462646484375
6.18115234375 13.312744140625 -29.11572265625
7.31298828125 -42.357666015625 -41.237060546875
-20.121826171875 23.756103515625 10.1181640625
2.67626953125 -11.42822265625 1.569580078125
2.916748046875 -29.818359375 -38.43798828125
5.822998046875 -21.2294921875 -14.242919921875
15.160888671875 -5.245849609375 -1.683349609375
1.831787109375 -5.28759765625 -28.97509765625
-0.41015625 -42.93408203125 -36.150390625
13.644775390625 6.279052734375 -8.43115234375
1.995361328125 -4.831787109375 -38.737060546875
3.423828125 -20.2900390625 -23.265869140625
13.312255859375 -6.326904296875 -2.654296875
1.37939453125 -8.182373046875 -30.471435546875
4.103271484375 -51.189208984375 -38.109130859375
3.48681640625 -14.940673828125 -18.81689453125
7.8955078125 -2.529541015625 -42.20556640625
0.724365234375 -33.3388671875 -31.00634765625
1.642822265625 -5.612060546875 -23.18310546875
2.565673828125 -9.60009765625 -20.790771484375
7.1962890625 -13.659423828125 -14.162109375
-25.662109375 24.4482421875 5.399658203125
5.82763671875 0.34326171875 -39.272216796875
0.771484375 -10.873291015625 -23.044189453125
9.879638671875 -28.85498046875 -43.097412109375
2.300537109375 -19.18359375 -19.78369140625
18.394287109375 -4.908447265625 0.52685546875
-0.527587890625 -16.470703125 -24.47265625
0.69921875 -29.443359375 -32.45751953125
10.426513671875 -19.106689453125 -45.360595703125
-0.701904296875 -13.619384765625 -24.63330078125
0.28515625 -13.43212890625 -32.65966796875
3.732177734375 -23.12646484375 -39.127685546875
18.625 -2.997802734375 1.09130859375
0.740478515625 -16.495849609375 -29.22265625
12.242431640625 -5.2841796875 -5.14306640625
-0.755615234375 8.1845703125 -15.60693359375
4.995849609375 -27.241943359375 -41.04345703125
4.004150390625 -0.69580078125 -30.268798828125
3.28173828125 -16.96826171875 -41.2919921875
12.947265625 -23.037841796875 -3.915283203125
11.1708984375 1.22607421875 -11.029052734375
0.322265625 -20.244140625 -33.78662109375
5.2685546875 1.898193359375 -31.969970703125
5.46484375 -9.29296875 -43.580810546875
11.192626953125 1.711669921875 -42.570556640625
8.09716796875 -14.608642578125 -10.88671875
20.76025390625 7.015625 2.035888671875
5.060546875 20.012939453125 -30.3095703125
-10.718505859375 18.858642578125 -1.75927734375
20.138427734375 7.943603515625 0.71630859375
1.5947265625 -15.02587890625 -36.8603515625
4.733154296875 4.689453125 -27.33447265625
7.29296875 -12.28125 -5.76513671875
-0.0771484375 3.226318359375 -20.640869140625
2.017822265625 -22.0908203125 -32.455078125
0.69580078125 -19.884033203125 -26.91357421875
5.93017578125 10.177490234375 -34.133056640625
1.956298828125 -24.4501953125 -34.197509765625
7.623046875 -10.93408203125 -3.2666015625
5.244384765625 7.36865234375 -32.134521484375
5.589599609375 -14.098388671875 -1.01611328125
-14.802978515625 23.05859375 -6.4541015625
8.065673828125 -6.52734375 -43.772705078125
3.171875 -41.016845703125 -39.73681640625
6.687744140625 2.904052734375 -28.5810546875
5.218017578125 2.482177734375 -33.362060546875
0.572021484375 -11.142822265625 -34.363037109375
3.69921875 -21.579833984375 -18.54736328125
1.220947265625 -5.13330078125 -31.9775390625
-13.314453125 24.93896484375 -7.97265625
-15.000244140625 37.41357421875 -10.98486328125
1.328369140625 -33.582275390625 -28.026611328125
4.962890625 -0.2626953125 -36.546142578125
8.10986328125 -12.251220703125 -9.535888671875
8.696044921875 -11.982421875 -49.903564453125
5.52685546875 15.68798828125 -35.83935546875
0.96875 1.951171875 -22.35107421875
9.794189453125 -1.23828125 -42.68701171875
-1.6640625 -16.514404296875 -25.501220703125
7.554931640625 -15.992431640625 -10.677001953125
9.279541015625 0.065673828125 -41.63427734375
10.337890625 -20.1962890625 -20.20849609375
5.3671875 -6.196044921875 -17.594970703125
1.95166015625 -28.489990234375 -36.29736328125
1.114013671875 -20.797119140625 -30.708984375
3.6416015625 0.03662109375 -32.71875
8.047607421875 -21.08740234375 -24.989013671875
6.910400390625 -5.6123046875 -43.900634765625
4.98681640625 -21.856689453125 -16.95947265625
3.0458984375 -31.20458984375 -39.654052734375
13.6396484375 -22.023193359375 -18.0234375
9.78173828125 -9.28173828125 -4.490234375
-9.30224609375 20.12451171875 -1.919189453125
12.32763671875 -20.47021484375 -22.402099609375
4.894775390625 18.935791015625 -26.71826171875
10.12646484375 -15.52734375 -3.70361328125
-2.299560546875 -11.7861328125 -28.6357421875
0.848388671875 4.096435546875 -22.009765625
2.033203125 -22.364990234375 -34.21875
9.905517578125 -4.662109375 -45.630126953125
1.04345703125 -36.3505859375 -26.7568359375
-13.85888671875 20.943603515625 -3.566162109375
-2.315673828125 12.837890625 -13.306884765625
21.292236328125 10.67138671875 1.76318359375
4.989501953125 6.60546875 -33.590576171875
-13.695556640625 26.98828125 -7.75830078125
0.2919921875 -30.9013671875 -25.0390625
2.871337890625 -3.752197265625 -21.689453125
-14.298828125 34.563720703125 -11.468017578125
6.02392578125 3.48583984375 -36.141845703125
-13.906005859375 40.8759765625 -14.6005859375
11.013427734375 5.749755859375 -12.15234375
2.84033203125 -12.969970703125 -38.97509765625
6.42236328125 10.349365234375 -29.369873046875
1.47705078125 -7.84423828125 -33.564453125
-19.683349609375 21.56884765625 -1.778564453125
5.15869140625 -1.261962890625 -37.761962890625
-13.0986328125 22.333251953125 -6.41552734375
-1.199462890625 -39.635986328125 -31.78955078125
1.91845703125 -47.21484375 -38.4013671875
-1.548828125 -10.05322265625 -26.955322265625
6.801025390625 8.290771484375 -29.580078125
5.85302734375 25.495849609375 -25.49072265625
19.4267578125 0.358642578125 1.454345703125
4.56494140625 -16.38623046875 -16.391357421875
-15.307373046875 25.89892578125 -6.32275390625
1.991455078125 -23.687255859375 -37.301025390625
6.860107421875 -35.13232421875 -41.67578125
0.1591796875 -35.34326171875 -32.56103515625
1.7646484375 -2.74267578125 -33.5654296875
6.13916015625 10.855224609375 -35.40185546875
5.27734375 -22.421630859375 -39.734619140625
8.55029296875 -13.540283203125 -49.04248046875
0.2744140625 -16.88916015625 -33.45947265625
1.262451171875 -28.24267578125 -30.87841796875
-14.58056640625 40.625244140625 -12.66064453125
4.2451171875 -0.982421875 -20.13720703125
4.26220703125 -31.027099609375 -40.397216796875
-4.715576171875 13.07958984375 -8.11669921875
-21.045654296875 22.79296875 0.20556640625
14.381103515625 -21.508056640625 -1.762451171875
6.742919921875 -20.43603515625 -13.31884765625
16.118896484375 8.0556640625 -4.7890625
6.359619140625 -41.283203125 -40.84326171875
9.2294921875 -20.748291015625 -8.288818359375
1.367431640625 -8.675048828125 -35.822265625
-1.1767578125 -40.349853515625 -33.963134765625
-0.2138671875 -19.1298828125 -36.295654296875
7.237548828125 -13.826171875 -9.96337890625
9.13525390625 7.138671875 -39.687744140625
6.69091796875 -32.3154296875 -41.843505859375
0.976318359375 -27.02685546875 -33.275146484375
9.3203125 -26.008056640625 -42.56787109375
0.53564453125 -44.93359375 -37.385498046875
0.3935546875 -46.936767578125 -36.958251953125
10.2412109375 -13.83203125 -53.507568359375
1.0009765625 -9.7900390625 -31.958984375
1.22705078125 -20.2265625 -35.11767578125
2.12158203125 -45.597900390625 -38.789306640625
-0.67626953125 -19.355712890625 -24.025634765625
5.724365234375 16.2822265625 -26.231201171875
18.0107421875 -2.060302734375 -0.218017578125
-23.850341796875 23.662353515625 2.74755859375
6.25 -16.2021484375 -43.875732421875
0.6826171875 -6.033935546875 -24.11669921875
0.477294921875 -0.05224609375 -25.7314453125
12.237548828125 -19.6220703125 -2.953857421875
1.494873046875 -34.50439453125 -26.1298828125
2.736572265625 -20.150634765625 -18.623779296875
12.373779296875 -22.004638671875 -18.668212890625
-22.876708984375 21.170654296875 12.277099609375
9.47265625 -12.49365234375 -51.71923828125
18.72265625 -24.093505859375 -39.573486328125
8.844970703125 -19.172119140625 -8.527587890625
0.10986328125 11.840576171875 -15.693359375
1.47314453125 -20.739501953125 -28.294677734375
22.39111328125 -20.7255859375 -58.833740234375
4.41796875 -11.936279296875 -1.69970703125
14.171142578125 -22.415771484375 -21.4248046875
3.361572265625 -10.289794921875 -0.42919921875
6.887939453125 -18.69775390625 -13.28271484375
12.529541015625 4.2314453125 -42.47216796875
1.109619140625 -11.26513671875 -30.969970703125
11.48681640625 -0.654052734375 -9.882568359375
8.9736328125 -20.76416015625 -10.75048828125
17.491455078125 1.0947265625 -1.5205078125
4.868896484375 -11.370361328125 -17.270263671875
-7.93310546875 22.140625 -2.591796875
9.2373046875 3.146728515625 -40.858154296875
4.29638671875 -19.865966796875 -42.921142578125
10.927001953125 -9.114501953125 -5.292724609375
-2.076904296875 -13.070556640625 -26.697021484375
-0.376220703125 -17.683837890625 -27.063232421875
18.553955078125 3.314697265625 -0.5185546875
8.9921875 -4.013427734375 -12.983642578125
1.85595703125 -20.38037109375 -21.34619140625
5.947998046875 1.19970703125 -37.00732421875
7.487060546875 3.223876953125 -30.4619140625
7.643310546875 8.51708984375 -27.346923828125
-21.296875 23.671142578125 9.417724609375
1.227294921875 -30.974609375 -35.253662109375
8.89208984375 -18.238525390625 -47.853759765625
9.367919921875 -19.06494140625 -5.914794921875
0.2822265625 -32.62451171875 -36.548828125
-22.8837890625 24.139404296875 1.4443359375
0.065185546875 -34.943115234375 -35.267333984375
21.841552734375 9.272705078125 3.05712890625
3.622802734375 -21.65478515625 -40.106201171875
3.94970703125 -39.28759765625 -40.29443359375
4.55029296875 -3.33349609375 -19.464111328125
0.873779296875 -31.48046875 -38.05419921875
6.2470703125 12.23681640625 -30.416748046875
-19.2099609375 22.864501953125 4.07470703125
14.241455078125 4.8447265625 -7.611572265625
6.28662109375 -12.772705078125 -15.119140625
6.819580078125 13.322998046875 -36.94384765625
0.854248046875 -32.00244140625 -30.53369140625
6.504150390625 14.714599609375 -26.71240234375
1.932861328125 -24.043701171875 -31.552001953125
5.049560546875 -12.92236328125 -16.680419921875
19.591064453125 8.979736328125 -0.0810546875
3.31298828125 -12.552734375 -19.421142578125
19.758056640625 -1.201171875 2.146728515625
18.18212890625 7.40576171875 -1.763671875
9.522705078125 -9.32421875 -6.978271484375
0.144775390625 -20.327880859375 -23.58154296875
4.27978515625 -28.563232421875 -40.4638671875
-3.525146484375 14.91845703125 -9.364990234375
2.000244140625 -8.690673828125 -22.014404296875
13.5302734375 1.62548828125 -7.443115234375
5.1669921875 17.674560546875 -29.28369140625
8.39453125 -17.047119140625 -7.88037109375
10.198974609375 -20.450439453125 -18.896484375
-4.0068359375 15.15771484375 -7.30419921875
3.73193359375 -8.1962890625 -19.310302734375
19.095703125 1.916748046875 0.7626953125
15.54443359375 5.573974609375 -5.515625
15.3076171875 -20.7109375 -44.826171875
20.232177734375 3.731201171875 1.81884765625
-0.546875 -17.99462890625 -23.54248046875
7.3603515625 4.687744140625 -29.203857421875
5.106201171875 20.12744140625 -27.556884765625
16.657958984375 7.02734375 -4.00341796875
11.392822265625 3.46435546875 -10.9638671875
2.878662109375 -6.6669921875 -38.700439453125
1.543212890625 -10.3994140625 -28.983154296875
-2.25146484375 -14.66796875 -28.53662109375
0.793701171875 -8.011962890625 -23.557373046875
7.19091796875 10.93115234375 -36.694091796875
10.650634765625 -16.415771484375 -47.106689453125
-16.279541015625 20.79052734375 -2.609130859375
19.7998046875 -3.742919921875 2.702880859375
3.42138671875 -21.030029296875 -38.456298828125
9.582763671875 -14.44921875 -51.166015625
9.687744140625 -22.240966796875 -45.60009765625
6.32275390625 6.658447265625 -28.410400390625
6.8828125 12.13720703125 -27.367431640625
4.868896484375 -43.96826171875 -40.15234375
3.729736328125 -15.436279296875 -40.242919921875
14.63134765625 3.058837890625 -5.945068359375
7.986572265625 10.9443359375 -26.32666015625
1.057373046875 -26.38330078125 -34.5830078125
16.089599609375 -1.31591796875 -3.17333984375
12.289306640625 -7.116943359375 -3.1875
8.3818359375 -37.739013671875 -42.1962890625
4.2861328125 -19.495849609375 -16.921630859375
6.97509765625 -36.735107421875 -41.57177734375
6.407470703125 -20.28857421875 -22.65771484375
-19.68017578125 27.57275390625 2.79833984375
4.916748046875 16.720458984375 -31.651611328125
6.624267578125 9.671630859375 -31.06640625
-8.197509765625 19.462158203125 -2.693115234375
9.235595703125 -9.518310546875 -2.421875
3.7080078125 -11.0791015625 -18.79541015625
13.708984375 -0.830078125 -6.82177734375
6.7841796875 -44.016845703125 -40.557861328125
5.663818359375 -14.29736328125 -2.383056640625
17.47900390625 -0.14208984375 -1.022705078125
4.911376953125 -46.3349609375 -39.621826171875
11.308837890625 -18.06396484375 -2.542724609375
12.45263671875 1.9365234375 -8.962158203125
10.29541015625 -19.7734375 -46.71923828125
10.873779296875 -1.81591796875 -10.647216796875
9.716552734375 2.60205078125 -13.224609375
7.2626953125 1.054443359375 -39.94580078125
1.830810546875 -13.630615234375 -21.070556640625
9.810546875 -1.498291015625 -12.1474609375
4.331787109375 -14.9111328125 -43.058349609375
8.175537109375 -13.953857421875 -12.25341796875
7.62060546875 -14.25048828125 -7.886474609375
2.7978515625 -23.208251953125 -27.56494140625
8.84716796875 -10.41455078125 -7.315185546875
9.458251953125 -16.546630859375 -6.388671875
6.12060546875 14.734375 -28.273681640625
18.44677734375 -0.153076171875 -0.0234375
3.138671875 -4.75927734375 -37.742919921875
-0.73779296875 -19.021240234375 -34.78564453125
12.271728515625 -2.801025390625 -8.480712890625
14.798095703125 -0.6328125 -4.827392578125
5.981689453125 -10.2373046875 -45.070556640625
4.939697265625 7.687255859375 -34.54541015625
-15.604248046875 21.051025390625 -4.552978515625
10.06005859375 7.66748046875 -40.609130859375
4.666015625 -13.704345703125 -43.818359375
8.437744140625 -11.91357421875 -7.96875
7.728515625 -10.00048828125 -46.465087890625
-6.239501953125 18.028564453125 -4.384765625
10.916748046875 -4.3017578125 -10.10009765625
9.94384765625 -7.768798828125 -8.663330078125
16.582275390625 -0.187255859375 -2.45751953125
5.74853515625 -7.25537109375 -16.911865234375
0.634033203125 -16.10546875 -36.853515625
-20.297119140625 24.29443359375 0.151611328125
6.208740234375 -22.43896484375 -14.473388671875
-4.4375 13.359130859375 -9.36474609375
10.2275390625 0.37109375 -11.971923828125
6.175048828125 5.575439453125 -27.09033203125
5.024169921875 -8.433837890625 -17.71923828125
-2.85498046875 10.242919921875 -12.61572265625
-4.358154296875 12.28271484375 -10.691162109375
6.675537109375 1.71044921875 -28.100830078125
-16.2646484375 22.672119140625 4.8564453125
5.83349609375 -20.463623046875 -43.936279296875
10.364501953125 -6.21435546875 -10.34765625
-1.254638671875 4.956298828125 -18.55126953125
0.950439453125 -34.6494140625 -29.079345703125
12.62548828125 5.816162109375 -9.429443359375
-5.31640625 17.199462890625 -5.72900390625
7.5283203125 11.1533203125 -38.3349609375
8.259521484375 2.759765625 -14.9189453125
0.8525390625 -6.244873046875 -28.09033203125
6.59521484375 -28.24072265625 -42.015625
4.656494140625 -6.1796875 -18.881591796875
6.78271484375 7.57568359375 -38.137451171875
1.71142578125 -19.891357421875 -25.95068359375
-24.16455078125 21.038818359375 11.50048828125
-15.12353515625 31.031982421875 -8.62548828125
-14.482666015625 29.430419921875 -9.165283203125
1.49560546875 -15.836669921875 -21.189208984375
0.068359375 -16.257080078125 -31.79833984375
1.005615234375 -13.6435546875 -22.40234375
-0.7021484375 -38.54736328125 -30.687255859375
10.839111328125 6.452880859375 -41.546142578125
1.175048828125 1.787841796875 -23.60693359375
11.789306640625 -5.551025390625 -46.500732421875
0.5341796875 -17.558837890625 -22.54736328125
6.917236328125 -0.458740234375 -16.46728515625
10.871337890625 -7.843017578125 -5.349609375
11.5517578125 -3.27978515625 -47.5693359375
0.828857421875 -13.21826171875 -29.7138671875
-22.0888671875 23.219482421875 1.9208984375
16.144287109375 -2.60302734375 -3.116455078125
5.087646484375 1.4345703125 -34.294677734375
0.544677734375 -36.62890625 -27.89306640625
9.287353515625 -22.7841796875 -10.539794921875
2.55517578125 -23.08154296875 -29.03515625
8.742431640625 -9.500732421875 -12.057861328125
6.3349609375 9.838623046875 -36.626220703125
7.301513671875 -1.51904296875 -15.77978515625
7.019775390625 -23.166748046875 -41.97412109375
0.823486328125 -11.750732421875 -28.40966796875
1.91552734375 -11.161865234375 -21.542236328125
5.380615234375 16.139892578125 -33.217041015625
2.63232421875 -7.88525390625 -40.553466796875
9.1630859375 -8.96875 -47.59619140625
4.866943359375 18.82373046875 -31.734375
1.11474609375 -28.07470703125 -34.949462890625
7.843017578125 -7.059814453125 -13.97802734375
1.17626953125 -5.03955078125 -33.790771484375
10.896484375 -3.20849609375 -46.104248046875
6.047607421875 -7.69482421875 -42.472900390625
-1.08642578125 -10.60595703125 -28.5029296875
1.332763671875 -20.002685546875 -39.05078125
-17.822265625 23.2802734375 3.9404296875
0.730712890625 -12.37548828125 -32.02197265625
5.883544921875 -14.332763671875 -44.54638671875
0.35205078125 -33.0751953125 -25.84912109375
0.228271484375 -7.946533203125 -24.7529296875
-0.316650390625 -29.232666015625 -26.734130859375
6.67529296875 -12.699951171875 -45.9873046875
7.405517578125 -11.16064453125 -47.89404296875
4.131103515625 -13.791748046875 -40.984619140625
0.490966796875 -14.06787109375 -34.32080078125
4.08203125 -12.227783203125 -41.4970703125
1.68359375 -11.76171875 -37.355224609375
0.63671875 -12.510009765625 -35.181884765625
1.463623046875 -7.8486328125 -38.4619140625
2.21875 -10.216064453125 -38.913330078125
5.431884765625 -37.40966796875 -40.963134765625
3.26123046875 -20.981201171875 -27.3916015625
7.95849609375 -26.713623046875 -42.302734375
7.557373046875 -22.239501953125 -44.831298828125
6.54833984375 -25.720703125 -41.67626953125
4.11669921875 -5.2822265625 -39.92138671875
9.35009765625 -17.1904296875 -47.2392578125
13.68798828125 -2.923828125 -6.314208984375
7.73486328125 -11.627685546875 -13.001708984375
2.30126953125 -19.552001953125 -40.36083984375
2.313232421875 -18.38525390625 -40.83056640625
1.842041015625 -26.541259765625 -36.8486328125
2.921630859375 -28.5205078125 -38.033447265625
3.06689453125 -26.96875 -38.89111328125
7.00439453125 -5.382080078125 -15.380615234375
0.076904296875 -18.19384765625 -33.520751953125
9.126708984375 -9.76611328125 -9.05224609375
0.452392578125 -14.81201171875 -31.20068359375
0.770263671875 -28.189208984375 -32.457275390625
7.87548828125 -18.299072265625 -12.3115234375
5.140869140625 -41.917236328125 -40.524169921875
-1.256103515625 11.896728515625 -15.493408203125
0.62841796875 -30.6962890625 -32.457763671875
5.60791015625 -5.621337890625 -41.860107421875
5.580322265625 -20.078125 -25.3486328125
5.4091796875 -16.27001953125 -42.9482421875
4.397216796875 -3.82373046875 -41.604248046875
0.775634765625 -29.620361328125 -33.74462890625
1.478759765625 -35.375244140625 -37.647705078125
1.490478515625 -34.212890625 -38.115478515625
3.3271484375 -37.37109375 -40.2109375
0.143310546875 -4.102783203125 -26.700927734375
0.023193359375 -44.49169921875 -36.332763671875
4.910888671875 -30.1396484375 -40.994873046875
6.620849609375 -47.54833984375 -39.21044921875
3.33056640625 -45.43896484375 -39.52734375
7.014892578125 -13.582275390625 -5.419189453125
9.130615234375 -17.021728515625 -8.8896484375
0.046875 -42.17626953125 -37.264892578125
0.937255859375 -42.976318359375 -38.561767578125
-1.18017578125 -42.90966796875 -34.7724609375
7.435791015625 -15.974853515625 -13.058349609375
11.47216796875 4.789306640625 -10.952392578125
3.24853515625 -4.803466796875 -21.013427734375
12.382080078125 -5.037109375 -6.489501953125
5.820068359375 -51.249267578125 -38.162841796875
0.068603515625 -8.5341796875 -27.97509765625
-0.308837890625 -6.014404296875 -27.3310546875
2.12890625 -21.29052734375 -30.19091796875
-10.4755859375 21.923828125 -4.011474609375
