1.5693359375 -7.281982421875 -49.778076171875
-5.3369140625 8.382080078125 -23.8701171875
-22.788818359375 24.685791015625 4.756103515625
-3.835693359375 -10.741455078125 -21.462890625
-13.093017578125 16.554443359375 -9.3115234375
-3.3505859375 1.8720703125 -33.272216796875
-4.691650390625 8.409423828125 -15.2880859375
7.656005859375 20.68798828125 4.56982421875
-7.501220703125 -18.953857421875 -33.794677734375
-0.267822265625 -15.359375 -46.42529296875
-19.09912109375 23.462890625 -6.51513671875
-7.11572265625 17.99365234375 -1.976318359375
1.691162109375 -13.68408203125 -6.868408203125
1.56298828125 -32.188720703125 -37.462890625
3.605712890625 14.057861328125 -6.126953125
3.7978515625 27.4423828125 18.87353515625
13.830078125 6.9443359375 11.9765625
-1.76416015625 -18.132568359375 -17.9736328125
-8.923095703125 -14.303466796875 -28.4140625
-1.18408203125 4.403564453125 -39.687744140625
-9.203369140625 27.87060546875 12.63134765625
-12.5849609375 22.724609375 4.659423828125
9.345458984375 18.36474609375 11.18505859375
-31.6201171875 24.26611328125 0.510009765625
-5.817626953125 -37.267578125 -36.8173828125
-0.487548828125 25.943359375 11.015380859375
-4.62548828125 1.723876953125 -24.585693359375
-9.619873046875 11.412353515625 -11.83349609375
-1.418701171875 16.57421875 -32.003173828125
0.97998046875 21.84716796875 5.5390625
-4.24462890625 -4.43701171875 -35.303466796875
3.576904296875 -5.19482421875 -13.542236328125
-4.12255859375 -25.45703125 -36.5615234375
-15.342041015625 22.593505859375 -11.71630859375
-3.225830078125 -9.064208984375 -45.712158203125
7.400390625 -9.090576171875 -48.050537109375
0.20361328125 10.731689453125 -11.54345703125
0.02978515625 -19.510986328125 -25.659912109375
-5.2138671875 -2.41015625 -29.060791015625
-1.4560546875 7.931884765625 -28.56640625
2.85546875 13.301025390625 -39.415771484375
-0.099609375 24.82958984375 -26.28271484375
-20.131103515625 23.337890625 -0.623291015625
3.901611328125 4.876220703125 -15.7880859375
10.530029296875 9.73828125 -6.030029296875
-20.399169921875 35.308349609375 -14.459716796875
5.052001953125 -17.7275390625 -15.9013671875
7.573486328125 -20.591552734375 -40.9208984375
2.918212890625 -19.79931640625 -8.032470703125
-4.016845703125 20.5341796875 2.12646484375
6.334228515625 17.900390625 -0.67626953125
-27.46337890625 20.7646484375 -1.391845703125
13.1923828125 12.21484375 10.229736328125
1.4052734375 -16.139404296875 -12.083251953125
14.48291015625 10.92822265625 4.593017578125
7.391357421875 21.21142578125 16.0576171875
-24.13134765625 21.377197265625 -5.609375
-4.640380859375 -19.57275390625 -29.038818359375
2.15625 -23.54443359375 -41.94677734375
-1.796875 15.951416015625 -4.059326171875
-17.51953125 24.29541015625 5.439208984375
-1.73095703125 -6.062255859375 -20.51953125
-11.605224609375 16.751708984375 -4.38525390625
-4.142333984375 5.741943359375 -19.6474609375
-16.696533203125 18.389404296875 -6.18994140625
10.908447265625 -23.03564453125 -46.41015625
0.6650390625 12.5166015625 -28.969970703125
8.712158203125 -18.876220703125 -49.791259765625
4.80322265625 -15.198974609375 -46.776123046875
-6.862548828125 -14.758056640625 -23.697265625
-10.02783203125 25.0859375 8.2880859375
-5.742431640625 -18.903076171875 -38.493896484375
0.50341796875 -13.3955078125 -1.99072265625
3.675537109375 23.57958984375 21.975341796875
-3.73095703125 -7.95654296875 -39.12060546875
-5.357666015625 -12.402099609375 -33.68994140625
-9.814453125 20.884033203125 0.95458984375
0.974853515625 -20.06689453125 -45.2099609375
-2.07421875 20.880859375 -34.4697265625
-0.4677734375 -22.801513671875 -17.310302734375
-26.823974609375 24.208740234375 2.008056640625
0.197509765625 7.933837890625 -15.5947265625
-1.218994140625 -38.607421875 -36.80078125
-20.985595703125 27.285400390625 -8.608154296875
7.895751953125 16.412353515625 17.37939453125
2.757568359375 27.43603515625 14.279541015625
-9.0380859375 14.601318359375 -7.669677734375
1.560546875 -11.972412109375 -49.05224609375
-1.099609375 14.3779296875 -36.345703125
-6.74853515625 11.440673828125 -18.31494140625
-1.301025390625 -12.4072265625 -17.9560546875
-1.200927734375 21.705322265625 -29.591796875
-5.029052734375 26.322998046875 10.860595703125
-2.406982421875 -21.0478515625 -21.51708984375
8.954345703125 22.21044921875 8.859130859375
6.8935546875 11.666259765625 -8.067626953125
3.064697265625 23.982177734375 9.106689453125
-3.895263671875 -21.709228515625 -33.948486328125
-2.108154296875 0.184326171875 -40.760009765625
4.288330078125 -18.66064453125 -49.7705078125
10.71337890625 18.47265625 6.977783203125
-4.368408203125 10.847412109375 -11.661865234375
2.0146484375 28.46728515625 22.7333984375
0.36328125 -7.686279296875 -16.615234375
-15.935791015625 22.892578125 -3.568115234375
-16.88037109375 21.787353515625 1.827392578125
-2.194580078125 -34.378662109375 -37.12744140625
2.02587890625 9.257568359375 -40.4833984375
3.600341796875 19.78076171875 2.631591796875
-11.435302734375 16.833984375 -16.375244140625
14.991943359375 8.702392578125 8.385498046875
-25.84326171875 23.312255859375 7.218505859375
-4.79931640625 -8.54833984375 -35.1162109375
-0.287109375 13.4755859375 -7.52392578125
0.77783203125 30.08349609375 17.833740234375
-1.830810546875 -25.9111328125 -39.984130859375
-0.2880859375 -12.735107421875 -10.37548828125
-5.374755859375 -36.54736328125 -32.76904296875
-3.65869140625 -16.025146484375 -20.940673828125
5.15869140625 24.665283203125 16.10498046875
3.755126953125 -15.41796875 -3.410400390625
1.477783203125 -20.220703125 -20.1982421875
-8.4365234375 22.5927734375 4.338134765625
-0.18505859375 -23.07763671875 -27.511962890625
-8.643310546875 8.88232421875 -14.87548828125
-23.947509765625 22.695068359375 -1.613525390625
-20.2744140625 25.8984375 7.81982421875
-27.67431640625 20.561279296875 10.11572265625
7.3193359375 14.180908203125 -4.78173828125
15.143310546875 19.186767578125 4.106201171875
-1.377685546875 27.795654296875 -28.88818359375
-7.9912109375 -17.77197265625 -26.86083984375
-5.935546875 15.87158203125 -5.025146484375
-3.544189453125 -17.68701171875 -41.89990234375
1.59228515625 21.43603515625 -25.404541015625
2.943603515625 16.267578125 -2.99365234375
11.67138671875 9.672607421875 13.697509765625
-0.95068359375 -11.31396484375 -5.342529296875
1.16796875 -8.434326171875 -46.11474609375
3.265869140625 11.705078125 -9.376220703125
10.46044921875 14.864990234375 12.30810546875
-3.039306640625 17.92626953125 -1.018798828125
6.3037109375 -18.241455078125 -6.650146484375
-18.671875 19.250732421875 -0.36328125
-7.352783203125 7.635009765625 -20.32373046875
-3.00244140625 3.2939453125 -29.8037109375
9.999755859375 16.73583984375 0.1376953125
-5.932373046875 -15.828857421875 -35.127685546875
-1.685546875 23.652587890625 7.54296875
16.297119140625 6.332275390625 1.8076171875
-10.8056640625 14.9150390625 -12.15087890625
16.707763671875 5.517822265625 9.1845703125
3.26123046875 7.90869140625 -13.52001953125
-5.792724609375 28.435302734375 14.0556640625
0.258544921875 -15.35009765625 -15.4814453125
-13.787353515625 24.874267578125 7.74755859375
-3.67626953125 -21.90283203125 -37.58935546875
-4.03125 -5.2412109375 -31.572509765625
12.01611328125 15.543701171875 9.076171875
-4.347900390625 -40.24365234375 -35.20849609375
-4.5244140625 -31.026123046875 -37.229248046875
0.738525390625 11.043212890625 -37.568115234375
-2.86181640625 3.115478515625 -21.77734375
-16.68359375 26.062255859375 -5.99951171875
-12.372314453125 26.629638671875 10.74072265625
5.3505859375 22.510986328125 19.0009765625
-20.90478515625 21.879638671875 -3.86474609375
-6.1630859375 -14.60302734375 -31.001220703125
4.9130859375 22.341064453125 6.55615234375
2.774169921875 -14.6015625 -51.462890625
-0.94091796875 18.25 -28.86474609375
-23.248046875 25.02978515625 1.272216796875
-0.4248046875 20.2607421875 2.57861328125
8.367919921875 21.660888671875 12.704345703125
-0.725341796875 12.8623046875 -32.5224609375
-0.105224609375 -19.857666015625 -15.423828125
9.644775390625 -22.302001953125 -43.234375
-2.343505859375 27.590087890625 13.5732421875
-29.26123046875 25.08642578125 -2.102294921875
-20.281005859375 22.5986328125 2.740478515625
-0.670654296875 -11.3544921875 -45.94775390625
-13.50048828125 21.078369140625 1.781982421875
-3.54638671875 -3.521484375 -38.5263671875
-11.0478515625 18.60205078125 -1.571533203125
-14.9794921875 16.4482421875 -3.98583984375
8.515380859375 18.234130859375 14.580078125
-0.64306640625 5.66015625 -17.9736328125
-22.472900390625 24.03515625 -6.89697265625
5.733642578125 5.32080078125 -12.974609375
2.270751953125 -23.090087890625 -45.984130859375
10.22705078125 18.826904296875 3.42333984375
-11.785888671875 13.2197265625 -9.404052734375
5.348876953125 -22.613037109375 -42.425537109375
-5.775390625 4.632080078125 -22.440185546875
-10.63134765625 11.5322265625 -15.3564453125
-3.93310546875 -26.343017578125 -33.34912109375
-21.164306640625 32.709228515625 -12.558349609375
-2.051025390625 9.465576171875 -13.61962890625
-1.97900390625 17.7666015625 -35.4453125
3.577392578125 -18.635986328125 -46.56396484375
-13.5830078125 14.93212890625 -6.502197265625
2.416015625 -19.62548828125 -27.8671875
-7.175537109375 -17.635009765625 -30.438720703125
-5.384521484375 -2.427490234375 -32.4189453125
-3.1298828125 22.033203125 5.001708984375
-3.19091796875 -19.66845703125 -25.6162109375
-2.493408203125 3.22216796875 -36.07177734375
-6.97900390625 12.607666015625 -9.71044921875
3.870849609375 -17.876708984375 -18.9482421875
2.189208984375 -20.24560546875 -23.406982421875
-5.27880859375 -11.613037109375 -30.35107421875
-1.365234375 -18.2119140625 -44.154296875
2.809814453125 -19.664794921875 -11.343994140625
2.140380859375 -16.8505859375 -8.72705078125
-19.16796875 38.131103515625 -15.431884765625
-5.490478515625 -34.47509765625 -35.07568359375
0.817138671875 -10.9521484375 -8.013671875
13.80029296875 12.88427734375 6.870849609375
-0.6484375 -22.268798828125 -43.79931640625
-2.122314453125 12.119140625 -9.577392578125
-5.085693359375 -15.781494140625 -39.536376953125
6.402587890625 -20.6416015625 -48.806396484375
-1.5654296875 -20.50341796875 -28.3447265625
-6.021728515625 7.037109375 -17.662109375
-13.828857421875 18.4892578125 -7.106689453125
-6.558349609375 19.728515625 0.413818359375
3.409912109375 -18.187744140625 -4.521728515625
-0.335205078125 15.359619140625 -29.368896484375
7.997802734375 16.0703125 -2.36328125
4.7294921875 -21.86376953125 -9.207275390625
-23.125244140625 24.509521484375 7.71728515625
3.5947265625 25.6083984375 11.550537109375
-21.6875 29.584716796875 -10.6826171875
11.990234375 16.732177734375 4.788330078125
9.838623046875 12.44580078125 -5.03662109375
-7.849365234375 26.145751953125 10.009765625
2.377685546875 -16.2353515625 -45.384033203125
2.14501953125 16.0 -38.535400390625
-4.97998046875 -19.874267578125 -31.944091796875
-5.7578125 -20.32177734375 -35.70654296875
-17.072998046875 19.208740234375 -3.1650390625
-28.968017578125 22.892333984375 -0.116943359375
0.32373046875 28.59765625 15.38671875
4.013427734375 -15.38818359375 -6.294189453125
-4.48486328125 -18.846435546875 -21.620361328125
5.95849609375 24.046630859375 9.068359375
-25.177734375 22.173095703125 9.77880859375
7.531005859375 18.877685546875 1.75439453125
15.938232421875 8.778076171875 3.28271484375
-19.701171875 24.763427734375 -9.07421875
-1.53125 19.5517578125 -31.45263671875
-2.5986328125 -20.941650390625 -18.666748046875
-4.587890625 -28.09619140625 -35.50927734375
-18.471435546875 33.66455078125 -12.598876953125
1.0830078125 14.89111328125 -5.07861328125
-0.607177734375 -23.545166015625 -40.99658203125
8.2666015625 -23.05419921875 -47.46826171875
-2.24267578125 -23.615478515625 -32.642822265625
-8.12255859375 -11.781005859375 -29.429443359375
-26.37841796875 23.04443359375 -3.188720703125
-18.019287109375 21.584716796875 -1.79296875
8.11474609375 9.17529296875 -8.536376953125
4.8505859375 21.095458984375 22.75
3.176513671875 10.07958984375 -11.659912109375
-19.32470703125 8.97509765625 -11.509033203125
-6.103515625 -20.37939453125 -26.79443359375
-8.814697265625 16.797607421875 -4.454345703125
-11.7646484375 10.4755859375 -18.11083984375
-3.16259765625 7.334228515625 -17.30859375
-6.447509765625 10.01220703125 -13.255615234375
-1.21826171875 -8.96875 -47.58642578125
1.447998046875 -5.26318359375 -15.905517578125
-26.08984375 24.381591796875 4.7060546875
12.170166015625 12.522705078125 12.748291015625
3.48779296875 17.981689453125 -0.164794921875
6.714111328125 -17.634765625 -51.173583984375
-8.87451171875 9.930908203125 -17.383056640625
6.4326171875 19.502197265625 17.9443359375
3.1533203125 23.976318359375 24.603759765625
-17.596923828125 25.78369140625 8.180419921875
-21.17724609375 21.663330078125 -6.923583984375
-1.017822265625 24.337646484375 -29.014404296875
-3.318359375 -13.35498046875 -20.736083984375
13.34228515625 9.75048828125 11.318603515625
-5.9599609375 21.73681640625 3.72021484375
-1.416259765625 -15.472900390625 -17.757080078125
2.082275390625 29.179931640625 20.15087890625
3.147216796875 26.48291015625 21.33984375
7.013427734375 17.033935546875 19.9599609375
-1.84619140625 23.528564453125 -34.3388671875
-4.653564453125 4.6298828125 -24.849853515625
-7.555419921875 -13.822265625 -26.186767578125
-0.173095703125 -15.153564453125 -9.299560546875
1.532470703125 4.55908203125 -16.939453125
15.865966796875 9.085693359375 5.920166015625
-10.445556640625 23.63818359375 5.907470703125
-3.070556640625 25.109375 9.252197265625
-15.35205078125 22.558837890625 3.8349609375
-0.421142578125 -19.95458984375 -22.863525390625
-5.039794921875 -19.738525390625 -40.893310546875
-5.1064453125 -11.337646484375 -36.087646484375
-26.29443359375 22.7978515625 -0.197998046875
-20.3017578125 24.2314453125 5.4853515625
6.599365234375 -18.919189453125 -14.140380859375
5.520263671875 15.691650390625 -3.14697265625
5.9150390625 -16.804443359375 -4.49951171875
-3.069580078125 14.815185546875 -6.04150390625
0.187744140625 16.5068359375 -2.458251953125
4.381591796875 -15.64892578125 -49.7001953125
1.669189453125 -14.3828125 -47.86376953125
12.1220703125 -23.887939453125 -44.274658203125
-1.622802734375 -12.309814453125 -3.00927734375
6.6162109375 23.357666015625 14.40234375
1.80126953125 -17.571533203125 -14.209228515625
2.70654296875 28.829833984375 16.64111328125
-2.702880859375 -20.533203125 -30.918701171875
-1.852294921875 20.876953125 -37.033935546875
-3.89892578125 -6.046142578125 -37.409423828125
-5.9443359375 24.909912109375 8.835205078125
-18.9072265625 27.574462890625 -10.057373046875
0.089599609375 10.819091796875 -31.2470703125
-5.6982421875 -16.97705078125 -23.28564453125
-2.123291015625 19.306884765625 0.96044921875
-4.859130859375 -9.1962890625 -32.670166015625
-24.69091796875 24.57666015625 -4.986328125
4.60888671875 25.171875 19.630126953125
-6.058837890625 -38.261474609375 -34.5068359375
-3.550048828125 7.034912109375 -25.01953125
9.29443359375 14.322021484375 17.35498046875
1.69384765625 -14.19091796875 -4.407470703125
9.310302734375 20.579833984375 6.98583984375
-3.60107421875 -37.930419921875 -35.82470703125
0.260986328125 27.021728515625 13.440185546875
1.11083984375 9.267578125 -13.683349609375
-4.7392578125 16.85546875 -3.06298828125
-7.9951171875 24.169921875 7.1669921875
9.29345703125 14.86181640625 14.777587890625
1.006103515625 -20.7783203125 -17.822265625
-0.7763671875 12.25244140625 -35.115234375
-13.4619140625 18.09228515625 -2.79150390625
0.372802734375 24.26123046875 8.763671875
-10.5166015625 21.838623046875 3.1181640625
-1.7197265625 15.47119140625 -34.225341796875
-16.325439453125 20.568359375 -5.105224609375
-11.037841796875 15.50537109375 -6.5625
-4.81298828125 -14.00341796875 -22.597412109375
5.6396484375 -19.93896484375 -46.4072265625
3.37939453125 -22.279052734375 -43.8251953125
-14.9013671875 24.0205078125 5.770751953125
-6.407470703125 14.43896484375 -6.92236328125
1.791259765625 -9.555908203125 -48.979248046875
-2.873046875 0.82958984375 -23.177490234375
-4.0625 0.043701171875 -34.681640625
-4.5087890625 -10.48876953125 -38.46484375
0.69287109375 12.154052734375 -9.658935546875
-1.931640625 -40.896728515625 -36.570556640625
0.10791015625 -11.081298828125 -16.455078125
0.980224609375 14.50244140625 -27.552001953125
0.54345703125 -20.965576171875 -29.3671875
4.473388671875 21.020751953125 4.61474609375
-24.402099609375 23.730712890625 3.1513671875
-0.657470703125 16.084228515625 -37.9501953125
4.809326171875 25.580810546875 13.933837890625
3.496826171875 -22.843505859375 -11.0849609375
-0.0517578125 22.55517578125 -27.695556640625
10.02294921875 19.4384765625 9.1796875
2.934814453125 -20.915771484375 -46.680419921875
-4.18310546875 -24.283935546875 -34.496826171875
2.2255859375 6.40380859375 -15.02978515625
-7.982421875 21.140625 2.524169921875
0.79931640625 14.1826171875 -37.875
5.54638671875 10.51611328125 -9.615966796875
-3.4345703125 -9.573974609375 -40.800048828125
-9.51708984375 13.052001953125 -9.99072265625
-6.383544921875 -17.9287109375 -36.077880859375
7.548095703125 -22.128173828125 -44.24462890625
-18.74609375 22.572021484375 -4.388671875
2.780517578125 26.167236328125 23.91650390625
-10.0390625 26.61328125 10.62841796875
-6.188720703125 -17.990234375 -28.308349609375
-12.485595703125 19.875244140625 0.078857421875
-1.907958984375 21.690185546875 -32.260498046875
0.0185546875 18.751953125 -26.579833984375
-7.074462890625 27.24365234375 11.987548828125
8.817138671875 10.932373046875 -7.0185546875
-3.141845703125 -5.833740234375 -39.815673828125
-6.53759765625 7.0126953125 -22.386962890625
7.8681640625 23.283447265625 10.58447265625
-2.1962890625 -22.803955078125 -39.0986328125
0.066650390625 -14.203369140625 -12.104736328125
-9.11279296875 19.032470703125 -0.416259765625
-2.697998046875 26.413818359375 11.636474609375
2.262451171875 22.88818359375 7.12890625
-7.888671875 -16.272216796875 -25.13037109375
5.651611328125 13.27294921875 -6.79931640625
7.176513671875 22.1318359375 6.8427734375
1.241455078125 -21.655517578125 -14.976318359375
1.65771484375 25.312255859375 10.367431640625
1.3759765625 -9.09765625 -14.9169921875
-16.58984375 20.0146484375 0.4111328125
-3.656982421875 -20.223876953125 -23.24609375
-29.285888671875 24.66015625 1.288818359375
-5.218017578125 -33.54736328125 -33.010986328125
14.142578125 10.749755859375 7.59130859375
3.341064453125 -17.8232421875 -6.9921875
-5.276123046875 -14.8525390625 -37.475830078125
16.2265625 7.094970703125 7.091552734375
-17.96240234375 22.83544921875 3.5078125
1.255859375 -13.958251953125 -14.019775390625
-11.009765625 14.62939453125 -16.4716796875
12.25732421875 16.685546875 7.018798828125
-4.6689453125 -6.885498046875 -32.96044921875
6.0625 20.040283203125 2.98046875
-22.4599609375 23.3349609375 -0.06982421875
-2.099609375 4.125 -19.9365234375
-13.6005859375 14.44873046875 -8.680908203125
-6.95458984375 8.88232421875 -18.501708984375
11.607666015625 13.96337890625 10.62158203125
1.90625 13.1279296875 -7.70947265625
4.059326171875 26.533935546875 16.590087890625
9.8408203125 16.757080078125 13.293212890625
-1.18603515625 23.520263671875 -31.2392578125
-3.748291015625 -35.590576171875 -36.138916015625
-6.95703125 11.26904296875 -11.51904296875
5.524169921875 -20.00146484375 -7.719970703125
-17.10595703125 24.191650390625 -4.906982421875
-3.4716796875 -20.88720703125 -39.56103515625
-18.962646484375 22.04296875 0.70947265625
17.333984375 4.859130859375 3.55224609375
-1.004638671875 21.404052734375 4.3544921875
13.8203125 17.369140625 3.76904296875
-21.790771484375 10.533203125 -11.696533203125
1.6806640625 19.49951171875 1.47802734375
-4.895263671875 -33.57470703125 -36.969970703125
-7.6650390625 -15.6533203125 -29.5751953125
-0.03271484375 -13.24072265625 -16.201416015625
-5.0029296875 18.629638671875 -1.64794921875
-1.948974609375 18.25830078125 -33.274169921875
8.476318359375 -20.926513671875 -48.217529296875
1.419677734375 20.38623046875 3.710205078125
0.01708984375 16.489501953125 -27.556396484375
-2.396240234375 8.35986328125 -15.445556640625
1.9873046875 -8.622314453125 -51.42236328125
-10.30419921875 12.6416015625 -13.534912109375
-2.043212890625 10.9287109375 -11.373046875
-24.1279296875 22.89208984375 -3.766845703125
2.81298828125 -15.3603515625 -13.515625
-7.10986328125 -19.64111328125 -31.751220703125
-22.188232421875 23.553466796875 3.003662109375
10.62158203125 16.86181640625 10.332275390625
5.154052734375 6.6005859375 -15.52685546875
-4.789306640625 -29.09228515625 -33.56298828125
-1.140380859375 1.97314453125 -21.22705078125
-1.066650390625 4.056396484375 -37.58154296875
-4.546630859375 19.051025390625 0.619140625
6.2744140625 -19.890625 -5.1259765625
-7.9873046875 15.27099609375 -5.76513671875
-0.760986328125 -20.236328125 -20.457763671875
-0.460693359375 -17.912109375 -16.15625
-5.223388671875 -2.785400390625 -36.168212890625
-7.387939453125 8.30859375 -16.465087890625
-11.255615234375 12.967529296875 -11.492919921875
-2.0263671875 -11.36962890625 -19.63427734375
5.115234375 18.646484375 0.9794921875
4.70068359375 -17.51171875 -48.07177734375
6.03564453125 22.56640625 16.892822265625
-1.001953125 -20.346435546875 -44.589111328125
13.626953125 14.6953125 7.896240234375
-0.860595703125 14.597900390625 -5.7802734375
-4.6767578125 12.565673828125 -9.858642578125
-3.3837890625 -19.041748046875 -19.865478515625
9.380126953125 20.432373046875 10.9541015625
-9.4638671875 17.767578125 -2.73193359375
-13.954345703125 25.947265625 9.575927734375
-6.5673828125 -15.87060546875 -33.15087890625
5.223388671875 14.709228515625 -5.004150390625
-2.8056640625 -23.736083984375 -37.168212890625
0.343017578125 9.383056640625 -36.392822265625
2.585693359375 -17.227294921875 -10.77490234375
-1.27490234375 26.144775390625 -27.649658203125
-4.816650390625 27.177001953125 12.739501953125
-1.1416015625 29.911865234375 17.09326171875
10.46435546875 19.669921875 5.292724609375
-4.9775390625 6.191162109375 -23.529541015625
-0.092041015625 -13.1162109375 -4.130615234375
5.07470703125 -16.230224609375 -2.05615234375
11.29150390625 16.1455078125 -1.497802734375
7.39453125 18.254638671875 16.62548828125
-4.21923828125 9.814697265625 -13.42822265625
-11.521484375 16.61328125 -11.25732421875
1.1689453125 -21.018310546875 -26.43603515625
-6.61279296875 22.72216796875 5.46923828125
-8.0712890625 -12.259521484375 -27.39208984375
-0.869873046875 13.903564453125 -30.77978515625
9.12646484375 -22.787109375 -45.341552734375
-7.0224609375 -18.24072265625 -25.145263671875
-9.350341796875 10.55810546875 -13.992919921875
-21.626953125 22.69677734375 -2.16845703125
-3.781005859375 15.630859375 -4.338623046875
-5.860107421875 5.795166015625 -20.68896484375
4.54541015625 -15.667724609375 -51.737548828125
-27.762451171875 23.31298828125 -1.632568359375
8.703125 19.35595703125 12.95849609375
5.166748046875 21.38232421875 20.6181640625
8.199951171875 12.797607421875 -6.083984375
-24.487060546875 23.977783203125 0.149169921875
-18.409423828125 36.87451171875 -14.114013671875
3.326416015625 -19.306640625 -20.752197265625
6.642333984375 -19.501953125 -50.396240234375
-0.770751953125 17.73828125 -1.174560546875
-14.763427734375 17.693603515625 -5.571044921875
-1.989990234375 -14.045654296875 -18.9716796875
4.515625 16.900634765625 -1.432373046875
14.022705078125 8.038818359375 10.369140625
1.916748046875 17.345703125 -1.730224609375
-19.99462890625 10.312744140625 -12.758056640625
-4.717041015625 -3.62109375 -30.73583984375
-17.222412109375 18.114013671875 -1.56103515625
-15.392578125 17.89794921875 -2.62890625
-11.627685546875 27.59228515625 12.25927734375
-1.738525390625 17.892578125 -37.562744140625
-6.9609375 16.9404296875 -3.773681640625
-2.20166015625 13.31396484375 -7.77490234375
1.97314453125 26.46240234375 12.738525390625
13.585693359375 8.5751953125 12.98095703125
11.5224609375 -23.00146484375 -42.667724609375
-2.372802734375 -10.35400390625 -46.902099609375
-2.23828125 6.011962890625 -18.986572265625
-0.0556640625 22.9375 6.818359375
8.251708984375 20.691162109375 14.357177734375
-1.484619140625 26.21142578125 -30.2802734375
-12.20751953125 25.552978515625 8.90625
1.490478515625 -22.506103515625 -44.010009765625
-12.191162109375 24.033447265625 6.578369140625
0.404052734375 -12.428955078125 -6.095947265625
-25.45166015625 20.637939453125 10.86962890625
-19.2197265625 22.98388671875 -2.259765625
-16.493896484375 24.859375 6.937255859375
15.4267578125 6.866455078125 9.57568359375
-3.9130859375 28.46826171875 14.326416015625
-4.41259765625 -4.415283203125 -33.23974609375
4.876220703125 12.34814453125 -8.265625
-5.252685546875 -20.55419921875 -37.695556640625
-18.62109375 25.217529296875 6.67919921875
9.198974609375 14.190673828125 -4.5439453125
8.22998046875 16.903564453125 -0.515380859375
4.737060546875 7.25439453125 -12.530517578125
-7.666015625 28.402587890625 13.78564453125
-21.424072265625 25.154296875 -8.3974609375
-30.2998046875 23.84423828125 -1.064453125
-4.59521484375 3.0498046875 -23.243408203125
0.419189453125 -12.848388671875 -8.6298828125
-22.2705078125 21.552490234375 -5.35595703125
3.90234375 6.200927734375 -13.989013671875
4.777099609375 24.827392578125 10.30908203125
-1.914794921875 -19.565673828125 -24.239501953125
2.8408203125 21.737060546875 5.34033203125
16.492919921875 7.1201171875 4.079345703125
-1.26611328125 -22.032958984375 -19.400634765625
0.89013671875 6.255859375 -16.47802734375
-3.36865234375 -19.4697265625 -27.669677734375
-0.837646484375 -21.483154296875 -16.034912109375
1.8076171875 -19.30517578125 -13.50537109375
-21.09033203125 23.66650390625 1.43603515625
2.965576171875 15.03125 -4.395263671875
-5.733154296875 -19.89453125 -33.652587890625
-3.538818359375 23.760009765625 7.73828125
-2.48681640625 -16.079345703125 -19.160400390625
-21.0400390625 30.927490234375 -11.803955078125
-2.890380859375 16.86962890625 -2.823974609375
-2.271728515625 20.372314453125 2.77978515625
-4.319091796875 -42.042724609375 -35.67822265625
-2.5107421875 -36.777587890625 -36.857666015625
-14.88818359375 20.750732421875 0.271240234375
-11.41259765625 14.360107421875 -7.986083984375
-1.317138671875 7.458251953125 -16.658203125
2.6748046875 -14.693115234375 -8.07470703125
-5.485107421875 -14.035888671875 -35.825927734375
-5.095703125 29.249267578125 15.56689453125
-15.7626953125 25.81201171875 8.438232421875
-3.52001953125 -5.779541015625 -29.87939453125
-0.10302734375 -21.7626953125 -42.107177734375
-2.007568359375 28.636474609375 15.058349609375
7.185546875 -22.522216796875 -42.24755859375
-5.839599609375 -17.120849609375 -38.028564453125
11.1064453125 17.591796875 8.709228515625
-6.169189453125 -19.20947265625 -30.0009765625
-3.90771484375 -13.368896484375 -40.15380859375
5.929931640625 -18.068359375 -17.478271484375
-25.15087890625 24.95263671875 1.8720703125
-4.09375 -22.429443359375 -35.624267578125
-5.077880859375 -31.910400390625 -35.72119140625
-25.706298828125 21.54638671875 -2.374267578125
-1.654541015625 22.392822265625 6.11083984375
-20.879150390625 23.33349609375 -7.611572265625
0.596435546875 3.34619140625 -17.976806640625
-1.26123046875 24.977783203125 9.4892578125
2.543701171875 -14.722412109375 -49.434326171875
-8.2197265625 -15.442138671875 -27.16845703125
3.4423828125 -20.94384765625 -10.123046875
-20.62255859375 12.028564453125 -12.708740234375
2.43994140625 -17.826904296875 -12.49462890625
3.94970703125 -22.37548828125 -45.809814453125
-0.911865234375 17.01611328125 -30.21142578125
1.594970703125 26.95068359375 25.164794921875
-8.16455078125 10.410888671875 -12.581787109375
5.1357421875 -19.408447265625 -48.075927734375
8.671630859375 16.7529296875 15.767578125
-7.50927734375 13.74609375 -8.4033203125
-1.426513671875 -21.445068359375 -30.0107421875
-21.52734375 24.8388671875 6.67431640625
3.932373046875 22.375 23.646484375
-3.140869140625 -21.690673828125 -32.241943359375
-7.0732421875 -17.79052734375 -32.47509765625
-5.8056640625 20.67041015625 1.901123046875
-3.9951171875 -20.504638671875 -20.847900390625
-11.48828125 21.435791015625 1.6494140625
-5.243896484375 -18.121337890625 -40.04345703125
4.663818359375 24.955078125 17.839111328125
-13.571044921875 16.303955078125 -5.103515625
-21.0283203125 27.9287109375 -10.292724609375
-4.192138671875 4.281005859375 -21.436279296875
7.5302734375 23.167236328125 8.314208984375
-3.7958984375 -28.561279296875 -37.056640625
-18.3115234375 20.408447265625 1.0791015625
14.506591796875 13.066162109375 5.22900390625
-1.154052734375 -16.662109375 -43.271728515625
13.897705078125 12.396240234375 8.591064453125
-24.1357421875 24.980224609375 5.8955078125
-15.79052734375 18.758544921875 -4.326416015625
4.314208984375 23.36279296875 7.894287109375
-15.13623046875 19.704345703125 -7.17529296875
6.985107421875 17.68115234375 18.26611328125
-22.8056640625 21.8076171875 -3.258544921875
-1.44970703125 -9.09033203125 -45.547607421875
10.564453125 13.368408203125 13.924560546875
2.15234375 -18.794921875 -9.291259765625
13.72998046875 10.185546875 9.229736328125
8.737548828125 19.6220703125 2.857421875
7.25341796875 23.387451171875 12.723388671875
-7.486083984375 -13.388427734375 -29.852294921875
-4.844970703125 14.957763671875 -6.254150390625
6.7724609375 -21.446533203125 -47.157958984375
9.114990234375 18.13525390625 1.45849609375
2.57958984375 28.887939453125 18.40966796875
-4.356201171875 -7.883056640625 -36.698486328125
4.75537109375 -17.55224609375 -5.959228515625
4.84375 9.75341796875 -11.050537109375
-4.984375 -29.793701171875 -35.220703125
-1.070556640625 19.973876953125 -29.2275390625
13.067626953125 13.81396484375 9.491943359375
-4.83642578125 -20.27783203125 -25.424560546875
1.716064453125 11.9541015625 -38.718505859375
-4.703857421875 22.771240234375 5.295654296875
-13.617919921875 22.16455078125 3.16552734375
-2.9638671875 -3.6201171875 -40.55322265625
-0.486083984375 9.9716796875 -12.96826171875
-14.00830078125 27.207763671875 11.007568359375
-19.64208984375 28.94140625 -10.911865234375
-21.4931640625 33.883544921875 -13.81884765625
-12.181884765625 15.315185546875 -10.1494140625
-6.4267578125 8.683837890625 -15.050048828125
-4.11328125 -20.726318359375 -36.3681640625
-0.2666015625 12.98583984375 -37.169677734375
-8.25341796875 20.15087890625 0.661865234375
12.830078125 10.904296875 12.67578125
-16.99609375 17.39208984375 -7.59326171875
-1.833251953125 -19.833984375 -26.70263671875
6.267578125 21.23046875 18.10888671875
1.23974609375 -16.120849609375 -10.028076171875
-1.751953125 16.105712890625 -35.91650390625
1.8642578125 -19.188720703125 -18.852783203125
-10.797119140625 11.85693359375 -17.056884765625
15.19140625 17.40771484375 4.8359375
-1.0927734375 26.969970703125 12.359619140625
-1.989990234375 -32.90283203125 -36.2470703125
-4.782470703125 -9.802734375 -36.8173828125
4.311279296875 23.609130859375 20.2998046875
-9.35498046875 10.206298828125 -15.72021484375
-0.502197265625 11.219970703125 -32.997314453125
9.542724609375 16.4443359375 -1.697265625
1.41650390625 -15.649169921875 -46.687255859375
7.60302734375 19.5078125 15.4658203125
1.448486328125 -19.63134765625 -21.810302734375
7.46435546875 -22.579833984375 -45.89794921875
-5.517333984375 -35.65673828125 -36.32275390625
-2.720947265625 -20.887939453125 -43.142822265625
-5.060791015625 -3.103759765625 -34.4990234375
-2.70947265625 -0.90966796875 -39.601318359375
-8.104736328125 25.271484375 8.572265625
1.419677734375 15.896240234375 -3.6533203125
-15.248046875 21.3427734375 2.005126953125
3.77490234375 -16.547119140625 -4.75341796875
-5.109130859375 -10.80322265625 -33.181396484375
-3.097900390625 -11.689208984375 -3.565185546875
-3.988525390625 -19.418701171875 -30.593505859375
-3.756103515625 21.3974609375 3.548095703125
1.3583984375 17.429443359375 -38.132568359375
1.4501953125 -20.927001953125 -13.25341796875
-1.41552734375 14.329833984375 -32.957763671875
-4.492431640625 -25.95458984375 -35.005126953125
5.235107421875 -22.276611328125 -44.46533203125
0.81396484375 -33.66162109375 -37.19482421875
-2.843505859375 -19.590087890625 -29.25390625
5.33203125 -21.51025390625 -41.16748046875
-0.259033203125 19.324951171875 1.20751953125
2.526123046875 3.95849609375 -15.58447265625
0.14306640625 -17.986572265625 -44.822265625
-0.729248046875 4.293701171875 -18.919921875
-6.517822265625 -19.330810546875 -36.96240234375
-21.6572265625 24.894287109375 8.3935546875
-7.57470703125 -17.2392578125 -28.82861328125
-10.35791015625 13.143310546875 -15.640380859375
-0.43798828125 10.78955078125 -35.9912109375
-27.759765625 23.806396484375 0.556396484375
2.582763671875 -13.9990234375 -3.02392578125
3.551025390625 -16.51171875 -18.06982421875
-4.05810546875 -4.33935546875 -36.9443359375
1.1162109375 -20.839599609375 -24.792724609375
-1.951171875 21.965576171875 -35.70849609375
-11.359619140625 17.598388671875 -2.991455078125
-1.440673828125 19.538330078125 -37.903076171875
0.485595703125 -9.296630859375 -16.290283203125
3.942626953125 26.65283203125 13.03466796875
-0.457763671875 8.7626953125 -14.33349609375
4.44384765625 -18.638916015625 -3.179443359375
10.6572265625 -23.268798828125 -44.803466796875
-5.037109375 -10.336181640625 -31.501953125
-17.431396484375 22.746826171875 -2.91015625
1.51416015625 7.958984375 -14.58154296875
-20.142822265625 37.015380859375 -14.74853515625
-13.818115234375 16.349365234375 -7.275146484375
5.947998046875 21.247802734375 5.27294921875
2.273681640625 -19.352783203125 -45.885498046875
3.115234375 14.906494140625 -39.336181640625
0.0302734375 -9.918212890625 -46.2578125
-4.4462890625 -20.1962890625 -34.753173828125
6.8486328125 9.30029296875 -9.5458984375
-4.5078125 -5.853515625 -34.55859375
-27.609375 25.700927734375 -2.6904296875
4.698486328125 -17.010498046875 -50.519287109375
-5.1337890625 -20.59521484375 -39.308837890625
3.8701171875 -17.00390625 -3.114013671875
0.131103515625 -20.959228515625 -19.168701171875
-8.52587890625 27.00732421875 11.319580078125
-9.602294921875 15.8466796875 -5.49365234375
-1.70849609375 -21.662841796875 -17.380859375
8.613525390625 21.78955078125 10.540283203125
1.8134765625 14.2021484375 -6.34033203125
1.792724609375 15.453369140625 -26.55615234375
-10.718017578125 19.739013671875 0.300048828125
10.41357421875 12.911376953125 -3.62109375
8.1376953125 16.235107421875 19.1552734375
-27.312744140625 24.489990234375 3.6884765625
-19.775634765625 31.632568359375 -12.467041015625
-3.3681640625 22.816650390625 6.356201171875
1.7353515625 9.87451171875 -12.2783203125
5.57373046875 20.02099609375 19.641845703125
-0.30615234375 -20.51513671875 -27.39013671875
-1.42626953125 -10.813232421875 -18.282470703125
9.316650390625 20.101806640625 4.297607421875
4.02685546875 8.81640625 -12.07666015625
-15.12890625 18.4501953125 -8.13232421875
-8.679443359375 23.3740234375 5.686767578125
14.6279296875 14.490966796875 6.254638671875
-5.3447265625 -35.854248046875 -34.324951171875
-14.09716796875 23.482666015625 4.52587890625
-19.8974609375 33.419189453125 -13.224365234375
-20.41748046875 21.598876953125 -5.5439453125
-19.076416015625 23.6240234375 4.29638671875
-5.07763671875 -10.06494140625 -34.795654296875
-10.332763671875 22.544189453125 4.5126953125
-12.924072265625 18.56005859375 -1.388916015625
-5.82958984375 13.322509765625 -8.656005859375
3.47314453125 -22.727294921875 -42.201171875
5.975341796875 22.77734375 7.62353515625
1.800048828125 11.36962890625 -10.442626953125
6.513427734375 -16.10986328125 -50.75244140625
-7.32568359375 -19.130126953125 -26.453369140625
8.234130859375 21.169677734375 6.013427734375
14.263671875 11.69970703125 5.94677734375
13.05859375 -23.484375 -42.12646484375
-23.186767578125 22.435302734375 -6.258544921875
8.518798828125 -17.558837890625 -50.603515625
-8.415283203125 12.273193359375 -10.7685546875
5.006591796875 25.68408203125 12.1982421875
3.834716796875 13.289794921875 -7.45751953125
2.933349609375 20.63720703125 3.93505859375
9.679931640625 11.011962890625 -5.603515625
13.633056640625 -23.58154296875 -44.125244140625
-1.761474609375 18.058837890625 -31.113037109375
-18.97021484375 25.947509765625 8.875
9.259765625 15.586181640625 -3.115478515625
-5.22216796875 -11.79736328125 -32.002197265625
7.5556640625 22.207763671875 13.973388671875
-6.448974609375 6.763916015625 -19.426025390625
-5.876220703125 11.827880859375 -10.48974609375
2.93115234375 27.9677734375 20.58544921875
1.400390625 -8.3125 -48.15966796875
-4.664306640625 6.861572265625 -18.3642578125
-0.48291015625 12.785888671875 -8.89453125
-6.318603515625 18.9541015625 -0.923828125
-0.949462890625 11.48876953125 -10.33984375
3.085693359375 25.530517578125 22.55517578125
-3.505615234375 11.936279296875 -10.619873046875
-0.15234375 12.333984375 -31.203857421875
-10.769775390625 25.78564453125 9.56689453125
-12.208251953125 16.13427734375 -5.8017578125
-3.742431640625 -12.564453125 -21.9765625
-0.0537109375 -15.19677734375 -10.947998046875
1.281494140625 -14.853515625 -8.678466796875
-16.658935546875 22.880615234375 4.554443359375
-5.029052734375 -20.171630859375 -22.58154296875
12.099853515625 11.596923828125 13.9580078125
-30.133544921875 23.518798828125 0.640625
0.68701171875 -21.538330078125 -44.870849609375
0.5673828125 26.385986328125 12.091064453125
-14.56201171875 19.175537109375 -5.854736328125
8.65576171875 -21.423095703125 -42.48291015625
7.234619140625 15.263427734375 -3.399169921875
-11.466064453125 24.8544921875 7.630126953125
-10.114990234375 14.036865234375 -8.70556640625
-1.18310546875 13.56787109375 -34.2490234375
-3.13330078125 10.37060546875 -12.40234375
6.177001953125 18.22412109375 19.530029296875
6.27978515625 16.49853515625 -2.111572265625
0.6796875 -23.84814453125 -42.0986328125
-20.544677734375 25.939697265625 -9.520263671875
14.944091796875 10.211669921875 6.337646484375
3.246337890625 -19.76318359375 -22.436767578125
3.07275390625 -16.876220703125 -46.56591796875
0.03857421875 15.834716796875 -4.268310546875
4.713623046875 -19.15380859375 -20.170654296875
2.763916015625 -14.9423828125 -5.16650390625
4.256591796875 26.637451171875 14.852783203125
-3.228271484375 12.902099609375 -8.794921875
-5.841552734375 -39.684814453125 -34.943359375
-2.3798828125 -9.069091796875 -39.85400390625
9.208740234375 20.767578125 9.19677734375
-20.7685546875 23.910888671875 4.093505859375
-18.059326171875 19.278564453125 -1.99853515625
-4.9091796875 2.9541015625 -25.3916015625
-0.152587890625 -10.868896484375 -6.87548828125
17.047607421875 5.923828125 7.52783203125
1.072998046875 -16.334228515625 -14.623779296875
1.2109375 30.2578125 19.251953125
7.993408203125 -20.28173828125 -49.47412109375
16.203369140625 7.73193359375 5.40380859375
2.91259765625 27.2822265625 22.730712890625
7.051513671875 -17.415283203125 -5.23828125
-4.52880859375 -19.389892578125 -24.11376953125
2.197998046875 -10.094482421875 -14.05126953125
-1.867431640625 -1.279052734375 -40.78515625
-1.650146484375 -21.27001953125 -31.65771484375
-6.28564453125 -20.47509765625 -25.189697265625
-1.822509765625 -22.301025390625 -40.6669921875
13.064208984375 16.142822265625 5.757568359375
11.44921875 17.771484375 5.69091796875
-5.502685546875 -18.400146484375 -22.938232421875
5.830810546875 -18.321044921875 -50.03564453125
-5.704345703125 8.00927734375 -16.286376953125
5.343017578125 -18.864990234375 -4.329345703125
-5.1650390625 -19.452392578125 -27.456787109375
-0.664306640625 28.310791015625 14.328857421875
4.72705078125 -18.698974609375 -6.886962890625
-4.223876953125 -20.370849609375 -33.109375
-4.962158203125 -2.16748046875 -30.69287109375
-1.58642578125 16.90234375 -33.7236328125
-6.18603515625 25.6982421875 10.19677734375
-24.238525390625 24.432373046875 4.533447265625
-0.750732421875 -21.67578125 -28.72509765625
-4.7880859375 25.532470703125 9.495849609375
-13.216796875 17.326171875 -4.11474609375
-6.9521484375 -16.969970703125 -24.246337890625
3.70263671875 27.6962890625 15.773681640625
15.01708984375 9.90283203125 3.69775390625
6.26318359375 24.513916015625 13.58544921875
-1.531005859375 -22.0458984375 -42.659423828125
-5.724365234375 10.79345703125 -12.25830078125
-0.56005859375 19.28515625 -27.9111328125
-6.87109375 -19.723388671875 -34.98291015625
-1.56494140625 -19.438232421875 -43.39501953125
-19.717529296875 21.57470703125 1.859130859375
-1.8369140625 18.97216796875 -36.243408203125
4.198974609375 15.785400390625 -3.742919921875
-3.8623046875 -20.200439453125 -41.6064453125
8.91162109375 17.659423828125 12.37451171875
-7.927001953125 9.65869140625 -13.884765625
4.279296875 -20.786376953125 -8.35302734375
-6.567138671875 24.268310546875 7.372314453125
4.90966796875 17.941162109375 -0.420166015625
-5.1171875 -12.4892578125 -36.957275390625
11.268310546875 13.55029296875 12.287841796875
-4.584228515625 -7.167236328125 -35.45068359375
-5.13818359375 -38.354248046875 -35.604248046875
-9.39990234375 21.047119140625 2.326416015625
6.04248046875 7.15283203125 -11.951171875
-16.47314453125 21.9501953125 3.19384765625
-12.20849609375 22.25927734375 3.36376953125
2.09521484375 27.8330078125 24.00830078125
9.22607421875 13.932373046875 15.986328125
8.589599609375 22.20263671875 7.482421875
-2.806884765625 -39.053466796875 -36.187255859375
-4.3466796875 -27.36669921875 -34.244873046875
-15.81591796875 24.107421875 -4.316162109375
-4.39599609375 -26.901123046875 -36.2451171875
0.748046875 -19.51416015625 -23.52685546875
3.536376953125 19.38671875 1.274658203125
3.59375 26.16650390625 20.03662109375
-3.22998046875 2.132568359375 -22.720947265625
-2.177978515625 -4.857666015625 -40.5185546875
2.708251953125 -21.755615234375 -11.5126953125
-26.798828125 21.46240234375 9.4755859375
5.094970703125 23.71630859375 17.323974609375
-0.024169921875 13.985595703125 -29.4013671875
5.589111328125 23.42724609375 15.59228515625
1.3896484375 27.627685546875 14.54931640625
-4.54248046875 7.384765625 -17.041259765625
6.167724609375 24.767822265625 10.49560546875
-3.324462890625 27.3056640625 12.52197265625
-9.517578125 11.7607421875 -16.486572265625
1.712890625 28.5419921875 15.5791015625
-16.34130859375 19.24609375 -0.916015625
6.83642578125 18.218994140625 0.7294921875
1.703369140625 24.17578125 9.379150390625
5.470703125 20.208251953125 21.85595703125
-3.784423828125 -12.055419921875 -39.684814453125
-9.36279296875 25.75341796875 9.32177734375
-4.12841796875 -8.597412109375 -37.943603515625
-28.36474609375 24.93359375 2.297607421875
-3.67626953125 26.131591796875 10.58984375
-19.67431640625 23.992919921875 -7.838134765625
0.345458984375 21.209716796875 4.07958984375
-9.782958984375 24.301513671875 6.9345703125
-4.96533203125 -14.478271484375 -39.068115234375
11.35888671875 15.3857421875 10.288818359375
-0.93701171875 18.669189453125 0.189208984375
-1.9736328125 20.395263671875 -32.7548828125
-27.445556640625 22.04052734375 -0.84765625
-25.485595703125 24.081787109375 -3.412353515625
3.576171875 27.75390625 17.54052734375
-0.83251953125 25.83251953125 -28.923583984375
-0.833251953125 29.271728515625 15.73681640625
12.536376953125 12.059326171875 11.437744140625
-1.54052734375 23.51171875 -32.576416015625
16.36865234375 5.722900390625 3.067138671875
2.088623046875 25.4814453125 11.770263671875
2.3505859375 25.448486328125 25.100830078125
-23.15625 24.41552734375 2.522216796875
2.11767578125 18.0478515625 -0.33740234375
10.079833984375 12.879638671875 16.873291015625
6.55126953125 22.410888671875 15.622314453125
-1.771484375 20.261474609375 -35.756591796875
0.739990234375 -22.06591796875 -27.357421875
-1.446044921875 17.087158203125 -2.18603515625
3.159912109375 23.73486328125 23.246337890625
5.74658203125 24.66943359375 14.85888671875
6.338134765625 13.91796875 -5.79541015625
4.017333984375 -17.281494140625 -49.356689453125
10.1083984375 17.016357421875 11.5966796875
9.327880859375 16.91162109375 14.557373046875
7.44580078125 19.97607421875 3.157958984375
5.380859375 5.32177734375 -14.30078125
-4.0712890625 17.50439453125 -2.056396484375
-18.64453125 22.4541015625 -0.936767578125
-22.746826171875 25.078369140625 6.0966796875
-12.64208984375 13.595458984375 -8.2001953125
-7.81396484375 14.35498046875 -7.10595703125
-7.317138671875 21.798828125 3.543701171875
3.5517578125 22.53564453125 6.83056640625
9.80517578125 14.707763671875 13.516845703125
0.086181640625 29.398681640625 16.7705078125
16.54296875 7.909912109375 2.41357421875
-8.137939453125 17.572998046875 -3.0087890625
-0.386962890625 24.978271484375 -27.61181640625
4.885498046875 19.427734375 2.331787109375
-24.587646484375 22.574951171875 -5.139892578125
4.426025390625 22.0869140625 21.916015625
-7.6689453125 19.018798828125 -1.094482421875
-0.96826171875 23.21435546875 -29.929931640625
0.85888671875 -13.824462890625 -3.2333984375
-10.22021484375 16.71044921875 -4.641357421875
-13.53955078125 24.0927734375 6.399169921875
-2.0126953125 -20.427734375 -22.662353515625
0.89990234375 -20.420166015625 -14.519287109375
0.7431640625 -13.482666015625 -5.304931640625
3.161376953125 4.106201171875 -16.7783203125
-4.664306640625 24.5595703125 8.538818359375
-1.418212890625 22.010498046875 -30.8984375
3.854248046875 10.715087890625 -10.670654296875
-15.150390625 24.80078125 7.116943359375
8.996337890625 15.483642578125 16.118896484375
-3.736572265625 14.1728515625 -7.03857421875
-25.781005859375 24.296630859375 0.8662109375
-2.826171875 -15.03759765625 -19.95849609375
0.503173828125 17.38671875 -1.474365234375
1.3798828125 -13.314453125 -49.09765625
-3.396728515625 19.65771484375 1.259033203125
-3.490234375 -9.387939453125 -39.1484375
-19.22705078125 34.913330078125 -13.91064453125
7.313232421875 10.469482421875 -8.538330078125
10.25341796875 11.474609375 -4.19189453125
-3.93115234375 -20.630859375 -37.971923828125
-8.305908203125 9.406982421875 -16.0751953125
-0.627685546875 16.86669921875 -28.89794921875
-0.0205078125 -19.830810546875 -21.5791015625
0.015380859375 -22.430908203125 -15.58837890625
-13.550048828125 20.688232421875 0.442626953125
-1.20166015625 15.147705078125 -31.186279296875
-11.870849609375 13.823486328125 -10.650634765625
-25.709716796875 23.919677734375 3.422119140625
-19.91552734375 23.03515625 0.67236328125
-21.2578125 23.994384765625 -0.282470703125
-3.54150390625 -6.478759765625 -38.634033203125
6.856689453125 12.765625 -7.1220703125
-6.003662109375 17.20556640625 -2.76416015625
-3.609375 8.96142578125 -14.2685546875
4.887451171875 -16.181884765625 -48.0244140625
-10.284912109375 27.40283203125 11.99072265625
-5.533203125 -15.651123046875 -23.1884765625
2.067626953125 12.210205078125 -9.054443359375
1.78662109375 -21.239501953125 -45.573486328125
-2.759521484375 -11.69921875 -2.2705078125
1.476318359375 29.343994140625 16.96435546875
-7.687744140625 16.14111328125 -4.795166015625
-5.284423828125 -33.1953125 -35.397705078125
-18.135009765625 22.1337890625 2.123046875
-8.231201171875 12.95703125 -9.41064453125
0.377197265625 4.960693359375 -17.47412109375
-3.49072265625 -23.60009765625 -33.58447265625
12.6015625 15.54541015625 7.83740234375
-22.183349609375 24.217529296875 0.908935546875
-26.1455078125 21.850830078125 -1.120361328125
-3.030517578125 5.09423828125 -19.98388671875
6.191650390625 21.311767578125 19.43359375
-1.16943359375 3.156494140625 -19.88916015625
3.53173828125 25.21484375 21.2529296875
7.9453125 22.65478515625 11.860595703125
2.860107421875 9.21923828125 -12.61865234375
3.21533203125 17.123291015625 -1.58154296875
15.57421875 8.702392578125 7.15478515625
9.385498046875 20.498779296875 5.665283203125
-3.63720703125 -19.837158203125 -31.800537109375
0.206298828125 25.21142578125 10.15625
-2.003662109375 25.6826171875 10.778076171875
-1.980224609375 6.833984375 -17.62841796875
-10.705810546875 11.961669921875 -12.3525390625
-6.736328125 -17.509521484375 -34.873779296875
-2.085205078125 1.732666015625 -22.193115234375
0.330810546875 17.365478515625 -26.616943359375
15.93505859375 6.71337890625 8.322998046875
-3.418701171875 6.511474609375 -18.666748046875
1.06494140625 23.53173828125 7.907470703125
-18.958984375 26.509765625 -9.279541015625
-1.45068359375 18.937255859375 -30.178955078125
4.240234375 -19.785888671875 -7.450439453125
2.233642578125 28.70654296875 21.45654296875
-29.121826171875 23.34716796875 -1.380859375
1.5537109375 -15.2392578125 -14.074462890625
