-4.693359375 -13.5225830078125 14.9354248046875
21.375244140625 -42.8416748046875 -4.291015625
19.7958984375 55.83154296875 5.617919921875
20.962158203125 46.3353271484375 1.500732421875
10.669921875 3.704345703125 -5.6700439453125
32.65380859375 17.430419921875 5.027587890625
27.2763671875 48.4273681640625 -13.036376953125
26.710205078125 25.2379150390625 7.7239990234375
-6.05908203125 -16.80908203125 -10.7916259765625
-1.1318359375 6.7554931640625 29.7398681640625
4.761962890625 -0.118896484375 -8.741455078125
33.974365234375 29.241943359375 -20.27294921875
-0.31201171875 -22.34375 11.16015625
-0.6904296875 -15.373291015625 9.6900634765625
-17.001953125 48.8546142578125 13.9849853515625
25.4580078125 29.9462890625 5.7462158203125
26.171142578125 33.7730712890625 1.96826171875
-5.06591796875 -20.5023193359375 -7.16455078125
-0.462158203125 -5.381591796875 -0.2108154296875
-13.09765625 50.71435546875 -2.8182373046875
-16.313232421875 50.2615966796875 9.8673095703125
32.91796875 38.32958984375 -9.4710693359375
27.916259765625 -42.81884765625 3.2239990234375
33.364990234375 16.4296875 -6.2005615234375
-1.08837890625 -22.1334228515625 -3.7213134765625
-9.08935546875 -35.1029052734375 2.953125
23.74951171875 43.426513671875 -3.4827880859375
-17.380126953125 61.2437744140625 13.5758056640625
-0.995849609375 -11.994873046875 3.9879150390625
-11.603759765625 52.0653076171875 1.13525390625
29.4658203125 18.9072265625 9.8485107421875
22.2060546875 44.673095703125 -0.7431640625
36.280517578125 34.931396484375 -17.27197265625
34.988525390625 37.2679443359375 -12.96923828125
21.708251953125 48.70947265625 -2.484130859375
-5.61279296875 -8.307861328125 -9.052734375
-13.06201171875 51.0438232421875 -9.841796875
34.858154296875 41.491943359375 -13.037841796875
31.703857421875 35.065673828125 -4.93701171875
27.210205078125 36.253173828125 -1.4365234375
32.794921875 5.245849609375 -1.1663818359375
13.881103515625 52.96240234375 13.4156494140625
6.67431640625 -7.8382568359375 10.4803466796875
3.482177734375 3.47998046875 -3.92041015625
24.073974609375 45.01123046875 -5.437744140625
15.043701171875 50.418701171875 12.076904296875
18.413818359375 57.75537109375 9.49755859375
-9.310791015625 -21.468505859375 -7.6776123046875
-12.527587890625 52.6876220703125 -1.62548828125
31.055908203125 46.7154541015625 -14.2589111328125
32.743896484375 14.2421875 5.5457763671875
8.520263671875 -3.5638427734375 -9.8831787109375
33.125 42.8922119140625 -11.8502197265625
-7.452392578125 60.1658935546875 3.267822265625
7.139404296875 -5.168212890625 -12.8104248046875
30.889404296875 29.8699951171875 1.244140625
-5.37890625 51.686279296875 -11.3824462890625
19.885498046875 29.375732421875 -22.531005859375
23.677490234375 27.1951904296875 8.904296875
21.881103515625 51.7808837890625 -6.1666259765625
33.0205078125 6.1746826171875 2.9456787109375
18.124755859375 48.0697021484375 9.884033203125
32.900390625 10.066650390625 4.5753173828125
-1.967529296875 -10.2447509765625 -8.518310546875
-10.62353515625 61.7479248046875 6.45166015625
-0.902587890625 -4.2861328125 -8.65771484375
-0.162841796875 -19.8746337890625 12.1029052734375
32.674072265625 11.077392578125 8.4141845703125
-11.0439453125 55.583740234375 -9.054931640625
-1.302001953125 -12.068603515625 -1.044189453125
-10.349609375 49.7247314453125 -12.0740966796875
21.172607421875 -45.115966796875 -3.9656982421875
1.00048828125 -1.878173828125 -1.4569091796875
33.509521484375 6.9703369140625 8.2816162109375
-15.208740234375 1.36962890625 18.146728515625
-1.422119140625 -4.1158447265625 -5.68115234375
33.135986328125 6.8731689453125 0.747314453125
22.970458984375 31.756591796875 -28.2115478515625
20.0439453125 4.710205078125 -8.50732421875
23.34130859375 -40.3203125 -6.2655029296875
15.51123046875 60.7353515625 12.8326416015625
23.349853515625 52.4366455078125 -10.235107421875
32.121337890625 15.2122802734375 9.16357421875
2.825927734375 48.017578125 -10.60302734375
31.76318359375 34.895751953125 -30.1939697265625
20.318359375 48.822021484375 2.751220703125
-1.391357421875 -9.813232421875 -2.1185302734375
-17.25927734375 46.8984375 17.765869140625
-2.11572265625 44.044677734375 -10.2711181640625
-13.22607421875 57.2537841796875 7.6431884765625
31.918701171875 18.0032958984375 8.2557373046875
33.391357421875 22.258056640625 -6.8223876953125
9.468505859375 -4.63671875 -14.1265869140625
-10.81689453125 59.5159912109375 6.117431640625
16.828369140625 4.212646484375 -9.1253662109375
-19.6689453125 4.325927734375 15.3489990234375
20.655517578125 53.0052490234375 -2.8216552734375
33.191162109375 14.99462890625 -1.826416015625
-2.870849609375 -13.7999267578125 17.1639404296875
1.369384765625 -8.85400390625 6.8616943359375
11.69677734375 58.700439453125 10.05029296875
-1.42724609375 9.599853515625 24.5526123046875
20.180908203125 56.291259765625 0.9156494140625
27.89990234375 45.6192626953125 -11.4102783203125
-2.043212890625 -20.013671875 -7.6185302734375
33.448486328125 29.6014404296875 -10.006591796875
33.00390625 10.74755859375 11.7227783203125
0.84228515625 -11.5435791015625 7.806884765625
-0.208740234375 12.616943359375 26.790283203125
-9.047119140625 45.4603271484375 11.884765625
4.74609375 -3.604736328125 -12.4454345703125
-7.882568359375 -18.7362060546875 -8.5662841796875
36.9423828125 35.6199951171875 -19.9691162109375
31.377685546875 14.7376708984375 11.4178466796875
-11.561279296875 46.220947265625 11.298583984375
-11.054931640625 57.9921875 -5.26708984375
-17.39697265625 53.981201171875 14.7352294921875
16.41650390625 55.1285400390625 11.9754638671875
-11.314697265625 53.08935546875 -11.6058349609375
-15.10302734375 -2.0914306640625 18.469970703125
33.315185546875 9.41357421875 -2.69287109375
17.381103515625 6.0855712890625 -5.3348388671875
32.291259765625 20.2633056640625 6.4552001953125
33.87841796875 33.873779296875 -26.8330078125
26.322509765625 -39.5286865234375 -1.511962890625
21.7529296875 41.68798828125 1.826904296875
5.78759765625 -0.9068603515625 -10.6715087890625
33.12841796875 3.110107421875 2.887451171875
22.435302734375 4.527587890625 -6.618896484375
-11.44677734375 55.5445556640625 8.3006591796875
-10.8544921875 -8.7806396484375 -9.91552734375
13.039306640625 6.08935546875 -2.9930419921875
9.29052734375 57.4261474609375 8.7188720703125
2.60205078125 -3.1461181640625 -9.0921630859375
-5.771728515625 47.709716796875 -10.129638671875
0.73486328125 47.17431640625 -10.5308837890625
-14.085205078125 52.52490234375 9.152099609375
24.1728515625 40.5155029296875 -0.92919921875
33.375732421875 14.2919921875 -6.223388671875
33.375 20.7978515625 -4.7601318359375
-3.162109375 52.6453857421875 -12.3280029296875
27.890869140625 22.3714599609375 8.78271484375
33.0517578125 32.8077392578125 -5.9915771484375
22.9091796875 -42.3118896484375 -5.6834716796875
34.125 23.137451171875 -12.001708984375
25.685791015625 44.8182373046875 -7.6778564453125
-0.1669921875 -0.811279296875 -7.4130859375
-0.4609375 -18.0478515625 11.0745849609375
-11.90283203125 55.2928466796875 -2.1142578125
32.521484375 13.7874755859375 7.5863037109375
-6.57568359375 -12.09814453125 21.6715087890625
32.584716796875 24.787109375 2.61572265625
-1.393798828125 -12.4122314453125 1.4989013671875
4.868408203125 50.408203125 -10.9884033203125
13.46337890625 4.4705810546875 -5.8685302734375
14.64306640625 1.38720703125 -11.4918212890625
32.760986328125 6.9049072265625 -3.3619384765625
27.813720703125 -40.6011962890625 -2.7784423828125
-12.697265625 -23.359375 -7.7841796875
33.2548828125 16.80078125 -3.068115234375
33.59130859375 6.2078857421875 6.2015380859375
33.212890625 16.992919921875 2.1373291015625
-0.690185546875 -24.212890625 9.8009033203125
-2.606201171875 -10.4805908203125 -5.892822265625
32.90625 36.544189453125 -8.21337890625
19.382568359375 51.0343017578125 7.745849609375
-2.2724609375 -13.010009765625 -3.6009521484375
2.926513671875 1.21484375 -5.127197265625
-17.42041015625 49.2972412109375 19.22900390625
20.191162109375 48.8428955078125 5.0345458984375
18.638916015625 50.0787353515625 9.676513671875
-17.482421875 52.1912841796875 17.5826416015625
11.05810546875 0.24951171875 -12.5108642578125
2.937744140625 -0.5345458984375 -6.24658203125
-14.840087890625 48.35595703125 10.422607421875
-14.310791015625 -0.04541015625 19.423583984375
1.952880859375 12.1778564453125 28.377685546875
8.2587890625 4.5228271484375 -2.131103515625
-1.364990234375 -22.123779296875 6.4547119140625
24.31103515625 35.6976318359375 -29.5880126953125
-1.666748046875 11.2196044921875 30.134521484375
-0.8447265625 -0.60009765625 -5.5064697265625
0.148193359375 0.8680419921875 -4.1673583984375
32.935791015625 21.3795166015625 0.9779052734375
0.0400390625 -25.3623046875 -8.97216796875
-15.541259765625 5.361083984375 14.43408203125
20.54443359375 50.005126953125 0.427734375
-13.304443359375 44.7686767578125 11.4246826171875
-8.346923828125 48.329833984375 -11.5369873046875
-17.38818359375 63.3741455078125 13.3294677734375
21.04248046875 8.56591796875 -5.810546875
28.660888671875 42.31884765625 -9.0174560546875
4.994873046875 -7.62890625 9.399169921875
-1.47119140625 5.7625732421875 26.4849853515625
33.181396484375 27.8253173828125 -4.167724609375
9.6259765625 4.804931640625 -4.3604736328125
-1.2939453125 -13.4957275390625 -10.5377197265625
-11.909423828125 -3.914306640625 17.363037109375
19.77001953125 57.8646240234375 5.5372314453125
27.97705078125 36.4234619140625 -24.7427978515625
-1.560791015625 -16.125 1.6278076171875
-17.017822265625 60.4444580078125 10.951904296875
35.430908203125 32.9970703125 -17.8367919921875
26.043212890625 -42.6014404296875 -0.8968505859375
23.9365234375 -41.258056640625 -3.07568359375
-1.171142578125 -11.172607421875 -12.439453125
-15.779052734375 54.951904296875 8.1622314453125
-2.7021484375 -20.6966552734375 3.5465087890625
-17.154296875 63.3978271484375 9.2359619140625
29.552490234375 21.318603515625 8.77734375
8.660888671875 2.0911865234375 -7.9998779296875
33.16748046875 24.9534912109375 -3.8497314453125
33.452880859375 20.2965087890625 -9.2579345703125
33.152099609375 13.7154541015625 1.62451171875
-1.85302734375 49.300537109375 -10.82421875
-10.83349609375 58.5418701171875 -2.658447265625
17.874755859375 53.4163818359375 10.8792724609375
30.47509765625 34.046142578125 -26.46826171875
33.3759765625 10.2080078125 -4.9345703125
-10.1591796875 52.2850341796875 8.0350341796875
-1.53759765625 8.0732421875 28.29638671875
35.92919921875 37.211181640625 -16.594970703125
14.866455078125 3.6148681640625 -9.0047607421875
18.923583984375 53.94921875 8.870849609375
7.747314453125 53.2794189453125 -12.47265625
9.296142578125 -6.796142578125 -13.7703857421875
-10.73779296875 59.111083984375 3.5830078125
-12.09375 58.918212890625 7.4844970703125
-12.28076171875 54.8699951171875 -4.435546875
20.568115234375 53.756103515625 -0.8988037109375
19.129638671875 6.9302978515625 -5.2042236328125
27.37939453125 34.044921875 0.1585693359375
21.098876953125 42.7806396484375 3.29052734375
10.53271484375 1.0562744140625 -10.7803955078125
21.778076171875 46.955322265625 -1.609375
-18.552001953125 3.3052978515625 16.56689453125
1.57177734375 -6.2586669921875 -11.631103515625
33.654296875 28.2247314453125 -16.311279296875
-17.230224609375 57.1561279296875 13.095458984375
12.927001953125 0.6524658203125 -13.54638671875
-0.803955078125 -7.70263671875 -11.375244140625
19.671875 47.2454833984375 5.977783203125
31.51171875 32.160400390625 -1.833251953125
33.398193359375 29.4783935546875 -7.6243896484375
26.059814453125 50.2333984375 -13.173583984375
-1.465576171875 -5.989013671875 -4.8590087890625
23.60205078125 23.0965576171875 8.8519287109375
-7.4580078125 -11.420166015625 23.3319091796875
-2.684326171875 -16.9532470703125 -9.800048828125
33.42822265625 25.9237060546875 -7.4605712890625
27.090576171875 29.991943359375 4.7523193359375
0.79296875 11.62109375 25.411376953125
-12.3134765625 51.4073486328125 -11.8353271484375
-10.415771484375 48.837158203125 10.646240234375
19.977294921875 26.8016357421875 -25.0294189453125
36.493896484375 31.7117919921875 -20.4052734375
-14.24560546875 62.1273193359375 6.227294921875
-16.8662109375 1.3704833984375 14.6392822265625
27.307861328125 -38.626953125 -6.8377685546875
24.7158203125 48.14794921875 -9.3070068359375
32.2529296875 22.2689208984375 5.02783203125
-16.931396484375 54.378173828125 10.550537109375
28.046875 35.753662109375 -30.290771484375
17.36083984375 51.4212646484375 11.0885009765625
26.81201171875 35.3861083984375 -26.2977294921875
0.168701171875 -2.410400390625 -8.412109375
7.4248046875 -8.3135986328125 12.138671875
-12.534423828125 -24.905029296875 -4.093505859375
34.318359375 30.7601318359375 -16.5655517578125
-0.9404296875 -8.466796875 1.4163818359375
-10.478271484375 54.4384765625 -13.120361328125
-17.426513671875 63.3011474609375 15.2388916015625
33.0810546875 19.67431640625 -2.5126953125
-16.185791015625 45.3125 11.1802978515625
4.93603515625 -9.8614501953125 9.414306640625
-1.904541015625 -7.9715576171875 -7.09912109375
2.0771484375 52.089111328125 -11.18212890625
34.9814453125 34.279541015625 -15.8555908203125
10.260009765625 59.2532958984375 8.8621826171875
28.307373046875 -40.4215087890625 1.9327392578125
30.419921875 42.2413330078125 -10.3060302734375
4.031005859375 52.0155029296875 -11.8017578125
12.274658203125 2.9190673828125 -9.671875
-11.06201171875 56.1898193359375 -5.72314453125
33.365966796875 24.1717529296875 -6.2503662109375
0.219970703125 9.636474609375 23.5509033203125
-1.121826171875 -18.1624755859375 7.2559814453125
-4.7734375 -10.421875 16.8997802734375
33.139404296875 7.6295166015625 4.3280029296875
-9.629150390625 52.3165283203125 6.001953125
-1.5009765625 7.43359375 24.6044921875
27.13037109375 42.746826171875 -7.759521484375
22.247314453125 48.6517333984375 -4.476318359375
-0.75146484375 -15.9757080078125 7.947265625
6.3525390625 -0.1917724609375 -7.810791015625
-17.0576171875 47.08447265625 13.476318359375
31.016845703125 26.4517822265625 4.3336181640625
4.53466796875 48.647705078125 -10.3441162109375
22.734130859375 50.4923095703125 -7.8431396484375
5.092041015625 -6.6497802734375 -15.198974609375
33.568359375 26.912109375 -10.6473388671875
-14.190185546875 59.037841796875 6.9952392578125
23.4326171875 -44.01171875 -0.70751953125
-17.01416015625 52.5977783203125 13.364990234375
32.9365234375 18.3797607421875 3.298828125
-4.3212890625 51.3175048828125 -12.8348388671875
-12.10791015625 51.2147216796875 9.7132568359375
33.4375 24.0765380859375 -9.958984375
23.427734375 7.962158203125 -8.0408935546875
27.2607421875 31.9759521484375 2.48388671875
7.934326171875 -7.685546875 -15.087158203125
3.635498046875 -1.4718017578125 -8.298828125
36.3994140625 41.0616455078125 -14.3038330078125
28.614990234375 28.581787109375 4.36962890625
33.913330078125 32.3565673828125 -13.7567138671875
10.650634765625 3.91162109375 -7.6856689453125
33.021728515625 12.8431396484375 4.378173828125
-16.88232421875 61.516845703125 9.5111083984375
-11.634521484375 53.9876708984375 1.5120849609375
7.6953125 -8.86328125 9.070068359375
28.215087890625 26.202880859375 6.6959228515625
-17.12353515625 57.87255859375 9.46533203125
25.341552734375 49.28857421875 -11.31640625
-2.3671875 -23.598388671875 -4.280517578125
-1.305419921875 -11.395263671875 -10.031005859375
33.402587890625 27.822265625 -6.8902587890625
23.81201171875 48.146728515625 -7.513427734375
-17.281005859375 50.423095703125 17.7344970703125
31.953857421875 26.473876953125 2.44921875
24.29931640625 30.1163330078125 9.8271484375
33.326904296875 11.076416015625 -1.477294921875
33.167724609375 9.218994140625 7.5660400390625
-17.464599609375 59.507568359375 16.388916015625
24.796142578125 34.6754150390625 3.1319580078125
2.083251953125 -10.292724609375 8.939453125
23.0576171875 33.3797607421875 -27.4931640625
-9.72998046875 59.241943359375 -0.4801025390625
19.990234375 52.2755126953125 3.7060546875
33.276123046875 35.01123046875 -9.199462890625
32.44970703125 34.31591796875 -27.782470703125
33.216796875 13.037353515625 -2.399169921875
-0.97412109375 -2.2332763671875 -4.838623046875
33.047119140625 11.149658203125 1.2459716796875
-13.3701171875 -2.7015380859375 16.8563232421875
16.882568359375 7.6207275390625 -1.9742431640625
32.942138671875 20.7054443359375 2.73681640625
-2.93896484375 45.56787109375 -9.2073974609375
33.427001953125 12.87451171875 -4.6197509765625
38.261474609375 42.954833984375 -15.940185546875
32.818603515625 25.3951416015625 0.0648193359375
-17.241455078125 50.71728515625 13.7669677734375
3.3232421875 -3.46728515625 -10.9259033203125
17.121826171875 2.10205078125 -10.42822265625
-1.85009765625 -19.5531005859375 12.4669189453125
-5.497314453125 -24.18896484375 -3.3441162109375
30.749755859375 37.569091796875 -6.1414794921875
-9.193359375 -8.1639404296875 -9.246337890625
25.109130859375 33.19384765625 4.0133056640625
-10.471435546875 55.536865234375 4.7069091796875
6.63232421875 2.7430419921875 -7.051513671875
17.185302734375 4.571533203125 -6.2142333984375
24.304443359375 10.3907470703125 -6.70068359375
34.364501953125 35.690673828125 -13.5587158203125
-13.49853515625 -7.9998779296875 -8.4505615234375
-0.9580078125 46.0416259765625 -9.623291015625
-3.452880859375 -11.025146484375 -8.051513671875
-2.2392578125 -15.415771484375 -0.5509033203125
-3.0439453125 -12.7960205078125 -7.5123291015625
-17.2939453125 55.698486328125 16.7183837890625
-1.13818359375 -10.986328125 2.4603271484375
15.660400390625 56.6417236328125 12.643798828125
33.442138671875 22.3994140625 -9.2281494140625
-2.05322265625 -14.5933837890625 -11.91552734375
19.220458984375 1.2303466796875 -9.3671875
-16.982421875 2.416015625 16.0169677734375
24.767578125 30.88818359375 7.7955322265625
-13.06787109375 50.812744140625 -4.694091796875
26.15380859375 -43.0626220703125 1.3665771484375
1.732666015625 -4.634765625 -10.8282470703125
33.2470703125 17.7452392578125 -7.3154296875
0.650634765625 -4.861328125 1.1656494140625
25.492919921875 10.3826904296875 -9.3759765625
30.298095703125 24.5037841796875 6.757080078125
31.908447265625 39.712158203125 -9.2581787109375
32.077880859375 29.36962890625 -0.2403564453125
2.493408203125 -7.76025390625 -13.3131103515625
25.54345703125 46.105224609375 -8.8162841796875
-6.02099609375 44.9747314453125 -10.776123046875
-8.9130859375 51.1414794921875 -12.8048095703125
-3.781982421875 -16.0833740234375 -10.7940673828125
28.111572265625 37.1251220703125 -3.683349609375
22.975341796875 40.2528076171875 0.858642578125
33.62939453125 24.9677734375 -13.0615234375
25.837158203125 39.642333984375 -3.3282470703125
-12.54052734375 53.3009033203125 -6.0902099609375
21.351318359375 29.9407958984375 -26.064208984375
24.65869140625 37.0533447265625 0.9793701171875
28.510009765625 17.837890625 10.7716064453125
6.6435546875 50.1505126953125 -12.0953369140625
8.265869140625 -3.8074951171875 -13.2501220703125
33.6904296875 30.3636474609375 -13.0162353515625
20.536865234375 29.7220458984375 -24.144775390625
-8.37451171875 58.7708740234375 2.0162353515625
-1.1494140625 -6.00244140625 -8.986328125
1.240966796875 -8.596923828125 5.1904296875
30.8837890625 21.81640625 7.8548583984375
-8.06201171875 54.3656005859375 4.9874267578125
-16.7138671875 59.432373046875 7.4766845703125
-12.836669921875 49.371826171875 -3.81640625
-7.938720703125 50.85205078125 6.4345703125
25.330810546875 41.4803466796875 -4.4732666015625
-4.431396484375 -12.75 17.2303466796875
-4.050048828125 -7.758056640625 -9.3673095703125
20.095947265625 55.2623291015625 2.306884765625
27.422607421875 47.1536865234375 -11.915771484375
-17.013916015625 52.7857666015625 11.3623046875
4.2587890625 -5.375244140625 -13.36865234375
17.92236328125 -1.9801025390625 -9.177490234375
33.0234375 17.198486328125 0.4840087890625
20.349365234375 44.927001953125 2.284912109375
-0.599609375 -8.9752197265625 -12.6051025390625
-1.28076171875 -14.6436767578125 5.5379638671875
20.9677734375 49.9766845703125 -1.184814453125
26.72314453125 26.9188232421875 6.9434814453125
-20.162353515625 3.5970458984375 13.934326171875
33.386474609375 31.7607421875 -10.049072265625
32.934326171875 29.9564208984375 -3.3580322265625
5.899658203125 4.8138427734375 -4.0980224609375
32.45751953125 17.79443359375 6.703125
-10.537841796875 54.162841796875 8.2103271484375
-6.334716796875 -19.4852294921875 -7.8447265625
-1.314697265625 -9.0657958984375 -3.8648681640625
-0.9365234375 -6.224609375 -1.5526123046875
35.37109375 38.1070556640625 -14.9783935546875
24.972900390625 34.650146484375 -24.2698974609375
13.495849609375 2.301025390625 -7.7623291015625
33.1474609375 22.4796142578125 -2.760986328125
5.5048828125 -2.5068359375 -11.0775146484375
-0.47021484375 -3.071044921875 -1.7591552734375
20.244140625 50.56494140625 3.7506103515625
2.780029296875 -6.152099609375 -12.9039306640625
9.483642578125 -6.9539794921875 10.2188720703125
26.697021484375 23.5479736328125 8.5086669921875
23.672607421875 42.3497314453125 -2.0828857421875
3.5927734375 -10.7945556640625 9.5609130859375
-17.21630859375 47.9151611328125 15.31396484375
33.323486328125 16.61962890625 -1.0223388671875
16.355712890625 59.0504150390625 12.3216552734375
11.43212890625 6.2532958984375 -2.5418701171875
21.73681640625 -41.5888671875 -3.1165771484375
-1.988525390625 10.9525146484375 28.548828125
-10.999755859375 55.5106201171875 6.7255859375
-13.05126953125 49.9715576171875 -7.4708251953125
20.4462890625 51.99462890625 0.818359375
26.760986328125 36.52734375 -29.0595703125
-17.158935546875 56.2705078125 11.7337646484375
33.044189453125 19.7149658203125 -0.626953125
0.341796875 -7.9927978515625 3.896728515625
-13.390625 53.27197265625 -2.9312744140625
-9.880615234375 53.1739501953125 -13.9383544921875
33.6552734375 26.75634765625 -12.4107666015625
-5.092041015625 46.372314453125 -9.5224609375
33.7802734375 13.4979248046875 -7.5704345703125
1.693359375 49.2357177734375 -10.9498291015625
32.055908203125 36.6041259765625 -6.8433837890625
3.87353515625 2.898681640625 -2.46923828125
-16.639892578125 1.8311767578125 17.5185546875
29.010986328125 34.5855712890625 -27.4837646484375
23.48876953125 33.426513671875 -24.107177734375
16.251220703125 7.099853515625 -3.5438232421875
-14.6025390625 4.17138671875 15.122802734375
33.265625 33.206787109375 -7.9351806640625
4.8359375 -8.0050048828125 7.501953125
-15.285400390625 56.4091796875 7.6983642578125
18.62451171875 59.318603515625 9.7882080078125
-0.407958984375 -14.4324951171875 8.42236328125
25.651611328125 34.3148193359375 -26.0244140625
-12.097900390625 53.2698974609375 -7.6292724609375
-2.75634765625 -20.3438720703125 -1.555419921875
-5.741455078125 -11.8460693359375 23.0706787109375
27.643798828125 38.88134765625 -4.7579345703125
33.853759765625 19.510009765625 -10.592041015625
7.1484375 0.91357421875 -9.7593994140625
-5.09765625 -8.5277099609375 15.7838134765625
7.175048828125 4.086669921875 -5.4342041015625
4.052734375 2.5643310546875 -5.572509765625
-9.022705078125 59.8939208984375 3.3377685546875
31.646728515625 42.8121337890625 -11.2587890625
26.4521484375 28.3309326171875 6.1221923828125
-11.03662109375 50.8692626953125 0.250732421875
20.55078125 -43.07666015625 -2.6380615234375
-1.30810546875 -14.357421875 1.94775390625
-17.1318359375 49.7320556640625 12.46875
26.770751953125 46.2623291015625 -10.49853515625
1.83447265625 7.814208984375 23.46435546875
-0.491943359375 -12.2264404296875 5.8642578125
0.993896484375 13.25634765625 27.72265625
-1.3017578125 -20.9105224609375 5.4395751953125
23.0224609375 24.4964599609375 9.310302734375
-17.322998046875 53.6104736328125 16.9014892578125
20.893798828125 54.318115234375 -3.77392578125
-16.79248046875 46.625 11.9881591796875
21.48291015625 46.11669921875 0.0269775390625
21.161376953125 7.0064697265625 -6.01611328125
33.183349609375 39.6068115234375 -10.3563232421875
33.8154296875 38.1690673828125 -10.7618408203125
0.74658203125 0.0379638671875 -2.9627685546875
18.28759765625 4.793212890625 -9.0428466796875
-2.258056640625 -21.3848876953125 -2.7615966796875
30.01513671875 29.3292236328125 2.42822265625
-15.7900390625 62.08935546875 5.706298828125
-13.2685546875 49.43896484375 -10.0780029296875
6.12646484375 53.65576171875 -12.2493896484375
33.231201171875 30.6185302734375 -6.332763671875
33.4052734375 17.159912109375 -4.5819091796875
10.508056640625 -2.0240478515625 -13.728759765625
-17.434814453125 57.832763671875 15.43701171875
19.850341796875 49.508544921875 6.4034423828125
33.175537109375 10.419189453125 2.6175537109375
-15.128662109375 53.6356201171875 8.822509765625
14.792236328125 51.7205810546875 13.1798095703125
-11.65966796875 56.8018798828125 -1.8189697265625
15.126708984375 54.0938720703125 12.65625
-2.422119140625 -8.3729248046875 -9.1279296875
20.658447265625 48.1580810546875 1.386474609375
21.91943359375 43.4151611328125 0.15625
33.698974609375 34.5870361328125 -11.583251953125
-11.412841796875 56.322021484375 -0.02734375
-10.96484375 -7.423095703125 -9.1640625
-11.74755859375 49.722900390625 10.26708984375
-13.479736328125 47.3729248046875 10.877197265625
12.743408203125 0.2685546875 -12.0596923828125
24.49609375 43.5596923828125 -4.98486328125
20.886474609375 51.14892578125 -2.2628173828125
26.31689453125 -39.1458740234375 -5.662353515625
30.3759765625 33.6297607421875 -24.9853515625
-1.229736328125 -7.8448486328125 -1.951171875
-1.452392578125 -15.9801025390625 4.0816650390625
32.96875 25.7371826171875 -1.4432373046875
25.021484375 31.47314453125 5.2529296875
2.300537109375 -25.5020751953125 -8.634033203125
-17.59521484375 56.2529296875 18.123291015625
7.048095703125 -5.0352783203125 -14.341552734375
22.1767578125 21.306640625 9.83349609375
32.3232421875 33.429931640625 -4.79248046875
-15.2744140625 51.5797119140625 9.3604736328125
-8.698486328125 56.9571533203125 2.7586669921875
-17.11181640625 49.842529296875 15.28662109375
31.9951171875 32.6427001953125 -3.2021484375
14.127197265625 2.7095947265625 -10.92578125
19.410888671875 56.58740234375 6.900146484375
22.122802734375 -40.9989013671875 -5.642822265625
-5.693359375 50.5968017578125 -12.4036865234375
-16.3154296875 43.5133056640625 12.5377197265625
20.169677734375 53.12744140625 2.4541015625
23.882080078125 35.138427734375 -28.237060546875
32.985107421875 10.0682373046875 6.0948486328125
25.135498046875 39.4049072265625 -1.7384033203125
5.849853515625 1.1300048828125 -7.2513427734375
26.37744140625 37.518310546875 -1.5577392578125
19.946044921875 55.546630859375 3.96044921875
21.156005859375 52.22119140625 -4.4798583984375
22.822509765625 44.26025390625 -2.0679931640625
15.7138671875 4.4052734375 -5.529296875
34.748046875 38.932373046875 -12.9029541015625
-12.0830078125 52.4287109375 -10.38671875
-12.711181640625 52.03662109375 -8.7564697265625
24.529296875 29.509765625 6.855224609375
-13.364501953125 51.79150390625 -5.836181640625
-0.987060546875 -22.3680419921875 8.77783203125
8.89404296875 5.44189453125 -3.146484375
23.28076171875 44.97705078125 -4.013671875
27.975341796875 -41.8314208984375 4.3642578125
-1.354248046875 -11.2952880859375 -2.3961181640625
1.159912109375 -9.2886962890625 -13.3896484375
-8.304443359375 -17.239501953125 -9.946533203125
-1.047119140625 -19.1197509765625 5.7568359375
23.205322265625 32.64013671875 -26.196044921875
-17.326904296875 60.589111328125 14.924560546875
-1.73095703125 -13.3583984375 -1.678466796875
-2.409423828125 -14.2470703125 -9.8740234375
-8.745849609375 -19.8583984375 -8.07373046875
-16.788330078125 57.232421875 8.1522216796875
29.1728515625 32.915283203125 -0.1883544921875
-1.548583984375 12.11669921875 27.7177734375
26.056884765625 -40.419921875 -3.787109375
-10.279541015625 46.98876953125 11.23876953125
31.411865234375 16.8682861328125 9.4671630859375
33.56396484375 40.849365234375 -11.62451171875
33.2041015625 5.0128173828125 7.0101318359375
32.42041015625 5.89208984375 9.63232421875
-1.431640625 -21.5965576171875 -5.1253662109375
33.841064453125 29.3155517578125 -21.7576904296875
-12.25634765625 -8.005859375 -9.63916015625
13.942138671875 3.77099609375 -7.681640625
32.720947265625 27.8824462890625 -0.6348876953125
23.90576171875 -42.8123779296875 -1.451171875
23.884033203125 -39.2108154296875 -5.43701171875
-2.11962890625 -17.7469482421875 2.0450439453125
29.736572265625 30.7293701171875 1.6220703125
19.997802734375 28.365966796875 -23.8614501953125
-9.1650390625 -18.3564453125 -9.45703125
17.708984375 58.3548583984375 10.6602783203125
32.39697265625 31.2266845703125 -2.808349609375
26.145263671875 -41.12158203125 -0.949951171875
-17.14111328125 64.171142578125 12.1064453125
6.9453125 4.8446044921875 -3.031982421875
26.062255859375 33.6162109375 -22.320556640625
22.502197265625 8.119873046875 -6.7127685546875
-2.826171875 -12.250732421875 -4.7412109375
33.67333984375 32.82421875 -12.2274169921875
0.142822265625 -20.2952880859375 13.4833984375
34.22900390625 33.5499267578125 -14.56396484375
-1.557861328125 -11.6864013671875 -8.607421875
-1.141357421875 9.357177734375 27.3779296875
33.2314453125 4.668701171875 2.2591552734375
-0.525634765625 -10.486328125 4.0555419921875
-17.66748046875 53.3641357421875 18.7291259765625
-11.592041015625 53.684814453125 -1.087890625
7.832275390625 -3.03515625 -8.58837890625
8.17236328125 -7.6746826171875 9.7890625
10.686279296875 5.758056640625 -3.7054443359375
12.227783203125 3.648193359375 -6.2005615234375
33.3603515625 26.08203125 -9.4591064453125
19.909912109375 52.2081298828125 6.0594482421875
11.7080078125 1.57275390625 -7.96630859375
33.138916015625 19.4044189453125 -5.7135009765625
26.109619140625 21.323974609375 9.2069091796875
33.169921875 8.324951171875 0.615234375
-17.23486328125 60.1815185546875 12.369140625
9.566650390625 -0.11572265625 -11.2822265625
33.119873046875 23.131103515625 -0.6678466796875
6.115234375 -0.6611328125 -9.16796875
-0.218994140625 -4.811279296875 -9.944091796875
7.944580078125 -2.83251953125 -11.000244140625
36.932373046875 39.8289794921875 -14.8592529296875
1.921142578125 9.25341796875 23.29443359375
-2.541748046875 -9.3232421875 -6.8555908203125
-16.697021484375 61.2362060546875 7.9110107421875
-4.2861328125 -12.0435791015625 18.4853515625
-4.354736328125 -14.0452880859375 16.3934326171875
-1.439453125 -20.9154052734375 -6.400634765625
13.6318359375 5.7816162109375 -4.43994140625
-0.680908203125 -6.8160400390625 0.3212890625
-10.94970703125 55.46484375 -7.5699462890625
33.118408203125 26.078125 -2.9464111328125
33.03125 30.391357421875 -4.9232177734375
1.17041015625 45.5816650390625 -9.9632568359375
32.778076171875 15.67529296875 5.406005859375
-11.803466796875 51.8270263671875 -0.725830078125
33.821533203125 16.822998046875 -8.9793701171875
-11.1220703125 54.2010498046875 -10.2271728515625
-9.064453125 53.6041259765625 5.68603515625
18.664794921875 5.7696533203125 -5.912109375
24.34716796875 33.0479736328125 5.5562744140625
23.84130859375 9.231689453125 -7.408447265625
-16.88818359375 0.7452392578125 15.930419921875
-17.34814453125 48.399658203125 17.8446044921875
3.508056640625 -8.139892578125 -14.4842529296875
-1.416015625 10.6368408203125 25.5384521484375
26.462890625 11.5595703125 -8.8720703125
33.64697265625 29.8289794921875 -11.4039306640625
33.67919921875 28.767822265625 -14.200927734375
33.064453125 15.169921875 1.89794921875
6.225830078125 -4.171630859375 -13.2738037109375
19.119140625 57.1556396484375 8.3343505859375
19.15283203125 52.493896484375 8.30908203125
9.614990234375 3.67578125 -6.7332763671875
-11.887451171875 56.9482421875 8.2054443359375
-1.27880859375 -5.41015625 -3.5697021484375
-1.476806640625 -7.0198974609375 -5.8427734375
-11.51953125 -24.53955078125 -5.13818359375
8.929931640625 4.2020263671875 -5.444091796875
-11.787841796875 -22.350830078125 -8.201416015625
-6.698486328125 -21.6143798828125 -5.6549072265625
-12.590087890625 -25.833984375 -5.1663818359375
19.8779296875 53.283935546875 5.0347900390625
-1.339111328125 -10.582275390625 -0.7679443359375
21.517822265625 53.0985107421875 -6.5384521484375
33.388671875 21.23681640625 -7.8037109375
19.33203125 7.5205078125 -3.910888671875
32.94677734375 28.894775390625 -2.3970947265625
17.817138671875 56.9449462890625 10.490478515625
1.661376953125 1.8436279296875 -5.1795654296875
10.47900390625 -4.51123046875 -13.1492919921875
-0.2314453125 -12.8424072265625 7.7847900390625
28.6083984375 43.423095703125 -10.0123291015625
6.326171875 -9.044921875 9.3492431640625
30.617919921875 18.92626953125 9.037841796875
24.139892578125 28.393310546875 7.6380615234375
-1.548828125 7.0301513671875 27.305908203125
32.955322265625 16.849365234375 3.5135498046875
-1.1025390625 -13.0582275390625 4.90869140625
13.816650390625 1.734375 -12.573974609375
27.033935546875 -42.9251708984375 4.8201904296875
0.0966796875 11.004150390625 24.285400390625
19.166259765625 4.75634765625 -7.10302734375
22.045654296875 49.8577880859375 -5.163330078125
-17.144287109375 51.2208251953125 10.70361328125
36.750732421875 35.4031982421875 -18.6004638671875
-0.52880859375 47.6190185546875 -10.12841796875
8.150634765625 1.0478515625 -8.7789306640625
5.212646484375 2.7789306640625 -6.9193115234375
4.707275390625 -1.0321044921875 -9.7960205078125
23.55908203125 49.4481201171875 -8.2650146484375
34.63330078125 31.9559326171875 -17.3673095703125
-10.407470703125 52.0986328125 9.3924560546875
24.1748046875 34.1077880859375 -26.740966796875
27.81005859375 39.7740478515625 -6.0106201171875
9.577880859375 1.009765625 -8.9136962890625
9.654052734375 -3.5504150390625 -10.6890869140625
16.619140625 4.5594482421875 -7.4840087890625
14.620361328125 6.6494140625 -3.306640625
33.2509765625 14.192138671875 0.0125732421875
-1.8037109375 -18.9150390625 3.2508544921875
32.619873046875 18.76904296875 5.375244140625
33.399658203125 30.7115478515625 -9.110107421875
-17.980712890625 1.0206298828125 19.0838623046875
-5.35986328125 -10.1436767578125 19.9317626953125
32.835693359375 6.2772216796875 -2.07861328125
3.83935546875 0.03564453125 -7.42431640625
6.446044921875 -5.853759765625 -15.268310546875
35.880615234375 42.4578857421875 -14.278564453125
30.6982421875 35.618408203125 -29.7113037109375
33.497314453125 28.490234375 -10.90380859375
0.9453125 -10.4803466796875 6.8779296875
-11.564453125 53.10498046875 0.15625
0.43212890625 -10.7388916015625 9.1719970703125
4.680419921875 53.663330078125 -11.7496337890625
34.028076171875 30.1385498046875 -19.2376708984375
34.98583984375 30.46533203125 -20.23876953125
1.357177734375 -0.4610595703125 -7.1796875
22.324462890625 41.372314453125 0.418701171875
-0.68701171875 -21.3017578125 11.9610595703125
33.181640625 21.16064453125 -3.114501953125
4.764892578125 3.775634765625 -4.2772216796875
31.474853515625 36.333251953125 -5.6397705078125
-12.82861328125 54.5406494140625 -3.23095703125
29.220703125 35.3743896484375 -28.6021728515625
24.98974609375 36.30224609375 -28.575439453125
-1.115478515625 -17.9013671875 5.158203125
-15.884033203125 47.027099609375 10.933349609375
29.091064453125 45.4498291015625 -12.041015625
-8.1904296875 55.52783203125 4.296875
-12.66845703125 53.8056640625 8.9117431640625
30.12158203125 22.9395751953125 7.8673095703125
20.260009765625 46.107421875 3.083984375
16.099365234375 51.5230712890625 12.17333984375
-11.087890625 50.9754638671875 -12.23291015625
-11.037353515625 58.05712890625 -3.9146728515625
29.228271484375 40.3892822265625 -7.8187255859375
33.22998046875 18.4825439453125 0.028076171875
33.10205078125 5.4163818359375 0.8800048828125
29.152099609375 16.7216796875 11.1746826171875
7.2001953125 -1.877197265625 -10.405517578125
-1.01708984375 8.493896484375 23.863525390625
27.870849609375 18.9493408203125 10.370361328125
33.0556640625 14.27978515625 4.240234375
30.46533203125 32.806884765625 -1.2999267578125
2.423583984375 2.6329345703125 -3.183349609375
-2.29541015625 51.755859375 -11.8272705078125
33.414794921875 15.291259765625 -7.1129150390625
-16.1953125 48.432373046875 10.4527587890625
20.12841796875 55.4161376953125 -0.094970703125
-12.65234375 -24.5689697265625 -7.2200927734375
32.9345703125 11.5125732421875 4.4366455078125
-11.54345703125 -23.3978271484375 -7.11474609375
-12.890869140625 46.2056884765625 11.4034423828125
32.833984375 22.6219482421875 1.808349609375
0.04150390625 -3.691162109375 -0.695556640625
18.66357421875 56.0614013671875 9.5552978515625
32.9697265625 8.2166748046875 -3.8148193359375
-4.278564453125 54.7103271484375 -13.102783203125
-1.36767578125 -4.3214111328125 -6.9947509765625
-13.093017578125 51.8448486328125 -3.8553466796875
-10.79052734375 58.4842529296875 5.2806396484375
-9.455810546875 -17.2117919921875 -10.606689453125
29.16552734375 20.170654296875 9.5758056640625
-1.28759765625 -9.32958984375 -0.336669921875
-11.3056640625 54.2315673828125 -8.080078125
-17.23779296875 47.40771484375 16.5377197265625
21.2392578125 30.9478759765625 -24.7373046875
33.341064453125 11.5546875 -4.574951171875
-1.357177734375 -11.8675537109375 0.29443359375
-6.90771484375 49.81884765625 6.685791015625
21.635009765625 4.759521484375 -7.644287109375
24.20751953125 50.741943359375 -10.7960205078125
33.269287109375 8.814697265625 -1.0030517578125
24.4990234375 21.6588134765625 9.0810546875
24.0029296875 51.93505859375 -11.4639892578125
32.558349609375 21.0142822265625 5.2906494140625
-17.307861328125 54.7476806640625 15.8028564453125
-17.201171875 55.297607421875 14.1392822265625
-0.245361328125 -7.8687744140625 2.5198974609375
32.0791015625 14.19873046875 10.09765625
-4.767333984375 -25.4678955078125 -1.8720703125
21.990478515625 30.6883544921875 -26.9381103515625
21.390380859375 49.9481201171875 -2.7935791015625
19.521728515625 55.174560546875 6.7242431640625
33.286376953125 32.9688720703125 -9.228759765625
22.792724609375 46.3558349609375 -4.010009765625
33.004150390625 8.7939453125 3.73291015625
32.03662109375 28.4080810546875 0.65283203125
25.2705078125 25.850830078125 8.0489501953125
18.427978515625 1.46826171875 -10.385498046875
33.1337890625 12.4774169921875 1.1923828125
-8.359619140625 44.3460693359375 11.956787109375
33.25244140625 11.4114990234375 -0.212158203125
-1.2626953125 -3.297119140625 -7.8734130859375
27.998291015625 35.210205078125 -26.9366455078125
10.99658203125 2.2105712890625 -10.075927734375
33.077392578125 14.0523681640625 2.8916015625
-1.493408203125 11.892822265625 26.3548583984375
-4.96435546875 -10.1986083984375 18.6865234375
-1.3701171875 -9.9876708984375 -4.9293212890625
8.88671875 -0.9305419921875 -10.3541259765625
26.218994140625 32.622802734375 3.012451171875
-17.4404296875 62.3624267578125 14.3328857421875
-4.96240234375 -11.5322265625 21.36181640625
18.759033203125 48.229736328125 8.7562255859375
1.655029296875 50.527099609375 -10.68115234375
5.24072265625 47.554443359375 -10.3182373046875
2.97314453125 2.4390869140625 -4.6976318359375
33.272705078125 18.02392578125 -2.6357421875
33.38037109375 7.4200439453125 9.4896240234375
-5.7705078125 -8.343994140625 19.3006591796875
33.331787109375 37.1158447265625 -9.6331787109375
-11.684326171875 60.54541015625 6.87646484375
23.122314453125 25.7833251953125 9.2459716796875
-13.39404296875 51.26123046875 -1.435546875
31.52099609375 31.1060791015625 -0.8714599609375
-9.07275390625 -21.7640380859375 -6.445556640625
-9.403076171875 49.609130859375 9.9376220703125
23.08349609375 51.7796630859375 -9.163330078125
-16.825927734375 54.9263916015625 8.90625
15.91015625 1.4815673828125 -11.3067626953125
-0.936279296875 -15.16650390625 6.9686279296875
-0.56787109375 -2.2130126953125 -3.1724853515625
-11.000244140625 56.6358642578125 5.658935546875
23.64013671875 47.2847900390625 -6.28271484375
33.078857421875 18.124755859375 1.5537109375
-2.040283203125 -15.916259765625 -9.414306640625
33.25439453125 27.486083984375 -5.4019775390625
-15.0771484375 49.5693359375 10.093505859375
-1.19189453125 -3.649658203125 -4.3199462890625
-7.31787109375 -16.4718017578125 -10.210205078125
31.970703125 19.6177978515625 7.54345703125
-1.460205078125 -15.30859375 2.78564453125
-1.252197265625 -13.425048828125 3.0245361328125
-17.218017578125 47.5125732421875 19.3858642578125
0.1357421875 -24.2020263671875 -8.45166015625
-8.785400390625 46.6241455078125 11.4373779296875
31.8486328125 21.3577880859375 7.1611328125
-1.120849609375 -6.822509765625 -10.513427734375
22.2919921875 -44.1722412109375 -4.7545166015625
0.13134765625 -6.82861328125 -11.7113037109375
33.243896484375 8.5909423828125 8.881103515625
19.8134765625 54.6065673828125 5.2889404296875
0.75830078125 -9.6864013671875 5.9068603515625
36.1015625 32.4818115234375 -19.09912109375
34.306884765625 31.583984375 -15.0672607421875
-5.978271484375 -11.170166015625 24.114990234375
24.667236328125 -42.0169677734375 -2.37353515625
32.802978515625 10.62841796875 7.213623046875
31.20556640625 30.4888916015625 0.184814453125
-0.828125 -16.7547607421875 9.7567138671875
7.66650390625 -6.5418701171875 12.4459228515625
0.01025390625 -14.4356689453125 10.159912109375
32.702880859375 13.2283935546875 6.47119140625
0.489013671875 -4.72119140625 -11.0128173828125
16.068603515625 3.2076416015625 -9.1099853515625
1.764892578125 12.733642578125 29.4918212890625
-3.954833984375 -10.5599365234375 15.9542236328125
32.562744140625 14.8004150390625 6.658447265625
30.99853515625 24.58056640625 5.6700439453125
-17.12060546875 58.4002685546875 12.955810546875
25.1181640625 35.2818603515625 2.0797119140625
1.767578125 -7.6256103515625 4.5555419921875
-1.453369140625 -13.0107421875 -0.2159423828125
33.232666015625 23.7694091796875 -2.8079833984375
-7.396728515625 59.9176025390625 2.038818359375
21.42333984375 45.2137451171875 0.8951416015625
26.51806640625 39.709716796875 -4.3773193359375
33.91455078125 42.9281005859375 -13.2744140625
33.1142578125 7.0948486328125 2.1021728515625
33.26611328125 22.701171875 -5.658935546875
33.292724609375 24.509765625 -5.0128173828125
34.493896484375 38.2373046875 -11.8094482421875
-3.77197265625 46.387451171875 -9.6494140625
27.818115234375 -39.4921875 -1.7291259765625
33.2412109375 9.460693359375 1.128662109375
-2.01416015625 -16.3365478515625 0.484130859375
24.377197265625 -39.5020751953125 -6.54541015625
3.458251953125 49.1246337890625 -10.7567138671875
20.3798828125 49.715087890625 1.8826904296875
-10.73486328125 56.2109375 -10.0877685546875
32.294189453125 23.253173828125 4.1162109375
11.58935546875 3.4456787109375 -8.382080078125
0.408935546875 12.84423828125 29.0838623046875
33.39599609375 20.567626953125 -6.0794677734375
32.635009765625 34.03857421875 -5.834228515625
37.607421875 39.8961181640625 -15.9017333984375
-12.0869140625 44.1519775390625 11.5809326171875
21.04931640625 28.53466796875 -26.54150390625
31.287841796875 40.73291015625 -9.601318359375
0.835693359375 -5.6380615234375 2.1177978515625
9.890869140625 2.9102783203125 -7.6697998046875
33.522216796875 29.0362548828125 -8.7757568359375
32.71044921875 21.3671875 3.759033203125
19.368896484375 28.1932373046875 -22.764404296875
20.795654296875 -43.7755126953125 -3.7178955078125
25.79052734375 34.3848876953125 -23.2540283203125
25.01123046875 44.75390625 -6.6407470703125
-17.179443359375 45.548583984375 14.229248046875
-14.17529296875 -2.565673828125 17.78662109375
32.540283203125 15.029052734375 8.0137939453125
16.37939453125 6.6773681640625 -1.3536376953125
32.390625 37.961181640625 -8.200927734375
19.858154296875 56.7064208984375 4.7493896484375
22.17919921875 -41.7510986328125 -4.3096923828125
-16.5576171875 56.0501708984375 8.47314453125
16.35107421875 5.4332275390625 -5.1461181640625
24.631591796875 23.74853515625 8.663330078125
31.823974609375 27.5745849609375 1.871826171875
32.985107421875 9.7803955078125 8.68798828125
10.97216796875 -0.8681640625 -13.0230712890625
24.892578125 10.08056640625 -8.148193359375
34.49462890625 40.421142578125 -12.305908203125
-14.01123046875 60.96142578125 6.5426025390625
33.214111328125 29.2017822265625 -4.2879638671875
17.172119140625 56.2265625 11.4090576171875
36.810791015625 42.0318603515625 -14.9603271484375
-1.404296875 -9.075439453125 -9.67626953125
10.962890625 4.9920654296875 -4.642578125
-1.254638671875 -7.0340576171875 -8.1077880859375
-7.480712890625 51.77783203125 5.771240234375
17.101806640625 6.8543701171875 -4.3939208984375
-1.52783203125 -1.1953125 -6.58447265625
33.378173828125 13.7464599609375 -1.171142578125
34.082763671875 36.84423828125 -11.8929443359375
22.67236328125 22.2314453125 9.199951171875
24.63623046875 42.2581787109375 -3.8292236328125
-5.05712890625 -14.6468505859375 15.25830078125
31.688232421875 25.739013671875 3.5980224609375
-1.841552734375 -22.874267578125 -2.841064453125
32.32080078125 34.3802490234375 -29.2335205078125
24.013427734375 38.7703857421875 0.7449951171875
-3.25732421875 -14.783935546875 -12.025634765625
24.768798828125 49.0361328125 -10.1473388671875
33.540283203125 7.376953125 7.1282958984375
2.29052734375 0.193359375 -5.5076904296875
19.73828125 50.9400634765625 6.5809326171875
16.532470703125 60.2945556640625 11.7933349609375
-17.199951171875 61.5946044921875 12.0826416015625
27.849853515625 24.1751708984375 7.9156494140625
8.32861328125 -5.6796875 -14.306640625
-14.374755859375 -1.2845458984375 19.0130615234375
20.644775390625 47.163818359375 2.3306884765625
2.5048828125 -8.4234619140625 6.8310546875
33.58154296875 27.325439453125 -13.6339111328125
-1.3046875 6.2554931640625 24.822265625
-8.5791015625 -20.6641845703125 -7.139404296875
24.697021484375 30.8568115234375 6.3175048828125
19.055908203125 58.47021484375 8.58349609375
33.22705078125 32.2628173828125 -7.066162109375
-17.032470703125 57.1192626953125 10.8795166015625
34.035888671875 11.0208740234375 -5.882568359375
11.85302734375 6.0777587890625 -3.6641845703125
34.00244140625 29.559814453125 -15.7608642578125
26.405029296875 42.779296875 -6.7918701171875
22.0244140625 47.8863525390625 -3.311767578125
-7.671630859375 -19.65625 -7.5576171875
-1.79296875 9.78125 28.773193359375
15.645751953125 4.30810546875 -8.3958740234375
30.056884765625 17.9036865234375 10.1678466796875
32.55224609375 13.905029296875 9.0263671875
4.34228515625 3.94921875 -3.159912109375
20.054931640625 56.730712890625 2.0318603515625
33.49658203125 18.0443115234375 -5.396728515625
-0.94677734375 -21.09423828125 -3.12646484375
33.228515625 8.081298828125 -2.64501953125
-10.7333984375 53.3280029296875 -12.726806640625
-17.0732421875 50.1385498046875 11.335693359375
30.71435546875 35.603515625 -4.328369140625
5.165283203125 1.65576171875 -5.96337890625
22.968017578125 -39.612548828125 -4.766357421875
-7.92919921875 58.9569091796875 3.1326904296875
36.107666015625 35.471435546875 -16.2105712890625
0.593994140625 -12.173828125 9.9398193359375
12.9599609375 2.392578125 -10.961669921875
19.19970703125 54.6102294921875 7.7578125
4.762451171875 -5.4510498046875 -14.9510498046875
5.074951171875 -8.824462890625 10.0048828125
-6.621826171875 -12.651611328125 22.9317626953125
34.7568359375 34.920654296875 -14.8648681640625
34.6494140625 33.12890625 -16.93408203125
33.254150390625 4.14501953125 3.4837646484375
35.264404296875 36.5267333984375 -13.886962890625
26.4482421875 -42.1514892578125 0.139892578125
36.556884765625 34.18994140625 -18.1904296875
20.61376953125 30.3294677734375 -22.53955078125
37.044189453125 37.8157958984375 -17.163818359375
31.87890625 34.0474853515625 -26.618896484375
35.466064453125 43.65283203125 -14.1103515625
-2.359619140625 -21.2347412109375 4.9781494140625
20.54345703125 54.4134521484375 -2.6314697265625
-2.531982421875 -16.009765625 -10.607421875
-14.82470703125 45.2315673828125 11.15087890625
-17.2529296875 50.273193359375 16.3946533203125
36.319091796875 38.83984375 -15.2332763671875
17.09814453125 54.368408203125 11.350830078125
1.83203125 -3.8331298828125 -9.6983642578125
3.63427734375 -10.8238525390625 11.091064453125
33.52490234375 35.12890625 -10.5167236328125
0.508544921875 1.52880859375 -5.219482421875
19.677734375 48.23095703125 6.9273681640625
14.218505859375 54.5084228515625 13.3138427734375
26.67578125 -40.48779296875 -2.4302978515625
3.40576171875 -22.5517578125 16.4566650390625
23.614013671875 37.0701904296875 3.2181396484375
14.546875 49.9716796875 13.437744140625
-17.14453125 63.4700927734375 10.6107177734375
14.24267578125 5.1646728515625 -5.2578125
