-26.59130859375 -12.4666748046875 9.5523681640625
-28.298095703125 46.35693359375 12.770263671875
-42.392822265625 -24.8853759765625 16.2279052734375
10.717041015625 29.2657470703125 5.8570556640625
4.287841796875 9.886474609375 20.36767578125
-5.065673828125 47.7305908203125 11.8564453125
-22.433349609375 -11.5921630859375 9.831787109375
16.046142578125 -36.1971435546875 5.0052490234375
-28.255126953125 35.9996337890625 15.939453125
-1.807861328125 40.1993408203125 11.127685546875
5.819580078125 21.503173828125 5.181884765625
-3.364013671875 27.894287109375 -12.225341796875
-44.861083984375 -25.335205078125 8.3992919921875
-3.335693359375 44.62646484375 10.017333984375
-12.424072265625 -0.635498046875 8.62841796875
-3.14453125 23.043701171875 27.1593017578125
2.388916015625 27.8203125 -11.50244140625
-0.553466796875 -25.0538330078125 -7.9207763671875
-23.165771484375 50.8389892578125 11.146728515625
-29.3544921875 51.4237060546875 10.3773193359375
3.770751953125 5.5587158203125 19.5909423828125
-4.947021484375 -27.398681640625 -2.2294921875
-5.945068359375 59.9923095703125 15.98828125
-34.58544921875 54.657958984375 15.7813720703125
-34.537353515625 -25.1014404296875 30.0185546875
-15.7470703125 27.7479248046875 -9.5655517578125
-32.418212890625 -8.31298828125 17.0704345703125
4.222900390625 19.86376953125 20.9754638671875
-3.2333984375 54.475830078125 0.6568603515625
-30.929931640625 55.398193359375 19.366943359375
-36.503662109375 40.1363525390625 14.1456298828125
3.638916015625 4.6136474609375 22.9837646484375
-33.155029296875 -14.765380859375 24.778076171875
-31.978515625 54.191162109375 13.9625244140625
11.90966796875 -36.4921875 3.6544189453125
23.896240234375 25.99169921875 4.644287109375
-31.458984375 -12.3621826171875 14.1011962890625
-37.520751953125 -15.7999267578125 16.628662109375
-21.5244140625 46.928466796875 11.737548828125
-31.65576171875 42.817626953125 14.85791015625
-3.705810546875 37.905029296875 17.0565185546875
1.72900390625 23.9945068359375 -1.111328125
4.02587890625 12.6490478515625 27.4593505859375
2.308349609375 54.9345703125 -8.716064453125
-5.66748046875 52.625 10.906982421875
28.69775390625 -37.03857421875 13.9918212890625
3.29638671875 -3.6602783203125 29.945556640625
-33.04736328125 -11.6827392578125 19.63037109375
-24.152587890625 40.1820068359375 14.8145751953125
22.6142578125 -38.2913818359375 3.23876953125
-33.750244140625 -19.281494140625 27.5684814453125
-37.207763671875 52.723876953125 20.0755615234375
-27.65283203125 -6.20068359375 15.5684814453125
-35.4775390625 -20.0074462890625 18.1864013671875
3.771728515625 -0.0989990234375 19.8001708984375
15.822509765625 27.5792236328125 2.4324951171875
-28.621826171875 -18.0623779296875 8.1929931640625
-34.15380859375 -21.6265869140625 13.974609375
16.750732421875 12.7489013671875 -0.5072021484375
-5.668701171875 56.7796630859375 13.483154296875
-24.853515625 -3.017822265625 18.6600341796875
29.96142578125 -22.4256591796875 15.8389892578125
18.16650390625 9.16552734375 -4.0595703125
-5.725830078125 62.891357421875 12.0186767578125
-20.9296875 -7.910400390625 8.1287841796875
-16.861083984375 -6.4183349609375 11.3746337890625
4.39453125 17.2049560546875 9.620361328125
-34.180419921875 -22.58837890625 10.6258544921875
-15.68115234375 -2.472900390625 20.443603515625
-37.31787109375 51.9747314453125 16.784912109375
-10.91357421875 -1.563232421875 18.1302490234375
-43.835205078125 -28.83984375 8.956787109375
13.277587890625 23.816162109375 -0.135498046875
-4.74365234375 23.94091796875 -6.747314453125
-2.059326171875 33.3126220703125 17.8465576171875
27.548095703125 -35.691650390625 8.783447265625
23.721923828125 -40.5301513671875 10.80126953125
-34.20068359375 -20.7733154296875 25.2130126953125
-42.660888671875 -22.77734375 8.153564453125
19.05029296875 29.885986328125 6.1494140625
-33.844970703125 -18.478759765625 22.609375
-42.434326171875 -20.025146484375 10.574462890625
3.902587890625 24.063232421875 -6.01123046875
-24.8310546875 36.7919921875 15.0948486328125
-37.991943359375 -21.1322021484375 9.725341796875
-0.8125 55.418212890625 -4.415283203125
3.31494140625 1.9200439453125 27.7843017578125
-37.245849609375 48.9803466796875 16.443115234375
8.590087890625 20.608154296875 0.089599609375
16.076171875 24.6925048828125 0.8388671875
-10.962158203125 -2.1549072265625 5.4609375
4.199462890625 12.63818359375 17.3211669921875
-19.0029296875 -2.61474609375 18.231689453125
-5.541748046875 60.753662109375 6.5567626953125
-18.114501953125 -3.2884521484375 15.706298828125
-3.864013671875 33.098876953125 21.2506103515625
24.6728515625 23.5809326171875 3.494873046875
-35.396728515625 -23.642333984375 25.21875
4.197998046875 14.4158935546875 23.5975341796875
-38.135009765625 49.3323974609375 21.7255859375
-34.02197265625 -22.8232421875 38.02392578125
-35.201171875 -17.97119140625 20.1065673828125
-39.15673828125 45.5791015625 13.3104248046875
-33.86767578125 -24.066162109375 34.3018798828125
-2.948974609375 24.9532470703125 0.53662109375
-9.837890625 1.91357421875 6.2186279296875
-31.25439453125 -17.09033203125 32.6572265625
-28.70849609375 41.0633544921875 14.885498046875
18.964111328125 -35.9246826171875 5.779052734375
-4.863525390625 42.7950439453125 14.910400390625
-33.498779296875 -27.795166015625 10.93701171875
5.2431640625 25.8819580078125 13.3096923828125
0.5390625 -27.854248046875 10.404541015625
1.568115234375 -26.3134765625 -8.66015625
18.13134765625 17.04052734375 -2.5032958984375
1.6455078125 -27.73388671875 6.9830322265625
-25.8935546875 56.37646484375 17.5977783203125
18.119873046875 23.863525390625 -0.4732666015625
0.31689453125 -26.3302001953125 -0.669677734375
-30.636474609375 -16.2943115234375 11.43994140625
-3.692138671875 -30.0631103515625 8.442626953125
-27.169677734375 48.3798828125 11.7132568359375
-2.824951171875 -27.46630859375 0.28271484375
-6.060791015625 -32.73046875 5.213134765625
-0.554931640625 27.333984375 -10.034912109375
-19.451904296875 47.7681884765625 13.3482666015625
-7.86669921875 -0.617431640625 17.7796630859375
-5.0048828125 -28.1719970703125 3.9044189453125
-4.33251953125 50.0936279296875 7.1705322265625
-5.73388671875 26.5789794921875 -9.1307373046875
-46.1884765625 -28.43994140625 12.786865234375
-25.89501953125 41.9901123046875 14.555908203125
-30.161376953125 -10.3006591796875 15.085693359375
-33.589111328125 -28.6060791015625 14.7359619140625
15.879150390625 20.990478515625 -2.8995361328125
-0.7041015625 25.9259033203125 -2.9661865234375
-5.922119140625 48.9847412109375 14.810302734375
-30.4462890625 44.9027099609375 13.3406982421875
-36.335693359375 53.1358642578125 14.7840576171875
3.40576171875 1.6419677734375 23.5443115234375
-29.66357421875 -13.7608642578125 11.033935546875
2.85693359375 -7.0213623046875 25.6177978515625
-4.660888671875 59.4134521484375 1.499755859375
-11.51904296875 -17.5855712890625 37.884521484375
-36.460205078125 48.935546875 12.7886962890625
-17.441162109375 46.30126953125 13.5526123046875
-34.91845703125 44.2520751953125 13.4281005859375
-38.48095703125 47.756591796875 19.7388916015625
-29.53662109375 54.39892578125 17.1400146484375
-46.634521484375 -29.4857177734375 16.53271484375
-32.73046875 -20.56689453125 9.3192138671875
-23.1845703125 55.1134033203125 13.539306640625
8.14990234375 25.4058837890625 6.152099609375
-3.768798828125 31.0025634765625 22.55322265625
-2.766357421875 56.46484375 -1.591552734375
-36.359130859375 -27.4490966796875 22.418701171875
-44.07080078125 -15.739990234375 17.84716796875
-32.335205078125 37.6243896484375 15.8309326171875
4.169189453125 15.4189453125 13.828125
-21.27099609375 39.7178955078125 13.9608154296875
-21.743408203125 -4.9312744140625 14.6749267578125
-5.1572265625 23.139892578125 -2.404052734375
6.0263671875 25.5526123046875 10.124267578125
30.42578125 -19.3770751953125 16.519775390625
-31.893798828125 -6.5390625 20.2108154296875
29.20654296875 -34.4837646484375 23.590087890625
-5.336669921875 54.9903564453125 8.29638671875
27.1083984375 -38.34716796875 11.361328125
-33.106201171875 -15.8880615234375 26.938720703125
28.8740234375 -35.6878662109375 18.9539794921875
-30.115966796875 -15.3284912109375 35.2606201171875
22.7998046875 21.1951904296875 -0.4339599609375
3.956298828125 9.6600341796875 22.75537109375
2.692138671875 26.156982421875 -5.915283203125
20.217529296875 26.570068359375 3.37744140625
-6.18701171875 48.67236328125 19.538330078125
-0.8583984375 21.1805419921875 27.6004638671875
20.159912109375 24.3577880859375 1.2437744140625
-6.0244140625 53.9403076171875 17.809326171875
-45.521484375 -27.7552490234375 25.975341796875
12.337646484375 26.3223876953125 4.1014404296875
3.869873046875 6.93603515625 24.252197265625
-34.575439453125 -19.4310302734375 14.945556640625
-31.43603515625 -10.9521484375 24.0042724609375
-8.510009765625 -30.6627197265625 -2.3416748046875
-32.718994140625 -21.899169921875 34.171630859375
29.573486328125 -27.0523681640625 14.4776611328125
-44.727783203125 -23.2135009765625 22.7894287109375
-10.69677734375 -2.328125 21.1148681640625
-14.763427734375 -3.8370361328125 15.39794921875
8.587890625 22.2392578125 2.0140380859375
28.748779296875 -34.0845947265625 10.0692138671875
0.994873046875 -27.0772705078125 12.6883544921875
2.966064453125 -2.9912109375 22.9395751953125
-24.763916015625 -8.0482177734375 12.39306640625
-33.852294921875 39.9296875 15.3701171875
25.089111328125 -36.5460205078125 7.0311279296875
-25.140869140625 -7.5003662109375 14.771240234375
21.040283203125 18.9737548828125 -2.973388671875
-2.598388671875 26.5477294921875 22.966796875
-26.848876953125 -11.1429443359375 11.561279296875
-34.191650390625 -26.089111328125 21.3436279296875
9.9873046875 24.463134765625 3.880615234375
-22.80078125 -3.2061767578125 17.469970703125
24.97021484375 19.6673583984375 0.0489501953125
-5.18017578125 40.0738525390625 18.2410888671875
3.208251953125 -0.704345703125 31.2132568359375
13.9072265625 10.0631103515625 -2.8944091796875
-21.74560546875 44.6614990234375 12.99755859375
3.541259765625 7.5179443359375 17.405517578125
-34.099853515625 -21.283447265625 29.535400390625
-5.982421875 51.5772705078125 16.0064697265625
-21.287353515625 52.333251953125 11.778076171875
-33.6298828125 -17.0693359375 15.096923828125
-18.450439453125 -7.91064453125 10.394287109375
29.53076171875 -28.7523193359375 17.311767578125
3.58349609375 3.1336669921875 18.4013671875
-8.393798828125 21.0101318359375 0.7509765625
29.402587890625 -30.0201416015625 11.877197265625
13.08203125 30.36181640625 6.0362548828125
3.436279296875 46.7589111328125 -1.740234375
-18.200927734375 17.197021484375 -2.343017578125
-6.01513671875 -30.5811767578125 6.0858154296875
-3.205078125 -25.73095703125 -4.11962890625
17.9736328125 -38.0054931640625 4.8377685546875
-7.316650390625 -38.2779541015625 3.5028076171875
-17.312255859375 23.6746826171875 -7.25830078125
26.64013671875 24.943115234375 8.0404052734375
-0.57470703125 -27.9375 7.4454345703125
-5.018310546875 49.5628662109375 10.3287353515625
3.8388671875 9.6185302734375 28.1187744140625
-34.65771484375 52.9971923828125 10.8306884765625
-4.71728515625 24.53857421875 -4.3115234375
-4.935302734375 55.27880859375 5.1474609375
-33.395751953125 -13.8507080078125 20.197998046875
-31.023681640625 -16.5467529296875 30.4693603515625
-4.35693359375 45.02880859375 11.9990234375
4.448486328125 19.495361328125 9.334228515625
3.995849609375 16.76904296875 24.57470703125
-7.727294921875 -31.1546630859375 1.1712646484375
-35.2744140625 -24.7894287109375 16.1104736328125
-0.02294921875 56.145263671875 -6.6363525390625
-1.609130859375 51.9833984375 -0.181640625
17.688720703125 22.13232421875 -2.1131591796875
-5.366455078125 42.14453125 17.3660888671875
-27.7880859375 53.2540283203125 11.530029296875
-22.473876953125 55.05029296875 16.310302734375
-4.431640625 -25.67529296875 -6.6431884765625
-34.026611328125 -19.506591796875 10.93408203125
22.169921875 23.3079833984375 0.9510498046875
4.506591796875 19.4537353515625 16.0631103515625
-2.483642578125 27.494384765625 -7.02783203125
-29.931396484375 53.692138671875 15.0430908203125
-13.13427734375 -5.801025390625 12.5262451171875
4.560791015625 21.0330810546875 13.2908935546875
-44.241943359375 -20.1304931640625 18.344482421875
-41.96630859375 -29.3143310546875 22.8966064453125
-42.336669921875 -25.980224609375 7.6973876953125
-6.71875 -27.736328125 -5.3094482421875
28.99072265625 -36.5946044921875 20.9874267578125
29.475830078125 -28.4462890625 21.6673583984375
-43.4541015625 -29.3570556640625 18.669677734375
26.158935546875 22.1085205078125 2.6712646484375
-25.004638671875 53.6119384765625 10.64990234375
0.957275390625 39.7109375 6.87841796875
4.5732421875 23.5491943359375 17.133544921875
-45.96337890625 -23.59521484375 9.71923828125
12.209716796875 19.9351806640625 -3.28173828125
9.6552734375 27.741455078125 7.07275390625
29.311279296875 -31.8677978515625 20.2855224609375
-42.761474609375 -21.7943115234375 11.87060546875
-29.221435546875 37.9598388671875 15.572998046875
12.552978515625 9.1026611328125 0.2083740234375
4.679931640625 27.7164306640625 15.2923583984375
3.304443359375 -0.0245361328125 21.9622802734375
-20.4462890625 52.266357421875 16.0118408203125
20.416748046875 21.2476806640625 -2.13330078125
15.443115234375 29.5289306640625 5.3912353515625
-6.194091796875 -28.2235107421875 1.4111328125
-33.754150390625 36.023681640625 15.0609130859375
3.30078125 0.0306396484375 26.368896484375
3.856201171875 -26.667236328125 6.562255859375
-33.27734375 -24.89990234375 11.4066162109375
-8.923828125 -38.188720703125 6.566650390625
-10.7783203125 -0.7398681640625 7.16796875
-17.312744140625 46.2041015625 17.4178466796875
-44.45068359375 -24.6873779296875 14.0345458984375
-13.836669921875 -2.8289794921875 18.724609375
10.4658203125 20.842041015625 -1.3978271484375
-34.7099609375 46.6702880859375 12.0340576171875
-26.3037109375 -5.4520263671875 17.3250732421875
-21.462890625 -6.88232421875 12.067138671875
-38.474609375 40.9952392578125 13.8350830078125
4.039794921875 24.066162109375 -2.2591552734375
-33.199951171875 -15.96826171875 12.7783203125
-44.523681640625 -25.259521484375 24.0892333984375
14.254150390625 31.497314453125 7.9097900390625
-28.798095703125 -3.9266357421875 19.4368896484375
-28.804443359375 -5.5888671875 17.487060546875
-20.56201171875 -2.4866943359375 21.194580078125
22.982421875 28.5303955078125 6.1102294921875
10.155517578125 32.498046875 7.9886474609375
5.076904296875 20.3133544921875 3.5634765625
3.10595703125 25.3978271484375 -8.0416259765625
3.608154296875 5.958740234375 26.1412353515625
25.392333984375 24.730712890625 5.6143798828125
-34.885986328125 -15.8983154296875 18.1202392578125
-4.351806640625 52.5675048828125 6.1611328125
-37.34521484375 47.7161865234375 14.41748046875
-3.82177734375 40.5567626953125 14.0089111328125
-39.0400390625 -27.75830078125 9.450927734375
28.662109375 -38.01318359375 16.9744873046875
2.521728515625 42.46240234375 3.3902587890625
-31.169921875 50.33349609375 10.4488525390625
-40.300537109375 -21.4920654296875 9.65576171875
1.746826171875 -26.8533935546875 2.2193603515625
-6.857421875 -33.8167724609375 7.3201904296875
-40.05322265625 42.282470703125 14.4027099609375
-0.944580078125 33.46533203125 16.0047607421875
5.37255859375 21.60498046875 7.2431640625
21.026611328125 -36.9937744140625 5.3111572265625
4.3525390625 17.0703125 12.5291748046875
-2.52685546875 29.2005615234375 21.440673828125
-0.669189453125 25.9315185546875 -7.529541015625
1.88818359375 21.70849609375 25.41259765625
-18.056640625 43.800537109375 13.326904296875
-2.3681640625 47.3330078125 5.279296875
3.435302734375 32.04150390625 13.0888671875
-8.445556640625 -35.597412109375 2.572265625
-28.540283203125 -8.05322265625 14.210205078125
-4.215576171875 25.636962890625 -7.8392333984375
2.085693359375 52.287353515625 -5.5665283203125
-27.6337890625 53.6553955078125 13.6673583984375
3.4677734375 19.728271484375 23.062744140625
11.37744140625 -35.2506103515625 5.2406005859375
-5.533447265625 60.239013671875 10.5328369140625
-0.13623046875 -25.197265625 -3.369140625
29.04052734375 -35.0035400390625 13.6580810546875
-17.34033203125 -17.693115234375 38.2733154296875
7.809326171875 28.5279541015625 9.8896484375
4.6142578125 23.665283203125 14.221923828125
-38.946533203125 -19.9490966796875 11.4415283203125
4.77587890625 21.7362060546875 21.6546630859375
-38.994384765625 -25.1488037109375 9.487548828125
18.3603515625 27.467529296875 3.341796875
5.891357421875 29.6605224609375 11.9981689453125
2.263916015625 50.0474853515625 -3.7633056640625
-43.2470703125 -20.8704833984375 8.69580078125
-3.37744140625 51.5499267578125 4.0989990234375
-23.35546875 46.308837890625 12.4439697265625
-1.795166015625 -29.4351806640625 10.538818359375
-32.15966796875 -10.111572265625 21.6483154296875
-0.328125 51.8062744140625 -2.0958251953125
3.683837890625 8.0809326171875 19.59619140625
-18.184326171875 14.6527099609375 -0.007568359375
4.267333984375 17.3916015625 16.6160888671875
4.127685546875 13.6156005859375 14.8096923828125
-36.82373046875 -19.8544921875 11.0806884765625
28.8466796875 -35.266357421875 5.7244873046875
-46.918212890625 -27.2874755859375 27.4041748046875
-33.20458984375 -10.5535888671875 17.9246826171875
-24.472900390625 -11.731689453125 9.7899169921875
-0.8447265625 34.7078857421875 13.91796875
-38.37060546875 47.6702880859375 17.5347900390625
1.32080078125 -24.7581787109375 -7.1649169921875
20.204833984375 12.2554931640625 -0.8680419921875
2.166748046875 38.180419921875 7.482421875
30.001708984375 -24.4815673828125 16.8968505859375
-3.69970703125 -27.4434814453125 2.248779296875
-30.043212890625 -17.4947509765625 9.5325927734375
-20.553955078125 -8.71142578125 12.123291015625
3.3701171875 3.411376953125 32.43408203125
17.609375 10.2530517578125 -2.077880859375
-14.62060546875 -16.985595703125 36.327880859375
-40.133544921875 -24.302734375 16.14697265625
-0.54150390625 -27.34521484375 3.7591552734375
-5.703369140625 57.546875 11.1490478515625
11.989501953125 24.047119140625 1.406982421875
27.481689453125 -39.8819580078125 13.7958984375
-7.647216796875 27.470458984375 -12.4017333984375
-6.55029296875 -32.5128173828125 2.9197998046875
16.943359375 19.493896484375 -3.906494140625
-6.259033203125 44.0023193359375 20.9320068359375
-33.402587890625 -14.218994140625 22.8511962890625
24.68701171875 -37.574951171875 4.8623046875
-41.185546875 -27.60546875 19.887451171875
-33.708984375 -13.0223388671875 16.1539306640625
-36.123291015625 -14.287109375 16.5277099609375
-39.98193359375 45.702392578125 16.9007568359375
-8.22607421875 -2.552978515625 18.1822509765625
-33.918212890625 55.79052734375 17.2998046875
-1.7578125 -24.2900390625 -4.1304931640625
-18.54541015625 -17.3546142578125 34.8741455078125
4.242919921875 11.926513671875 19.1961669921875
-2.490234375 -24.589599609375 -8.13330078125
5.42724609375 23.653076171875 9.9168701171875
4.1005859375 11.007080078125 15.7646484375
-45.947021484375 -26.0889892578125 12.566650390625
-6.191162109375 -36.5987548828125 6.624755859375
-5.79541015625 53.6064453125 13.0203857421875
-3.614013671875 48.269775390625 6.8016357421875
-0.3828125 31.222412109375 17.6258544921875
-5.411865234375 58.7569580078125 5.5482177734375
6.40478515625 23.246826171875 5.9456787109375
25.439453125 -39.281005859375 10.516357421875
-32.56103515625 53.7891845703125 12.0340576171875
-18.06494140625 -5.407470703125 12.5794677734375
-0.509521484375 41.128662109375 8.0457763671875
-2.450439453125 -28.5521240234375 7.3121337890625
-27.900634765625 -14.267578125 11.773193359375
-18.17578125 20.3648681640625 -4.5318603515625
-44.06787109375 -23.6456298828125 12.2064208984375
-21.113037109375 -10.154541015625 10.2198486328125
2.311767578125 -27.457763671875 -1.0595703125
-44.593505859375 -23.119384765625 8.27099609375
-28.76416015625 -9.9410400390625 13.7095947265625
-24.669677734375 -6.6534423828125 16.4791259765625
-44.05908203125 -20.357666015625 21.502197265625
4.5205078125 20.684326171875 19.2196044921875
-17.199951171875 -2.2822265625 19.022705078125
-11.1630859375 -0.3602294921875 10.09814453125
29.190673828125 -33.5640869140625 16.03173828125
-4.651611328125 36.2540283203125 20.353271484375
4.123779296875 -26.2567138671875 2.118896484375
-33.41064453125 -19.2347412109375 29.7177734375
-46.284423828125 -23.64208984375 26.608642578125
12.857421875 7.4970703125 -3.5072021484375
-30.307861328125 -13.270263671875 12.8206787109375
-14.096435546875 -4.1544189453125 13.034912109375
-22.259765625 49.132568359375 11.3436279296875
-31.971435546875 -9.363037109375 15.5006103515625
-21.56103515625 54.89599609375 18.3443603515625
-43.724365234375 -26.3333740234375 15.83935546875
-26.234130859375 35.92919921875 16.2169189453125
-6.65625 -27.818603515625 -1.4210205078125
3.83935546875 10.23876953125 26.284423828125
0.8662109375 42.7349853515625 4.638427734375
4.700439453125 21.470458984375 11.2181396484375
-34.30078125 -24.7218017578125 31.9317626953125
-25.70166015625 54.97119140625 14.4439697265625
31.62744140625 -18.6036376953125 15.2283935546875
29.26611328125 -33.55712890625 18.080322265625
3.9560546875 9.039794921875 24.5767822265625
4.42431640625 17.5333251953125 19.9974365234375
-5.82763671875 60.4053955078125 13.9483642578125
4.185791015625 11.6053466796875 22.753173828125
-28.181884765625 -16.215576171875 7.895751953125
14.035400390625 20.3031005859375 -2.5465087890625
15.79150390625 9.61328125 -4.53076171875
14.0869140625 27.2061767578125 3.600341796875
-27.61767578125 55.23583984375 17.29296875
17.4951171875 31.0045166015625 6.1337890625
-45.187255859375 -28.0635986328125 16.51220703125
-0.244140625 53.638916015625 -3.9931640625
-4.048828125 55.1397705078125 2.992919921875
-34.123046875 -23.615234375 28.885498046875
-11.403564453125 -5.7283935546875 14.3687744140625
-23.5244140625 -5.8311767578125 15.1851806640625
19.504150390625 28.85693359375 4.594970703125
-0.26806640625 46.70947265625 2.6656494140625
24.596435546875 18.4949951171875 -1.4095458984375
-20.5830078125 -5.832275390625 13.39501953125
-32.593017578125 -22.474853515625 8.993408203125
-46.935791015625 -24.521484375 29.2403564453125
15.27001953125 11.90234375 -1.753173828125
-25.063720703125 50.1328125 10.4774169921875
-3.1162109375 35.2467041015625 17.5400390625
-26.689208984375 -3.18408203125 19.685302734375
29.51220703125 -27.7222900390625 19.298095703125
-33.938232421875 -23.9281005859375 36.198486328125
3.445068359375 3.304443359375 30.044677734375
13.604736328125 -36.58154296875 4.51220703125
-26.09814453125 46.92919921875 12.3148193359375
-4.97412109375 -32.3289794921875 9.4549560546875
3.312744140625 -3.8282470703125 28.053955078125
-35.88671875 -29.27783203125 22.228271484375
18.286376953125 11.83203125 -1.141357421875
-43.629150390625 -14.9462890625 16.181884765625
-4.08544921875 36.5943603515625 18.568603515625
-42.11865234375 -26.2110595703125 17.61279296875
7.189208984375 21.999755859375 3.28515625
-13.39208984375 -17.3587646484375 37.732666015625
6.2275390625 32.66162109375 10.01171875
-22.85791015625 -9.7679443359375 9.564208984375
3.75244140625 6.5250244140625 28.3662109375
-5.793701171875 46.1951904296875 16.097900390625
-6.78564453125 20.976318359375 -3.002197265625
29.093017578125 -33.7008056640625 12.0419921875
-5.671630859375 56.6153564453125 9.4287109375
-32.21044921875 -14.2294921875 26.9622802734375
11.948486328125 22.514892578125 -0.5931396484375
10.993408203125 30.6119384765625 7.13671875
24.228515625 -37.989501953125 8.3125
-30.7529296875 52.1571044921875 11.3856201171875
-6.84228515625 -0.685546875 19.3408203125
-2.485595703125 27.9346923828125 -10.441162109375
-31.27880859375 -23.830078125 37.6358642578125
-2.760986328125 42.76416015625 10.499267578125
-0.2490234375 37.8526611328125 10.07861328125
-36.366943359375 42.312744140625 13.7896728515625
28.8681640625 -35.5849609375 28.5928955078125
11.8203125 7.45654296875 -0.2486572265625
-25.06298828125 -13.6517333984375 9.0938720703125
29.8671875 -25.3560791015625 15.2706298828125
-28.274169921875 -15.65966796875 35.4920654296875
-6.1318359375 46.77880859375 18.3704833984375
22.3017578125 26.61474609375 3.9603271484375
15.3154296875 -36.3330078125 6.690185546875
1.211181640625 28.79052734375 -12.612548828125
-13.60400390625 27.5177001953125 -11.468505859375
-32.29736328125 -10.6361083984375 14.1187744140625
4.0126953125 14.197021484375 18.278076171875
-16.66845703125 -4.419189453125 15.6689453125
-5.367919921875 37.923095703125 21.325439453125
0.853759765625 24.6204833984375 -2.8289794921875
-32.29931640625 -23.91943359375 7.0504150390625
-1.423095703125 44.8167724609375 5.8765869140625
-40.025390625 45.0504150390625 14.97509765625
-1.955322265625 26.7525634765625 -5.441162109375
-30.078369140625 -4.3692626953125 22.3856201171875
-43.9580078125 -25.9901123046875 5.890869140625
-32.66796875 -13.0224609375 24.5262451171875
-37.4775390625 50.728271484375 20.7484130859375
-11.045166015625 -18.689208984375 36.242919921875
-35.32177734375 -22.29736328125 23.99267578125
-35.396240234375 55.7891845703125 18.71533203125
-33.961669921875 -28.5179443359375 12.54345703125
-8.1533203125 28.6484375 -11.0430908203125
-1.785888671875 38.351806640625 12.216552734375
-35.864501953125 -25.383544921875 34.4635009765625
-5.729248046875 50.107177734375 17.0469970703125
-2.10107421875 43.907958984375 7.8770751953125
-5.98291015625 44.0999755859375 19.1385498046875
-36.7568359375 52.3087158203125 13.22216796875
-1.514892578125 36.81396484375 13.2630615234375
29.32763671875 -28.6624755859375 13.1629638671875
-10.10009765625 3.9552001953125 6.391357421875
-21.97802734375 41.6580810546875 14.23583984375
0.839599609375 -28.4879150390625 8.4315185546875
-6.071044921875 41.2030029296875 21.79443359375
-25.42138671875 -3.3060302734375 21.91357421875
2.44921875 53.63671875 -7.470458984375
2.4814453125 -25.629638671875 -4.275146484375
4.24072265625 14.9158935546875 21.8734130859375
-33.534912109375 -30.8577880859375 13.561767578125
-24.659423828125 38.5997314453125 15.4913330078125
30.042236328125 -22.80810546875 14.078125
-7.72021484375 -29.5987548828125 -4.396728515625
-6.712890625 -26.8721923828125 -3.3558349609375
-34.1142578125 50.976318359375 11.5146484375
-37.100830078125 44.698486328125 13.2425537109375
-26.327392578125 55.53955078125 16.0201416015625
-15.764892578125 -6.296630859375 9.96728515625
-33.52001953125 -15.9454345703125 23.2938232421875
-35.651123046875 -19.6708984375 16.44189453125
3.611083984375 4.5428466796875 21.0489501953125
2.947021484375 -2.1185302734375 27.39013671875
-41.570556640625 -23.5264892578125 15.41943359375
-3.80126953125 -26.7120361328125 -1.0543212890625
-33.676513671875 -25.9642333984375 9.8458251953125
29.05126953125 -32.894775390625 22.1976318359375
-32.322998046875 -16.0013427734375 10.860107421875
-0.202880859375 -26.022705078125 5.1947021484375
23.026611328125 -37.1422119140625 7.32666015625
-44.959228515625 -26.6629638671875 9.5618896484375
29.3740234375 -31.17431640625 15.4344482421875
-34.745849609375 -27.2891845703125 31.67626953125
2.0205078125 -26.337646484375 5.97216796875
-36.772705078125 -27.444091796875 24.1685791015625
-5.099853515625 50.805419921875 9.0821533203125
-3.732177734375 46.251708984375 9.3048095703125
-35.400390625 -23.7327880859375 27.2529296875
-8.770263671875 -36.920654296875 5.0234375
-21.94384765625 53.9019775390625 12.7232666015625
-5.72607421875 39.505126953125 20.6429443359375
28.99072265625 -30.955322265625 24.2298583984375
-24.294189453125 54.6641845703125 12.2464599609375
4.21337890625 13.012451171875 25.388671875
-30.423583984375 41.3431396484375 14.64013671875
15.6376953125 -37.8626708984375 4.63671875
2.969482421875 -27.134765625 3.445068359375
-42.96728515625 -16.5384521484375 16.49462890625
-26.94384765625 -7.7725830078125 15.8802490234375
-2.842529296875 52.906005859375 1.3294677734375
30.410400390625 -21.09521484375 16.88525390625
-30.15234375 36.5184326171875 15.9210205078125
3.531005859375 1.4393310546875 32.66015625
-23.189453125 -3.1727294921875 19.176025390625
-36.3837890625 -15.78369140625 15.3017578125
0.17041015625 23.5223388671875 24.36328125
-0.482421875 -24.1046142578125 -6.4559326171875
30.673583984375 -25.818359375 12.4063720703125
-4.4033203125 -24.613525390625 -5.257080078125
12.224853515625 27.4830322265625 5.75439453125
-32.665771484375 -16.6251220703125 34.0908203125
3.47705078125 1.60009765625 25.5787353515625
-1.314453125 49.60400390625 1.3463134765625
-45.2578125 -27.1890869140625 23.8155517578125
8.697998046875 31.7005615234375 9.062255859375
-33.412353515625 43.49462890625 13.864990234375
3.38671875 6.927490234375 31.406005859375
3.536376953125 5.005126953125 24.673095703125
3.315185546875 9.639892578125 30.7861328125
-35.4736328125 -26.3651123046875 29.2344970703125
-8.404052734375 2.677734375 5.6058349609375
-33.718994140625 54.3958740234375 14.1688232421875
28.823486328125 -35.84130859375 24.6005859375
5.3369140625 28.0338134765625 13.0924072265625
3.3779296875 2.9222412109375 22.320556640625
-3.1171875 33.212646484375 19.216796875
-17.037841796875 26.8406982421875 -8.84716796875
-33.85009765625 -19.841552734375 12.66015625
27.476318359375 -35.69482421875 6.7655029296875
3.958251953125 8.862548828125 15.91357421875
-8.49267578125 -36.55322265625 6.926025390625
0.036376953125 44.2779541015625 4.224365234375
-32.458740234375 -7.0616455078125 18.2628173828125
3.367431640625 -1.9857177734375 34.0399169921875
-4.7001953125 44.390625 13.5845947265625
-33.765869140625 -15.3226318359375 19.3763427734375
-22.42431640625 -12.7447509765625 8.548828125
-6.052001953125 55.573486328125 17.255859375
-1.29736328125 -26.7825927734375 -0.272216796875
4.269775390625 14.074951171875 12.7122802734375
14.111083984375 22.82421875 -1.5089111328125
18.036376953125 15.2899169921875 -1.1763916015625
11.226318359375 -35.5621337890625 2.3831787109375
-8.109619140625 -29.2647705078125 -1.40869140625
-11.189453125 -3.2459716796875 17.467529296875
-15.46533203125 -5.1968994140625 11.9215087890625
-3.784912109375 23.3179931640625 -1.3199462890625
1.989013671875 -25.3424072265625 7.8837890625
30.13037109375 -24.578369140625 19.0157470703125
-33.791015625 -19.31103515625 24.101806640625
4.515625 24.7777099609375 18.3182373046875
-2.85009765625 40.10400390625 12.474609375
1.5068359375 -26.367431640625 10.6138916015625
23.449462890625 23.7318115234375 2.3192138671875
5.203125 31.0546875 11.30810546875
-4.765380859375 -26.978759765625 -8.05810546875
0.4375 48.7178955078125 -0.83056640625
-32.1865234375 -18.3485107421875 31.8765869140625
29.60546875 -31.4903564453125 12.700439453125
0.327880859375 41.6824951171875 6.3323974609375
-9.768310546875 -19.6993408203125 39.0565185546875
-5.799560546875 58.8001708984375 14.4879150390625
-7.890869140625 19.2987060546875 -1.2852783203125
-27.293701171875 45.0731201171875 13.2283935546875
-26.0087890625 -9.6961669921875 12.1656494140625
21.251708984375 29.131103515625 6.2979736328125
-4.911376953125 54.0191650390625 6.8214111328125
24.220947265625 27.2596435546875 6.0206298828125
16.79296875 12.4608154296875 -2.214111328125
2.105224609375 -24.3963623046875 -5.5390625
4.490478515625 21.8826904296875 18.038330078125
-5.56201171875 54.1212158203125 10.0692138671875
-33.10546875 -17.9722900390625 11.0556640625
-22.872802734375 39.1761474609375 15.2364501953125
-4.265869140625 -31.0087890625 7.1761474609375
-28.132080078125 -12.6859130859375 11.253662109375
-17.745361328125 -3.84228515625 13.322509765625
15.415771484375 28.5074462890625 4.057861328125
19.523681640625 18.41650390625 -2.5145263671875
8.955810546875 28.436279296875 8.6683349609375
-29.382080078125 55.015869140625 18.6920166015625
-44.117919921875 -17.779296875 18.51513671875
-16.587646484375 -16.7279052734375 36.606201171875
0.16748046875 50.177978515625 -1.8056640625
-20.098876953125 -8.6639404296875 9.9371337890625
27.16650390625 -37.03466796875 9.751220703125
-35.37841796875 -23.194580078125 15.164306640625
-34.40625 -15.8387451171875 15.92041015625
12.741943359375 10.15625 -1.6529541015625
-32.822998046875 41.31201171875 14.647216796875
-37.795654296875 -28.079345703125 8.354248046875
-11.308349609375 27.746337890625 -11.2960205078125
-4.03955078125 58.8436279296875 -0.074951171875
-33.2646484375 -21.033447265625 32.8538818359375
2.342041015625 26.4742431640625 -9.456787109375
-23.998779296875 52.3612060546875 11.09765625
-5.69775390625 61.30078125 12.550537109375
-44.984619140625 -29.1729736328125 17.73681640625
-37.339599609375 -25.0443115234375 9.3421630859375
15.489990234375 -39.494140625 2.8985595703125
-46.5 -28.2529296875 15.4228515625
3.034423828125 -5.0721435546875 26.11572265625
-2.68212890625 -27.98388671875 4.9617919921875
-35.33056640625 -18.889892578125 9.8995361328125
-27.8095703125 50.8212890625 10.2833251953125
0.921142578125 25.5303955078125 -1.4412841796875
6.71044921875 25.6207275390625 8.5634765625
-41.37109375 -22.38232421875 7.18603515625
-14.357421875 -2.7677001953125 16.9532470703125
-31.66650390625 -19.17236328125 9.115966796875
19.23486328125 22.271728515625 -1.4010009765625
-22.755615234375 -4.45947265625 16.273681640625
3.169677734375 -2.3604736328125 24.6719970703125
-32.088623046875 -15.5758056640625 29.3046875
-20.143798828125 -17.2750244140625 35.95947265625
26.824951171875 18.5120849609375 1.1109619140625
16.3134765625 26.3006591796875 1.5042724609375
-39.43798828125 -25.4188232421875 17.15087890625
-23.17431640625 -7.70849609375 12.09326171875
1.262451171875 25.5172119140625 -5.3958740234375
-40.317626953125 -24.1878662109375 9.698974609375
-32.90673828125 -13.134521484375 14.719482421875
-13.66357421875 -2.907470703125 14.0196533203125
-32.506591796875 55.8082275390625 18.1446533203125
-8.603271484375 -35.119140625 4.1937255859375
22.5947265625 -36.8408203125 4.0111083984375
14.955810546875 23.9752197265625 -0.2886962890625
-5.365478515625 49.6533203125 11.9322509765625
-24.2919921875 56.6019287109375 17.02294921875
-4.69873046875 34.3194580078125 21.9619140625
-8.008056640625 -34.306396484375 1.654052734375
-44.97509765625 -24.188720703125 25.6826171875
-41.9091796875 -21.7109375 9.87841796875
-6.104248046875 -26.7386474609375 -6.4544677734375
3.591552734375 5.504638671875 29.8553466796875
-29.733154296875 -12.4610595703125 14.1219482421875
-5.640869140625 58.5992431640625 7.337646484375
1.06396484375 27.492919921875 -10.1953125
-1.80517578125 27.259033203125 -11.9927978515625
-4.957275390625 58.7366943359375 3.0904541015625
1.0302734375 -26.5911865234375 0.7716064453125
-36.21875 53.8326416015625 16.2493896484375
-5.857421875 55.8258056640625 15.3494873046875
-25.455810546875 43.73388671875 13.736083984375
4.012451171875 23.9674072265625 -4.0653076171875
28.485595703125 -37.983154296875 15.3604736328125
-40.686767578125 -19.7276611328125 11.3460693359375
-31.348876953125 -21.32958984375 8.5418701171875
17.238525390625 -36.265380859375 6.1033935546875
-24.653076171875 56.6982421875 18.600830078125
12.310546875 25.301025390625 2.76806640625
-33.8603515625 -19.1680908203125 25.955810546875
-23.5712890625 -9.059326171875 11.19140625
-12.250244140625 -1.8505859375 19.0296630859375
7.07421875 26.77685546875 10.001953125
5.608642578125 25.0496826171875 11.6016845703125
-1.036376953125 56.7528076171875 -5.2967529296875
-31.11767578125 -7.4031982421875 16.7779541015625
-15.983642578125 26.355712890625 -10.7330322265625
1.55712890625 47.56201171875 -0.9324951171875
-19.72607421875 -2.711181640625 19.83447265625
-26.39111328125 -13.0521240234375 8.065673828125
-5.09814453125 57.01904296875 4.9371337890625
18.674072265625 24.785400390625 0.7236328125
-4.96728515625 27.7359619140625 -12.063720703125
-3.751953125 51.0225830078125 5.57177734375
-22.273681640625 -2.2261962890625 20.591064453125
2.8271484375 -1.9119873046875 29.697021484375
-4.3203125 27.2115478515625 -9.6441650390625
-26.88525390625 40.7396240234375 14.7509765625
3.757080078125 1.71435546875 19.2789306640625
9.005859375 23.4522705078125 2.9793701171875
3.009765625 -4.4630126953125 22.2994384765625
-29.543701171875 -3.1141357421875 20.9774169921875
0.324462890625 -24.547607421875 -9.16552734375
23.3828125 24.9637451171875 3.5142822265625
-2.958251953125 26.615478515625 24.6561279296875
-46.66015625 -25.3369140625 27.8907470703125
-0.564697265625 -28.6522216796875 11.24365234375
-2.25927734375 24.26806640625 -1.0367431640625
-10.71142578125 0.192138671875 8.600830078125
18.4833984375 -38.364501953125 3.28515625
-40.009765625 46.5721435546875 20.5125732421875
-6.35791015625 22.6710205078125 -1.396728515625
-5.534912109375 48.8052978515625 13.2740478515625
12.444580078125 6.956298828125 -2.02880859375
1.177734375 18.4388427734375 27.4200439453125
13.160888671875 19.571044921875 -4.927490234375
-21.409423828125 43.0491943359375 13.713623046875
-32.696044921875 55.0123291015625 15.3092041015625
3.569580078125 4.928955078125 17.886474609375
4.22705078125 14.0374755859375 19.9366455078125
-40.488525390625 -28.73828125 20.90869140625
7.96728515625 29.9615478515625 9.1728515625
3.2099609375 48.2762451171875 -3.165771484375
-5.42333984375 -31.1689453125 4.73583984375
-5.605712890625 61.07421875 8.15234375
-20.17333984375 -3.9617919921875 14.9755859375
-44.05712890625 -22.64208984375 6.859375
-37.261962890625 52.844482421875 18.106689453125
20.40234375 30.0694580078125 5.34716796875
-2.9912109375 25.9039306640625 -4.1494140625
-6.22021484375 -30.6744384765625 1.1893310546875
6.44580078125 25.5728759765625 -10.5321044921875
-39.96142578125 -21.64697265625 13.7762451171875
-14.27685546875 28.186279296875 -9.933349609375
-32.63525390625 -13.9381103515625 13.3896484375
4.01220703125 27.9798583984375 -11.66455078125
3.78125 18.2325439453125 23.6124267578125
-17.6416015625 17.9942626953125 -1.104736328125
21.75634765625 20.4351806640625 -1.96875
-5.129638671875 23.3505859375 -5.2587890625
-8.30029296875 -32.6197509765625 1.1448974609375
-29.78955078125 46.7977294921875 13.0072021484375
-30.289306640625 -5.1063232421875 19.296875
-30.806884765625 54.9998779296875 17.8421630859375
-9.308837890625 -38.5263671875 5.08251953125
29.33740234375 -30.5274658203125 21.138427734375
4.438232421875 17.3406982421875 18.1820068359375
26.363037109375 -36.73876953125 8.228271484375
-3.431884765625 46.972412109375 7.66259765625
-3.266357421875 57.93310546875 -1.3671875
12.1455078125 29.25390625 5.2125244140625
5.65185546875 22.9609375 8.5303955078125
-3.774169921875 39.35302734375 15.2169189453125
-42.915771484375 -24.5523681640625 14.302001953125
-20.531494140625 -2.887451171875 18.0401611328125
-35.014892578125 -19.24560546875 21.91748046875
-25.751953125 39.8721923828125 15.477783203125
-5.43359375 44.2943115234375 15.568603515625
-35.696044921875 52.9971923828125 12.0421142578125
-27.57763671875 -11.2470703125 13.153564453125
-39.5947265625 43.779296875 14.190185546875
-2.36083984375 -29.3128662109375 8.7232666015625
-4.36376953125 46.1142578125 10.8876953125
16.5244140625 16.6859130859375 -2.1953125
-25.941650390625 -3.9979248046875 18.1422119140625
0.147705078125 48.006103515625 0.781494140625
4.17578125 26.4921875 17.1490478515625
-19.995849609375 46.9716796875 12.132080078125
-35.67333984375 -21.878173828125 13.7869873046875
14.55517578125 25.0601806640625 0.792236328125
8.567626953125 26.61767578125 7.115966796875
-8.1123046875 -30.640380859375 -0.239501953125
4.23974609375 16.354248046875 15.2618408203125
-28.806884765625 44.8101806640625 13.43310546875
-35.098876953125 -21.0697021484375 15.0975341796875
-2.990478515625 28.03955078125 22.8282470703125
9.00341796875 25.0819091796875 4.90234375
4.61962890625 20.2869873046875 17.573974609375
-4.9892578125 -26.597412109375 2.146728515625
-44.8310546875 -26.2347412109375 25.47314453125
-10.055908203125 -2.0159912109375 19.3331298828125
-4.553466796875 33.0380859375 22.8121337890625
29.464599609375 -30.6015625 18.20849609375
-3.8447265625 27.959228515625 25.289306640625
-28.359130859375 39.5792236328125 15.0753173828125
-33.7177734375 -21.0450439453125 31.1058349609375
-5.84423828125 53.3575439453125 16.401123046875
-2.112060546875 34.547119140625 16.6171875
-1.690673828125 27.2735595703125 -8.318359375
10.77587890625 19.95361328125 -2.6290283203125
-8.26025390625 -4.076171875 18.0391845703125
-10.26123046875 0.7427978515625 7.1083984375
-28.510009765625 49.6016845703125 11.0899658203125
-5.222900390625 1.3980712890625 16.61474609375
-32.42529296875 -17.255859375 30.6011962890625
-44.8125 -23.0770263671875 24.6304931640625
-30.673828125 -14.73486328125 11.9976806640625
1.01513671875 55.3245849609375 -7.399169921875
3.441650390625 38.454345703125 6.6246337890625
-4.54052734375 31.1326904296875 23.9610595703125
-7.882568359375 -36.9344482421875 3.036376953125
-5.67626953125 61.7554931640625 10.904541015625
-5.689697265625 3.30224609375 13.859375
28.087158203125 -38.2386474609375 13.2821044921875
-34.37939453125 -17.63525390625 21.3421630859375
29.888916015625 -26.3988037109375 18.3114013671875
20.716552734375 25.282470703125 2.4447021484375
-0.3505859375 -26.1856689453125 -2.0263671875
-1.013427734375 39.975341796875 9.83056640625
-33.511474609375 -12.5262451171875 17.9166259765625
-1.552734375 -28.18310546875 2.2322998046875
-1.9306640625 55.2508544921875 -2.234130859375
17.186279296875 26.6895751953125 2.682373046875
2.006103515625 32.802978515625 13.7587890625
-33.174560546875 -23.67626953125 10.307373046875
3.230712890625 -1.6318359375 22.3250732421875
-27.29345703125 -15.38525390625 34.3741455078125
6.785888671875 29.2401123046875 10.8282470703125
-21.651123046875 50.8887939453125 11.537353515625
-2.29248046875 49.072021484375 3.8544921875
-19.950927734375 43.7198486328125 12.7513427734375
-17.687255859375 -3.30908203125 21.7779541015625
-35.037109375 40.257568359375 14.4686279296875
29.436767578125 -33.268310546875 9.0064697265625
29.00927734375 -34.8609619140625 25.72705078125
-25.82373046875 37.5638427734375 15.9202880859375
-9.72998046875 28.2484130859375 -10.2950439453125
3.364013671875 1.045166015625 20.9083251953125
-4.3466796875 57.34765625 1.9852294921875
14.647216796875 26.6495361328125 2.3221435546875
9.9462890625 22.930908203125 1.8804931640625
9.150390625 20.051513671875 -1.1885986328125
29.02099609375 -35.4620361328125 22.4659423828125
-4.62451171875 38.410888671875 18.1302490234375
-5.843505859375 55.10546875 13.011474609375
0.423828125 26.7855224609375 -6.965087890625
-25.208251953125 -3.0908203125 20.4471435546875
-27.1650390625 34.94873046875 15.3419189453125
-2.61572265625 54.6015625 -0.8839111328125
-16.282470703125 -2.7786865234375 15.92333984375
-36.265625 -15.368408203125 17.5516357421875
-35.1884765625 -20.3480224609375 12.2275390625
-19.360595703125 -2.9810791015625 16.7928466796875
3.309814453125 -1.3985595703125 32.667236328125
-6.210693359375 42.447998046875 20.9573974609375
9.908935546875 29.4920654296875 7.1798095703125
-44.930419921875 -22.81298828125 10.79541015625
28.934814453125 -36.189697265625 15.1964111328125
24.009033203125 -38.9290771484375 9.6595458984375
-43.421630859375 -21.3306884765625 10.295654296875
-0.03271484375 25.0897216796875 -4.0029296875
2.839111328125 -5.1309814453125 29.53076171875
0.90380859375 20.259033203125 25.712646484375
-17.19384765625 46.519775390625 15.8900146484375
-41.416259765625 -22.4241943359375 14.396728515625
28.304443359375 -34.4375 8.5362548828125
-14.375244140625 -16.8560791015625 34.870849609375
14.88818359375 21.61376953125 -1.869873046875
-29.85546875 -6.674072265625 17.050537109375
13.50537109375 31.7205810546875 6.450439453125
-28.95068359375 -6.8228759765625 15.2166748046875
4.981689453125 20.4822998046875 8.126220703125
4.083984375 12.9674072265625 23.8753662109375
-3.03564453125 37.076171875 16.0323486328125
4.38720703125 10.36962890625 13.8623046875
-37.728759765625 49.156982421875 20.219482421875
3.76611328125 11.3330078125 28.076416015625
-30.98974609375 53.3739013671875 13.232177734375
-5.845458984375 51.795654296875 14.55322265625
0.72119140625 52.9842529296875 -4.8973388671875
-26.77880859375 49.4739990234375 10.803466796875
-4.537353515625 49.3389892578125 8.421875
-35.352294921875 54.8753662109375 17.0230712890625
-41.8037109375 -20.37451171875 12.070068359375
-18.137451171875 18.26416015625 -3.356201171875
4.140625 14.1031494140625 27.1737060546875
-26.534912109375 53.430419921875 10.7816162109375
-0.041259765625 33.197265625 14.2943115234375
-38.16552734375 46.275146484375 14.3824462890625
-33.943115234375 -29.363037109375 15.942626953125
29.5185546875 -28.119384765625 15.4840087890625
-5.809326171875 57.273193359375 14.9552001953125
-30.414306640625 -14.96435546875 33.872802734375
3.04248046875 -26.171142578125 4.9356689453125
-33.516357421875 38.447021484375 15.5604248046875
-41.96923828125 -28.042724609375 18.7301025390625
-19.63037109375 -5.5693359375 12.3153076171875
-7.0380859375 21.8465576171875 0.0821533203125
14.397705078125 -35.8922119140625 5.5391845703125
20.768798828125 13.1864013671875 0.3475341796875
29.62841796875 -25.98974609375 13.475341796875
-0.93603515625 28.43212890625 -11.2650146484375
5.730712890625 21.923095703125 23.04150390625
-36.11865234375 47.935791015625 11.7847900390625
-25.859619140625 -8.75048828125 15.0875244140625
0.110595703125 54.853515625 -5.3865966796875
29.988525390625 -23.861328125 15.0787353515625
-23.451171875 -10.825927734375 10.791748046875
3.32763671875 0.4486083984375 29.6224365234375
-23.584716796875 36.0999755859375 14.8302001953125
-6.1220703125 45.3302001953125 18.313232421875
-34.06884765625 -18.3995361328125 16.0938720703125
-3.528564453125 53.783447265625 2.2568359375
-1.997314453125 31.3172607421875 19.05419921875
-7.09423828125 -28.9266357421875 -6.8033447265625
17.839599609375 13.3800048828125 -1.2249755859375
3.241943359375 -1.400634765625 26.152587890625
-33.973388671875 -20.6982421875 27.7723388671875
-46.5068359375 -31.1077880859375 15.56689453125
-37.876220703125 48.5443115234375 18.6640625
27.77001953125 -37.2738037109375 12.1556396484375
4.3681640625 16.519775390625 21.0286865234375
28.96923828125 -35.224853515625 12.2298583984375
-34.100830078125 -19.5052490234375 9.4520263671875
-35.108154296875 53.8734130859375 14.5889892578125
-0.012451171875 -29.1263427734375 9.802001953125
-37.05029296875 51.24755859375 19.273193359375
-33.555419921875 -17.4541015625 26.6131591796875
11.578369140625 6.1466064453125 0.3084716796875
-35.761474609375 45.3997802734375 12.6712646484375
26.194091796875 25.322509765625 6.6585693359375
-33.498046875 -26.3154296875 11.5819091796875
-39.7724609375 -25.58447265625 8.3546142578125
7.677490234375 24.135986328125 5.659912109375
-30.986083984375 -18.52490234375 32.6522216796875
-44.489013671875 -21.8077392578125 22.595947265625
-46.226806640625 -29.062255859375 14.08349609375
-33.3349609375 -17.4403076171875 23.7669677734375
-28.857666015625 52.2962646484375 11.49951171875
3.69677734375 -27.68408203125 -0.7559814453125
-32.264892578125 36.37255859375 14.7806396484375
0.480712890625 -27.0267333984375 6.531494140625
-46.07958984375 -27.310791015625 13.6644287109375
-17.59814453125 -2.542724609375 17.4991455078125
-27.2958984375 -12.6986083984375 32.2847900390625
-30.23681640625 43.5721435546875 13.8284912109375
-30.8603515625 54.3394775390625 15.920654296875
-2.394775390625 53.2530517578125 0.0152587890625
-6.712890625 -0.0797119140625 17.1263427734375
16.864501953125 9.7393798828125 -3.593505859375
-15.276611328125 -4.691650390625 9.8245849609375
-29.169189453125 -19.5833740234375 8.2545166015625
-1.60107421875 29.442138671875 20.378173828125
-33.37548828125 -16.1639404296875 24.9757080078125
-5.963623046875 49.930419921875 18.8973388671875
-27.22509765625 36.9366455078125 16.429443359375
-29.924560546875 -15.55419921875 10.447265625
-15.743408203125 -2.6029052734375 19.0235595703125
-23.64599609375 41.5289306640625 14.7481689453125
-23.26953125 44.1722412109375 13.8077392578125
-27.518798828125 41.9984130859375 14.5357666015625
3.696533203125 8.3392333984375 23.3629150390625
-5.229248046875 33.878173828125 23.842041015625
3.668701171875 5.949462890625 21.2701416015625
23.5546875 20.0693359375 -0.872802734375
