28.53125 -37.0162353515625 5.9227294921875
-2.177490234375 35.969970703125 -16.32958984375
-32.368408203125 53.6004638671875 -17.0673828125
-21.40087890625 49.416259765625 5.039794921875
-29.80419921875 -20.224853515625 11.536376953125
0.8271484375 -19.451171875 -8.6885986328125
-9.220703125 35.2320556640625 -21.602294921875
-2.463623046875 33.0196533203125 -9.1112060546875
5.978271484375 13.34033203125 24.62060546875
24.995849609375 -28.6148681640625 -2.171875
-4.468994140625 53.870849609375 5.7523193359375
2.543212890625 21.737548828125 22.7496337890625
-4.81201171875 44.5313720703125 17.3016357421875
-2.994140625 21.70849609375 23.8551025390625
6.62890625 31.2587890625 0.12060546875
-30.931640625 -16.6182861328125 16.3359375
-34.269287109375 62.4267578125 11.614501953125
-25.8896484375 63.4652099609375 8.8250732421875
-28.137451171875 43.425048828125 6.90869140625
25.68701171875 31.70654296875 -9.583740234375
-14.322265625 23.1649169921875 -19.060546875
6.4150390625 30.619384765625 3.89697265625
-30.74853515625 -13.0235595703125 6.455322265625
5.016845703125 18.2880859375 23.22900390625
-26.876953125 2.4825439453125 12.04443359375
-41.508056640625 -27.0394287109375 10.7210693359375
-0.8076171875 -23.9364013671875 -3.406494140625
-31.0224609375 -16.4569091796875 6.053466796875
6.497314453125 32.085205078125 5.967041015625
0.401123046875 39.809814453125 8.5501708984375
-4.410400390625 58.4769287109375 0.5045166015625
-1.507568359375 29.5311279296875 21.2291259765625
-2.1611328125 55.974609375 -3.7637939453125
6.27001953125 14.0538330078125 23.0050048828125
-5.1806640625 56.1016845703125 14.961669921875
6.080078125 6.0501708984375 9.7874755859375
-26.4375 61.947998046875 5.42578125
6.37939453125 10.1195068359375 12.2608642578125
-34.979248046875 55.9285888671875 -18.53759765625
-31.4697265625 55.63134765625 2.234130859375
6.219482421875 24.20556640625 4.9072265625
-39.91748046875 51.833984375 5.5589599609375
1.607177734375 34.491455078125 -15.78271484375
-15.408935546875 33.268310546875 -22.1513671875
-8.298583984375 25.6959228515625 -9.3260498046875
-39.88671875 51.9068603515625 9.4417724609375
-5.62890625 29.4072265625 -12.8271484375
-1.786376953125 -19.1165771484375 -9.89453125
6.5537109375 12.8614501953125 14.8033447265625
3.944580078125 14.880126953125 25.7618408203125
1.474609375 35.9427490234375 -20.3184814453125
-16.108154296875 4.4605712890625 10.611083984375
20.65869140625 -26.441650390625 -3.3685302734375
6.54443359375 13.40869140625 18.2744140625
21.883056640625 16.3931884765625 -15.044921875
6.57177734375 19.242431640625 2.3074951171875
-35.861083984375 59.802734375 4.3829345703125
-30.31591796875 62.9036865234375 8.17626953125
8.42236328125 -18.487060546875 -9.175537109375
-0.332763671875 -20.13818359375 -5.231201171875
-34.226806640625 57.5699462890625 18.157470703125
9.945556640625 37.0167236328125 -1.8662109375
3.381591796875 -19.2178955078125 -6.3648681640625
-29.324951171875 61.2666015625 17.4154052734375
-35.92138671875 59.9608154296875 6.42333984375
-22.52734375 63.399169921875 10.994384765625
-21.343505859375 59.330810546875 1.481689453125
-33.66015625 61.054443359375 1.4195556640625
-33.41259765625 62.051025390625 5.7532958984375
7.654052734375 35.2628173828125 0.117919921875
-35.003662109375 60.6380615234375 14.800537109375
-30.66259765625 -18.5401611328125 9.456298828125
13.61376953125 28.9532470703125 -15.27783203125
23.9853515625 43.9849853515625 -16.3328857421875
-3.0244140625 8.9451904296875 6.265625
28.017822265625 -26.8187255859375 -4.0211181640625
6.404052734375 26.9857177734375 9.626708984375
-3.22607421875 45.26123046875 10.056884765625
6.337646484375 25.054443359375 14.61279296875
1.735595703125 24.9267578125 21.299560546875
6.451171875 -18.4595947265625 -5.8704833984375
6.283935546875 29.816650390625 10.5399169921875
6.29443359375 20.601806640625 7.0223388671875
6.726318359375 38.1558837890625 2.8426513671875
-3.594482421875 38.8499755859375 17.9652099609375
-4.973876953125 48.3289794921875 14.4437255859375
-32.86767578125 57.6151123046875 1.407470703125
-5.257568359375 54.0223388671875 12.8333740234375
12.7353515625 37.9354248046875 -3.695068359375
-39.24365234375 55.009765625 11.642333984375
-35.91357421875 58.1201171875 7.81005859375
-36.295654296875 58.38623046875 15.7640380859375
1.95751953125 17.656982421875 24.900390625
7.1806640625 31.63818359375 -2.0306396484375
-2.58447265625 -28.033447265625 -1.06787109375
-3.409423828125 47.344482421875 8.5194091796875
20.317626953125 18.8604736328125 -14.917724609375
-4.114990234375 31.278076171875 -10.8125
24.145263671875 36.6375732421875 -5.6827392578125
-3.4443359375 -27.1856689453125 -3.6241455078125
-3.74755859375 52.31884765625 4.640625
-14.21630859375 35.0208740234375 -20.7017822265625
6.58837890625 17.3331298828125 11.84765625
2.263671875 32.652099609375 -12.9779052734375
-17.32861328125 32.5372314453125 -20.5528564453125
-35.94189453125 -14.263671875 0.1436767578125
-28.57470703125 -9.416259765625 20.1158447265625
12.602294921875 35.3824462890625 -6.6077880859375
8.849853515625 33.691162109375 -3.9769287109375
-22.769287109375 55.2962646484375 2.347900390625
2.94189453125 32.3489990234375 13.2677001953125
6.095458984375 4.373779296875 12.866943359375
-0.957763671875 39.2872314453125 10.8570556640625
10.317138671875 30.647705078125 -9.51171875
0.36865234375 33.77197265625 -13.4151611328125
6.579345703125 29.4954833984375 7.19140625
26.69384765625 29.5704345703125 -10.0389404296875
-29.022216796875 -1.216552734375 11.40966796875
-5.08154296875 58.79052734375 3.520263671875
2.790283203125 27.696533203125 18.1575927734375
-6.500732421875 35.642822265625 -21.8846435546875
-24.8466796875 61.4730224609375 16.97021484375
-21.528564453125 62.058837890625 14.8302001953125
-38.545654296875 -12.748779296875 1.005615234375
6.458984375 25.231201171875 10.459716796875
6.86181640625 32.81640625 0.8642578125
9.238037109375 32.248779296875 -6.267578125
13.4287109375 36.5777587890625 -5.44482421875
13.846923828125 29.583984375 -13.6951904296875
3.205810546875 -18.128173828125 -8.7066650390625
15.30126953125 37.3089599609375 -6.2701416015625
6.394775390625 29.5743408203125 2.5638427734375
-2.931884765625 54.1837158203125 0.1932373046875
-1.02978515625 50.598388671875 -0.291748046875
5.64013671875 27.4034423828125 15.4879150390625
-28.740478515625 54.1641845703125 3.016845703125
-28.062255859375 63.9442138671875 12.70068359375
6.34228515625 22.7357177734375 1.5570068359375
6.38525390625 14.090576171875 11.3880615234375
28.104248046875 -34.735107421875 3.402099609375
-0.070556640625 52.045654296875 -4.0084228515625
-29.174560546875 -20.711669921875 5.5740966796875
5.4384765625 28.7637939453125 14.2950439453125
-37.997802734375 -6.6668701171875 7.5177001953125
-30.002685546875 -13.943603515625 15.518798828125
-4.47998046875 48.4090576171875 11.058837890625
-33.62841796875 61.522216796875 4.1956787109375
-29.8583984375 43.5831298828125 6.865966796875
-5.394775390625 60.6339111328125 11.699462890625
-24.806640625 63.118896484375 6.07763671875
-18.984130859375 54.3006591796875 2.9404296875
-24.682861328125 58.28466796875 0.80126953125
23.85595703125 31.40625 -11.115478515625
-3.560302734375 32.92333984375 -17.331787109375
-26.79931640625 62.406494140625 15.4732666015625
29.615234375 -28.7183837890625 -1.225341796875
6.216796875 12.169677734375 11.2596435546875
-30.587890625 -17.8211669921875 7.3223876953125
-5.207275390625 58.3125 8.9627685546875
-39.611083984375 52.1048583984375 11.661376953125
-3.79638671875 50.5977783203125 6.326171875
-5.282470703125 33.8990478515625 -18.06298828125
6.1455078125 -19.7945556640625 -4.9930419921875
6.083984375 34.107177734375 6.200927734375
14.981201171875 39.395263671875 -4.2335205078125
6.50634765625 21.266357421875 11.388427734375
-4.6650390625 53.74560546875 7.4840087890625
-29.488525390625 -5.0609130859375 11.156494140625
-31.1328125 -12.2491455078125 2.2918701171875
17.911376953125 34.1094970703125 -9.932373046875
6.275390625 8.8035888671875 9.5684814453125
7.838623046875 28.837646484375 -8.9217529296875
-36.8896484375 56.848876953125 10.5787353515625
-31.009765625 -22.10546875 13.7078857421875
-31.978515625 59.8812255859375 0.281494140625
-5.235107421875 54.3880615234375 16.69091796875
-36.99267578125 54.8759765625 6.3372802734375
1.035888671875 53.7034912109375 -6.8621826171875
-2.27099609375 -21.364013671875 -7.8150634765625
-27.685791015625 45.6343994140625 6.47216796875
-37.37548828125 52.7122802734375 17.3321533203125
6.138427734375 25.7408447265625 -0.3182373046875
-4.256591796875 45.038818359375 14.6097412109375
-22.9375 45.3094482421875 6.314208984375
20.64599609375 21.2242431640625 -12.2081298828125
17.750732421875 35.904541015625 -7.6861572265625
-29.580322265625 -1.472412109375 8.532470703125
-1.505615234375 32.03076171875 20.0135498046875
-30.1123046875 48.7479248046875 5.4791259765625
-29.556640625 -6.339111328125 8.5130615234375
-4.069091796875 32.45751953125 -15.200927734375
-29.61767578125 -7.4166259765625 5.33251953125
-30.802734375 46.0833740234375 6.47021484375
-27.827880859375 -11.9146728515625 1.7996826171875
-33.577880859375 62.96044921875 8.2193603515625
10.775390625 32.832275390625 -7.1751708984375
11.854248046875 31.231201171875 -10.4193115234375
9.651611328125 40.741943359375 -1.0107421875
7.677734375 30.9124755859375 -5.03955078125
5.486328125 16.7734375 23.2313232421875
-4.076171875 40.359375 17.9014892578125
-22.880859375 63.005859375 14.5283203125
6.16943359375 23.0264892578125 17.794677734375
21.52978515625 19.25732421875 -12.807373046875
-32.8798828125 46.9215087890625 6.3372802734375
6.37158203125 16.0042724609375 20.7249755859375
-3.11279296875 35.056396484375 -15.0504150390625
11.307373046875 34.463623046875 -5.8896484375
6.413330078125 23.39599609375 9.454345703125
-38.971435546875 -15.8753662109375 4.4903564453125
-34.219970703125 58.367431640625 2.072265625
-16.985595703125 33.0343017578125 -17.225341796875
-32.54443359375 59.8023681640625 17.4029541015625
0.148193359375 -19.9024658203125 -3.7523193359375
5.576171875 -9.1123046875 -8.221923828125
-21.37939453125 47.879150390625 5.3681640625
6.555419921875 6.45166015625 21.508056640625
-35.825439453125 46.89111328125 4.8980712890625
5.97705078125 39.093017578125 3.856201171875
6.311767578125 25.1190185546875 3.6334228515625
1.994384765625 31.2264404296875 15.181640625
-3.785888671875 36.335693359375 -20.5953369140625
-12.74462890625 34.9251708984375 -21.7159423828125
-3.04541015625 35.6971435546875 18.403076171875
-4.67431640625 20.60888671875 24.5164794921875
-0.5341796875 46.1365966796875 3.349609375
-3.69970703125 -21.2845458984375 -9.7989501953125
-30.26025390625 -11.3768310546875 12.353759765625
6.5537109375 16.925048828125 18.9754638671875
24.392822265625 46.9227294921875 -20.4044189453125
25.478759765625 34.90673828125 -7.0333251953125
-1.991943359375 -25.1915283203125 -0.608642578125
-38.62646484375 -13.2392578125 2.544677734375
-38.37548828125 48.9107666015625 3.9208984375
8.380615234375 39.66845703125 0.232666015625
-5.369873046875 42.671630859375 19.76953125
-22.33154296875 62.587646484375 5.415771484375
-29.134765625 61.7470703125 7.6365966796875
-21.141845703125 62.568115234375 8.18896484375
-5.931884765625 7.1995849609375 8.490478515625
-30.364501953125 59.5712890625 1.23388671875
6.497802734375 29.1187744140625 9.1416015625
15.937255859375 19.1436767578125 -13.75
-30.767578125 -14.3240966796875 13.9493408203125
6.4306640625 19.8397216796875 19.8824462890625
-21.6748046875 57.784912109375 1.652587890625
15.73974609375 38.457275390625 -5.2557373046875
10.004638671875 28.8458251953125 -11.510009765625
13.587890625 34.7882080078125 -7.6837158203125
13.1494140625 33.639892578125 -8.6981201171875
-1.67578125 37.470703125 14.099609375
10.428466796875 34.8577880859375 -4.680908203125
2.955322265625 19.19091796875 24.16796875
-23.631591796875 2.1947021484375 13.6939697265625
-25.44921875 63.9129638671875 11.8677978515625
-5.027587890625 51.7330322265625 12.29150390625
-28.850830078125 -19.405029296875 2.8468017578125
0.353271484375 35.682373046875 -22.8125
-30.005615234375 -3.6644287109375 7.98583984375
-24.451416015625 61.20068359375 1.185302734375
-14.861328125 5.4442138671875 10.270751953125
-5.399169921875 61.2291259765625 6.5550537109375
33.4111328125 46.733154296875 -23.47265625
-5.0615234375 44.485595703125 19.017578125
-6.6337890625 35.0733642578125 -19.14892578125
5.65380859375 32.714599609375 -12.846435546875
28.205322265625 -39.610595703125 8.2769775390625
6.543701171875 16.555419921875 14.956787109375
-30.371337890625 42.1724853515625 5.124267578125
-1.570068359375 47.7769775390625 3.418701171875
-3.716552734375 41.9495849609375 15.0272216796875
-34.593994140625 55.390625 -16.8675537109375
3.011962890625 -17.350341796875 -10.0101318359375
-33.111328125 -12.880615234375 1.23876953125
-33.006103515625 62.279296875 14.090576171875
-5.2021484375 49.311767578125 17.4482421875
-32.578857421875 54.6488037109375 2.6097412109375
6.52783203125 7.7825927734375 14.316650390625
25.962890625 28.9188232421875 -11.404541015625
28.969482421875 35.843505859375 -10.378173828125
14.228271484375 32.038818359375 -11.942138671875
6.054931640625 20.674072265625 5.5174560546875
-41.92041015625 -23.920166015625 11.41162109375
25.695556640625 36.47314453125 -6.2772216796875
15.59716796875 35.3837890625 -8.8326416015625
-33.366455078125 54.402099609375 -16.2462158203125
6.21923828125 35.575439453125 5.1375732421875
8.795654296875 37.6802978515625 -0.01416015625
-34.72021484375 59.996337890625 1.8551025390625
0.247314453125 34.5626220703125 -18.1160888671875
22.711181640625 35.8505859375 -7.736083984375
-27.026611328125 -4.3316650390625 16.1065673828125
0.3759765625 34.16162109375 -14.877197265625
19.583984375 28.8968505859375 -13.625244140625
-3.04248046875 -24.8724365234375 -5.3270263671875
23.391357421875 37.87939453125 -6.099853515625
9.162109375 35.4930419921875 -1.9786376953125
22.80224609375 32.8692626953125 -10.4093017578125
-42.091552734375 -24.306640625 9.2049560546875
-5.02001953125 56.636474609375 6.3485107421875
-37.50244140625 55.7376708984375 15.2235107421875
-2.14404296875 36.90234375 16.4237060546875
-4.718017578125 41.0977783203125 19.0467529296875
14.443115234375 16.2650146484375 -10.0745849609375
-27.168701171875 62.6995849609375 9.4423828125
6.4580078125 7.4217529296875 18.6600341796875
-30.634521484375 -20.4599609375 14.055908203125
-4.83447265625 56.9014892578125 4.114013671875
-24.797607421875 56.9232177734375 1.419189453125
-17.91748046875 4.6024169921875 10.630126953125
-27.805908203125 -7.164794921875 18.9407958984375
7.662353515625 -17.3463134765625 -8.572509765625
6.578369140625 9.0223388671875 20.32568359375
-25.20751953125 3.763427734375 10.849609375
7.7177734375 32.9874267578125 -2.3924560546875
-3.236083984375 40.4500732421875 15.083984375
-21.314453125 60.9383544921875 2.8546142578125
-1.44873046875 27.436767578125 23.2052001953125
-0.737548828125 53.8475341796875 -4.28125
-37.53955078125 53.0948486328125 3.9482421875
-5.18603515625 56.078369140625 9.6307373046875
6.53173828125 18.8087158203125 17.6192626953125
-0.1357421875 54.5799560546875 -5.64111328125
4.939453125 20.9932861328125 21.9036865234375
-7.0849609375 27.212890625 -11.6378173828125
28.362548828125 35.7364501953125 -8.819091796875
-30.24365234375 61.6817626953125 4.9521484375
0.664794921875 20.8797607421875 23.6708984375
-27.603515625 62.4691162109375 8.0380859375
-3.21337890625 43.2344970703125 12.388427734375
-26.434326171875 52.02783203125 3.9107666015625
6.490234375 9.2464599609375 17.3663330078125
-36.6806640625 55.8505859375 8.1597900390625
6.5693359375 21.541015625 15.435546875
6.46826171875 11.169921875 16.0057373046875
-23.363037109375 53.99365234375 3.135009765625
14.69189453125 17.3902587890625 -13.10205078125
-5.039306640625 48.059326171875 15.8955078125
-5.230224609375 59.2257080078125 5.42529296875
-28.802978515625 60.408447265625 3.3028564453125
11.745361328125 40.62353515625 -2.67578125
6.132080078125 28.073974609375 12.6497802734375
6.275146484375 11.789306640625 9.6121826171875
20.575927734375 31.2431640625 -12.4295654296875
-4.655517578125 38.114990234375 19.1810302734375
19.268798828125 -26.2548828125 -4.0020751953125
6.595458984375 30.952880859375 6.982666015625
-2.521240234375 33.7177734375 -13.7813720703125
-2.314697265625 45.9703369140625 7.02734375
-27.37548828125 60.33154296875 2.328369140625
0.2470703125 34.5345458984375 -10.3280029296875
-2.732421875 35.9476318359375 -22.954345703125
-4.06689453125 56.40673828125 1.2200927734375
6.34326171875 14.9083251953125 8.6986083984375
-5.43408203125 60.5599365234375 9.5068359375
8.0732421875 36.575927734375 0.6044921875
6.268310546875 21.638916015625 3.3671875
-25.487060546875 46.942626953125 6.02197265625
-35.337890625 60.3720703125 13.017822265625
-32.156982421875 63.2340087890625 8.36865234375
16.113525390625 31.8499755859375 -11.93701171875
0.970703125 29.9625244140625 18.0543212890625
6.100830078125 6.2601318359375 19.501953125
-17.46240234375 53.896484375 5.18359375
-1.64404296875 34.466552734375 -11.5611572265625
-25.04931640625 44.4586181640625 7.0250244140625
1.539306640625 28.1253662109375 18.7447509765625
-1.195556640625 36.5382080078125 -21.703369140625
-1.911865234375 -25.0072021484375 -3.884521484375
-5.3916015625 57.416748046875 13.753173828125
-4.328125 51.126708984375 7.587890625
-6.681396484375 29.4644775390625 -9.4017333984375
-5.695068359375 29.7841796875 -11.2847900390625
3.060302734375 16.5484619140625 25.0152587890625
-29.3671875 -8.947998046875 3.86767578125
0.101318359375 32.400146484375 16.92919921875
14.2490234375 14.999267578125 -12.298828125
-3.433837890625 39.620361328125 16.755126953125
17.75 21.1444091796875 -13.3800048828125
6.5458984375 22.1513671875 13.2967529296875
-25.4833984375 59.5570068359375 1.0679931640625
-27.412109375 60.9786376953125 4.9993896484375
-0.64892578125 51.007080078125 -1.6168212890625
-27.235595703125 49.656494140625 4.6959228515625
6.12548828125 31.7530517578125 9.568359375
18.882568359375 19.363037109375 -13.503173828125
6.5244140625 23.9971923828125 11.97412109375
-25.487060546875 61.5936279296875 3.488525390625
-3.632080078125 34.0126953125 -18.2578125
-8.405517578125 6.098388671875 11.0845947265625
3.86865234375 33.63427734375 10.8214111328125
-1.522216796875 -21.1807861328125 -5.2955322265625
6.2705078125 9.0718994140625 11.295166015625
3.932861328125 -17.77685546875 -11.2801513671875
-29.36083984375 62.765869140625 14.842041015625
-38.578857421875 54.657470703125 9.1165771484375
-1.1904296875 -22.876953125 -4.4610595703125
6.541015625 10.6822509765625 20.007568359375
6.574462890625 13.938720703125 16.177734375
21.88818359375 30.7216796875 -12.9796142578125
-31.441650390625 -14.242431640625 6.6949462890625
-30.914306640625 -11.251953125 11.0736083984375
-36.991455078125 57.0927734375 12.5806884765625
-30.36669921875 61.2369384765625 16.449462890625
6.341552734375 13.654052734375 7.88525390625
-0.087646484375 37.8267822265625 11.061279296875
-2.90087890625 38.0087890625 16.8885498046875
-35.552978515625 62.163818359375 10.6572265625
-31.3837890625 44.1654052734375 6.7042236328125
36.0537109375 45.2547607421875 -22.2301025390625
6.59814453125 9.2174072265625 14.1622314453125
-40.125732421875 -13.3492431640625 0.116943359375
-26.5849609375 -5.85595703125 17.9622802734375
1.223388671875 38.4521484375 8.677490234375
-0.97705078125 26.2127685546875 22.169921875
6.31298828125 5.2052001953125 13.9884033203125
17.992919921875 38.49365234375 -5.612060546875
-1.873046875 33.605224609375 19.0706787109375
4.72314453125 -18.55517578125 -8.3699951171875
1.302001953125 26.6474609375 20.26611328125
-37.279052734375 -13.6500244140625 1.0767822265625
-1.44384765625 43.7216796875 7.618408203125
26.86474609375 32.5408935546875 -8.9930419921875
-3.017578125 44.04931640625 10.7408447265625
-39.6474609375 -14.5831298828125 2.692626953125
-29.309326171875 -3.5523681640625 10.537109375
-36.18359375 57.705078125 4.00390625
6.447021484375 -17.9381103515625 -7.458251953125
-29.883544921875 -9.5633544921875 12.1474609375
-35.347900390625 -12.7076416015625 1.5181884765625
4.153076171875 -7.99365234375 -8.8157958984375
6.36181640625 11.5748291015625 12.5198974609375
7.705810546875 -19.3192138671875 -10.0455322265625
15.966796875 -25.9813232421875 -4.51025390625
28.203125 -30.6640625 -0.076171875
-0.4716796875 -18.7401123046875 -8.599609375
-4.12841796875 55.5087890625 2.493408203125
-1.415771484375 45.6436767578125 5.384521484375
20.293701171875 32.726806640625 -10.97216796875
-36.762939453125 -6.916259765625 8.2034912109375
-35.0029296875 59.643310546875 15.76806640625
-29.99462890625 60.7333984375 2.118408203125
18.9345703125 35.0723876953125 -9.0242919921875
-29.4775390625 -8.27001953125 13.1165771484375
-28.3359375 -17.7117919921875 2.32568359375
-26.292236328125 48.5614013671875 5.264404296875
-28.756591796875 0.058349609375 10.9359130859375
5.68359375 -18.888916015625 -10.1246337890625
-2.780029296875 48.462890625 5.6181640625
22.90380859375 33.87939453125 -9.468017578125
22.971435546875 20.52099609375 -12.7293701171875
1.001953125 35.040771484375 -19.28271484375
-31.82666015625 63.367431640625 10.6363525390625
6.3662109375 28.262939453125 -5.781005859375
-28.636962890625 -2.60302734375 13.15673828125
-29.750244140625 -8.2547607421875 10.2235107421875
-29.546630859375 63.053955078125 10.2257080078125
6.431396484375 19.064697265625 9.1505126953125
1.251953125 -17.846923828125 -10.9808349609375
10.866455078125 36.005615234375 -3.6668701171875
-1.949951171875 19.8321533203125 24.33154296875
-5.031494140625 53.04296875 9.8651123046875
-27.6826171875 2.000732421875 10.9815673828125
-34.62841796875 53.5760498046875 19.6317138671875
-5.279052734375 57.5758056640625 12.3936767578125
10.44580078125 38.29052734375 -1.769287109375
24.889404296875 -26.71044921875 -5.30810546875
6.25732421875 15.11181640625 5.82275390625
-36.4609375 57.9066162109375 13.7384033203125
6.13623046875 18.0028076171875 6.75537109375
-7.4052734375 5.46533203125 9.9888916015625
-36.763671875 54.5093994140625 4.048583984375
-5.267578125 48.376953125 18.7879638671875
-11.054931640625 5.1744384765625 11.6793212890625
6.342041015625 16.769287109375 4.665771484375
-5.2998046875 59.160400390625 11.5946044921875
-41.753662109375 -25.4715576171875 12.2034912109375
-1.47119140625 23.8343505859375 23.087158203125
19.2294921875 31.4107666015625 -13.067138671875
25.219482421875 47.865234375 -21.30712890625
-27.8818359375 48.4305419921875 5.42431640625
6.587646484375 12.577392578125 21.0245361328125
15.38134765625 29.93212890625 -13.6312255859375
-4.310546875 35.4560546875 -24.2607421875
7.677001953125 29.7060546875 -5.8387451171875
9.218017578125 31.21240234375 -7.589599609375
11.166259765625 28.6976318359375 -12.7056884765625
12.388671875 30.1715087890625 -12.371826171875
8.693603515625 32.790283203125 -4.97607421875
11.748291015625 32.9210205078125 -8.1134033203125
-13.702880859375 5.3568115234375 11.301025390625
-2.49267578125 55.484619140625 -2.3890380859375
26.4873046875 35.062255859375 -8.444091796875
-4.149658203125 42.133056640625 16.9932861328125
4.3564453125 15.910888671875 24.991943359375
-29.883544921875 58.162353515625 0.890380859375
-22.770263671875 47.28125 5.863525390625
7.064697265625 39.2081298828125 2.069580078125
-37.018310546875 -13.4781494140625 3.377685546875
0.27197265625 31.2298583984375 17.572998046875
-5.2412109375 51.9066162109375 18.3857421875
13.98193359375 40.663818359375 -3.02587890625
-4.74658203125 44.808349609375 15.83935546875
19.5283203125 17.289306640625 -15.044677734375
-32.867431640625 48.5936279296875 5.5047607421875
3.81396484375 33.2926025390625 -14.320068359375
-1.248291015625 35.0460205078125 -18.533447265625
-4.177490234375 46.351806640625 11.759033203125
6.609619140625 26.8541259765625 11.607421875
-6.068603515625 35.9720458984375 -23.10986328125
6.758544921875 29.10888671875 -3.3194580078125
7.6015625 34.1605224609375 -0.74560546875
-2.138427734375 -18.4786376953125 -7.5723876953125
25.21923828125 32.9810791015625 -8.989013671875
-24.86572265625 51.377197265625 4.130615234375
4.476806640625 24.5924072265625 19.506591796875
-1.221435546875 55.4158935546875 -4.7987060546875
1.940673828125 54.72802734375 -8.6419677734375
28.217041015625 -33.733154296875 2.0950927734375
17.502685546875 18.25146484375 -14.5028076171875
6.163330078125 6.2861328125 11.10888671875
-2.405029296875 -26.5325927734375 -1.6138916015625
-30.2822265625 -22.0574951171875 12.1544189453125
-2.06640625 35.7864990234375 17.458984375
-23.282958984375 58.5035400390625 1.3760986328125
6.262451171875 26.5814208984375 1.1556396484375
6.202392578125 36.94384765625 5.3974609375
-0.75048828125 36.1689453125 -20.5067138671875
-30.57275390625 -20.59619140625 9.9676513671875
-28.9248046875 -20.453369140625 3.7352294921875
6.389404296875 16.7703857421875 9.7139892578125
-36.097900390625 57.01904296875 5.689697265625
-4.85498046875 49.67919921875 11.151123046875
6.37939453125 32.1695556640625 3.625732421875
-22.5556640625 60.1494140625 0.916259765625
-4.255126953125 32.133544921875 -12.982421875
0.5078125 44.486572265625 3.280029296875
6.0966796875 14.185302734375 4.7952880859375
-13.615234375 35.7396240234375 -19.4825439453125
-27.03125 50.8638916015625 4.1966552734375
0.716796875 51.9091796875 -5.75341796875
4.4619140625 32.2821044921875 -11.867919921875
0.462646484375 48.3333740234375 -0.7357177734375
-4.094970703125 45.120849609375 13.296630859375
-24.0927734375 64.014404296875 10.7578125
4.727783203125 32.07421875 11.4979248046875
-38.96044921875 53.176513671875 4.9217529296875
-23.0458984375 61.911376953125 2.380859375
-2.879150390625 50.4796142578125 3.7276611328125
26.305908203125 -27.2279052734375 -3.604248046875
6.67919921875 33.8609619140625 3.4403076171875
-28.090576171875 -10.9061279296875 2.5947265625
-3.32080078125 32.6170654296875 -10.1820068359375
-6.10205078125 6.3453369140625 9.71923828125
-29.937255859375 -10.8974609375 5.40185546875
-25.4931640625 63.78564453125 10.1658935546875
5.4404296875 26.697265625 16.648681640625
-41.894287109375 -20.0760498046875 6.44482421875
6.562255859375 11.9515380859375 18.02294921875
-4.838623046875 46.8648681640625 13.8818359375
6.407470703125 16.4195556640625 13.5682373046875
-11.093017578125 35.71923828125 -19.651611328125
28.031982421875 -27.281494140625 -5.240478515625
-38.444091796875 55.36279296875 10.5592041015625
28.859619140625 -38.0172119140625 7.4197998046875
-23.215576171875 64.1864013671875 9.8045654296875
6.4296875 17.81884765625 8.3409423828125
6.095458984375 18.80029296875 4.1048583984375
-31.296142578125 62.9197998046875 6.8067626953125
6.564697265625 21.8221435546875 17.1536865234375
-42.498291015625 -17.9403076171875 2.4742431640625
-3.344970703125 35.30322265625 -19.5406494140625
28.091552734375 -28.170166015625 -2.5211181640625
-3.69677734375 55.169677734375 1.1114501953125
-28.001220703125 -9.3094482421875 21.2718505859375
29.081298828125 -35.068115234375 4.4071044921875
-2.108154296875 54.10009765625 -1.995361328125
-6.7451171875 36.2464599609375 -20.1256103515625
25.3935546875 43.2939453125 -16.751953125
6.05029296875 26.0382080078125 15.400146484375
-31.88330078125 -15.2161865234375 5.1080322265625
-19.29736328125 50.5618896484375 3.31298828125
6.5322265625 18.96923828125 14.30029296875
-31.984130859375 61.208984375 0.465576171875
-16.63427734375 33.7183837890625 -19.0699462890625
-5.406494140625 59.4671630859375 8.297119140625
6.378173828125 16.0679931640625 12.330078125
-31.2197265625 52.5867919921875 3.88232421875
-38.44921875 56.0548095703125 12.81298828125
6.08642578125 29.1190185546875 11.684814453125
6.575439453125 22.5052490234375 14.5281982421875
-19.3583984375 49.065673828125 4.01416015625
21.3359375 21.2674560546875 -11.0501708984375
-39.034912109375 55.883056640625 14.352783203125
-33.0869140625 62.1058349609375 12.8289794921875
-5.306396484375 30.2783203125 -15.2261962890625
6.5478515625 16.1103515625 16.55712890625
4.884765625 19.40771484375 22.63330078125
27.821533203125 36.0531005859375 -6.51953125
-35.7138671875 59.951904296875 3.093505859375
-33.36328125 -6.9063720703125 7.9423828125
6.323486328125 20.953125 8.244384765625
-23.931884765625 47.01513671875 6.306396484375
4.056396484375 -19.266357421875 -7.4410400390625
-15.514404296875 22.4002685546875 -19.2447509765625
-41.94091796875 -22.8385009765625 9.061279296875
5.113037109375 -19.3631591796875 -5.593505859375
-36.461181640625 54.3663330078125 18.257080078125
-38.699951171875 49.8365478515625 5.0216064453125
20.004638671875 -26.9866943359375 -5.7476806640625
-30.08984375 -11.6171875 3.8370361328125
-35.4541015625 61.913818359375 8.671630859375
34.6728515625 46.8519287109375 -23.435791015625
6.539794921875 13.683349609375 20.016357421875
22.394287109375 -27.2821044921875 -5.1435546875
-4.82373046875 46.029296875 17.0068359375
-35.452880859375 61.219970703125 6.4417724609375
-9.862548828125 5.739990234375 10.584716796875
-31.041015625 49.838134765625 4.912353515625
-0.184814453125 -5.472412109375 -9.8499755859375
-2.647216796875 41.7066650390625 12.04736328125
6.297119140625 21.9892578125 4.5811767578125
-22.40283203125 62.85693359375 12.2127685546875
-26.672119140625 63.8206787109375 12.1658935546875
-0.947998046875 42.07763671875 8.1864013671875
-17.135986328125 51.521240234375 4.3231201171875
6.318359375 27.9560546875 -4.337890625
6.57763671875 16.4632568359375 17.80322265625
17.627685546875 -27.0184326171875 -5.29052734375
-23.951904296875 62.3154296875 3.885498046875
-26.897216796875 43.34765625 7.1131591796875
6.4921875 25.1629638671875 13.2545166015625
6.40087890625 27.5333251953125 4.8402099609375
-2.40625 49.029052734375 3.7576904296875
2.844482421875 34.150390625 -16.830322265625
-27.63330078125 42.097900390625 6.0540771484375
-27.804931640625 63.4742431640625 10.45947265625
-33.761962890625 63.2510986328125 10.5731201171875
-29.091796875 61.4473876953125 6.080810546875
-4.052001953125 9.307373046875 8.3836669921875
3.383544921875 22.8619384765625 21.676025390625
-3.493896484375 55.7921142578125 0.03955078125
6.345947265625 10.228759765625 9.4228515625
10.319091796875 39.84521484375 -1.63671875
6.43603515625 28.8231201171875 5.173095703125
-21.8994140625 4.091796875 12.69140625
2.312255859375 -18.64599609375 -4.74853515625
-32.074462890625 60.728515625 16.2733154296875
-38.21923828125 54.1636962890625 6.517578125
1.068359375 -19.5709228515625 -4.8837890625
-2.732666015625 -23.3150634765625 -6.7525634765625
-33.81201171875 61.4427490234375 14.5538330078125
27.549072265625 36.8541259765625 -8.308837890625
-36.33740234375 49.45263671875 4.2252197265625
-30.94580078125 -7.515625 7.96240234375
18.866943359375 32.926025390625 -11.22216796875
6.073486328125 11.3009033203125 23.267822265625
-31.772705078125 61.9468994140625 3.6214599609375
-5.12353515625 57.16748046875 15.797119140625
6.3193359375 15.366455078125 9.8590087890625
-2.896728515625 22.9185791015625 24.2462158203125
24.346435546875 30.19921875 -12.171875
-31.616455078125 -15.25146484375 7.9906005859375
6.470947265625 23.958984375 15.18603515625
6.40576171875 7.9287109375 11.870849609375
6.39599609375 8.465576171875 15.344970703125
16.11865234375 30.64306640625 -12.7418212890625
-4.0234375 8.8541259765625 7.22900390625
-35.233154296875 53.6729736328125 2.6485595703125
-5.34814453125 61.8299560546875 12.0101318359375
-22.66796875 3.4970703125 11.6962890625
-1.91015625 51.9302978515625 -0.0137939453125
5.688232421875 22.586669921875 19.6343994140625
-2.086669921875 42.7352294921875 10.02197265625
-0.1904296875 27.4248046875 21.031982421875
6.52587890625 6.3043212890625 16.858154296875
13.614013671875 30.440673828125 -12.8411865234375
-8.4638671875 36.1649169921875 -19.556396484375
-33.84228515625 62.38134765625 7.0894775390625
-1.432373046875 52.1497802734375 -1.2042236328125
-35.88818359375 59.2803955078125 12.872314453125
2.48681640625 -5.776611328125 -9.063720703125
-5.071533203125 50.5078125 14.6661376953125
6.399169921875 23.292236328125 7.216552734375
-28.548828125 -12.6097412109375 0.8819580078125
-5.168701171875 52.67578125 14.8873291015625
-29.933837890625 -10.5687255859375 6.622802734375
-5.40380859375 58.194580078125 10.6939697265625
-2.699462890625 51.414306640625 1.6114501953125
-0.760986328125 34.3057861328125 -13.7039794921875
-30.883056640625 63.7911376953125 13.077880859375
-2.38671875 40.3798828125 12.8114013671875
-30.5205078125 -9.5 6.7830810546875
-0.808349609375 30.068359375 20.3800048828125
6.04541015625 34.330810546875 8.335205078125
-34.7158203125 56.3394775390625 2.421142578125
-21.781494140625 45.075927734375 5.232421875
-32.32421875 53.244140625 3.4400634765625
6.153564453125 24.2049560546875 2.61962890625
6.54638671875 22.30029296875 10.016357421875
11.88720703125 38.3917236328125 -2.9451904296875
-14.812744140625 34.1444091796875 -21.4267578125
-2.317626953125 9.5020751953125 5.41943359375
-31.0693359375 -12.303466796875 8.2708740234375
6.52978515625 17.38720703125 20.14892578125
-16.189697265625 5.019775390625 11.6905517578125
-28.708251953125 -5.7078857421875 13.198486328125
6.2470703125 28.1007080078125 -1.7640380859375
-25.6494140625 43.423583984375 6.804443359375
8.2412109375 35.30419921875 -0.972412109375
28.987548828125 -31.5133056640625 1.0487060546875
-25.082763671875 49.378173828125 5.0140380859375
5.794921875 20.68896484375 20.5830078125
-30.461181640625 -15.01025390625 16.2696533203125
6.373779296875 19.44873046875 10.7833251953125
-1.6748046875 20.9825439453125 23.9058837890625
6.50634765625 13.96044921875 13.814453125
2.896728515625 -7.22412109375 -9.2000732421875
0.3818359375 36.081298828125 12.11279296875
6.47998046875 26.42431640625 8.5535888671875
-7.066162109375 27.5555419921875 -10.47412109375
-26.046142578125 45.668212890625 6.3798828125
2.018798828125 -19.168701171875 -8.7708740234375
-2.962890625 33.9761962890625 -17.097412109375
6.474365234375 25.61474609375 6.196044921875
-5.28564453125 55.12841796875 14.0555419921875
-28.490966796875 -5.2403564453125 6.6707763671875
-36.010009765625 58.6649169921875 6.615234375
-1.4228515625 41.68505859375 9.94189453125
-27.707275390625 -5.0118408203125 17.0360107421875
0.709716796875 23.344482421875 22.5035400390625
22.552734375 29.7333984375 -13.1700439453125
-33.331298828125 50.3328857421875 4.836669921875
21.220947265625 34.4151611328125 -9.529541015625
0.0673828125 34.9132080078125 -15.764892578125
-21.1279296875 46.9697265625 4.6219482421875
-33.061767578125 -13.91845703125 3.539794921875
6.27783203125 28.704345703125 -6.8963623046875
16.229248046875 18.1632080078125 -14.5511474609375
29.167236328125 -34.1707763671875 3.6058349609375
6.572509765625 31.5279541015625 4.904541015625
3.640380859375 32.1884765625 12.3033447265625
-40.819091796875 -7.9246826171875 8.1612548828125
-12.078369140625 5.845458984375 10.4429931640625
2.996337890625 34.2440185546875 -18.0960693359375
4.26708984375 33.185791015625 -16.6751708984375
6.38525390625 18.1343994140625 15.54443359375
-33.7451171875 45.663818359375 6.1044921875
-2.363525390625 34.9080810546875 -18.9520263671875
6.22900390625 23.88232421875 16.95703125
6.3740234375 12.475830078125 6.5928955078125
-2.056396484375 10.847412109375 4.47900390625
5.776611328125 30.3564453125 -10.030517578125
-28.182373046875 -3.18701171875 14.5643310546875
-20.46728515625 49.5013427734375 4.139404296875
0.872314453125 35.2939453125 -16.87255859375
-33.865478515625 -6.9288330078125 6.358154296875
3.56396484375 36.3916015625 -21.756591796875
-29.25537109375 -10.3433837890625 2.7303466796875
-4.512939453125 49.5277099609375 9.6068115234375
-30.40625 -13.23681640625 13.611328125
-0.552978515625 45.258056640625 4.196533203125
-35.851318359375 55.9356689453125 3.349609375
-0.607666015625 44.3165283203125 5.5023193359375
-5.365966796875 21.914794921875 24.012939453125
12.388916015625 28.6849365234375 -14.8074951171875
3.952880859375 18.303955078125 24.127197265625
19.404541015625 37.7852783203125 -6.015625
-3.1201171875 -27.365234375 -2.492431640625
-3.165283203125 46.2010498046875 8.7401123046875
1.283935546875 36.7137451171875 -22.0025634765625
-35.599853515625 61.0721435546875 7.7381591796875
-4.87109375 48.655517578125 12.53857421875
-37.382568359375 -6.6053466796875 6.41162109375
14.88525390625 18.633056640625 -13.5347900390625
-3.373046875 49.240234375 6.2938232421875
2.72509765625 26.852783203125 18.99169921875
13.355712890625 37.131591796875 -4.393798828125
-0.7783203125 37.9854736328125 12.0146484375
11.309814453125 31.772705078125 -9.1278076171875
8.7236328125 34.3447265625 -2.9930419921875
14.57080078125 35.39501953125 -7.9608154296875
13.119384765625 32.08544921875 -10.68115234375
29.59326171875 -29.725341796875 -0.364013671875
7.095458984375 35.5753173828125 2.401123046875
5.841552734375 17.90673828125 22.3909912109375
10.17626953125 36.1641845703125 -2.7139892578125
12.025390625 37.0587158203125 -4.0633544921875
-0.328125 47.809326171875 0.8984375
-40.818603515625 -16.31787109375 2.4971923828125
6.302978515625 21.9217529296875 18.3768310546875
-5.297607421875 59.8272705078125 14.372802734375
-2.4853515625 33.2291259765625 -12.2550048828125
-7.8642578125 27.5098876953125 -8.18701171875
-30.234130859375 -13.4647216796875 5.059326171875
-30.05810546875 -7.927978515625 6.7314453125
6.459716796875 12.8048095703125 23.683349609375
-22.263671875 63.6923828125 8.360107421875
7.286865234375 29.944091796875 -4.342529296875
-21.25439453125 61.55126953125 5.1719970703125
-29.973388671875 42.470458984375 6.48486328125
18.0283203125 17.62646484375 -15.3564453125
-6.16455078125 28.587890625 -11.8359375
8.2646484375 29.7501220703125 -6.9276123046875
-0.900146484375 -18.3397216796875 -9.8466796875
-2.2138671875 -18.6915283203125 -8.8807373046875
-5.544921875 63.645263671875 14.10205078125
17.9384765625 29.5113525390625 -14.1322021484375
-5.310791015625 56.0521240234375 7.815185546875
-30.809814453125 -15.43896484375 6.605712890625
18.180908203125 32.1112060546875 -12.0482177734375
8.557373046875 31.7220458984375 -5.451171875
18.55322265625 21.504150390625 -11.4227294921875
17.59423828125 30.574462890625 -13.40576171875
-30.427978515625 -12.4110107421875 1.31884765625
-2.6513671875 -26.15625 -3.71875
-20.89404296875 61.6820068359375 7.4559326171875
26.55908203125 -28.956298828125 -1.8817138671875
-2.90673828125 35.0509033203125 -16.248291015625
-5.3232421875 35.8670654296875 -19.7774658203125
-29.590576171875 -6.1630859375 6.1375732421875
-38.716796875 -13.8626708984375 0.5286865234375
6.47998046875 20.1700439453125 18.3529052734375
25.086669921875 -27.7415771484375 -2.950439453125
-30.205322265625 -12.65185546875 2.8861083984375
7.500244140625 41.6331787109375 0.7159423828125
-34.915771484375 61.2406005859375 12.3414306640625
-21.24951171875 50.5767822265625 4.9788818359375
13.946044921875 38.8880615234375 -4.02392578125
1.105224609375 18.404541015625 24.60498046875
-5.025634765625 54.8465576171875 8.10009765625
-4.951904296875 51.1871337890625 11.2579345703125
-39.68408203125 50.9486083984375 4.8306884765625
6.602294921875 16.6739501953125 3.4598388671875
-32.301025390625 -12.2130126953125 1.754150390625
-3.74755859375 33.939697265625 -14.8416748046875
-29.67919921875 -11.7808837890625 6.374755859375
36.878662109375 45.934814453125 -21.7366943359375
-5.352294921875 58.7861328125 16.2098388671875
-22.128173828125 63.780029296875 9.68994140625
-5.378662109375 58.3740234375 7.0869140625
-36.799072265625 57.340087890625 15.178955078125
-23.802490234375 49.2177734375 5.2808837890625
-35.2666015625 60.9337158203125 4.1026611328125
6.494140625 19.332275390625 13.192138671875
2.64990234375 37.646484375 8.3720703125
0.307861328125 42.116943359375 5.630615234375
-20.138427734375 54.1781005859375 2.875732421875
-39.677978515625 50.7276611328125 9.7215576171875
-18.622802734375 4.7645263671875 11.603759765625
10.74853515625 38.0836181640625 -2.8712158203125
-33.594970703125 55.11865234375 2.3021240234375
0.0478515625 55.347412109375 -7.2039794921875
-0.417236328125 32.108154296875 -7.806640625
-27.783203125 61.64208984375 16.6910400390625
6.0625 23.4334716796875 0.6728515625
17.044677734375 36.9757080078125 -7.572509765625
-29.62744140625 -3.3026123046875 9.3599853515625
5.318603515625 24.99951171875 18.3184814453125
-26.07177734375 63.563232421875 14.360595703125
15.09521484375 33.8172607421875 -10.5743408203125
-5.42333984375 57.18896484375 9.4112548828125
-0.26904296875 39.12890625 9.90625
6.317626953125 24.977294921875 -1.2432861328125
-1.45556640625 35.7177734375 -17.1964111328125
-5.297119140625 59.6019287109375 4.3345947265625
-32.43896484375 44.0179443359375 6.2596435546875
0.828125 34.57568359375 -11.3961181640625
-29.513916015625 -19.8514404296875 13.3565673828125
-0.10400390625 -4.033203125 -9.9620361328125
26.815185546875 34.912841796875 -6.90869140625
-3.955810546875 48.030029296875 9.263916015625
-4.628173828125 36.5950927734375 -21.490234375
-29.298583984375 59.161865234375 1.107421875
-0.90673828125 -19.5908203125 -6.151123046875
-39.16650390625 -15.1021728515625 3.5975341796875
-3.160400390625 56.2822265625 -1.3402099609375
-28.631591796875 63.917724609375 13.7344970703125
0.691162109375 -18.7890625 -9.921875
-33.921875 58.7196044921875 17.2620849609375
6.626953125 8.6824951171875 7.9345703125
15.4208984375 -26.313232421875 -5.527587890625
25.377197265625 33.8931884765625 -7.9774169921875
-7.861328125 35.7667236328125 -21.6717529296875
-23.88525390625 44.724365234375 6.5814208984375
-36.260498046875 57.763671875 10.85888671875
-41.899169921875 -16.70654296875 2.638671875
16.8720703125 20.8443603515625 -12.2947998046875
-26.9814453125 1.8397216796875 10.0137939453125
17.918701171875 22.5848388671875 -11.69482421875
-23.9013671875 3.044921875 12.709228515625
-38.42236328125 -14.977783203125 -0.1917724609375
-35.875244140625 58.377685546875 8.99658203125
5.778076171875 4.1005859375 15.6495361328125
5.869384765625 30.22900390625 11.5234375
-4.185791015625 32.3109130859375 -16.4791259765625
-23.31884765625 61.3291015625 1.2471923828125
-16.483154296875 32.8157958984375 -21.575439453125
-15.8232421875 34.5904541015625 -19.5201416015625
-27.87451171875 55.6920166015625 2.2490234375
17.898193359375 25.0020751953125 -12.7098388671875
-36.080810546875 56.9947509765625 7.873291015625
6.075439453125 20.6485595703125 2.8189697265625
-38.018798828125 50.808349609375 4.868408203125
-35.637451171875 60.4671630859375 5.4444580078125
-5.180419921875 30.2578125 -13.434814453125
-36.08056640625 60.019775390625 9.3389892578125
-33.33740234375 60.14501953125 0.330810546875
-1.147216796875 24.867919921875 22.740966796875
2.8798828125 20.1993408203125 23.6480712890625
-35.42919921875 48.367431640625 4.786865234375
-27.422607421875 58.1070556640625 0.8388671875
-1.8876953125 -24.6771240234375 -2.6275634765625
18.060302734375 -26.43896484375 -4.4154052734375
-0.79541015625 -18.55029296875 -7.444091796875
6.38232421875 31.6484375 8.3748779296875
0.24462890625 34.414306640625 -12.4481201171875
-4.428466796875 55.7171630859375 3.5640869140625
-28.005615234375 59.0721435546875 0.9305419921875
-23.185546875 63.274169921875 12.914794921875
7.416015625 37.9974365234375 1.890380859375
6.81396484375 36.5299072265625 3.1793212890625
6.274658203125 25.4674072265625 2.558837890625
-29.396240234375 -7.05224609375 11.666259765625
23.208740234375 36.9072265625 -6.6466064453125
25.20361328125 -26.769287109375 -4.2244873046875
9.4853515625 37.5218505859375 -0.966552734375
6.703857421875 30.703857421875 -0.93603515625
-26.343505859375 3.2847900390625 11.458740234375
-1.05712890625 35.442626953125 -16.0477294921875
-4.1083984375 43.4051513671875 14.5789794921875
9.62646484375 30.806396484375 -8.5582275390625
11.98046875 30.57763671875 -11.4031982421875
9.9287109375 32.090087890625 -7.220947265625
-18.345947265625 54.79638671875 4.7467041015625
2.0283203125 20.9395751953125 23.3558349609375
-17.525634765625 52.9952392578125 3.8502197265625
-2.569091796875 -20.129638671875 -9.80419921875
-20.826904296875 52.41015625 3.410400390625
5.4091796875 33.7001953125 9.2391357421875
-33.79150390625 -13.5625 2.1456298828125
23.42333984375 29.0264892578125 -12.953125
-35.99462890625 59.3382568359375 11.042724609375
-5.1611328125 55.617919921875 5.8958740234375
-4.112060546875 58.2685546875 -0.55810546875
-2.910888671875 46.753662109375 7.7049560546875
4.764892578125 23.1749267578125 20.3165283203125
-30.375244140625 -14.1029052734375 1.1885986328125
23.4580078125 34.835693359375 -8.3109130859375
-32.8076171875 61.990478515625 4.7984619140625
-5.126708984375 50.090087890625 16.645751953125
1.717041015625 -19.9512939453125 -7.2078857421875
-38.97998046875 -17.1331787109375 5.5130615234375
-5.271240234375 61.9573974609375 13.7581787109375
5.612548828125 12.923828125 25.592041015625
7.3359375 -18.22265625 -6.5211181640625
6.21630859375 17.0001220703125 7.2421875
6.313720703125 10.3936767578125 22.39013671875
7.7294921875 -19.77099609375 -11.2235107421875
-28.7822265625 52.607421875 3.7725830078125
-40.391845703125 -15.4803466796875 0.5052490234375
-28.6767578125 -0.8291015625 8.6502685546875
-2.725341796875 44.6671142578125 9.23974609375
-17.905517578125 50.7154541015625 4.3458251953125
4.844482421875 14.197998046875 25.568603515625
-24.667724609375 63.713623046875 12.807861328125
21.555419921875 17.5628662109375 -14.766845703125
5.76220703125 15.502685546875 23.4937744140625
-7.4111328125 28.3663330078125 -8.8026123046875
-29.832275390625 53.9525146484375 3.017822265625
22.7294921875 19.633056640625 -13.3536376953125
6.917724609375 7.145751953125 22.2977294921875
-31.950439453125 61.3306884765625 2.1307373046875
-4.341064453125 57.4564208984375 1.46044921875
6.222412109375 6.9825439453125 13.60986328125
-29.479248046875 -3.38232421875 6.7322998046875
-16.95849609375 5.1417236328125 10.821533203125
-3.34912109375 53.076416015625 1.8331298828125
25.554931640625 29.1142578125 -12.541015625
-25.968505859375 61.31591796875 2.5291748046875
-23.873046875 50.1949462890625 4.763671875
-2.51123046875 -24.0118408203125 -5.918701171875
-24.114990234375 62.8814697265625 5.245849609375
-5.24462890625 53.2227783203125 15.923095703125
-30.586669921875 -22.855224609375 11.44970703125
24.821533203125 31.191650390625 -10.61865234375
-25.7314453125 62.5478515625 6.33837890625
-29.401611328125 50.6640625 4.4373779296875
-5.16015625 55.153076171875 15.8951416015625
6.40185546875 13.37060546875 21.9764404296875
-29.45263671875 63.7161865234375 12.106689453125
2.7734375 33.6314697265625 -14.4801025390625
-16.75634765625 53.652587890625 4.3363037109375
-31.716796875 -14.414306640625 4.36572265625
-22.33837890625 51.944580078125 4.211181640625
-31.866455078125 51.3758544921875 4.603271484375
-0.5673828125 -24.857177734375 -2.0037841796875
23.2578125 -26.679931640625 -4.101318359375
-3.85791015625 49.6756591796875 7.626708984375
26.87353515625 47.3724365234375 -21.2740478515625
-23.24951171875 52.9373779296875 3.7122802734375
-2.063720703125 35.7939453125 -23.877685546875
-25.298095703125 43.126708984375 5.8033447265625
-37.228515625 47.4222412109375 4.3720703125
-3.32568359375 50.9698486328125 4.60498046875
-31.61376953125 61.5130615234375 15.656494140625
-31.92333984375 -7.5390625 6.6153564453125
6.4677734375 34.5526123046875 4.8226318359375
-4.802001953125 51.4114990234375 9.4404296875
-32.279296875 62.7999267578125 5.9403076171875
6.298828125 23.221923828125 5.3868408203125
4.839111328125 -6.9664306640625 -8.5013427734375
-35.9990234375 59.3885498046875 15.3856201171875
-3.35009765625 51.923583984375 3.69775390625
-27.00439453125 61.920654296875 6.453369140625
20.736328125 35.611572265625 -8.4815673828125
-25.671142578125 63.43505859375 7.6484375
-30.5576171875 -20.1739501953125 8.8590087890625
-35.7451171875 -7.1348876953125 7.864013671875
6.09326171875 26.7816162109375 -1.247314453125
-4.61669921875 43.4688720703125 17.468994140625
-36.11328125 58.0340576171875 2.583740234375
-4.005615234375 21.79638671875 24.259521484375
0.06494140625 28.7255859375 20.062744140625
