-9.586669921875 -7.1494140625 -1.88720703125
3.233642578125 40.0860595703125 -22.2413330078125
12.297607421875 -17.8109130859375 14.0162353515625
-55.693359375 18.8912353515625 16.788330078125
24.51611328125 -3.46728515625 -10.7730712890625
-27.049560546875 2.971435546875 10.751953125
-21.931640625 23.7840576171875 -21.0330810546875
-23.675537109375 -11.81884765625 28.0810546875
42.285888671875 4.2088623046875 -14.4696044921875
-29.394775390625 34.65869140625 1.046630859375
-54.5673828125 -9.71533203125 24.6934814453125
-49.297607421875 34.7606201171875 -8.0672607421875
10.117919921875 2.18359375 9.634521484375
-12.16357421875 -22.0615234375 21.927490234375
-36.202392578125 -12.1566162109375 16.6248779296875
-79.3720703125 2.826904296875 11.5218505859375
4.919677734375 -11.0809326171875 1.6669921875
86.899169921875 -1.2728271484375 14.4959716796875
3.628662109375 3.2244873046875 -26.8492431640625
46.423583984375 8.2247314453125 2.1878662109375
-69.740966796875 18.8681640625 17.19775390625
-52.51220703125 10.2227783203125 2.794189453125
10.604248046875 -9.307373046875 26.590576171875
-4.35595703125 4.5501708984375 -14.963623046875
-27.1162109375 21.336669921875 2.5321044921875
-24.102783203125 -5.9990234375 -0.1341552734375
-60.404052734375 -1.2374267578125 15.6806640625
89.01171875 -17.724609375 -1.5299072265625
47.009521484375 -15.3524169921875 15.014892578125
62.331787109375 -11.7747802734375 24.86865234375
-56.306640625 32.427978515625 2.4071044921875
-70.8740234375 33.140869140625 -6.9613037109375
-36.408203125 1.5228271484375 1.775146484375
-8.927001953125 -13.143310546875 8.96044921875
16.494873046875 -8.265380859375 -2.4884033203125
47.2724609375 -1.6973876953125 9.27783203125
-21.307861328125 -4.416748046875 18.80615234375
46.63818359375 -26.7347412109375 33.3773193359375
74.15869140625 -21.1881103515625 17.5743408203125
-45.66259765625 17.8326416015625 10.1641845703125
13.70166015625 1.73779296875 -10.3681640625
-78.485107421875 25.8099365234375 10.4647216796875
-24.56494140625 40.894287109375 -14.2491455078125
8.664794921875 -25.57080078125 29.3807373046875
-37.933349609375 33.890869140625 -7.5811767578125
89.69482421875 -23.3460693359375 12.862060546875
68.267333984375 -3.030029296875 14.12890625
-17.261962890625 38.765869140625 -0.013671875
-52.023681640625 41.6500244140625 -16.1217041015625
82.93798828125 -9.04541015625 8.1983642578125
9.491943359375 -7.2635498046875 14.723876953125
-11.0009765625 2.6788330078125 -5.869384765625
-22.446044921875 7.4718017578125 -27.7452392578125
-44.98583984375 -6.8787841796875 21.149169921875
10.55126953125 36.813232421875 -15.3878173828125
-27.98046875 10.847900390625 2.0701904296875
53.04345703125 3.5899658203125 -11.6407470703125
68.779296875 -24.3997802734375 26.3731689453125
-35.1435546875 -1.9822998046875 16.221923828125
36.531494140625 0.5189208984375 11.4552001953125
-60.6611328125 33.1480712890625 -7.128173828125
0.1171875 1.81005859375 11.5054931640625
-21.29443359375 25.203857421875 12.0291748046875
50.905029296875 -10.59716796875 6.056640625
-61.869384765625 24.8028564453125 11.408447265625
-38.0537109375 23.582763671875 2.8082275390625
50.560791015625 -6.2225341796875 19.984375
19.58935546875 -23.8427734375 16.9796142578125
-70.865234375 -0.9783935546875 14.682373046875
6.4326171875 3.343017578125 -17.4228515625
80.978759765625 -29.405029296875 17.0823974609375
43.705810546875 -2.7774658203125 -7.03369140625
13.761474609375 -13.843505859375 5.517333984375
-52.440673828125 25.302734375 10.607421875
78.611083984375 0.328125 10.1910400390625
-54.3525390625 3.44580078125 10.1304931640625
-22.112060546875 31.2381591796875 -26.7333984375
-13.1474609375 -29.22607421875 28.9830322265625
-79.283203125 -2.926025390625 18.845947265625
-18.14404296875 -19.993896484375 28.72021484375
82.415771484375 -12.2513427734375 16.9835205078125
-43.025390625 7.647216796875 5.7784423828125
63.89697265625 -0.6273193359375 1.8426513671875
-19.39892578125 13.816650390625 -1.017578125
-15.899169921875 9.2772216796875 -11.4949951171875
-16.42041015625 -10.0408935546875 5.203369140625
74.17236328125 -16.46630859375 27.3896484375
-29.21923828125 35.3358154296875 -8.318359375
-19.010009765625 -16.26416015625 20.7747802734375
45.877197265625 -5.3392333984375 1.0555419921875
-62.853759765625 -7.443603515625 21.5194091796875
20.499267578125 -19.5982666015625 8.0369873046875
59.14404296875 -2.292724609375 -9.61572265625
-52.0419921875 -2.61083984375 16.4237060546875
12.4580078125 -23.61865234375 21.53271484375
-28.7431640625 -8.196044921875 19.8021240234375
7.136962890625 -11.08349609375 -6.43212890625
-43.816162109375 39.3704833984375 -12.4400634765625
83.1962890625 -11.49755859375 0.2008056640625
24.7763671875 -10.0794677734375 -4.0706787109375
-37.21337890625 32.447509765625 2.82275390625
-23.11474609375 31.3387451171875 6.771728515625
-32.743896484375 6.6937255859375 -3.529541015625
-35.450927734375 3.4197998046875 9.982666015625
-16.52880859375 25.1597900390625 -26.9932861328125
-4.900390625 4.593994140625 -23.338623046875
15.52099609375 1.99462890625 -18.94970703125
78.5810546875 -5.208984375 16.0352783203125
39.273193359375 5.8548583984375 5.3232421875
54.41748046875 -18.050048828125 14.3126220703125
-21.631103515625 6.921142578125 6.565185546875
-13.022216796875 -16.6583251953125 14.7078857421875
-24.48876953125 -1.712890625 -6.72265625
-72.52880859375 4.8863525390625 8.1251220703125
-16.4296875 -2.24658203125 -3.16552734375
88.68603515625 -19.98193359375 5.9051513671875
73.753662109375 -25.0960693359375 10.87158203125
46.7685546875 -19.4971923828125 22.4266357421875
19.2109375 35.977294921875 -15.637451171875
-32.078369140625 16.7198486328125 -1.213623046875
-69.87255859375 24.542236328125 10.7821044921875
4.64892578125 7.542724609375 4.880126953125
-38.272216796875 -11.5 23.94384765625
-46.4873046875 -10.63623046875 27.56982421875
21.862548828125 3.45556640625 -9.445068359375
-46.9521484375 16.723876953125 17.4903564453125
-21.43896484375 42.401611328125 -5.093505859375
64.352294921875 -7.467041015625 18.7552490234375
11.131103515625 2.2349853515625 -25.03125
4.904541015625 -11.1690673828125 9.167724609375
44.91943359375 4.0335693359375 -4.1866455078125
-5.244873046875 -6.77099609375 8.2711181640625
-20.5673828125 -0.1036376953125 12.3712158203125
-56.33642578125 38.244384765625 -11.36083984375
-21.662353515625 -7.1541748046875 10.142822265625
11.13623046875 40.857177734375 -21.4002685546875
-27.9150390625 -1.857666015625 16.2470703125
-8.986328125 9.5860595703125 -0.4537353515625
47.414306640625 -8.5382080078125 12.00830078125
-30.16015625 28.500732421875 4.674072265625
-43.326904296875 18.26318359375 3.4576416015625
-62.735595703125 19.772705078125 16.487060546875
-11.7646484375 5.379150390625 -20.1917724609375
-58.4580078125 7.4649658203125 5.7347412109375
-76.524658203125 17.5594482421875 18.4443359375
82.65185546875 -23.453369140625 10.94482421875
4.02685546875 -7.15478515625 26.4808349609375
-65.14697265625 2.107666015625 11.94140625
-44.644775390625 31.477294921875 -4.1773681640625
61.187744140625 3.472412109375 -14.8470458984375
-22.9814453125 -11.5985107421875 4.0723876953125
-30.62841796875 -15.5650634765625 18.586181640625
78.425537109375 -16.5570068359375 13.53662109375
-33.349365234375 -15.1605224609375 32.26123046875
10.294921875 -5.5648193359375 -8.8114013671875
-61.66845703125 29.678466796875 6.230712890625
-54.928466796875 31.1397705078125 -4.2154541015625
-6.71875 2.6993408203125 -0.6783447265625
-16.923583984375 3.039306640625 -9.3118896484375
51.24755859375 -28.8634033203125 29.1121826171875
78.021484375 -16.961669921875 20.908935546875
-49.754638671875 32.8726806640625 2.8746337890625
25.40869140625 -15.4022216796875 9.095703125
69.52490234375 -12.565673828125 24.310791015625
-20.47216796875 -9.8106689453125 22.3826904296875
19.94970703125 -3.926513671875 -6.1397705078125
45.13818359375 1.8460693359375 2.2183837890625
6.962890625 -7.6363525390625 20.6793212890625
6.640625 -1.11572265625 13.9879150390625
-38.45849609375 -6.161376953125 20.2850341796875
-30.457763671875 1.4481201171875 4.2684326171875
-23.103515625 35.732177734375 1.63232421875
0.695068359375 3.9111328125 -20.120849609375
43.204345703125 -2.90625 14.8502197265625
-48.662353515625 5.2879638671875 8.0928955078125
83.880615234375 -16.0784912109375 4.49072265625
19.1318359375 -11.761962890625 2.024169921875
-45.98779296875 11.1949462890625 1.560546875
72.3251953125 -26.5369873046875 20.9677734375
-44.792236328125 23.9249267578125 9.1524658203125
-56.97119140625 -6.045166015625 20.0399169921875
83.68359375 -5.937255859375 2.9102783203125
1.97998046875 -0.1629638671875 -14.2061767578125
-74.77392578125 21.70263671875 14.2222900390625
11.615478515625 -10.415283203125 0.5869140625
-30.9638671875 38.91650390625 -13.0045166015625
52.622314453125 -7.917724609375 0.5859375
-49.0185546875 21.7147216796875 14.5565185546875
-22.3173828125 34.6920166015625 -31.8040771484375
-74.43798828125 29.469970703125 6.240234375
61.84619140625 -3.4874267578125 14.8887939453125
-66.278564453125 35.7125244140625 -10.0028076171875
47.2939453125 2.0223388671875 -9.40087890625
-22.343505859375 -9.6065673828125 15.6270751953125
-67.627685546875 -4.6783447265625 18.58837890625
8.97802734375 -1.5767822265625 -13.4202880859375
-38.006103515625 7.852294921875 1.427734375
46.59423828125 -23.8353271484375 28.122314453125
-81.754638671875 22.396484375 14.3975830078125
-16.5966796875 -24.8834228515625 24.767578125
18.484130859375 -1.4588623046875 -11.97314453125
49.380126953125 6.2208251953125 -15.5045166015625
-25.781494140625 15.5172119140625 -0.8232421875
72.752685546875 0.60205078125 10.0426025390625
88.994873046875 -11.0694580078125 -0.47509765625
-17.69921875 34.5787353515625 4.0394287109375
-9.189208984375 -11.9930419921875 3.25
-27.495361328125 -13.0880126953125 22.8238525390625
-16.907470703125 6.2579345703125 -22.76708984375
51.4677734375 -20.9476318359375 18.3934326171875
-55.50927734375 29.14013671875 7.5107421875
13.227783203125 -29.995849609375 28.40869140625
-15.559814453125 -16.02587890625 9.5465087890625
-17.637939453125 -6.1654052734375 1.1080322265625
-17.324951171875 -21.826171875 34.8173828125
-32.666748046875 22.799072265625 0.9500732421875
70.07958984375 -7.211669921875 18.6414794921875
83.85107421875 -6.141845703125 13.9962158203125
-25.488525390625 24.942626953125 6.62060546875
42.908935546875 1.936279296875 9.568603515625
80.433837890625 -14.2056884765625 8.605224609375
57.24560546875 -13.79833984375 16.7451171875
-9.65625 -2.5286865234375 -7.606201171875
-65.333251953125 31.640380859375 -4.329833984375
-42.107666015625 -2.5391845703125 16.7462158203125
-18.047607421875 29.455322265625 -30.317626953125
13.9931640625 -19.103759765625 7.53369140625
-2.24462890625 4.74755859375 7.3212890625
9.393310546875 -13.70849609375 11.4263916015625
51.482177734375 -14.6260986328125 10.946533203125
-22.751220703125 6.3984375 1.0938720703125
-65.30078125 0.540283203125 17.7213134765625
-57.60498046875 41.4337158203125 -15.97412109375
11.896728515625 -21.650146484375 27.068115234375
85.939208984375 -27.2769775390625 15.8338623046875
-20.515869140625 45.8509521484375 -9.3074951171875
-50.439697265625 -6.4609375 20.47607421875
48.2197265625 -6.861083984375 -3.7445068359375
-74.0673828125 -4.359619140625 17.8994140625
75.851806640625 -31.326171875 19.1932373046875
-18.000732421875 -26.9859619140625 30.130859375
1.761962890625 -10.3487548828125 -7.036376953125
-59.804443359375 3.6392822265625 9.9788818359375
-37.115478515625 37.7066650390625 -11.394775390625
-37.66162109375 18.56201171875 -1.594482421875
-20.958740234375 10.9915771484375 -10.549072265625
50.11181640625 -4.1444091796875 13.625244140625
-57.1650390625 22.7000732421875 13.02490234375
76.655029296875 -25.84912109375 16.503173828125
-14.072998046875 42.115478515625 -2.720458984375
15.26953125 40.964111328125 -17.1119384765625
-41.7587890625 4.084228515625 9.541748046875
55.34521484375 6.962890625 -15.4075927734375
17.23291015625 -19.8970947265625 12.2254638671875
-33.59619140625 -7.4947509765625 17.7860107421875
4.269287109375 3.7626953125 8.85595703125
17.254150390625 -27.5560302734375 22.414794921875
-12.3310546875 -7.53564453125 2.6158447265625
73.4931640625 -4.0694580078125 15.225830078125
45.392822265625 -5.3714599609375 19.37939453125
-15.71923828125 -19.726806640625 18.54443359375
52.406494140625 -0.0206298828125 -7.900146484375
1.81591796875 -2.41015625 15.86669921875
70.3662109375 -29.2509765625 27.4747314453125
-33.973388671875 32.63134765625 -4.46875
-46.19873046875 13.52734375 6.1898193359375
-75.908203125 -0.429931640625 13.60107421875
73.8076171875 -19.2464599609375 22.84130859375
15.178955078125 -3.3782958984375 -8.5174560546875
9.515380859375 -16.2945556640625 3.9537353515625
-41.12353515625 41.6807861328125 -16.6053466796875
-38.8427734375 0.3575439453125 13.59423828125
84.461181640625 -31.45263671875 20.1993408203125
-49.81591796875 29.8177490234375 7.1878662109375
-29.9970703125 2.384033203125 -0.71435546875
-11.593505859375 8.13916015625 -4.5687255859375
14.547119140625 35.742431640625 -12.45458984375
79.73974609375 -10.0948486328125 20.724853515625
7.349853515625 38.136474609375 -19.4423828125
85.701904296875 -4.65966796875 9.531494140625
-38.285400390625 6.0535888671875 6.3660888671875
-21.305908203125 26.4205322265625 -25.5372314453125
-35.185791015625 27.53759765625 3.966796875
-43.185546875 35.95654296875 -8.82958984375
-40.605224609375 27.1517333984375 5.970458984375
-36.2177734375 -14.9149169921875 20.924072265625
-49.89892578125 38.16650390625 -11.6668701171875
11.729736328125 -28.0849609375 32.7613525390625
-35.138916015625 -12.9547119140625 28.172607421875
-22.78125 11.4063720703125 1.7108154296875
-30.831787109375 -11.958984375 15.2352294921875
-33.383544921875 12.003173828125 -0.6717529296875
-63.912353515625 32.51513671875 2.890380859375
-50.5498046875 1.4150390625 12.505126953125
18.700439453125 -15.5479736328125 5.0972900390625
-13.48095703125 37.0311279296875 3.77685546875
-21.253662109375 -2.5030517578125 -2.007080078125
-18.9228515625 -20.51708984375 23.143798828125
46.2001953125 4.3470458984375 6.2586669921875
-54.641357421875 34.3282470703125 -7.880859375
14.808349609375 -23.025634765625 17.3177490234375
36.972412109375 -3.3568115234375 15.5955810546875
44.724609375 -0.4832763671875 -2.5064697265625
6.034423828125 3.2001953125 -22.6722412109375
-47.239501953125 -2.401123046875 16.1741943359375
-67.114990234375 22.2100830078125 13.9268798828125
-27.585205078125 6.1234130859375 2.249267578125
48.124755859375 -1.3194580078125 -6.1146240234375
11.515869140625 -18.191162109375 18.6708984375
-59.45947265625 -8.8250732421875 24.5028076171875
-53.646484375 6.61328125 6.708251953125
-22.413330078125 40.0516357421875 -1.1221923828125
-33.010986328125 5.4482421875 1.223388671875
77.6279296875 -22.726318359375 12.1053466796875
-31.2744140625 42.1416015625 -16.4166259765625
82.872314453125 -0.5606689453125 11.972412109375
-20.722900390625 1.378662109375 -7.0919189453125
-30.7158203125 0.9288330078125 12.8194580078125
-56.216064453125 -0.3389892578125 13.808349609375
-42.19189453125 31.9676513671875 3.5770263671875
33.8994140625 4.03759765625 7.7900390625
47.270263671875 -5.99169921875 7.4786376953125
12.389892578125 -4.8753662109375 -4.7158203125
3.712158203125 -11.4666748046875 -2.80078125
5.753173828125 -4.2076416015625 17.5333251953125
-17.751708984375 6.5107421875 -27.3099365234375
8.29638671875 -11.5328369140625 6.053955078125
8.0380859375 -7.9107666015625 10.395263671875
10.3056640625 2.6317138671875 -14.6944580078125
-45.633056640625 42.085693359375 -15.8927001953125
-24.723876953125 -8.1240234375 22.644287109375
9.983642578125 2.6636962890625 -20.4456787109375
68.795654296875 -28.802490234375 22.7618408203125
-19.73681640625 29.2957763671875 9.0426025390625
-41.851318359375 22.505615234375 5.0433349609375
-18.042236328125 -16.1533203125 14.0780029296875
-48.970947265625 -9.3099365234375 24.0179443359375
60.258544921875 -8.946044921875 20.015869140625
-68.13134765625 4.280029296875 9.0269775390625
-7.458251953125 4.8997802734375 -18.91259765625
8.67822265625 6.47265625 6.617431640625
86.781005859375 -22.4456787109375 9.171875
-1.0029296875 4.179443359375 -25.56298828125
-21.848876953125 3.5482177734375 9.539794921875
-42.717041015625 -10.1888427734375 25.156005859375
-20.125732421875 -11.1439208984375 8.4595947265625
67.19580078125 -9.798583984375 21.639404296875
-71.396728515625 32.6512451171875 3.4991455078125
-24.041748046875 1.117919921875 -3.2620849609375
89.77880859375 -29.828125 15.3719482421875
-61.8466796875 36.426025390625 -10.0201416015625
10.993896484375 -0.445068359375 13.275634765625
-33.74365234375 35.3121337890625 -8.0557861328125
-20.367431640625 10.4334716796875 -4.860595703125
6.1064453125 -8.61669921875 -10.2510986328125
-32.777099609375 32.3056640625 3.053466796875
16.98828125 2.9541015625 -13.090087890625
12.315185546875 -26.1473388671875 25.151611328125
76.572021484375 -12.98974609375 23.9642333984375
-20.2236328125 -5.6864013671875 14.0394287109375
65.5908203125 -0.1944580078125 12.09228515625
-27.412841796875 31.864013671875 3.976318359375
-24.739501953125 0.3265380859375 13.676513671875
12.757080078125 -22.7833251953125 31.2176513671875
0.011474609375 4.2257080078125 -15.0533447265625
57.221923828125 -2.5352783203125 -5.7030029296875
-39.441650390625 31.648193359375 -4.1580810546875
-64.70849609375 27.063720703125 8.99853515625
-10.86572265625 -16.8284912109375 10.21484375
22.914794921875 -12.3507080078125 -0.8638916015625
-19.1630859375 22.4027099609375 -24.9088134765625
-74.11767578125 25.2567138671875 10.3944091796875
-13.6904296875 -3.93798828125 -0.2838134765625
-50.697265625 31.5494384765625 -4.984130859375
80.11328125 -17.0455322265625 2.6561279296875
-43.490966796875 -10.8834228515625 30.6292724609375
-61.80029296875 -4.478271484375 18.1181640625
-71.35205078125 2.0509033203125 11.1048583984375
80.371337890625 -26.246337890625 14.2908935546875
-79.134521484375 0.6954345703125 16.1282958984375
-56.955322265625 25.876953125 9.8125
21.38818359375 -7.6248779296875 -3.349365234375
81.715576171875 -12.40283203125 12.806640625
71.715087890625 -23.0086669921875 23.66259765625
15.186279296875 1.9476318359375 -23.9576416015625
1.79345703125 -5.27490234375 23.4700927734375
-41.229248046875 10.19091796875 2.9757080078125
22.67626953125 -14.32275390625 5.51806640625
43.166259765625 1.880859375 -10.047607421875
-75.3408203125 -6.3702392578125 21.4613037109375
-46.955810546875 8.8907470703125 4.8878173828125
56.612548828125 3.1944580078125 -13.743408203125
-18.90673828125 6.64599609375 -8.739013671875
-14.379638671875 5.8250732421875 -7.57470703125
48.647216796875 -23.182373046875 22.6429443359375
11.45458984375 32.4586181640625 -38.8004150390625
85.530517578125 -15.55419921875 -1.1202392578125
-30.413818359375 8.69580078125 -0.4544677734375
-27.413330078125 37.328857421875 -11.66845703125
-32.273193359375 1.574462890625 8.13916015625
-29.459716796875 19.8271484375 -0.604248046875
11.17138671875 -4.3509521484375 17.07373046875
46.08935546875 -0.27880859375 5.5914306640625
-47.040283203125 27.3992919921875 9.20703125
24.814208984375 -7.246337890625 -7.028564453125
-33.01025390625 -12.39208984375 20.760009765625
8.3173828125 -11.765380859375 -2.5888671875
-62.69287109375 2.7122802734375 15.46240234375
10.35107421875 -8.27587890625 -5.631591796875
-6.390869140625 4.7791748046875 -27.1112060546875
-66.874267578125 -7.5157470703125 22.046142578125
83.56591796875 -19.3023681640625 6.9278564453125
-25.4384765625 7.886474609375 5.5985107421875
-36.24560546875 4.189208984375 -1.2373046875
75.958984375 -7.3714599609375 18.1641845703125
78.26953125 -2.4324951171875 13.1685791015625
82.391357421875 -10.8238525390625 4.0611572265625
5.29248046875 -1.8634033203125 -15.6273193359375
-12.48876953125 -1.82080078125 -3.561767578125
15.04052734375 -12.0316162109375 1.8099365234375
39.099609375 2.743896484375 8.76513671875
-19.205810546875 -9.6566162109375 26.14501953125
-11.823486328125 -18.9508056640625 18.5335693359375
-13.820068359375 -12.5755615234375 8.62939453125
-57.252197265625 -3.2904052734375 17.1949462890625
-37.76171875 -10.055908203125 20.2464599609375
12.713623046875 38.08056640625 -18.446533203125
8.5537109375 -13.362548828125 1.4915771484375
-12.656982421875 -24.6932373046875 24.917236328125
-53.279052734375 22.614990234375 13.6800537109375
-29.967529296875 -4.654052734375 18.5848388671875
-41.273193359375 17.1033935546875 0.3033447265625
-15.147216796875 1.046630859375 -6.429443359375
43.94775390625 -1.9302978515625 1.3316650390625
40.9619140625 -0.2967529296875 12.1441650390625
-78.709228515625 20.4490966796875 15.89404296875
11.26953125 -17.42333984375 9.779296875
-39.688232421875 -12.18115234375 28.4757080078125
69.2138671875 1.245849609375 11.8922119140625
-17.15966796875 43.21484375 -4.83740234375
-67.052734375 -2.249267578125 15.602783203125
77.501220703125 -18.7071533203125 16.6444091796875
21.8681640625 -0.3809814453125 -10.053955078125
-21.93115234375 -8.6273193359375 1.7003173828125
42.97998046875 6.4556884765625 4.4251708984375
-18.228271484375 -23.33349609375 31.3367919921875
75.233642578125 3.4869384765625 9.4381103515625
-76.614013671875 4.038818359375 9.123046875
-60.113037109375 32.4678955078125 3.49755859375
-48.811767578125 24.360107421875 11.4515380859375
66.079833984375 -12.9429931640625 25.9693603515625
47.968017578125 -19.4107666015625 18.7816162109375
8.56982421875 -6.03857421875 -12.2001953125
55.73876953125 0.9669189453125 -9.4935302734375
11.189453125 -20.4515380859375 23.255615234375
6.921630859375 39.7972412109375 -23.1829833984375
-69.724853515625 27.5682373046875 8.203125
-11.96240234375 -10.3741455078125 5.308349609375
-40.964599609375 -7.6964111328125 22.8756103515625
-39.780517578125 39.5919189453125 -13.73193359375
2.161865234375 -7.181396484375 -10.7005615234375
1.254150390625 6.4747314453125 6.169189453125
48.10595703125 -12.919677734375 10.8487548828125
48.3466796875 -5.2213134765625 17.01953125
-29.1181640625 24.4561767578125 3.2613525390625
-44.30322265625 14.4747314453125 3.071533203125
49.681640625 -26.669921875 26.4774169921875
-22.593994140625 -8.1800537109375 6.6427001953125
58.652099609375 0.215576171875 -12.6805419921875
46.407470703125 -1.5321044921875 13.4373779296875
-29.68505859375 13.3343505859375 -0.1556396484375
-22.913330078125 27.292724609375 9.37890625
-2.857666015625 4.2015380859375 -18.375
-6.2216796875 7.8114013671875 3.0867919921875
-53.3544921875 39.6739501953125 -13.1063232421875
-22.184326171875 8.91357421875 -1.612548828125
-35.819580078125 15.1639404296875 0.428466796875
80.28662109375 -19.943603515625 10.0015869140625
-19.552490234375 31.9990234375 -32.6702880859375
89.222900390625 -19.0523681640625 1.9327392578125
-39.59130859375 20.443115234375 0.9613037109375
7.72802734375 3.1116943359375 -26.2310791015625
-70.828125 21.22265625 14.547607421875
86.188720703125 -25.0938720703125 12.8505859375
-46.34228515625 19.257568359375 13.8359375
-53.392578125 31.9564208984375 4.6397705078125
81.911865234375 -8.605712890625 17.3211669921875
79.485107421875 -13.6337890625 19.6927490234375
19.8896484375 39.55810546875 -16.2100830078125
72.941650390625 -25.529296875 14.44091796875
70.710693359375 -9.366943359375 22.642822265625
-8.560546875 4.95703125 -23.225830078125
76.73046875 -17.1243896484375 24.347900390625
-26.723388671875 28.36962890625 6.1640625
87.40185546875 -6.1768798828125 2.488525390625
-35.4091796875 3.7943115234375 6.1861572265625
-45.839599609375 32.2701416015625 3.6248779296875
-21.28271484375 -13.069091796875 14.9215087890625
-23.93505859375 5.5982666015625 -2.2646484375
71.66796875 -21.6025390625 20.2005615234375
-63.787841796875 4.7586669921875 8.683837890625
-38.36474609375 -3.5439453125 17.7548828125
-68.019775390625 32.210205078125 2.218505859375
67.07177734375 -5.8800048828125 16.93798828125
3.44921875 0.751953125 12.500732421875
-25.68310546875 -5.8575439453125 19.9727783203125
48.54150390625 -8.3079833984375 4.5235595703125
71.452880859375 -1.6793212890625 12.545654296875
-61.0341796875 31.5987548828125 -3.8748779296875
79.16357421875 -32.7452392578125 19.521240234375
87.20654296875 -30.296875 17.857421875
16.579833984375 -6.012939453125 -5.302734375
-45.8916015625 3.942626953125 9.962646484375
46.016845703125 5.359130859375 0.0626220703125
14.34716796875 2.0379638671875 -15.5577392578125
20.376953125 -20.254638671875 13.9132080078125
-47.47705078125 40.135498046875 -13.432861328125
35.141845703125 6.195556640625 5.228759765625
46.760986328125 5.1588134765625 -13.3212890625
-23.114501953125 -2.4298095703125 16.4698486328125
-58.5078125 35.4017333984375 -8.8319091796875
-42.425537109375 -4.8001708984375 19.460693359375
-44.4482421875 19.7689208984375 7.4520263671875
-58.705322265625 20.4649658203125 15.8076171875
-15.725341796875 -27.3067626953125 27.186279296875
-23.920166015625 -4.2222900390625 -4.3045654296875
-18.658203125 -23.14306640625 27.2137451171875
-61.407958984375 22.35107421875 13.902099609375
-9.607177734375 -9.754150390625 0.5723876953125
49.71875 -17.548828125 14.6041259765625
6.589599609375 -7.947998046875 24.217529296875
-71.848876953125 32.134521484375 -3.7469482421875
46.490966796875 1.7152099609375 9.1661376953125
-17.95263671875 32.3912353515625 6.755615234375
51.46875 -7.64599609375 -2.7310791015625
-78.675048828125 23.3397216796875 12.9044189453125
60.070068359375 5.818603515625 -17.153564453125
-0.365234375 -0.185302734375 14.333251953125
71.192138671875 -14.7391357421875 26.9786376953125
-27.11083984375 42.3843994140625 -16.073486328125
-34.45703125 19.00537109375 -2.841796875
14.622314453125 -2.234375 -11.7398681640625
3.4619140625 2.703125 -12.949462890625
73.0869140625 -24.606689453125 18.2095947265625
-14.6953125 34.517333984375 5.801025390625
9.83154296875 -14.8458251953125 7.0643310546875
-53.8798828125 -7.0543212890625 21.1689453125
88.890625 -14.29443359375 -1.77783203125
-34.275634765625 39.55029296875 -13.6806640625
-55.52392578125 9.9227294921875 4.41943359375
-40.064697265625 36.3582763671875 -10.199951171875
-66.206787109375 19.6644287109375 16.03759765625
-20.53125 37.7806396484375 0.66552734375
-70.6787109375 -3.7314453125 17.34814453125
-59.29541015625 39.658447265625 -12.3519287109375
14.709228515625 -28.5887451171875 24.95654296875
-9.15234375 6.8343505859375 -2.479736328125
-56.534912109375 5.3363037109375 8.0198974609375
-46.043212890625 15.5911865234375 12.7127685546875
84.202880859375 -8.9202880859375 12.0550537109375
47.050537109375 -11.5609130859375 13.78857421875
3.4169921875 -5.0738525390625 20.482666015625
-4.705322265625 6.616943359375 5.8927001953125
-67.949951171875 0.3314208984375 13.5135498046875
-36.73681640625 -14.9556884765625 32.465576171875
47.380126953125 -26.533447265625 30.0687255859375
14.33544921875 -20.524169921875 13.8790283203125
44.290283203125 0.3712158203125 -5.9169921875
-64.218505859375 -7.8599853515625 24.58984375
10.293212890625 28.908203125 -36.7581787109375
-31.119873046875 -1.417236328125 15.2584228515625
-52.654052734375 36.9825439453125 -10.1044921875
-35.28662109375 -4.6397705078125 18.611328125
-66.101806640625 25.0174560546875 11.285400390625
-20.616455078125 28.426025390625 -28.39794921875
22.46142578125 -16.71826171875 8.134765625
-16.36767578125 -21.8402099609375 21.0833740234375
-14.164794921875 39.4488525390625 1.1134033203125
-61.30859375 27.1566162109375 8.4288330078125
-43.3427734375 33.45556640625 -6.5609130859375
-47.232666015625 36.9302978515625 -10.038330078125
-13.790771484375 6.0987548828125 -23.994384765625
49.763427734375 3.001953125 -11.864990234375
20.79052734375 -9.8519287109375 -0.2540283203125
0.732177734375 3.8837890625 8.970458984375
-32.4248046875 0.9765625 1.0775146484375
86.443603515625 -8.9163818359375 0.8680419921875
-18.550048828125 40.53125 -2.5169677734375
17.5498046875 -21.89306640625 15.2314453125
-36.0771484375 21.1932373046875 -0.35009765625
-20.04833984375 -8.8946533203125 4.6470947265625
-26.288818359375 36.60205078125 1.426025390625
-21.09375 8.8980712890625 -7.700927734375
-20.795654296875 -5.2120361328125 0.9053955078125
47.33447265625 -10.3048095703125 8.9825439453125
-72.904541015625 19.618408203125 16.554443359375
-38.47998046875 2.6390380859375 11.04150390625
-65.394775390625 33.2735595703125 -7.1978759765625
-31.2138671875 33.787841796875 -6.192138671875
-57.756103515625 32.197265625 -5.5499267578125
-17.101318359375 -12.801513671875 8.412841796875
-50.895751953125 19.7344970703125 16.400634765625
10.88232421875 -2.583984375 -10.08203125
-21.669677734375 31.9039306640625 -29.927734375
-38.842529296875 29.5703125 4.59912109375
-72.39306640625 23.0509033203125 12.3016357421875
-60.91845703125 6.0291748046875 7.3787841796875
47.13671875 -2.759521484375 -3.32958984375
18.656494140625 -25.7362060546875 19.4873046875
-46.335693359375 22.2435302734375 11.801025390625
8.74267578125 -5.166748046875 19.10986328125
-31.697265625 36.9039306640625 -10.043212890625
-76.42626953125 27.392578125 8.483642578125
-18.71240234375 -16.2685546875 10.3385009765625
62.587890625 -10.28515625 21.8533935546875
-36.341064453125 10.744873046875 -0.1951904296875
61.19482421875 -6.519287109375 18.0706787109375
-20.92236328125 -7.576416015625 19.4478759765625
15.260986328125 37.4593505859375 -16.5372314453125
3.278076171875 3.6336669921875 -16.7451171875
73.67626953125 -13.4149169921875 25.3519287109375
11.696533203125 -12.465087890625 3.0928955078125
52.85205078125 -8.94970703125 3.6463623046875
-50.671875 3.7135009765625 10.230712890625
-24.41064453125 5.1839599609375 8.453125
76.186767578125 -21.5235595703125 9.4814453125
11.783935546875 -26.308837890625 29.723388671875
7.639404296875 1.33544921875 11.50732421875
12.087158203125 -21.6463623046875 18.3477783203125
55.8564453125 -4.7906494140625 -3.4442138671875
-76.66162109375 -2.4093017578125 16.019287109375
18.45458984375 -3.076171875 -9.2041015625
46.564453125 -15.8287353515625 18.151123046875
17.898193359375 -18.25146484375 6.59765625
22.805908203125 -5.392578125 -8.66259765625
69.68701171875 -25.623779296875 22.4923095703125
-18.55859375 -28.490478515625 32.87646484375
-64.703369140625 17.7132568359375 18.0439453125
-62.408935546875 -0.5655517578125 18.42578125
-24.263427734375 33.2403564453125 4.5068359375
88.59033203125 -7.7523193359375 -1.1488037109375
-68.04150390625 6.15380859375 6.4818115234375
-35.690673828125 0.576171875 13.6878662109375
15.229736328125 -24.8482666015625 19.864990234375
-65.36474609375 38.9033203125 -11.968994140625
-57.9638671875 31.2353515625 5.45703125
-33.034423828125 -12.632568359375 17.612548828125
-71.4267578125 -5.734375 19.7945556640625
-64.2509765625 -2.89453125 16.894775390625
-64.69189453125 30.5411376953125 6.01904296875
-46.75244140625 -4.3931884765625 18.5628662109375
-53.67822265625 1.1544189453125 12.2813720703125
70.954833984375 -29.299072265625 20.3450927734375
52.761474609375 5.579345703125 -14.275390625
-37.521728515625 4.880126953125 2.312255859375
-43.170654296875 12.358154296875 0.8277587890625
89.660400390625 -26.7879638671875 14.625
-47.44677734375 31.980712890625 -2.8731689453125
76.075927734375 -20.572021484375 14.577392578125
-80.82763671875 18.80419921875 17.7584228515625
-50.8408203125 7.7696533203125 5.983154296875
-78.09326171875 -5.7139892578125 20.1563720703125
-22.8544921875 13.792236328125 -0.2918701171875
81.988525390625 -3.7564697265625 14.7364501953125
-22.218994140625 9.4512939453125 4.0616455078125
81.54736328125 -11.2381591796875 9.905029296875
-59.472900390625 -7.5050048828125 21.711669921875
-46.0048828125 -9.8988037109375 24.6138916015625
83.76708984375 -13.826416015625 2.1339111328125
-61.40185546875 7.90234375 4.94580078125
-18.90185546875 8.5792236328125 -11.134033203125
-49.1025390625 -0.6793212890625 14.2279052734375
-24.927978515625 -10.302490234375 24.800048828125
-11.376953125 5.760986328125 -6.495361328125
-49.051025390625 41.9173583984375 -15.416259765625
80.447509765625 -15.32470703125 15.4764404296875
82.047607421875 -13.7364501953125 5.2138671875
-23.510009765625 24.3408203125 9.9234619140625
-36.64990234375 31.6951904296875 -5.6031494140625
-17.94580078125 45.473388671875 -7.7021484375
48.68994140625 -4.162109375 10.388427734375
-23.95654296875 2.459716796875 11.4488525390625
84.365234375 -5.1444091796875 6.83984375
-75.021484375 1.6666259765625 11.5887451171875
-20.853271484375 3.672607421875 6.6727294921875
14.926513671875 2.198974609375 -26.969482421875
46.2041015625 -3.2215576171875 6.314453125
-35.980224609375 -13.856201171875 23.75439453125
-20.663330078125 33.9656982421875 3.910400390625
13.641357421875 -7.607421875 -1.7430419921875
-21.812744140625 27.3607177734375 -22.7105712890625
-18.044677734375 0.4466552734375 -5.8173828125
-20.638427734375 -2.16162109375 14.7647705078125
-44.982666015625 17.0478515625 5.667724609375
-46.93359375 33.75 -6.48876953125
-17.48291015625 -17.7532958984375 17.1065673828125
47.0771484375 -4.828369140625 3.769775390625
-65.14013671875 -6.225341796875 19.9521484375
5.52880859375 -11.056396484375 4.9720458984375
44.9677734375 -6.15771484375 -1.6934814453125
-51.772705078125 33.8746337890625 -6.5616455078125
2.489501953125 -3.6156005859375 -13.896240234375
-33.880126953125 -16.5550537109375 19.9813232421875
-11.3876953125 -13.4161376953125 10.6561279296875
65.305908203125 -2.6077880859375 13.8992919921875
-22.053466796875 -10.554931640625 25.611572265625
48.78271484375 -7.3525390625 14.960205078125
-21.89013671875 -9.8045654296875 11.498779296875
15.09130859375 -9.8995361328125 -0.4248046875
-47.82666015625 -7.4345703125 21.8670654296875
-52.29736328125 27.80029296875 8.9971923828125
-41.8515625 24.6922607421875 7.087890625
-30.84912109375 -8.8509521484375 17.811767578125
14.431884765625 -26.6695556640625 22.668701171875
4.78271484375 -10.1807861328125 -8.1053466796875
7.3154296875 -3.958251953125 -15.0699462890625
73.81591796875 -29.0487060546875 19.6328125
-13.787109375 44.79443359375 -3.9393310546875
83.3369140625 -9.797119140625 15.0224609375
-32.692626953125 26.046875 3.43603515625
-19.62353515625 -14.5987548828125 16.8232421875
82.754638671875 -8.8189697265625 1.9276123046875
-28.323974609375 16.9588623046875 -0.425048828125
80.146728515625 -16.920166015625 6.8328857421875
-50.2509765625 -10.2034912109375 26.5164794921875
-51.478271484375 -8.2467041015625 22.8946533203125
16.552734375 0.5291748046875 -10.9752197265625
-48.04052734375 31.1187744140625 5.234130859375
77.772216796875 -19.1478271484375 12.3050537109375
-45.27001953125 6.45068359375 7.248291015625
-45.602294921875 15.092041015625 9.1124267578125
73.00048828125 -31.844970703125 18.7412109375
-53.55419921875 -4.2454833984375 18.3311767578125
-18.7626953125 -25.29443359375 33.4488525390625
-62.224609375 2.2408447265625 11.7623291015625
-58.96826171875 28.4490966796875 7.22802734375
10.278564453125 38.1876220703125 -20.0736083984375
-26.1279296875 12.8187255859375 0.2462158203125
77.408203125 -28.437744140625 17.6270751953125
52.6328125 -22.221923828125 20.745361328125
-68.62451171875 32.1397705078125 -5.4029541015625
13.1044921875 2.2445068359375 -20.554931640625
-21.572021484375 -10.3504638671875 18.328125
4.439453125 3.4586181640625 -19.5303955078125
-31.955078125 4.460205078125 -1.2906494140625
-11.60205078125 -0.015625 -6.7559814453125
-34.12744140625 30.2894287109375 4.6363525390625
-16.49267578125 27.540771484375 -28.634765625
-49.802001953125 -3.9071044921875 17.714111328125
49.8779296875 -7.313232421875 -0.089599609375
39.822021484375 -3.7733154296875 15.8248291015625
-75.939697265625 23.9202880859375 12.1925048828125
-24.216064453125 38.1749267578125 0.123046875
-71.607421875 30.1607666015625 4.9393310546875
9.7294921875 -12.333984375 8.4771728515625
-27.869140625 39.7786865234375 -13.1141357421875
-0.816162109375 3.9390869140625 -22.572509765625
89.455322265625 -21.377197265625 9.1571044921875
-53.266845703125 -0.851318359375 14.5015869140625
-36.3046875 8.051025390625 -1.2099609375
83.07763671875 -26.675537109375 13.4267578125
-20.56396484375 10.922119140625 -0.3536376953125
82.471923828125 -31.806884765625 17.5740966796875
-26.43359375 -4.0474853515625 17.8770751953125
-58.9970703125 0.297119140625 13.521728515625
79.669677734375 -15.4991455078125 11.180419921875
-68.410888671875 34.6004638671875 -8.4505615234375
-61.579833984375 41.7430419921875 -15.6376953125
8.26220703125 4.1285400390625 8.1993408203125
75.537109375 -1.7288818359375 12.72802734375
78.777099609375 -7.4359130859375 18.619140625
17.96435546875 -10.090576171875 -0.57177734375
-43.20654296875 2.4991455078125 11.577880859375
-20.407470703125 4.52001953125 -7.5751953125
21.970703125 -6.1163330078125 -5.6878662109375
17.516845703125 -19.686279296875 9.404541015625
-19.66015625 -0.7935791015625 -3.62451171875
-16.69677734375 31.497314453125 -32.3717041015625
-37.44140625 -14.1165771484375 18.490234375
7.592529296875 1.810302734375 -14.83203125
87.60009765625 -32.34716796875 20.0811767578125
-39.0390625 7.7437744140625 4.224853515625
-18.03466796875 36.6927490234375 2.1986083984375
-36.7177734375 35.7655029296875 -9.384765625
20.80029296875 -13.3858642578125 3.63037109375
-15.63525390625 -29.9681396484375 30.0828857421875
-49.705078125 10.20703125 3.051025390625
50.662841796875 1.1387939453125 -9.955810546875
43.119140625 -5.303466796875 17.721435546875
-55.2763671875 21.1063232421875 15.1058349609375
11.30908203125 -22.9033203125 24.6138916015625
52.431884765625 -27.220703125 26.43359375
74.798828125 -23.4593505859375 14.7720947265625
72.868408203125 -7.1279296875 18.434814453125
56.53662109375 -10.9541015625 14.3397216796875
67.413330078125 -7.857421875 19.1453857421875
-40.953125 34.794189453125 -7.633544921875
-22.677734375 -0.747314453125 -4.8394775390625
-57.90966796875 2.0806884765625 11.29296875
7.934814453125 -8.9410400390625 27.2786865234375
8.44873046875 -8.575927734375 16.931640625
72.481689453125 -11.6395263671875 23.5968017578125
52.83349609375 -13.5523681640625 8.787109375
75.86328125 -19.4906005859375 18.935791015625
-41.998779296875 31.3695068359375 -5.166015625
-26.481689453125 23.54052734375 4.46044921875
-24.948974609375 -12.162353515625 30.505615234375
86.50048828125 -11.767822265625 -1.423095703125
-5.79931640625 10.5247802734375 2.8724365234375
-34.24462890625 37.208740234375 -11.0374755859375
46.456787109375 5.239501953125 2.769775390625
19.83984375 -28.25146484375 23.0050048828125
-27.457275390625 0.5411376953125 13.9346923828125
17.10986328125 -13.878173828125 3.6239013671875
-22.619384765625 3.7576904296875 -4.693359375
72.371337890625 3.287353515625 7.0771484375
83.56640625 -28.8280029296875 16.427734375
53.87451171875 -6.908935546875 -1.672119140625
49.64208984375 -3.203857421875 -4.3072509765625
-37.186279296875 -13.4158935546875 30.2623291015625
76.192138671875 -4.0260009765625 14.8656005859375
87.505859375 -3.3319091796875 12.83935546875
-36.339111328125 -9.0401611328125 18.17578125
-9.861572265625 -3.6107177734375 -5.1312255859375
54.366455078125 -15.961669921875 12.5906982421875
56.822509765625 -7.66259765625 11.1162109375
48.363525390625 -24.5347900390625 24.9644775390625
-14.1787109375 -6.2646484375 1.11181640625
56.731201171875 6.376708984375 -17.6446533203125
16.728515625 0.842529296875 -22.042236328125
-17.968994140625 -19.171630859375 19.916259765625
-73.337890625 -1.8211669921875 15.3330078125
-37.311767578125 40.39306640625 -13.022705078125
-32.734619140625 0.8023681640625 5.6085205078125
-71.992919921875 29.19189453125 7.41357421875
-8.552978515625 2.9066162109375 -2.6273193359375
13.05419921875 40.803466796875 -19.5235595703125
1.851806640625 -4.3775634765625 17.6890869140625
56.493408203125 -1.0028076171875 -7.8372802734375
20.36767578125 3.010009765625 -11.62353515625
44.19921875 2.1463623046875 -12.5045166015625
-20.992431640625 24.3824462890625 -23.834228515625
-1.203857421875 -2.3173828125 15.7041015625
-38.780517578125 41.7911376953125 -15.3323974609375
-43.13916015625 -11.3968505859375 27.4974365234375
52.806396484375 -19.259765625 16.0589599609375
-43.48291015625 40.9012451171875 -14.8544921875
-55.49462890625 24.4537353515625 11.5272216796875
13.294921875 -18.1480712890625 11.3489990234375
84.82470703125 -2.1107177734375 13.0528564453125
-79.41162109375 0.4884033203125 13.48974609375
-20.72607421875 6.75390625 -25.84814453125
-12.349853515625 2.7991943359375 -8.157958984375
-25.496826171875 10.3619384765625 2.8538818359375
-59.378173828125 -4.96142578125 19.076416015625
36.273681640625 3.1434326171875 8.5526123046875
-20.267333984375 27.454345703125 11.087890625
5.171875 5.439453125 7.019287109375
-27.087890625 34.02734375 2.16357421875
11.072998046875 1.56005859375 -10.3946533203125
-43.392822265625 22.5509033203125 7.395263671875
-22.5986328125 -7.1116943359375 21.4683837890625
-30.10205078125 1.837646484375 9.598876953125
-66.20361328125 31.8291015625 4.0797119140625
17.60400390625 40.759521484375 -15.7200927734375
9.2041015625 37.4561767578125 -17.5504150390625
-57.203369140625 -8.77587890625 23.1566162109375
5.12841796875 38.9588623046875 -20.812255859375
22.859619140625 -13.924560546875 1.2384033203125
-18.985107421875 26.072998046875 -27.1304931640625
-73.38525390625 3.384765625 10.126220703125
-22.5654296875 -11.314208984375 9.402587890625
53.76318359375 -2.1282958984375 -5.7559814453125
45.551025390625 -3.8739013671875 15.494873046875
-38.701171875 25.1094970703125 4.83349609375
41.742919921875 5.0103759765625 6.221923828125
-76.913818359375 -4.438720703125 18.2001953125
37.052001953125 -5.516357421875 18.1058349609375
-27.33203125 8.541259765625 3.225830078125
-42.9365234375 27.62109375 7.042236328125
-23.113525390625 -10.9169921875 6.5819091796875
-75.486572265625 19.7991943359375 16.80224609375
-35.64013671875 23.769287109375 1.868896484375
-12.64501953125 35.9013671875 6.58935546875
-44.46142578125 9.1572265625 4.2222900390625
-14.271728515625 -9.0078125 4.1796875
68.465576171875 -27.9210205078125 25.1796875
-24.5234375 42.1851806640625 -16.4962158203125
-14.044189453125 6.0748291015625 -21.2080078125
-34.17626953125 -11.2037353515625 15.331787109375
-19.535400390625 -4.2310791015625 16.9329833984375
-11.146240234375 -9.8223876953125 2.792236328125
-64.92041015625 23.3427734375 13.1895751953125
-51.260009765625 23.564453125 12.3914794921875
-1.0986328125 -4.7196044921875 17.0374755859375
87.3642578125 -18.1083984375 3.444580078125
-53.14453125 28.72412109375 6.580810546875
-60.845458984375 1.099853515625 16.6630859375
-38.89013671875 10.3245849609375 1.9117431640625
-33.7236328125 2.1337890625 11.3787841796875
7.140625 2.7840576171875 -20.394287109375
48.48876953125 -5.3516845703125 21.2222900390625
-71.06103515625 5.8856201171875 6.278564453125
17.742431640625 0.5054931640625 -24.3704833984375
-72.210205078125 0.5382080078125 13.119384765625
6.833984375 -9.80712890625 8.1842041015625
50.786865234375 -1.6744384765625 -6.8189697265625
82.00537109375 -6.072021484375 17.02001953125
-17.7626953125 -25.7928466796875 27.458251953125
-11.26416015625 -5.297119140625 -2.3936767578125
-24.467529296875 29.356689453125 7.6302490234375
-71.59228515625 26.1837158203125 9.86865234375
-55.73388671875 40.0150146484375 -13.9468994140625
-12.924072265625 -26.3797607421875 26.804931640625
83.37548828125 -21.09619140625 8.72265625
-44.872314453125 37.11962890625 -10.9649658203125
-10.3349609375 -12.2886962890625 5.6939697265625
85.665771484375 -18.9234619140625 5.54638671875
-40.772216796875 5.7513427734375 7.8963623046875
43.8408203125 5.352294921875 -16.122802734375
44.26708984375 -2.260498046875 -4.2628173828125
2.58984375 3.564453125 -24.5579833984375
4.250732421875 -1.6953125 14.6153564453125
-42.494384765625 0.18212890625 13.7545166015625
-51.184326171875 30.77587890625 5.0296630859375
-31.664794921875 -3.293212890625 17.29248046875
-63.095703125 31.7274169921875 -5.501220703125
-19.07080078125 1.5084228515625 -8.998291015625
-18.73583984375 -10.1309814453125 6.4156494140625
75.90869140625 -15.1788330078125 25.732666015625
84.34423828125 -5.139892578125 11.601318359375
69.292724609375 1.8485107421875 9.446044921875
69.5537109375 -5.468505859375 16.792236328125
-34.3544921875 32.939208984375 -6.9400634765625
-20.79833984375 34.1343994140625 -33.735107421875
-22.092041015625 28.9677734375 -25.6455078125
10.294677734375 -15.8935546875 12.28955078125
40.927978515625 7.66015625 3.6072998046875
-46.169189453125 35.1597900390625 -8.6036376953125
46.314453125 -20.9207763671875 24.44921875
80.76708984375 -1.8704833984375 12.3603515625
22.598876953125 -14.5386962890625 9.36474609375
-31.599365234375 21.1268310546875 -0.722412109375
85.3701171875 -24.0401611328125 10.729248046875
44.67919921875 -2.5462646484375 -0.983154296875
83.288330078125 -6.8848876953125 5.399169921875
11.482421875 2.15380859375 -22.4549560546875
-67.16845703125 18.0611572265625 17.824462890625
77.53076171875 -8.953369140625 20.502197265625
44.18408203125 -0.980224609375 12.4482421875
-49.862548828125 39.934814453125 -14.142822265625
47.67919921875 -17.4404296875 16.614013671875
-0.5390625 4.0438232421875 -17.4737548828125
-15.698486328125 40.390380859375 -1.0672607421875
-47.993896484375 7.195556640625 6.3848876953125
44.769775390625 -0.40869140625 3.1995849609375
44.486572265625 1.2601318359375 -0.75
-43.26708984375 16.1656494140625 1.5758056640625
-24.438232421875 -3.3056640625 -2.0552978515625
48.35302734375 -1.8465576171875 11.9263916015625
25.252685546875 -11.6876220703125 -2.23974609375
-54.55419921875 26.59716796875 10.47509765625
85.50048828125 -16.202880859375 1.2723388671875
-27.367919921875 36.6778564453125 -9.279541015625
7.489013671875 -11.7772216796875 3.06640625
-19.072265625 -3.321533203125 -1.176513671875
-14.5419921875 3.6002197265625 -8.96875
-29.662841796875 41.4390869140625 -14.682861328125
38.289794921875 7.555908203125 3.8299560546875
77.34521484375 -24.7286376953125 14.416015625
9.812255859375 -10.2008056640625 -3.771728515625
13.220458984375 1.9052734375 -17.7454833984375
-55.962158203125 7.14501953125 6.05859375
-38.331298828125 5.252685546875 8.69384765625
-47.629638671875 2.701171875 11.1844482421875
9.2041015625 -3.1346435546875 16.236572265625
-33.224609375 14.9293212890625 0.0234375
8.415771484375 -8.8558349609375 -9.4434814453125
-35.0888671875 6.0478515625 -3.1749267578125
-53.635986328125 8.41845703125 4.865234375
12.369384765625 -1.0277099609375 -11.258544921875
49.989013671875 -18.9217529296875 16.6177978515625
-83.5380859375 19.962646484375 16.46630859375
-10.916015625 -7.5538330078125 0.1314697265625
79.581787109375 -16.3758544921875 19.115478515625
-59.83251953125 40.221435546875 -14.67138671875
17.478759765625 38.3255615234375 -15.553955078125
-28.955810546875 21.913330078125 1.03271484375
20.523681640625 -15.3408203125 6.7069091796875
11.650634765625 -24.7777099609375 27.0572509765625
6.828857421875 -0.2830810546875 -16.6627197265625
-34.97509765625 -12.9461669921875 19.048583984375
45.8349609375 1.9842529296875 4.7313232421875
31.690673828125 4.653564453125 6.0643310546875
-21.91357421875 -8.36328125 13.4556884765625
-58.175537109375 8.96630859375 3.845458984375
46.94384765625 -7.7725830078125 9.09716796875
-1.75244140625 4.01220703125 -13.4002685546875
-20.962158203125 1.9437255859375 11.1280517578125
76.0322265625 -0.27978515625 10.8515625
6.451171875 -5.077392578125 19.8798828125
9.055419921875 39.486083984375 -22.0880126953125
85.086669921875 -28.6527099609375 18.300048828125
-74.962646484375 5.2078857421875 7.7999267578125
77.427490234375 -13.5169677734375 21.7677001953125
-79.335205078125 -1.7813720703125 16.7218017578125
49.54541015625 -7.567138671875 2.457763671875
-67.433349609375 28.245361328125 7.8658447265625
-39.307861328125 -11.574951171875 26.12158203125
-49.40380859375 32.9171142578125 -6.515869140625
43.07958984375 3.614501953125 7.663330078125
63.17431640625 -4.980712890625 16.2366943359375
14.582275390625 -6.3668212890625 -4.0030517578125
44.929931640625 1.6640625 -3.7523193359375
