11.910400390625 26.66064453125 -26.5677490234375
-50.7841796875 43.5958251953125 -12.0726318359375
72.93603515625 -21.9844970703125 17.943115234375
49.39697265625 -25.2315673828125 18.8861083984375
-39.138916015625 43.2247314453125 -12.7867431640625
7.571533203125 -6.123291015625 1.9560546875
-8.622802734375 4.3671875 5.2545166015625
51.03466796875 -9.9649658203125 3.3809814453125
35.966064453125 6.4111328125 0.50732421875
5.973388671875 1.8463134765625 -7.1470947265625
40.116455078125 37.72509765625 -3.8753662109375
66.70849609375 -8.2685546875 17.1812744140625
-72.01318359375 22.0869140625 8.64111328125
-55.2734375 35.7757568359375 -3.8529052734375
-33.107177734375 27.8660888671875 4.125
11.66845703125 16.67431640625 -21.7242431640625
-12.975341796875 -14.559326171875 2.8419189453125
43.818359375 20.169677734375 -11.463623046875
-62.21044921875 4.9786376953125 3.2982177734375
15.34814453125 -10.579345703125 -3.1864013671875
-22.09423828125 36.8052978515625 -4.0606689453125
-42.75537109375 10.5247802734375 -1.3836669921875
6.09130859375 -18.7562255859375 2.655029296875
-42.06884765625 29.826171875 1.1156005859375
82.424560546875 -27.7440185546875 11.5556640625
7.38330078125 2.70068359375 5.6510009765625
-40.461181640625 -14.5526123046875 23.2677001953125
19.640869140625 26.0574951171875 -32.010986328125
-22.782958984375 27.895751953125 -31.734619140625
43.9189453125 19.235595703125 -22.0662841796875
82.294921875 -5.9554443359375 14.936279296875
8.227294921875 -32.1756591796875 22.124755859375
46.006103515625 2.98193359375 -12.333984375
-38.705078125 2.06103515625 5.357666015625
-23.259765625 -18.9052734375 16.3477783203125
-54.2373046875 -5.365478515625 14.0836181640625
55.687744140625 -3.2694091796875 -0.8408203125
48.549072265625 27.623779296875 -36.36572265625
-16.483154296875 14.8028564453125 -19.2398681640625
19.10107421875 12.1214599609375 -19.283935546875
1.28076171875 -8.1224365234375 18.7813720703125
8.60693359375 -4.7237548828125 12.82373046875
18.306396484375 6.8095703125 -10.9678955078125
35.598876953125 16.3333740234375 -3.34814453125
17.48583984375 -23.54296875 13.7803955078125
-38.77294921875 -8.16015625 16.64794921875
-25.4970703125 1.050537109375 9.6767578125
-66.28515625 34.3524169921875 -4.9844970703125
-0.26708984375 5.468017578125 2.1241455078125
-30.138916015625 -14.287841796875 24.6932373046875
-63.605224609375 25.7198486328125 6.7935791015625
41.864990234375 -0.4158935546875 0.0604248046875
82.401123046875 -18.3311767578125 0.2763671875
69.57958984375 -28.921142578125 13.771728515625
55.54345703125 -3.318115234375 -9.58984375
-20.71630859375 -29.626220703125 29.259033203125
-77.939453125 27.5947265625 4.68212890625
13.7587890625 37.0855712890625 -21.8082275390625
45.40576171875 -10.4339599609375 12.44921875
28.26318359375 31.4150390625 -6.0787353515625
-54.12158203125 1.859375 5.7635498046875
67.0791015625 -12.0966796875 24.6298828125
-25.25439453125 6.5057373046875 -7.609130859375
-25.09423828125 -11.5548095703125 11.8056640625
6.164306640625 16.1444091796875 -5.2679443359375
38.279052734375 -4.0693359375 11.7227783203125
-32.494384765625 6.3070068359375 -1.2408447265625
12.16943359375 -3.007080078125 -11.321044921875
10.61572265625 -24.287109375 6.2371826171875
-49.232421875 25.0181884765625 7.68603515625
22.362548828125 13.537109375 -6.0584716796875
50.0205078125 21.5943603515625 -30.4993896484375
89.490234375 -24.66064453125 11.2239990234375
-34.449462890625 -1.0697021484375 -0.381103515625
63.773681640625 -3.1405029296875 11.7021484375
-7.81787109375 -1.3216552734375 10.735107421875
36.678955078125 6.66064453125 -13.26171875
-45.710205078125 4.4720458984375 3.528076171875
77.328369140625 -17.64404296875 13.523193359375
43.7099609375 6.895263671875 0.4595947265625
-49.51416015625 30.631103515625 0.1771240234375
68.291015625 -24.330322265625 23.718994140625
-29.453125 16.618408203125 3.1954345703125
-19.2822265625 2.9793701171875 -13.7681884765625
-57.02294921875 22.274658203125 9.1849365234375
-37.66064453125 38.163818359375 -7.5657958984375
46.059326171875 11.4835205078125 -25.23876953125
-23.04541015625 18.1844482421875 -21.457275390625
52.366943359375 9.8140869140625 -18.796142578125
-61.233642578125 31.3941650390625 0.343994140625
-30.553955078125 -7.482666015625 17.4556884765625
38.466796875 30.6793212890625 5.9769287109375
-21.776611328125 24.079833984375 10.2615966796875
12.644775390625 31.2967529296875 -32.390625
25.408935546875 2.81787109375 6.3582763671875
29.349853515625 12.74755859375 -3.6414794921875
1.9794921875 10.9774169921875 -2.1356201171875
44.48681640625 -20.0540771484375 16.0020751953125
81.702392578125 -21.78076171875 6.5115966796875
-40.649658203125 -15.7659912109375 15.2781982421875
-69.65185546875 17.576904296875 13.63720703125
14.0126953125 -29.3250732421875 16.099853515625
41.19287109375 28.8577880859375 -35.6058349609375
5.102294921875 39.113525390625 -21.57421875
45.33544921875 -6.5506591796875 0.789794921875
-45.319580078125 -5.9339599609375 14.1937255859375
-18.94287109375 -10.2119140625 1.7314453125
83.847412109375 -32.306884765625 20.0145263671875
-25.628662109375 -13.763671875 2.36865234375
54.620361328125 -12.2108154296875 18.015625
-17.279296875 -17.6107177734375 13.027099609375
73.25390625 -16.3673095703125 23.4212646484375
50.98095703125 -28.9737548828125 25.51171875
-30.394287109375 2.479736328125 4.991455078125
-17.549560546875 -1.8814697265625 -7.1959228515625
-77.8505859375 18.97119140625 12.1507568359375
39.43408203125 1.222412109375 6.419189453125
-15.511474609375 8.6739501953125 -14.5968017578125
41.9013671875 -2.2301025390625 -9.9068603515625
-27.774169921875 39.2222900390625 -7.1502685546875
8.166748046875 -12.433837890625 -0.569580078125
34.12109375 34.814697265625 -5.1094970703125
75.9375 -26.5928955078125 13.4716796875
52.84423828125 -18.073486328125 14.467041015625
23.243408203125 32.6624755859375 -34.713623046875
-25.520751953125 -5.03466796875 13.49609375
-25.20654296875 -24.8817138671875 25.119873046875
14.916748046875 20.6058349609375 -27.8414306640625
-11.7412109375 -1.345458984375 3.7642822265625
32.52099609375 1.889404296875 -11.20751953125
-16.332763671875 29.438720703125 -32.201171875
30.820556640625 -4.3199462890625 13.1890869140625
-21.806640625 42.822265625 -10.06787109375
7.180419921875 -0.1480712890625 -0.7940673828125
42.01318359375 4.2286376953125 -19.167236328125
44.30859375 -24.453369140625 22.9539794921875
-28.21728515625 11.0074462890625 -2.8304443359375
70.61962890625 -32.026123046875 21.1864013671875
-27.17578125 31.031982421875 0.558837890625
19.927978515625 -15.860595703125 -0.9547119140625
72.678955078125 -6.1695556640625 15.109375
-67.607177734375 0.9951171875 6.7724609375
-40.8642578125 -2.5203857421875 10.9857177734375
42.826416015625 6.9249267578125 -8.3284912109375
-55.221923828125 40.19580078125 -8.87744140625
60.570556640625 -10.4615478515625 19.7420654296875
-35.580322265625 22.8702392578125 7.1346435546875
-34.78369140625 -12.6441650390625 14.68017578125
29.27099609375 25.2705078125 -1.794189453125
45.383544921875 -11.0103759765625 5.953369140625
-4.427490234375 -5.5838623046875 14.66064453125
6.35498046875 -18.798583984375 9.008544921875
32.379150390625 -7.5850830078125 20.314453125
84.975830078125 -11.0897216796875 4.2659912109375
88.320556640625 -16.40478515625 0.478759765625
-12.782470703125 5.7347412109375 0.8358154296875
68.07421875 1.2552490234375 8.0430908203125
-44.803466796875 40.7757568359375 -9.84716796875
31.06591796875 4.5491943359375 3.7979736328125
22.009765625 2.657470703125 1.2271728515625
-46.341064453125 18.592529296875 9.66748046875
-37.6708984375 33.4342041015625 -2.8746337890625
17.173583984375 -22.5758056640625 7.7357177734375
43.734130859375 -11.5533447265625 18.2369384765625
-27.84033203125 25.818603515625 6.4818115234375
64.804931640625 -16.80517578125 27.9781494140625
-21.1708984375 -5.5819091796875 -2.604736328125
14.20556640625 2.3519287109375 -13.3662109375
-33.51708984375 41.5904541015625 -11.199951171875
-40.367919921875 -0.0601806640625 -0.966552734375
57.9970703125 -1.821533203125 10.651123046875
13.37646484375 35.67138671875 -28.240234375
51.635498046875 -13.870361328125 8.2852783203125
43.1767578125 13.0379638671875 -11.74658203125
13.623291015625 10.6805419921875 -21.164794921875
86.78125 -27.64111328125 15.9066162109375
7.73779296875 -8.69091796875 7.261474609375
-22.52294921875 33.1201171875 -35.784423828125
39.051513671875 33.0042724609375 0.590576171875
51.466064453125 -7.3397216796875 -3.3388671875
-3.160400390625 2.673583984375 6.6298828125
48.67919921875 5.6036376953125 -17.013916015625
-56.8984375 18.494873046875 13.890869140625
-11.368408203125 11.56640625 -3.1307373046875
45.802001953125 18.4239501953125 -27.493408203125
49.897705078125 -1.2205810546875 -9.6953125
8.578125 5.1798095703125 -11.081298828125
9.8525390625 12.4693603515625 -7.769775390625
-14.967041015625 -16.6114501953125 7.7889404296875
14.69970703125 -6.9739990234375 -7.566162109375
-44.219482421875 26.9163818359375 5.5992431640625
43.36279296875 1.9644775390625 -4.8941650390625
-25.713623046875 -6.6275634765625 -5.9190673828125
-49.97705078125 38.90869140625 -7.193603515625
-17.588134765625 -20.1162109375 18.07177734375
44.2861328125 -4.8856201171875 12.961181640625
17.812744140625 15.3111572265625 -23.8931884765625
13.10302734375 32.0191650390625 -16.8955078125
-60.85986328125 35.569091796875 -4.6611328125
-21.939697265625 13.18701171875 -19.2664794921875
19.9345703125 -7.444580078125 -5.77685546875
-36.9326171875 9.4840087890625 -1.9163818359375
3.33251953125 -4.9759521484375 14.3232421875
47.802978515625 31.1505126953125 -40.4815673828125
17.108642578125 7.6444091796875 -16.8538818359375
9.865234375 -9.0206298828125 -4.760986328125
8.35546875 -3.9700927734375 -7.53076171875
77.611572265625 -18.5 8.0390625
9.99951171875 12.6771240234375 -17.6026611328125
-56.943115234375 5.3111572265625 1.398193359375
-33.219970703125 2.05712890625 -4.7308349609375
-6.639892578125 7.1063232421875 0.38818359375
-58.51318359375 43.427490234375 -12.1751708984375
-55.38525390625 -2.0230712890625 10.0252685546875
5.108642578125 7.134033203125 1.8121337890625
6.068603515625 -1.254150390625 9.0003662109375
7.2236328125 -8.9442138671875 15.797119140625
-77.651123046875 22.94970703125 7.3033447265625
43.806396484375 15.6270751953125 -16.4820556640625
22.298583984375 24.740966796875 -27.63720703125
13.1904296875 -25.447265625 10.686767578125
13.693359375 -15.1744384765625 -0.467041015625
71.246826171875 -11.4022216796875 20.3787841796875
12.427978515625 29.398681640625 -22.1402587890625
35.536865234375 -6.4161376953125 15.496826171875
-32.2900390625 -12.6593017578125 19.2652587890625
-68.880615234375 25.2886962890625 5.9759521484375
8.82373046875 35.5975341796875 -20.6507568359375
-70.99853515625 33.494384765625 -2.9979248046875
-55.73046875 31.3167724609375 -0.214599609375
34.05810546875 21.26220703125 -3.34521484375
-24.171875 -21.550537109375 21.3182373046875
-59.79833984375 1.742919921875 6.507568359375
42.623291015625 -4.5115966796875 -3.13232421875
42.730224609375 36.597412109375 0.78564453125
-45.41796875 32.36767578125 -2.4036865234375
17.6640625 -2.0517578125 -12.2518310546875
-66.991943359375 22.2581787109375 9.675048828125
74.6474609375 -21.903076171875 11.87255859375
8.270751953125 -28.00390625 18.1976318359375
-42.8173828125 -10.507080078125 19.3499755859375
31.2783203125 8.15576171875 -0.4803466796875
78.72216796875 -12.811767578125 12.6866455078125
-36.189453125 30.4295654296875 0.9896240234375
46.95751953125 8.9384765625 -20.4234619140625
-13.180908203125 -11.076171875 -1.24169921875
-17.591796875 24.6966552734375 -30.9931640625
1.716552734375 1.4716796875 6.176025390625
-38.34228515625 26.3040771484375 4.689453125
-37.25341796875 -14.8909912109375 18.892578125
-22.31591796875 23.5330810546875 -28.0333251953125
-24.71875 3.30078125 -2.7681884765625
-47.835205078125 9.0479736328125 -0.818359375
-12.903564453125 -3.4344482421875 -8.262939453125
14.76513671875 25.95849609375 -30.8634033203125
-63.776611328125 16.6575927734375 17.089111328125
-67.91748046875 4.7314453125 2.8011474609375
-21.94775390625 34.09375 0.1376953125
-34.696533203125 0.568115234375 7.8994140625
41.500244140625 14.97607421875 -21.1937255859375
6.747802734375 -13.256591796875 4.126708984375
-23.78759765625 -14.747802734375 22.842041015625
13.14453125 -33.870361328125 20.128173828125
68.26806640625 -4.5277099609375 13.6063232421875
77.440185546875 -4.1927490234375 13.113525390625
41.13623046875 16.76611328125 -5.205322265625
51.131591796875 19.604248046875 -24.9744873046875
33.968505859375 27.74853515625 4.7564697265625
-36.468505859375 3.17041015625 1.15771484375
-27.17626953125 35.0260009765625 -4.3199462890625
-41.625244140625 4.477294921875 0.321044921875
-21.432373046875 -12.954833984375 4.9696044921875
-23.657958984375 2.606689453125 -11.6444091796875
86.260498046875 -21.08740234375 -0.8641357421875
78.611572265625 -24.8011474609375 9.8133544921875
-50.471435546875 35.1407470703125 -3.5498046875
-38.763671875 13.906982421875 -3.4056396484375
-50.981689453125 4.2864990234375 2.985595703125
-32.5703125 38.6475830078125 -7.2142333984375
16.18798828125 28.9847412109375 -34.7208251953125
27.488525390625 -0.645751953125 10.37646484375
23.487060546875 18.0579833984375 -7.307861328125
72.891357421875 -30.1602783203125 17.043701171875
-64.666259765625 28.4559326171875 2.9730224609375
48.802734375 -22.2601318359375 15.1585693359375
-29.25537109375 6.426025390625 2.42822265625
56.254150390625 5.874755859375 -19.6405029296875
19.53076171875 2.5435791015625 -6.7510986328125
9.8125 -19.44677734375 5.76171875
44.373046875 -16.3154296875 13.0228271484375
-19.40673828125 16.022216796875 -23.6810302734375
10.210693359375 21.0860595703125 -22.8206787109375
-25.711669921875 4.2130126953125 4.99072265625
-49.245849609375 -4.027099609375 12.273681640625
45.012939453125 24.6060791015625 -35.369873046875
80.1005859375 -30.8463134765625 16.52783203125
-50.55859375 -7.3680419921875 16.4749755859375
-66.615478515625 31.9578857421875 -0.925048828125
-82.47509765625 19.2056884765625 13.2052001953125
-51.841796875 21.93212890625 10.473388671875
86.83154296875 -23.96435546875 7.4305419921875
35.112548828125 7.8135986328125 -17.5216064453125
-30.283203125 -0.3251953125 9.1591796875
-37.111572265625 -4.4423828125 13.506103515625
42.58349609375 2.90478515625 3.2362060546875
-22.610107421875 -16.60546875 11.4991455078125
62.382568359375 -7.1593017578125 15.9281005859375
-42.54150390625 0.411865234375 7.4605712890625
52.685302734375 -9.360107421875 7.659423828125
41.61669921875 -7.466796875 15.7183837890625
47.085205078125 -28.3568115234375 23.10302734375
55.463623046875 -4.817138671875 -5.223388671875
-73.154541015625 25.8421630859375 4.34814453125
45.23193359375 -5.8701171875 7.9552001953125
-22.823486328125 -14.4207763671875 17.2315673828125
54.37548828125 -4.981201171875 10.8197021484375
50.3837890625 2.8427734375 -13.7008056640625
41.896240234375 2.86865234375 -14.787353515625
-13.840576171875 0.468017578125 -5.91064453125
-24.48779296875 8.3701171875 -3.2205810546875
36.0703125 3.898193359375 4.8677978515625
30.489990234375 35.1185302734375 -7.9658203125
29.503662109375 29.8482666015625 -1.7996826171875
-20.034423828125 27.8695068359375 -35.368896484375
77.322509765625 -20.40283203125 3.92138671875
33.633056640625 11.0369873046875 -3.0887451171875
-66.21728515625 38.3814697265625 -7.06591796875
-27.774658203125 -11.4212646484375 22.095703125
54.427001953125 -0.3837890625 -12.8499755859375
-50.043701171875 27.6842041015625 4.1279296875
74.58984375 -15.703125 19.161376953125
19.968994140625 -18.569091796875 4.7698974609375
63.033203125 -13.9671630859375 23.420166015625
-31.381591796875 31.3046875 -1.036865234375
-60.185791015625 28.068603515625 3.255126953125
66.41162109375 -27.79443359375 21.3499755859375
-74.525146484375 29.5791015625 0.6710205078125
35.385009765625 39.04052734375 -6.0025634765625
51.98046875 -5.7017822265625 2.3497314453125
-16.953125 -7.2320556640625 -0.953125
79.023193359375 -9.496337890625 16.8505859375
25.7353515625 5.3021240234375 2.4361572265625
-59.137451171875 24.6431884765625 6.0501708984375
80.3447265625 -14.88916015625 3.435546875
-2.328125 9.0794677734375 -0.8076171875
8.882568359375 0.48486328125 -10.1514892578125
-25.193359375 -9.0697021484375 -0.8441162109375
27.083984375 15.86083984375 -5.7503662109375
72.712890625 -25.826416015625 10.6053466796875
71.097900390625 -21.194091796875 22.537353515625
-23.03076171875 39.26318359375 -7.8470458984375
-31.035400390625 22.8973388671875 7.053955078125
-48.333251953125 1.8626708984375 5.8929443359375
44.725341796875 -13.519775390625 9.4595947265625
41.01220703125 10.2861328125 0.5318603515625
10.318603515625 36.505859375 -24.7337646484375
-20.517578125 -27.52587890625 25.107421875
70.64501953125 -25.7373046875 16.458740234375
43.833984375 28.4066162109375 -38.963134765625
50.330078125 11.5882568359375 -25.66015625
10.46875 -16.5489501953125 1.985107421875
51.76025390625 -21.671875 18.711181640625
-18.2255859375 10.392822265625 -17.4078369140625
36.040283203125 -0.42578125 8.560791015625
12.856201171875 31.983642578125 -25.497802734375
42.480712890625 8.5433349609375 -12.2490234375
13.730224609375 34.3404541015625 -35.14306640625
45.295654296875 -0.5751953125 -7.9810791015625
-73.27490234375 20.0826416015625 12.15576171875
-59.493896484375 39.3851318359375 -7.91455078125
2.504638671875 38.75146484375 -24.868408203125
-53.86572265625 25.501953125 6.49853515625
-41.240478515625 36.107421875 -3.068359375
-17.245361328125 -12.6617431640625 4.978271484375
-24.891845703125 -8.22265625 17.0323486328125
-21.781494140625 6.16259765625 -12.751953125
6.0966796875 -17.0816650390625 12.79736328125
19.66552734375 -11.4542236328125 -4.6746826171875
-41.13037109375 -5.3907470703125 14.6160888671875
69.302490234375 -2.017333984375 10.4547119140625
-58.00634765625 -4.55712890625 12.52099609375
13.809814453125 17.4603271484375 -25.1968994140625
20.69873046875 15.6888427734375 -20.9473876953125
-70.853271484375 15.03515625 17.4273681640625
86.328857421875 -33.8531494140625 16.9603271484375
51.165283203125 -26.1417236328125 22.5008544921875
-3.72509765625 -1.1937255859375 9.325439453125
21.037353515625 28.9322509765625 -34.611328125
84.215087890625 -14.6962890625 0.9541015625
-19.929443359375 0.6668701171875 -9.3870849609375
18.7158203125 -18.891357421875 8.691650390625
-3.65478515625 -8.4959716796875 18.779052734375
52.42138671875 -2.43408203125 -6.697021484375
70.8603515625 -25.228515625 20.6627197265625
6.279296875 3.7454833984375 -3.536865234375
-62.09375 22.3560791015625 8.5380859375
-23.073486328125 20.672607421875 -24.689697265625
31.15234375 18.310791015625 -4.5390625
81.0126953125 -9.5635986328125 11.8023681640625
-51.739501953125 -1.05322265625 8.501953125
83.75146484375 -21.34814453125 3.029052734375
39.669677734375 32.73876953125 -39.4705810546875
-40.845703125 41.3001708984375 -9.1656494140625
-29.3076171875 28.3487548828125 2.80859375
-16.502197265625 18.2967529296875 -22.013427734375
69.25830078125 -15.2451171875 25.9134521484375
58.54345703125 -0.860107421875 6.7822265625
-14.877685546875 -10.3623046875 2.6839599609375
-34.796142578125 -7.946533203125 17.1539306640625
17.836181640625 -26.1683349609375 16.7923583984375
65.27392578125 -10.6832275390625 20.041015625
45.722412109375 21.89453125 -32.50927734375
9.376953125 -23.021728515625 10.69970703125
-28.387451171875 -2.677978515625 12.0062255859375
-20.672119140625 -22.5570068359375 17.364013671875
26.42626953125 24.20068359375 -5.45068359375
47.970458984375 -14.222900390625 6.7454833984375
48.900634765625 15.7728271484375 -25.5975341796875
-15.032958984375 3.92724609375 -12.8282470703125
-14.062744140625 8.45556640625 -10.5963134765625
-45.284423828125 43.5399169921875 -12.650634765625
35.056884765625 1.7342529296875 -15.434814453125
44.286865234375 -3.2490234375 2.711181640625
-32.879638671875 11.0020751953125 -2.1507568359375
82.814453125 -25.2747802734375 8.4891357421875
11.808349609375 22.545654296875 -26.1256103515625
-41.047607421875 -15.73193359375 19.5269775390625
7.880859375 12.5804443359375 -4.3636474609375
-36.659912109375 6.0367431640625 -3.7913818359375
-44.77197265625 7.4774169921875 1.1749267578125
35.822509765625 32.7852783203125 -1.6361083984375
-26.2998046875 41.187744140625 -10.2213134765625
61.8369140625 -0.8804931640625 8.908935546875
-41.490966796875 38.0196533203125 -6.7559814453125
-63.74755859375 0.3380126953125 6.843994140625
57.546630859375 -12.482177734375 21.193115234375
31.24609375 27.268798828125 1.9351806640625
-78.887939453125 17.20458984375 15.4703369140625
-26.152099609375 -12.66552734375 25.4154052734375
-39.706298828125 -11.9034423828125 16.09130859375
-74.546142578125 17.399169921875 14.6395263671875
75.1630859375 -8.6484375 17.4915771484375
42.212646484375 31.2633056640625 3.681640625
57.8408203125 -9.025634765625 17.4197998046875
44.444091796875 -22.4732666015625 19.6605224609375
17.361083984375 -13.0321044921875 -0.5172119140625
31.02294921875 -7.7315673828125 16.720703125
45.809814453125 -8.6458740234375 16.821533203125
47.266845703125 -7.70263671875 -2.3114013671875
6.767822265625 -1.6702880859375 -4.9212646484375
-22.507080078125 -3.2061767578125 -5.392578125
3.046875 -13.74462890625 14.228515625
17.35595703125 -29.8524169921875 19.9083251953125
-4.302490234375 4.7437744140625 3.64306640625
44.979736328125 15.977783203125 -23.71923828125
-16.5302734375 23.104736328125 -26.2763671875
13.286376953125 -21.671142578125 5.5836181640625
-44.858642578125 -7.9197998046875 17.4803466796875
-22.50390625 -9.267333984375 2.5880126953125
42.952880859375 16.7327880859375 -10.1461181640625
41.498046875 -0.829833984375 8.8243408203125
18.36474609375 23.0040283203125 -30.1995849609375
59.975341796875 -5.317138671875 13.68212890625
-7.853271484375 -5.2908935546875 13.1317138671875
-10.172119140625 8.3453369140625 0.0399169921875
-42.123779296875 3.6082763671875 5.5186767578125
-26.741455078125 23.9736328125 9.7681884765625
-20.380126953125 -19.9954833984375 14.224853515625
44.7587890625 11.89794921875 -21.03955078125
83.43896484375 -29.3612060546875 17.3148193359375
12.265625 34.672119140625 -19.383056640625
11.1630859375 -31.1812744140625 17.6302490234375
-24.500244140625 44.0224609375 -12.6116943359375
-66.119384765625 18.7242431640625 13.9871826171875
44.093505859375 8.324462890625 -2.957763671875
7.196044921875 -13.8917236328125 8.1556396484375
81.9560546875 -17.8665771484375 4.985107421875
13.98046875 13.6895751953125 -23.3258056640625
-7.926513671875 1.1646728515625 7.015869140625
-53.432373046875 37.8160400390625 -6.3616943359375
27.0947265625 -6.2420654296875 13.7340087890625
39.26953125 4.76171875 3.1920166015625
51.14013671875 -17.05517578125 11.17822265625
-45.575439453125 21.9898681640625 8.3856201171875
24.37060546875 11.635986328125 -3.5987548828125
-48.422119140625 41.4744873046875 -9.3604736328125
-23.6923828125 2.2542724609375 -7.9610595703125
-46.950439453125 29.1217041015625 2.3773193359375
-16.19775390625 -4.255126953125 -4.4112548828125
43.805908203125 6.1180419921875 -16.5511474609375
1.60498046875 7.89697265625 0.0911865234375
48.876953125 24.9222412109375 -33.8922119140625
6.746826171875 36.78515625 -23.8763427734375
-23.658447265625 25.9566650390625 7.7421875
-38.26953125 -18.2421875 17.8236083984375
21.675537109375 33.15478515625 -37.9852294921875
47.512451171875 -10.0205078125 2.3900146484375
44.650146484375 -7.75537109375 4.1669921875
-39.004638671875 -0.1187744140625 8.9752197265625
72.077392578125 -18.546875 26.0894775390625
-64.93603515625 3.3154296875 5.04345703125
-16.314208984375 1.00390625 -9.24365234375
-60.063720703125 17.5675048828125 15.404541015625
-52.545654296875 33.0169677734375 -0.5682373046875
-23.681396484375 -28.4527587890625 26.620361328125
-40.496826171875 3.0384521484375 -2.84228515625
5.745849609375 9.8212890625 -2.25244140625
31.33447265625 32.0645751953125 -4.2769775390625
-80.580810546875 25.06640625 7.183837890625
-40.82373046875 32.5106201171875 -1.366943359375
-30.44384765625 41.3956298828125 -9.3170166015625
-16.291015625 12.2607421875 -15.004150390625
15.12548828125 -3.698486328125 -9.3800048828125
-24.684814453125 -15.27001953125 6.8812255859375
7.372802734375 -21.992919921875 7.6904296875
6.8583984375 -15.5880126953125 1.1279296875
51.80615234375 11.9993896484375 -22.1846923828125
18.232421875 18.6578369140625 -27.0928955078125
36.043701171875 30.71044921875 3.3204345703125
-54.803955078125 41.81103515625 -12.0577392578125
-44.599853515625 -2.987548828125 12.279052734375
-22.616943359375 -25.77197265625 22.789306640625
-68.153076171875 28.3128662109375 4.19140625
-63.5 32.87060546875 -2.4149169921875
79.271728515625 -29.153564453125 13.498291015625
-18.3125 -17.6968994140625 9.6141357421875
34.82275390625 -3.5142822265625 12.3887939453125
80.04345703125 -32.0703125 20.762939453125
16.947265625 4.580322265625 -13.6953125
28.808349609375 2.1873779296875 5.56396484375
18.29296875 2.34716796875 -10.0689697265625
10.652587890625 -28.58984375 15.2366943359375
-24.905029296875 6.657470703125 -11.1474609375
-37.298828125 1.7333984375 -2.0537109375
-74.232421875 24.69677734375 7.519287109375
-37.0771484375 41.9586181640625 -10.21875
-33.136474609375 -15.71728515625 15.19189453125
63.569580078125 -28.12109375 23.396728515625
27.784423828125 8.453369140625 -0.20947265625
0.031494140625 -5.55029296875 15.3397216796875
-58.887451171875 34.27978515625 -2.07373046875
71.077392578125 -13.62890625 23.3201904296875
3.20361328125 -2.3782958984375 10.6954345703125
22.199951171875 5.758056640625 -0.419921875
13.613525390625 8.31005859375 -18.59716796875
77.9453125 -15.0006103515625 10.0792236328125
-58.36279296875 -1.002685546875 8.113037109375
12.008544921875 -11.516357421875 -2.816650390625
86.26318359375 -25.9337158203125 10.866455078125
-57.50439453125 36.72705078125 -6.35498046875
32.281494140625 24.218994140625 -0.3929443359375
70.477783203125 -7.6490478515625 17.3597412109375
15.6025390625 -26.54443359375 14.1566162109375
76.64794921875 -31.0736083984375 16.276611328125
-32.61083984375 -5.7127685546875 15.2945556640625
42.399169921875 -4.54931640625 -6.59375
12.286865234375 28.3028564453125 -30.23779296875
89.7041015625 -26.479248046875 14.1630859375
-66.791015625 15.2451171875 16.1611328125
36.92431640625 35.758544921875 -3.32958984375
-38.18017578125 -13.7447509765625 13.60546875
50.048583984375 18.455810546875 -28.0394287109375
-21.19580078125 24.8892822265625 -31.20556640625
4.469970703125 3.7064208984375 4.1295166015625
3.796142578125 -7.7149658203125 16.4759521484375
42.067138671875 -8.6534423828125 18.9971923828125
49.884033203125 -7.734375 -0.09912109375
49.08251953125 -19.92138671875 12.5833740234375
-18.25146484375 -16.1387939453125 6.57373046875
-80.11669921875 21.505859375 9.8792724609375
-41.289794921875 7.85888671875 0.3453369140625
44.15185546875 -13.3961181640625 14.7459716796875
31.765625 14.9151611328125 -4.638427734375
75.42529296875 -19.4775390625 15.6544189453125
-4.03955078125 -3.2259521484375 12.252685546875
18.518310546875 -16.692626953125 2.0166015625
43.069091796875 21.391845703125 -27.9398193359375
19.07275390625 5.8583984375 -7.2442626953125
-0.47119140625 0.056884765625 8.3306884765625
10.971435546875 3.23974609375 -13.7799072265625
47.331787109375 -30.8206787109375 25.402099609375
-39.69873046875 7.785400390625 -2.8455810546875
67.371826171875 -31.46240234375 20.4598388671875
51.819091796875 6.5679931640625 -16.25244140625
6.11669921875 -16.65771484375 6.4205322265625
14.07470703125 5.6749267578125 -16.5537109375
71.38671875 -3.657958984375 12.5206298828125
-23.975341796875 21.5445556640625 10.10107421875
-54.340087890625 19.95556640625 12.30419921875
-34.845947265625 32.956787109375 -0.7432861328125
-51.5087890625 40.5836181640625 -10.295166015625
41.97705078125 -2.5966796875 12.176025390625
82.25537109375 -11.4935302734375 2.3739013671875
-36.247314453125 -1.040283203125 10.6153564453125
69.44482421875 -28.3851318359375 20.0888671875
-35.123046875 34.88916015625 -4.4549560546875
-39.203125 23.1580810546875 5.342529296875
19.19189453125 -4.9566650390625 -9.2154541015625
-39.295166015625 28.9862060546875 2.747314453125
54.99462890625 -9.6190185546875 15.8111572265625
-25.39404296875 28.2445068359375 4.259033203125
38.776123046875 -5.7681884765625 15.221923828125
73.568359375 -32.760009765625 19.6513671875
18.913330078125 30.64794921875 -36.466064453125
-29.5283203125 8.6004638671875 -0.99853515625
-28.1572265625 33.6275634765625 -1.5120849609375
-58.275390625 29.61279296875 0.973388671875
6.326416015625 -1.107666015625 -8.839599609375
-63.357666015625 36.77880859375 -7.1861572265625
-47.702392578125 6.019287109375 1.191650390625
32.3125 -2.5716552734375 10.512939453125
-24.921630859375 36.7532958984375 -5.943115234375
89.794189453125 -29.715087890625 13.707275390625
13.288818359375 24.2545166015625 -28.498046875
-57.301513671875 3.1685791015625 4.9588623046875
-37.784912109375 -2.0474853515625 -1.1336669921875
-26.83056640625 -10.1396484375 18.825439453125
10.68505859375 -26.75732421875 12.5301513671875
-23.806884765625 30.95556640625 2.1727294921875
72.429443359375 -27.3897705078125 14.097900390625
70.28076171875 -28.0814208984375 10.71044921875
43.66015625 -1.24169921875 5.185546875
16.849853515625 9.699951171875 -19.352294921875
-28.046630859375 1.388427734375 7.548828125
-31.883056640625 43.8331298828125 -12.8828125
-70.13232421875 21.338134765625 11.1767578125
-72.0126953125 31.269287109375 -0.5074462890625
27.544677734375 -3.5323486328125 11.833251953125
46.24658203125 -25.95751953125 20.8489990234375
-58.8427734375 19.3450927734375 11.4552001953125
44.89453125 -27.795654296875 25.40576171875
-18.41748046875 12.3306884765625 -19.9857177734375
12.011474609375 0.732666015625 -11.6474609375
-8.436767578125 12.403076171875 -4.1734619140625
-35.100830078125 39.791748046875 -8.89013671875
9.021728515625 7.7896728515625 -12.9036865234375
-57.864013671875 40.1314697265625 -10.7039794921875
-1.6630859375 11.043701171875 -3.2586669921875
-48.501708984375 33.143310546875 -1.9610595703125
-24.302490234375 32.2308349609375 -0.99755859375
35.40234375 -8.2696533203125 18.919921875
42.886962890625 33.4547119140625 1.384521484375
-65.993896484375 25.958740234375 4.685302734375
65.20263671875 1.3209228515625 6.489501953125
-49.04931640625 20.2938232421875 11.9869384765625
-28.94287109375 -6.3631591796875 14.9481201171875
50.763427734375 -4.7095947265625 -4.989501953125
74.963134765625 -13.77880859375 22.7049560546875
2.576171875 0.4112548828125 9.2962646484375
-60.017578125 6.6588134765625 1.71923828125
-33.162353515625 30.706298828125 2.691650390625
45.889404296875 -19.1109619140625 13.0343017578125
51.888671875 1.5345458984375 -11.224853515625
12.579345703125 -19.21875 3.69482421875
51.039794921875 -11.943603515625 5.8486328125
5.1904296875 -11.0462646484375 13.7548828125
64.9072265625 -5.2666015625 13.7496337890625
-16.203125 31.787841796875 -36.0469970703125
-25.442138671875 -1.7669677734375 11.0986328125
-38.27099609375 36.26904296875 -4.126220703125
-22.390869140625 -7.5177001953125 -0.0352783203125
11.6796875 13.7392578125 -20.567138671875
-9.490234375 5.9171142578125 1.93212890625
77.227294921875 -14.071533203125 15.1580810546875
42.971923828125 14.89990234375 -7.58642578125
-41.9345703125 13.4222412109375 -2.2861328125
32.712646484375 6.7646484375 1.9422607421875
-24.66259765625 35.3387451171875 -2.467529296875
-36.72021484375 -10.4720458984375 16.111572265625
-18.181396484375 7.044921875 -14.3853759765625
-19.446044921875 22.0445556640625 -29.5159912109375
68.0263671875 -17.798095703125 27.232421875
77.380615234375 -6.4630126953125 15.25927734375
22.459716796875 27.9085693359375 -32.0267333984375
41.98779296875 26.6531982421875 -33.5433349609375
16.513916015625 -19.2271728515625 6.2410888671875
-7.65283203125 -6.67578125 15.9190673828125
-23.100830078125 16.0194091796875 -18.68212890625
76.73046875 -21.46826171875 8.3563232421875
-30.822998046875 26.16552734375 5.67138671875
86.52392578125 -30.6732177734375 15.27099609375
86.480224609375 -12.5789794921875 1.168701171875
-36.4609375 -15.25390625 15.7022705078125
43.29150390625 13.159912109375 -23.4598388671875
35.215576171875 30.056640625 6.4052734375
68.538818359375 -10.192138671875 19.4893798828125
0.257080078125 4.614501953125 5.0491943359375
82.30419921875 -29.2874755859375 14.443603515625
-18.381103515625 -22.6513671875 19.6278076171875
-76.341064453125 22.2244873046875 9.9923095703125
33.492431640625 37.3197021484375 -9.15380859375
48.076171875 10.8759765625 -22.9976806640625
-43.725830078125 19.536376953125 8.3260498046875
-17.23828125 18.5050048828125 -25.007080078125
-36.349609375 28.6478271484375 3.5462646484375
11.144775390625 -5.147705078125 -8.0159912109375
16.294677734375 12.0074462890625 -21.8753662109375
-12.6318359375 -4.31103515625 -4.8795166015625
32.118408203125 2.4796142578125 5.7900390625
29.330322265625 -7.44384765625 20.1170654296875
12.035888671875 -8.209228515625 -6.744140625
-41.798095703125 24.69677734375 5.7615966796875
-39.792236328125 11.0865478515625 -1.796142578125
-14.302001953125 -13.895263671875 5.496826171875
51.683837890625 -20.4857177734375 15.895263671875
14.47021484375 -31.4061279296875 18.255615234375
23.402099609375 3.39013671875 3.8175048828125
-52.130615234375 29.434326171875 1.126220703125
65.44091796875 -15.5238037109375 24.3922119140625
47.289794921875 28.30810546875 -39.0302734375
65.878173828125 -0.525146484375 9.1044921875
32.397216796875 2.6478271484375 -14.336181640625
5.06787109375 38.0499267578125 -26.55517578125
44.510498046875 1.797607421875 -10.0
-22.45751953125 30.4986572265625 -34.3046875
39.577392578125 34.72705078125 -2.35498046875
-44.17236328125 -12.1251220703125 21.494384765625
89.14453125 -19.1387939453125 1.42041015625
14.83203125 31.5277099609375 -35.5750732421875
20.168212890625 17.4027099609375 -23.357666015625
-21.223876953125 15.32177734375 -21.25048828125
41.528564453125 9.964111328125 -2.406005859375
11.117919921875 9.890869140625 -18.07666015625
17.774169921875 -8.9237060546875 -3.79248046875
85.526123046875 -22.737060546875 5.0029296875
85.849365234375 -30.9224853515625 18.2694091796875
78.787353515625 -17.1820068359375 4.5626220703125
-46.3056640625 37.6103515625 -7.5634765625
-69.69384765625 1.7215576171875 4.7569580078125
-2.30859375 -6.7752685546875 16.7342529296875
26.90380859375 0.4036865234375 7.6488037109375
-46.224365234375 32.0828857421875 0.4503173828125
85.25048828125 -17.4588623046875 0.549072265625
28.552734375 6.064697265625 1.8463134765625
29.249267578125 36.50341796875 -10.8388671875
44.703369140625 -6.2462158203125 -4.35498046875
49.2880859375 -3.297119140625 -7.3680419921875
7.044921875 -5.1595458984375 -0.8046875
72.519775390625 -23.7108154296875 15.37109375
-30.75732421875 -9.7330322265625 19.377685546875
-49.170654296875 22.27587890625 9.2437744140625
-29.42138671875 37.92431640625 -5.063720703125
4.35205078125 12.4356689453125 -3.130615234375
-1.296875 -4.1290283203125 12.8887939453125
-53.78369140625 5.2216796875 3.0909423828125
42.351806640625 1.4599609375 6.077880859375
45.66748046875 -2.978271484375 11.158935546875
47.79541015625 0.341064453125 -11.042236328125
-36.336181640625 44.0338134765625 -12.390869140625
53.730224609375 -5.5985107421875 -2.634521484375
6.468017578125 5.943359375 -0.5076904296875
44.971435546875 29.6947021484375 -41.347412109375
41.418701171875 30.1724853515625 -38.2244873046875
-74.8251953125 28.6776123046875 3.4478759765625
-65.3671875 19.911865234375 10.3404541015625
-47.82666015625 35.4779052734375 -4.7640380859375
-45.567626953125 2.642333984375 6.459716796875
30.84033203125 10.353271484375 -2.3651123046875
-22.16015625 -23.997314453125 20.5064697265625
45.927001953125 7.9127197265625 -17.4652099609375
45.973876953125 -22.5755615234375 17.171630859375
-17.354248046875 29.0240478515625 -35.388916015625
-5.142333984375 1.3509521484375 8.3125
14.215087890625 -23.955078125 7.1414794921875
-35.631591796875 3.7408447265625 -5.6339111328125
-76.56884765625 25.19189453125 5.802001953125
-48.212158203125 42.2493896484375 -12.2293701171875
-32.515380859375 35.830078125 -5.7923583984375
15.9501953125 0.497314453125 -11.96630859375
-51.3798828125 2.63671875 6.3282470703125
7.744873046875 37.22216796875 -18.4986572265625
-8.633544921875 10.1043701171875 -2.41162109375
-31.122802734375 2.2510986328125 8.118408203125
8.919189453125 10.439453125 -16.104248046875
14.787841796875 -3.323974609375 -12.528564453125
-68.846923828125 35.693603515625 -4.8284912109375
-52.193603515625 23.7423095703125 8.0775146484375
6.314208984375 -6.2669677734375 -9.76513671875
22.34375 10.1458740234375 -2.1715087890625
5.76708984375 1.34619140625 7.7703857421875
7.84765625 -7.548828125 -6.2181396484375
-54.437255859375 33.209716796875 -2.816162109375
-19.67041015625 -8.1827392578125 -0.7576904296875
-35.125732421875 26.382080078125 5.5465087890625
-21.2275390625 30.8441162109375 -36.979248046875
-70.8720703125 27.37451171875 3.50048828125
-20.407470703125 8.72119140625 -15.8369140625
-66.853515625 29.6929931640625 0.8243408203125
-45.95654296875 24.828125 6.53076171875
14.111572265625 28.480712890625 -32.4415283203125
-25.090087890625 -6.209716796875 -0.99658203125
-52.8671875 -3.5406494140625 12.35888671875
66.724609375 -2.985595703125 11.224609375
-31.14697265625 13.1241455078125 -2.949951171875
62.354736328125 -15.614501953125 25.64599609375
49.895263671875 8.4720458984375 -19.2294921875
44.03564453125 4.8544921875 -13.1728515625
49.856201171875 -16.0870361328125 8.35498046875
-3.959716796875 7.663818359375 1.1558837890625
-41.019287109375 27.06884765625 3.9404296875
-5.2421875 9.109619140625 -1.0947265625
-40.763671875 2.2515869140625 1.8516845703125
-48.024658203125 -5.847900390625 15.0382080078125
-41.576171875 -7.7926025390625 16.858642578125
-46.638427734375 26.724365234375 3.8507080078125
68.605712890625 -12.8519287109375 22.1810302734375
-43.732177734375 34.0115966796875 -3.971435546875
-24.84033203125 -11.208251953125 0.9716796875
43.075927734375 0.3729248046875 -2.3671875
-35.2373046875 38.220458984375 -6.119873046875
9.107177734375 -2.2315673828125 -10.88134765625
12.029541015625 38.320556640625 -26.0501708984375
-12.440185546875 -11.42431640625 3.62255859375
-42.27587890625 42.2191162109375 -11.4150390625
10.196044921875 -32.301513671875 20.1171875
42.48583984375 7.804931640625 -18.3753662109375
-35.547119140625 11.53662109375 -3.250732421875
-44.28515625 28.44970703125 3.250244140625
41.469482421875 -4.796142578125 13.8404541015625
80.19970703125 -12.1090087890625 4.8565673828125
48.424560546875 -7.654052734375 -4.8577880859375
-5.1943359375 -7.992919921875 16.5028076171875
-18.916015625 -3.83984375 -5.7462158203125
-21.09619140625 10.8387451171875 -18.013916015625
6.8095703125 -15.5792236328125 10.5560302734375
-27.00048828125 9.664794921875 -0.484375
33.15234375 10.1461181640625 0.0697021484375
77.9658203125 -11.9415283203125 17.6734619140625
26.525390625 10.330810546875 -1.8397216796875
-61.911865234375 27.45068359375 5.352783203125
-57.000732421875 0.8065185546875 6.4039306640625
11.39892578125 35.672119140625 -22.232177734375
-31.857177734375 17.8948974609375 2.632080078125
45.224365234375 -8.5399169921875 10.4296875
-45.154541015625 9.0428466796875 -1.5277099609375
-20.261474609375 18.278564453125 -25.0439453125
12.1484375 35.1817626953125 -33.0330810546875
53.537353515625 7.313232421875 -18.781494140625
-30.364990234375 -12.597900390625 21.24267578125
35.620849609375 4.27685546875 -14.143310546875
60.59716796875 -2.470947265625 11.264404296875
-20.38525390625 -1.1007080078125 -7.3326416015625
68.413330078125 -6.611572265625 15.390380859375
17.56640625 26.525634765625 -33.7496337890625
-16.464599609375 6.274169921875 -12.389404296875
6.098876953125 -6.6456298828125 14.810791015625
-19.159423828125 25.802001953125 -33.794677734375
-17.3779296875 1.396728515625 -12.5921630859375
-24.15771484375 2.1934814453125 -5.2608642578125
34.68115234375 4.7784423828125 2.67578125
-43.0048828125 -1.0675048828125 10.0850830078125
-23.091552734375 -16.8118896484375 14.1810302734375
-37.308837890625 1.6837158203125 7.66943359375
-23.813720703125 5.326416015625 -5.625244140625
43.90234375 19.24365234375 -25.7296142578125
43.31298828125 13.4937744140625 -14.875
-13.91162109375 -12.53662109375 0.9281005859375
53.04638671875 -0.660400390625 -10.1279296875
-62.96826171875 21.7822265625 11.0390625
71.351806640625 -30.2275390625 19.2733154296875
-43.728759765625 34.1387939453125 -1.244873046875
38.530029296875 39.2479248046875 -5.4521484375
43.3603515625 24.078857421875 -32.678466796875
15.969970703125 -33.0108642578125 19.830078125
-66.444091796875 24.535400390625 8.3314208984375
47.789306640625 20.1407470703125 -30.0589599609375
11.869140625 19.020263671875 -23.3282470703125
-22.972900390625 8.831298828125 -12.393310546875
-21.47705078125 21.2021484375 -26.7916259765625
8.116455078125 -2.070556640625 10.544677734375
80.123779296875 -6.9644775390625 16.1650390625
72.95654296875 -9.736572265625 18.5787353515625
35.553955078125 19.0323486328125 -3.4312744140625
-30.0634765625 -4.25830078125 13.714599609375
61.355224609375 -8.58935546875 17.95263671875
-34.72119140625 1.60400390625 -1.321533203125
81.008056640625 -19.2142333984375 7.1019287109375
-84.00439453125 19.8634033203125 10.9674072265625
-59.832275390625 3.2161865234375 4.0870361328125
49.744384765625 -28.4791259765625 22.8521728515625
46.98046875 -15.5509033203125 8.8428955078125
79.248046875 -27.0426025390625 11.1219482421875
9.14794921875 -10.564208984375 -2.7073974609375
-26.625244140625 5.3941650390625 2.781982421875
79.3271484375 -21.737060546875 7.8265380859375
45.14404296875 -3.7484130859375 6.34716796875
-41.102294921875 -12.9298095703125 18.1129150390625
39.907958984375 33.65185546875 3.0267333984375
79.80224609375 -5.1954345703125 13.8160400390625
-24.999267578125 -0.2041015625 -6.275390625
32.323974609375 -6.068115234375 14.5147705078125
18.06787109375 7.5416259765625 -13.51318359375
-56.767578125 25.589111328125 5.310546875
-23.6708984375 -21.2525634765625 18.72705078125
-23.172119140625 26.8846435546875 5.3028564453125
15.67724609375 -23.830078125 11.860107421875
44.58837890625 -2.213623046875 -6.022216796875
60.694091796875 -12.9534912109375 22.7054443359375
22.775390625 30.6719970703125 -33.03466796875
36.12255859375 1.702392578125 6.340576171875
41.13818359375 7.1551513671875 0.988037109375
-48.18408203125 -8.58349609375 17.1793212890625
-7.26220703125 5.3773193359375 3.2330322265625
79.3623046875 -15.4136962890625 6.44677734375
-14.737060546875 -8.5374755859375 -1.5213623046875
28.01123046875 32.17626953125 -8.5867919921875
84.291015625 -27.72119140625 13.742431640625
9.168701171875 -17.5078125 4.114013671875
47.85693359375 2.7064208984375 -14.3858642578125
-23.36083984375 -12.21044921875 3.357421875
2.296630859375 5.4180908203125 3.6126708984375
33.825439453125 5.194091796875 -18.1783447265625
-66.07421875 34.13037109375 -2.38427734375
7.0908203125 -2.709228515625 -1.7242431640625
74.852783203125 -4.072998046875 12.74658203125
80.45263671875 -10.9029541015625 8.8624267578125
-17.8984375 14.466552734375 -21.412353515625
84.1953125 -21.99072265625 0.4586181640625
-59.63232421875 -2.624267578125 11.218505859375
8.2109375 -29.9229736328125 20.8004150390625
38.8916015625 -8.519287109375 16.9642333984375
-22.098876953125 34.4830322265625 -2.872314453125
-29.679443359375 31.36962890625 1.2086181640625
24.30517578125 20.5322265625 -7.4049072265625
-35.018310546875 -15.69189453125 13.390625
52.972900390625 2.7471923828125 -13.972412109375
32.718994140625 31.9720458984375 -2.075927734375
44.76123046875 -10.4056396484375 8.40576171875
8.3154296875 -22.277587890625 12.954833984375
-33.17041015625 41.4822998046875 -8.4658203125
24.058837890625 15.7952880859375 -6.1600341796875
89.0126953125 -12.744873046875 -1.6190185546875
-53.79736328125 17.625244140625 13.3167724609375
-50.094970703125 7.864990234375 0.5284423828125
-60.864501953125 -0.325439453125 8.2515869140625
89.066650390625 -22.6561279296875 0.480712890625
38.382080078125 -0.4674072265625 9.66259765625
25.2333984375 13.68115234375 -4.9273681640625
8.15576171875 -0.2843017578125 7.819091796875
-39.885498046875 0.663330078125 -3.662841796875
43.180908203125 12.523193359375 -19.094482421875
58.2001953125 -3.725830078125 12.6929931640625
63.173828125 -12.22705078125 21.519775390625
-52.8486328125 -7.70947265625 15.3389892578125
-67.78173828125 19.7337646484375 11.224609375
73.37939453125 -17.542724609375 20.4990234375
76.43408203125 -14.4202880859375 17.89990234375
-32.88037109375 -1.262451171875 10.4912109375
-30.21337890625 18.5054931640625 4.7674560546875
-26.1064453125 -13.6419677734375 23.03857421875
76.599609375 -24.277587890625 11.3240966796875
8.306396484375 -6.2515869140625 4.414794921875
40.9619140625 31.243896484375 6.214111328125
-59.3876953125 21.5819091796875 10.315673828125
-49.260498046875 -1.9825439453125 10.7200927734375
55.494384765625 -2.321044921875 10.408203125
71.15283203125 -28.4798583984375 16.194580078125
-1.376220703125 7.7347412109375 1.1533203125
9.8896484375 -14.394287109375 0.7286376953125
-68.88037109375 23.25634765625 7.5323486328125
-63.314208984375 35.9000244140625 -4.0240478515625
-61.1044921875 33.04736328125 -3.2919921875
27.871826171875 28.032958984375 -2.5615234375
-72.488525390625 29.3621826171875 2.33056640625
-35.728515625 -6.0596923828125 14.923095703125
-50.896240234375 25.66357421875 5.440673828125
-64.79052734375 16.63427734375 14.618896484375
-56.170654296875 24.29541015625 7.872314453125
-19.6025390625 -18.3585205078125 12.2689208984375
5.85205078125 1.94091796875 -1.4254150390625
-35.5849609375 -16.564697265625 17.811767578125
74.671630859375 -28.9693603515625 15.6630859375
80.78515625 -23.9354248046875 7.7286376953125
29.026123046875 22.4666748046875 -4.5064697265625
-60.3671875 40.9669189453125 -10.3087158203125
-25.439453125 -26.4893798828125 27.077880859375
-72.376708984375 15.2010498046875 15.398193359375
-52.8095703125 35.4434814453125 -4.492431640625
-64.664306640625 30.6551513671875 1.676025390625
-44.228271484375 38.914306640625 -8.2213134765625
6.71435546875 0.2833251953125 -3.303955078125
14.502197265625 -12.5845947265625 -1.8839111328125
-80.132568359375 20.0595703125 12.3441162109375
-74.058837890625 21.13623046875 9.7989501953125
-18.7958984375 -5.4066162109375 -3.474365234375
20.002685546875 -7.5928955078125 -8.30615234375
18.3125 13.5166015625 -21.61328125
-54.27001953125 22.6123046875 8.9854736328125
28.74267578125 -6.8248291015625 15.892333984375
-25.697021484375 -4.312255859375 -6.942138671875
-69.153076171875 16.77294921875 15.9808349609375
20.115234375 21.9462890625 -28.716796875
73.947998046875 -25.173095703125 12.83935546875
-44.888427734375 30.080078125 1.210205078125
21.457763671875 22.7476806640625 -26.34228515625
43.76611328125 4.7020263671875 1.9293212890625
-70.2197265625 3.9793701171875 3.7757568359375
-62.518798828125 38.7677001953125 -8.4781494140625
-19.899169921875 -27.808349609375 27.528076171875
17.206787109375 -5.0107421875 -7.6766357421875
-64.518310546875 21.924560546875 9.0330810546875
55.690673828125 -10.02490234375 18.63671875
-45.324462890625 -10.4786376953125 19.4625244140625
-23.208740234375 22.9078369140625 12.0599365234375
-15.46630859375 3.056884765625 -10.4039306640625
-22.835693359375 12.023681640625 -16.2305908203125
81.829833984375 -19.1873779296875 2.555908203125
21.084716796875 24.5111083984375 -30.6837158203125
-64.45703125 6.050048828125 3.4886474609375
-62.689453125 2.2440185546875 4.8531494140625
-55.574951171875 -3.68701171875 12.8106689453125
-25.15380859375 -6.101318359375 -3.544921875
4.70703125 8.5491943359375 -0.1995849609375
-71.646728515625 25.714599609375 6.3221435546875
-49.696533203125 0.0462646484375 7.60888671875
70.80322265625 -22.2939453125 19.1817626953125
4.760986328125 14.898193359375 -3.6390380859375
