43.15673828125 -0.5308837890625 -9.55419921875
62.131591796875 -14.763671875 26.0133056640625
56.751220703125 4.065185546875 -15.1761474609375
-48.914794921875 -5.953857421875 15.8292236328125
9.295166015625 2.705810546875 6.3165283203125
-21.648193359375 29.8807373046875 -31.0277099609375
89.57666015625 -24.960693359375 11.3216552734375
16.156005859375 9.2706298828125 -18.074951171875
43.984375 -0.363037109375 3.7691650390625
52.590087890625 -26.4959716796875 23.068115234375
-39.56591796875 -14.0780029296875 24.7818603515625
-45.889892578125 19.979248046875 12.3897705078125
63.617431640625 -6.9083251953125 16.4061279296875
7.953125 6.9691162109375 -1.622802734375
-62.197265625 43.0694580078125 -8.6544189453125
41.78759765625 33.2213134765625 -38.5076904296875
-31.40380859375 -2.9779052734375 13.982666015625
82.54541015625 -21.1209716796875 6.2247314453125
-43.477294921875 14.7318115234375 2.3907470703125
17.872314453125 -29.3553466796875 17.871826171875
2.537353515625 12.758056640625 -1.586669921875
-64.79736328125 32.971435546875 -0.2451171875
-36.7451171875 -0.245849609375 1.1715087890625
20.78076171875 2.24755859375 -7.7113037109375
-24.125732421875 -24.877685546875 24.7431640625
-16.97021484375 -2.199951171875 -5.5350341796875
-11.324462890625 -10.0863037109375 3.1162109375
29.60791015625 23.79541015625 -3.6871337890625
75.62548828125 -0.8038330078125 10.4793701171875
8.0966796875 -6.989013671875 16.916748046875
-11.350341796875 10.9996337890625 -2.9354248046875
19.555419921875 8.854736328125 -11.348876953125
19.64013671875 -19.9669189453125 7.6832275390625
-57.725830078125 34.158203125 -0.416015625
-58.476318359375 3.1124267578125 6.346435546875
-57.3701171875 25.805908203125 8.6427001953125
53.457763671875 17.56787109375 -23.0321044921875
48.821044921875 27.7503662109375 -34.97998046875
-4.451171875 7.1031494140625 3.2510986328125
84.547607421875 -29.29541015625 17.4901123046875
64.802978515625 -2.4698486328125 11.6168212890625
47.07275390625 -7.286376953125 13.77685546875
-28.989501953125 33.3641357421875 -0.2935791015625
-36.89794921875 8.52587890625 -2.1658935546875
-22.088134765625 25.2664794921875 -26.409423828125
-45.27734375 2.0833740234375 8.2208251953125
14.653564453125 36.7078857421875 -18.6536865234375
36.79638671875 9.2969970703125 -16.0098876953125
53.614501953125 -17.486328125 12.859375
-23.51416015625 7.698974609375 1.6142578125
56.51318359375 -8.352783203125 16.226318359375
-22.32177734375 -9.7657470703125 19.5054931640625
49.848388671875 8.41162109375 -17.7891845703125
51.113037109375 -0.6492919921875 -8.4283447265625
-35.4248046875 27.3834228515625 6.6263427734375
76.86328125 -26.05322265625 13.2275390625
43.3466796875 38.6617431640625 2.0682373046875
71.95556640625 -9.6727294921875 18.6177978515625
-15.734619140625 21.7977294921875 -23.9033203125
72.811767578125 -29.321044921875 18.5430908203125
-36.21240234375 41.761474609375 -8.3876953125
70.584716796875 -14.09521484375 25.0396728515625
39.31103515625 33.283447265625 0.1429443359375
40.066650390625 -7.7469482421875 17.4073486328125
-15.068359375 12.2540283203125 -11.950439453125
12.90087890625 -17.45751953125 3.152587890625
-26.939453125 40.962890625 -7.0660400390625
19.50537109375 -11.6676025390625 -1.799072265625
23.232666015625 14.5284423828125 -5.5350341796875
-77.754638671875 26.84326171875 6.951904296875
-23.924560546875 27.6663818359375 7.15087890625
8.69091796875 37.105224609375 -19.4892578125
13.3583984375 -24.696044921875 10.2801513671875
-44.769775390625 25.1251220703125 7.7955322265625
45.027587890625 9.6220703125 -6.234375
48.573486328125 -6.9171142578125 0.205810546875
23.91845703125 34.547119140625 -34.960205078125
-23.9228515625 36.544921875 -1.553466796875
13.94189453125 33.4180908203125 -24.0660400390625
-11.811767578125 -2.3201904296875 -8.3284912109375
-66.2958984375 29.1973876953125 4.7808837890625
-49.072265625 5.4002685546875 3.1624755859375
-19.234375 6.2183837890625 -12.148681640625
80.71142578125 -11.215576171875 11.17529296875
9.290283203125 -29.7139892578125 20.1512451171875
47.227783203125 18.6829833984375 -25.4937744140625
18.870361328125 -32.84814453125 22.423095703125
-44.2626953125 34.420166015625 0.3731689453125
-21.96533203125 16.5045166015625 -17.5164794921875
17.061767578125 14.9189453125 -22.59814453125
70.484375 -21.2515869140625 23.527099609375
54.1806640625 -7.8309326171875 8.210205078125
29.15380859375 32.599365234375 -4.870361328125
-39.6630859375 -14.692626953125 15.640625
78.65234375 -17.5198974609375 8.5343017578125
-69.605224609375 22.3338623046875 11.9091796875
-29.24365234375 28.726806640625 4.305908203125
-34.677490234375 -13.90185546875 20.6595458984375
-23.927734375 -8.321533203125 -0.1419677734375
-29.468505859375 -12.1107177734375 22.6256103515625
-56.9599609375 -1.0653076171875 10.5333251953125
-18.10302734375 -12.937255859375 5.6959228515625
45.9765625 -13.3572998046875 11.3673095703125
43.00830078125 5.1954345703125 3.776123046875
14.998291015625 23.894775390625 -27.2427978515625
-50.413818359375 -2.236083984375 11.8143310546875
-38.70556640625 3.5738525390625 -3.9991455078125
8.1640625 1.6434326171875 0.0010986328125
-25.90478515625 22.5052490234375 11.5345458984375
44.90087890625 17.27587890625 -16.0731201171875
21.59130859375 19.2027587890625 -22.2779541015625
-36.86962890625 -2.623046875 13.188232421875
-23.61328125 4.2451171875 -2.6187744140625
46.31640625 12.812255859375 -21.1671142578125
-71.004150390625 15.1153564453125 18.603759765625
28.9111328125 17.593017578125 -4.786865234375
-30.879638671875 14.48486328125 -2.12890625
34.3427734375 11.8896484375 -2.2115478515625
11.419921875 0.25 -10.3289794921875
-1.44580078125 4.1971435546875 6.6455078125
76.3515625 -7.4307861328125 16.4803466796875
34.011474609375 24.731201171875 0.0687255859375
-52.66015625 39.6278076171875 -6.91943359375
-47.3505859375 37.5382080078125 -5.4439697265625
34.94189453125 39.38671875 -7.840087890625
47.01171875 23.6795654296875 -31.919677734375
-39.311279296875 2.3360595703125 6.9906005859375
-51.625732421875 19.6768798828125 14.0648193359375
-17.750244140625 1.98876953125 -9.28173828125
8.25537109375 -8.1934814453125 -3.0264892578125
-24.4775390625 8.718505859375 -6.997802734375
-34.334228515625 4.4720458984375 0.78662109375
-61.580078125 20.3582763671875 12.990966796875
13.09130859375 -29.47900390625 15.6298828125
56.752685546875 -2.3603515625 -1.6219482421875
-21.59326171875 -14.10595703125 16.641845703125
-61.26318359375 17.2303466796875 17.1766357421875
2.7109375 -7.7803955078125 19.4237060546875
-26.603759765625 -1.89208984375 12.23291015625
-35.96826171875 35.6251220703125 -2.752685546875
-31.93701171875 -16.96630859375 15.9044189453125
89.132080078125 -16.681884765625 1.37841796875
41.89501953125 2.1805419921875 7.786376953125
84.15869140625 -11.4361572265625 1.9547119140625
32.180419921875 -2.2701416015625 12.1971435546875
14.587646484375 -13.8359375 -0.854248046875
-43.0419921875 -5.88720703125 16.0955810546875
5.34423828125 -3.439208984375 13.7762451171875
-80.371826171875 18.4395751953125 14.57275390625
74.92626953125 -16.48583984375 23.802001953125
52.002685546875 -10.220703125 4.258544921875
32.04150390625 3.7052001953125 5.364501953125
-23.687744140625 -11.0072021484375 10.8447265625
-17.293701171875 28.8170166015625 -33.384033203125
26.31982421875 3.3524169921875 6.3262939453125
78.081787109375 -19.1578369140625 3.4517822265625
-42.78955078125 41.21240234375 -7.3402099609375
-18.104248046875 -21.933349609375 18.0533447265625
-40.204833984375 28.3170166015625 5.1123046875
-41.736328125 10.49560546875 0.3143310546875
70.505859375 -1.605224609375 11.0281982421875
52.826171875 3.8861083984375 -12.0517578125
47.718017578125 -22.569091796875 16.87255859375
-71.583251953125 18.5037841796875 14.40087890625
-67.8857421875 2.2161865234375 6.8797607421875
-74.54052734375 31.1368408203125 3.3245849609375
42.405517578125 -3.78466796875 13.436767578125
-16.249755859375 17.285888671875 -21.5631103515625
15.38623046875 41.3673095703125 -20.0911865234375
-27.544189453125 -5.7149658203125 16.2928466796875
51.515869140625 12.145263671875 -21.516357421875
-54.080810546875 4.4404296875 4.599365234375
23.35595703125 10.6734619140625 -1.2396240234375
5.83203125 15.8729248046875 -3.4664306640625
-19.31103515625 -17.4296875 7.2425537109375
9.205322265625 -17.953369140625 6.322021484375
-55.42919921875 22.1763916015625 11.489013671875
66.490966796875 -16.62451171875 27.212646484375
43.9794921875 0.2503662109375 -1.201904296875
51.150634765625 27.614501953125 -30.5634765625
44.744873046875 29.5828857421875 -37.2227783203125
-12.432861328125 8.2918701171875 -8.902587890625
7.61181640625 -2.2900390625 -6.8438720703125
-31.7880859375 8.6297607421875 -1.2083740234375
-19.868408203125 -5.357177734375 -1.734619140625
-49.053466796875 32.042724609375 1.1875
79.997802734375 -29.922607421875 14.6177978515625
-62.358154296875 37.2734375 -3.1151123046875
33.477783203125 3.79931640625 -19.437255859375
45.28515625 10.0218505859375 -1.473876953125
-3.47509765625 -7.0223388671875 15.71728515625
43.874755859375 4.0198974609375 -6.3609619140625
-2.823974609375 -0.9844970703125 10.826171875
75.638916015625 -15.95849609375 18.5284423828125
46.878173828125 -1.5277099609375 -6.44140625
33.844970703125 -6.0616455078125 15.310302734375
44.88232421875 20.779052734375 -21.939697265625
85.77587890625 -24.148193359375 7.910888671875
73.750244140625 -25.177734375 9.77685546875
80.02880859375 -10.387939453125 16.3153076171875
84.55419921875 -20.1650390625 1.6326904296875
-0.183349609375 8.1319580078125 1.531494140625
61.304443359375 -9.7994384765625 19.313720703125
10.665771484375 22.71923828125 -22.0750732421875
19.805908203125 31.024658203125 -34.5758056640625
16.1962890625 -1.474365234375 -12.4129638671875
-17.756591796875 10.1937255859375 -15.6953125
-7.936767578125 14.0396728515625 -3.7998046875
39.788330078125 -1.2408447265625 10.12353515625
-34.92041015625 -9.891845703125 16.04736328125
48.79541015625 -17.419189453125 10.400390625
52.426025390625 -30.0902099609375 25.9693603515625
76.18310546875 -20.755859375 10.7159423828125
-30.126708984375 -0.184326171875 9.8040771484375
-15.204345703125 32.8818359375 -32.815185546875
-27.754150390625 4.515869140625 6.42041015625
-39.6748046875 -15.5421142578125 20.1533203125
4.06982421875 2.5621337890625 6.32958984375
13.798828125 33.4117431640625 -31.762939453125
70.8935546875 -24.6658935546875 20.4903564453125
20.273193359375 -3.3050537109375 -8.12744140625
44.896728515625 -12.248291015625 15.7696533203125
87.2255859375 -26.5303955078125 14.906005859375
21.843017578125 26.2713623046875 -29.62890625
9.4375 -5.711669921875 5.3895263671875
48.733154296875 -26.0086669921875 19.6617431640625
9.7880859375 4.7333984375 -10.5985107421875
-22.788818359375 -0.5821533203125 -6.7225341796875
79.501220703125 -2.450439453125 12.09521484375
-61.48193359375 26.808349609375 7.0927734375
-31.872802734375 42.276611328125 -7.29638671875
-39.389892578125 32.7562255859375 0.0965576171875
46.4111328125 -26.6036376953125 23.8460693359375
65.254638671875 -29.8055419921875 22.3739013671875
82.157470703125 -16.6195068359375 4.737060546875
34.92919921875 32.580078125 0.799072265625
-17.345703125 -17.2750244140625 11.26953125
16.30224609375 -22.68505859375 6.445068359375
-80.97705078125 24.606689453125 9.084716796875
8.228271484375 -13.6658935546875 12.95263671875
-68.0263671875 25.634521484375 7.06298828125
-54.791748046875 36.667236328125 -2.58544921875
13.19580078125 5.73681640625 -14.899658203125
-76.109375 19.5047607421875 14.0301513671875
53.31640625 -13.7095947265625 10.590576171875
-22.58544921875 -14.4794921875 7.0645751953125
-54.024658203125 32.329345703125 1.990966796875
67.997314453125 -7.9603271484375 17.75537109375
6.003173828125 -1.1884765625 9.8023681640625
29.37939453125 -7.1798095703125 19.5260009765625
64.51025390625 3.2652587890625 5.9552001953125
7.467041015625 -14.065185546875 8.659423828125
45.85693359375 7.7186279296875 -16.1470947265625
-48.667724609375 -9.2294921875 18.69140625
-7.272705078125 9.1019287109375 0.6046142578125
52.11083984375 21.32177734375 -24.7440185546875
-13.0849609375 -9.2413330078125 -0.753173828125
-20.280517578125 -27.2293701171875 24.788818359375
-49.01220703125 26.5714111328125 5.8807373046875
11.778076171875 18.929931640625 -19.9425048828125
-19.55078125 -19.677734375 14.688232421875
-68.380859375 31.5107421875 1.6326904296875
30.451904296875 8.8310546875 -0.001953125
80.34375 -23.2313232421875 9.2503662109375
-21.80810546875 -23.6927490234375 21.3260498046875
-40.39990234375 -11.5828857421875 18.6575927734375
-55.974853515625 42.26025390625 -7.6077880859375
-50.0615234375 44.43994140625 -10.59521484375
49.529296875 -20.486083984375 13.2694091796875
71.566650390625 -25.968994140625 16.2216796875
-27.11474609375 -9.996826171875 19.78466796875
-22.4619140625 -9.3358154296875 4.0438232421875
-35.2724609375 23.1312255859375 7.9190673828125
18.188232421875 -16.54541015625 5.2947998046875
-52.38232421875 7.808837890625 2.08837890625
-39.31884765625 -0.426513671875 10.19384765625
38.422119140625 4.9735107421875 4.6580810546875
9.627685546875 -21.2681884765625 11.0694580078125
6.330078125 10.935791015625 -1.7783203125
-32.770751953125 -0.0758056640625 -0.213134765625
-21.070068359375 30.5672607421875 6.0697021484375
-21.13232421875 33.2252197265625 -35.5224609375
89.052978515625 -20.3619384765625 -0.6558837890625
44.135009765625 -6.8319091796875 16.74853515625
47.50048828125 1.003662109375 -9.7955322265625
-62.558349609375 2.4022216796875 5.704345703125
18.62060546875 18.639892578125 -25.56787109375
-8.01171875 5.17529296875 5.5208740234375
52.612548828125 6.7547607421875 -15.11376953125
87.3095703125 -33.0596923828125 18.5841064453125
44.056396484375 15.6845703125 -11.1480712890625
9.903076171875 -32.837890625 22.868408203125
61.839599609375 -12.489501953125 22.5257568359375
-72.526611328125 24.9583740234375 8.8636474609375
76.015625 -19.4022216796875 15.52587890625
-18.690673828125 22.3770751953125 -26.7779541015625
43.831298828125 8.2821044921875 -9.9873046875
-15.74267578125 -5.2579345703125 -2.1334228515625
17.1767578125 -8.1591796875 -4.2642822265625
46.41259765625 -3.34912109375 6.225830078125
12.303466796875 10.4503173828125 -17.2117919921875
-33.7431640625 -5.9622802734375 16.3590087890625
7.5859375 38.77734375 -24.9019775390625
57.226806640625 -3.4307861328125 -5.5557861328125
43.23583984375 12.857666015625 -3.6134033203125
32.545166015625 0.583984375 8.6971435546875
-37.992431640625 38.8724365234375 -6.06982421875
24.1181640625 3.436279296875 2.8836669921875
-46.7626953125 -1.21435546875 10.294921875
48.232421875 -6.6710205078125 -4.761962890625
-45.108154296875 5.286376953125 4.0947265625
32.70947265625 15.370849609375 -3.889404296875
53.84326171875 12.7933349609375 -18.2486572265625
55.491455078125 -4.028076171875 8.7095947265625
-60.26220703125 5.390869140625 3.5133056640625
12.1083984375 -6.2275390625 -6.4229736328125
-22.14306640625 8.457275390625 -10.293701171875
45.000732421875 32.06689453125 -40.677978515625
-31.3154296875 -12.822998046875 18.6917724609375
83.400390625 -32.22265625 20.0269775390625
-34.383544921875 12.104248046875 -2.3662109375
-20.196533203125 26.2796630859375 -29.930908203125
72.81689453125 -12.028564453125 21.770751953125
-65.54443359375 20.667724609375 12.4129638671875
46.367431640625 -7.25048828125 9.5772705078125
18.255859375 12.1103515625 -19.962158203125
14.22412109375 12.6680908203125 -20.0826416015625
-11.385498046875 -13.455078125 5.2657470703125
44.179931640625 12.7177734375 -16.7879638671875
8.12353515625 6.607177734375 2.3486328125
13.806640625 33.7755126953125 -16.09423828125
-60.62939453125 23.5435791015625 10.800048828125
18.252197265625 7.8084716796875 -15.022705078125
-26.19189453125 44.748046875 -10.34814453125
24.8486328125 8.0238037109375 1.3287353515625
-31.7314453125 32.9676513671875 2.5521240234375
75.598388671875 -29.1689453125 15.3267822265625
74.037841796875 -32.9117431640625 19.6829833984375
67.025634765625 -4.542724609375 14.150390625
7.772705078125 0.36376953125 -3.9144287109375
76.013671875 -4.2806396484375 14.1192626953125
-79.4208984375 21.7618408203125 12.662109375
64.902587890625 0.3187255859375 8.5528564453125
15.78076171875 -26.6021728515625 13.5386962890625
-61.770263671875 39.4892578125 -7.0714111328125
18.974853515625 5.488037109375 -9.0228271484375
-24.508544921875 38.3094482421875 -5.01708984375
35.8232421875 7.5528564453125 -2.578125
32.2568359375 20.9398193359375 -4.084228515625
13.019775390625 28.4122314453125 -27.933837890625
-52.664306640625 -6.7572021484375 16.5936279296875
68.858642578125 -29.2374267578125 19.7989501953125
-14.51708984375 0.7333984375 -6.75341796875
-60.661376953125 -1.719970703125 11.5589599609375
42.60498046875 16.8681640625 -3.527587890625
-56.1142578125 27.29345703125 5.271484375
89.325439453125 -22.4671630859375 8.343017578125
41.495849609375 36.638916015625 -0.69091796875
-27.906982421875 37.080322265625 -3.3115234375
42.9736328125 18.94091796875 -9.33056640625
-68.362060546875 34.4383544921875 -2.1436767578125
4.008056640625 8.7764892578125 0.8970947265625
45.8505859375 15.298583984375 -24.0989990234375
49.569580078125 -28.905029296875 22.99267578125
55.616943359375 1.275634765625 -12.7623291015625
4.390625 -6.766845703125 15.869384765625
-46.172607421875 44.53466796875 -10.5592041015625
23.197265625 25.404541015625 -26.1270751953125
-35.353759765625 -15.2791748046875 16.38330078125
19.60400390625 -0.448974609375 -10.9832763671875
38.81640625 32.718505859375 4.5205078125
30.731689453125 35.4022216796875 -6.918701171875
48.256591796875 -10.4425048828125 3.615966796875
-42.65771484375 20.673583984375 8.7220458984375
46.144775390625 -10.852783203125 7.204833984375
-35.800048828125 45.1083984375 -10.1336669921875
61.972900390625 -4.840087890625 13.685302734375
65.319580078125 -14.669677734375 23.963623046875
-13.440673828125 9.1092529296875 -13.2950439453125
43.804931640625 25.859619140625 -30.72900390625
34.3583984375 29.890869140625 3.3992919921875
89.6689453125 -28.530517578125 12.8228759765625
-3.400146484375 -3.5035400390625 13.64404296875
-23.517333984375 43.3177490234375 -8.1016845703125
14.63671875 37.1700439453125 -25.7586669921875
-26.591796875 31.37646484375 1.8089599609375
9.9228515625 9.624755859375 0.130615234375
-61.15283203125 33.918701171875 -1.895751953125
-44.808837890625 8.6451416015625 1.3736572265625
42.71826171875 5.709716796875 -15.880126953125
-39.959228515625 6.7587890625 -0.979248046875
-52.52099609375 26.386474609375 7.1201171875
-34.157470703125 6.10302734375 -3.7303466796875
-1.490478515625 -8.1475830078125 18.6409912109375
80.6943359375 -14.2860107421875 9.0963134765625
9.2275390625 -5.135986328125 13.857177734375
18.654541015625 -25.3531494140625 16.574462890625
11.39990234375 -11.96826171875 -0.7080078125
-39.549072265625 1.0521240234375 -0.8582763671875
-59.70458984375 0.239990234375 8.4644775390625
-39.52978515625 2.9002685546875 2.9107666015625
-49.16015625 3.2552490234375 6.232666015625
42.251220703125 -7.58935546875 20.3468017578125
-19.64697265625 16.292724609375 -20.622314453125
45.83935546875 -4.74609375 1.3087158203125
-15.3154296875 -10.98828125 4.3509521484375
0.902587890625 -2.468994140625 11.9132080078125
-19.1708984375 13.0762939453125 -18.5794677734375
-17.001953125 3.47607421875 -13.0372314453125
-43.722900390625 -8.673095703125 18.3465576171875
12.322509765625 37.118408203125 -21.54833984375
13.797607421875 16.2430419921875 -21.663330078125
53.986083984375 -1.802001953125 -6.5196533203125
53.091064453125 -12.1007080078125 7.3392333984375
-24.958251953125 -7.8475341796875 17.693359375
-32.883544921875 35.3642578125 -0.8541259765625
8.201171875 -11.0211181640625 0.7391357421875
36.03076171875 38.558837890625 -4.4815673828125
-46.76806640625 -3.7603759765625 13.8994140625
-27.281005859375 9.345947265625 1.5443115234375
88.056640625 -29.837158203125 16.788330078125
-60.482177734375 32.416748046875 1.32568359375
87.48583984375 -12.87841796875 0.8221435546875
86.185302734375 -26.3509521484375 11.42724609375
52.748046875 -24.276611328125 20.0931396484375
-40.934326171875 25.1265869140625 6.7120361328125
-21.290283203125 3.2674560546875 -12.1851806640625
47.1552734375 -4.3087158203125 11.76220703125
45.6240234375 26.547119140625 -33.8602294921875
60.074462890625 -1.322509765625 9.9906005859375
-32.6865234375 29.6766357421875 4.625
-53.4296875 -1.1715087890625 9.9306640625
16.09716796875 -16.278076171875 2.0518798828125
36.799072265625 5.990478515625 -13.729736328125
-67.5693359375 5.09814453125 3.4151611328125
-34.527099609375 39.4820556640625 -5.081298828125
-48.657958984375 22.138671875 11.73193359375
41.72705078125 31.5809326171875 -35.343017578125
49.56103515625 30.89111328125 -36.5648193359375
-23.9111328125 -26.975830078125 27.606689453125
11.508544921875 36.5120849609375 -17.00634765625
11.28955078125 -2.837158203125 -7.108154296875
68.4306640625 -11.2750244140625 25.1622314453125
47.7177734375 21.4803466796875 -29.22314453125
-13.98828125 4.63134765625 -7.468017578125
17.18505859375 -5.5936279296875 -6.6949462890625
-42.7763671875 -0.15478515625 9.3253173828125
-52.253662109375 -4.6834716796875 13.7645263671875
-23.865478515625 -4.7978515625 -0.1929931640625
-45.056884765625 36.52783203125 -2.969482421875
16.61328125 -33.131103515625 19.748291015625
-6.797119140625 -1.43701171875 11.1114501953125
71.772216796875 0.83349609375 8.8729248046875
-53.31884765625 33.885986328125 -1.0467529296875
13.297607421875 30.5986328125 -21.986572265625
20.430419921875 28.8709716796875 -31.918212890625
-41.71630859375 31.05126953125 3.4189453125
33.253662109375 5.928955078125 2.9935302734375
54.183837890625 9.5836181640625 -16.9903564453125
79.023193359375 -12.7281494140625 13.96728515625
28.031494140625 -3.56884765625 12.1754150390625
45.791259765625 0.3106689453125 7.5924072265625
-58.20751953125 43.2401123046875 -10.0445556640625
46.784912109375 10.3123779296875 -18.2191162109375
50.323486328125 19.567626953125 -27.10595703125
70.08203125 -17.0946044921875 26.64794921875
-25.341552734375 6.2193603515625 4.123291015625
17.48583984375 -22.189208984375 9.6331787109375
-41.414306640625 35.7403564453125 -1.022705078125
-17.88037109375 19.15771484375 -24.3641357421875
37.598388671875 -5.8245849609375 15.994384765625
-20.86328125 -2.8045654296875 -3.8017578125
40.834228515625 7.4169921875 2.32763671875
-51.6728515625 37.629638671875 -4.071044921875
11.279052734375 14.9149169921875 -5.4906005859375
9.102783203125 -21.3607177734375 6.619384765625
13.639892578125 -20.612060546875 4.943359375
-40.206787109375 -4.583251953125 14.7100830078125
-71.1875 30.2896728515625 3.140380859375
-13.48291015625 -4.08203125 -5.2740478515625
58.222900390625 -13.228759765625 24.067138671875
52.3984375 -5.44580078125 0.0328369140625
-30.520263671875 2.7684326171875 8.168212890625
-56.489990234375 30.3165283203125 3.767822265625
28.3173828125 26.6944580078125 -2.4827880859375
7.25439453125 -17.3953857421875 3.6043701171875
45.1826171875 4.1258544921875 -9.48583984375
-33.80029296875 -1.13916015625 11.4678955078125
73.60546875 -2.9306640625 12.165283203125
-45.720947265625 27.9334716796875 6.0579833984375
21.537841796875 -15.3922119140625 -0.8443603515625
79.943603515625 -25.1693115234375 12.1627197265625
41.1171875 34.4744873046875 2.7322998046875
-55.225341796875 1.3565673828125 7.459716796875
85.70068359375 -21.55517578125 4.48193359375
12.9423828125 2.9552001953125 -12.2989501953125
77.6611328125 -13.829345703125 16.8406982421875
72.93017578125 -18.5537109375 25.6444091796875
44.67578125 7.17529296875 0.8211669921875
36.150634765625 -7.5867919921875 18.7996826171875
-22.18896484375 22.66162109375 -24.3143310546875
17.485595703125 -13.50927734375 0.780029296875
36.494873046875 -0.6854248046875 10.2030029296875
17.5927734375 25.8834228515625 -29.5501708984375
50.73681640625 16.2540283203125 -24.444580078125
32.1201171875 32.3992919921875 -0.9749755859375
50.7939453125 -3.1336669921875 -6.246826171875
75.732666015625 -9.7508544921875 18.758056640625
58.3115234375 -5.729248046875 14.9375
43.740234375 -2.7802734375 -6.0404052734375
-26.203369140625 25.79052734375 8.6224365234375
-63.177001953125 30.1597900390625 3.2952880859375
-37.971435546875 30.0076904296875 3.3917236328125
-18.999755859375 -0.291015625 -7.279296875
-26.3193359375 29.8455810546875 5.28564453125
81.923583984375 -13.9791259765625 2.807861328125
37.318603515625 20.2001953125 -1.5797119140625
11.60400390625 -26.1739501953125 12.95654296875
-21.127685546875 34.719482421875 1.238037109375
-36.586669921875 34.40185546875 0.822998046875
50.240966796875 3.995849609375 -14.05517578125
-25.868896484375 34.49609375 0.070556640625
6.177490234375 4.558349609375 3.9725341796875
56.872802734375 6.4488525390625 -19.1474609375
9.495361328125 0.2816162109375 8.4832763671875
7.266845703125 -12.5771484375 15.9364013671875
-28.970458984375 42.99267578125 -8.592529296875
52.320068359375 -19.975830078125 14.848388671875
-20.81640625 38.046630859375 -3.2945556640625
-68.6923828125 19.217041015625 13.1099853515625
-21.11962890625 26.3544921875 8.11328125
-25.31103515625 -11.4951171875 22.0213623046875
-49.518310546875 39.8980712890625 -5.8690185546875
-16.289794921875 7.5218505859375 -12.42333984375
-48.04248046875 25.2769775390625 8.969970703125
27.417724609375 21.4739990234375 -5.8077392578125
-64.484619140625 16.6976318359375 18.314453125
-22.947021484375 7.0618896484375 -4.6961669921875
-46.979736328125 34.5035400390625 -1.364990234375
-58.1689453125 35.904296875 -3.82958984375
-29.296630859375 21.6268310546875 9.3304443359375
29.248291015625 30.26953125 -1.952392578125
10.487060546875 -15.343994140625 2.9266357421875
43.822021484375 1.188720703125 -4.2723388671875
-31.916015625 -13.560302734375 15.6263427734375
-22.892578125 22.704833984375 10.450927734375
-42.8759765625 13.32568359375 -0.674072265625
-52.207763671875 42.1805419921875 -8.8043212890625
13.62939453125 -31.4051513671875 18.1336669921875
50.41650390625 1.0479736328125 -11.1229248046875
15.80615234375 31.44482421875 -33.30126953125
-38.343505859375 11.1890869140625 -1.131591796875
17.37060546875 -2.2716064453125 -9.5435791015625
-42.232177734375 3.5555419921875 6.5140380859375
44.97119140625 35.64111328125 3.5592041015625
-0.34521484375 11.4244384765625 -1.9163818359375
21.33203125 -6.20068359375 -8.9512939453125
-45.97607421875 -7.0423583984375 16.585205078125
-44.6650390625 10.33935546875 -1.3262939453125
-21.64892578125 -12.3563232421875 21.2353515625
-64.588623046875 26.8250732421875 6.387939453125
-38.888427734375 43.4517822265625 -8.667724609375
14.0576171875 39.8367919921875 -22.563232421875
16.544189453125 -19.3739013671875 5.2899169921875
7.043701171875 38.6966552734375 -21.780517578125
25.464599609375 17.4708251953125 -5.7353515625
-49.142822265625 29.9432373046875 4.30078125
-40.019287109375 14.030517578125 -1.94970703125
-22.18408203125 -16.8726806640625 15.231689453125
49.83203125 25.30078125 -32.2657470703125
-20.684814453125 -7.989013671875 1.302978515625
-63.448486328125 17.8062744140625 14.831787109375
30.878173828125 25.971435546875 -0.418212890625
38.520263671875 36.5308837890625 -1.7205810546875
18.563720703125 2.5389404296875 -10.038330078125
-36.78125 -5.3153076171875 14.7989501953125
-45.435546875 39.5545654296875 -7.042236328125
-3.64697265625 9.001708984375 -0.015380859375
42.742919921875 11.7254638671875 -0.7349853515625
52.0556640625 -16.705078125 10.2578125
11.6494140625 -23.0565185546875 7.6322021484375
29.02490234375 4.510986328125 5.2427978515625
-46.05224609375 23.0435791015625 10.2669677734375
13.248046875 23.8841552734375 -24.657958984375
-3.329345703125 1.6246337890625 8.5010986328125
-29.048583984375 -14.070068359375 25.0147705078125
56.89697265625 -10.6346435546875 18.8912353515625
-31.4111328125 26.5872802734375 6.39892578125
0.3212890625 6.30126953125 3.9986572265625
-29.519775390625 11.7376708984375 -1.591064453125
-31.183837890625 5.8074951171875 -0.04833984375
-24.669921875 -4.3258056640625 15.03076171875
9.331787109375 -27.7303466796875 17.598388671875
79.7587890625 -19.268310546875 6.06298828125
-49.670654296875 0.0079345703125 9.8148193359375
-75.35595703125 24.9873046875 7.56689453125
-37.846923828125 25.2147216796875 6.5321044921875
-73.35107421875 20.927001953125 11.757080078125
69.225830078125 -10.7037353515625 20.0089111328125
-6.375 -5.9873046875 15.9921875
78.637939453125 -10.8643798828125 19.10986328125
-5.072998046875 3.62939453125 5.4761962890625
21.927001953125 17.257080078125 -19.5867919921875
21.750732421875 -17.6153564453125 4.1212158203125
51.42529296875 -8.173583984375 2.0234375
53.69970703125 14.8021240234375 -24.373046875
-35.443359375 3.66845703125 -1.970947265625
19.070068359375 10.5096435546875 -16.2518310546875
79.984130859375 -6.9130859375 17.151611328125
16.47265625 -10.4969482421875 -2.395751953125
-54.994140625 -2.9158935546875 12.4609375
36.19384765625 15.487060546875 -2.930908203125
9.127197265625 -4.9986572265625 -6.882568359375
67.19482421875 -1.17041015625 10.207275390625
72.34521484375 -20.981201171875 20.1282958984375
22.385498046875 21.8265380859375 -23.6318359375
-22.080078125 13.79345703125 -15.518310546875
-41.843505859375 -11.0460205078125 21.2879638671875
75.591796875 -31.4208984375 17.52587890625
-19.487548828125 30.539306640625 -34.60986328125
-8.8525390625 11.6910400390625 -1.3345947265625
-18.51025390625 -27.3836669921875 27.262451171875
-46.18505859375 32.4722900390625 2.1141357421875
35.56591796875 6.166748046875 -16.503662109375
50.52587890625 -23.66943359375 17.214111328125
8.27099609375 -1.544189453125 -1.61328125
-64.572509765625 40.56884765625 -6.67236328125
-8.53466796875 6.0186767578125 2.502197265625
74.624267578125 -13.4786376953125 23.8052978515625
73.458984375 -27.3414306640625 14.2237548828125
43.7099609375 -2.479248046875 -2.470458984375
72.377197265625 -6.8448486328125 16.7364501953125
79.28173828125 -14.843017578125 11.6978759765625
47.270263671875 -14.9610595703125 9.174560546875
-64.941162109375 35.8841552734375 -2.44482421875
45.5234375 18.3099365234375 -11.113525390625
-21.056396484375 -11.77392578125 5.0928955078125
-53.974853515625 17.8568115234375 14.48583984375
74.2265625 -18.02490234375 20.176025390625
82.519287109375 -17.361328125 1.861328125
31.190673828125 12.9708251953125 -2.952392578125
6.911376953125 -12.0240478515625 10.8330078125
85.58056640625 -19.4041748046875 -1.0655517578125
-69.6875 17.3580322265625 16.4002685546875
47.302978515625 30.549072265625 -38.5263671875
64.7666015625 -9.522216796875 19.5662841796875
-22.526123046875 8.62353515625 -1.0286865234375
6.914306640625 9.347900390625 1.0740966796875
25.47802734375 12.7491455078125 -3.46728515625
-21.296142578125 35.18310546875 -1.7591552734375
59.700927734375 -7.642822265625 16.7208251953125
-23.7783203125 1.5701904296875 -4.9515380859375
81.968017578125 -10.434814453125 3.8524169921875
47.117919921875 -8.5838623046875 16.427734375
19.954833984375 -8.9150390625 -3.442626953125
45.447021484375 21.0272216796875 -25.5233154296875
-67.495361328125 15.30029296875 17.364501953125
15.363037109375 20.8372802734375 -25.890869140625
-0.521728515625 1.042724609375 7.86083984375
-23.319091796875 30.0443115234375 4.206298828125
10.31201171875 11.783447265625 -15.5164794921875
-15.99267578125 23.5323486328125 -26.7646484375
38.010498046875 9.055908203125 -13.350830078125
-33.204833984375 43.7628173828125 -10.3369140625
32.984130859375 -7.7548828125 18.06640625
-47.892578125 37.620361328125 -2.565673828125
-13.1669921875 -12.635009765625 3.0892333984375
-30.2119140625 35.828125 -1.9532470703125
87.01416015625 -21.909912109375 0.7574462890625
40.66064453125 -5.6217041015625 14.8929443359375
-37.359130859375 -14.40625 26.66845703125
34.504638671875 -3.795166015625 13.0850830078125
-38.62939453125 35.1630859375 -1.657958984375
-37.376708984375 -11.4169921875 15.700439453125
84.437255859375 -27.861328125 14.962646484375
16.375244140625 5.363037109375 -14.751708984375
16.2998046875 17.18017578125 -24.6046142578125
-42.4130859375 39.311279296875 -5.17578125
-38.82666015625 -17.3466796875 16.4739990234375
-43.704833984375 43.117431640625 -9.32421875
22.94140625 31.8536376953125 -33.1767578125
46.893310546875 -2.522216796875 9.51318359375
-15.138671875 3.321044921875 -9.9527587890625
19.7666015625 17.1019287109375 -23.027587890625
45.540771484375 -21.0184326171875 17.939453125
11.122802734375 -32.0517578125 20.146728515625
-30.223388671875 -5.702880859375 15.2535400390625
9.826416015625 -23.705322265625 13.2227783203125
-39.94775390625 41.32421875 -6.9527587890625
12.65478515625 -15.1939697265625 0.7745361328125
46.525390625 -7.506591796875 2.7706298828125
-28.21826171875 39.68896484375 -4.46484375
-42.823486328125 27.2481689453125 6.3104248046875
29.19873046875 14.87451171875 -3.7515869140625
-17.791748046875 24.6307373046875 -29.123046875
45.897216796875 1.154052734375 -6.705078125
-53.901123046875 24.424560546875 8.6900634765625
9.489013671875 37.530029296875 -22.70654296875
-27.98974609375 -3.93603515625 13.6708984375
-74.47119140625 28.5665283203125 5.046142578125
-20.18212890625 8.9619140625 -13.8153076171875
-44.664306640625 19.075439453125 9.974609375
53.321533203125 -7.7491455078125 4.8065185546875
34.87353515625 8.7791748046875 -18.046875
48.672607421875 11.212890625 -21.1697998046875
-52.65234375 22.7725830078125 11.6865234375
81.261962890625 -31.1492919921875 17.9598388671875
16.18896484375 -23.958740234375 11.608154296875
10.7490234375 38.5994873046875 -14.6124267578125
48.25244140625 6.1910400390625 -16.02392578125
-36.11181640625 4.0242919921875 -5.066162109375
44.0205078125 14.18994140625 -22.1085205078125
-25.30419921875 10.8468017578125 0.174072265625
31.097900390625 -6.28125 22.063232421875
-20.756591796875 43.43408203125 -8.71337890625
-37.458740234375 -13.9598388671875 13.378662109375
76.9384765625 -21.0023193359375 8.0057373046875
-29.580078125 31.1783447265625 2.8839111328125
34.34814453125 22.1505126953125 -2.63671875
-69.240478515625 28.837646484375 5.578369140625
9.577392578125 2.2510986328125 -9.165283203125
-20.89306640625 -22.22705078125 18.2459716796875
18.4248046875 5.139404296875 -11.755859375
46.294189453125 -16.0206298828125 12.544921875
-73.3798828125 15.6827392578125 16.86376953125
46.665283203125 -9.9940185546875 13.183837890625
-56.669921875 5.235107421875 3.901611328125
-67.45166015625 24.28466796875 9.5771484375
-47.96875 20.0726318359375 14.257080078125
-82.646240234375 22.849365234375 10.4776611328125
54.04296875 -5.0517578125 6.5516357421875
-23.193115234375 -6.369140625 2.0159912109375
-18.062744140625 -10.5224609375 3.004638671875
-77.326171875 23.4105224609375 8.8021240234375
-65.941650390625 3.692138671875 5.5321044921875
-33.602294921875 -18.6602783203125 17.4364013671875
-21.987548828125 27.8651123046875 -28.49951171875
10.46533203125 -9.6702880859375 -2.1895751953125
39.143310546875 -7.52783203125 20.025634765625
-28.02880859375 28.045654296875 6.7122802734375
32.28759765625 18.1630859375 -4.1978759765625
34.712890625 4.4683837890625 5.39013671875
6.58251953125 2.919189453125 7.4580078125
67.811767578125 -14.0718994140625 25.1654052734375
-15.91748046875 -14.3438720703125 6.6707763671875
-23.602783203125 -11.5882568359375 0.8255615234375
68.68896484375 -6.1951904296875 15.7279052734375
-20.73828125 -17.832275390625 12.991455078125
-49.761474609375 8.4144287109375 1.2708740234375
0.886962890625 -7.4830322265625 17.3626708984375
-23.195556640625 5.97412109375 -10.8968505859375
-58.498291015625 21.8480224609375 11.2637939453125
14.95068359375 0.65771484375 -11.1759033203125
33.099609375 8.6004638671875 1.2174072265625
44.189453125 2.8447265625 -0.188232421875
-57.712646484375 -3.377197265625 12.396240234375
54.830322265625 -4.629638671875 -0.9779052734375
17.94921875 21.210693359375 -27.085205078125
-36.827880859375 0.4881591796875 -1.47900390625
54.715576171875 -0.3101806640625 -9.42041015625
25.79443359375 5.609375 2.71728515625
-49.535888671875 -4.44482421875 13.436279296875
-16.50830078125 -19.7025146484375 18.1888427734375
8.038818359375 -0.3704833984375 -8.753173828125
36.1611328125 34.086181640625 -1.6304931640625
-69.212646484375 3.3680419921875 4.786376953125
-60.443115234375 18.80859375 15.1016845703125
-42.069580078125 32.1259765625 0.9315185546875
4.014892578125 1.399658203125 9.031005859375
44.359619140625 14.940185546875 -14.7716064453125
1.450439453125 10.439208984375 -0.1143798828125
-31.472900390625 2.4376220703125 -1.8482666015625
70.569091796875 -32.5299072265625 19.334716796875
-78.27001953125 17.6309814453125 16.4976806640625
44.88720703125 18.0565185546875 -22.0155029296875
21.86767578125 33.76708984375 -36.571533203125
70.16357421875 -11.777099609375 22.3272705078125
48.0458984375 -3.751220703125 -5.401611328125
-20.096923828125 11.5245361328125 -16.0596923828125
-38.09130859375 37.4842529296875 -2.9512939453125
-30.77685546875 39.9210205078125 -6.52197265625
-56.796630859375 31.385986328125 1.296630859375
83.15673828125 -24.57861328125 8.4239501953125
6.779052734375 -17.5706787109375 0.9525146484375
13.404052734375 31.62939453125 -29.775146484375
78.792724609375 -27.7939453125 12.50830078125
57.39404296875 -1.234375 10.26708984375
42.688720703125 9.1781005859375 0.1458740234375
33.72900390625 36.4771728515625 -5.491455078125
-40.7392578125 -13.3280029296875 22.1973876953125
-65.562255859375 1.09619140625 7.6484375
76.777099609375 -23.787109375 11.7950439453125
-24.3701171875 -0.125244140625 10.650390625
31.241455078125 -6.581787109375 15.679443359375
78.658935546875 -4.529296875 13.5626220703125
40.222412109375 2.8621826171875 5.8123779296875
-6.679443359375 13.2359619140625 -1.5794677734375
-65.0615234375 31.7572021484375 2.122314453125
27.693115234375 8.2027587890625 0.8466796875
32.208251953125 37.6729736328125 -8.131103515625
61.506103515625 -2.4468994140625 11.934814453125
84.055419921875 -19.048095703125 3.998046875
-25.853271484375 -13.8348388671875 23.3251953125
-62.601806640625 28.4931640625 5.2762451171875
-27.525634765625 0.869140625 8.6163330078125
70.839599609375 -26.962890625 19.1748046875
-42.647216796875 23.1771240234375 7.8626708984375
-58.32275390625 41.2005615234375 -7.0042724609375
-16.082763671875 28.2489013671875 -31.10302734375
-60.378173828125 24.707275390625 8.2581787109375
82.122802734375 -28.8953857421875 13.4268798828125
-4.205810546875 -7.82861328125 18.1256103515625
-15.399658203125 19.6253662109375 -20.6790771484375
53.544921875 1.9110107421875 -10.457763671875
6.808349609375 -5.95166015625 14.863525390625
29.6689453125 2.352783203125 6.6123046875
-32.949462890625 24.4698486328125 6.6890869140625
-17.2392578125 14.54296875 -19.9185791015625
39.936767578125 -2.8963623046875 13.2642822265625
7.34765625 -1.9783935546875 12.237548828125
27.290283203125 24.493408203125 -4.7069091796875
44.04443359375 19.319580078125 -14.66357421875
46.480712890625 27.578857421875 -36.155029296875
-36.1494140625 -16.090087890625 18.7462158203125
-40.796142578125 -7.6651611328125 17.5904541015625
67.62255859375 -27.2154541015625 20.912353515625
7.315673828125 -15.958251953125 13.8258056640625
51.112060546875 -12.3912353515625 5.414794921875
7.27783203125 -4.94091796875 -9.1634521484375
10.44775390625 8.167236328125 -1.970703125
-35.431396484375 29.7347412109375 5.4969482421875
-19.55712890625 28.1185302734375 -32.3057861328125
-37.403564453125 1.58984375 8.5955810546875
33.443115234375 26.6563720703125 1.724853515625
27.106689453125 10.505126953125 -0.248046875
64.591552734375 -12.5111083984375 22.39794921875
30.390625 11.042724609375 -1.4044189453125
-15.81591796875 11.83251953125 -15.1480712890625
-30.10205078125 -11.1573486328125 20.2738037109375
-17.3935546875 -22.703125 20.79248046875
8.157470703125 3.97900390625 -1.1207275390625
-73.424072265625 14.9073486328125 19.4970703125
6.302490234375 13.19873046875 -3.033203125
81.425048828125 -9.0189208984375 14.6256103515625
7.87548828125 16.7906494140625 -4.7529296875
-40.126220703125 -2.241455078125 11.8441162109375
44.837158203125 6.973388671875 -11.970458984375
-51.614501953125 32.5364990234375 1.1011962890625
5.559326171875 7.4451904296875 2.785888671875
40.616943359375 31.2269287109375 5.5933837890625
68.8759765625 -23.245361328125 23.3026123046875
10.854736328125 -29.7972412109375 17.567138671875
-14.261962890625 -9.5833740234375 2.4852294921875
16.530029296875 -27.6728515625 15.73828125
54.539794921875 6.7628173828125 -16.796142578125
-55.429931640625 39.94384765625 -6.6715087890625
-60.089599609375 38.505859375 -4.451904296875
83.07275390625 -17.762939453125 6.83203125
81.98388671875 -8.9998779296875 11.2022705078125
21.410888671875 24.3138427734375 -27.8758544921875
-20.414306640625 -25.5166015625 22.441162109375
11.654052734375 -19.066162109375 5.3660888671875
14.7998046875 -6.284423828125 -7.2779541015625
9.176025390625 -7.155029296875 -5.5228271484375
-42.830322265625 29.590087890625 5.185546875
14.4033203125 -8.1405029296875 -5.2371826171875
-38.47705078125 -9.5584716796875 17.052978515625
69.06982421875 -3.0401611328125 12.5677490234375
83.08935546875 -14.298828125 0.5654296875
-46.778564453125 3.4598388671875 5.3533935546875
-33.51611328125 36.087890625 -3.2587890625
-46.2021484375 -8.4361572265625 18.8734130859375
-22.971923828125 33.560302734375 -0.076416015625
2.49658203125 -3.6854248046875 14.113037109375
-62.780029296875 22.256103515625 10.3974609375
14.99169921875 26.1822509765625 -28.341552734375
43.85546875 28.4747314453125 -35.052001953125
-43.689453125 -4.44775390625 13.5618896484375
-81.458984375 20.776611328125 13.804443359375
-47.794189453125 1.7125244140625 7.70458984375
-66.422119140625 19.861572265625 14.6441650390625
42.605712890625 17.4658203125 -5.9853515625
-14.47998046875 -1.40478515625 -5.4033203125
74.8876953125 -23.4102783203125 8.370361328125
84.060302734375 -5.08740234375 14.936767578125
49.81689453125 -6.5758056640625 -1.9683837890625
-22.2138671875 -3.93017578125 -1.9857177734375
-33.361572265625 32.51220703125 0.6751708984375
-16.29931640625 31.613525390625 -34.89599609375
72.573974609375 -27.0172119140625 11.0477294921875
87.285400390625 -24.642578125 9.873291015625
87.62646484375 -17.5006103515625 -0.4747314453125
8.191650390625 -15.0987548828125 10.840576171875
-23.286376953125 -9.443359375 16.6912841796875
-29.3623046875 -2.0606689453125 12.6988525390625
14.089111328125 8.1397705078125 -17.188720703125
46.154541015625 -2.2633056640625 3.9722900390625
-15.5400390625 -7.404541015625 0.341064453125
-51.82373046875 5.7391357421875 3.401123046875
73.12890625 -16.1514892578125 26.3563232421875
14.150146484375 -2.52685546875 -11.40380859375
-17.89697265625 -4.6031494140625 -3.2435302734375
45.97705078125 -5.112060546875 14.3873291015625
-24.794921875 -9.3037109375 20.445556640625
87.981201171875 -30.9141845703125 14.5233154296875
51.125 12.8492431640625 -24.1353759765625
-2.425537109375 4.77001953125 4.4090576171875
79.3505859375 -19.9000244140625 8.895751953125
0.051025390625 -4.5494384765625 13.1934814453125
-16.164306640625 -16.9713134765625 7.8470458984375
76.615234375 -2.6761474609375 11.8160400390625
43.478271484375 3.614990234375 5.6610107421875
-13.183837890625 -6.584716796875 -2.3338623046875
88.762451171875 -22.2933349609375 5.4864501953125
-20.185791015625 2.21826171875 -8.7587890625
12.921142578125 26.3583984375 -25.9091796875
-24.49658203125 24.5823974609375 10.0732421875
14.60107421875 35.3433837890625 -33.1220703125
8.669677734375 13.9293212890625 -4.1607666015625
-32.556640625 -9.5767822265625 17.1903076171875
-1.7021484375 -5.748046875 14.5228271484375
-12.262451171875 -14.0799560546875 8.577880859375
51.045166015625 -18.851318359375 12.167724609375
-36.606689453125 6.2564697265625 -3.3333740234375
-36.14404296875 -0.435546875 11.0389404296875
-24.254150390625 10.345703125 -2.6474609375
0.6318359375 2.8470458984375 6.6142578125
-70.550048828125 26.459228515625 7.4932861328125
12.497802734375 20.5574951171875 -21.8035888671875
-22.0537109375 23.4945068359375 12.67138671875
-41.403076171875 42.212158203125 -9.3018798828125
30.10595703125 -3.9013671875 13.4793701171875
31.417724609375 33.1549072265625 -4.05224609375
-37.73583984375 32.604736328125 2.0645751953125
43.1005859375 19.439208984375 -20.8841552734375
-54.590576171875 20.73193359375 13.303955078125
10.174560546875 14.2269287109375 -15.8021240234375
77.748779296875 -18.854736328125 10.771240234375
14.509765625 38.530517578125 -20.5257568359375
-19.2041015625 -14.5611572265625 7.17626953125
42.619384765625 -1.8831787109375 11.8970947265625
2.397216796875 4.1158447265625 5.4249267578125
-37.866943359375 28.499267578125 5.8349609375
41.023681640625 38.1790771484375 -2.5877685546875
-43.484619140625 34.6876220703125 -2.599365234375
-59.73779296875 28.06201171875 5.9176025390625
-35.524658203125 -7.4427490234375 17.13623046875
58.93212890625 -11.724365234375 20.8282470703125
-69.533935546875 33.9351806640625 -0.001220703125
22.591796875 8.14404296875 0.406005859375
-70.48193359375 23.629638671875 8.832763671875
77.76904296875 -30.4830322265625 15.4329833984375
-26.080078125 35.48046875 -3.1405029296875
36.283203125 31.2633056640625 3.9803466796875
-66.357177734375 34.797119140625 -0.6123046875
-41.10107421875 5.32421875 5.2921142578125
-19.0126953125 2.4365234375 -12.0413818359375
-39.74609375 3.4580078125 -1.123291015625
4.947021484375 -1.863525390625 11.8974609375
38.422119140625 7.6776123046875 2.2667236328125
-50.4599609375 25.0469970703125 7.0889892578125
41.965576171875 -0.753662109375 9.17529296875
-55.936279296875 42.2569580078125 -10.14794921875
-21.23974609375 31.049560546875 3.0408935546875
38.8837890625 0.674560546875 8.948486328125
65.003662109375 -27.408447265625 22.613525390625
-57.66259765625 20.487060546875 13.2081298828125
42.91259765625 0.5244140625 -11.7196044921875
45.7353515625 -28.6761474609375 27.2957763671875
-14.171142578125 -13.02783203125 5.6343994140625
-39.707763671875 9.17724609375 0.2838134765625
15.307373046875 -29.6832275390625 16.5792236328125
21.052978515625 -10.9976806640625 -3.998291015625
43.340087890625 31.4041748046875 -38.14208984375
50.145751953125 -16.15478515625 8.6256103515625
34.27587890625 2.406005859375 7.2529296875
29.451416015625 -1.4747314453125 10.7021484375
-22.42236328125 -13.172607421875 23.6473388671875
-24.5166015625 -3.0811767578125 12.4678955078125
44.713623046875 4.866943359375 2.1014404296875
33.92919921875 10.6160888671875 -0.2047119140625
-47.353759765625 6.6356201171875 2.004638671875
7.603759765625 -20.1744384765625 8.0885009765625
19.300048828125 9.6458740234375 -13.87060546875
-54.9560546875 6.467041015625 2.746826171875
-20.034912109375 24.087890625 -27.8048095703125
30.9677734375 6.5062255859375 3.465087890625
-43.69091796875 6.710693359375 2.776611328125
46.5771484375 13.0640869140625 -23.60400390625
35.1162109375 3.9649658203125 -17.3436279296875
-34.996826171875 2.1722412109375 0.937255859375
55.78466796875 -3.7432861328125 11.0709228515625
33.008056640625 30.218017578125 1.4503173828125
11.620361328125 36.3497314453125 -19.3948974609375
47.45458984375 -6.2288818359375 -1.8934326171875
12.081787109375 34.1480712890625 -14.4853515625
86.384521484375 -14.941650390625 0.3427734375
-68.13525390625 36.8179931640625 -3.69921875
-13.6328125 5.563232421875 -4.841796875
19.1630859375 24.1531982421875 -29.0657958984375
-49.55322265625 35.9537353515625 -3.6180419921875
51.220947265625 25.4561767578125 -29.2039794921875
-74.536865234375 18.1478271484375 15.19677734375
81.129150390625 -3.5596923828125 13.43408203125
43.54541015625 1.4940185546875 -6.6268310546875
48.587890625 15.320556640625 -24.835693359375
-19.218505859375 -23.580810546875 19.5572509765625
-25.917236328125 3.082275390625 6.8519287109375
70.18701171875 -21.1622314453125 25.8759765625
45.398681640625 24.110595703125 -30.2396240234375
-20.3251953125 21.4765625 -25.16357421875
-24.38916015625 -2.2969970703125 -7.017578125
45.339599609375 -2.5081787109375 11.860595703125
