5.59228515625 -25.419921875 7.6361083984375
-14.895751953125 51.450927734375 12.101318359375
-24.186767578125 -11.9971923828125 34.541748046875
4.733642578125 -19.58203125 -3.18408203125
14.61669921875 28.7762451171875 6.301025390625
-22.927490234375 -9.6085205078125 24.2081298828125
-23.8759765625 -9.2060546875 19.6287841796875
-22.512939453125 -11.3104248046875 8.6646728515625
5.6396484375 49.1671142578125 17.9488525390625
-31.918212890625 51.779296875 13.4334716796875
-27.36572265625 62.95166015625 9.654052734375
-14.42919921875 3.0806884765625 12.344482421875
13.15234375 48.950439453125 4.0948486328125
-18.2099609375 -1.7899169921875 7.3935546875
5.056884765625 56.7548828125 7.3536376953125
-26.712646484375 -14.3975830078125 13.2586669921875
4.38623046875 -27.71630859375 2.6097412109375
5.682373046875 50.0753173828125 12.7574462890625
-24.188232421875 -13.061767578125 16.135009765625
-17.4423828125 6.724365234375 18.8094482421875
-23.173828125 -17.2501220703125 17.0609130859375
9.975341796875 33.3516845703125 22.84814453125
8.601806640625 -18.3841552734375 -8.8682861328125
3.5361328125 59.0372314453125 9.9141845703125
15.51513671875 35.443359375 -10.537841796875
7.248046875 56.5426025390625 3.2996826171875
22.541748046875 19.2088623046875 -5.400390625
-16.892578125 2.983642578125 12.5806884765625
13.981689453125 16.5098876953125 7.26171875
-7.611328125 29.5225830078125 -4.4967041015625
-33.359375 -16.7689208984375 30.1712646484375
14.206787109375 20.3721923828125 26.25244140625
3.970947265625 49.13134765625 16.3707275390625
14.410400390625 26.00732421875 15.969970703125
-26.78076171875 64.964111328125 13.293701171875
16.07763671875 45.751953125 5.467041015625
11.760498046875 -18.8289794921875 6.384033203125
13.940673828125 13.61767578125 26.4647216796875
13.669921875 36.0225830078125 16.39501953125
18.327392578125 48.58544921875 2.19189453125
19.29833984375 36.4461669921875 1.718994140625
17.58740234375 34.99072265625 2.5928955078125
13.05322265625 44.6427001953125 8.7376708984375
14.963134765625 3.740966796875 25.503173828125
8.95849609375 44.3162841796875 12.8927001953125
14.191650390625 29.8033447265625 19.548095703125
-21.71826171875 -10.0726318359375 32.6688232421875
14.326416015625 30.4791259765625 15.6104736328125
-23.6962890625 -14.6292724609375 33.629638671875
6.723388671875 -16.7781982421875 -4.129638671875
2.871826171875 60.4747314453125 12.7576904296875
-24.511474609375 -18.5234375 32.8209228515625
14.38818359375 16.40087890625 23.29345703125
16.364013671875 3.0660400390625 29.4417724609375
-21.689208984375 60.304931640625 7.6544189453125
8.874755859375 50.9559326171875 6.5235595703125
10.51611328125 53.3414306640625 2.084716796875
-20.674072265625 50.8021240234375 12.2509765625
-33.5234375 -14.8289794921875 11.0308837890625
-21.626708984375 -16.999267578125 28.5653076171875
4.1787109375 -27.4559326171875 9.4979248046875
11.85888671875 50.7529296875 3.4691162109375
-24.297607421875 -19.859619140625 17.8206787109375
-24.634765625 -8.90966796875 13.583740234375
4.52099609375 -23.6033935546875 -2.4755859375
13.9794921875 13.9910888671875 12.8323974609375
-22.55322265625 -4.366943359375 10.4957275390625
-22.2578125 65.2618408203125 15.634033203125
-24.525634765625 -17.968994140625 30.6961669921875
6.7041015625 -21.9608154296875 6.7730712890625
-22.063232421875 -8.6778564453125 35.231201171875
-20.1123046875 62.212890625 8.867919921875
26.882080078125 3.9849853515625 13.4927978515625
-28.73486328125 60.608642578125 13.4920654296875
14.179443359375 20.33056640625 16.3243408203125
33.20947265625 36.5250244140625 2.245849609375
-21.668701171875 -7.7735595703125 28.955322265625
-17.60107421875 56.48876953125 10.338134765625
16.18115234375 -16.70068359375 1.4327392578125
13.5859375 33.26123046875 19.026123046875
14.401611328125 21.0557861328125 23.932861328125
-22.548828125 -5.2410888671875 24.024169921875
-28.505126953125 -18.213134765625 31.70068359375
-1.35986328125 37.5364990234375 -12.0853271484375
1.621826171875 54.82080078125 15.1097412109375
-25.796630859375 51.4000244140625 12.2252197265625
-22.61279296875 -5.3131103515625 14.5013427734375
14.183349609375 18.0621337890625 12.38232421875
22.578125 21.5745849609375 -2.119140625
14.026611328125 23.1014404296875 16.5006103515625
3.80712890625 34.2816162109375 -8.3604736328125
13.953369140625 7.0020751953125 23.1085205078125
-3.925537109375 32.7308349609375 -7.59619140625
4.607421875 35.8355712890625 -7.200927734375
-15.840087890625 6.2796630859375 17.531494140625
19.06640625 46.2705078125 3.83251953125
-22.124755859375 -9.5697021484375 7.649169921875
-21.4765625 -1.6322021484375 23.389404296875
-23.347900390625 -12.4678955078125 19.8133544921875
-19.285888671875 53.6298828125 11.054443359375
5.88525390625 37.59912109375 -13.5574951171875
-29.25732421875 56.020751953125 10.317626953125
-12.9267578125 7.1063232421875 20.3858642578125
-20.74365234375 -5.132080078125 8.40576171875
1.0615234375 30.6148681640625 -2.793701171875
14.135498046875 25.830078125 19.4451904296875
18.109130859375 38.046875 5.667724609375
15.623779296875 41.1002197265625 9.351318359375
-27.129150390625 45.6878662109375 19.85302734375
13.682373046875 24.6580810546875 6.345458984375
14.129638671875 16.8489990234375 15.1463623046875
14.694091796875 32.227783203125 3.6448974609375
-30.66455078125 58.0189208984375 17.06640625
-19.329345703125 -4.3857421875 30.09619140625
35.97509765625 38.7578125 5.0279541015625
18.46484375 41.692138671875 6.016845703125
-21.048095703125 -7.6395263671875 30.9698486328125
7.180908203125 14.1348876953125 13.0208740234375
8.548095703125 -22.2484130859375 10.146240234375
32.37841796875 31.7913818359375 -3.745361328125
23.11474609375 33.6097412109375 -3.9019775390625
-28.189697265625 -19.474609375 30.1038818359375
9.059814453125 37.1265869140625 -14.341064453125
-24.00439453125 -18.01953125 21.00244140625
-17.957763671875 3.3447265625 22.9830322265625
-25.14453125 -5.755859375 15.0635986328125
4.600830078125 -23.6494140625 1.8753662109375
-15.5068359375 60.54296875 8.4461669921875
-21.64111328125 -3.2784423828125 24.887451171875
28.29833984375 23.8665771484375 -3.9600830078125
15.849365234375 35.358154296875 6.0899658203125
14.4990234375 34.4974365234375 9.6455078125
10.688232421875 37.1239013671875 18.12890625
14.21533203125 26.91162109375 22.2880859375
7.641357421875 38.0283203125 21.12548828125
-24.03515625 61.8885498046875 8.15380859375
5.909912109375 36.4261474609375 -10.9359130859375
-17.239013671875 0.2091064453125 9.2525634765625
3.522216796875 51.6759033203125 16.0426025390625
3.893310546875 56.3809814453125 11.4462890625
14.366455078125 22.93017578125 9.5347900390625
-19.31640625 59.1016845703125 8.3106689453125
6.82958984375 54.3355712890625 6.4925537109375
4.373779296875 33.37451171875 -3.8929443359375
-5.989501953125 36.125732421875 -10.052001953125
15.63232421875 -0.4462890625 26.502685546875
5.5107421875 -25.5924072265625 5.6058349609375
-25.28857421875 -21.5347900390625 21.49560546875
10.10498046875 -16.01953125 -5.0966796875
7.188720703125 42.5992431640625 17.270751953125
-32.031005859375 53.1680908203125 17.724365234375
24.884765625 23.46044921875 -3.405517578125
35.29443359375 33.023193359375 -3.3681640625
3.502685546875 -25.369140625 0.185791015625
13.958984375 12.6005859375 24.6214599609375
-25.00537109375 47.052734375 12.8067626953125
31.752197265625 34.61279296875 -0.8553466796875
10.4580078125 35.5565185546875 20.1796875
12.890625 55.322265625 -2.4964599609375
14.09814453125 12.4864501953125 16.40380859375
-18.228515625 61.85595703125 8.1917724609375
8.239013671875 56.5841064453125 1.660888671875
14.0244140625 -17.5313720703125 -2.5709228515625
-31.019287109375 54.79833984375 11.0040283203125
-15.000244140625 48.037841796875 13.8367919921875
3.332275390625 -29.2418212890625 7.26416015625
-22.583740234375 -1.6915283203125 18.1688232421875
-23.725341796875 -22.675048828125 25.606689453125
-22.3525390625 57.0106201171875 9.3287353515625
-30.238525390625 52.6806640625 11.525390625
14.164306640625 9.8594970703125 27.163330078125
6.7568359375 -18.414306640625 1.0279541015625
-4.216796875 7.90771484375 18.7020263671875
-23.278564453125 -9.9388427734375 33.7149658203125
5.864013671875 -22.991943359375 4.4564208984375
14.2255859375 27.43359375 7.5577392578125
22.64697265625 2.0101318359375 17.185546875
15.801513671875 5.10888671875 29.82958984375
28.152099609375 41.26806640625 2.8963623046875
13.879638671875 10.8004150390625 21.839111328125
-24.037353515625 52.0108642578125 11.62109375
23.257568359375 3.8665771484375 14.9166259765625
36.021240234375 32.6051025390625 -5.2044677734375
5.452880859375 -21.789794921875 0.76416015625
6.085205078125 13.5789794921875 10.86572265625
13.995361328125 51.66552734375 0.427978515625
12.450439453125 -16.9288330078125 2.5072021484375
8.26708984375 -20.1187744140625 6.6988525390625
-20.76708984375 -4.8675537109375 33.3218994140625
14.312255859375 32.49365234375 12.0765380859375
4.814697265625 -25.246826171875 -1.12890625
13.533203125 30.7313232421875 21.9879150390625
21.75732421875 -0.651611328125 15.7193603515625
-1.181640625 53.02197265625 14.7353515625
-21.535888671875 -5.5076904296875 27.977783203125
-23.84521484375 -21.1949462890625 28.6390380859375
10.726806640625 -17.030517578125 -2.6822509765625
5.925537109375 35.291259765625 -5.1917724609375
-22.85986328125 -4.01416015625 21.33349609375
2.68017578125 61.176513671875 14.7305908203125
14.248046875 39.327880859375 12.6925048828125
-20.08056640625 3.91650390625 19.3603515625
-2.036376953125 8.1551513671875 18.915771484375
13.9931640625 15.105712890625 10.7197265625
4.84228515625 -21.5069580078125 -1.57470703125
14.146484375 20.9410400390625 20.16796875
8.46142578125 38.890380859375 19.19482421875
-31.791015625 -16.7327880859375 31.116943359375
14.345703125 19.5150146484375 18.177734375
10.09130859375 -17.5106201171875 2.66943359375
25.761474609375 44.0283203125 4.1732177734375
-16.26513671875 5.119873046875 14.87353515625
4.0859375 54.0838623046875 13.1544189453125
24.726318359375 32.53759765625 -6.7645263671875
6.623046875 52.4599609375 8.837890625
-5.949951171875 34.76611328125 -11.39208984375
-22.813720703125 -10.2271728515625 26.369384765625
2.2861328125 31.02392578125 -5.3248291015625
-22.454345703125 -9.58154296875 28.4671630859375
2.930908203125 58.025146484375 14.1036376953125
14.26806640625 30.307861328125 9.7718505859375
13.619384765625 13.97705078125 9.0345458984375
-22.044921875 0.8946533203125 17.4095458984375
12.870361328125 -17.8314208984375 0.511962890625
6.311767578125 -18.9053955078125 -6.0560302734375
-23.66064453125 -18.55078125 19.3013916015625
14.4248046875 33.1417236328125 15.283935546875
2.259521484375 53.618408203125 16.289306640625
3.235107421875 48.6326904296875 17.9364013671875
5.3349609375 12.0340576171875 13.9376220703125
3.060302734375 10.4051513671875 15.5322265625
12.720703125 46.42822265625 7.0419921875
5.404541015625 53.5994873046875 9.8795166015625
-17.423583984375 45.520751953125 13.1502685546875
14.50732421875 15.6116943359375 26.8160400390625
8.01220703125 -19.9852294921875 3.87890625
-29.67236328125 50.226806640625 19.063232421875
-22.395751953125 -6.9017333984375 26.0489501953125
3.497802734375 36.3372802734375 -11.2509765625
2.695068359375 33.429443359375 -2.288818359375
22.577392578125 18.518798828125 -2.0809326171875
17.007568359375 39.0037841796875 7.5068359375
-23.292236328125 -8.869384765625 12.3946533203125
-27.691650390625 -7.354248046875 16.121826171875
-24.35888671875 -19.7454833984375 30.098388671875
-22.05810546875 -6.144775390625 12.02490234375
21.873291015625 31.4794921875 -6.1968994140625
9.903076171875 41.9295654296875 14.085205078125
17.1181640625 33.2728271484375 0.9688720703125
15.033447265625 38.5919189453125 10.65673828125
-3.1103515625 36.4600830078125 -12.5625
-18.391845703125 1.674560546875 12.25341796875
23.548095703125 43.0257568359375 4.087890625
11.49609375 41.4459228515625 13.4384765625
12.05029296875 36.33544921875 -11.169189453125
9.5234375 45.213623046875 11.4847412109375
-34.614990234375 -11.60009765625 9.8841552734375
20.8056640625 34.6209716796875 -2.0391845703125
5.2724609375 -27.9749755859375 1.10986328125
-26.2119140625 64.2548828125 10.4173583984375
-24.271484375 -11.7261962890625 13.91162109375
-32.57958984375 53.3087158203125 13.993408203125
3.16259765625 -31.0389404296875 10.4422607421875
4.575927734375 -20.1483154296875 -4.8392333984375
-20.981689453125 1.942626953125 14.288330078125
9.015625 40.731201171875 16.33154296875
14.1396484375 12.7430419921875 20.0357666015625
5.076904296875 -35.84912109375 12.127197265625
3.05078125 -31.470947265625 8.080322265625
3.51025390625 -33.7286376953125 12.688720703125
-20.071533203125 4.664794921875 17.6180419921875
11.7236328125 39.0303955078125 15.1990966796875
-22.427978515625 -2.5196533203125 12.5440673828125
-23.97265625 -21.71484375 22.6275634765625
-20.416259765625 -8.8277587890625 32.5614013671875
14.225341796875 38.16943359375 -13.99365234375
-26.2001953125 -11.9508056640625 10.56494140625
0.392822265625 31.265380859375 -0.7286376953125
5.318603515625 57.818115234375 5.79052734375
-25.62451171875 -8.3111572265625 16.8275146484375
0.258056640625 9.3326416015625 17.732421875
14.1611328125 10.298583984375 18.40673828125
14.06689453125 27.3966064453125 18.522216796875
14.007080078125 8.982666015625 20.1746826171875
36.306396484375 32.65185546875 -0.8785400390625
-0.077392578125 27.972412109375 -0.8565673828125
33.434326171875 39.9512939453125 4.530517578125
14.105712890625 9.90625 25.4437255859375
7.31201171875 34.5745849609375 -2.487548828125
6.9716796875 -19.71826171875 -7.586181640625
32.054931640625 36.07763671875 1.057861328125
-29.366455078125 -18.6622314453125 28.9188232421875
20.150634765625 41.5513916015625 5.023681640625
6.641845703125 -16.9591064453125 -6.1153564453125
27.6650390625 22.7890625 -5.1259765625
-27.7822265625 47.495849609375 20.6962890625
-20.61376953125 -6.936767578125 34.1182861328125
22.405517578125 44.2340087890625 4.6024169921875
30.87451171875 43.3302001953125 4.708740234375
-19.91259765625 -5.9688720703125 31.023681640625
4.529541015625 59.7796630859375 6.0067138671875
3.468994140625 60.843017578125 8.677001953125
-18.970458984375 -4.857421875 6.455078125
-21.4794921875 63.8880615234375 12.3592529296875
14.17822265625 14.4290771484375 23.4696044921875
14.235595703125 17.632568359375 19.379150390625
-32.35791015625 -17.4473876953125 28.5692138671875
22.30224609375 41.2120361328125 3.6590576171875
14.160888671875 24.49560546875 12.458984375
4.254150390625 -29.0050048828125 3.7054443359375
14.455322265625 26.4656982421875 10.0750732421875
-13.94189453125 49.199462890625 12.70458984375
11.149169921875 48.705810546875 6.505126953125
5.1005859375 48.69873046875 15.170654296875
-19.728759765625 -0.2864990234375 25.8397216796875
14.083740234375 15.477783203125 16.9625244140625
13.36328125 -18.9705810546875 6.916748046875
-26.644775390625 44.652587890625 14.1019287109375
-30.84228515625 56.975341796875 13.475341796875
-28.124267578125 63.6077880859375 16.684814453125
-24.783447265625 -11.936767578125 12.021484375
2.171630859375 9.38037109375 18.14404296875
-26.858642578125 -20.56201171875 27.7423095703125
15.052734375 49.9188232421875 1.5321044921875
6.349365234375 57.9417724609375 3.5462646484375
34.01025390625 32.0252685546875 -2.9427490234375
28.211181640625 35.3006591796875 -2.4337158203125
-24.638671875 -11.0645751953125 16.536865234375
-6.354248046875 7.916748046875 18.7955322265625
-22.594970703125 -2.472900390625 15.6846923828125
-18.53369140625 55.1258544921875 10.6326904296875
-22.976806640625 -15.3232421875 20.166015625
5.803466796875 45.9912109375 17.2525634765625
-29.248046875 58.3525390625 15.717529296875
24.62744140625 36.7818603515625 -0.9501953125
14.173095703125 5.38330078125 23.4703369140625
-22.7001953125 48.4344482421875 13.0028076171875
14.88916015625 6.98388671875 28.686767578125
-22.8984375 63.3548583984375 9.7891845703125
-29.39892578125 57.542724609375 12.4090576171875
14.344482421875 24.6134033203125 25.0191650390625
-23.400634765625 -13.8011474609375 9.8409423828125
-21.803466796875 0.451171875 15.6727294921875
14.0224609375 20.989990234375 13.5238037109375
23.16796875 17.3712158203125 -3.2572021484375
14.14501953125 29.1688232421875 21.2540283203125
12.279052734375 34.2242431640625 19.779052734375
-24.71044921875 -15.9412841796875 21.9029541015625
25.06689453125 3.92578125 14.205810546875
33.220947265625 33.7249755859375 -0.6424560546875
7.28955078125 46.837158203125 13.184326171875
-19.62939453125 -2.651123046875 9.3052978515625
11.093994140625 38.8253173828125 -14.4228515625
26.427734375 32.8514404296875 -4.978271484375
14.60986328125 35.8251953125 12.7412109375
15.7587890625 36.6751708984375 8.1064453125
6.59033203125 36.88671875 -8.77783203125
3.119384765625 -30.7039794921875 6.33544921875
18.062744140625 36.5513916015625 3.2830810546875
-25.8525390625 59.8199462890625 8.6455078125
-20.570068359375 2.703125 15.6995849609375
-22.3095703125 50.595458984375 11.94580078125
17.884033203125 39.6982421875 6.287841796875
12.375244140625 32.9403076171875 21.0035400390625
-27.827392578125 46.4716796875 14.94677734375
9.3154296875 55.4400634765625 1.1561279296875
-27.96142578125 63.817138671875 13.3956298828125
14.447021484375 27.4927978515625 15.1260986328125
-25.10302734375 65.505859375 13.287841796875
13.943115234375 11.8944091796875 18.0579833984375
-23.3408203125 -15.494873046875 17.672119140625
-23.900634765625 65.9339599609375 15.45361328125
8.845458984375 53.3768310546875 3.669921875
14.875732421875 33.9012451171875 6.4005126953125
-16.697998046875 48.38525390625 14.038818359375
15.37744140625 2.2548828125 24.6053466796875
-33.981201171875 -13.1771240234375 12.765625
27.207275390625 37.8094482421875 -0.373291015625
-11.975830078125 7.0875244140625 17.6717529296875
-28.609130859375 60.4354248046875 17.263671875
14.2080078125 29.4918212890625 17.64208984375
18.14306640625 33.3157958984375 -0.7259521484375
16.49951171875 34.44189453125 3.68115234375
-19.763671875 -10.2669677734375 6.4864501953125
-18.388671875 -0.003173828125 10.5733642578125
-19.072265625 -2.809326171875 28.6466064453125
14.258056640625 15.35986328125 22.044921875
-24.40283203125 -17.2218017578125 24.6224365234375
6.536865234375 42.1767578125 19.85693359375
5.797607421875 11.664794921875 15.887451171875
9.614990234375 37.4136962890625 -12.5447998046875
-34.2802734375 -12.5723876953125 8.6224365234375
10.94189453125 36.3660888671875 -9.565185546875
22.78759765625 -0.8804931640625 18.6668701171875
30.697265625 41.28173828125 3.905029296875
-20.87109375 -3.10498046875 26.3040771484375
28.955810546875 33.5191650390625 -4.082763671875
4.898193359375 34.0740966796875 -2.450927734375
-20.629638671875 -0.314208984375 12.5802001953125
14.26416015625 16.7857666015625 25.1644287109375
13.864990234375 46.6492919921875 5.735107421875
3.307861328125 32.947998046875 -5.029052734375
-31.599853515625 51.2862548828125 14.937255859375
7.873046875 43.93310546875 14.8953857421875
-23.2490234375 -15.2330322265625 27.63427734375
-15.260009765625 54.1470947265625 10.5299072265625
-5.362060546875 37.748779296875 -12.069580078125
7.037109375 -21.404541015625 3.5433349609375
13.986083984375 18.621337890625 10.2384033203125
-24.157470703125 -19.0274658203125 26.741943359375
-20.6123046875 64.9610595703125 15.4404296875
-30.247802734375 -18.2811279296875 31.3287353515625
7.27294921875 38.1636962890625 -14.14208984375
-22.8916015625 -12.388916015625 26.6925048828125
14.532470703125 17.84619140625 22.4947509765625
28.53662109375 43.8375244140625 3.7401123046875
18.688232421875 44.9759521484375 5.06787109375
-9.98876953125 8.1461181640625 19.2979736328125
-32.548583984375 54.713134765625 17.746826171875
28.825439453125 37.2144775390625 -0.424072265625
7.549072265625 -17.2286376953125 -1.6737060546875
4.67236328125 -36.2113037109375 14.68310546875
-20.9189453125 -6.7115478515625 8.2216796875
-17.061279296875 -1.90625 29.3546142578125
-22.7998046875 -8.5860595703125 25.4344482421875
10.209716796875 -17.8115234375 5.0985107421875
26.728271484375 38.8480224609375 0.849853515625
-28.335205078125 62.3231201171875 12.8243408203125
20.036376953125 39.1966552734375 3.9913330078125
22.798583984375 35.9161376953125 -1.1591796875
22.013671875 39.09375 1.8614501953125
8.05908203125 -17.4095458984375 0.59521484375
14.260986328125 33.9149169921875 13.464599609375
-25.63671875 -15.0751953125 35.2271728515625
-7.49267578125 36.0594482421875 -11.4525146484375
3.093994140625 60.0174560546875 11.0791015625
-17.502685546875 52.4549560546875 11.6656494140625
3.553955078125 -26.5704345703125 3.3560791015625
-19.536376953125 -1.0546875 11.053466796875
14.310791015625 29.9127197265625 13.4085693359375
14.6572265625 35.76416015625 11.1649169921875
22.4814453125 20.4090576171875 -1.0633544921875
16.0224609375 1.296142578125 27.139892578125
8.8896484375 52.092041015625 5.433349609375
-16.39306640625 55.4814453125 10.2777099609375
-22.894775390625 -13.2607421875 30.1787109375
15.166015625 -17.641845703125 0.68603515625
-19.107177734375 63.67333984375 11.0419921875
12.779296875 30.201904296875 23.6114501953125
4.273681640625 -29.07080078125 9.765625
14.31494140625 32.0064697265625 16.3603515625
22.258544921875 0.8575439453125 15.4512939453125
2.92822265625 61.8221435546875 11.9613037109375
13.86962890625 7.3643798828125 19.9989013671875
-32.19873046875 55.9654541015625 14.9761962890625
-24.64697265625 64.2508544921875 10.4322509765625
32.37451171875 38.4844970703125 3.1895751953125
4.873779296875 52.971435546875 11.560302734375
12.34228515625 38.2091064453125 -13.407470703125
-25.321044921875 -6.947509765625 16.1300048828125
-23.698486328125 -10.9283447265625 10.5322265625
6.172119140625 -18.6202392578125 -0.904541015625
3.865966796875 -27.8348388671875 6.0240478515625
-23.662353515625 -15.1177978515625 22.7119140625
8.32958984375 49.1787109375 9.306884765625
14.614013671875 6.4776611328125 26.9200439453125
7.271728515625 15.0523681640625 11.635498046875
9.63525390625 34.6849365234375 22.1239013671875
-15.349365234375 52.806640625 11.31103515625
-17.4814453125 4.9766845703125 22.008544921875
-19.01025390625 -1.0716552734375 27.0596923828125
-21.48876953125 -3.2935791015625 11.582763671875
-24.27685546875 -18.4141845703125 28.9093017578125
8.6611328125 35.977783203125 -3.8348388671875
-8.64892578125 32.3167724609375 -6.9752197265625
-21.322998046875 2.1080322265625 18.932861328125
16.08984375 40.0732421875 8.14599609375
22.070556640625 32.3204345703125 -4.2884521484375
-18.335205078125 6.014404296875 20.0333251953125
14.356201171875 16.9339599609375 9.0355224609375
2.504638671875 57.977783203125 15.7529296875
-12.375732421875 53.3414306640625 10.773681640625
-22.67724609375 -4.1334228515625 15.577880859375
25.054443359375 39.088623046875 1.224609375
27.536376953125 21.758544921875 -6.3621826171875
-23.833740234375 55.0462646484375 9.7039794921875
-19.306884765625 47.1961669921875 13.645263671875
24.578369140625 40.12353515625 2.443359375
-32.458740234375 56.190673828125 19.377197265625
14.35791015625 23.95166015625 14.599365234375
-22.784912109375 -15.148193359375 30.2384033203125
-22.6865234375 -12.637451171875 28.523681640625
-15.951904296875 0.9830322265625 9.537841796875
11.88037109375 49.205078125 4.9454345703125
-23.319580078125 -13.180908203125 33.9349365234375
-28.968505859375 57.5885009765625 10.830078125
8.841552734375 43.2216796875 13.944580078125
19.636962890625 35.07666015625 -0.7969970703125
25.432861328125 32.806640625 -8.6552734375
14.512451171875 19.5655517578125 24.2193603515625
4.053466796875 -27.0760498046875 1.021484375
-22.146484375 -1.8912353515625 22.0538330078125
11.6796875 37.3323974609375 -15.19140625
13.072509765625 11.2822265625 15.34912109375
-28.1416015625 48.5479736328125 19.66796875
14.464111328125 28.906982421875 7.8109130859375
4.5732421875 -32.653564453125 12.7796630859375
26.326171875 34.8599853515625 -3.0321044921875
10.66943359375 38.7352294921875 16.587646484375
13.995361328125 14.701171875 19.3399658203125
29.35205078125 35.743896484375 -1.2591552734375
-23.266845703125 64.5506591796875 12.7154541015625
14.694091796875 8.2918701171875 29.7269287109375
14.39111328125 25.260498046875 23.294189453125
-22.970703125 -9.7943115234375 22.23095703125
9.491943359375 -17.36572265625 -8.2034912109375
-25.28662109375 -16.944091796875 33.08251953125
16.023193359375 -18.1634521484375 -1.134521484375
5.247314453125 -26.519775390625 8.6033935546875
3.170166015625 55.015869140625 14.3846435546875
-22.849365234375 -8.3133544921875 23.0450439453125
14.27880859375 20.5701904296875 21.6177978515625
7.20703125 48.05908203125 12.00732421875
-27.56689453125 61.7066650390625 8.837890625
-22.017822265625 -0.9219970703125 14.79541015625
14.725830078125 -17.3406982421875 -3.88525390625
11.70458984375 -14.207763671875 -6.780517578125
-19.67724609375 64.3895263671875 13.9483642578125
5.166259765625 -26.691162109375 6.5692138671875
14.369140625 23.2762451171875 17.9769287109375
29.637939453125 31.53369140625 -4.468505859375
25.934814453125 2.8233642578125 13.4737548828125
-21.238525390625 1.2706298828125 20.750732421875
14.196533203125 43.6966552734375 8.5374755859375
5.75634765625 55.4842529296875 6.9869384765625
14.150390625 26.2149658203125 17.4310302734375
14.541748046875 21.2769775390625 10.5045166015625
-18.7939453125 3.3734130859375 14.9951171875
0.92919921875 56.0946044921875 15.4615478515625
-22.17236328125 -0.0887451171875 20.429443359375
14.496826171875 26.7490234375 13.630126953125
-23.354736328125 -17.78369140625 33.723876953125
-27.066162109375 59.2032470703125 9.2496337890625
5.872314453125 50.830078125 11.4892578125
24.18310546875 38.072509765625 0.5748291015625
5.751220703125 44.5811767578125 18.0780029296875
14.37109375 24.1639404296875 8.3980712890625
-24.6796875 -9.553466796875 16.26953125
23.985595703125 34.623779296875 -3.25439453125
-14.013427734375 4.6873779296875 14.6044921875
22.015625 33.739013671875 -2.89501953125
14.435546875 29.02734375 15.87841796875
14.6904296875 31.8978271484375 8.8173828125
1.302978515625 37.6695556640625 -12.861083984375
26.33251953125 36.7911376953125 -1.0240478515625
-22.412353515625 -3.013916015625 18.8111572265625
11.873046875 -15.9224853515625 -9.1168212890625
-24.881103515625 -13.904296875 34.1282958984375
-24.955078125 -17.8983154296875 34.4647216796875
-23.537109375 -8.5635986328125 34.6517333984375
7.381591796875 -16.6451416015625 -8.0587158203125
31.318359375 30.4857177734375 -4.13671875
4.677734375 55.2750244140625 9.8565673828125
-22.004150390625 -6.85107421875 27.5987548828125
-22.871826171875 53.32177734375 10.8577880859375
4.323486328125 51.8551025390625 14.255126953125
-18.717041015625 1.505859375 24.157958984375
16.91650390625 42.679931640625 7.2835693359375
-25.36767578125 -11.2786865234375 35.0374755859375
11.911865234375 36.5001220703125 17.6121826171875
1.02880859375 28.8800048828125 -3.839111328125
14.74951171875 30.3216552734375 6.488525390625
11.678955078125 46.136474609375 8.4141845703125
18.892822265625 32.479736328125 -2.1395263671875
-24.62890625 -14.536865234375 14.8052978515625
-23.123779296875 -15.9471435546875 31.517822265625
14.407958984375 23.20654296875 13.09912109375
-24.8935546875 59.106201171875 7.8074951171875
-23.13916015625 -17.9871826171875 26.8330078125
-20.997314453125 61.698486328125 7.8299560546875
-17.94970703125 4.365478515625 15.6473388671875
3.249267578125 -33.431884765625 10.8123779296875
-20.137451171875 1.257568359375 13.2628173828125
14.11181640625 13.6092529296875 14.2735595703125
22.838134765625 38.0926513671875 1.1441650390625
23.238525390625 20.643798828125 -4.5662841796875
6.251953125 13.1588134765625 13.9560546875
21.468505859375 18.9083251953125 -3.9866943359375
25.357177734375 23.0968017578125 -4.728759765625
-28.31103515625 -18.000732421875 33.1226806640625
-23.377685546875 -7.161376953125 15.6583251953125
33.120361328125 30.84033203125 -4.5469970703125
-25.31689453125 -9.0904541015625 14.8480224609375
-7.531982421875 7.6038818359375 17.5184326171875
7.060302734375 -22.9462890625 9.77490234375
5.712158203125 -34.626708984375 14.3487548828125
-20.42236328125 -9.73681640625 7.6590576171875
3.800048828125 -22.5638427734375 -1.66015625
14.264892578125 28.406005859375 11.0008544921875
-28.6533203125 58.997314453125 10.4727783203125
-17.14501953125 6.8756103515625 20.259765625
7.59765625 54.9095458984375 4.3377685546875
9.82080078125 -17.991943359375 0.9288330078125
-31.38525390625 -17.52734375 27.505859375
13.1142578125 37.4942626953125 15.5498046875
-23.47802734375 -7.9195556640625 18.9932861328125
-18.60693359375 5.7225341796875 17.646728515625
24.6923828125 21.9188232421875 -5.2547607421875
13.9775390625 31.332275390625 19.2032470703125
3.5791015625 57.6151123046875 10.7734375
23.608154296875 2.5810546875 13.2666015625
9.679931640625 -14.8553466796875 -8.720458984375
13.628662109375 41.61767578125 11.068115234375
-20.408935546875 1.1146240234375 21.9168701171875
13.594482421875 27.9456787109375 24.0875244140625
-26.128173828125 63.03759765625 8.5537109375
-35.654296875 -12.203369140625 8.4168701171875
-32.600830078125 -2.9898681640625 14.1611328125
9.40869140625 -18.7198486328125 2.129638671875
-36.446533203125 -16.6641845703125 30.268798828125
-33.922119140625 -16.31982421875 31.4130859375
6.87939453125 45.0538330078125 15.44775390625
25.946044921875 41.1951904296875 3.0281982421875
1.977783203125 31.94873046875 -2.4783935546875
19.984130859375 37.858642578125 2.5400390625
-22.876953125 -12.3438720703125 9.5899658203125
-33.48681640625 -18.177001953125 27.685546875
14.263916015625 23.5294189453125 22.161376953125
10.583740234375 43.9305419921875 11.6185302734375
29.967529296875 37.6611328125 0.7542724609375
-22.779052734375 61.22314453125 7.7825927734375
21.43798828125 37.448486328125 0.171630859375
-21.871337890625 -1.2816162109375 12.9921875
19.76318359375 36.0882568359375 0.41650390625
-19.767578125 -5.8631591796875 33.0975341796875
17.1015625 37.0140380859375 5.5836181640625
13.078857421875 52.9307861328125 -0.2249755859375
-13.594482421875 5.4544677734375 16.0244140625
-19.994873046875 -4.0589599609375 8.9888916015625
-20.093017578125 -2.294189453125 10.6043701171875
22.659912109375 34.231201171875 -9.2716064453125
14.98583984375 4.8822021484375 26.6953125
21.801025390625 2.085205078125 16.0458984375
14.341796875 14.005126953125 16.6533203125
-32.2587890625 54.7176513671875 12.1075439453125
-22.649169921875 -7.245361328125 21.0079345703125
24.5810546875 32.6710205078125 -5.2652587890625
13.559326171875 34.8956298828125 17.4703369140625
8.886962890625 46.705810546875 10.60107421875
11.3828125 32.9951171875 22.06787109375
2.55517578125 37.1485595703125 -12.4552001953125
21.03857421875 43.9945068359375 4.861328125
1.7236328125 30.782470703125 -4.028564453125
13.927490234375 15.4476318359375 14.2454833984375
14.40283203125 7.2239990234375 25.67822265625
-3.53271484375 54.1619873046875 14.1561279296875
-22.9755859375 -18.060791015625 32.314697265625
6.40234375 37.6396484375 -12.062255859375
8.216796875 50.7938232421875 7.755859375
23.02001953125 40.2877197265625 2.8792724609375
-25.894775390625 -19.7315673828125 30.184814453125
6.52587890625 46.743408203125 14.35986328125
7.405517578125 -22.5203857421875 5.548583984375
10.280517578125 56.5172119140625 -0.9468994140625
8.944091796875 36.74169921875 -10.331787109375
3.5146484375 33.5762939453125 -7.1822509765625
13.253662109375 -14.599365234375 -6.599609375
14.4248046875 18.7969970703125 26.616943359375
0.572265625 29.2313232421875 -2.560302734375
8.140869140625 -19.677490234375 5.2398681640625
3.340576171875 -28.2530517578125 4.79443359375
-23.076416015625 -21.8328857421875 27.5244140625
11.1708984375 53.5023193359375 0.8583984375
-13.66455078125 3.7115478515625 13.330078125
6.900390625 50.46923828125 10.222412109375
9.73388671875 50.980224609375 5.420654296875
15.381103515625 39.811279296875 10.03662109375
14.03076171875 36.416015625 14.9207763671875
14.047607421875 20.700439453125 14.8873291015625
-19.658203125 48.4952392578125 12.9154052734375
10.84716796875 52.0899658203125 2.743408203125
-22.693603515625 -5.7381591796875 20.7325439453125
-26.014892578125 56.89892578125 8.4276123046875
-23.478271484375 -18.6474609375 17.76904296875
-25.20947265625 -16.3023681640625 23.327880859375
12.0361328125 55.297119140625 -1.3984375
-24.497802734375 -19.8310546875 28.0167236328125
-25.738037109375 -20.56005859375 28.7451171875
23.730224609375 32.9610595703125 -7.6365966796875
-13.365966796875 51.8792724609375 11.6756591796875
14.34130859375 19.8875732421875 9.6075439453125
-28.529296875 61.1082763671875 15.0521240234375
5.19873046875 36.214599609375 -6.00341796875
13.917236328125 35.42333984375 -8.854736328125
-19.14013671875 4.828125 20.084716796875
31.02197265625 39.282470703125 3.0330810546875
-9.239990234375 7.98779296875 17.79150390625
-25.24365234375 55.3212890625 9.4447021484375
-27.207275390625 -19.5562744140625 29.0328369140625
3.885986328125 60.2554931640625 7.13232421875
14.3369140625 15.27099609375 12.1944580078125
2.775634765625 56.730224609375 14.8421630859375
34.76513671875 38.89501953125 4.382568359375
-21.073974609375 -4.5596923828125 27.094482421875
-20.680419921875 -4.5054931640625 28.64599609375
-2.15380859375 7.8355712890625 17.583740234375
8.835205078125 -15.07861328125 -6.8416748046875
10.597900390625 -17.4110107421875 -0.722412109375
11.2109375 -16.6597900390625 -4.1231689453125
-28.81982421875 59.152587890625 13.389892578125
14.135986328125 21.6258544921875 16.77197265625
7.48046875 43.302734375 16.0478515625
-24.71923828125 -18.5430908203125 23.6597900390625
-16.141357421875 47.1844482421875 13.6246337890625
-14.381103515625 47.9554443359375 12.33935546875
-24.44580078125 -23.2099609375 28.2923583984375
2.845703125 59.3665771484375 13.8502197265625
-29.0693359375 -10.417724609375 9.9814453125
-23.96142578125 -19.5640869140625 21.28125
-8.013427734375 33.9532470703125 -9.0057373046875
14.148681640625 4.972900390625 22.1744384765625
5.078125 47.549560546875 16.285888671875
-28.961669921875 52.6131591796875 11.0709228515625
5.491943359375 49.318359375 14.029296875
-13.936279296875 7.6666259765625 19.38525390625
3.859130859375 -28.8236083984375 8.49951171875
-15.714111328125 7.2901611328125 18.743408203125
-27.019287109375 44.6812744140625 16.6683349609375
-27.55078125 46.2679443359375 18.2506103515625
25.3203125 42.7210693359375 3.785888671875
18.784912109375 47.2347412109375 2.925048828125
15.764892578125 44.8004150390625 6.3770751953125
-23.175537109375 -7.0028076171875 22.9630126953125
21.660888671875 20.449951171875 -2.1375732421875
-2.19482421875 37.6181640625 -13.1446533203125
4.989013671875 -19.4254150390625 -6.0223388671875
-25.013916015625 -11.101318359375 10.7847900390625
-23.515625 -6.420166015625 14.4832763671875
5.7705078125 -24.2275390625 8.2449951171875
7.1982421875 35.575927734375 -3.9300537109375
14.26904296875 18.0523681640625 23.9774169921875
14.09130859375 8.6248779296875 23.28076171875
-20.81201171875 -0.919921875 24.3187255859375
13.803955078125 53.4237060546875 -1.76953125
-16.04248046875 6.0477294921875 16.1524658203125
-20.160400390625 -4.868896484375 7.08056640625
-13.468017578125 6.46728515625 17.2393798828125
-28.4765625 55.430419921875 9.3565673828125
-20.792236328125 54.984130859375 10.263671875
15.77880859375 3.964599609375 28.6348876953125
-23.692626953125 63.152099609375 8.4483642578125
4.86181640625 -21.1107177734375 -0.2928466796875
14.389892578125 33.370361328125 10.7066650390625
6.334228515625 34.7813720703125 -0.5201416015625
6.611572265625 53.3443603515625 7.451171875
-22.49609375 -2.990966796875 20.3936767578125
-19.105224609375 3.0428466796875 21.705810546875
9.1640625 36.510009765625 20.926513671875
14.505126953125 22.38232421875 23.7913818359375
3.653076171875 50.3946533203125 15.679931640625
14.057861328125 12.521728515625 21.352783203125
6.22119140625 -23.2254638671875 7.3494873046875
-21.99658203125 -3.9541015625 14.3150634765625
14.232421875 15.6591796875 20.658203125
-22.83251953125 -5.8428955078125 18.701904296875
-28.197509765625 61.5556640625 10.00439453125
-22.79052734375 -15.540771484375 28.9630126953125
-17.977294921875 63.192138671875 8.42626953125
22.88623046875 1.249267578125 13.389892578125
14.191650390625 26.4991455078125 21.020263671875
4.966552734375 55.9488525390625 8.66796875
-26.554443359375 64.5235595703125 11.68359375
-21.609130859375 62.9271240234375 9.703125
-31.857666015625 53.0301513671875 16.3165283203125
4.334716796875 -22.494140625 0.9259033203125
10.97412109375 34.708740234375 -2.769287109375
22.79833984375 17.80712890625 -0.91259765625
-22.6611328125 -11.0562744140625 29.26611328125
14.239990234375 23.117431640625 20.889404296875
14.382080078125 24.3621826171875 15.8619384765625
6.75390625 -22.048828125 8.4844970703125
7.48876953125 -19.0860595703125 -8.70263671875
-27.35302734375 57.6376953125 8.73583984375
-19.6259765625 3.6478271484375 20.6475830078125
14.12646484375 18.2579345703125 14.946533203125
5.4658203125 -19.341796875 -1.8443603515625
5.887451171875 -24.2320556640625 4.962158203125
-24.78466796875 60.79833984375 8.1988525390625
5.96484375 57.339599609375 4.6605224609375
36.522216796875 32.022705078125 -3.6016845703125
14.103271484375 18.00830078125 17.9307861328125
-22.624755859375 -4.8382568359375 22.5946044921875
-14.20166015625 46.783447265625 12.94287109375
-23.535888671875 -8.4281005859375 14.1387939453125
12.205322265625 -17.8319091796875 5.4898681640625
5.950439453125 -23.4822998046875 3.232666015625
-28.302978515625 63.7135009765625 15.0340576171875
14.277099609375 24.6175537109375 20.030517578125
-25.2158203125 -4.51611328125 14.49853515625
-21.0419921875 -4.8062744140625 10.7750244140625
6.794677734375 41.966064453125 18.427978515625
-21.64501953125 -18.204345703125 29.0965576171875
14.452392578125 31.3062744140625 12.642578125
-24.232177734375 -17.7366943359375 26.143798828125
-26.256591796875 65.35595703125 14.45068359375
11.34130859375 42.8563232421875 11.55224609375
4.572021484375 -26.4483642578125 10.247802734375
14.1025390625 17.848388671875 13.67822265625
27.7880859375 39.4649658203125 1.326904296875
7.940673828125 41.5211181640625 17.21533203125
14.001708984375 7.6903076171875 21.36083984375
-22.106201171875 -10.5838623046875 31.5208740234375
27.275146484375 4.991455078125 14.2418212890625
14.03369140625 19.4388427734375 12.7647705078125
-21.094970703125 -6.9730224609375 29.8248291015625
-31.792236328125 57.3255615234375 16.202392578125
17.189208984375 45.883544921875 4.77978515625
14.408935546875 25.8271484375 11.7596435546875
-19.533447265625 -2.5260009765625 27.3292236328125
13.989990234375 9.142822265625 17.812744140625
4.55712890625 -25.63916015625 4.1025390625
29.958251953125 33.779541015625 -3.281005859375
8.914794921875 -16.3720703125 -4.6842041015625
14.85400390625 32.8140869140625 5.2523193359375
12.948486328125 -15.34326171875 -8.635986328125
5.928955078125 -17.751220703125 -3.76904296875
14.93896484375 30.9705810546875 4.2593994140625
5.913330078125 -17.40869140625 -5.12939453125
14.31884765625 21.54833984375 25.13916015625
-24.388916015625 -11.9659423828125 15.189208984375
-22.75390625 -13.16552734375 32.2574462890625
-22.4951171875 -8.4530029296875 9.86181640625
-10.479248046875 7.7095947265625 18.10546875
12.54443359375 32.005126953125 21.8935546875
-16.78369140625 1.6151123046875 12.2059326171875
-20.576171875 45.1429443359375 13.553466796875
7.084716796875 -15.979736328125 -6.982666015625
7.98486328125 57.5048828125 0.780029296875
5.7060546875 -21.4130859375 -4.43017578125
6.208740234375 13.9027099609375 12.1920166015625
14.7255859375 29.9130859375 5.2454833984375
4.563232421875 -20.2266845703125 -1.548828125
14.751708984375 33.08642578125 9.33251953125
-17.987060546875 2.8824462890625 13.2672119140625
-25.095703125 -13.238037109375 11.069580078125
14.0986328125 34.8870849609375 15.8253173828125
28.20361328125 42.4530029296875 3.417236328125
14.34228515625 25.8270263671875 6.8673095703125
-19.892333984375 63.8834228515625 12.378173828125
18.272705078125 44.091796875 5.9150390625
-20.04931640625 0.923095703125 23.1434326171875
25.927001953125 21.00146484375 -6.1290283203125
12.634033203125 43.76171875 9.5850830078125
14.18212890625 13.1490478515625 28.0142822265625
12.344482421875 51.300537109375 2.4051513671875
9.470703125 38.4189453125 18.543701171875
-22.4404296875 -6.240234375 24.917724609375
4.297607421875 34.840087890625 -9.4141845703125
-23.368408203125 -13.6512451171875 20.3251953125
3.572021484375 -31.8182373046875 9.41796875
-17.64404296875 -0.999755859375 8.238037109375
-4.974853515625 36.6654052734375 -12.6475830078125
-11.069580078125 6.2093505859375 17.35009765625
-23.75 -16.087890625 33.857666015625
-21.35009765625 -9.0263671875 31.7008056640625
-27.91064453125 47.3226318359375 17.2281494140625
26.593505859375 19.8243408203125 -5.65869140625
-5.337890625 8.1048583984375 18.0345458984375
-28.1083984375 50.5643310546875 12.537109375
-23.535888671875 -23.24658203125 24.4742431640625
10.853271484375 36.20361328125 19.0067138671875
3.8994140625 55.5054931640625 12.8355712890625
-17.01171875 61.486083984375 8.03955078125
13.672607421875 -17.53125 4.5565185546875
-22.97216796875 -17.168212890625 28.8006591796875
4.2900390625 -24.2545166015625 0.7921142578125
26.73486328125 36.080078125 -2.008056640625
-15.06689453125 62.754638671875 8.34765625
4.497314453125 34.4766845703125 -4.9063720703125
16.14501953125 43.758544921875 7.3583984375
9.139892578125 13.0416259765625 13.92724609375
9.968505859375 47.741943359375 8.51806640625
-34.42529296875 -17.4549560546875 30.313720703125
23.60693359375 22.4677734375 -2.9813232421875
-28.9130859375 56.89990234375 9.4600830078125
-25.170654296875 -12.779541015625 34.7578125
20.47900390625 40.5020751953125 4.37744140625
-24.28857421875 -10.5841064453125 34.896240234375
4.526611328125 48.6256103515625 17.3997802734375
14.130615234375 13.756103515625 25.212646484375
-34.314208984375 -12.8946533203125 9.9423828125
13.983154296875 32.546875 18.0498046875
4.655517578125 -24.62353515625 2.6923828125
14.177001953125 20.8636474609375 11.99267578125
14.29443359375 16.7308349609375 16.900146484375
-23.525390625 -11.2099609375 33.7935791015625
-21.93603515625 -7.2086181640625 10.312255859375
-22.83740234375 -10.00341796875 8.60791015625
17.98291015625 37.0355224609375 4.45458984375
6.877197265625 40.7183837890625 19.6309814453125
-19.72607421875 62.9671630859375 10.187255859375
-22.494140625 -2.1658935546875 16.9947509765625
14.356201171875 27.077880859375 8.967529296875
-22.147705078125 -5.6710205078125 13.1988525390625
14.553955078125 22.36474609375 8.4141845703125
15.838134765625 47.4637451171875 3.8468017578125
11.56689453125 45.0467529296875 9.4566650390625
4.755126953125 -20.8050537109375 -2.6949462890625
-22.812744140625 -4.6805419921875 18.19677734375
5.508544921875 -22.759521484375 1.5782470703125
24.942138671875 4.89208984375 15.01611328125
-23.704345703125 -13.959716796875 16.886474609375
14.7060546875 31.5869140625 6.9388427734375
22.34619140625 2.97314453125 15.2149658203125
-22.38134765625 64.69384765625 14.13037109375
9.48876953125 -17.5101318359375 -1.617919921875
13.898681640625 30.4454345703125 20.5980224609375
-34.69189453125 -13.6087646484375 13.7188720703125
-22.311279296875 -0.201171875 18.40966796875
27.26025390625 43.5240478515625 4.06787109375
9.147705078125 -18.7408447265625 5.98779296875
5.990478515625 35.6796875 -2.3907470703125
0.566162109375 29.11279296875 -0.3475341796875
-28.76025390625 62.29833984375 15.9237060546875
14.848388671875 35.7249755859375 9.02490234375
14.18408203125 14.8380126953125 18.1004638671875
-23.026123046875 -8.2105712890625 20.28955078125
23.801025390625 4.75244140625 14.087158203125
-34.408447265625 -12.8814697265625 11.49951171875
30.5107421875 35.3453369140625 -0.9366455078125
-25.6611328125 -18.869873046875 33.2000732421875
9.922607421875 49.700927734375 6.642822265625
9.5732421875 54.5115966796875 2.041259765625
23.95849609375 31.60400390625 -6.4146728515625
-32.358154296875 -17.5267333984375 30.248779296875
14.558837890625 8.6881103515625 28.2388916015625
4.83203125 45.379638671875 18.3929443359375
-21.80517578125 2.1270751953125 17.3486328125
-22.37890625 -10.8594970703125 33.4166259765625
-24.03271484375 -10.0142822265625 13.4525146484375
5.60107421875 36.6910400390625 -8.02880859375
14.111083984375 22.0849609375 19.651123046875
-23.323486328125 -9.9677734375 11.2471923828125
8.781005859375 -19.26611328125 3.1962890625
-32.423095703125 -5.39013671875 16.2777099609375
3.283203125 -29.6085205078125 10.3143310546875
-23.409423828125 -16.88671875 20.5006103515625
-15.927001953125 3.753662109375 12.3636474609375
20.886962890625 38.9656982421875 2.5582275390625
18.3955078125 35.339111328125 1.700927734375
15.5966796875 33.3348388671875 3.6629638671875
16.93310546875 33.8311767578125 2.0751953125
-22.833740234375 -7.08349609375 12.3778076171875
16.314453125 35.000244140625 4.7874755859375
14.38232421875 23.4920654296875 11.7421875
16.4833984375 38.1826171875 8.2945556640625
4.90234375 51.03515625 13.4407958984375
18.8115234375 38.46875 4.710205078125
24.14404296875 35.893310546875 -1.7315673828125
19.416015625 33.3062744140625 -2.9205322265625
-28.833740234375 -8.92822265625 18.6483154296875
-14.93603515625 6.5462646484375 16.709228515625
14.355712890625 37.9068603515625 12.9525146484375
-22.60693359375 -13.043212890625 25.6414794921875
-18.727294921875 -2.3870849609375 8.482177734375
-18.01513671875 0.9532470703125 11.28515625
9.9677734375 55.5997314453125 -0.064697265625
-12.889892578125 49.3289794921875 12.046142578125
-20.444580078125 3.7100830078125 16.907470703125
14.33642578125 11.0216064453125 27.7559814453125
14.864501953125 45.6915283203125 6.0880126953125
13.3916015625 13.0235595703125 11.0042724609375
-19.171630859375 4.93017578125 16.798583984375
15.068115234375 44.3837890625 7.3267822265625
15.028076171875 42.455078125 9.16064453125
5.75830078125 -19.34521484375 0.2886962890625
-16.968505859375 5.923583984375 17.91259765625
-17.88330078125 -3.89111328125 31.207275390625
8.382568359375 45.65234375 12.6959228515625
3.1416015625 37.62939453125 -13.4388427734375
-31.338134765625 53.3812255859375 11.36279296875
14.2548828125 48.4281005859375 3.4996337890625
4.58203125 57.49462890625 8.22998046875
-31.738037109375 55.8575439453125 12.52490234375
9.880615234375 38.3712158203125 -14.9893798828125
13.137939453125 -17.27587890625 -1.073486328125
14.18017578125 28.0418701171875 21.770263671875
10.1552734375 39.7724609375 16.1470947265625
14.53173828125 31.50390625 11.3651123046875
7.196533203125 -19.8712158203125 2.7684326171875
-27.786376953125 -11.9364013671875 12.25244140625
-12.736083984375 7.6904296875 18.76953125
3.026611328125 -29.0894775390625 6.074462890625
4.6728515625 58.296142578125 6.9195556640625
4.009521484375 58.2998046875 9.04052734375
-24.452392578125 -20.012451171875 24.3966064453125
21.8544921875 35.230712890625 -1.5672607421875
-23.62890625 -16.08642578125 16.6126708984375
1.086181640625 31.6807861328125 -1.66650390625
7.209228515625 -17.3551025390625 -3.1513671875
-16.552734375 4.5263671875 13.8299560546875
34.618408203125 33.1668701171875 -0.184814453125
4.87353515625 34.3809814453125 -0.6201171875
7.129638671875 35.124267578125 -1.3983154296875
13.167724609375 40.6358642578125 12.5545654296875
7.095458984375 -22.376953125 4.3643798828125
-22.130615234375 63.322998046875 10.8525390625
-24.588623046875 51.00927734375 12.0797119140625
13.767822265625 47.8751220703125 4.57080078125
29.08349609375 34.541259765625 -2.856689453125
-21.3056640625 -7.9788818359375 34.557373046875
3.350341796875 57.43408203125 12.5494384765625
33.779052734375 35.2996826171875 1.71728515625
9.896484375 -17.67431640625 3.916748046875
10.356201171875 48.3638916015625 7.380615234375
-20.8076171875 -7.62255859375 33.1180419921875
14.192138671875 12.28076171875 27.14599609375
13.997314453125 9.8502197265625 21.0433349609375
