-0.93212890625 19.696044921875 7.72412109375
-0.86572265625 8.849365234375 38.477783203125
0.373291015625 26.2998046875 -22.011474609375
14.42529296875 -8.670654296875 -36.274169921875
-1.119384765625 6.514404296875 -3.326904296875
2.822509765625 -25.0791015625 30.310302734375
-1.03955078125 17.921630859375 22.869873046875
-3.817626953125 27.083984375 -39.54736328125
2.6376953125 1.1806640625 -35.399169921875
1.092529296875 -23.659912109375 24.572998046875
9.3974609375 31.343017578125 -24.706787109375
6.990478515625 -20.232177734375 18.95703125
-1.25146484375 -9.91455078125 10.954833984375
0.887451171875 -16.985595703125 7.102294921875
-0.54736328125 24.80126953125 2.59521484375
1.110107421875 15.719482421875 -27.864013671875
-1.130615234375 2.49072265625 -10.265625
-1.14111328125 13.747314453125 39.7158203125
-1.01416015625 7.146240234375 2.2373046875
-0.99853515625 7.526611328125 32.984375
-0.121826171875 7.27783203125 -29.785400390625
0.091064453125 24.365478515625 24.405517578125
6.358154296875 -26.81201171875 19.992431640625
5.270263671875 -2.603515625 -36.944580078125
11.49169921875 -2.62158203125 -36.423828125
9.874267578125 15.146240234375 -31.3515625
-1.21484375 -2.5234375 0.11181640625
-1.20556640625 -17.722412109375 31.558349609375
2.74365234375 -18.60693359375 12.2001953125
10.391357421875 -22.986083984375 21.162841796875
-1.31396484375 -11.589599609375 -1.2421875
-1.27783203125 -9.663818359375 26.818115234375
-0.419677734375 -0.1796875 -31.658203125
9.186767578125 5.29150390625 -34.446533203125
15.313232421875 -4.501220703125 -34.14892578125
4.46826171875 29.146484375 -29.24853515625
-0.84423828125 23.319091796875 -18.6728515625
0.78759765625 31.081787109375 -20.8212890625
-1.28466796875 6.662109375 12.26171875
0.6884765625 -9.892822265625 -17.835205078125
8.048828125 23.467529296875 -27.55615234375
19.659912109375 -2.612060546875 -36.1982421875
-1.435302734375 -9.000732421875 -8.667724609375
-1.030517578125 -0.92041015625 12.8779296875
-1.369384765625 -9.898193359375 33.07275390625
-20.281005859375 18.089111328125 23.2041015625
-1.501708984375 -13.679443359375 20.011962890625
13.363037109375 -17.235595703125 18.493896484375
-1.005615234375 18.65283203125 -3.665283203125
-1.346923828125 -1.50341796875 4.793701171875
1.73291015625 11.548828125 -30.262939453125
15.002197265625 -25.89990234375 21.83935546875
-1.064697265625 15.661865234375 0.068603515625
-0.799072265625 6.361083984375 -25.571533203125
-3.569091796875 32.72021484375 -47.16259765625
-1.146484375 -4.46875 23.159912109375
1.573486328125 23.0478515625 42.072998046875
-1.16552734375 -1.31884765625 35.807861328125
-1.1875 -20.689453125 22.26171875
-1.2041015625 10.19580078125 -5.991455078125
-0.93994140625 11.857177734375 8.0068359375
-1.283935546875 1.611083984375 -18.306640625
2.78955078125 -18.20556640625 17.794921875
-1.1689453125 3.759765625 30.91552734375
-0.982666015625 8.02392578125 24.03125
-1.33203125 3.9453125 5.63916015625
-1.392822265625 -18.106689453125 27.463623046875
-1.02001953125 9.468017578125 -13.72216796875
-1.257568359375 -2.5166015625 -6.76806640625
-0.966064453125 9.854736328125 -22.582763671875
0.484619140625 3.846923828125 -31.887451171875
-0.861572265625 18.013916015625 13.641845703125
-1.03369140625 12.901611328125 18.19189453125
22.7353515625 -4.9619140625 -34.026123046875
-1.06298828125 2.14697265625 -24.002685546875
-1.266357421875 -5.082275390625 -24.12353515625
-1.333740234375 -4.920654296875 19.11572265625
-1.053955078125 10.971923828125 3.5439453125
-1.45556640625 -12.351806640625 23.90283203125
-20.435546875 26.462158203125 26.82568359375
4.95263671875 -27.923095703125 25.193115234375
-0.851318359375 23.216552734375 -8.697509765625
-1.907470703125 26.62060546875 -34.459228515625
13.009033203125 -24.841064453125 17.143798828125
-1.11279296875 19.678955078125 26.387939453125
-0.567626953125 -8.173583984375 -27.2470703125
-1.015869140625 10.863525390625 11.875244140625
-0.893310546875 14.459716796875 -17.2099609375
-0.612060546875 19.15283203125 -21.080810546875
9.149658203125 -17.94091796875 16.048828125
4.26318359375 25.885986328125 40.63330078125
-0.999267578125 17.4990234375 -13.475830078125
9.1728515625 34.57177734375 -22.35302734375
-1.114990234375 9.204833984375 19.478271484375
-0.88671875 12.146240234375 29.835693359375
-1.139404296875 -6.8955078125 30.671630859375
-0.41796875 27.381591796875 -4.72509765625
-0.869384765625 17.866943359375 30.826416015625
-1.023193359375 -4.427490234375 11.193115234375
-0.812255859375 11.791015625 26.056884765625
22.4638671875 -5.976806640625 -41.33203125
2.889892578125 22.893310546875 -26.42822265625
-1.168212890625 -2.225341796875 -18.2568359375
-0.05078125 25.44189453125 16.627197265625
-1.17333984375 6.18505859375 17.055908203125
5.537841796875 4.0966796875 -35.48046875
-1.28369140625 -0.791015625 -26.308349609375
-1.21923828125 4.773681640625 -6.77880859375
6.02099609375 -16.69140625 19.680908203125
-19.14892578125 31.010498046875 28.6572265625
-1.4404296875 -11.69091796875 2.464111328125
-1.01171875 13.545166015625 14.489501953125
2.75048828125 29.15234375 -23.9228515625
-0.28857421875 -18.76123046875 14.285400390625
-0.96240234375 21.302490234375 4.062255859375
-1.24560546875 -1.036865234375 16.614990234375
-1.13037109375 -1.165283203125 -10.666259765625
-1.251220703125 2.587158203125 -1.843505859375
4.71435546875 10.76611328125 -32.256591796875
-1.538818359375 -7.1865234375 -13.39111328125
-0.954345703125 -5.264404296875 -31.557861328125
-0.755126953125 24.91357421875 -1.016357421875
-1.263916015625 -1.616455078125 25.36669921875
-1.453369140625 -14.691162109375 15.070068359375
-0.819091796875 -15.47900390625 4.326171875
-0.572998046875 27.732177734375 -14.42529296875
-0.808837890625 20.893798828125 17.29736328125
-1.365478515625 -8.37744140625 18.27880859375
-1.3203125 4.31689453125 9.337890625
-1.32861328125 -9.543701171875 -4.1474609375
-0.61474609375 20.22314453125 37.86767578125
4.22412109375 -24.8798828125 26.864990234375
-1.2138671875 -8.72412109375 4.98095703125
-1.00927734375 15.99072265625 -9.1171875
6.989501953125 17.217529296875 -30.30029296875
5.14501953125 -23.07470703125 21.0185546875
6.57275390625 28.943359375 -25.001708984375
-1.48681640625 -13.136474609375 9.58642578125
25.53466796875 -6.75048828125 -43.9990234375
-0.980712890625 5.5068359375 26.45263671875
-0.57177734375 21.50830078125 33.397705078125
-0.013916015625 25.315673828125 12.586669921875
-2.094482421875 27.014892578125 5.57080078125
-1.0791015625 2.634765625 18.5771484375
-0.867431640625 15.331298828125 36.56494140625
1.349365234375 18.9697265625 -26.66845703125
-1.178955078125 -3.789306640625 -13.996826171875
-0.958740234375 2.362060546875 22.186767578125
1.88525390625 -12.75537109375 -0.70947265625
-1.3896484375 -5.154052734375 -20.600341796875
12.362060546875 29.66796875 -25.169677734375
-1.043701171875 11.23193359375 -9.599853515625
-0.91845703125 16.296630859375 7.910888671875
-1.015380859375 22.3544921875 10.20166015625
-1.093994140625 7.26513671875 -18.504638671875
-1.49609375 -8.4599609375 14.072021484375
-0.908447265625 17.83447265625 3.388427734375
-1.20703125 -4.8046875 4.2412109375
18.63330078125 -3.90771484375 -33.2978515625
-0.8759765625 21.519775390625 22.95458984375
-1.245361328125 -2.18115234375 -3.1943359375
-1.440673828125 -14.4697265625 26.96630859375
-0.744873046875 20.15283203125 -6.572265625
-1.052001953125 14.974853515625 24.6181640625
-0.6474609375 -21.16943359375 25.790771484375
-1.035400390625 6.421875 36.126953125
-1.0341796875 5.360107421875 -11.813232421875
11.19482421875 8.068115234375 -34.267333984375
-1.16162109375 -3.73388671875 31.786376953125
13.677001953125 -22.078125 18.723388671875
-1.17724609375 -1.614990234375 28.674072265625
0.957275390625 -24.199951171875 27.815185546875
0.867919921875 27.605712890625 1.783935546875
-1.025146484375 12.97265625 -20.87060546875
-0.76416015625 20.78759765625 -15.140380859375
3.705322265625 -2.90380859375 -34.163818359375
-1.37890625 -7.3779296875 -1.470947265625
-0.6552734375 26.494384765625 -18.361328125
-0.8671875 15.328125 33.289794921875
11.193603515625 23.655517578125 -27.46923828125
-1.337890625 2.5390625 12.007080078125
2.03173828125 8.642822265625 -31.6162109375
6.597412109375 7.060791015625 -34.472412109375
-5.0634765625 29.366455078125 -41.296875
-3.473388671875 37.03271484375 -47.2900390625
-1.05126953125 14.97314453125 21.431884765625
-1.630615234375 -8.697021484375 8.06689453125
-0.861572265625 18.0009765625 10.529052734375
3.55322265625 16.606201171875 -29.671630859375
9.02001953125 -26.017578125 21.39013671875
8.739013671875 -22.08203125 17.185546875
-1.29736328125 -2.533203125 7.854248046875
-1.155029296875 5.453369140625 -0.41845703125
-0.914306640625 19.0498046875 19.9140625
-0.961669921875 13.69921875 -2.87744140625
2.23291015625 -2.05029296875 -36.73779296875
8.413818359375 -1.8447265625 -37.31005859375
7.87646484375 12.931640625 -32.07275390625
-2.024169921875 23.948486328125 5.539306640625
7.501953125 26.286376953125 -26.479248046875
-0.955322265625 -11.761474609375 -9.8876953125
-0.5888671875 26.025146484375 -11.83935546875
-0.96044921875 -8.072265625 -19.849609375
-21.076904296875 28.47802734375 29.0107421875
-0.3720703125 14.146240234375 -25.461669921875
18.447265625 2.746337890625 -26.3271484375
-0.300048828125 22.28515625 -21.4892578125
1.334716796875 24.27197265625 -24.027099609375
-1.064208984375 9.465576171875 35.28759765625
4.072509765625 -22.75830078125 24.57470703125
-0.96142578125 16.1044921875 -19.856689453125
14.486572265625 -2.5771484375 -36.46826171875
-1.402587890625 -18.259765625 20.536865234375
-0.316162109375 -13.796875 -2.988525390625
-1.16748046875 2.633544921875 -15.25390625
7.1005859375 20.774169921875 -28.72412109375
-5.7353515625 27.858642578125 -37.4130859375
-1.422119140625 -12.5009765625 13.061767578125
-1.560302734375 -5.380859375 -7.5419921875
-1.322021484375 -9.21240234375 -15.763916015625
12.453369140625 32.292236328125 -23.60595703125
12.68603515625 -0.126953125 -37.47119140625
-0.7822265625 21.50830078125 -11.915283203125
5.50634765625 1.394775390625 -36.634765625
28.69091796875 -8.29296875 -39.935791015625
-18.401123046875 19.43603515625 24.99169921875
0.667724609375 -17.549072265625 10.116943359375
-1.177978515625 -6.688232421875 25.213134765625
-1.5400390625 22.5380859375 25.95849609375
2.176513671875 3.92236328125 -34.271484375
-1.98681640625 26.515625 -37.346923828125
0.63818359375 -0.821533203125 -34.528076171875
-1.5078125 -14.967529296875 7.357177734375
-0.98974609375 11.592529296875 -15.66357421875
-1.233154296875 -1.67041015625 -29.0615234375
-0.103515625 18.412841796875 -24.193603515625
4.9794921875 -27.01806640625 29.349365234375
-1.19140625 -9.69384765625 30.120849609375
-0.827880859375 25.2021484375 -6.518798828125
-2.403564453125 28.301025390625 -41.7021484375
-1.00927734375 13.55859375 2.1826171875
0.404296875 -19.7578125 18.55126953125
-1.213623046875 0.01708984375 -8.101318359375
-1.090087890625 4.834228515625 23.719970703125
-1.096923828125 8.428466796875 -1.13671875
11.979248046875 -25.4716796875 21.60400390625
-1.3310546875 1.5185546875 33.7978515625
-1.21337890625 1.150146484375 29.0986328125
-1.15087890625 4.354736328125 -17.784423828125
7.668212890625 -22.8251953125 19.7412109375
-0.788330078125 21.383056640625 -1.787353515625
-0.89453125 11.907958984375 37.63671875
-4.086181640625 25.46875 -35.72314453125
1.059814453125 -5.248291015625 -29.659912109375
5.321044921875 23.87353515625 -27.438232421875
-0.919189453125 8.68359375 10.054443359375
-1.198974609375 1.713134765625 -21.0576171875
16.426025390625 -6.5732421875 -35.57958984375
2.807373046875 -21.898193359375 22.293212890625
-0.914306640625 4.8525390625 33.594970703125
-0.835693359375 17.44287109375 -6.178466796875
17.05078125 -2.3203125 -34.856201171875
22.5634765625 -3.62353515625 -36.3974609375
-1.082763671875 10.205078125 32.372802734375
2.277587890625 14.201171875 -29.8447265625
-1.410400390625 -10.97802734375 19.6474609375
27.9638671875 -7.283447265625 -42.883544921875
9.703857421875 28.72216796875 -25.5107421875
-1.169189453125 7.509033203125 -6.330322265625
0.211669921875 9.855712890625 -28.77587890625
-1.24169921875 -15.0078125 31.986328125
11.177001953125 5.96728515625 -32.369140625
10.991943359375 -23.15283203125 18.55859375
-1.255859375 -0.02734375 -1.34521484375
-1.5087890625 1.185546875 5.903564453125
-0.043212890625 28.645263671875 -20.164306640625
-1.01220703125 8.44677734375 5.020751953125
-0.93212890625 7.2216796875 -22.882568359375
7.9150390625 -24.997802734375 26.178955078125
-1.364013671875 -0.763671875 2.083984375
-1.15673828125 -12.520263671875 32.89111328125
-1.373046875 -7.2939453125 11.215576171875
4.488037109375 -19.843505859375 19.671630859375
-1.0986328125 10.865966796875 -3.449951171875
-0.911376953125 6.250732421875 30.119140625
1.002197265625 1.431640625 -33.23291015625
16.48486328125 2.136474609375 -28.356201171875
-0.78564453125 22.747314453125 0.990966796875
-0.799560546875 14.740478515625 30.747314453125
-17.923583984375 24.330078125 25.67626953125
-1.191162109375 -1.902587890625 10.46728515625
-1.302490234375 -7.47998046875 -10.781982421875
-1.213134765625 -0.097412109375 22.98046875
-1.349365234375 4.673095703125 2.915283203125
-1.201904296875 4.0546875 -4.11279296875
-1.42578125 -19.017822265625 24.217041015625
-0.867431640625 -2.701416015625 -31.965087890625
18.569580078125 -0.413330078125 -37.454833984375
-16.54541015625 30.75 28.065673828125
-0.84326171875 13.4873046875 -8.390380859375
0.33056640625 13.278564453125 -28.01025390625
2.451904296875 26.607666015625 -24.046630859375
-1.045654296875 3.568359375 28.17919921875
-0.7451171875 17.66455078125 37.863037109375
-1.31640625 -15.896484375 29.596923828125
-1.435302734375 -7.794921875 -5.992431640625
-1.4140625 -4.730712890625 -1.123291015625
7.99560546875 -17.409423828125 18.24267578125
14.548095703125 -25.256103515625 19.430419921875
6.260009765625 31.558837890625 -24.1982421875
-1.293701171875 -13.75732421875 17.490966796875
-1.202880859375 -20.130126953125 30.78515625
-1.159912109375 -7.462646484375 28.054443359375
-0.85400390625 22.02587890625 6.6884765625
-1.40966796875 -9.5322265625 0.49462890625
-0.959228515625 24.87646484375 -16.448974609375
-0.62353515625 2.07080078125 -30.482177734375
-0.987548828125 17.963623046875 -0.95703125
-0.93701171875 9.440185546875 1.21484375
-21.5322265625 27.460205078125 31.255859375
-0.84228515625 20.899658203125 -19.30712890625
-1.277587890625 -4.3994140625 1.757568359375
-1.193603515625 5.578369140625 14.50537109375
7.3046875 30.88671875 -26.375244140625
-1.010498046875 14.675048828125 -14.7353515625
-0.671142578125 12.54150390625 -23.586669921875
-1.37646484375 -13.458740234375 0.390625
2.189697265625 24.24267578125 40.0029296875
-0.931884765625 17.274658203125 25.86328125
-0.937255859375 8.251220703125 -16.263916015625
-0.83056640625 16.43115234375 39.98388671875
-1.426513671875 -11.181640625 -7.557373046875
-0.34033203125 27.15185546875 3.870849609375
-1.150146484375 1.916748046875 -12.641357421875
-1.0849609375 3.910400390625 -25.689453125
-1.346923828125 1.052001953125 36.350830078125
4.905517578125 8.47314453125 -33.43798828125
-1.261962890625 -2.55224609375 -24.62890625
1.173095703125 6.180908203125 -31.853759765625
-0.501953125 7.96142578125 -27.4326171875
-1.369140625 -7.2119140625 16.155517578125
-0.305908203125 30.708740234375 -18.7001953125
-20.1181640625 14.969970703125 22.252685546875
-1.2626953125 -9.177490234375 24.333251953125
-0.92626953125 16.099365234375 15.345947265625
-0.80615234375 15.83203125 -11.517578125
-0.75 5.44873046875 -28.343505859375
-0.26904296875 26.9775390625 -39.162841796875
-1.49267578125 -15.9296875 21.15771484375
5.179931640625 27.339111328125 42.312255859375
-0.7490234375 9.0419921875 -25.17431640625
10.3349609375 -0.49755859375 -37.769775390625
-1.089111328125 17.8017578125 28.254150390625
-1.16748046875 8.893798828125 13.447998046875
6.88671875 -26.612060546875 24.73046875
-1.198486328125 23.440185546875 17.2119140625
2.495849609375 31.214111328125 -22.47119140625
-1.24267578125 -6.029541015625 21.375732421875
9.89453125 21.80859375 -28.188232421875
1.132568359375 29.08544921875 -22.171142578125
0.81591796875 -18.68994140625 16.37548828125
0.207275390625 16.746826171875 -25.836181640625
-1.161865234375 -6.792724609375 -22.337890625
9.906982421875 -19.79931640625 17.271728515625
-0.91845703125 20.145751953125 11.478515625
-1.009765625 17.357177734375 5.68310546875
-1.107421875 -12.221435546875 27.5458984375
-1.17578125 -16.29443359375 9.25341796875
20.968994140625 -1.37158203125 -37.68359375
-1.063720703125 -2.14453125 33.6279296875
-0.8779296875 8.819091796875 -20.4951171875
-1.20458984375 5.209228515625 -9.104248046875
-0.929931640625 4.874267578125 -23.498046875
-1.399169921875 -3.072509765625 21.31494140625
-1.131591796875 2.44873046875 -7.331298828125
8.7626953125 3.063720703125 -34.960693359375
-1.010498046875 16.00146484375 -3.161376953125
23.990234375 -7.7177734375 -41.466796875
-1.368408203125 -2.118896484375 -15.92138671875
0.240478515625 21.93603515625 39.156982421875
7.50927734375 -24.1298828125 21.63623046875
-1.015869140625 8.360595703125 -11.703857421875
-0.812255859375 -7.155029296875 -25.0107421875
-1.364990234375 -11.83642578125 -3.97802734375
-1.03662109375 8.9873046875 30.423583984375
12.8681640625 -19.232666015625 17.4716796875
-1.068603515625 10.54296875 5.945556640625
0.5048828125 -22.076904296875 22.921630859375
-0.85205078125 19.593017578125 15.29150390625
-0.75146484375 23.674072265625 -10.929443359375
20.7490234375 -3.487548828125 -34.403076171875
-1.2431640625 -7.438720703125 33.069580078125
-1.391845703125 -13.941162109375 2.7392578125
-1.0283203125 9.2294921875 25.947021484375
-1.0751953125 9.116455078125 21.7392578125
2.90673828125 -17.3251953125 10.34033203125
-1.31787109375 -16.913330078125 15.4541015625
-0.21435546875 -23.678466796875 30.035400390625
-1.495849609375 -10.9130859375 8.454345703125
9.1630859375 17.797607421875 -30.500244140625
-1.181884765625 -0.17919921875 -23.916015625
4.73193359375 -25.738525390625 24.69091796875
-1.55712890625 -16.638427734375 25.739990234375
-0.92626953125 11.02587890625 -12.099609375
2.442626953125 20.86279296875 -27.288818359375
-20.328369140625 20.576416015625 23.95654296875
-0.353759765625 24.365966796875 -20.64453125
-19.216064453125 28.68408203125 27.41064453125
6.564453125 -0.34228515625 -37.576416015625
-0.996337890625 13.973388671875 8.94384765625
15.592529296875 -17.061767578125 18.623046875
-1.3291015625 -2.25537109375 18.628173828125
-1.371826171875 -11.117431640625 21.881591796875
-0.056640625 25.362060546875 10.349365234375
-0.9638671875 12.385498046875 -5.612060546875
4.04638671875 -0.76708984375 -37.293212890625
-1.254150390625 -2.540283203125 14.979736328125
-0.944091796875 10.44921875 23.890869140625
-0.859375 19.47705078125 32.55908203125
-1.278564453125 -5.757080078125 12.94580078125
7.261962890625 14.947998046875 -31.394287109375
-1.27685546875 -3.074951171875 -9.15771484375
9.579345703125 11.5068359375 -33.115478515625
-1.0146484375 8.359130859375 17.3720703125
2.452880859375 17.7861328125 -28.17236328125
-1.191162109375 -2.95703125 -11.960693359375
3.472412109375 12.4169921875 -31.502197265625
8.681884765625 7.94921875 -34.200439453125
-1.174072265625 1.10205078125 13.705810546875
-0.848876953125 6.9150390625 19.0947265625
-1.2373046875 0.475341796875 18.259521484375
-1.194091796875 0.5166015625 11.183837890625
-1.657958984375 4.804931640625 37.455322265625
-0.614990234375 25.28759765625 -4.143798828125
-1.33740234375 -3.7578125 16.984619140625
-1.16357421875 6.465576171875 9.636962890625
0.571044921875 -18.1015625 12.399658203125
-0.759521484375 19.694091796875 -13.11328125
-1.53076171875 -15.778564453125 18.93408203125
-0.889892578125 13.34228515625 -0.39208984375
-0.947998046875 17.899169921875 1.210205078125
13.4775390625 -4.353759765625 -35.7421875
-0.9384765625 17.043212890625 20.734619140625
-1.35595703125 0.723388671875 3.66015625
-1.01708984375 13.343505859375 6.431884765625
-0.84228515625 21.205810546875 20.116455078125
2.5029296875 25.35693359375 41.833984375
-1.40576171875 -0.771484375 -4.834716796875
-1.135986328125 6.018798828125 5.066650390625
-1.154541015625 -19.912109375 28.639404296875
-1.201416015625 -3.611328125 29.490478515625
-1.255615234375 -0.091064453125 27.052734375
-1.021484375 11.981689453125 15.967529296875
13.5205078125 -27.396484375 20.46728515625
-1.0029296875 15.111083984375 19.286376953125
-5.08740234375 29.001953125 -39.1142578125
-0.89892578125 13.08203125 32.140625
12.150634765625 -25.5166015625 19.0595703125
0.022216796875 26.612548828125 -2.074951171875
-1.349609375 3.39453125 0.154541015625
4.42431640625 30.5009765625 -23.864501953125
9.429443359375 25.384765625 -26.729248046875
-1.77880859375 26.51904296875 -40.697265625
-1.32568359375 -8.092529296875 -17.742919921875
-1.105224609375 10.774169921875 17.994140625
-1.006103515625 12.419677734375 10.408447265625
-1.48486328125 -14.465576171875 22.808837890625
-1.71533203125 21.259765625 27.910888671875
-0.89599609375 20.66943359375 -4.35693359375
-1.06396484375 19.806884765625 24.212646484375
0.2373046875 -14.660400390625 -1.122802734375
-1.140625 4.625244140625 11.435546875
-1.001220703125 0.419921875 -28.740478515625
-0.971923828125 19.756591796875 5.521240234375
5.151123046875 -27.70458984375 27.3466796875
-1.29150390625 -5.898193359375 -15.0615234375
-1.12841796875 8.73095703125 -4.45556640625
0.045166015625 -20.482421875 20.512939453125
-0.988037109375 -6.3134765625 -28.843505859375
-0.902587890625 12.95849609375 -18.703857421875
-0.650390625 17.9765625 -8.3037109375
-1.253662109375 -3.645751953125 -4.736083984375
-1.32568359375 -0.840576171875 -19.848876953125
-1.328369140625 2.806396484375 7.731689453125
-1.3017578125 -4.01220703125 25.504638671875
-1.22705078125 -3.93310546875 -22.355712890625
-1.11181640625 14.405517578125 16.5869140625
-1.28662109375 -9.60888671875 2.74560546875
10.9462890625 33.533203125 -22.817626953125
16.898193359375 -8.31689453125 -36.657470703125
-1.368408203125 -10.814453125 4.694580078125
-1.360107421875 -0.64404296875 6.936767578125
-0.656982421875 20.284423828125 35.505859375
-0.674560546875 22.246337890625 -6.41650390625
5.48388671875 -21.66650390625 19.3681640625
-1.068115234375 -3.283935546875 13.02978515625
-1.237548828125 5.51708984375 7.35302734375
-20.675048828125 30.6328125 30.076416015625
-1.07470703125 4.161376953125 -13.646240234375
-1.3017578125 -2.641845703125 2.996337890625
-1.165283203125 1.5263671875 -26.3984375
-18.049560546875 26.78662109375 26.31787109375
-1.397705078125 0.703369140625 -3.290771484375
-1.0283203125 22.801025390625 -16.588134765625
0.063720703125 -21.672607421875 27.67919921875
2.037353515625 29.304931640625 1.52197265625
-1.053466796875 9.71240234375 -8.183349609375
-0.971923828125 7.210205078125 -13.432373046875
-0.466552734375 20.675537109375 41.0869140625
-0.736572265625 17.901123046875 -11.37060546875
4.25244140625 21.888671875 -27.625244140625
-1.28662109375 2.786865234375 3.83154296875
-1.291015625 -9.675537109375 -2.033203125
-1.193115234375 1.75048828125 31.73583984375
2.388916015625 -24.559326171875 25.968505859375
-0.9482421875 16.522216796875 -16.35595703125
-0.827880859375 25.1640625 -9.500732421875
-1.239501953125 -3.10986328125 -20.364990234375
-1.393310546875 -4.1396484375 9.184814453125
-1.01416015625 13.531494140625 27.15869140625
17.108154296875 -1.81982421875 -36.96435546875
-1.112548828125 -3.2705078125 5.938720703125
-0.224365234375 4.286376953125 -29.959228515625
-4.53125 28.15771484375 -42.8759765625
-1.094970703125 23.911376953125 14.85107421875
5.5146484375 18.427001953125 -29.53125
-1.1201171875 -5.509765625 -26.19921875
-1.216796875 -6.346435546875 5.67724609375
-0.9345703125 19.83154296875 29.8720703125
-1.345703125 -0.22509765625 -16.706787109375
3.909912109375 2.85107421875 -35.5087890625
-1.15673828125 4.140625 16.98095703125
-1.010498046875 9.757568359375 7.8271484375
-1.138671875 3.5029296875 -19.79833984375
-4.19189453125 30.90673828125 -45.733154296875
0.09765625 26.28857421875 0.436767578125
-3.26806640625 21.58349609375 26.451904296875
-1.3046875 -14.208984375 24.953857421875
-0.841064453125 10.9248046875 27.896728515625
4.46728515625 28.39697265625 -24.705810546875
-1.552490234375 -10.100830078125 6.5947265625
30.792724609375 -7.730712890625 -38.672119140625
-1.001953125 15.1064453125 13.013671875
-1.2021484375 2.778564453125 24.4130859375
2.791015625 24.63232421875 -25.381591796875
-1.299560546875 -17.9150390625 29.505615234375
-0.921630859375 11.130126953125 13.8759765625
-0.74267578125 21.453369140625 -9.798828125
11.806396484375 -21.083984375 18.16748046875
14.224609375 -1.258544921875 -38.126953125
23.396240234375 -6.8876953125 -43.2041015625
-0.99365234375 12.82275390625 20.451416015625
-0.8369140625 27.299072265625 -16.52685546875
-1.271728515625 -6.9091796875 23.178466796875
-1.3701171875 -9.4794921875 -10.927734375
-0.748291015625 18.782958984375 -15.172607421875
-1.30908203125 0.873779296875 15.68701171875
7.46630859375 -18.246826171875 19.978759765625
-1.106201171875 3.265380859375 -22.33056640625
-1.43896484375 -10.5078125 13.130615234375
-1.4052734375 -14.489013671875 12.9931640625
0.634765625 -8.875244140625 -20.719482421875
-3.992431640625 27.000244140625 -36.9814453125
21.1494140625 -6.19580078125 -34.751708984375
29.40966796875 -7.05810546875 -41.549072265625
13.696044921875 -16.281982421875 20.194091796875
-0.90087890625 14.2529296875 -10.2119140625
3.950927734375 4.895263671875 -34.614990234375
2.537353515625 -19.553466796875 19.559814453125
-0.88818359375 20.780517578125 -17.3369140625
7.8583984375 19.135009765625 -29.521728515625
-1.112060546875 15.528076171875 2.122802734375
-1.272216796875 -5.353759765625 -12.71240234375
14.4130859375 0.56689453125 -36.82275390625
9.4873046875 -16.353759765625 17.1650390625
-1.40966796875 -17.1044921875 13.479736328125
-1.082275390625 -4.49462890625 -18.776611328125
-0.884765625 19.80224609375 2.579345703125
-1.1865234375 -0.38330078125 -12.462158203125
-0.8935546875 10.7861328125 -20.4697265625
18.16357421875 -5.236083984375 -34.65771484375
6.9375 2.57958984375 -36.02490234375
-1.265625 -9.163330078125 16.201171875
-1.451904296875 -7.05029296875 -8.62744140625
-1.15771484375 -19.67431640625 17.385986328125
4.39013671875 -17.897216796875 19.62939453125
-1.3251953125 -7.108642578125 9.147216796875
-0.76318359375 19.696533203125 21.738525390625
-20.106689453125 24.343994140625 25.18408203125
0.533203125 26.001953125 18.380615234375
-0.874755859375 25.20556640625 4.634033203125
-1.0625 -3.94775390625 -16.447265625
0.135498046875 22.9921875 -23.2353515625
-1.16259765625 -3.80078125 35.01318359375
-1.46923828125 -7.59033203125 -3.374755859375
7.525390625 4.91455078125 -35.3134765625
-0.97021484375 7.115478515625 21.77978515625
1.607421875 -18.757080078125 14.049560546875
-1.10791015625 1.7666015625 20.379150390625
-1.564208984375 -14.151123046875 5.50634765625
1.757568359375 24.386962890625 43.41357421875
5.29833984375 16.193115234375 -30.658447265625
-1.2509765625 -2.49072265625 23.12109375
-0.975830078125 0.554931640625 24.921142578125
-0.89892578125 23.257080078125 8.532470703125
-1.08984375 7.394775390625 15.03857421875
-1.19677734375 10.5361328125 9.76708984375
-1.307861328125 -11.79541015625 25.711181640625
-1.177978515625 -2.438232421875 -27.33154296875
-1.03515625 12.89013671875 24.5322265625
-1.02783203125 -3.907958984375 -30.239990234375
-0.885498046875 25.873046875 -14.280029296875
-1.04296875 -2.7255859375 26.880859375
18.83544921875 4.060302734375 -25.027099609375
10.36181640625 9.61865234375 -33.58544921875
-0.8984375 11.852294921875 -13.79541015625
-0.92529296875 19.92041015625 9.596923828125
2.861328125 -24.849609375 28.165283203125
6.4375 11.02734375 -32.97021484375
-1.11181640625 11.751708984375 1.67822265625
-0.621826171875 17.641357421875 -22.561767578125
-0.554931640625 -10.650634765625 -14.836181640625
6.16845703125 22.290771484375 -28.134033203125
-1.359619140625 -8.21923828125 20.166748046875
1.351806640625 22.470458984375 -25.182373046875
3.864501953125 -21.797607421875 20.298828125
0.736083984375 -23.07373046875 26.31494140625
-0.741943359375 18.96728515625 -19.227294921875
7.240478515625 -27.60107421875 21.435791015625
-1.04736328125 11.273193359375 35.74560546875
10.070556640625 -27.493896484375 20.863037109375
-1.58740234375 -9.8603515625 -6.256103515625
-0.56787109375 16.3994140625 35.072998046875
-2.6689453125 23.924560546875 25.46240234375
-0.778564453125 22.977294921875 2.837158203125
-0.903076171875 5.634521484375 -19.454345703125
6.02685546875 12.880859375 -31.775390625
4.245849609375 -23.452880859375 22.592041015625
-0.697265625 13.8603515625 35.072998046875
-0.951904296875 11.49267578125 -7.702880859375
-1.076171875 -0.981689453125 8.821533203125
-1.144775390625 9.456787109375 -10.07568359375
2.00732421875 4.6474609375 -32.53125
-0.764892578125 23.34423828125 -2.5947265625
-0.884765625 23.724609375 12.30224609375
0.34521484375 -16.77783203125 4.897705078125
-1.556396484375 -12.7548828125 15.023681640625
-0.637939453125 -16.175537109375 2.441650390625
-1.2724609375 -5.7197265625 29.2744140625
-1.408935546875 -21.015869140625 24.133544921875
-1.047119140625 -0.37109375 34.0791015625
1.162841796875 20.629638671875 -25.7314453125
-1.0986328125 10.97900390625 19.9033203125
-1.13818359375 5.965576171875 32.053466796875
-1.188232421875 22.54150390625 21.3076171875
-1.568603515625 -15.628173828125 16.7216796875
-0.7529296875 17.427490234375 32.5888671875
12.43994140625 -23.129638671875 17.384033203125
-1.249755859375 0.14697265625 0.46435546875
-0.447998046875 20.3623046875 -22.862548828125
-1.230712890625 0.741943359375 -10.7373046875
13.368896484375 -2.430419921875 -35.04736328125
10.8193359375 -18.354248046875 16.67919921875
3.162841796875 10.624755859375 -31.339599609375
-0.8330078125 18.890625 18.116943359375
-0.977783203125 7.07373046875 -20.9453125
-1.026611328125 6.70654296875 28.377685546875
-0.91162109375 10.094482421875 37.1748046875
-0.590576171875 -16.187744140625 6.40087890625
11.45556640625 30.93798828125 -24.242431640625
8.4482421875 -19.141357421875 18.766357421875
18.804931640625 -2.294677734375 -34.464111328125
-18.559814453125 13.854248046875 22.45068359375
-0.366455078125 -4.43505859375 -33.0390625
0.8203125 8.739013671875 -30.29345703125
10.202880859375 0.822509765625 -36.558837890625
-1.43896484375 -9.070068359375 -13.31787109375
9.548583984375 13.54052734375 -32.30615234375
-0.80517578125 19.6259765625 -2.171142578125
-1.03759765625 12.718017578125 3.936767578125
11.40771484375 -24.17236328125 20.291015625
-0.85498046875 10.731689453125 -24.1357421875
-1.207763671875 -11.43505859375 29.68017578125
-0.370849609375 26.3544921875 -35.958984375
2.511962890625 -18.503662109375 15.56640625
-0.8359375 13.651611328125 37.16552734375
-0.999267578125 20.306396484375 13.2490234375
0.70751953125 -2.183349609375 -35.833251953125
0.19580078125 21.99267578125 36.7841796875
-1.201416015625 -11.2822265625 31.6171875
1.107666015625 -24.999755859375 29.8720703125
-1.38134765625 -10.097900390625 17.862060546875
-1.4833984375 -18.1796875 22.303466796875
-1.218994140625 -5.439697265625 32.252685546875
-0.81298828125 15.631103515625 -7.396240234375
-0.1796875 -2.47119140625 -33.611328125
26.412841796875 -8.121826171875 -43.006103515625
-0.336669921875 26.09765625 -20.295654296875
3.822998046875 -2.680908203125 -35.93798828125
-1.006103515625 13.750732421875 22.702880859375
2.4326171875 -23.013671875 23.603759765625
-0.5615234375 15.791259765625 -24.525390625
-1.11083984375 -0.804443359375 14.6318359375
-0.7802734375 21.7392578125 15.485595703125
-1.003662109375 3.58447265625 20.925537109375
-1.3427734375 -7.582763671875 3.65234375
-0.997314453125 7.57763671875 26.540771484375
-3.713623046875 29.02392578125 -40.228515625
-1.108154296875 8.15966796875 36.45751953125
-0.813720703125 21.998291015625 12.009033203125
-1.257080078125 2.416748046875 10.2607421875
-1.39306640625 -11.6259765625 11.302001953125
-1.23779296875 -19.59765625 19.138427734375
-1.192626953125 -2.086181640625 31.1943359375
-0.96728515625 7.29833984375 0.192626953125
-0.8212890625 17.948486328125 15.884765625
-1.3388671875 -6.205322265625 0.412109375
-0.468017578125 24.6328125 0.86279296875
-1.393798828125 -5.434326171875 17.450439453125
-0.862548828125 14.1669921875 29.01123046875
-1.139892578125 2.101318359375 16.90625
-0.81298828125 15.623046875 -13.29248046875
-0.825439453125 22.859375 4.9140625
-0.874755859375 21.269775390625 -7.894775390625
-0.930908203125 13.39892578125 12.720947265625
-0.901611328125 18.06591796875 8.31396484375
-0.867919921875 11.390625 39.2900390625
-0.80517578125 15.866455078125 9.584228515625
-1.3837890625 -12.501220703125 4.3056640625
-0.953369140625 6.5576171875 -16.616455078125
-1.16943359375 3.7666015625 13.213623046875
-1.668212890625 -14.796142578125 10.79541015625
1.176513671875 -22.1552734375 21.33203125
-1.148681640625 5.64111328125 1.401611328125
-1.40673828125 -13.225830078125 7.866455078125
3.431640625 32.8349609375 -22.158935546875
-1.150146484375 4.328857421875 18.877685546875
-0.894287109375 15.846923828125 38.205810546875
-1.220947265625 -7.97509765625 26.353271484375
5.190673828125 -26.413330078125 26.21142578125
9.598388671875 -22.827392578125 19.510986328125
4.401123046875 -29.14794921875 26.263671875
-0.8251953125 23.044921875 23.7412109375
-1.19580078125 4.238037109375 -2.310791015625
3.31103515625 9.275634765625 -32.568603515625
-1.32958984375 -13.2626953125 -1.619140625
0.684814453125 11.7666015625 -28.72900390625
6.42431640625 27.412109375 -25.77294921875
-1.00537109375 -0.376220703125 29.940673828125
0.93359375 28.197998046875 3.4189453125
-0.756103515625 28.4453125 -18.44091796875
-1.44189453125 -13.185791015625 21.679931640625
-0.919677734375 16.330078125 23.589111328125
-1.259521484375 3.570068359375 -8.636962890625
-0.958984375 16.37939453125 11.88232421875
-0.98388671875 9.292724609375 3.26708984375
-1.28759765625 -18.5126953125 16.0341796875
-1.2626953125 -6.59375 18.816650390625
-1.190673828125 -5.62744140625 9.999755859375
-0.9501953125 11.544189453125 -22.240966796875
-0.6689453125 22.388427734375 -13.51318359375
-0.82958984375 13.910400390625 -22.326171875
1.40625 27.457763671875 -23.017822265625
24.74267578125 -8.079833984375 -43.277587890625
4.862060546875 6.41064453125 -34.338623046875
-1.306640625 -7.5576171875 -15.413330078125
6.05078125 25.419189453125 -26.535888671875
13.029541015625 -1.827880859375 -37.073974609375
-1.172119140625 2.466552734375 -3.53369140625
-1.39306640625 -11.498046875 0.4423828125
-1.14306640625 3.236328125 32.537109375
-1.26416015625 -6.26171875 -19.332275390625
-1.125732421875 6.32568359375 -5.126953125
-1.444091796875 -3.147216796875 -1.70068359375
10.148193359375 -24.76708984375 21.386474609375
8.359130859375 29.65673828125 -25.120361328125
3.22900390625 26.87255859375 41.92822265625
-1.60986328125 -14.4375 28.639892578125
-1.364501953125 -12.103271484375 17.786865234375
-0.979736328125 21.039306640625 25.353759765625
-1.06640625 15.67041015625 6.154541015625
-0.794921875 21.2548828125 8.58642578125
6.25927734375 -23.40234375 22.4873046875
-1.104736328125 -3.86669921875 -25.867431640625
-0.93212890625 14.531005859375 -19.280029296875
-1.0400390625 6.31494140625 24.500732421875
-0.966796875 9.822509765625 -16.839599609375
1.6455078125 5.95556640625 -33.504638671875
-1.40087890625 -19.5654296875 25.793701171875
-1.113037109375 6.703857421875 -1.5185546875
-1.195068359375 -1.83837890625 -13.96337890625
-0.85009765625 13.29150390625 -16.02490234375
22.22802734375 -5.586181640625 -42.932861328125
-0.9150390625 21.423583984375 1.991455078125
-1.140625 9.617431640625 -2.3505859375
1.5986328125 -18.63916015625 10.99462890625
1.820068359375 -0.2568359375 -35.571533203125
-1.104248046875 -0.429443359375 -6.504150390625
8.313720703125 16.2939453125 -30.686279296875
-1.281005859375 4.140869140625 -15.93505859375
10.114990234375 6.81640625 -34.168212890625
-1.337158203125 -6.132568359375 -2.560546875
-1.072265625 2.9677734375 -5.761962890625
-1.5185546875 5.03125 35.373779296875
-1.144775390625 -1.6142578125 -8.358154296875
-0.797119140625 17.32666015625 -18.756591796875
4.045166015625 -25.512939453125 29.1064453125
0.07373046875 15.261962890625 -26.594482421875
21.421142578125 -2.5869140625 -35.80908203125
-1.00390625 12.448974609375 -1.77490234375
-1.3447265625 -7.660888671875 6.66650390625
-0.761962890625 12.282958984375 -25.41015625
4.19482421875 24.65478515625 -26.520263671875
-1.164794921875 -10.14404296875 28.536376953125
-1.2255859375 3.36376953125 34.377197265625
-0.905517578125 20.713134765625 31.261474609375
6.645263671875 9.12890625 -33.5703125
-1.08984375 2.5146484375 -16.890625
-0.825439453125 19.2197265625 39.5
0.22509765625 -16.90185546875 8.65185546875
0.079833984375 -7.156982421875 -23.34716796875
19.108642578125 -2.06494140625 -37.643798828125
15.75244140625 -3.388427734375 -35.27197265625
8.8076171875 27.45166015625 -26.0322265625
-21.1455078125 29.01123046875 30.60400390625
-0.955078125 8.950439453125 -18.86572265625
-1.28955078125 -16.331787109375 28.020751953125
-1.329345703125 -8.50244140625 12.446533203125
-17.878662109375 15.843994140625 24.192626953125
-1.123779296875 7.58935546875 -24.5322265625
-0.9169921875 12.53173828125 -10.577392578125
3.988525390625 15.145263671875 -30.287109375
-0.920166015625 17.3291015625 -20.928955078125
1.59716796875 10.084716796875 -31.007080078125
-1.208740234375 1.404541015625 -14.18115234375
-1.004638671875 3.784912109375 -11.237060546875
-0.8876953125 18.5078125 12.070068359375
3.95263671875 0.87353515625 -36.298095703125
-1.226806640625 7.0048828125 -10.83984375
-1.295654296875 -1.26708984375 21.86181640625
0.14794921875 5.72607421875 -30.598876953125
-0.767578125 15.74951171875 -18.17919921875
7.88330078125 -24.855224609375 23.02978515625
11.19091796875 28.19384765625 -26.0126953125
-1.179931640625 7.216552734375 3.841064453125
-5.696533203125 26.724853515625 -36.267333984375
-1.140869140625 8.408935546875 11.910888671875
-1.1943359375 1.798828125 -0.00244140625
-0.94970703125 11.56982421875 31.33544921875
-0.830810546875 16.409423828125 30.14892578125
4.504638671875 -26.190673828125 30.64208984375
-0.867919921875 21.544189453125 -0.06982421875
8.743408203125 20.373779296875 -29.013427734375
-0.213623046875 -8.845947265625 -18.6513671875
3.855224609375 -24.153564453125 25.464111328125
8.7265625 -0.08544921875 -37.478271484375
-0.739013671875 22.864501953125 -1.067626953125
6.739013671875 -2.14404296875 -37.38134765625
-1.267822265625 -0.337890625 -18.334716796875
0.185546875 24.441650390625 -22.56982421875
-1.364990234375 -4.48681640625 -6.087158203125
-0.985107421875 15.513427734375 -1.643310546875
-1.037353515625 8.967041015625 33.664794921875
-0.961181640625 5.18115234375 -26.64013671875
-1.174072265625 3.610107421875 25.768310546875
-1.3291015625 -9.838134765625 20.751953125
6.06298828125 -18.991943359375 19.9453125
-1.3544921875 -7.895263671875 0.030517578125
-1.16357421875 -8.888916015625 31.48681640625
-1.138427734375 16.02392578125 3.628662109375
7.689453125 -25.757080078125 20.568603515625
0.01611328125 1.966796875 -31.928466796875
-0.610595703125 19.0419921875 36.81298828125
-1.362548828125 -6.70849609375 -27.359375
-0.780029296875 21.765625 18.6416015625
-0.835205078125 -13.219970703125 -4.5205078125
-1.15087890625 0.48486328125 21.51611328125
-0.793701171875 -0.5673828125 -30.17626953125
2.4150390625 15.680419921875 -29.094970703125
2.88134765625 19.39013671875 -27.909912109375
-1.130126953125 2.336669921875 30.24365234375
-0.86279296875 24.082275390625 -12.534423828125
-0.92333984375 19.785888671875 -11.55322265625
-1.04296875 12.526611328125 -3.919677734375
1.962158203125 -3.035888671875 -35.431640625
13.792236328125 6.140380859375 -32.329345703125
-0.89111328125 19.525634765625 -8.266357421875
16.74951171875 -5.64208984375 -34.116943359375
-1.381103515625 -8.7646484375 9.61181640625
-1.2607421875 23.910400390625 7.15625
8.754638671875 -22.857421875 20.865234375
-3.4306640625 38.4716796875 -46.681396484375
-0.80224609375 24.690673828125 -7.9951171875
5.180908203125 -23.888916015625 23.822998046875
-1.290283203125 -9.974853515625 22.99365234375
-0.7958984375 24.776123046875 -17.99609375
-0.96044921875 24.23681640625 25.547607421875
-0.0927734375 -10.190673828125 -16.249755859375
18.254638671875 -1.747314453125 -35.915283203125
-1.071044921875 7.953125 -2.61767578125
8.1298828125 -21.6552734375 18.5517578125
2.970703125 7.76611328125 -32.71826171875
-1.182373046875 -20.6865234375 27.292724609375
0.253173828125 -22.112548828125 24.454345703125
-0.756591796875 -17.572021484375 11.2724609375
10.17919921875 -21.63818359375 17.5556640625
-1.298828125 1.172607421875 -16.03515625
-0.4853515625 9.636962890625 -27.10009765625
-1.315673828125 7.179443359375 34.80419921875
-1.063720703125 -11.30029296875 -11.461669921875
-1.340087890625 -6.339111328125 14.37890625
-1.0146484375 12.077392578125 -17.132080078125
0.424072265625 27.760498046875 -21.34130859375
-0.679931640625 20.806640625 -20.840576171875
1.38671875 25.72509765625 -23.3623046875
-5.114501953125 26.300048828125 -34.724609375
-1.143310546875 7.038818359375 -7.791015625
1.33740234375 2.921875 -33.0849609375
-3.058349609375 22.56884765625 24.8583984375
11.534912109375 -19.6669921875 16.336669921875
10.300048828125 -1.705810546875 -36.7275390625
-0.941650390625 19.602294921875 27.9072265625
-1.29296875 -9.953369140625 14.890625
-1.098876953125 12.1591796875 5.359619140625
-1.3720703125 -3.533447265625 19.7587890625
-0.98974609375 15.5478515625 26.33544921875
-1.099609375 8.32177734375 -14.7265625
-1.366943359375 -4.553466796875 -3.13671875
-0.96826171875 17.250732421875 -4.263671875
-1.0478515625 17.40234375 -2.560791015625
-1.10595703125 1.990478515625 -8.78369140625
-0.251220703125 21.862548828125 34.84326171875
-2.705078125 25.19970703125 5.004150390625
-0.872802734375 18.84228515625 -5.584228515625
13.228515625 -26.61376953125 19.19677734375
-1.362548828125 -3.214111328125 4.402587890625
9.19091796875 -18.4873046875 17.614501953125
-0.08056640625 -0.77783203125 -33.19189453125
-0.992919921875 10.284423828125 29.264404296875
2.239501953125 2.328369140625 -34.489501953125
1.129150390625 17.41650390625 -27.5302734375
-1.251708984375 1.307861328125 23.63427734375
-1.052978515625 17.477294921875 19.017822265625
27.979248046875 -8.122314453125 -41.262939453125
-0.975341796875 4.414794921875 22.26904296875
-0.819091796875 22.8193359375 -20.101806640625
-1.224365234375 -4.326904296875 33.278076171875
-0.727783203125 21.928955078125 -3.197265625
-1.062255859375 1.79638671875 27.739013671875
-1.448974609375 -13.279541015625 11.765380859375
-1.37255859375 -4.756103515625 5.84033203125
-18.910888671875 20.826171875 24.688720703125
2.989990234375 -21.02099609375 18.859130859375
12.884765625 -20.597412109375 16.83154296875
-0.066162109375 -23.014892578125 28.69189453125
-1.302734375 4.93212890625 29.508544921875
-1.502197265625 -14.8271484375 9.1884765625
-20.504150390625 27.912353515625 27.487060546875
-1.08984375 16.412353515625 22.088134765625
9.450439453125 23.9912109375 -27.28515625
7.52587890625 24.892822265625 -27.034912109375
18.0322265625 -25.60107421875 16.587646484375
19.6533203125 -5.384521484375 -34.571044921875
-1.13427734375 -7.99853515625 29.65576171875
-0.837158203125 23.841552734375 10.189208984375
-0.922607421875 -14.76171875 1.52783203125
4.752197265625 -25.884033203125 27.84130859375
-0.9580078125 26.3173828125 -7.845458984375
-0.9033203125 12.937255859375 -7.0029296875
17.170654296875 -7.724365234375 -34.989013671875
-1.304931640625 -11.261962890625 -5.3525390625
10.65576171875 -26.152099609375 21.6884765625
-0.796630859375 17.35693359375 -9.988037109375
8.59130859375 -20.486083984375 17.362548828125
-1.0146484375 18.4921875 6.64306640625
7.5703125 30.8994140625 -24.912841796875
-1.24755859375 -5.98828125 2.3359375
-1.218505859375 -1.388916015625 -1.942138671875
7.9912109375 6.2041015625 -34.753662109375
3.693603515625 18.094482421875 -28.9189453125
5.646240234375 20.611328125 -28.501708984375
-1.02197265625 14.469482421875 7.391845703125
-1.397216796875 -5.427734375 -9.091552734375
-20.239501953125 29.639892578125 28.647705078125
-0.04150390625 8.4013671875 -28.82861328125
0.019287109375 26.460693359375 2.170166015625
-1.103759765625 0.93115234375 -22.946044921875
-1.14111328125 1.03466796875 -24.969970703125
-0.85888671875 19.315185546875 4.120361328125
-0.960205078125 10.016845703125 -15.0869140625
0.530517578125 18.971923828125 -25.3984375
-19.75390625 25.68359375 25.780029296875
-1.1357421875 7.292236328125 10.94140625
1.620849609375 32.388671875 -22.370361328125
-1.23876953125 -6.693603515625 -20.732177734375
-1.339111328125 -2.5380859375 11.779052734375
1.22802734375 13.341064453125 -29.16650390625
-0.299072265625 12.720703125 -26.81494140625
0.105712890625 -7.661376953125 -21.914794921875
-1.125 8.865966796875 6.415283203125
-0.646240234375 -12.396728515625 -7.766357421875
-1.14111328125 7.124755859375 6.01806640625
5.474853515625 -1.2900390625 -37.781982421875
1.23828125 -20.23779296875 19.64697265625
0.68701171875 7.284423828125 -31.035400390625
7.899658203125 11.578369140625 -32.612060546875
-0.98876953125 15.285400390625 -21.06005859375
2.2109375 29.2470703125 2.9658203125
-1.461669921875 -8.567626953125 -7.225341796875
1.370361328125 0.557861328125 -34.4541015625
0.31982421875 21.583251953125 41.90625
10.929931640625 32.3876953125 -23.711669921875
-0.963623046875 16.13330078125 -5.19140625
-0.846435546875 8.171630859375 31.609130859375
-0.930908203125 10.834228515625 34.24658203125
-1.3984375 -10.329345703125 -9.2451171875
23.062744140625 -2.34033203125 -35.835205078125
-3.397216796875 26.534423828125 -38.215087890625
-1.16259765625 0.37939453125 -21.61181640625
-0.9208984375 17.34912109375 -15.13525390625
15.365478515625 -1.8466796875 -37.34912109375
21.765625 -4.302734375 -35.408935546875
-0.694580078125 22.861572265625 -14.998779296875
-0.87109375 20.333984375 18.767333984375
-1.328857421875 -8.2490234375 -11.998779296875
-1.34716796875 -6.6416015625 26.888671875
11.580322265625 -24.220947265625 17.753662109375
-18.51953125 29.86865234375 27.828857421875
-1.241943359375 6.7890625 37.5
-1.064208984375 -16.664306640625 7.870361328125
-1.1845703125 4.572265625 4.338134765625
-0.841552734375 -9.4130859375 -17.454833984375
19.397216796875 -3.61572265625 -34.86865234375
-0.917236328125 20.064453125 -0.791748046875
-1.57763671875 -19.68359375 20.53857421875
-0.145751953125 26.674560546875 -3.49609375
12.006103515625 -21.91455078125 19.31689453125
-0.891845703125 -2.266357421875 -30.602294921875
-1.02880859375 15.61181640625 17.698486328125
-1.07275390625 14.126708984375 -4.502197265625
-1.113525390625 10.5419921875 22.39404296875
-1.101806640625 9.5322265625 -0.20166015625
5.220947265625 -28.565185546875 29.281982421875
1.50341796875 -17.523681640625 8.7939453125
-1.326416015625 -2.12890625 1.47998046875
12.226806640625 7.496337890625 -32.781494140625
22.606201171875 -7.560546875 -42.224853515625
-1.296142578125 -6.111572265625 -6.34619140625
-0.893798828125 15.8369140625 31.65380859375
-3.1103515625 27.692626953125 -40.625
11.354736328125 -1.524169921875 -37.66748046875
-0.918212890625 17.74560546875 36.3095703125
-0.28515625 -5.699951171875 -29.918212890625
-1.220458984375 -3.863525390625 -7.351806640625
2.868408203125 -24.06494140625 24.450927734375
-1.2255859375 3.353271484375 2.421630859375
-0.827880859375 17.82470703125 39.7421875
13.783447265625 -23.38525390625 18.200927734375
-1.1142578125 3.009521484375 -18.3466796875
11.0869140625 24.98583984375 -27.0185546875
-1.236083984375 -1.958984375 6.43701171875
-1.23583984375 -1.781005859375 -23.451171875
-0.96875 12.301025390625 28.44140625
-1.079833984375 5.161865234375 13.0859375
-0.671142578125 6.568603515625 -27.3837890625
