-4.329345703125 6.01171875 -3.06005859375
-3.91455078125 7.26123046875 -23.464599609375
-3.927001953125 10.89990234375 -11.312744140625
13.032470703125 16.764404296875 -34.901611328125
-3.641357421875 25.328857421875 -8.545654296875
-0.557861328125 28.13818359375 -37.52685546875
-11.3544921875 28.4599609375 19.130859375
3.58642578125 33.515380859375 -24.541748046875
2.851318359375 -22.32861328125 23.07080078125
-4.62060546875 -17.662109375 20.7109375
7.415771484375 8.436279296875 -33.27783203125
-2.580078125 -20.10107421875 4.467041015625
-11.68115234375 23.657470703125 15.875244140625
4.71240234375 -0.891357421875 -37.549560546875
-19.860107421875 26.138671875 23.314208984375
-4.521484375 -9.119140625 4.57958984375
0.861328125 -23.330810546875 29.345458984375
-5.397216796875 -2.238525390625 22.185302734375
7.9013671875 22.57568359375 -34.46826171875
-1.88525390625 29.951416015625 -20.150146484375
-2.85791015625 18.46533203125 -25.179931640625
-2.7255859375 5.641845703125 -31.643798828125
15.81689453125 2.884033203125 -36.2470703125
-16.126953125 20.633056640625 16.1884765625
-4.4580078125 -4.226806640625 1.116455078125
9.857666015625 -17.257568359375 20.31201171875
-4.145263671875 -1.433349609375 -23.7197265625
18.3798828125 4.816162109375 -27.28369140625
-4.32080078125 -1.226806640625 -31.689208984375
-4.763671875 5.8212890625 14.675537109375
2.156982421875 15.9951171875 -31.04931640625
-4.78515625 -9.94580078125 15.04150390625
-5.604736328125 -20.389404296875 25.064208984375
-3.971923828125 9.5546875 10.5791015625
-4.9501953125 13.101806640625 22.6455078125
12.3486328125 -24.09912109375 12.849365234375
-1.463134765625 23.2705078125 -25.046142578125
-3.100341796875 -10.6982421875 -20.065185546875
-4.529541015625 -16.808837890625 10.661865234375
-4.74658203125 2.265380859375 -14.599853515625
-3.88232421875 2.8818359375 -21.0068359375
-3.7236328125 22.32421875 -15.606689453125
-4.468017578125 23.14990234375 10.47509765625
-4.176025390625 14.1806640625 12.543701171875
10.136962890625 1.943603515625 -35.395751953125
-4.0703125 3.092041015625 4.868896484375
-4.099365234375 -16.255859375 0.982421875
1.5009765625 -26.66748046875 24.946533203125
6.052001953125 18.785400390625 -30.25439453125
-4.172607421875 21.04833984375 0.64013671875
-5.233642578125 -8.525390625 23.284912109375
2.427734375 8.285888671875 -33.361083984375
-4.546142578125 -19.9619140625 15.016845703125
-3.56103515625 8.88232421875 -27.977294921875
-4.173095703125 15.5146484375 17.1572265625
-4.301025390625 1.84619140625 -5.555419921875
-4.730224609375 -11.9970703125 19.3984375
-16.950927734375 29.592041015625 21.72412109375
5.880615234375 29.355712890625 -31.64794921875
-5.709716796875 23.85595703125 -38.171875
-4.0517578125 15.032470703125 -8.97412109375
-2.474853515625 14.490234375 -27.73486328125
7.4892578125 -26.91943359375 18.697509765625
8.384765625 33.725341796875 -23.48779296875
1.917724609375 27.32275390625 -42.379150390625
-8.13232421875 20.59375 19.812255859375
-4.4345703125 11.81884765625 -0.529296875
-2.792236328125 29.7255859375 -46.52001953125
10.953857421875 12.828857421875 -33.96728515625
-2.82666015625 25.72265625 -21.494140625
-4.0380859375 17.444580078125 4.983154296875
-2.654052734375 -12.7333984375 -14.374755859375
-19.2041015625 21.854736328125 19.161865234375
14.24658203125 7.325927734375 -35.2021484375
-4.108154296875 11.010009765625 -19.55810546875
9.94580078125 17.36767578125 -31.794921875
15.416015625 -0.430908203125 -39.080810546875
-7.53955078125 24.930419921875 7.12109375
-3.653564453125 17.0439453125 -20.917724609375
-4.206787109375 -5.454833984375 -18.756591796875
-4.697998046875 -2.495849609375 17.3974609375
5.075927734375 29.36474609375 -25.5771484375
-4.48681640625 -12.397216796875 11.517333984375
2.955322265625 30.924072265625 -21.173828125
-14.787841796875 15.418701171875 16.30322265625
-4.300537109375 -4.363525390625 -14.634033203125
-4.127685546875 20.20068359375 18.066650390625
-4.619873046875 -5.67138671875 13.960205078125
14.598876953125 -0.172607421875 -33.68310546875
-0.005859375 -20.322509765625 10.71337890625
-4.052734375 -2.531494140625 -27.770751953125
-4.27294921875 7.637451171875 6.78466796875
-4.1328125 12.1953125 3.802490234375
-3.42919921875 18.12744140625 9.792724609375
19.95263671875 -0.082763671875 -38.755126953125
-0.91552734375 -15.885498046875 -7.311767578125
8.7373046875 27.44970703125 -28.7880859375
-4.71337890625 -12.32958984375 1.60205078125
-4.597412109375 -11.031494140625 -4.7109375
-5.6533203125 24.308349609375 2.697265625
18.354736328125 -22.282470703125 15.42041015625
1.4677734375 0.876953125 -36.01416015625
2.740234375 12.354736328125 -32.64208984375
-5.428955078125 27.484130859375 -40.0751953125
-4.5302734375 -10.349853515625 -11.27490234375
-3.891845703125 18.370849609375 -15.573486328125
11.45751953125 -22.5263671875 17.3447265625
-12.54833984375 20.022705078125 14.6591796875
-4.3388671875 24.17431640625 -12.206787109375
-3.859130859375 21.532958984375 -7.214111328125
-4.3525390625 1.15869140625 -9.711669921875
-4.360107421875 8.131103515625 -6.6005859375
12.397705078125 -15.477783203125 17.603271484375
-4.385498046875 6.124755859375 18.505615234375
7.53662109375 5.028564453125 -35.15234375
-3.92431640625 6.23388671875 -13.362060546875
-4.599853515625 -4.052490234375 10.151123046875
1.7265625 24.6376953125 -26.6630859375
-0.006591796875 33.1064453125 -22.1982421875
-7.092041015625 22.963623046875 13.23193359375
-4.43408203125 0.234130859375 9.059326171875
-4.366943359375 -6.552001953125 -11.294921875
-4.73193359375 2.0263671875 14.88916015625
-3.98046875 10.16943359375 -15.447998046875
-1.507080078125 -24.23046875 25.19580078125
-2.423583984375 -5.997314453125 -26.598876953125
-4.385498046875 -6.6015625 -4.38671875
-5.563720703125 -16.713134765625 24.26318359375
19.295654296875 3.957763671875 -37.126708984375
-4.127197265625 5.09619140625 0.563232421875
1.071044921875 4.896728515625 -32.296875
8.2919921875 -0.80810546875 -38.653564453125
0.867919921875 -19.089111328125 3.7041015625
-4.589111328125 -11.349365234375 8.002197265625
-3.84423828125 -18.887939453125 7.7177734375
7.596923828125 -18.90576171875 22.67626953125
10.67822265625 6.82177734375 -33.582275390625
-4.193115234375 14.900634765625 -2.779296875
-2.59716796875 25.212158203125 -36.797607421875
-0.327392578125 -21.33642578125 21.11328125
-3.60400390625 -20.928466796875 19.43017578125
4.23486328125 21.6025390625 -28.82568359375
-0.244140625 -16.567626953125 -3.83837890625
-4.1552734375 16.005126953125 -12.434326171875
8.674560546875 24.20166015625 -31.35595703125
22.40087890625 6.03125 -36.75537109375
-4.54931640625 -6.163330078125 6.592041015625
4.343017578125 -24.424560546875 20.1708984375
-3.15673828125 2.076416015625 -32.300537109375
-4.392333984375 11.30322265625 19.63330078125
17.853759765625 -25.009033203125 17.62646484375
-3.434326171875 24.83642578125 -18.0380859375
6.98681640625 27.7470703125 -35.610595703125
8.052734375 22.608154296875 -37.9462890625
-0.4609375 17.243408203125 -29.1279296875
2.30078125 26.53466796875 -36.37255859375
-8.9541015625 17.395751953125 20.85888671875
-2.6826171875 -3.130859375 -34.068115234375
-4.48583984375 -1.249755859375 3.115234375
10.323974609375 -13.708984375 20.450927734375
7.72314453125 19.143798828125 -34.76806640625
14.831787109375 9.3935546875 -38.098876953125
14.919189453125 5.3818359375 -26.32373046875
-4.318603515625 -4.39794921875 -7.76025390625
-4.100830078125 20.494140625 -2.768310546875
-14.4921875 29.742919921875 19.43701171875
-4.134765625 -0.904296875 -13.572998046875
-4.541015625 -0.0380859375 -2.806396484375
-6.0634765625 -5.436279296875 21.980712890625
-4.01318359375 5.59033203125 -26.7138671875
7.381591796875 22.675048828125 -28.7822265625
-19.05810546875 29.156494140625 24.21484375
-13.242919921875 26.295166015625 17.64501953125
-8.81201171875 22.39404296875 16.66845703125
1.263427734375 -25.013916015625 22.192626953125
-3.91943359375 10.2744140625 -24.6435546875
-4.19384765625 3.719970703125 -17.82568359375
-4.013427734375 9.48046875 -3.125244140625
-4.805908203125 -23.56103515625 25.605712890625
-4.01416015625 -13.56103515625 -6.5966796875
15.587890625 -23.568359375 14.189697265625
-4.477294921875 -7.388916015625 1.56005859375
-4.006103515625 6.111083984375 -20.339599609375
-4.502197265625 -15.17138671875 18.729248046875
12.354248046875 12.726318359375 -37.05126953125
5.775146484375 11.59619140625 -33.391845703125
0.6083984375 -13.609375 -9.28369140625
-4.380126953125 -3.282958984375 -21.0458984375
-4.371826171875 -1.20947265625 -7.6337890625
-4.379638671875 4.93994140625 -6.14111328125
1.75439453125 -1.41455078125 -38.49609375
-0.562744140625 8.030517578125 -32.409423828125
-2.2412109375 28.65478515625 -31.47021484375
-10.1435546875 26.09033203125 17.1484375
13.15380859375 1.5322265625 -37.212646484375
13.58154296875 4.330078125 -34.543701171875
-14.764404296875 23.8662109375 16.3720703125
-2.35302734375 -17.075927734375 -1.591064453125
10.803955078125 -20.029541015625 19.2314453125
17.84423828125 4.38037109375 -24.242919921875
2.432373046875 28.284423828125 -39.182861328125
-4.447021484375 -12.59130859375 -1.471923828125
-4.44921875 -17.991455078125 17.39697265625
-4.221923828125 1.592529296875 -24.3232421875
-4.359619140625 1.80078125 11.836669921875
-4.1787109375 18.36669921875 -8.256103515625
-4.318115234375 8.744384765625 13.83154296875
9.9140625 9.956298828125 -34.17626953125
-5.7548828125 0.7919921875 21.97314453125
-16.513671875 32.4052734375 22.825927734375
-4.397705078125 15.31103515625 20.193359375
0.73095703125 32.02490234375 -18.891845703125
-3.610595703125 27.89306640625 -18.7734375
10.046142578125 -24.810302734375 18.86962890625
-5.23681640625 4.861328125 21.093505859375
9.78662109375 17.1513671875 -35.642333984375
17.07958984375 5.897705078125 -35.8076171875
-4.432861328125 -0.13134765625 -20.953369140625
-4.327392578125 10.931640625 6.95068359375
-4.021728515625 -17.419677734375 3.720458984375
-3.947509765625 10.86669921875 -8.18310546875
-0.32421875 14.459228515625 -30.157958984375
-3.196533203125 20.7509765625 -23.283447265625
-4.265380859375 8.125 -10.31884765625
-1.0087890625 27.813232421875 -40.43408203125
-2.332763671875 11.720947265625 -28.766845703125
2.754638671875 -26.010986328125 28.53173828125
-18.994140625 25.65234375 20.539794921875
5.196533203125 6.738525390625 -34.642578125
-4.433349609375 -5.664306640625 -1.44921875
8.027587890625 29.789306640625 -25.37353515625
-4.190673828125 -4.2919921875 -24.994140625
-2.6845703125 -10.994873046875 -16.732666015625
-4.591064453125 20.464111328125 8.469482421875
6.067138671875 1.268310546875 -36.11962890625
-4.08349609375 8.807861328125 -0.282470703125
-4.06005859375 22.810302734375 13.346923828125
-3.89306640625 14.361572265625 -19.79150390625
-4.193359375 19.834228515625 3.3193359375
0.890380859375 30.267333984375 -28.766357421875
-4.2705078125 14.832763671875 -6.079833984375
-4.9833984375 24.871826171875 -15.000244140625
-4.214111328125 0.47119140625 6.115966796875
5.603271484375 -21.829833984375 21.994384765625
-4.58642578125 -9.377685546875 18.158203125
-4.5205078125 2.778076171875 -2.143310546875
1.65478515625 -29.037841796875 26.596923828125
2.83056640625 30.305419921875 -24.017578125
-4.87255859375 -14.994384765625 21.783203125
-1.3974609375 20.847900390625 -26.609130859375
-4.317138671875 6.724853515625 11.5625
-4.054443359375 12.55908203125 -13.8466796875
2.935791015625 18.907470703125 -29.806396484375
7.481201171875 -14.84912109375 21.1826171875
-4.566162109375 -20.10546875 22.21923828125
-4.357421875 -11.41259765625 -8.45654296875
-3.82275390625 19.017333984375 -18.360595703125
-4.630126953125 -11.517578125 22.4013671875
-3.534423828125 -7.898193359375 -20.457763671875
-4.681640625 -14.466796875 9.031005859375
-4.38916015625 -2.378173828125 -1.177001953125
-3.6083984375 16.027587890625 -23.78125
-17.959716796875 28.7734375 27.142822265625
-4.278076171875 27.9033203125 -44.9072265625
-4.377685546875 -19.15087890625 12.292724609375
-5.026611328125 23.644775390625 -0.271240234375
-5.11962890625 21.364501953125 15.671630859375
-4.43017578125 -4.842041015625 4.08203125
-1.707763671875 -18.255126953125 2.304931640625
11.668212890625 15.47412109375 -37.142578125
-4.800048828125 -0.59912109375 19.54638671875
22.433349609375 -0.408447265625 -37.430908203125
5.925537109375 31.824951171875 -24.477783203125
-1.911376953125 -20.95166015625 15.123291015625
-4.9189453125 -3.918212890625 19.82470703125
-4.248779296875 0.2705078125 -29.17822265625
-0.27734375 27.048583984375 -44.300537109375
4.947509765625 16.28369140625 -30.986572265625
13.191162109375 -26.02734375 14.704833984375
0.731201171875 29.231201171875 -21.920166015625
-3.87109375 3.575927734375 -29.874755859375
-4.17138671875 17.790771484375 -2.108642578125
-4.44091796875 -9.194091796875 -18.14501953125
-1.076904296875 -13.955322265625 -11.610107421875
-4.929931640625 24.28369140625 -6.331298828125
-6.98974609375 24.125732421875 9.895263671875
-4.15234375 16.748779296875 14.427001953125
-16.859130859375 14.2197265625 14.392333984375
7.00146484375 27.303955078125 -26.01025390625
-4.2841796875 2.99072265625 -11.981201171875
-17.258544921875 22.907958984375 17.530517578125
3.59130859375 26.577392578125 -26.123779296875
-4.614990234375 -11.859619140625 4.493408203125
-14.8291015625 18.04638671875 15.52734375
1.0693359375 -24.567138671875 26.90966796875
-3.83984375 4.5654296875 -23.937255859375
-10.3896484375 20.3349609375 17.5341796875
-4.6318359375 -12.3095703125 16.687255859375
20.08740234375 7.71484375 -36.80810546875
-18.207275390625 19.05126953125 15.423095703125
2.309814453125 29.25146484375 -36.495849609375
8.265380859375 -19.869384765625 20.1923828125
-2.45849609375 9.1962890625 -30.536376953125
0.985107421875 -27.79736328125 22.53955078125
-3.803466796875 15.124755859375 10.033447265625
-4.046142578125 11.638427734375 13.462646484375
8.70361328125 19.04736328125 -29.73486328125
-4.084716796875 9.531005859375 -22.0283203125
-4.53515625 13.7509765625 1.545166015625
-4.389404296875 2.77490234375 7.677734375
-2.60791015625 -22.249755859375 12.50390625
0.280517578125 -22.777587890625 23.667724609375
-4.03759765625 22.55029296875 -10.109619140625
-3.818115234375 -4.05615234375 -31.84228515625
1.9677734375 3.555908203125 -34.4873046875
-3.5361328125 -9.770263671875 -22.506591796875
-5.234375 15.776123046875 22.979736328125
-4.03662109375 15.038330078125 3.888427734375
8.4892578125 29.0029296875 -31.435546875
-4.173095703125 5.724365234375 4.69091796875
-7.40478515625 24.7822265625 15.11572265625
8.325439453125 12.23583984375 -33.394775390625
-4.221435546875 -0.317626953125 -26.364013671875
0.9111328125 10.499267578125 -33.14892578125
-1.662109375 -20.04248046875 8.60791015625
-4.201416015625 11.99462890625 9.526123046875
10.67333984375 0.88330078125 -37.76025390625
3.59228515625 29.644287109375 -30.404296875
8.62451171875 20.638916015625 -32.814208984375
-4.097900390625 17.5361328125 18.849609375
-4.689697265625 -7.545166015625 16.29443359375
-4.629638671875 -14.991455078125 12.752197265625
18.254150390625 1.607666015625 -37.7119140625
-4.467529296875 -8.446533203125 12.775634765625
-3.3037109375 27.125244140625 -38.43115234375
-2.484619140625 23.0615234375 -22.312255859375
4.73974609375 28.18603515625 -33.67626953125
-0.309326171875 25.91162109375 -35.79443359375
-4.727783203125 0.102783203125 16.62548828125
-4.415283203125 8.7529296875 17.729248046875
-3.2705078125 12.605712890625 -26.156982421875
-16.161376953125 27.567626953125 20.159912109375
-1.030517578125 27.367431640625 -22.35205078125
-6.279541015625 23.75537109375 5.13134765625
9.6416015625 14.89306640625 -32.432373046875
-3.62060546875 20.5234375 -13.776123046875
-4.659423828125 3.981201171875 16.5537109375
-1.569091796875 -23.8408203125 28.694580078125
-4.618896484375 -2.098876953125 -15.7880859375
-1.748046875 -0.1943359375 -32.62890625
-10.3583984375 21.558837890625 14.807373046875
-4.146484375 -4.8544921875 -28.845947265625
-4.323486328125 -8.55322265625 7.629638671875
-5.627197265625 23.042236328125 8.031494140625
-4.4677734375 -6.304931640625 -16.269775390625
-0.233642578125 25.696044921875 -25.4482421875
-4.2236328125 14.012939453125 15.071533203125
-1.049072265625 3.482421875 -32.298828125
12.10302734375 -10.344482421875 21.070068359375
-3.984619140625 12.046142578125 -17.135498046875
-4.0283203125 13.51904296875 -11.515625
-4.63427734375 -9.595947265625 20.66845703125
-3.892578125 16.359130859375 -17.68994140625
6.7685546875 -25.05859375 20.22607421875
-12.629638671875 14.861083984375 17.447021484375
-3.512451171875 6.060302734375 -29.12255859375
-4.085205078125 17.28515625 7.481689453125
-4.29345703125 8.70556640625 -13.236083984375
-4.320556640625 3.022705078125 2.01318359375
-5.75439453125 10.7958984375 22.111328125
-3.959228515625 20.811767578125 11.1943359375
12.095703125 -22.444580078125 14.698486328125
-4.18798828125 4.205322265625 12.476318359375
-3.971923828125 1.363525390625 -16.7919921875
-4.281982421875 10.637939453125 1.6572265625
4.439697265625 9.503173828125 -34.165283203125
-3.9970703125 21.702880859375 -17.99169921875
12.240966796875 -15.252685546875 20.214111328125
-5.884765625 26.5048828125 -37.852294921875
-5.839111328125 -25.730712890625 26.16064453125
7.5087890625 16.939453125 -30.982666015625
-4.451416015625 3.023193359375 -7.702392578125
-4.44287109375 -15.221435546875 -1.415771484375
11.777587890625 -17.904296875 18.518310546875
-4.39208984375 -14.613037109375 2.76220703125
-4.178466796875 18.677978515625 15.96923828125
12.830078125 -0.505859375 -38.8876953125
-0.02587890625 22.80224609375 -27.076416015625
-3.931640625 22.44140625 -4.9619140625
-7.04248046875 20.964111328125 17.6728515625
-4.15576171875 17.471435546875 12.10986328125
-5.573486328125 20.1162109375 20.008544921875
-4.747314453125 -17.4677734375 14.722412109375
3.601318359375 1.6279296875 -36.874755859375
-2.084716796875 17.525146484375 -27.356201171875
-4.097900390625 -10.9384765625 -13.643798828125
-3.491943359375 -12.953125 -12.1220703125
-13.52001953125 21.828369140625 15.9228515625
-4.244873046875 18.6904296875 0.162109375
-3.77978515625 -21.3408203125 17.06787109375
8.13232421875 25.004150390625 -27.82421875
-4.104736328125 8.334716796875 -19.46728515625
10.16796875 14.8134765625 -35.04345703125
-4.4482421875 -9.927734375 2.33349609375
11.889404296875 8.37939453125 -35.553466796875
-4.519287109375 -5.1708984375 16.943359375
-7.117431640625 18.348876953125 22.405029296875
2.31396484375 5.911376953125 -34.4287109375
-4.872314453125 -2.964111328125 15.015869140625
-4.068359375 12.815185546875 17.3173828125
16.198486328125 -1.74853515625 -37.16162109375
-4.419921875 7.368896484375 9.138427734375
15.412109375 7.241943359375 -37.263916015625
20.583740234375 -1.44677734375 -36.37939453125
-4.0146484375 7.883056640625 -25.7421875
8.45166015625 29.92529296875 -29.267333984375
8.774169921875 26.535400390625 -30.955078125
-4.10595703125 17.475341796875 -10.484619140625
7.867919921875 -16.574951171875 22.72705078125
-4.529052734375 -1.762451171875 10.647705078125
-2.194091796875 -15.90625 -5.348388671875
-4.27734375 9.55224609375 5.057373046875
9.58935546875 -22.418701171875 18.9150390625
-18.204833984375 31.461181640625 24.1279296875
-4.285888671875 -8.79638671875 -5.299072265625
4.626220703125 13.68505859375 -32.312255859375
-0.208984375 -0.709228515625 -35.7138671875
-4.265625 4.55810546875 -15.656005859375
-3.4228515625 31.563232421875 -48.689697265625
-4.597900390625 22.24462890625 2.7353515625
-4.67822265625 -16.737548828125 7.947021484375
-14.827392578125 31.589111328125 21.347412109375
9.22412109375 25.29248046875 -33.504150390625
-4.584228515625 -12.086669921875 14.200439453125
2.47509765625 32.508544921875 -22.80029296875
-3.60888671875 18.374755859375 -22.790771484375
4.422607421875 -26.61572265625 19.18017578125
-4.492919921875 5.41259765625 7.504150390625
-3.46240234375 23.83984375 -20.35498046875
7.413818359375 20.744873046875 -36.803955078125
-4.3994140625 -6.20556640625 9.3212890625
2.149658203125 22.4208984375 -28.43408203125
-2.023193359375 25.251220703125 -24.090576171875
12.273681640625 -24.319580078125 15.9541015625
7.31591796875 28.878662109375 -33.679931640625
-4.341552734375 -8.32763671875 -12.695068359375
-4.446533203125 -6.41552734375 11.79638671875
-4.5869140625 -22.12890625 23.19287109375
-4.66259765625 -7.38818359375 21.053466796875
13.8701171875 -2.345703125 -38.15234375
-4.123291015625 12.7197265625 -9.42431640625
12.78271484375 -20.056884765625 17.794189453125
-4.153076171875 9.6767578125 -17.687744140625
-4.085693359375 -19.281982421875 9.89794921875
-4.513671875 0.9501953125 3.462158203125
10.346435546875 2.41015625 -33.228271484375
-3.86865234375 12.515380859375 -21.17919921875
16.841064453125 6.213134765625 -25.578125
-4.560302734375 -1.63134765625 0.933837890625
-4.3466796875 -4.564697265625 -12.265625
6.323486328125 20.78271484375 -29.2177734375
1.443115234375 13.380615234375 -30.907470703125
-4.481689453125 1.177001953125 -19.192138671875
-4.236083984375 6.37353515625 -7.90771484375
-4.41748046875 -6.42822265625 -13.788330078125
-3.912841796875 16.34228515625 -14.5869140625
-4.239501953125 12.714599609375 -2.518798828125
-4.09130859375 17.51220703125 2.3623046875
-4.425048828125 3.590576171875 -4.24365234375
-16.29052734375 16.320556640625 14.6240234375
-4.05859375 20.502685546875 -9.117919921875
-4.331787109375 -4.572509765625 -22.793212890625
6.059814453125 3.41259765625 -35.8564453125
-4.2333984375 -3.31640625 -18.45947265625
-4.37548828125 -4.130615234375 12.296875
-18.465576171875 20.7841796875 16.67822265625
-3.14013671875 27.83349609375 -41.009033203125
-4.523681640625 -10.677734375 -2.57080078125
-4.570556640625 -10.894287109375 -0.1591796875
-4.257080078125 0.816162109375 -12.2939453125
-1.523193359375 -19.72607421875 6.2978515625
-4.196044921875 -6.106689453125 -9.051025390625
-4.356201171875 -2.51611328125 8.49267578125
-9.856689453125 18.146240234375 19.00927734375
-1.166259765625 -14.777587890625 -9.556396484375
-3.740478515625 18.396484375 -12.913818359375
4.910888671875 27.859619140625 -36.08447265625
0.687744140625 0.154296875 -33.98486328125
-4.398193359375 5.780517578125 2.562255859375
9.59033203125 -26.76318359375 18.1552734375
17.484130859375 -0.60302734375 -38.620361328125
-14.08154296875 19.8466796875 16.44091796875
-14.517822265625 27.837890625 18.50341796875
13.26806640625 -21.064453125 15.800537109375
-4.3603515625 -17.88916015625 5.7568359375
-3.767333984375 21.82861328125 -12.0810546875
-4.392578125 -10.41455078125 9.939697265625
-4.304443359375 -6.940185546875 3.866455078125
9.227294921875 21.873291015625 -31.2099609375
-4.039794921875 19.864501953125 6.083740234375
-4.634033203125 14.977294921875 5.91357421875
-2.510986328125 -21.579345703125 21.51318359375
-3.1259765625 15.997314453125 -25.8330078125
-18.0107421875 23.83544921875 19.264892578125
1.279052734375 8.855224609375 -31.695068359375
10.353759765625 19.94580078125 -31.03271484375
12.586669921875 5.958984375 -33.52587890625
-12.89599609375 31.991455078125 19.3369140625
-4.656982421875 -4.848876953125 -5.74365234375
15.34228515625 1.27734375 -37.8740234375
2.836669921875 28.39013671875 -25.412353515625
-10.9609375 24.51025390625 11.6396484375
6.26904296875 33.826416015625 -23.9970703125
-4.9150390625 -18.29638671875 25.457275390625
-4.589599609375 -14.023681640625 0.2841796875
-1.55126953125 -21.26220703125 19.287109375
-3.80517578125 20.272705078125 -5.164794921875
13.3740234375 11.573974609375 -38.45361328125
-4.04736328125 13.13720703125 -7.26708984375
-4.6396484375 -0.5478515625 -5.678466796875
-4.515869140625 7.83251953125 15.865234375
-9.001953125 23.633544921875 11.749267578125
-3.420654296875 -23.952392578125 24.10595703125
1.9951171875 -24.6396484375 30.492431640625
-4.126220703125 -2.898193359375 -29.810546875
-5.75732421875 24.1787109375 11.730712890625
-4.0263671875 8.02392578125 -15.174072265625
-9.370361328125 24.076416015625 15.596435546875
-18.298583984375 28.212646484375 22.45849609375
0.9326171875 -24.364013671875 24.861572265625
-2.08935546875 27.82568359375 -44.90234375
-4.503173828125 -10.21044921875 -6.78076171875
3.440185546875 23.947265625 -27.937255859375
-4.09033203125 14.275146484375 -0.392822265625
-3.022705078125 27.93505859375 -20.737060546875
-3.875244140625 19.07958984375 -20.8681640625
20.83642578125 2.219482421875 -37.7265625
-0.818359375 19.375732421875 -27.944580078125
-2.097900390625 -20.596923828125 10.528076171875
-4.51953125 -4.286865234375 -16.6650390625
-2.80517578125 -15.000732421875 -7.396240234375
-4.03369140625 3.6103515625 -25.741455078125
-4.5400390625 8.990966796875 19.7275390625
8.757568359375 6.53125 -34.11572265625
-0.70947265625 5.83642578125 -32.2353515625
-4.3525390625 6.326171875 -1.01513671875
9.180419921875 -1.553955078125 -37.01171875
10.35595703125 13.14501953125 -36.148681640625
-4.80322265625 -3.98876953125 -2.940673828125
-4.044677734375 13.608154296875 -4.503662109375
-3.70166015625 6.179443359375 -11.2998046875
-4.5537109375 7.237060546875 -4.63037109375
-4.703369140625 -0.20166015625 14.515869140625
-3.932861328125 -20.87353515625 13.19775390625
7.865966796875 32.872314453125 -26.1240234375
-4.445556640625 3.170654296875 0.031005859375
-4.147216796875 16.25439453125 -4.697021484375
15.217041015625 5.206298828125 -35.83056640625
-4.3515625 -12.895751953125 -4.071044921875
-3.7724609375 20.491943359375 -16.435302734375
8.4638671875 10.27197265625 -32.858642578125
-4.50244140625 -4.385986328125 7.4736328125
-4.199462890625 9.60302734375 8.41845703125
-0.04931640625 27.0400390625 -42.329833984375
9.20458984375 18.128662109375 -33.93115234375
21.39013671875 3.79345703125 -36.658203125
-4.13916015625 9.615966796875 -5.097412109375
-3.861572265625 4.8701171875 -21.980712890625
1.6572265625 6.900146484375 -32.1748046875
8.518798828125 28.680419921875 -27.25244140625
-3.701904296875 15.23974609375 -21.727294921875
-4.184326171875 -5.73583984375 -20.71044921875
-3.973388671875 -6.251953125 -25.036865234375
12.2080078125 -13.8173828125 18.867431640625
-4.399169921875 0.9677734375 -7.31103515625
-1.75634765625 12.940673828125 -30.1953125
-1.391357421875 -22.874267578125 22.640869140625
2.943115234375 10.70166015625 -33.745849609375
-2.225830078125 -17.26025390625 0.358642578125
-4.6357421875 -13.10302734375 7.123779296875
1.277099609375 -21.203857421875 22.75048828125
-3.91748046875 0.7060546875 -31.125
8.968994140625 23.63525390625 -29.50439453125
12.3955078125 6.764892578125 -30.947021484375
-4.5146484375 -10.21875 11.88037109375
2.21630859375 2.8984375 -36.34228515625
-4.31640625 -10.847900390625 -15.669189453125
-4.402099609375 22.63232421875 -2.0908203125
-4.536376953125 2.497802734375 10.02685546875
1.121826171875 33.088623046875 -20.612060546875
1.486328125 17.367919921875 -29.8447265625
-4.44482421875 13.0751953125 20.42724609375
-4.16845703125 -4.573974609375 -26.924072265625
10.4951171875 -0.939453125 -38.636962890625
6.238037109375 -1.11669921875 -38.728271484375
19.39404296875 5.73095703125 -36.353759765625
-4.533447265625 -6.558837890625 -7.041259765625
-4.001708984375 16.50390625 -7.00830078125
4.03564453125 -22.881591796875 21.2890625
-5.50439453125 -10.199462890625 24.205810546875
-4.4091796875 4.2900390625 -13.40185546875
-4.132568359375 -0.483642578125 -10.874755859375
-4.255859375 12.437744140625 5.75244140625
7.93994140625 17.952392578125 -36.264404296875
-4.242919921875 -7.849853515625 -9.881591796875
8.173583984375 24.231689453125 -35.401611328125
8.228759765625 20.967041015625 -29.364501953125
-3.6884765625 23.122802734375 -8.2763671875
17.673828125 -26.34130859375 16.1728515625
-4.80126953125 -13.49560546875 20.5908203125
-4.493896484375 -10.517822265625 5.88916015625
-4.59423828125 -17.931884765625 22.60498046875
-7.49462890625 18.8505859375 20.263427734375
-4.154541015625 7.314208984375 0.906005859375
-2.245361328125 7.557861328125 -31.63916015625
-4.174072265625 11.77197265625 11.422607421875
13.077880859375 9.4501953125 -37.137939453125
5.431396484375 23.036865234375 -28.45166015625
-13.123291015625 29.883544921875 18.12109375
11.001953125 10.94189453125 -35.88037109375
-4.0986328125 0.30810546875 -22.926513671875
-10.79736328125 16.30419921875 18.564697265625
-1.880615234375 -21.225341796875 16.99755859375
-3.5849609375 14.181396484375 -25.15478515625
8.271728515625 -24.232421875 19.426025390625
-2.74560546875 -24.289306640625 26.621337890625
-3.6572265625 -1.0654296875 -33.450439453125
16.84130859375 -24.79541015625 15.453857421875
1.617431640625 26.441162109375 -25.402099609375
-4.398193359375 -2.53369140625 -12.658935546875
-3.9443359375 -0.014404296875 -15.5048828125
-4.66748046875 -19.415283203125 19.79736328125
-4.30810546875 0.07958984375 11.072509765625
0.814453125 -20.21630859375 20.118408203125
-4.577392578125 -7.50390625 -2.431640625
-4.441650390625 -2.680908203125 -6.462890625
2.901123046875 14.22705078125 -31.742431640625
-0.478271484375 -16.955322265625 -1.69140625
-0.1728515625 -18.9755859375 1.4912109375
-2.41845703125 20.982421875 -24.9775390625
9.74365234375 8.406982421875 -33.13134765625
-4.13330078125 4.236083984375 -28.0029296875
-0.970947265625 -19.72998046875 3.594482421875
-4.301513671875 4.61181640625 -1.74755859375
2.802490234375 -24.719482421875 21.18212890625
-5.989990234375 -14.851806640625 24.099365234375
-3.992919921875 23.044921875 -13.649169921875
11.58154296875 17.9248046875 -35.04833984375
7.315673828125 -20.8369140625 21.470703125
11.492919921875 -24.593505859375 17.7158203125
-3.487548828125 10.7880859375 -26.5
-4.683837890625 4.29638671875 18.6787109375
1.26904296875 -28.455322265625 24.495361328125
16.028564453125 7.931396484375 -38.874755859375
-4.033447265625 7.48681640625 -21.625
0.864501953125 2.455322265625 -33.48291015625
-4.50341796875 -7.139892578125 -0.275390625
-4.514892578125 -0.276123046875 -0.969970703125
-4.2744140625 1.611572265625 -3.7255859375
-4.285888671875 -12.203369140625 -10.63525390625
19.169677734375 -1.468994140625 -37.5615234375
9.81298828125 16.452880859375 -33.482666015625
-12.78955078125 23.139404296875 17.24560546875
-4.5283203125 -5.70751953125 2.294677734375
-4.012451171875 10.301513671875 -1.470703125
-2.435302734375 28.61962890625 -39.5087890625
-3.853271484375 26.37060546875 -17.128662109375
-4.154296875 19.70703125 -7.007568359375
13.342041015625 -0.642333984375 -34.9296875
16.817626953125 5.53759765625 -22.802978515625
-15.576904296875 22.25732421875 16.82861328125
-4.4580078125 -3.44140625 2.769775390625
1.0439453125 11.87451171875 -31.8671875
0.585205078125 -15.593017578125 -8.31396484375
11.635498046875 -12.3623046875 20.33984375
-19.21337890625 23.224853515625 20.492919921875
8.85302734375 -15.7548828125 20.067626953125
12.8095703125 3.12353515625 -35.671875
-1.556640625 15.43798828125 -28.988037109375
3.12548828125 27.39892578125 -37.752685546875
-4.62890625 25.328857421875 -37.263671875
-4.359375 -2.568359375 4.562255859375
8.6533203125 -17.853515625 21.53369140625
-4.52392578125 -9.1455078125 0.698486328125
-3.865966796875 14.148681640625 -17.993408203125
-4.963623046875 6.557373046875 20.163330078125
-4.3466796875 27.288818359375 -42.233154296875
-4.605712890625 1.874267578125 16.927490234375
-4.3994140625 7.777587890625 4.777099609375
-2.430419921875 -16.29150390625 -3.209716796875
-4.078857421875 15.245849609375 -10.80419921875
4.63720703125 20.08837890625 -29.70849609375
-4.498046875 -7.85009765625 5.846435546875
0.61181640625 26.864990234375 -37.052978515625
4.00341796875 31.620361328125 -24.337890625
12.315673828125 3.6640625 -33.468017578125
-12.2236328125 25.134033203125 16.7265625
-3.9091796875 3.110595703125 -22.77978515625
1.00048828125 -0.1806640625 -37.44482421875
17.795166015625 3.578857421875 -25.83447265625
-5.6279296875 22.482421875 14.38330078125
-12.737060546875 19.26953125 17.454345703125
-4.068603515625 9.1103515625 -8.4384765625
-3.933837890625 14.316162109375 -13.601318359375
-5.5625 -6.562744140625 23.258544921875
0.606201171875 28.72802734375 -38.726318359375
-9.21630859375 21.302734375 18.444091796875
-3.044189453125 25.895751953125 -19.744873046875
-4.47998046875 -14.292236328125 17.192138671875
6.5458984375 9.97265625 -33.39453125
-4.5302734375 -9.591064453125 -9.676513671875
-4.6748046875 -17.120849609375 12.989501953125
9.052001953125 -2.405029296875 -38.6533203125
-4.395263671875 -2.482421875 -8.86083984375
-4.557373046875 -14.64794921875 11.02197265625
-13.62939453125 16.725830078125 16.046875
3.32275390625 27.564697265625 -40.52490234375
-4.204833984375 9.865234375 3.319091796875
-5.106689453125 0.549072265625 -13.809326171875
-4.260498046875 -1.9453125 -19.738525390625
-7.646240234375 25.70703125 8.693115234375
-4.5634765625 -4.443603515625 -10.52685546875
16.6669921875 4.830078125 -26.89599609375
17.4580078125 4.42041015625 -36.67236328125
-4.4677734375 -7.06787109375 -17.84765625
-4.611328125 -12.219970703125 9.52099609375
-4.36181640625 5.804931640625 16.378173828125
-1.457763671875 26.4912109375 -37.132080078125
-3.671875 -10.791259765625 -18.15576171875
7.288818359375 23.90576171875 -36.868408203125
-4.825927734375 -13.222412109375 22.705810546875
-4.1005859375 10.403076171875 -13.57421875
6.248046875 26.954345703125 -37.138671875
-4.08349609375 21.074462890625 13.185546875
12.66748046875 -17.552978515625 16.883056640625
-0.899658203125 28.814697265625 -21.01513671875
-3.192138671875 -6.28173828125 -28.61376953125
12.79638671875 7.640869140625 -33.8837890625
-3.893310546875 11.2158203125 -22.37353515625
-4.28515625 -1.0224609375 7.304443359375
-7.50390625 22.025634765625 19.076171875
0.29443359375 30.279541015625 -20.618408203125
2.636474609375 -26.986083984375 29.95068359375
1.676025390625 -26.469970703125 21.213134765625
-4.073486328125 20.287109375 -0.9033203125
0.408447265625 16.04833984375 -30.091552734375
-3.7021484375 23.167724609375 -17.107177734375
-4.076416015625 13.427978515625 10.966796875
18.121337890625 -0.657470703125 -34.52490234375
-4.392578125 10.462890625 17.896240234375
-4.59033203125 -8.24609375 14.72998046875
-4.283203125 15.5361328125 7.804931640625
-5.300048828125 22.963134765625 6.330078125
-3.870849609375 17.20166015625 -19.178955078125
-0.570068359375 26.823486328125 -24.03759765625
-5.25830078125 3.162109375 20.922119140625
5.7705078125 8.26611328125 -34.138671875
-4.26611328125 -2.408935546875 -26.080810546875
2.1484375 -13.572265625 -8.48486328125
-4.548095703125 -17.312744140625 18.959716796875
-4.635009765625 3.667236328125 14.438232421875
-2.678955078125 3.978515625 -32.29736328125
-4.17236328125 4.564697265625 -19.2998046875
-4.53125 24.3037109375 -4.681884765625
-3.9853515625 8.07763671875 -1.80908203125
-3.9169921875 11.10888671875 -3.5859375
8.655029296875 31.196044921875 -26.130615234375
-7.046630859375 22.551025390625 17.07861328125
-4.77392578125 -0.843017578125 21.459716796875
-4.4150390625 0.237060546875 1.93212890625
1.95751953125 -24.3564453125 28.569091796875
-4.2734375 17.135009765625 20.505859375
9.7109375 -18.999755859375 20.00390625
-4.94482421875 21.6103515625 9.9833984375
11.68017578125 15.805419921875 -35.197998046875
-4.337890625 18.87255859375 7.974853515625
5.3271484375 5.1494140625 -35.175537109375
-4.055908203125 16.710693359375 10.53076171875
2.899169921875 20.630859375 -29.1357421875
0.982177734375 18.78076171875 -29.087890625
-4.53076171875 0.211669921875 12.89697265625
8.005615234375 15.525390625 -31.739013671875
-3.0166015625 -19.147705078125 5.79443359375
-3.94091796875 24.194091796875 -10.57763671875
-17.736083984375 27.08203125 20.428466796875
8.567626953125 23.758544921875 -33.444091796875
-4.2578125 2.75927734375 -10.172119140625
-4.7099609375 -21.955322265625 25.16748046875
-4.251708984375 19.234619140625 19.5048828125
-18.836669921875 29.664306640625 26.04052734375
-4.6083984375 -11.03564453125 17.9931640625
-4.511474609375 -15.559814453125 4.134765625
-4.1943359375 8.508056640625 11.85595703125
5.1533203125 27.04931640625 -26.449462890625
-4.41552734375 -2.13720703125 -3.009765625
-3.775634765625 -13.180908203125 -8.72412109375
-3.973388671875 17.27978515625 16.841552734375
-0.127685546875 -15.625 -5.199951171875
-4.81494140625 -18.976806640625 23.873779296875
-4.439453125 5.7666015625 12.97412109375
-4.25927734375 18.955322265625 11.37841796875
-4.05224609375 15.988037109375 12.8408203125
-4.583251953125 -15.145751953125 7.499755859375
-4.14453125 -21.567626953125 21.2412109375
-3.6552734375 7.296875 -27.50830078125
-15.138671875 25.020751953125 17.904052734375
-4.915771484375 -5.467041015625 20.4091796875
-7.196533203125 24.453125 12.4990234375
-0.18408203125 12.848876953125 -30.701416015625
-3.129150390625 7.896240234375 -29.23291015625
-4.447265625 -0.439208984375 -9.252197265625
-5.150146484375 23.203125 3.963134765625
-4.081298828125 12.775146484375 -15.65673828125
-5.171630859375 -2.367431640625 20.333251953125
-4.266845703125 21.605712890625 7.322509765625
-3.89697265625 11.91943359375 -24.54052734375
-3.93017578125 16.80517578125 -8.71875
-4.427001953125 -16.3525390625 17.560546875
7.044921875 6.411865234375 -34.409423828125
1.118408203125 -16.3212890625 -0.544677734375
-4.28466796875 12.186767578125 1.06591796875
-4.471435546875 -19.626220703125 17.23388671875
-3.964599609375 2.00439453125 -29.4072265625
-0.091796875 24.0458984375 -26.00634765625
1.76416015625 33.473876953125 -18.022705078125
-16.906494140625 18.183349609375 14.92724609375
-0.326904296875 -23.7822265625 27.263671875
-5.05322265625 0.9599609375 20.055419921875
-3.48974609375 25.724365234375 -6.9619140625
-3.775634765625 24.42041015625 -16.010498046875
9.011474609375 -14.390380859375 21.536865234375
-4.62353515625 -16.1328125 20.1318359375
-4.59521484375 -3.958740234375 18.119873046875
11.334716796875 1.993408203125 -36.76171875
-3.890625 12.840087890625 -19.19970703125
-4.581298828125 -13.61376953125 14.781494140625
-3.9697265625 16.417724609375 -1.252197265625
-4.2626953125 -2.357666015625 -22.383544921875
-5.34326171875 -3.962646484375 21.39599609375
-4.47998046875 -13.522705078125 18.89501953125
8.55908203125 25.510986328125 -29.711181640625
1.15869140625 -2.736328125 -37.7607421875
-4.29638671875 4.326904296875 3.28271484375
17.3037109375 2.699462890625 -36.87744140625
20.656005859375 -1.655517578125 -38.19140625
-4.33154296875 -3.97216796875 5.87841796875
-4.453857421875 -9.20947265625 -3.739013671875
1.711181640625 27.495849609375 -40.6904296875
4.317626953125 12.262451171875 -33.150634765625
8.309814453125 26.94384765625 -26.895263671875
9.4384765625 26.3134765625 -34.74267578125
-4.6748046875 14.81591796875 21.709228515625
-8.1923828125 25.055419921875 16.5029296875
-3.99755859375 7.44287109375 -12.26806640625
-4.685791015625 -10.639892578125 13.484130859375
-2.96044921875 10.23291015625 -28.71533203125
-4.269775390625 13.479736328125 18.7763671875
-4.41943359375 1.335205078125 -1.426513671875
0.212158203125 -1.668212890625 -36.94189453125
-4.01220703125 6.38134765625 -25.153564453125
3.747314453125 7.404052734375 -34.40185546875
-4.828369140625 0.82568359375 18.2060546875
6.2158203125 -23.14111328125 21.28564453125
-2.581787109375 -18.597412109375 3.88818359375
-3.680419921875 22.81689453125 -19.111083984375
-4.373291015625 -13.75634765625 -2.58154296875
-4.288330078125 -3.815673828125 -0.462158203125
-3.928955078125 27.977294921875 -17.139404296875
-4.445556640625 -11.44091796875 2.9150390625
-3.49462890625 -20.318359375 11.273193359375
8.5625 28.2373046875 -32.89453125
-3.75 -2.622314453125 -32.983154296875
-4.514404296875 -13.291748046875 5.20556640625
3.58251953125 17.03955078125 -30.624755859375
14.253173828125 8.1689453125 -36.66455078125
-1.810546875 -24.077392578125 23.632568359375
18.194091796875 -24.014404296875 15.120849609375
9.68896484375 11.48046875 -33.75634765625
-3.16455078125 -14.45458984375 -5.58447265625
-14.384765625 31.59375 19.74853515625
11.865234375 14.13134765625 -36.304931640625
-4.215576171875 2.873779296875 -16.34912109375
-6.322265625 -11.364990234375 23.493408203125
14.443359375 5.985595703125 -34.3662109375
-4.3837890625 20.075927734375 15.09716796875
-17.5283203125 30.57373046875 22.9951171875
-4.6064453125 -16.393798828125 6.23388671875
-3.482421875 10.350341796875 -9.890869140625
11.86376953125 11.26611328125 -37.433349609375
-4.4873046875 6.567138671875 -15.599609375
-4.110595703125 8.595703125 -24.297119140625
-10.61083984375 24.539306640625 16.6416015625
-4.718017578125 10.156982421875 20.784912109375
-0.800048828125 9.53857421875 -31.990966796875
-4.70751953125 -9.93701171875 22.434814453125
21.554443359375 0.47119140625 -38.409912109375
-4.324462890625 22.727294921875 1.254638671875
7.660888671875 20.722412109375 -34.798095703125
-4.558837890625 2.43798828125 13.266845703125
2.01708984375 -23.4638671875 22.36279296875
-4.45556640625 6.51416015625 -6.139892578125
-12.93603515625 28.3251953125 18.231689453125
-4.160400390625 4.802001953125 -7.9072265625
-4.199462890625 1.296630859375 -26.264404296875
-4.878173828125 -13.47900390625 13.2431640625
-4.387939453125 -9.99267578125 16.7255859375
2.2763671875 4.642578125 -35.5791015625
-4.262939453125 -3.126708984375 -23.943603515625
-1.516845703125 -13.382568359375 -13.004638671875
-0.95166015625 2.0771484375 -31.592529296875
-4.33740234375 15.12646484375 2.351806640625
-4.05517578125 -1.048828125 -28.355224609375
-3.900390625 18.273681640625 -3.57421875
-4.29443359375 4.772705078125 6.08837890625
-4.1298828125 23.112548828125 -3.561279296875
2.6142578125 32.417236328125 -20.852294921875
-15.188720703125 30.1171875 20.970703125
1.40625 2.049560546875 -34.986572265625
10.95458984375 -16.086181640625 19.92333984375
-2.4052734375 13.2783203125 -28.7900390625
1.839599609375 -29.777587890625 28.427001953125
-6.580078125 16.510986328125 22.715087890625
3.607421875 27.025390625 -35.68896484375
10.575927734375 -21.341064453125 18.388671875
6.666259765625 28.787109375 -25.6953125
-4.376220703125 -1.36376953125 16.260009765625
18.21240234375 7.017333984375 -36.828857421875
4.603515625 2.94091796875 -36.086669921875
7.3173828125 31.058837890625 -24.844970703125
9.328125 17.686767578125 -37.016357421875
-3.96875 6.859130859375 -9.347900390625
-4.1201171875 12.530517578125 15.802001953125
8.538330078125 32.536376953125 -24.455810546875
-4.416748046875 23.453369140625 11.98486328125
-4.0048828125 6.90869140625 -18.754638671875
-4.42822265625 -11.74609375 -6.781494140625
-4.76171875 -8.260009765625 19.197265625
-4.3701171875 10.498291015625 14.608154296875
-4.39990234375 13.1298828125 13.82763671875
-3.046630859375 21.130615234375 -21.75537109375
-4.794921875 -4.548828125 14.99072265625
-4.264404296875 9.750732421875 -7.06201171875
-3.63623046875 30.565185546875 -47.480712890625
9.524169921875 26.26904296875 -32.261474609375
-3.342529296875 -17.23681640625 1.87890625
8.602294921875 -21.3134765625 19.82275390625
-4.453857421875 11.0654296875 4.937744140625
-7.931884765625 23.444580078125 15.992919921875
6.937744140625 29.731201171875 -30.61279296875
-4.583984375 26.638427734375 -39.10302734375
-5.6513671875 21.2548828125 17.12109375
8.39990234375 14.027587890625 -32.61328125
5.508056640625 -25.86328125 19.93896484375
-4.60498046875 -8.818359375 -11.279052734375
6.509033203125 23.892333984375 -27.804931640625
-18.333984375 30.30517578125 27.528564453125
-4.872314453125 11.8359375 21.44091796875
-4.244873046875 21.6064453125 4.073486328125
16.524658203125 5.10009765625 -24.459716796875
3.716796875 15.4169921875 -31.169921875
-4.213623046875 1.273681640625 7.794677734375
-4.580322265625 -5.9921875 -3.0146484375
-4.21337890625 16.560791015625 3.767578125
-4.050537109375 21.997314453125 -0.763671875
-6.707275390625 23.741943359375 6.693359375
-4.40380859375 8.865966796875 1.38330078125
-2.945556640625 -11.4853515625 -15.32666015625
-4.627197265625 4.426513671875 -11.6552734375
10.628173828125 14.27392578125 -33.666015625
-4.539306640625 4.860107421875 11.134765625
-6.295654296875 26.4951171875 -36.39794921875
-4.2607421875 16.39990234375 6.258544921875
-12.143310546875 22.117919921875 15.373046875
-4.244384765625 19.5400390625 1.840087890625
-4.73779296875 -20.538818359375 23.8388671875
-7.879150390625 25.5302734375 11.6962890625
-3.6982421875 15.711181640625 -19.041748046875
-4.122314453125 25.89794921875 -15.68505859375
1.1083984375 14.8193359375 -30.604248046875
11.339599609375 6.444091796875 -31.96826171875
-4.534912109375 5.149169921875 -17.5078125
-4.57373046875 -18.55810546875 13.7021484375
12.33203125 -25.88037109375 15.927978515625
11.152099609375 8.627197265625 -34.268798828125
-4.6962890625 -16.481201171875 21.88818359375
-4.362548828125 3.349853515625 11.2490234375
-3.8017578125 16.67333984375 -22.443359375
-4.43994140625 2.511962890625 6.203857421875
-3.883544921875 19.536376953125 10.017578125
-4.397705078125 -6.7431640625 -19.4951171875
-2.741943359375 -21.076904296875 18.213134765625
20.750732421875 5.997314453125 -36.927734375
10.22119140625 -23.228271484375 17.810791015625
3.212646484375 -26.1767578125 20.2041015625
-4.20263671875 -9.941650390625 -20.725830078125
5.61328125 14.911376953125 -32.1904296875
-6.054443359375 19.4375 21.245849609375
11.900146484375 8.552490234375 -37.873291015625
-19.49560546875 27.7529296875 24.4609375
5.857421875 -0.0283203125 -36.8232421875
-2.25048828125 19.838134765625 -25.923828125
-14.959228515625 26.439453125 18.75537109375
-3.81005859375 18.936767578125 -9.579833984375
-19.317626953125 26.243896484375 21.863525390625
3.2373046875 -1.47509765625 -38.4462890625
-3.192138671875 -20.09716796875 15.611328125
-4.72265625 -18.48193359375 10.974609375
-3.179931640625 0.468505859375 -32.3916015625
-4.479736328125 -18.0888671875 8.7900390625
-4.386962890625 -0.36962890625 4.912109375
-9.135009765625 19.302734375 19.581787109375
-4.42578125 -2.70849609375 -17.1259765625
-3.083740234375 -4.288818359375 -33.10302734375
-1.544921875 -20.508544921875 20.99365234375
-5.776123046875 20.290771484375 18.556640625
-4.332275390625 20.374755859375 16.6181640625
-2.1435546875 11.089111328125 -30.082763671875
14.22900390625 2.325439453125 -36.5966796875
-4.145751953125 10.34765625 12.763671875
7.06298828125 13.078125 -32.913330078125
-4.1435546875 11.510986328125 -6.80419921875
-4.37939453125 5.745361328125 -4.50439453125
8.777099609375 -25.616943359375 18.58447265625
-2.3876953125 24.68896484375 -22.785400390625
-17.060302734375 21.7255859375 16.4833984375
-4.3818359375 8.08935546875 -3.44970703125
-15.760986328125 19.136474609375 15.82177734375
-4.550048828125 -3.005859375 13.32421875
-10.584228515625 20.508056640625 16.0947265625
-4.474853515625 3.328857421875 -5.681884765625
-4.2685546875 -9.49169921875 -13.774658203125
-4.65234375 16.548095703125 21.88330078125
-4.228515625 12.216552734375 7.635986328125
-2.384765625 27.080078125 -21.78369140625
-4.294921875 -1.459716796875 -29.952880859375
12.319580078125 -22.675537109375 16.116943359375
2.892822265625 30.6142578125 -22.597900390625
-4.104736328125 -21.666015625 11.99072265625
-4.152099609375 -2.6630859375 -31.545654296875
-4.45703125 -11.509765625 -12.35693359375
-0.41357421875 -23.500244140625 30.019775390625
9.899169921875 18.6005859375 -30.734130859375
1.518310546875 -25.7763671875 23.400146484375
-4.711669921875 -0.869873046875 -3.981689453125
-4.00927734375 23.200927734375 -6.616943359375
-4.262451171875 7.088134765625 17.0830078125
-7.188720703125 24.29296875 8.46923828125
-3.249755859375 -16.40478515625 -0.2060546875
-6.045166015625 6.547119140625 21.127197265625
15.775146484375 6.6083984375 -36.0126953125
-4.599853515625 -1.2333984375 18.1005859375
8.193115234375 22.009033203125 -32.630859375
-1.03125 -18.0712890625 0.46484375
-4.135498046875 21.26025390625 -10.759033203125
-3.345458984375 4.958984375 -30.046875
12.6142578125 -25.4990234375 13.096923828125
8.011962890625 -14.82373046875 23.040771484375
-18.76220703125 21.8701171875 17.585693359375
-17.81298828125 25.7568359375 19.71337890625
-3.703125 19.948974609375 -19.7265625
-2.764892578125 12.717529296875 -27.50537109375
