8.0986328125 14.38671875 12.9337158203125
7.439208984375 18.0311279296875 -3.4925537109375
6.0419921875 10.927734375 22.4737548828125
11.839599609375 13.279541015625 13.2022705078125
15.534423828125 18.4249267578125 0.0992431640625
-33.387451171875 -9.096923828125 24.3472900390625
-8.225830078125 30.8297119140625 -40.3134765625
5.904541015625 9.045654296875 -39.3555908203125
-1.42578125 2.2188720703125 45.4986572265625
-33.09375 -6.0386962890625 14.62451171875
-29.793701171875 -5.736083984375 9.7691650390625
6.961181640625 1.341552734375 31.3116455078125
13.708984375 17.030029296875 5.24853515625
4.8994140625 15.784912109375 -56.052978515625
9.53564453125 16.802734375 -13.469970703125
-13.266845703125 -8.1651611328125 16.4805908203125
12.929443359375 14.963134765625 9.4383544921875
-21.960693359375 -8.1146240234375 25.880126953125
-1.40576171875 20.5865478515625 1.626953125
8.952392578125 10.9906005859375 -44.2701416015625
-1.177978515625 20.7598876953125 -3.4884033203125
-2.986572265625 -0.3560791015625 55.0638427734375
-10.6337890625 -8.591796875 18.8294677734375
7.876953125 6.606201171875 -33.538330078125
0.24267578125 0.848388671875 -26.80712890625
16.507080078125 9.326416015625 -40.0682373046875
-12.044921875 -7.114501953125 13.6900634765625
-3.530517578125 10.955078125 -40.0057373046875
3.0439453125 34.4830322265625 -47.69775390625
7.42822265625 9.3577880859375 26.9671630859375
-33.681884765625 1.7310791015625 13.53173828125
12.51416015625 14.6029052734375 -9.3822021484375
-3.053955078125 32.572509765625 -46.3411865234375
-14.455810546875 -9.581787109375 22.4515380859375
17.078369140625 6.9427490234375 -34.109130859375
6.877197265625 13.2431640625 17.55322265625
14.817626953125 11.425048828125 -45.9801025390625
3.9423828125 3.602294921875 31.950439453125
2.94189453125 17.905517578125 1.357421875
9.952392578125 0.286865234375 35.359619140625
15.14697265625 -11.49462890625 44.5050048828125
2.894287109375 31.1070556640625 -39.7686767578125
19.90283203125 8.15771484375 -37.71337890625
8.518310546875 1.057861328125 50.8184814453125
-6.653076171875 -10.3992919921875 17.413330078125
12.760009765625 18.280517578125 -4.5408935546875
-20.69140625 -11.2664794921875 20.412841796875
1.75390625 7.334228515625 34.3861083984375
21.631103515625 6.2098388671875 -32.2518310546875
3.9921875 1.767822265625 47.1318359375
2.876220703125 19.847900390625 -7.0968017578125
-7.9501953125 7.5567626953125 32.3865966796875
28.920166015625 -5.8946533203125 34.7034912109375
13.735107421875 1.2264404296875 50.4681396484375
18.5009765625 10.850341796875 -44.0845947265625
0.31982421875 22.2601318359375 -6.0531005859375
10.9033203125 4.45849609375 -28.2265625
-34.197998046875 -2.20166015625 25.3056640625
4.338134765625 14.494384765625 -9.8936767578125
11.687744140625 15.3194580078125 -5.4713134765625
4.777587890625 11.208251953125 -44.40283203125
3.7333984375 1.4691162109375 -20.724365234375
25.76123046875 -6.5516357421875 35.9073486328125
15.189208984375 19.4951171875 -6.3123779296875
8.3505859375 3.666015625 27.3275146484375
15.94970703125 5.2886962890625 -30.63623046875
-33.58447265625 -12.1407470703125 22.1351318359375
0.792236328125 3.1876220703125 43.956787109375
-24.610107421875 -9.1097412109375 19.037841796875
10.41650390625 11.2886962890625 21.5863037109375
13.40234375 1.844970703125 47.6136474609375
-1.164306640625 7.626708984375 -35.9234619140625
2.37353515625 5.1396484375 39.17626953125
11.176025390625 0.6187744140625 52.03955078125
-0.35107421875 24.55517578125 -11.5240478515625
18.463623046875 22.979248046875 -13.2740478515625
17.556396484375 18.871337890625 -2.1085205078125
-16.440185546875 -9.58740234375 19.2620849609375
5.89306640625 1.4713134765625 35.487060546875
13.376953125 23.8934326171875 -16.4921875
-17.939697265625 -9.031005859375 12.4893798828125
6.951904296875 5.3944091796875 -30.9473876953125
8.41796875 14.7828369140625 -52.8704833984375
6.828369140625 14.590576171875 -8.7183837890625
7.6767578125 3.2100830078125 -24.2625732421875
15.220947265625 14.818603515625 -52.1064453125
-0.294921875 14.5872802734375 -53.8909912109375
-7.89599609375 32.329345703125 -45.9832763671875
2.375244140625 9.447509765625 27.8717041015625
10.188232421875 3.4112548828125 43.59228515625
-3.906005859375 3.61572265625 -26.1309814453125
-8.16796875 -7.515869140625 13.9849853515625
4.81103515625 22.5435791015625 -12.24072265625
1.73974609375 6.41943359375 -32.3155517578125
-20.258544921875 -11.7271728515625 16.773681640625
-3.349853515625 5.9512939453125 44.6500244140625
9.47412109375 0.8790283203125 30.418701171875
3.18359375 25.4073486328125 -14.67529296875
32.631103515625 -4.10302734375 31.905517578125
-24.10498046875 -11.56201171875 24.0306396484375
-34.19970703125 -0.279052734375 19.039794921875
-1.6162109375 -0.043701171875 52.6544189453125
14.44287109375 12.145751953125 18.180419921875
2.350341796875 13.0474853515625 -52.3521728515625
-1.355712890625 22.980712890625 -8.0999755859375
12.844970703125 16.46435546875 -11.4820556640625
-0.31103515625 1.3154296875 48.2939453125
24.60986328125 5.8070068359375 -27.7183837890625
-1.46142578125 6.0732421875 37.19580078125
0.05126953125 8.477783203125 -38.1148681640625
3.479248046875 1.3043212890625 49.973876953125
19.87255859375 -13.37548828125 46.3802490234375
24.722900390625 12.997314453125 -48.453369140625
3.09619140625 34.3385009765625 -30.6181640625
16.0927734375 -11.7606201171875 46.9456787109375
6.245361328125 12.798583984375 -48.8028564453125
9.4287109375 25.6961669921875 -16.6956787109375
18.63134765625 5.2462158203125 42.5435791015625
20.4599609375 14.6123046875 -52.0709228515625
5.798828125 17.7852783203125 2.5369873046875
-20.756103515625 -7.22705078125 10.6551513671875
20.093505859375 10.35693359375 31.161376953125
12.322265625 5.736572265625 -31.2679443359375
10.66845703125 16.8499755859375 4.04638671875
14.99365234375 6.2255859375 37.163818359375
-32.401611328125 -3.5032958984375 21.5792236328125
-26.30224609375 -11.217529296875 21.3028564453125
2.624267578125 18.5528564453125 -1.1597900390625
13.077880859375 5.0142822265625 39.15234375
-4.616943359375 30.7174072265625 -42.29248046875
20.906982421875 -8.3231201171875 41.974609375
9.896728515625 8.7552490234375 26.0460205078125
-0.44677734375 2.7626953125 -23.409912109375
11.90185546875 -10.59716796875 44.58642578125
9.02685546875 -12.0982666015625 48.082763671875
7.98681640625 4.3082275390625 38.67041015625
8.58056640625 14.572265625 -10.9254150390625
-4.12890625 3.305908203125 45.1912841796875
-13.412353515625 -4.16357421875 26.5098876953125
-5.09521484375 32.0814208984375 -44.880859375
8.9228515625 0.409912109375 32.879150390625
4.484130859375 9.205322265625 26.14892578125
25.798828125 -2.570068359375 32.5074462890625
18.202880859375 8.170654296875 34.3760986328125
-16.085205078125 -4.3023681640625 6.6531982421875
-20.9716796875 -9.28564453125 15.3521728515625
7.268798828125 12.3082275390625 -6.2635498046875
-6.913818359375 31.33837890625 -38.2447509765625
2.14501953125 16.0645751953125 -56.6953125
2.982177734375 17.9066162109375 -5.463134765625
8.075927734375 36.5091552734375 -29.587890625
-1.125732421875 10.484130859375 -42.7022705078125
5.453125 3.1510009765625 37.31201171875
20.106201171875 11.3565673828125 -45.9283447265625
-20.4462890625 -9.60791015625 12.10986328125
17.1015625 4.4984130859375 -28.582275390625
-19.910888671875 -13.0484619140625 25.0543212890625
-4.719970703125 7.894775390625 37.3797607421875
-8.419677734375 -10.094970703125 22.7296142578125
3.63232421875 21.7935791015625 -10.06298828125
-1.849609375 12.7027587890625 -49.044189453125
14.031982421875 9.4822998046875 25.6302490234375
-9.532470703125 31.473388671875 -43.255126953125
-8.19384765625 -8.80078125 16.337158203125
21.47509765625 -4.176513671875 38.2352294921875
26.579345703125 8.0152587890625 -23.07666015625
-32.4765625 -3.6680908203125 7.9561767578125
9.227783203125 11.8558349609375 -46.86767578125
19.836181640625 19.6417236328125 -3.02392578125
14.218505859375 9.6868896484375 -41.201171875
-8.079345703125 -5.8336181640625 9.6065673828125
-23.51318359375 -6.689453125 11.962158203125
9.897216796875 11.621337890625 18.2301025390625
7.755126953125 12.5421142578125 14.5220947265625
-2.4970703125 5.1484375 -30.382080078125
4.364501953125 6.616943359375 29.70703125
-2.531005859375 7.526611328125 31.0970458984375
6.604736328125 2.390625 46.8004150390625
-20.08935546875 0.0147705078125 31.39404296875
6.052490234375 31.34326171875 -37.3599853515625
-0.4111328125 3.81787109375 41.9488525390625
-3.280029296875 4.7498779296875 40.385498046875
-11.7802734375 -11.7843017578125 25.059814453125
31.796142578125 -2.4798583984375 27.4083251953125
-32.260498046875 -10.0904541015625 21.8763427734375
-17.438232421875 1.03466796875 30.650146484375
-2.61767578125 14.5152587890625 -52.8536376953125
6.83935546875 0.302734375 52.372802734375
2.11474609375 0.064453125 52.7076416015625
-11.515380859375 -5.3775634765625 8.9075927734375
21.178955078125 5.0572509765625 -29.666015625
8.349365234375 3.9718017578125 -27.240234375
8.890625 14.7608642578125 -7.5179443359375
30.208251953125 -5.0738525390625 32.674072265625
5.3994140625 17.7139892578125 -10.6923828125
-29.179443359375 -12.203369140625 24.0457763671875
7.84619140625 3.3585205078125 43.9969482421875
21.69384765625 8.9600830078125 -39.1229248046875
-2.181884765625 4.5245361328125 -27.8929443359375
-3.598876953125 21.6409912109375 -3.78857421875
20.1630859375 -9.9757080078125 44.28076171875
2.93212890625 2.684814453125 45.1541748046875
10.672607421875 15.3214111328125 8.6651611328125
3.55517578125 5.0322265625 36.6650390625
6.15380859375 13.8907470703125 -51.386474609375
19.23974609375 6.288330078125 -32.5345458984375
23.263916015625 11.673583984375 -44.8621826171875
-5.536376953125 6.6962890625 33.5367431640625
-30.516845703125 3.6136474609375 9.1170654296875
2.047607421875 13.005859375 -49.3450927734375
-29.86962890625 -9.918701171875 17.482177734375
6.197998046875 32.6790771484375 -45.2646484375
-23.3828125 -7.689208984375 14.3052978515625
9.473388671875 15.5462646484375 -4.5224609375
-33.77734375 -12.908203125 24.4434814453125
9.978271484375 3.7740478515625 37.3609619140625
-32.391357421875 -0.9339599609375 17.7550048828125
18.438720703125 21.5516357421875 -9.8377685546875
22.8525390625 -8.08544921875 40.7574462890625
8.77197265625 16.7042236328125 5.3790283203125
-31.357421875 -6.8287353515625 13.3382568359375
3.78564453125 31.2562255859375 -42.0128173828125
-25.29931640625 -5.014892578125 6.474365234375
1.6357421875 23.597900390625 -10.3509521484375
13.699462890625 10.8509521484375 -43.7476806640625
14.243896484375 3.9681396484375 43.6619873046875
-18.330322265625 -8.3255615234375 8.11083984375
-16.560546875 -8.2105712890625 14.1226806640625
-21.833251953125 -5.1954345703125 6.7684326171875
2.208251953125 9.33154296875 -40.3802490234375
6.78857421875 10.40185546875 -43.682373046875
1.879150390625 32.2408447265625 -34.0396728515625
2.571044921875 5.292724609375 33.77734375
23.3291015625 10.5733642578125 -42.261474609375
19.35205078125 4.1282958984375 -27.8629150390625
-0.3984375 6.62451171875 35.1646728515625
-29.75927734375 -8.2672119140625 14.4066162109375
-32.29296875 1.273193359375 11.05029296875
8.28515625 1.821533203125 48.4105224609375
-11.97998046875 -9.782470703125 20.7860107421875
8.158203125 23.923583984375 -15.3770751953125
-4.27099609375 1.438232421875 49.9241943359375
3.808349609375 4.41943359375 -28.23974609375
0.446533203125 3.280029296875 -28.05322265625
9.4560546875 21.431884765625 -13.3419189453125
10.262939453125 0.8475341796875 28.324462890625
5.901611328125 32.6263427734375 -34.29248046875
-0.26123046875 30.7249755859375 -41.2919921875
17.314453125 25.5181884765625 -21.0098876953125
6.2109375 13.55224609375 12.0782470703125
10.3154296875 14.9715576171875 -9.278076171875
24.900634765625 -7.959716796875 42.022216796875
19.693359375 9.339599609375 33.200927734375
11.895751953125 9.997802734375 25.275390625
-9.311279296875 -3.2265625 27.3568115234375
5.259033203125 14.9130859375 -6.0888671875
-23.30224609375 -3.2908935546875 25.4837646484375
11.905029296875 12.8792724609375 17.4293212890625
-7.17919921875 7.5306396484375 30.3056640625
-28.9091796875 -6.3890380859375 7.7060546875
17.20458984375 23.6387939453125 -15.375244140625
-31.954833984375 -5.768310546875 10.22314453125
6.5107421875 7.3250732421875 28.4898681640625
-7.561279296875 -5.3824462890625 7.1689453125
-32.34228515625 -0.41455078125 14.974853515625
7.814697265625 15.0352783203125 10.8538818359375
-1.021240234375 32.0419921875 -32.98779296875
-15.470703125 -6.1544189453125 8.9669189453125
11.147216796875 18.1800537109375 1.095947265625
11.22705078125 8.030029296875 -37.1500244140625
-25.381103515625 -6.4317626953125 8.4090576171875
14.553955078125 13.81884765625 14.027099609375
16.86083984375 -10.771484375 43.3564453125
12.407470703125 14.6097412109375 11.56591796875
18.27001953125 24.0914306640625 -17.593994140625
-21.447998046875 -2.64501953125 29.1492919921875
9.85986328125 13.957275390625 14.1416015625
5.10498046875 24.2921142578125 -13.4986572265625
-19.4619140625 -13.2589111328125 19.8458251953125
-9.804443359375 -8.9942626953125 20.810546875
11.36767578125 2.506103515625 47.2568359375
22.425048828125 13.3623046875 -49.1580810546875
10.3125 3.9615478515625 41.1422119140625
19.859619140625 3.929443359375 -25.765380859375
-4.947265625 30.372802734375 -37.5029296875
15.311279296875 7.377685546875 -35.279052734375
-22.601318359375 -9.6109619140625 19.7666015625
1.5908203125 31.0335693359375 -37.0673828125
-20.716064453125 -11.642578125 22.7821044921875
18.101806640625 9.8272705078125 -41.8961181640625
-1.80712890625 38.9351806640625 -50.9407958984375
-19.447998046875 -6.5550537109375 5.4151611328125
2.726806640625 8.0076904296875 29.84130859375
25.92822265625 -0.6759033203125 33.5216064453125
11.548095703125 13.3775634765625 15.34326171875
-18.05078125 -12.570556640625 23.072265625
3.83984375 7.255615234375 -35.3997802734375
7.072021484375 9.849609375 24.905029296875
4.00830078125 4.1671142578125 43.2386474609375
-3.6259765625 12.4422607421875 -45.51611328125
6.930908203125 16.982177734375 4.168701171875
-27.489501953125 -7.7216796875 11.9935302734375
10.570556640625 14.2677001953125 -52.5950927734375
-31.89111328125 -1.6533203125 10.06201171875
0.260009765625 19.167236328125 1.5054931640625
22.86572265625 -6.906982421875 38.3804931640625
-5.6083984375 3.4693603515625 27.87646484375
3.9970703125 19.4595947265625 -8.8670654296875
5.2724609375 33.9781494140625 -31.6258544921875
-33.268310546875 -5.80224609375 17.0364990234375
17.560302734375 6.18115234375 40.52880859375
0.007568359375 5.635009765625 -31.370361328125
19.109130859375 -7.23681640625 41.6690673828125
24.717529296875 -4.8326416015625 34.81982421875
5.70263671875 -0.4210205078125 32.822998046875
7.65478515625 8.6141357421875 -38.195068359375
1.551513671875 11.5587158203125 -45.8770751953125
7.593994140625 17.62744140625 -12.931396484375
-1.3427734375 33.2989501953125 -47.3516845703125
1.556396484375 2.236083984375 48.823486328125
-3.8681640625 7.4814453125 39.414306640625
8.142822265625 4.750732421875 -29.3321533203125
4.184326171875 2.7308349609375 -23.659912109375
-3.30859375 7.5528564453125 33.1854248046875
14.59423828125 8.0958251953125 -37.3687744140625
6.167724609375 2.0281982421875 28.04833984375
5.0498046875 0.5899658203125 51.146728515625
-26.54296875 -9.2373046875 17.0675048828125
-5.154052734375 31.4898681640625 -34.0306396484375
14.34375 4.5164794921875 40.781494140625
-0.8740234375 15.607421875 -56.0078125
-18.19287109375 -11.0872802734375 16.778076171875
13.24169921875 15.8436279296875 7.3411865234375
-6.248046875 -10.8529052734375 20.2100830078125
-10.01025390625 -10.801513671875 24.3114013671875
10.323486328125 -10.2691650390625 46.2530517578125
6.613525390625 15.962158203125 7.1083984375
-12.722412109375 -10.76171875 23.5435791015625
7.447998046875 18.7344970703125 -1.3233642578125
16.82763671875 3.9244384765625 47.4454345703125
-2.02587890625 9.2640380859375 -40.0914306640625
7.369873046875 18.3038330078125 0.8001708984375
-12.013427734375 -6.7294921875 11.2789306640625
-20.134521484375 -1.9449462890625 30.816162109375
17.277587890625 6.153076171875 -31.9896240234375
-14.85888671875 -7.6033935546875 15.337890625
-6.387939453125 30.8516845703125 -41.304931640625
-10.033447265625 -6.7239990234375 14.0772705078125
-29.332275390625 -10.97802734375 19.7801513671875
3.849609375 31.4105224609375 -34.5985107421875
9.94189453125 9.7608642578125 -41.337158203125
16.594482421875 10.99072265625 -44.8118896484375
7.338623046875 7.6173095703125 -35.2003173828125
14.09375 24.5780029296875 -18.2503662109375
-31.93359375 -8.7960205078125 17.9970703125
12.216796875 23.2835693359375 -14.7171630859375
-10.377197265625 7.4725341796875 30.7423095703125
18.7080078125 13.9354248046875 -51.055908203125
0.69384765625 19.6514892578125 -2.7496337890625
-15.36865234375 -6.2642822265625 11.388671875
0.00439453125 31.63818359375 -43.93359375
20.461181640625 12.2406005859375 -47.69482421875
21.656005859375 10.0584716796875 -41.2802734375
-1.625 20.4110107421875 -0.503173828125
0.33837890625 12.885986328125 -53.0421142578125
-18.824462890625 -11.899658203125 26.7335205078125
6.75390625 16.762939453125 -57.09326171875
22.918701171875 15.537841796875 -51.84619140625
15.64697265625 4.3009033203125 -27.2269287109375
26.10498046875 -7.03125 37.9482421875
8.479248046875 11.14501953125 22.02978515625
-9.59716796875 32.906982421875 -47.1688232421875
2.125 32.139892578125 -44.52783203125
4.11376953125 35.839111328125 -48.681884765625
-32.980224609375 -9.4334716796875 19.5582275390625
0.918212890625 36.3175048828125 -49.33154296875
-31.843505859375 2.76708984375 7.8909912109375
14.875732421875 14.9742431640625 9.815673828125
17.32373046875 17.9932861328125 1.31201171875
-15.83935546875 -10.7725830078125 23.5843505859375
15.084716796875 13.404052734375 -50.3382568359375
28.218505859375 -5.1917724609375 32.6744384765625
-10.370361328125 30.18115234375 -39.7291259765625
-0.453857421875 23.1236572265625 -9.846435546875
14.73828125 17.8751220703125 -8.076416015625
-4.1748046875 8.2772216796875 -36.99267578125
-7.181396484375 34.1912841796875 -48.2425537109375
11.94580078125 3.5224609375 -26.602783203125
29.53857421875 -3.2998046875 29.4697265625
1.35107421875 1.00244140625 -25.1990966796875
-31.479736328125 -3.1500244140625 6.351318359375
16.66845703125 24.9853515625 -19.2410888671875
23.826171875 6.6522216796875 -31.9539794921875
7.3681640625 35.2125244140625 -30.87109375
15.419921875 16.726318359375 4.3226318359375
16.2021484375 12.456787109375 -47.8182373046875
18.33154296875 20.968505859375 -6.8157958984375
0.7509765625 4.51220703125 40.361572265625
-10.77392578125 -4.5059814453125 6.89892578125
-3.341064453125 6.642333984375 -33.261962890625
-20.802978515625 -5.0115966796875 28.5377197265625
-15.18701171875 -8.6640625 18.0977783203125
11.233154296875 1.430419921875 53.800048828125
26.270751953125 7.6923828125 -25.2147216796875
-33.313720703125 -2.854736328125 23.242431640625
24.439697265625 12.25927734375 -46.6859130859375
2.40380859375 33.0552978515625 -31.8905029296875
11.915771484375 13.265869140625 -8.1195068359375
17.770751953125 -12.9796142578125 46.821044921875
4.581298828125 5.031494140625 30.8214111328125
5.278564453125 -0.0841064453125 30.783203125
23.158203125 4.653564453125 -25.51123046875
24.563232421875 9.644775390625 -38.0225830078125
1.818115234375 4.275390625 -28.9649658203125
10.727783203125 18.6751708984375 -1.871826171875
18.233642578125 8.7471923828125 -38.46484375
-1.611083984375 36.027099609375 -49.13525390625
4.388916015625 15.335205078125 -8.1668701171875
5.10791015625 5.4078369140625 -30.415283203125
22.2431640625 7.664794921875 -34.858642578125
9.9453125 37.4208984375 -30.134765625
-31.85205078125 -2.0291748046875 13.252685546875
12.79833984375 11.35888671875 21.1285400390625
1.208251953125 33.5865478515625 -47.10791015625
10.262451171875 13.3896484375 -50.40283203125
13.19677734375 12.158203125 -47.162841796875
-1.795166015625 8.30517578125 29.4910888671875
5.906005859375 11.8651123046875 20.43505859375
18.750732421875 12.8270263671875 -48.8753662109375
6.400634765625 3.42529296875 42.7506103515625
-22.849609375 -9.6517333984375 16.1669921875
-20.8564453125 -9.6243896484375 26.5445556640625
27.721435546875 -2.3270263671875 30.412109375
-0.4794921875 30.6876220703125 -36.9305419921875
11.169921875 10.6229248046875 -43.9945068359375
6.993896484375 3.921630859375 -25.9005126953125
8.53564453125 12.58251953125 -48.541748046875
-30.4931640625 -10.112548828125 22.6417236328125
-5.573486328125 6.2921142578125 35.9859619140625
12.7529296875 6.8834228515625 -33.8408203125
4.279541015625 12.6466064453125 -48.6527099609375
11.749755859375 9.4716796875 -40.604248046875
3.987060546875 2.0020751953125 30.561279296875
-3.983154296875 4.9215087890625 42.470947265625
6.9287109375 21.0384521484375 -12.3775634765625
5.316650390625 2.7574462890625 -20.7835693359375
1.3974609375 7.821044921875 32.3443603515625
14.74365234375 17.603759765625 1.8089599609375
6.938232421875 14.839111328125 -54.04345703125
-26.093017578125 -8.9302978515625 15.08251953125
20.00634765625 18.8201904296875 -1.333251953125
-28.660888671875 -6.348388671875 11.3056640625
18.2578125 7.517333984375 -35.4652099609375
0.16796875 13.002685546875 -49.203125
8.921142578125 17.978271484375 -2.2647705078125
4.320068359375 30.9097900390625 -38.5537109375
-35.4453125 -13.375 21.6746826171875
11.324462890625 -0.072998046875 30.320556640625
-3.498046875 30.6158447265625 -38.900390625
14.760498046875 19.010009765625 -1.5714111328125
2.023681640625 10.123291015625 -42.07080078125
-20.575927734375 -10.750732421875 18.448486328125
0.305908203125 2.2008056640625 -21.787841796875
0.99755859375 8.435302734375 28.6392822265625
6.157958984375 9.7647705078125 -41.078369140625
-9.921875 -5.035888671875 10.108642578125
-12.25439453125 -9.0570068359375 18.0162353515625
15.949951171875 -8.933837890625 43.1365966796875
23.06103515625 4.7720947265625 -28.0677490234375
-20.9013671875 -6.9520263671875 27.168212890625
22.9052734375 -9.3763427734375 45.1871337890625
4.03955078125 9.1864013671875 -40.07958984375
-6.974609375 -8.654052734375 13.07177734375
6.88671875 4.696533203125 40.3798828125
12.96240234375 12.9539794921875 -49.73828125
15.3251953125 2.5130615234375 50.2110595703125
-1.846435546875 2.0318603515625 47.5386962890625
29.63232421875 -5.6680908203125 36.4007568359375
12.061279296875 5.0235595703125 -29.559814453125
1.859375 8.19482421875 -36.965576171875
0.84912109375 25.316162109375 -13.2769775390625
19.791748046875 10.3448486328125 -42.4473876953125
-21.36181640625 -6.4129638671875 9.1072998046875
-5.4560546875 9.262939453125 30.023681640625
1.895751953125 26.6258544921875 -14.1534423828125
6.981689453125 0.674560546875 29.589599609375
13.585205078125 -11.413818359375 48.6070556640625
20.23486328125 -4.8614501953125 39.4189453125
-24.935791015625 -6.7513427734375 10.7880859375
6.53271484375 14.26708984375 -10.8460693359375
6.740478515625 18.618408203125 -11.5799560546875
-13.446533203125 -4.7247314453125 8.9962158203125
-4.243408203125 30.63427734375 -35.818603515625
2.861328125 -0.4927978515625 54.298583984375
-15.3837890625 -9.44873046875 20.86474609375
30.572265625 -4.2325439453125 31.0645751953125
9.126953125 14.9298095703125 -12.647216796875
3.357177734375 3.15087890625 -25.2867431640625
-1.864013671875 31.611328125 -35.5416259765625
-20.375732421875 -10.61083984375 13.6485595703125
-25.275634765625 -9.825439453125 20.5941162109375
7.60400390625 25.8326416015625 -16.17138671875
13.340576171875 19.21484375 -2.803955078125
-8.058349609375 31.4344482421875 -42.061279296875
14.125 5.4443359375 -30.5274658203125
-29.594482421875 -8.2401123046875 16.796875
19.945068359375 20.2230224609375 -6.039306640625
19.04248046875 7.7442626953125 36.0272216796875
1.5986328125 21.053466796875 -6.5753173828125
0.435302734375 21.293701171875 -4.3826904296875
2.938720703125 11.351318359375 -44.698974609375
13.480712890625 18.1134033203125 0.5850830078125
4.260009765625 2.1783447265625 33.483154296875
0.1845703125 0.86083984375 52.36865234375
-1.589111328125 12.0556640625 -47.3533935546875
12.2119140625 3.6890869140625 43.6270751953125
16.7236328125 22.422607421875 -13.2109375
-8.73583984375 -9.2496337890625 18.343505859375
9.235595703125 13.289306640625 -5.453125
-22.489501953125 -11.738525390625 23.1983642578125
10.606201171875 7.534423828125 -35.4073486328125
16.510986328125 19.9814453125 -4.6171875
-3.7451171875 12.6953125 -49.3245849609375
17.17529296875 -7.4757080078125 42.8818359375
-4.455078125 36.12060546875 -49.3604736328125
8.2451171875 2.181640625 30.1256103515625
9.55029296875 6.02734375 -32.371337890625
3.00732421875 22.68310546875 -11.7265625
3.92333984375 4.4178466796875 39.935791015625
-1.512939453125 30.8040771484375 -39.034912109375
16.689208984375 7.5537109375 38.1317138671875
15.093994140625 2.47509765625 46.85693359375
11.13330078125 10.5714111328125 23.6380615234375
3.160400390625 6.61865234375 -33.66748046875
6.973876953125 -0.11181640625 35.7486572265625
30.247802734375 0.010498046875 27.2095947265625
4.2255859375 16.7017822265625 -6.4088134765625
-13.494873046875 -7.176513671875 12.5029296875
-17.666748046875 -11.391845703125 20.3546142578125
-25.70263671875 -11.13623046875 23.28955078125
-2.130126953125 6.915771484375 34.783935546875
5.296630859375 30.3480224609375 -41.6700439453125
-3.82861328125 31.572021484375 -43.660888671875
27.045166015625 -3.7457275390625 31.97314453125
4.800537109375 0.389404296875 34.145751953125
-20.213623046875 -8.568603515625 8.1480712890625
-32.77978515625 -3.033203125 26.02099609375
11.639892578125 24.3326416015625 -16.832763671875
6.511474609375 16.21484375 -3.957275390625
14.5146484375 10.783447265625 22.7564697265625
-3.1162109375 5.5699462890625 36.737548828125
-22.104736328125 -3.8990478515625 27.8387451171875
10.078369140625 1.89892578125 31.75537109375
-2.27587890625 2.909423828125 -24.1435546875
4.134765625 14.9752197265625 -54.2537841796875
-28.088623046875 -8.3046875 13.5692138671875
-33.73974609375 -1.5025634765625 20.94873046875
-2.6435546875 10.126708984375 -41.74658203125
7.03857421875 5.639892578125 27.9241943359375
21.439453125 19.0355224609375 -3.541015625
2.835693359375 6.5447998046875 35.559814453125
13.573486328125 15.4130859375 -52.4256591796875
0.922607421875 15.3243408203125 -55.2901611328125
10.614501953125 3.07080078125 45.6451416015625
15.30322265625 23.7686767578125 -15.7177734375
24.41796875 -6.5831298828125 37.5771484375
-0.322021484375 1.308349609375 -24.686279296875
-8.384521484375 31.0897216796875 -37.2808837890625
4.830322265625 8.6197509765625 -38.0089111328125
-0.975341796875 3.3427734375 43.9676513671875
3.416015625 19.65283203125 -4.5599365234375
-3.681884765625 8.1689453125 29.9136962890625
2.4384765625 19.3621826171875 -2.8258056640625
17.43994140625 18.4320068359375 -0.3968505859375
16.44189453125 5.3543701171875 44.6553955078125
3.48828125 6.1253662109375 -32.0015869140625
5.45166015625 11.992431640625 -47.447265625
2.183349609375 2.19189453125 -21.4683837890625
-0.049072265625 11.0501708984375 -44.9041748046875
-2.78125 23.8826904296875 -7.5828857421875
5.893310546875 18.6351318359375 -2.5552978515625
18.430419921875 9.98095703125 30.7169189453125
0.897216796875 0.8106689453125 -23.5079345703125
22.53662109375 -3.779052734375 36.6007080078125
8.345947265625 9.2586669921875 -39.9464111328125
10.113525390625 2.314453125 36.385009765625
18.4248046875 22.6885986328125 -11.540283203125
20.132568359375 21.956298828125 -9.4613037109375
-2.98779296875 2.6689453125 46.364990234375
-20.3056640625 -11.203125 26.008056640625
4.30419921875 19.0916748046875 -1.1964111328125
5.853759765625 13.20361328125 -5.750244140625
-3.31396484375 0.3831787109375 51.45458984375
24.895751953125 9.0037841796875 -35.0250244140625
0.0224609375 6.985107421875 -34.313720703125
8.349609375 12.3580322265625 17.88720703125
13.98193359375 3.26171875 45.26220703125
-2.2900390625 7.0609130859375 -34.5880126953125
9.578125 11.7144775390625 19.937255859375
0.496337890625 5.1439208984375 38.7633056640625
16.702392578125 20.999267578125 -9.7821044921875
6.76025390625 15.986328125 9.2344970703125
-7.890869140625 -6.5826416015625 11.1878662109375
4.613525390625 17.4638671875 1.2811279296875
27.580322265625 -6.7210693359375 35.8858642578125
9.8046875 2.7919921875 27.6573486328125
6.3095703125 -0.030517578125 53.9827880859375
-9.4033203125 30.4879150390625 -41.5238037109375
-2.76025390625 5.0877685546875 38.7623291015625
-30.1953125 -7.1982421875 6.897705078125
1.27685546875 30.837158203125 -40.5281982421875
23.6396484375 10.08740234375 -25.4722900390625
15.538330078125 16.7457275390625 6.0379638671875
-6.866455078125 -7.10009765625 9.908447265625
10.338134765625 17.3577880859375 2.36962890625
-8.6923828125 -7.061279296875 16.46630859375
11.177001953125 -12.3531494140625 47.6624755859375
8.877197265625 -0.78955078125 34.431884765625
4.62109375 33.5810546875 -46.481201171875
-19.063232421875 -7.784423828125 6.548828125
-7.638916015625 -11.3994140625 23.8294677734375
-1.853271484375 4.684814453125 41.6217041015625
13.79052734375 -10.49609375 44.19580078125
-1.14990234375 22.0279541015625 -5.1483154296875
-34.556640625 -11.2667236328125 21.0318603515625
10.255859375 14.0140380859375 12.43408203125
-33.015869140625 -5.63525390625 19.8345947265625
-30.91259765625 -6.51953125 11.3507080078125
-7.33447265625 -10.4737548828125 21.470458984375
2.837890625 20.965087890625 -8.7694091796875
-32.90283203125 -5.3790283203125 13.0662841796875
5.111328125 4.0633544921875 -27.0557861328125
-30.762451171875 -4.298583984375 25.4942626953125
-11.787109375 -7.720947265625 15.266357421875
9.030029296875 7.1756591796875 -34.88232421875
9.102294921875 16.1978759765625 7.05029296875
7.520263671875 13.864013671875 -7.0679931640625
-1.26708984375 32.1492919921875 -45.1573486328125
6.76025390625 13.223876953125 15.8594970703125
16.0029296875 5.8302001953125 41.3359375
5.228271484375 16.6707763671875 -57.8253173828125
-27.69970703125 -11.642578125 22.88037109375
5.35498046875 31.6622314453125 -35.56787109375
16.482177734375 -12.096435546875 48.5533447265625
24.251953125 7.548828125 -25.1070556640625
19.65869140625 6.7427978515625 38.8929443359375
19.484375 -13.41650390625 48.0169677734375
-21.756591796875 -10.89208984375 21.6566162109375
18.003173828125 4.755859375 44.17626953125
21.57177734375 13.795654296875 -50.8365478515625
-33.550537109375 2.2684326171875 11.948486328125
-18.45751953125 -8.9737548828125 10.8953857421875
6.68701171875 35.1041259765625 -48.4183349609375
-22.916748046875 -6.7481689453125 7.9219970703125
-18.39501953125 -5.2578125 5.452392578125
1.62060546875 18.2596435546875 0.1407470703125
-4.0302734375 5.7401123046875 -29.8697509765625
-2.503173828125 10.691162109375 -43.8763427734375
7.4306640625 1.1417236328125 32.95458984375
-32.203857421875 3.7645263671875 9.1712646484375
3.9677734375 31.8677978515625 -43.78076171875
-4.829345703125 34.1590576171875 -48.4178466796875
-18.96044921875 -10.3062744140625 12.834228515625
3.3779296875 0.8953857421875 51.5797119140625
19.83203125 22.90625 -14.2091064453125
21.57861328125 11.29150390625 -45.1695556640625
15.329345703125 8.7476806640625 -38.701904296875
-27.3056640625 -6.8134765625 8.439453125
21.575927734375 -9.021240234375 43.561279296875
6.73779296875 23.8406982421875 -14.4486083984375
0.758544921875 38.2039794921875 -50.679931640625
-8.98291015625 7.14111328125 33.5977783203125
-23.4208984375 -9.21337890625 17.80908203125
-31.603759765625 -5.7247314453125 8.6175537109375
-16.913330078125 -7.7486572265625 12.1427001953125
-30.264404296875 -10.3389892578125 21.033447265625
-2.708251953125 2.571044921875 44.2933349609375
-33.83447265625 -8.90673828125 22.782958984375
-32.818603515625 -7.649658203125 16.5030517578125
21.442138671875 4.146240234375 -25.423583984375
3.52685546875 10.4774169921875 -43.453369140625
11.81103515625 18.13720703125 -3.2218017578125
16.48486328125 -12.621337890625 45.620849609375
-3.030517578125 -0.2335205078125 53.437255859375
6.09130859375 2.857666015625 -24.180908203125
4.381103515625 26.0283203125 -15.5804443359375
-17.0908203125 -6.7523193359375 8.97509765625
-20.178466796875 -11.3419189453125 15.1981201171875
23.16455078125 8.892578125 -38.358642578125
-3.97216796875 5.8380126953125 28.4718017578125
-20.203125 -5.4942626953125 6.7056884765625
-0.727294921875 7.380859375 31.486572265625
3.64697265625 16.291748046875 -57.25390625
6.589599609375 0.93017578125 50.7862548828125
6.340576171875 6.25537109375 -32.597900390625
11.95458984375 8.6798095703125 -38.47900390625
12.001708984375 16.4931640625 5.2716064453125
-31.571533203125 2.155029296875 9.46728515625
23.832763671875 8.023681640625 -35.81787109375
8.232666015625 32.2882080078125 -33.12353515625
-18.693115234375 -12.781005859375 21.4666748046875
-2.508544921875 21.3939208984375 0.4229736328125
16.89208984375 20.8892822265625 -5.8953857421875
11.986572265625 15.176025390625 -52.72802734375
-13.4873046875 -7.4278564453125 14.5115966796875
-22.144775390625 -7.5333251953125 11.8773193359375
9.39306640625 16.0863037109375 -10.058837890625
-13.618408203125 -9.4793701171875 20.8345947265625
-15.858154296875 -11.0247802734375 25.170166015625
12.669921875 4.1611328125 -27.9068603515625
-31.841064453125 -1.7725830078125 11.661376953125
-28.4306640625 -6.5765380859375 9.6846923828125
-1.80224609375 5.7835693359375 -31.6796875
5.76806640625 13.46337890625 -9.1368408203125
-6.35791015625 7.1134033203125 31.9212646484375
7.06396484375 2.583984375 45.16064453125
-2.577880859375 7.6939697265625 -36.6734619140625
9.0830078125 14.0478515625 -51.6156005859375
11.720458984375 5.2301025390625 38.336181640625
-28.026123046875 -9.6810302734375 17.4637451171875
-2.03857421875 13.4993896484375 -50.746826171875
6.086669921875 6.8963623046875 -34.273193359375
9.878662109375 -11.6025390625 50.1884765625
11.6865234375 4.9580078125 39.98681640625
8.430419921875 9.63671875 25.7135009765625
-0.084228515625 3.0693359375 45.5965576171875
-8.53173828125 31.7877197265625 -44.6287841796875
8.115478515625 17.5306396484375 -56.7974853515625
5.836181640625 8.99267578125 26.955810546875
-4.35546875 3.4219970703125 -24.4405517578125
20.421142578125 -11.3717041015625 45.3692626953125
13.8916015625 11.7916259765625 19.8670654296875
-17.33837890625 -9.0745849609375 15.2908935546875
1.718017578125 34.84228515625 -48.4833984375
0.380859375 7.9833984375 -36.4462890625
-23.452880859375 -8.4364013671875 25.4710693359375
2.53076171875 33.2274169921875 -46.3231201171875
18.306884765625 19.5496826171875 -3.4044189453125
0.53125 32.3037109375 -33.0841064453125
-3.75341796875 9.4227294921875 -39.1329345703125
21.26904296875 7.801513671875 -36.0845947265625
14.3525390625 1.7078857421875 48.85791015625
7.6171875 14.704833984375 -12.159423828125
-19.504150390625 -13.8817138671875 23.7864990234375
-1.574462890625 31.0833740234375 -42.074951171875
2.6494140625 32.0804443359375 -35.832763671875
16.2998046875 14.000244140625 -51.3062744140625
-11.02392578125 -8.260498046875 17.2401123046875
19.55615234375 -6.2637939453125 40.524658203125
3.6904296875 13.800537109375 -52.049072265625
8.3037109375 10.4849853515625 -42.937744140625
-2.0322265625 20.7666015625 -2.177490234375
13.820068359375 19.4278564453125 -4.5364990234375
4.411865234375 2.75634765625 45.9981689453125
1.822265625 5.4862060546875 -31.0601806640625
-3.885986328125 0.7066650390625 54.3604736328125
12.813720703125 17.31396484375 4.00341796875
-25.876953125 -9.9075927734375 18.603759765625
2.29638671875 3.528076171875 43.167724609375
-3.588623046875 33.6436767578125 -47.62841796875
11.132568359375 11.8572998046875 -47.0068359375
3.575439453125 5.8443603515625 37.99365234375
4.86376953125 16.5172119140625 -9.8524169921875
10.62841796875 25.315185546875 -17.6302490234375
15.76953125 9.908935546875 -41.3089599609375
-8.97265625 -7.1072998046875 12.40234375
3.69970703125 18.57470703125 -6.74755859375
7.760009765625 10.493896484375 23.2586669921875
27.01611328125 -5.868408203125 34.7132568359375
-1.4228515625 8.26611328125 -37.5943603515625
9.96533203125 11.274169921875 -45.62841796875
3.064208984375 13.70556640625 -53.705810546875
10.541015625 13.47802734375 -8.9095458984375
9.49951171875 8.4676513671875 -37.8905029296875
22.366455078125 5.628662109375 -31.0145263671875
29.372314453125 0.033447265625 28.4908447265625
7.583740234375 11.2039794921875 -45.029296875
15.276123046875 3.4385986328125 -25.9427490234375
12.45947265625 1.587890625 49.66455078125
-6.662353515625 31.8160400390625 -45.1971435546875
2.719482421875 31.51220703125 -38.015625
-19.970703125 -12.3172607421875 18.7252197265625
6.19775390625 15.4234619140625 -55.28857421875
8.89453125 17.1337890625 -3.582763671875
-0.745849609375 0.99658203125 51.1392822265625
8.449462890625 22.4072265625 -14.1328125
13.145751953125 14.0260009765625 12.7923583984375
20.9736328125 6.9395751953125 -33.4945068359375
9.0712890625 15.2974853515625 -54.2247314453125
9.521240234375 17.7923583984375 1.13232421875
1.573486328125 8.8321533203125 -39.063720703125
1.69482421875 1.84814453125 -26.462890625
9.03857421875 14.800537109375 9.5316162109375
7.0947265625 13.2705078125 13.311767578125
-8.55419921875 -5.1142578125 10.8857421875
12.804931640625 13.1461181640625 14.4493408203125
15.14501953125 10.920654296875 -44.279052734375
-2.089599609375 2.13671875 -22.4962158203125
11.592529296875 15.043212890625 10.3319091796875
14.339599609375 6.9476318359375 35.970458984375
14.143798828125 9.9073486328125 23.9674072265625
-32.849609375 -4.7403564453125 9.5068359375
-9.449951171875 7.33984375 31.964111328125
2.305908203125 12.356201171875 -47.6478271484375
13.80224609375 5.654052734375 37.953369140625
7.3857421875 3.282958984375 37.3199462890625
3.3212890625 15.4080810546875 -55.4857177734375
6.969482421875 11.061279296875 21.202880859375
-0.335205078125 20.3319091796875 -1.8310546875
15.77880859375 6.080322265625 -32.3253173828125
10.502197265625 -0.3079833984375 34.0531005859375
3.726318359375 17.7457275390625 0.045166015625
6.262451171875 12.7408447265625 19.223388671875
-2.570556640625 20.961181640625 -4.7064208984375
13.37158203125 11.3544921875 -45.446044921875
8.959716796875 14.375 11.636474609375
20.3662109375 5.4896240234375 -30.896728515625
21.16650390625 -5.670166015625 38.504638671875
-0.6796875 9.051513671875 -39.336669921875
19.73095703125 4.9954833984375 -29.1558837890625
6.0107421875 10.6517333984375 24.1395263671875
16.3447265625 11.6456298828125 -46.5235595703125
0.201904296875 22.2408447265625 -7.76123046875
8.72509765625 4.6820068359375 39.9603271484375
11.18701171875 3.6805419921875 42.368896484375
17.24072265625 7.9017333984375 36.47216796875
-5.7236328125 7.8829345703125 36.136474609375
11.66552734375 6.4599609375 -32.4996337890625
10.3056640625 0.8990478515625 50.81640625
4.38818359375 1.4256591796875 48.753173828125
18.69775390625 -10.0260009765625 43.85595703125
12.33154296875 -11.05224609375 47.8182373046875
2.506103515625 12.2440185546875 -51.0660400390625
9.265380859375 9.212646484375 27.3555908203125
11.201416015625 11.1260986328125 20.2901611328125
17.093994140625 4.6339111328125 45.8431396484375
-0.435546875 2.22412109375 -26.33935546875
-32.215576171875 -3.4857177734375 17.5750732421875
-20.550048828125 -9.108154296875 13.7496337890625
-1.712646484375 -0.448974609375 54.2479248046875
-0.7744140625 25.76513671875 -12.3306884765625
-21.775634765625 -9.4921875 24.9652099609375
4.25830078125 3.6541748046875 36.5313720703125
17.935302734375 7.0484619140625 39.34814453125
-15.79638671875 -5.684814453125 7.380859375
14.496337890625 -11.3065185546875 47.395751953125
9.340087890625 3.4312744140625 44.8438720703125
7.010986328125 8.114013671875 -36.876953125
9.38916015625 3.8365478515625 42.3818359375
16.654541015625 19.1563720703125 -3.359375
8.12939453125 5.96484375 -31.86181640625
23.70458984375 -4.1629638671875 35.723876953125
-28.8876953125 -2.1141357421875 26.049072265625
0.224609375 10.27197265625 -41.947509765625
9.809326171875 2.160888671875 47.6260986328125
3.3408203125 24.5789794921875 -13.410400390625
2.463134765625 2.3582763671875 47.6019287109375
-0.561767578125 3.946533203125 -27.1534423828125
25.4140625 -3.417236328125 33.6917724609375
3.32763671875 8.269775390625 -36.6387939453125
9.974853515625 -0.117431640625 31.576416015625
8.738037109375 0.5106201171875 29.1436767578125
5.16064453125 2.6939697265625 28.947265625
-31.88916015625 -7.27685546875 14.916015625
9.313232421875 0.634765625 52.0225830078125
30.43505859375 -1.4462890625 27.509033203125
-7.157958984375 7.13525390625 33.58642578125
5.292236328125 35.1595458984375 -47.8763427734375
-1.459716796875 24.093994140625 -10.630615234375
-24.880126953125 -8.1383056640625 14.7091064453125
3.811279296875 5.1949462890625 32.09326171875
4.68701171875 18.0252685546875 -9.3699951171875
18.617431640625 11.281005859375 -45.820556640625
2.451416015625 7.0263671875 33.101318359375
14.03369140625 3.943603515625 -27.1392822265625
-21.92529296875 -8.3917236328125 14.6290283203125
3.705810546875 4.0037841796875 -26.5565185546875
19.988037109375 10.92529296875 -44.18994140625
-19.823486328125 -8.4715576171875 27.4312744140625
25.8046875 9.2894287109375 -23.016357421875
-20.736572265625 0.7069091796875 30.2421875
-29.754638671875 -11.4010009765625 22.927978515625
7.419677734375 12.14306640625 -47.59521484375
6.8154296875 2.26611328125 36.390869140625
-0.963623046875 31.3284912109375 -34.294677734375
-2.786376953125 1.7730712890625 49.1513671875
4.4375 2.09814453125 -22.0062255859375
-2.815673828125 31.887939453125 -45.041748046875
4.882080078125 11.6346435546875 -46.120361328125
14.05859375 15.408935546875 8.5784912109375
1.510986328125 13.4737548828125 -54.0029296875
-32.403076171875 0.6121826171875 13.8345947265625
14.531005859375 -11.04833984375 45.782470703125
17.363037109375 10.4112548828125 -43.139892578125
13.977783203125 14.2158203125 -51.565185546875
30.2109375 -2.8154296875 28.240234375
-20.583251953125 -9.6134033203125 16.92626953125
14.04833984375 23.1435546875 -15.23974609375
4.27587890625 31.0477294921875 -40.2977294921875
-31.98876953125 -2.1666259765625 18.865478515625
17.2158203125 5.3212890625 42.1275634765625
-0.706298828125 1.656005859375 46.6790771484375
17.447265625 5.3603515625 -30.2987060546875
-11.171630859375 -7.00439453125 12.4598388671875
1.836181640625 17.4581298828125 2.2242431640625
0.339111328125 12.6126708984375 -50.908203125
-32.85986328125 -4.9942626953125 11.0914306640625
12.097900390625 0.739990234375 50.8143310546875
3.782470703125 9.5142822265625 27.442138671875
-24.429931640625 -11.102783203125 22.4779052734375
14.606689453125 5.22607421875 39.171630859375
16.73388671875 8.1002197265625 34.3773193359375
-31.479736328125 0.088623046875 11.3623046875
7.261474609375 16.4761962890625 5.8387451171875
6.892578125 13.3082275390625 -50.1453857421875
-5.44091796875 31.1558837890625 -43.5406494140625
10.484130859375 10.068115234375 24.876708984375
-28.988525390625 -10.0546875 18.6490478515625
-20.711669921875 -12.40234375 21.5260009765625
18.504638671875 6.8687744140625 -33.7703857421875
-8.137451171875 33.0118408203125 -47.279052734375
2.1689453125 21.7044677734375 -10.0029296875
1.91455078125 16.7255859375 -57.983154296875
15.322998046875 4.7967529296875 -28.9024658203125
-28.018798828125 -11.0601806640625 20.546630859375
19.00537109375 -11.285888671875 44.54638671875
3.39111328125 4.1981201171875 33.2564697265625
-7.46240234375 -10.369384765625 18.645751953125
9.509765625 1.3226318359375 49.6107177734375
-12.913818359375 -10.0252685546875 21.991943359375
10.23095703125 14.2686767578125 -5.02783203125
10.593017578125 10.2657470703125 -42.6678466796875
11.346923828125 14.289794921875 -10.1986083984375
13.949462890625 7.460693359375 -34.7672119140625
5.1201171875 2.7008056640625 35.60595703125
17.988037109375 4.2144775390625 -27.359619140625
20.18115234375 -8.9327392578125 43.1513671875
12.15576171875 1.5526123046875 52.575439453125
14.187255859375 17.24072265625 3.52783203125
-9.24169921875 -8.28955078125 17.204345703125
-32.59716796875 -12.1353759765625 24.0955810546875
15.981201171875 13.1190185546875 -49.1068115234375
-20.736083984375 -12.77685546875 23.890380859375
-24.46728515625 -6.1856689453125 7.1917724609375
-22.745849609375 -7.0977783203125 13.1243896484375
-33.558349609375 0.8404541015625 14.6806640625
21.466552734375 8.3778076171875 -37.8157958984375
8.6005859375 3.334716796875 -25.57470703125
6.127197265625 11.1295166015625 -44.923828125
5.43896484375 10.4813232421875 -43.1629638671875
6.789794921875 35.847412109375 -29.515625
9.930908203125 22.4979248046875 -14.19873046875
9.4990234375 4.5343017578125 -28.5677490234375
7.36865234375 1.699462890625 49.6363525390625
11.323486328125 16.3819580078125 -4.560302734375
-32.015380859375 -3.43994140625 27.1785888671875
13.577392578125 -12.443115234375 49.717529296875
13.69091796875 1.892333984375 51.7965087890625
24.22998046875 10.286865234375 -41.0250244140625
5.845703125 -0.3974609375 34.896728515625
7.4755859375 32.8907470703125 -34.3916015625
11.648681640625 -11.26953125 46.150634765625
-32.05908203125 -6.2879638671875 12.1912841796875
-20.557373046875 -7.9649658203125 12.2149658203125
0.0556640625 6.8212890625 33.5146484375
-8.717041015625 30.602783203125 -38.9822998046875
24.1123046875 4.7816162109375 -26.844482421875
-30.244873046875 -5.5440673828125 8.1905517578125
-11.1904296875 -5.84912109375 10.499267578125
-2.924072265625 12.1331787109375 -46.8323974609375
-1.38330078125 22.6947021484375 -6.3973388671875
0.152587890625 11.6273193359375 -46.200927734375
24.55859375 12.27880859375 -44.9619140625
16.12353515625 18.795166015625 -1.19775390625
19.392822265625 7.9503173828125 -36.3941650390625
8.40185546875 -0.05322265625 35.7491455078125
8.880615234375 17.137939453125 3.688720703125
-5.407470703125 32.6077880859375 -46.169921875
1.7685546875 6.69189453125 -34.001953125
-0.371826171875 8.3748779296875 29.4835205078125
9.8427734375 10.932373046875 22.83837890625
24.06298828125 8.6063232421875 -37.12451171875
-1.698974609375 34.695556640625 -48.22607421875
12.01953125 7.4613037109375 -35.0714111328125
-0.3154296875 39.0498046875 -51.0577392578125
15.4150390625 19.5262451171875 -10.638916015625
1.607177734375 28.009521484375 -14.105224609375
20.285400390625 9.0369873046875 -39.030517578125
8.3525390625 5.319580078125 -30.60888671875
19.8720703125 22.7705078125 -12.4720458984375
-2.929931640625 31.2894287109375 -42.41748046875
23.5595703125 11.1607666015625 -43.5794677734375
6.065185546875 4.3092041015625 37.83935546875
24.413818359375 -5.530517578125 36.009033203125
-17.290283203125 -10.3341064453125 18.4193115234375
18.063720703125 9.548095703125 -40.17431640625
-25.185302734375 -9.1878662109375 17.4442138671875
-3.119140625 4.65966796875 -29.092041015625
4.902099609375 4.84033203125 -29.14208984375
-28.2490234375 -6.687255859375 6.469482421875
-1.38037109375 1.8336181640625 49.1690673828125
0.7607421875 0.015380859375 53.5107421875
12.380615234375 12.5924072265625 -48.3988037109375
21.280517578125 -7.492919921875 40.816162109375
14.59619140625 12.0845947265625 -47.2637939453125
10.8369140625 5.664794921875 -31.6029052734375
30.222412109375 -5.33154296875 35.171630859375
20.244384765625 19.7025146484375 -4.7698974609375
4.787109375 21.4097900390625 -11.41259765625
13.250244140625 8.31640625 -37.7091064453125
5.93310546875 23.003662109375 -13.1396484375
1.287353515625 18.7655029296875 -1.529296875
15.109130859375 9.4027099609375 -39.9752197265625
-0.12841796875 31.1812744140625 -42.61181640625
3.79248046875 0.6451416015625 30.85888671875
-9.354736328125 32.2254638671875 -45.8748779296875
12.261474609375 15.260009765625 -11.06396484375
10.459228515625 15.68603515625 -12.685546875
25.673583984375 7.3358154296875 -23.8984375
13.9208984375 10.194091796875 -42.4700927734375
-0.85791015625 14.22705078125 -52.5584716796875
