15.113037109375 6.306640625 45.2581787109375
14.964111328125 23.5767822265625 -38.544921875
-4.00244140625 20.0889892578125 -29.5198974609375
3.795654296875 3.1407470703125 52.6351318359375
-15.631103515625 8.6988525390625 13.573974609375
-19.895751953125 4.739990234375 22.8653564453125
5.14990234375 18.6937255859375 -25.4862060546875
-2.29931640625 22.1771240234375 -35.10888671875
-5.279052734375 18.6475830078125 -23.007568359375
-3.623779296875 29.3807373046875 -53.466064453125
8.11474609375 9.07861328125 51.4443359375
20.674560546875 20.7252197265625 -28.728759765625
8.8701171875 22.2442626953125 -34.4471435546875
-19.023681640625 9.2332763671875 12.251953125
8.2666015625 28.8037109375 -49.890869140625
24.3564453125 9.614501953125 38.8486328125
-3.878662109375 27.424072265625 -47.8179931640625
1.678955078125 19.6387939453125 -29.8486328125
17.8779296875 1.869140625 52.8458251953125
4.9189453125 29.9698486328125 -54.13623046875
10.10302734375 23.1505126953125 -37.4962158203125
-11.3154296875 4.4669189453125 25.1171875
-5.524169921875 24.2008056640625 -38.8193359375
12.498291015625 2.797607421875 50.84814453125
1.32470703125 25.4920654296875 -42.881591796875
-6.021240234375 28.8365478515625 -50.791748046875
8.82470703125 28.8612060546875 -10.1949462890625
19.1689453125 7.0665283203125 41.97802734375
8.52490234375 4.639892578125 47.13525390625
-0.151123046875 27.5455322265625 -47.7615966796875
-7.500244140625 6.8831787109375 -31.2388916015625
-11.3857421875 10.2825927734375 9.7510986328125
-15.45751953125 5.5301513671875 22.1920166015625
-4.536865234375 15.7034912109375 -27.9443359375
14.17919921875 5.97802734375 42.0618896484375
-10.871826171875 6.8944091796875 18.37353515625
20.308837890625 22.3221435546875 -33.36083984375
15.7822265625 3.5059814453125 50.533447265625
11.10986328125 10.104248046875 45.126953125
17.994384765625 4.5986328125 45.8951416015625
-19.654052734375 6.5693359375 18.05322265625
19.589111328125 8.8934326171875 39.5174560546875
-2.634033203125 32.3187255859375 -56.20947265625
6.61279296875 4.99755859375 50.48681640625
9.3349609375 7.461669921875 48.48779296875
4.416015625 5.4649658203125 55.570556640625
-9.401123046875 9.2470703125 7.175048828125
23.29931640625 11.0694580078125 33.1092529296875
-14.900390625 9.9765625 7.0057373046875
5.4501953125 24.248779296875 -39.81396484375
4.427490234375 0.228759765625 52.2322998046875
-3.663330078125 16.4473876953125 -21.367919921875
23.061767578125 13.351318359375 31.12060546875
1.17333984375 28.587890625 -50.37841796875
-22.467529296875 3.3939208984375 21.8980712890625
-22.580078125 7.08154296875 9.4566650390625
-0.711669921875 24.8599853515625 -40.6192626953125
11.70751953125 1.92041015625 53.51611328125
19.83447265625 12.165283203125 36.1396484375
14.86328125 21.9537353515625 -33.55126953125
-11.640380859375 8.3267822265625 15.396484375
-9.475341796875 7.654052734375 12.5072021484375
-0.87451171875 19.3665771484375 -24.739990234375
11.39208984375 5.33154296875 48.054443359375
5.621337890625 29.243408203125 -51.4453125
7.22216796875 20.587646484375 -31.1436767578125
-6.1181640625 20.9923095703125 -27.810791015625
0.109130859375 31.504638671875 -56.3184814453125
1.80419921875 21.03515625 -32.809814453125
13.25341796875 8.2052001953125 43.91259765625
5.901123046875 2.468017578125 54.3663330078125
-7.793701171875 21.0042724609375 -32.64892578125
-5.150146484375 30.98974609375 -55.6124267578125
21.09033203125 3.5198974609375 50.2064208984375
-6.142578125 13.8033447265625 -29.138427734375
-4.715087890625 22.8897705078125 -36.2359619140625
12.134765625 24.39990234375 -38.8636474609375
-0.633056640625 29.06591796875 -53.893798828125
11.58349609375 19.8028564453125 -29.1456298828125
1.383544921875 17.5582275390625 -23.80126953125
-15.181640625 6.343017578125 19.553955078125
11.911865234375 21.694091796875 -33.259765625
-9.9140625 4.89892578125 22.04296875
3.326416015625 23.4893798828125 -37.5712890625
0.441650390625 23.3355712890625 -38.0540771484375
-13.89111328125 4.849853515625 24.1898193359375
7.802001953125 3.5439453125 52.3160400390625
-16.243896484375 8.0926513671875 16.2398681640625
-5.447509765625 10.2674560546875 -29.3760986328125
12.766357421875 28.5101318359375 -49.899169921875
8.012939453125 2.7108154296875 49.0777587890625
-13.998779296875 9.503173828125 11.0244140625
19.7802734375 23.3319091796875 -35.6461181640625
21.803955078125 6.424560546875 43.333740234375
-22.107666015625 8.2479248046875 6.946533203125
3.87744140625 22.5040283203125 -34.916015625
16.3779296875 4.0152587890625 48.154052734375
4.950439453125 26.5111083984375 -45.4703369140625
14.5703125 25.8885498046875 -43.028076171875
9.974853515625 25.114013671875 -42.0108642578125
9.931640625 2.3831787109375 51.75048828125
11.89306640625 26.22998046875 -43.8182373046875
14.0302734375 19.903564453125 -28.6534423828125
18.692626953125 20.3363037109375 -26.8082275390625
3.35693359375 19.0999755859375 -27.8873291015625
20.552490234375 4.5521240234375 47.8602294921875
6.256591796875 21.7667236328125 -34.5888671875
-20.15869140625 5.3927001953125 20.1575927734375
20.49169921875 21.52392578125 -31.04541015625
19.199462890625 3.71435546875 43.594970703125
9.275634765625 26.90283203125 -46.5615234375
-8.7626953125 5.883056640625 17.445556640625
-2.430908203125 27.558837890625 -54.51513671875
22.02734375 8.2237548828125 38.681884765625
-0.398193359375 20.770751953125 -29.2969970703125
-2.825927734375 20.9742431640625 -32.9324951171875
-17.831298828125 6.0517578125 22.9661865234375
13.61279296875 8.3343505859375 41.400146484375
16.899169921875 24.5850830078125 -39.558349609375
16.37744140625 20.0877685546875 -30.1849365234375
-3.17041015625 17.6365966796875 -23.935302734375
-18.65234375 10.1719970703125 10.06640625
21.5595703125 11.19140625 34.72216796875
10.779052734375 4.673095703125 45.2203369140625
10.289794921875 29.2218017578125 -51.0164794921875
12.769775390625 12.2862548828125 43.7569580078125
-20.452392578125 10.572021484375 6.3961181640625
-0.33447265625 22.2568359375 -33.8492431640625
17.084716796875 10.2823486328125 40.1187744140625
13.366943359375 27.6370849609375 -47.611083984375
10.990478515625 12.0576171875 47.4202880859375
-20.83447265625 6.5582275390625 13.4912109375
19.10498046875 2.5447998046875 51.0118408203125
-14.09521484375 8.0177001953125 15.1456298828125
3.359130859375 29.377197265625 -51.839111328125
14.500732421875 29.2587890625 -51.3843994140625
15.176513671875 19.9173583984375 -26.1717529296875
7.46630859375 25.6041259765625 -41.9696044921875
6.0341796875 2.2279052734375 51.729736328125
16.564453125 6.0291748046875 41.4384765625
-13.4248046875 9.9937744140625 8.7325439453125
14.989013671875 22.5272216796875 -36.29052734375
7.222900390625 16.181396484375 28.8941650390625
3.572265625 25.24365234375 -41.687255859375
-12.453125 7.135498046875 19.9642333984375
4.155517578125 20.8040771484375 -30.376953125
14.517578125 24.709228515625 -40.7938232421875
-3.186767578125 25.7623291015625 -44.097900390625
-6.49658203125 17.4591064453125 -24.4783935546875
18.53955078125 20.41015625 -29.253173828125
3.396240234375 26.0291748046875 -43.9658203125
9.9287109375 8.69775390625 46.75732421875
1.43994140625 32.0372314453125 -54.64892578125
13.1943359375 6.1722412109375 46.326904296875
3.196533203125 17.694580078125 -25.3310546875
-5.395751953125 25.6993408203125 -42.549072265625
7.32861328125 26.51025390625 -44.6387939453125
14.9443359375 4.60791015625 43.8829345703125
-7.321044921875 27.49365234375 -45.4652099609375
22.83154296875 9.2276611328125 35.1500244140625
18.725830078125 25.458740234375 -41.008056640625
-4.82470703125 19.21337890625 -27.7015380859375
-3.861083984375 28.6810302734375 -51.1954345703125
7.694580078125 6.87109375 50.3023681640625
17.29150390625 27.8909912109375 -47.5323486328125
7.6748046875 23.87890625 -38.226318359375
-2.718505859375 32.493408203125 -58.9559326171875
-1.192138671875 25.8609619140625 -42.4598388671875
8.6923828125 20.501953125 -29.50244140625
11.253662109375 26.984375 -45.7218017578125
10.740478515625 22.3956298828125 -35.5924072265625
18.04052734375 26.207763671875 -43.332763671875
16.485107421875 3.5667724609375 52.788330078125
4.39306640625 27.388671875 -47.3402099609375
6.250244140625 28.386962890625 -48.769287109375
-17.39453125 9.4993896484375 14.4697265625
8.21923828125 15.92919921875 31.4698486328125
17.1884765625 28.8155517578125 -49.8177490234375
1.875732421875 27.9688720703125 -48.473876953125
-20.225341796875 7.9696044921875 11.04541015625
0.539306640625 17.397705078125 -21.4385986328125
-6.976318359375 21.8792724609375 -34.46728515625
23.576171875 8.5716552734375 37.18896484375
18.047119140625 8.5458984375 41.0052490234375
-5.48291015625 20.8824462890625 -31.01611328125
17.001953125 23.6611328125 -37.274658203125
17.13134765625 21.7945556640625 -33.5267333984375
7.755126953125 2.5635986328125 46.867431640625
25.022705078125 9.8662109375 33.35498046875
-7.593994140625 23.66162109375 -38.1534423828125
2.956298828125 30.616943359375 -54.4490966796875
24.541015625 11.8740234375 30.410888671875
-0.509033203125 23.0404052734375 -36.121826171875
-21.331298828125 5.17041015625 17.568603515625
1.656494140625 31.9925537109375 -57.835693359375
-7.22021484375 26.5880126953125 -43.2269287109375
-19.754638671875 4.764892578125 24.9302978515625
-22.67529296875 5.6134033203125 13.530029296875
8.234375 22.9981689453125 -36.34912109375
7.12890625 19.193115234375 -27.7615966796875
-2.20947265625 27.0069580078125 -46.6732177734375
7.22802734375 29.224853515625 -8.93603515625
-3.838134765625 24.0999755859375 -40.000732421875
0.69677734375 26.239501953125 -44.7672119140625
-20.06298828125 6.8687744140625 16.0625
-10.392822265625 5.8966064453125 20.208251953125
-10.2919921875 8.8582763671875 10.702392578125
-16.633056640625 10.78271484375 8.3109130859375
7.64794921875 21.5565185546875 -32.980224609375
13.3134765625 23.807861328125 -37.3218994140625
15.51025390625 27.1322021484375 -46.456298828125
-15.897705078125 7.6710205078125 18.20458984375
-5.471435546875 27.9671630859375 -48.9393310546875
15.734130859375 20.84716796875 -32.0999755859375
-18.07177734375 7.74072265625 18.8814697265625
-5.664794921875 24.9903564453125 -40.6807861328125
6.732177734375 14.735107421875 33.5877685546875
-2.1328125 28.181396484375 -48.47900390625
-2.613037109375 20.3092041015625 -31.0447998046875
-5.565673828125 27.5224609375 -46.6302490234375
15.0947265625 4.5130615234375 46.451171875
12.01416015625 20.7747802734375 -30.987548828125
-7.0947265625 31.525634765625 -55.14697265625
-10.406005859375 7.147705078125 16.4171142578125
-6.39208984375 8.6922607421875 -30.0889892578125
-7.579345703125 28.3453369140625 -49.691650390625
16.310546875 26.6336669921875 -44.5035400390625
23.720703125 14.6160888671875 29.7861328125
-5.748779296875 18.20654296875 -26.315185546875
8.40869140625 28.004150390625 -48.0059814453125
9.769287109375 6.040283203125 46.385498046875
11.692626953125 4.045654296875 49.421142578125
14.061279296875 3.1416015625 49.817626953125
10.68896484375 24.4881591796875 -40.0863037109375
4.0087890625 4.115234375 54.2469482421875
12.9111328125 9.995361328125 44.4019775390625
3.801025390625 0.545654296875 53.9755859375
-13.9130859375 5.9871826171875 21.1988525390625
19.6044921875 9.9710693359375 37.6654052734375
19.184326171875 5.387451171875 42.7879638671875
-6.67431640625 19.1671142578125 -27.763916015625
16.74658203125 5.1014404296875 44.62939453125
10.796630859375 30.3309326171875 -52.8563232421875
-22.8623046875 6.76025390625 15.02197265625
-4.093017578125 22.144287109375 -34.3553466796875
2.9580078125 16.9918212890625 -23.05029296875
6.49853515625 30.1497802734375 -52.9051513671875
9.756591796875 4.139892578125 48.3955078125
7.471923828125 5.050537109375 48.87060546875
7.43212890625 29.8265380859375 -10.8887939453125
14.97314453125 30.253173828125 -52.8458251953125
-13.828857421875 8.7210693359375 13.294677734375
10.22802734375 3.5684814453125 46.5545654296875
-21.35498046875 3.601806640625 23.6717529296875
-5.19970703125 29.7218017578125 -52.63330078125
7.741943359375 29.6951904296875 -51.3642578125
17.430908203125 3.7459716796875 51.2060546875
-5.99755859375 19.791259765625 -29.6287841796875
0.312255859375 29.6817626953125 -51.813232421875
-10.1689453125 7.8470458984375 14.1475830078125
-4.65966796875 18.324462890625 -24.6556396484375
-10.09423828125 9.4407958984375 8.81201171875
4.5458984375 1.41064453125 50.8974609375
-12.176513671875 7.951416015625 17.31640625
-4.035888671875 23.5172119140625 -38.109375
-11.69384765625 5.5914306640625 23.7369384765625
9.546630859375 21.6075439453125 -32.926025390625
2.54638671875 20.5283203125 -31.27392578125
-3.800537109375 31.1014404296875 -56.77880859375
0.71337890625 24.0472412109375 -39.9300537109375
-15.771240234375 9.48583984375 11.718505859375
20.952392578125 7.5633544921875 42.285888671875
-4.68896484375 17.8914794921875 -21.5247802734375
20.4404296875 7.7552490234375 40.565185546875
9.838623046875 10.534423828125 50.3232421875
-3.777587890625 26.5169677734375 -45.5758056640625
-18.727294921875 10.2625732421875 8.0518798828125
18.151123046875 4.619140625 47.6446533203125
-19.732177734375 7.688720703125 14.2587890625
-22.656982421875 6.10009765625 16.89794921875
14.484130859375 2.821044921875 51.4896240234375
-3.034912109375 22.680908203125 -36.6358642578125
-21.215087890625 4.168701171875 20.9786376953125
6.434814453125 3.3087158203125 48.6710205078125
9.860595703125 28.2437744140625 -49.1600341796875
2.884521484375 1.5394287109375 52.9027099609375
-1.229248046875 31.7083740234375 -57.4813232421875
-21.736083984375 6.8148193359375 11.063232421875
14.417724609375 6.96630859375 43.661376953125
9.371826171875 9.037841796875 49.3948974609375
-7.18408203125 24.6209716796875 -39.97265625
-6.845458984375 29.9349365234375 -51.8206787109375
0.819091796875 20.7313232421875 -31.28173828125
19.240234375 1.0054931640625 52.2890625
5.101318359375 23.4066162109375 -37.95263671875
5.44677734375 20.782470703125 -31.5574951171875
15.377685546875 4.749755859375 42.2470703125
9.502197265625 23.914306640625 -38.99267578125
19.758544921875 4.2474365234375 46.39404296875
-7.074951171875 11.40380859375 -29.608154296875
22.5458984375 5.5345458984375 47.044921875
-6.0068359375 32.0782470703125 -57.0401611328125
-10.18212890625 4.1944580078125 23.896728515625
-10.989990234375 10.412109375 7.763427734375
19.844970703125 4.6351318359375 50.4176025390625
6.25390625 5.81689453125 51.990478515625
-15.158447265625 10.092041015625 9.052734375
4.451904296875 22.8917236328125 -36.4453125
5.233642578125 24.91796875 -41.71435546875
1.018798828125 24.769287109375 -41.4051513671875
-4.163330078125 29.416259765625 -55.0440673828125
2.110595703125 21.756103515625 -34.2821044921875
12.91943359375 2.4771728515625 52.5189208984375
7.521484375 2.8193359375 54.216064453125
11.612548828125 8.5692138671875 44.7254638671875
-0.292236328125 28.3387451171875 -49.6317138671875
1.688720703125 18.5697021484375 -21.1705322265625
14.135498046875 19.09228515625 -27.17138671875
-5.8251953125 23.4827880859375 -37.3531494140625
18.876953125 22.4241943359375 -34.1917724609375
-3.576416015625 28.145263671875 -49.2918701171875
-12.93701171875 5.62548828125 25.298095703125
-8.43798828125 6.9268798828125 13.6265869140625
5.650390625 18.9547119140625 -27.0399169921875
20.298828125 21.4434814453125 -26.967041015625
0.515869140625 26.916015625 -46.2584228515625
11.0244140625 3.5283203125 50.9200439453125
1.1806640625 19.37890625 -28.301025390625
8.661376953125 28.379638671875 -8.6324462890625
-2.24462890625 24.4892578125 -39.9083251953125
-10.647705078125 8.8446044921875 12.3133544921875
13.74462890625 21.5086669921875 -32.4375
0.33740234375 18.2830810546875 -24.9066162109375
-16.020751953125 5.1510009765625 23.690185546875
-17.823486328125 5.83544921875 24.962646484375
10.850830078125 19.1602783203125 -27.6605224609375
10.55712890625 10.5611572265625 46.936767578125
-18.591064453125 7.802490234375 17.22314453125
0.477294921875 30.25634765625 -54.1134033203125
-5.3798828125 30.3955078125 -54.1177978515625
-21.08642578125 4.6248779296875 19.0721435546875
20.670166015625 1.935302734375 50.98583984375
6.73828125 24.958740234375 -40.478271484375
17.97021484375 21.375244140625 -25.8167724609375
-11.882080078125 10.023681640625 11.292724609375
1.907470703125 23.578369140625 -38.7862548828125
7.177001953125 8.169677734375 52.370849609375
-0.870361328125 24.3922119140625 -39.10107421875
6.911865234375 19.8641357421875 -29.6663818359375
-21.396240234375 7.7408447265625 8.4837646484375
10.1171875 1.68994140625 53.2784423828125
4.070556640625 20.460693359375 -28.82763671875
4.914794921875 3.5714111328125 51.596435546875
24.375732421875 11.38720703125 31.9906005859375
9.65576171875 3.6375732421875 44.80615234375
22.568603515625 12.3480224609375 32.5345458984375
6.096923828125 21.296630859375 -33.06298828125
-6.09375 22.77490234375 -35.487548828125
-22.68603515625 4.74853515625 21.017822265625
-4.103271484375 20.9954833984375 -31.7603759765625
-1.197265625 17.9219970703125 -24.2188720703125
-8.6611328125 5.6568603515625 -31.4964599609375
-7.286376953125 29.5931396484375 -48.7080078125
3.976806640625 24.947509765625 -40.1251220703125
20.174560546875 3.0865478515625 48.2518310546875
2.710693359375 28.8594970703125 -50.3258056640625
18.814208984375 23.468505859375 -36.8648681640625
17.827392578125 3.740234375 44.3333740234375
13.173583984375 24.718994140625 -40.005615234375
12.533447265625 19.6627197265625 -27.926025390625
-12.676025390625 9.0533447265625 14.2762451171875
-19.46875 5.685546875 21.512939453125
-19.069580078125 6.62744140625 19.7454833984375
1.871826171875 31.3262939453125 -55.9425048828125
7.079345703125 2.5335693359375 50.6441650390625
8.518798828125 6.080810546875 48.4244384765625
-2.652099609375 16.755615234375 -22.4793701171875
20.364501953125 10.624755859375 36.1885986328125
3.9365234375 18.0128173828125 -24.035400390625
15.046630859375 6.7554931640625 41.077880859375
17.674560546875 7.0726318359375 41.4107666015625
15.921142578125 29.1673583984375 -50.58203125
-13.406005859375 10.213623046875 7.1561279296875
6.560546875 29.1156005859375 -50.2579345703125
10.329833984375 20.1612548828125 -29.9254150390625
12.192138671875 7.166015625 44.369873046875
8.421630859375 25.7945556640625 -43.131103515625
14.0263671875 28.1588134765625 -49.13671875
-22.93115234375 8.197021484375 8.495361328125
-13.944580078125 7.0137939453125 18.99951171875
11.550048828125 23.1685791015625 -37.060546875
20.49755859375 8.953369140625 38.320556640625
-0.248046875 26.0501708984375 -43.613037109375
19.0859375 12.3619384765625 37.4261474609375
8.638916015625 29.5567626953125 -11.72802734375
1.6748046875 22.983154296875 -37.288818359375
18.77685546875 10.038818359375 38.906005859375
13.673583984375 7.1600341796875 44.93994140625
15.119873046875 3.4501953125 48.722900390625
21.379150390625 4.4844970703125 46.6212158203125
-20.570556640625 9.4122314453125 7.324462890625
12.443115234375 4.8043212890625 47.1397705078125
-22.860595703125 8.1051025390625 10.4976806640625
4.861083984375 28.5853271484375 -50.3505859375
15.749755859375 22.0155029296875 -34.7391357421875
9.41943359375 29.4791259765625 -52.1868896484375
4.21533203125 18.834228515625 -26.700927734375
12.708251953125 27.115966796875 -46.0870361328125
7.470458984375 22.3453369140625 -35.2677001953125
4.69873046875 5.3555908203125 53.8416748046875
10.427734375 21.6689453125 -34.108154296875
20.636474609375 12.829345703125 35.095703125
13.231689453125 20.2979736328125 -29.8233642578125
2.73291015625 27.7117919921875 -47.3074951171875
14.063232421875 22.346923828125 -34.71875
-1.941162109375 25.2100830078125 -41.38037109375
-4.109375 17.4522705078125 -22.79638671875
-3.5166015625 19.19970703125 -28.467529296875
8.438720703125 21.1650390625 -31.818115234375
-2.35205078125 18.4034423828125 -24.968994140625
-13.012939453125 8.2261962890625 16.0946044921875
1.71142578125 17.1322021484375 -22.2574462890625
16.541748046875 4.498046875 46.5875244140625
11.085205078125 28.8345947265625 -49.86376953125
-6.388427734375 21.1260986328125 -32.99169921875
-16.942626953125 10.6732177734375 11.5250244140625
20.80126953125 5.5106201171875 43.8388671875
-3.915283203125 17.5010986328125 -20.3656005859375
-9.62841796875 5.8262939453125 18.60107421875
-4.728271484375 28.61865234375 -50.0228271484375
4.833984375 29.62841796875 -52.5911865234375
-1.287109375 23.4276123046875 -37.272216796875
19.139892578125 21.8651123046875 -32.6522216796875
11.36572265625 2.365478515625 51.8929443359375
-3.925537109375 28.1329345703125 -54.4384765625
-16.04248046875 6.286376953125 20.7044677734375
9.10107421875 3.1368408203125 47.6004638671875
3.229248046875 21.989990234375 -33.411376953125
4.083740234375 24.1412353515625 -38.6514892578125
17.409912109375 19.7454833984375 -26.546142578125
-8.751220703125 7.466796875 11.2811279296875
-10.265625 10.2242431640625 6.5384521484375
8.852294921875 3.8516845703125 51.22705078125
-11.25830078125 5.83984375 21.363037109375
-9.048828125 3.922119140625 22.6763916015625
-12.083251953125 10.8009033203125 8.6051025390625
14.993408203125 20.092041015625 -29.813720703125
-7.238037109375 20.2427978515625 -31.575439453125
18.327392578125 24.5953369140625 -39.5316162109375
4.28173828125 30.6116943359375 -55.24169921875
-4.137939453125 17.97705078125 -27.51025390625
3.592529296875 29.9755859375 -53.3443603515625
0.298583984375 21.61572265625 -32.743408203125
15.29345703125 25.3687744140625 -41.8878173828125
-13.525146484375 5.6796875 22.7928466796875
15.992919921875 25.900390625 -43.005859375
19.7861328125 20.993408203125 -29.931884765625
13.873046875 25.3575439453125 -41.911376953125
-17.49267578125 10.72509765625 9.4630126953125
13.1513671875 25.876708984375 -43.05029296875
17.962646484375 5.055419921875 42.1470947265625
-15.59619140625 11.2017822265625 6.848876953125
11.19921875 25.699951171875 -42.7034912109375
2.001220703125 29.3721923828125 -51.4500732421875
2.044921875 26.1343994140625 -44.3670654296875
3.093017578125 22.8931884765625 -36.071533203125
23.63232421875 9.081298828125 39.9332275390625
8.41455078125 3.792724609375 46.0152587890625
2.94921875 20.229248046875 -29.70703125
22.84814453125 10.1917724609375 34.1243896484375
-22.80419921875 9.460693359375 6.7908935546875
0.12158203125 31.715576171875 -57.875244140625
-18.573486328125 9.0513916015625 13.8671875
-1.569091796875 21.565185546875 -32.7974853515625
13.603515625 7.3780517578125 42.41357421875
4.7578125 1.4364013671875 53.496337890625
16.8447265625 3.8154296875 49.4366455078125
19.398193359375 3.854736328125 44.9481201171875
10.794921875 23.677734375 -38.6051025390625
13.11865234375 29.25390625 -50.991943359375
17.70361328125 24.1923828125 -38.390869140625
10.826904296875 26.1153564453125 -44.6563720703125
-15.45166015625 8.0279541015625 15.052734375
3.51904296875 21.447509765625 -31.4871826171875
4.255859375 25.7698974609375 -42.7938232421875
-3.054443359375 31.757080078125 -57.871826171875
19.584228515625 20.39794921875 -27.999755859375
5.163330078125 22.375244140625 -35.3125
11.02880859375 20.904296875 -32.610107421875
7.941650390625 26.910888671875 -45.7724609375
12.1484375 28.1070556640625 -48.7586669921875
-8.25390625 7.8560791015625 -30.689453125
13.18359375 9.0364990234375 42.8546142578125
5.830322265625 27.5198974609375 -47.7052001953125
-1.434814453125 20.6654052734375 -30.147705078125
11.779296875 29.3673095703125 -50.984375
-21.892333984375 6.354736328125 12.5565185546875
2.6015625 18.454345703125 -26.81982421875
-22.6396484375 5.1890869140625 17.8829345703125
0.10546875 17.6900634765625 -23.414794921875
1.121826171875 27.3143310546875 -47.3858642578125
0.516845703125 19.478759765625 -25.4818115234375
-4.45751953125 25.8876953125 -43.69775390625
12.4091796875 11.5372314453125 44.803955078125
8.6513671875 2.534423828125 52.5247802734375
0.836669921875 21.99267578125 -34.6707763671875
12.9375 3.7744140625 49.033447265625
15.254150390625 19.5347900390625 -28.2796630859375
-22.586181640625 3.8524169921875 23.2327880859375
15.0751953125 26.15185546875 -44.5958251953125
6.162841796875 23.7325439453125 -38.681640625
13.74072265625 29.76513671875 -52.923583984375
13.426513671875 9.6470947265625 41.329833984375
16.198486328125 24.053955078125 -38.4420166015625
-19.216064453125 10.327392578125 6.8197021484375
7.836669921875 16.24853515625 30.2421875
-22.2724609375 3.96923828125 20.031005859375
10.87939453125 5.064208984375 49.646484375
-21.390380859375 9.6827392578125 6.1251220703125
1.8818359375 17.8182373046875 -25.348876953125
9.448486328125 22.6334228515625 -35.9827880859375
17.837158203125 19.8817138671875 -28.1434326171875
21.815185546875 9.882080078125 35.6756591796875
18.411865234375 9.291748046875 39.9564208984375
8.75537109375 25.3695068359375 -41.58544921875
-19.575439453125 8.15087890625 12.7586669921875
-0.79541015625 27.030517578125 -46.2554931640625
13.808837890625 4.779296875 46.4049072265625
22.091552734375 12.199462890625 33.749267578125
11.061279296875 8.2950439453125 45.8853759765625
11.875 24.955078125 -40.392822265625
21.551513671875 8.0755615234375 39.8931884765625
22.19189453125 8.7091064453125 37.1065673828125
20.077392578125 4.4041748046875 49.069580078125
-5.393798828125 22.262939453125 -34.3642578125
-17.078369140625 9.07275390625 16.0201416015625
16.785400390625 2.3929443359375 53.326416015625
-1.355224609375 27.797607421875 -47.3369140625
-15.0361328125 7.72802734375 17.0526123046875
6.447021484375 2.738525390625 53.2176513671875
6.04248046875 3.287109375 49.9100341796875
18.53515625 22.8543701171875 -35.7542724609375
6.078857421875 25.9149169921875 -44.3486328125
-18.55810546875 5.4254150390625 23.9730224609375
13.75537109375 19.912841796875 -26.215087890625
2.862060546875 25.75830078125 -42.816162109375
17.655517578125 20.677978515625 -30.4527587890625
13.817626953125 24.07080078125 -38.88818359375
4.55810546875 19.5643310546875 -27.7669677734375
3.471435546875 1.1026611328125 51.5467529296875
17.177001953125 25.1993408203125 -40.669677734375
8.665283203125 3.7120361328125 49.8756103515625
-7.185546875 28.6864013671875 -46.4669189453125
12.606201171875 22.22119140625 -34.3675537109375
6.614013671875 27.0260009765625 -45.7701416015625
8.34521484375 19.768310546875 -28.4307861328125
-2.15185546875 21.49365234375 -34.0250244140625
4.267333984375 2.458251953125 51.6173095703125
14.631103515625 27.392578125 -47.635986328125
8.9638671875 23.642578125 -37.8385009765625
-3.56396484375 22.4124755859375 -35.495361328125
7.286865234375 2.417724609375 48.06005859375
-12.57958984375 10.5421142578125 10.1458740234375
-11.482421875 8.7930908203125 13.8834228515625
-19.906005859375 8.6795654296875 10.0247802734375
10.801025390625 27.1627197265625 -46.9061279296875
3.81298828125 26.8927001953125 -45.02392578125
26.05908203125 10.061279296875 32.631591796875
5.042724609375 27.9061279296875 -48.853515625
-12.599853515625 6.452392578125 23.4820556640625
23.864501953125 9.4219970703125 34.4293212890625
9.791015625 19.890380859375 -28.7733154296875
-0.10693359375 25.2568359375 -41.742919921875
-12.703125 7.686767578125 18.443115234375
12.9541015625 2.365966796875 53.783935546875
8.804931640625 29.0767822265625 -51.04833984375
-14.523681640625 9.2388916015625 12.149658203125
18.422607421875 25.8980712890625 -42.1597900390625
12.288330078125 21.384033203125 -32.089111328125
5.287353515625 20.3125 -30.032470703125
-7.10595703125 19.3482666015625 -28.9415283203125
-2.876220703125 19.7088623046875 -29.958984375
20.383544921875 6.5584716796875 42.8076171875
15.865234375 27.8765869140625 -47.5489501953125
-6.095947265625 26.2098388671875 -43.6689453125
15.26513671875 23.1387939453125 -37.397216796875
19.305908203125 11.158203125 37.1087646484375
2.7373046875 17.551513671875 -24.1619873046875
-0.5126953125 28.8980712890625 -50.7423095703125
-0.69873046875 17.6466064453125 -21.4332275390625
-9.527587890625 4.9195556640625 20.8421630859375
17.810302734375 2.6971435546875 51.7923583984375
7.09326171875 25.9110107421875 -43.13134765625
9.67626953125 25.5498046875 -43.152587890625
-4.980224609375 29.164794921875 -51.527099609375
-11.39892578125 6.6300048828125 19.5003662109375
-10.968505859375 5.404541015625 22.5069580078125
-2.154541015625 25.8751220703125 -43.269287109375
-9.04052734375 8.935546875 8.348388671875
4.92919921875 21.778564453125 -33.8114013671875
7.1455078125 7.437255859375 51.281005859375
7.297607421875 30.822509765625 -53.6031494140625
15.698486328125 9.456298828125 41.0518798828125
7.03564453125 24.523681640625 -39.338134765625
-3.873291015625 21.5872802734375 -33.2491455078125
-16.423095703125 8.763671875 14.76123046875
-15.465087890625 4.3896484375 24.763671875
0.164794921875 30.3702392578125 -52.906005859375
-15.247314453125 9.75 10.5943603515625
16.509765625 27.119384765625 -45.6383056640625
19.30419921875 8.27490234375 40.610595703125
14.64306640625 5.7801513671875 43.3369140625
14.30224609375 28.7734375 -50.2501220703125
15.633544921875 19.222900390625 -27.103515625
-6.857421875 17.765625 -25.6322021484375
1.071044921875 32.340087890625 -55.8009033203125
13.69287109375 26.1500244140625 -44.2103271484375
12.5107421875 26.6319580078125 -44.9560546875
15.296630859375 5.0003662109375 45.3223876953125
15.16259765625 24.0606689453125 -39.6756591796875
18.887451171875 3.845947265625 50.5169677734375
15.73876953125 3.2694091796875 51.754638671875
-4.53369140625 18.7818603515625 -26.571044921875
23.69970703125 8.93603515625 36.00634765625
-4.39599609375 24.8643798828125 -41.0784912109375
9.4716796875 27.38525390625 -47.689208984375
9.650146484375 26.595947265625 -45.3997802734375
-9.878662109375 7.4122314453125 15.2896728515625
-20.5166015625 5.91845703125 17.007568359375
-5.927978515625 27.824951171875 -47.77685546875
-6.36474609375 25.5010986328125 -41.80126953125
-20.897216796875 4.3323974609375 24.721923828125
3.14990234375 31.09814453125 -55.5738525390625
12.919921875 10.9573974609375 43.38623046875
23.97509765625 13.41259765625 29.9161376953125
4.756103515625 26.03076171875 -44.34765625
16.654541015625 20.6988525390625 -31.2896728515625
1.71240234375 30.85693359375 -54.41943359375
-20.47705078125 7.381591796875 12.0992431640625
6.1435546875 16.079833984375 27.929443359375
15.977294921875 24.729736328125 -40.361328125
-12.781005859375 6.419921875 20.9873046875
-0.700927734375 22.5631103515625 -35.0067138671875
-3.5869140625 26.993896484375 -46.6905517578125
25.1005859375 12.1513671875 29.2371826171875
-3.811767578125 20.56396484375 -30.6298828125
20.004638671875 22.7626953125 -34.515625
13.880126953125 23.03125 -36.22705078125
10.885498046875 24.9705810546875 -41.2138671875
10.197998046875 7.514892578125 46.8642578125
18.16162109375 26.564453125 -44.4906005859375
11.98779296875 27.6339111328125 -47.222900390625
17.41259765625 28.24755859375 -48.6895751953125
-3.9912109375 30.623291015625 -55.6612548828125
9.45556640625 8.5504150390625 47.961669921875
16.75732421875 19.7760009765625 -29.0089111328125
-7.17724609375 29.203125 -50.745361328125
16.010986328125 21.458251953125 -33.205078125
15.114013671875 20.4473876953125 -30.9669189453125
14.011474609375 26.9896240234375 -46.4952392578125
7.088623046875 1.935302734375 49.17822265625
16.14501953125 22.8740234375 -36.207275390625
-1.97802734375 17.2718505859375 -23.5638427734375
-9.4619140625 6.4036865234375 16.2955322265625
8.288818359375 27.6502685546875 -46.857666015625
8.708740234375 7.9024658203125 49.4205322265625
8.31884765625 20.8115234375 -30.6708984375
7.3505859375 21.9921875 -34.1217041015625
19.21435546875 4.698486328125 48.20556640625
5.71044921875 27.1669921875 -46.56005859375
3.9326171875 27.2452392578125 -46.1676025390625
8.3505859375 16.5164794921875 28.6461181640625
2.589111328125 25.044189453125 -40.934326171875
25.706298828125 10.0474853515625 34.32568359375
12.061279296875 5.8504638671875 46.5523681640625
-5.70703125 19.3603515625 -28.500244140625
-19.973876953125 5.85986328125 19.0694580078125
0.98046875 28.1083984375 -49.2578125
0.699951171875 20.3802490234375 -30.1424560546875
8.475341796875 24.5438232421875 -38.906005859375
15.32177734375 3.9371337890625 47.5950927734375
6.878662109375 6.2149658203125 50.883056640625
-21.018798828125 6.092041015625 14.5777587890625
-9.84814453125 6.38330078125 17.494873046875
-16.086669921875 10.2349853515625 7.39990234375
-3.3056640625 25.412353515625 -42.9622802734375
2.64404296875 30.7313232421875 -53.239013671875
-6.35888671875 20.096923828125 -30.7811279296875
-5.031494140625 31.3394775390625 -56.7474365234375
7.32861328125 23.143310546875 -37.14892578125
-10.30078125 3.8448486328125 25.031494140625
-7.101806640625 26.937255859375 -44.3603515625
-13.794677734375 6.3360595703125 20.066650390625
-17.981689453125 6.7276611328125 21.90234375
23.439697265625 12.2872314453125 31.7266845703125
-14.88623046875 7.0509033203125 18.1192626953125
18.780029296875 21.0137939453125 -30.771484375
-13.94970703125 9.7293701171875 9.8582763671875
-6.236328125 26.9991455078125 -45.5299072265625
-18.906005859375 9.58056640625 11.1248779296875
0.395751953125 23.111083984375 -36.89208984375
-2.183349609375 26.9111328125 -45.494384765625
-6.698974609375 28.20703125 -48.9139404296875
22.35400390625 13.6705322265625 32.0126953125
-22.2578125 8.918212890625 5.8883056640625
3.159423828125 0.3800048828125 53.000732421875
20.130859375 2.733154296875 50.30615234375
13.444091796875 21.9466552734375 -33.5853271484375
16.13134765625 30.6123046875 -52.787353515625
-21.438232421875 3.5877685546875 22.4376220703125
9.07958984375 15.8697509765625 30.6680908203125
-14.694580078125 5.1322021484375 23.3787841796875
16.1123046875 4.2113037109375 43.447998046875
-12.91650390625 9.7142333984375 11.96630859375
18.5009765625 4.2591552734375 42.8270263671875
-17.031494140625 5.7706298828125 23.7755126953125
23.099365234375 8.3079833984375 39.2333984375
12.497802734375 6.7161865234375 45.55859375
2.692626953125 0.2347412109375 54.1888427734375
12.242431640625 4.31787109375 48.2659912109375
-1.6240234375 22.697998046875 -36.2039794921875
18.564697265625 6.0592041015625 42.0626220703125
19.8037109375 4.7156982421875 43.51318359375
2.5341796875 19.3739013671875 -28.666259765625
-3.462158203125 18.0687255859375 -25.0675048828125
-2.553955078125 16.7794189453125 -21.2640380859375
-12.460693359375 4.957275390625 24.3321533203125
17.568359375 11.1654052734375 39.549072265625
-18.1728515625 9.9971923828125 12.0914306640625
3.437744140625 3.123779296875 54.30908203125
-9.567626953125 8.6707763671875 9.476806640625
-9.76513671875 8.0885009765625 11.36669921875
24.317138671875 10.413818359375 32.58349609375
-4.92138671875 17.7257080078125 -23.57421875
-7.00537109375 18.44482421875 -26.708740234375
9.360107421875 24.7138671875 -40.877685546875
6.849853515625 20.896484375 -32.30908203125
7.83935546875 25.2969970703125 -40.8067626953125
7.65283203125 28.40185546875 -48.75439453125
16.99755859375 26.1029052734375 -43.769287109375
-6.48193359375 31.0882568359375 -55.9967041015625
-22.195556640625 2.85302734375 23.8116455078125
4.189208984375 18.2894287109375 -22.7598876953125
10.470947265625 5.727294921875 45.501708984375
-14.228271484375 10.2720947265625 7.9332275390625
-14.213623046875 7.6689453125 16.27734375
17.03369140625 9.3135986328125 40.701171875
-22.1162109375 4.429443359375 18.5374755859375
3.642333984375 27.78515625 -48.0859375
1.05712890625 21.4334716796875 -33.5601806640625
2.07275390625 25.0953369140625 -42.1351318359375
12.28076171875 23.7064208984375 -37.7640380859375
6.123779296875 20.255859375 -30.827880859375
-8.859375 4.3931884765625 21.5789794921875
-11.16162109375 7.329345703125 17.230712890625
-5.977294921875 31.0433349609375 -54.8172607421875
-0.896728515625 27.9404296875 -48.5042724609375
-6.825439453125 27.752197265625 -47.0048828125
17.768310546875 23.2579345703125 -36.5147705078125
16.55224609375 27.34619140625 -46.815673828125
-3.096435546875 23.70458984375 -39.2564697265625
4.184326171875 29.1099853515625 -51.0755615234375
1.85400390625 18.8538818359375 -27.5733642578125
-4.924560546875 24.595703125 -39.9373779296875
-1.90576171875 20.8372802734375 -31.733154296875
15.388427734375 5.7021484375 41.235595703125
6.11083984375 19.09814453125 -28.2125244140625
-3.797119140625 32.149169921875 -58.6080322265625
-6.895751953125 23.1510009765625 -37.0330810546875
16.775390625 21.0546875 -32.444580078125
-1.901611328125 32.229736328125 -58.201171875
-4.896728515625 27.001708984375 -45.91015625
11.772705078125 22.6038818359375 -35.939208984375
18.054931640625 21.6468505859375 -32.716552734375
20.423095703125 4.0439453125 44.238525390625
-6.077392578125 18.09765625 -23.541259765625
20.97021484375 3.50537109375 48.8890380859375
5.877197265625 4.4708251953125 51.1112060546875
7.62158203125 6.022216796875 49.608154296875
15.54248046875 3.5035400390625 53.5384521484375
-21.07861328125 8.4486083984375 7.4639892578125
2.89208984375 28.1812744140625 -48.8310546875
11.53564453125 22.0037841796875 -34.4293212890625
-20.62353515625 4.3336181640625 21.883544921875
-16.988525390625 11.092041015625 7.1424560546875
-23.0654296875 6.61279296875 12.9447021484375
8.018798828125 15.4383544921875 32.6038818359375
6.197509765625 1.8780517578125 50.354248046875
-6.516845703125 24.1005859375 -39.2523193359375
4.021484375 18.3564453125 -25.58447265625
-21.921142578125 5.0047607421875 16.67041015625
6.406005859375 25.38330078125 -42.0218505859375
-20.817138671875 7.80029296875 10.1539306640625
-0.086669921875 17.2142333984375 -22.3031005859375
5.975830078125 30.196044921875 -54.09912109375
-22.697021484375 6.7369384765625 10.5751953125
-5.004638671875 19.8861083984375 -29.1842041015625
16.14501953125 28.599853515625 -49.455078125
-4.221435546875 30.0289306640625 -54.1658935546875
9.4951171875 2.44384765625 45.72021484375
9.637939453125 28.80810546875 -50.280517578125
19.443603515625 21.4246826171875 -31.498046875
17.79248046875 22.205322265625 -34.254150390625
-2.90234375 28.67041015625 -50.397216796875
-5.773681640625 21.313232421875 -32.1451416015625
7.00439453125 27.9896240234375 -48.0218505859375
1.015625 31.5797119140625 -57.10009765625
0.760986328125 32.1280517578125 -58.6107177734375
20.10791015625 21.836181640625 -32.2257080078125
2.06884765625 28.4488525390625 -49.5953369140625
-11.785888671875 6.6097412109375 20.7008056640625
-11.0693359375 11.2149658203125 6.72509765625
22.51123046875 11.2589111328125 33.9580078125
2.751708984375 22.1612548828125 -35.0003662109375
22.05712890625 4.890380859375 45.9403076171875
-0.64990234375 23.833251953125 -37.990966796875
15.697509765625 29.73486328125 -51.7091064453125
-6.388916015625 30.0771484375 -52.9830322265625
-1.337890625 22.1585693359375 -34.2901611328125
-2.843994140625 23.1568603515625 -37.7484130859375
17.47802734375 4.2144775390625 48.3223876953125
-1.96435546875 28.3326416015625 -54.006103515625
10.44189453125 9.6954345703125 45.806640625
-6.79736328125 25.677734375 -42.9705810546875
14.443359375 5.9013671875 45.9366455078125
14.942138671875 8.191162109375 41.05078125
20.644775390625 8.246337890625 39.4283447265625
6.5263671875 22.373291015625 -35.6861572265625
-7.60498046875 21.4776611328125 -33.755615234375
16.355224609375 4.8184814453125 41.9287109375
9.533203125 7.109375 47.5404052734375
-19.5078125 9.62158203125 8.252685546875
9.8974609375 3.2108154296875 51.138916015625
6.795654296875 29.7159423828125 -51.767578125
-22.020751953125 5.8997802734375 14.4581298828125
-18.715576171875 6.3162841796875 20.9183349609375
16.82275390625 8.0926513671875 41.1947021484375
-14.824951171875 6.0308837890625 20.7301025390625
8.3408203125 2.953125 45.3314208984375
-5.8671875 17.8577880859375 -25.1834716796875
11.2841796875 20.2401123046875 -30.2913818359375
13.932861328125 2.548828125 52.645751953125
13.510498046875 2.8695068359375 50.9732666015625
7.57568359375 3.2847900390625 51.3533935546875
-14.720703125 8.6578369140625 14.035400390625
-19.115478515625 5.3741455078125 22.685791015625
9.29833984375 2.7901611328125 46.65966796875
2.405517578125 31.5985107421875 -57.095458984375
-12.621337890625 10.749267578125 7.74169921875
9.1123046875 15.7650146484375 31.9266357421875
-1.377197265625 21.5123291015625 -29.5908203125
-15.845703125 6.866943359375 18.820556640625
-21.041259765625 5.8720703125 16.1444091796875
10.964599609375 4.69873046875 47.39306640625
-4.548095703125 27.9449462890625 -48.537841796875
-22.8056640625 5.9639892578125 15.634765625
2.96142578125 21.385009765625 -32.317626953125
-13.470947265625 8.4097900390625 14.46923828125
10.90625 29.6248779296875 -52.1566162109375
12.19287109375 25.7933349609375 -42.673828125
16.447021484375 28.162109375 -48.3074951171875
6.83984375 2.7603759765625 51.976318359375
17.760009765625 25.48388671875 -41.4254150390625
17.300048828125 25.6644287109375 -42.619873046875
-20.740234375 5.3365478515625 18.4688720703125
-18.151123046875 8.86328125 15.0736083984375
23.119384765625 14.3297119140625 30.525146484375
2.757080078125 30.0299072265625 -52.5438232421875
0.426025390625 28.982666015625 -51.1207275390625
7.710693359375 29.79052734375 -52.5513916015625
12.73486328125 23.5252685546875 -36.5712890625
10.225341796875 26.8792724609375 -46.152587890625
-2.793701171875 24.424072265625 -40.72607421875
-4.64501953125 17.0770263671875 -20.87744140625
20.9619140625 10.907958984375 35.455810546875
10.7841796875 22.6221923828125 -36.764892578125
-20.511474609375 4.3531494140625 23.5313720703125
1.252685546875 29.7672119140625 -52.1927490234375
3.881103515625 28.48974609375 -50.3724365234375
21.351318359375 5.0899658203125 47.664794921875
19.8447265625 7.4742431640625 41.2939453125
-14.099853515625 5.1884765625 25.0875244140625
8.296630859375 21.9637451171875 -33.701171875
17.275634765625 26.7178955078125 -44.8826904296875
18.54833984375 7.739501953125 41.25146484375
21.4052734375 8.898193359375 37.9537353515625
-6.99462890625 25.09619140625 -41.0830078125
3.407470703125 24.6666259765625 -39.37890625
7.74560546875 20.5318603515625 -29.92724609375
13.1259765625 21.1090087890625 -31.305419921875
1.262939453125 26.5203857421875 -45.513916015625
0.3515625 25.3997802734375 -42.9107666015625
-0.049560546875 26.63525390625 -45.51171875
-14.536865234375 5.5970458984375 21.8702392578125
16.064208984375 6.83154296875 41.193359375
15.26171875 28.7515869140625 -49.8427734375
12.159912109375 20.0828857421875 -29.890869140625
-1.2626953125 28.2437744140625 -49.6541748046875
23.645751953125 12.781494140625 30.5828857421875
11.027587890625 9.132080078125 45.2657470703125
19.212890625 1.8372802734375 51.674072265625
21.778564453125 7.2645263671875 42.7088623046875
9.96728515625 10.2791748046875 47.6611328125
12.6689453125 8.76806640625 44.4527587890625
11.258056640625 24.55419921875 -39.2579345703125
17.387939453125 3.509033203125 52.4300537109375
4.690673828125 6.07666015625 54.49462890625
-6.58056640625 28.5562744140625 -50.0469970703125
23.99267578125 14.3836669921875 28.88232421875
15.14794921875 2.9918212890625 52.474609375
19.486572265625 4.472900390625 47.29931640625
7.474853515625 19.92529296875 -28.8310546875
13.143798828125 28.2030029296875 -48.7349853515625
14.148193359375 6.8114013671875 41.4407958984375
14.77392578125 26.5892333984375 -45.7420654296875
-2.87353515625 27.634765625 -48.172607421875
17.553955078125 4.1087646484375 50.02880859375
11.418212890625 4.269775390625 50.322998046875
-1.41259765625 26.419921875 -43.5699462890625
-4.154296875 23.1676025390625 -36.974609375
7.036865234375 16.0286865234375 27.56005859375
17.17431640625 4.8970947265625 45.47265625
17.00927734375 4.03857421875 43.9124755859375
18.09912109375 3.5159912109375 43.4329833984375
-4.833740234375 22.540283203125 -35.1016845703125
14.505126953125 4.2353515625 47.172607421875
-2.447265625 26.30615234375 -44.399169921875
8.199462890625 26.3580322265625 -44.25
1.686767578125 24.13818359375 -39.89794921875
-1.65283203125 16.846923828125 -22.02490234375
-13.0576171875 5.6046142578125 23.6331787109375
8.773193359375 26.640869140625 -45.00146484375
0.851318359375 17.290283203125 -22.659912109375
9.746826171875 22.197265625 -34.83984375
-6.095947265625 21.73486328125 -33.675048828125
9.194580078125 20.7637939453125 -31.0616455078125
2.536376953125 22.8292236328125 -36.896728515625
-10.410400390625 9.5439453125 10.0438232421875
21.098388671875 12.009765625 34.9088134765625
19.52490234375 21.6295166015625 -26.1337890625
13.02783203125 19.596923828125 -27.1102294921875
3.462158203125 1.8128662109375 52.191650390625
6.283203125 2.23193359375 48.7587890625
-2.09326171875 31.750244140625 -57.08056640625
22.500732421875 8.02587890625 39.9644775390625
-3.006103515625 21.64794921875 -34.4173583984375
15.616455078125 5.619384765625 44.6734619140625
-10.678466796875 4.968994140625 23.6512451171875
-5.384521484375 18.9378662109375 -26.96826171875
-3.28662109375 17.8204345703125 -27.11376953125
-0.046142578125 20.7786865234375 -30.893798828125
-6.5068359375 20.77734375 -31.8599853515625
5.43017578125 1.3526611328125 50.543212890625
-2.916748046875 26.4725341796875 -45.9698486328125
25.559326171875 11.102783203125 30.7164306640625
-4.738525390625 27.468017578125 -47.4232177734375
-4.166015625 25.457275390625 -42.56982421875
23.7998046875 10.2586669921875 33.3603515625
-4.895263671875 23.5631103515625 -37.7197265625
23.059326171875 8.4171142578125 37.964111328125
10.706787109375 25.7611083984375 -43.5067138671875
22.7080078125 8.863525390625 36.3319091796875
-4.67138671875 20.611328125 -30.2437744140625
-15.07763671875 8.96875 12.8621826171875
8.964599609375 3.1483154296875 51.8846435546875
21.425537109375 12.6396484375 34.2459716796875
21.90283203125 12.788330078125 33.031005859375
15.479248046875 24.7918701171875 -41.16943359375
24.43505859375 12.591796875 29.7330322265625
9.481689453125 4.363525390625 49.294921875
-10.8671875 9.401611328125 11.2071533203125
-10.05029296875 8.19677734375 13.0128173828125
21.99951171875 13.77294921875 32.8753662109375
20.51220703125 9.91650390625 37.298095703125
15.048828125 21.3780517578125 -32.83544921875
14.60693359375 6.3839111328125 44.37060546875
13.371337890625 25.20263671875 -41.135986328125
24.729248046875 11.2855224609375 31.1295166015625
-5.13330078125 18.39013671875 -25.46044921875
9.01708984375 9.1383056640625 50.2547607421875
15.874755859375 19.9342041015625 -29.41162109375
18.390380859375 2.02099609375 52.078857421875
17.2978515625 2.544921875 52.5595703125
5.763427734375 28.4459228515625 -49.56494140625
12.9501953125 8.77001953125 41.894775390625
8.008056640625 29.037353515625 -9.7760009765625
7.8447265625 28.5560302734375 -8.2138671875
18.503662109375 4.519775390625 46.7850341796875
8.906982421875 28.158935546875 -48.780029296875
12.788818359375 21.5377197265625 -32.8612060546875
13.52880859375 19.750244140625 -27.881591796875
12.73095703125 20.14453125 -29.0518798828125
12.30908203125 3.3770751953125 50.1429443359375
16.889892578125 4.167724609375 47.386474609375
1.943359375 27.0462646484375 -46.620849609375
6.349365234375 23.160888671875 -37.9700927734375
16.19384765625 4.828125 45.7889404296875
7.54150390625 19.833984375 -27.2261962890625
14.02099609375 6.830322265625 45.7386474609375
-11.7431640625 6.398193359375 23.121826171875
14.546875 21.2242431640625 -32.0621337890625
8.871826171875 5.981689453125 47.569580078125
9.2294921875 1.8636474609375 52.808837890625
8.104248046875 2.263671875 53.675048828125
14.183837890625 3.5028076171875 48.6453857421875
7.99169921875 2.9658203125 53.0189208984375
14.462158203125 23.42236328125 -37.77001953125
19.74267578125 23.431396484375 -36.8526611328125
11.287353515625 5.54541015625 45.0972900390625
25.28857421875 11.5626220703125 29.956298828125
10.10888671875 4.0413818359375 47.5419921875
6.965576171875 4.89892578125 49.6331787109375
4.73828125 24.764404296875 -40.945068359375
25.06396484375 10.102783203125 32.12939453125
10.624267578125 1.8408203125 52.5167236328125
8.52978515625 2.37744140625 46.033447265625
9.610107421875 1.5390625 54.0399169921875
-12.9912109375 7.08740234375 19.0892333984375
4.578857421875 24.2945556640625 -39.4200439453125
