23.251220703125 9.0238037109375 -42.727783203125
8.75146484375 -14.278076171875 49.77978515625
11.3974609375 17.9537353515625 -6.47314453125
4.608642578125 35.643310546875 -40.475341796875
7.37353515625 18.396728515625 -7.3388671875
12.599609375 19.1368408203125 -9.865478515625
-20.857177734375 -13.73583984375 18.4166259765625
5.5390625 14.433837890625 2.5556640625
-15.5771484375 7.8040771484375 19.037841796875
-28.992431640625 -10.270751953125 12.2783203125
4.04296875 34.134521484375 -31.005859375
-10.91552734375 -4.386474609375 18.9803466796875
-0.9345703125 12.705810546875 -57.300537109375
-13.42333984375 7.3021240234375 23.0914306640625
11.915771484375 13.08447265625 -58.4937744140625
10.58203125 0.51904296875 28.9439697265625
25.31689453125 7.315185546875 -31.7696533203125
4.87109375 10.18212890625 -50.18896484375
7.33984375 15.896728515625 -11.0335693359375
0.69384765625 15.5579833984375 -60.0045166015625
-12.130859375 -11.435302734375 19.0859375
15.778564453125 -13.3824462890625 48.8880615234375
-18.225341796875 2.4010009765625 24.61376953125
3.403076171875 4.892578125 25.508056640625
21.346923828125 15.3294677734375 52.39599609375
23.158447265625 10.3416748046875 -46.6588134765625
24.169677734375 -8.30029296875 39.5389404296875
-3.69091796875 5.28466796875 -37.8419189453125
-23.581298828125 -12.958251953125 18.5985107421875
12.827880859375 6.6666259765625 -41.5159912109375
11.819091796875 11.709716796875 12.3533935546875
8.52880859375 4.959228515625 32.8392333984375
20.177978515625 8.220458984375 -44.169189453125
9.59765625 -0.1890869140625 25.2869873046875
5.05615234375 3.8675537109375 30.3330078125
14.33154296875 20.8604736328125 -17.7607421875
5.6904296875 11.1669921875 12.93359375
32.602294921875 -5.320068359375 28.1917724609375
-23.446044921875 -4.746337890625 16.18994140625
-17.240234375 -5.57421875 19.982177734375
26.49267578125 -7.56982421875 36.0062255859375
22.13330078125 6.7108154296875 -39.5338134765625
-22.822998046875 -11.216064453125 16.1295166015625
10.93798828125 8.5416259765625 -45.871826171875
-9.448486328125 6.996337890625 24.774169921875
-1.92333984375 -1.1029052734375 49.059326171875
0.236328125 11.4974365234375 -53.0791015625
16.856689453125 -12.695556640625 46.140869140625
21.7451171875 4.8546142578125 -34.7154541015625
-11.696044921875 -5.7689208984375 21.246337890625
1.70654296875 11.5399169921875 11.650390625
-21.4423828125 -6.08154296875 20.1959228515625
-9.40185546875 -11.2607421875 17.4808349609375
7.671875 14.55517578125 -17.462158203125
-3.158447265625 4.0712890625 -35.1746826171875
-2.736328125 12.0177001953125 -55.898193359375
15.812255859375 8.7518310546875 26.3258056640625
-2.4716796875 6.0870361328125 -40.17138671875
8.683349609375 12.14501953125 10.85595703125
-34.794921875 -13.68798828125 15.3564453125
-19.74365234375 -12.998779296875 13.5872802734375
-33.002197265625 -8.467529296875 5.56103515625
-27.102783203125 -3.944580078125 21.7083740234375
31.068603515625 -3.468017578125 21.064697265625
12.25146484375 3.8087158203125 30.3079833984375
-30.6337890625 -11.7091064453125 16.6737060546875
-5.9296875 33.29345703125 -46.90478515625
7.7861328125 -13.7091064453125 47.4952392578125
1.866943359375 11.7493896484375 -55.2374267578125
20.260009765625 -9.546142578125 48.5206298828125
2.378662109375 10.3714599609375 15.459228515625
12.97119140625 12.3040771484375 9.8807373046875
3.6708984375 8.4713134765625 -45.685791015625
26.837158203125 -5.9544677734375 27.3392333984375
-16.90087890625 5.2276611328125 24.8238525390625
-20.67626953125 -11.374267578125 19.946533203125
-16.396240234375 -9.80029296875 19.15673828125
5.10009765625 5.266845703125 31.9892578125
-1.742431640625 -3.2108154296875 53.5234375
-3.893798828125 10.841064453125 -52.213623046875
6.731689453125 3.8958740234375 -34.287841796875
20.055908203125 20.3997802734375 -14.1787109375
-31.4111328125 -11.407958984375 19.4766845703125
18.5205078125 25.6658935546875 -30.6297607421875
-30.518310546875 -7.497314453125 4.484375
-26.42626953125 -9.447509765625 17.8541259765625
21.7099609375 -11.803955078125 39.3797607421875
4.618896484375 13.2196044921875 -57.888427734375
6.114501953125 4.262939453125 35.0330810546875
-19.246826171875 -9.98876953125 4.294921875
6.70556640625 37.0911865234375 -36.9547119140625
-13.6748046875 -4.56689453125 17.307373046875
11.52587890625 -14.3861083984375 49.2855224609375
-10.77001953125 8.5865478515625 19.0732421875
-3.390869140625 8.6131591796875 13.221923828125
8.7197265625 14.0892333984375 -11.377197265625
-3.59765625 4.3184814453125 34.6395263671875
15.9794921875 8.0614013671875 -44.6669921875
11.19921875 11.9879150390625 -54.413330078125
-27.655517578125 -3.5250244140625 17.4007568359375
-4.16650390625 6.3240966796875 27.300537109375
-16.079345703125 6.5858154296875 23.0498046875
2.56103515625 19.9384765625 -9.115234375
-15.09814453125 -4.9757080078125 19.6934814453125
-6.34814453125 -10.4322509765625 14.05322265625
5.265625 -0.8546142578125 25.562744140625
-34.4501953125 -10.2247314453125 8.7310791015625
0.7900390625 -0.1990966796875 46.329833984375
-11.851806640625 -9.3404541015625 18.4205322265625
-28.998779296875 -8.6993408203125 7.657470703125
4.88720703125 6.448486328125 21.1522216796875
9.19970703125 2.7689208984375 31.4105224609375
-2.073974609375 3.401611328125 -32.455322265625
-1.976318359375 33.3646240234375 -48.9481201171875
3.432861328125 5.9727783203125 -39.4117431640625
-34.255859375 -2.183837890625 19.0582275390625
-19.16943359375 -0.79296875 24.52197265625
-20.5283203125 -11.4141845703125 11.9813232421875
25.229248046875 -6.4217529296875 29.2799072265625
15.445068359375 25.7901611328125 -29.484619140625
17.046875 -12.1085205078125 39.09521484375
10.162353515625 -13.169921875 45.8907470703125
-6.65771484375 8.251953125 21.7037353515625
15.05029296875 20.8765869140625 -15.3751220703125
16.12890625 -11.7357177734375 41.3612060546875
-33.751708984375 -2.5704345703125 14.4476318359375
-18.733642578125 -11.1390380859375 9.55517578125
8.70068359375 14.7720947265625 2.6944580078125
8.907958984375 5.439453125 -37.77880859375
21.47607421875 18.999755859375 -10.707275390625
7.291259765625 -15.7413330078125 43.1854248046875
0.208984375 12.9527587890625 7.8621826171875
-27.04248046875 -11.42138671875 18.5445556640625
20.3056640625 -11.85546875 41.9388427734375
-2.99755859375 14.5811767578125 -62.2977294921875
2.7890625 7.4324951171875 23.4688720703125
15.04638671875 10.32470703125 -49.511962890625
17.813720703125 9.7760009765625 -48.244384765625
-29.563232421875 -4.8448486328125 19.889404296875
11.243896484375 17.30615234375 -10.6204833984375
0.766357421875 9.5557861328125 17.6307373046875
-17.6728515625 -12.6048583984375 16.2108154296875
-33.187744140625 -11.3055419921875 12.8038330078125
0.95703125 10.9228515625 13.560791015625
-2.025634765625 6.0142822265625 27.94873046875
4.2412109375 11.4757080078125 -54.033203125
-28.964111328125 -5.9410400390625 16.5811767578125
2.386962890625 2.789794921875 37.8360595703125
-34.54638671875 -10.8662109375 17.07861328125
5.704345703125 16.73583984375 -3.6136474609375
2.70849609375 15.089599609375 -0.1339111328125
11.378662109375 -10.4617919921875 37.1951904296875
-6.90869140625 9.197265625 18.4453125
18.02880859375 4.34326171875 -34.59326171875
19.256103515625 7.3687744140625 -42.39453125
-0.506591796875 8.707275390625 -46.944580078125
12.20458984375 16.4228515625 -16.4312744140625
6.3232421875 16.00439453125 -0.8856201171875
-23.50830078125 -9.564208984375 18.2220458984375
8.328125 6.45361328125 -40.8524169921875
-10.201171875 33.9984130859375 -52.2708740234375
-0.37255859375 7.3468017578125 -43.519775390625
18.369140625 6.04150390625 -39.3074951171875
13.28857421875 13.3758544921875 6.8433837890625
14.73681640625 15.5364990234375 3.980224609375
-5.723388671875 -7.649169921875 8.20068359375
3.93115234375 4.4742431640625 -32.4229736328125
2.041015625 4.8955078125 -37.9239501953125
-4.64306640625 5.826904296875 30.8984375
-28.31103515625 -6.906494140625 1.7550048828125
-0.668212890625 5.5799560546875 -39.252685546875
6.895263671875 14.7662353515625 -61.0247802734375
7.447998046875 17.2615966796875 -4.760986328125
11.271728515625 3.5433349609375 -33.074462890625
16.686279296875 21.81005859375 -18.7891845703125
-13.4013671875 -7.712890625 7.5206298828125
-0.516357421875 4.3955078125 -35.9876708984375
0.787353515625 9.4400634765625 -48.7586669921875
3.6025390625 15.872802734375 -16.2603759765625
4.97998046875 14.8245849609375 -61.681884765625
0.730712890625 5.063720703125 -34.085205078125
8.748046875 17.7781982421875 -9.8231201171875
3.836181640625 14.0684814453125 3.595703125
17.6953125 13.22265625 -56.729736328125
10.129638671875 -14.1202392578125 40.0673828125
16.130859375 4.4871826171875 -35.791259765625
24.257080078125 -8.854248046875 37.5042724609375
-15.7705078125 -8.7734375 10.0240478515625
1.976318359375 -2.07470703125 48.7359619140625
-10.7451171875 7.4599609375 27.1600341796875
8.980712890625 3.5706787109375 -33.5894775390625
28.12255859375 -7.5150146484375 31.0616455078125
-3.23828125 34.2637939453125 -45.3994140625
16.51025390625 20.6890869140625 -14.0675048828125
0.1923828125 1.41064453125 -28.7454833984375
25.005615234375 11.85009765625 -27.0206298828125
-3.41748046875 2.49072265625 -31.093994140625
13.091796875 14.606689453125 2.8314208984375
3.4736328125 15.251953125 -59.406494140625
3.759765625 7.3524169921875 -42.928955078125
-25.792236328125 -10.140625 14.334228515625
-9.513916015625 -5.8162841796875 2.302001953125
-19.553955078125 -7.1185302734375 23.1148681640625
-1.86279296875 3.260986328125 36.6273193359375
-11.681396484375 33.199462890625 -48.202880859375
-7.310302734375 7.1517333984375 28.011474609375
-22.447509765625 -4.44970703125 20.0460205078125
-3.154541015625 10.216064453125 16.20751953125
13.29736328125 -11.424072265625 41.32958984375
-3.360595703125 -2.4825439453125 52.6263427734375
32.583251953125 -3.6893310546875 19.44580078125
13.242431640625 17.8974609375 -5.840087890625
4.67626953125 1.81884765625 -29.0003662109375
-3.744140625 9.46337890625 -48.7459716796875
-23.58154296875 -7.7059326171875 3.5399169921875
8.23681640625 0.47314453125 23.3712158203125
17.076904296875 19.3759765625 -10.457275390625
3.25537109375 13.07958984375 7.6419677734375
4.089599609375 12.906982421875 -14.757080078125
2.621826171875 9.1839599609375 19.3358154296875
13.79833984375 16.8551025390625 -2.9241943359375
2.668212890625 9.3826904296875 -48.11328125
21.720458984375 5.9599609375 -37.431884765625
-7.63818359375 -7.9964599609375 6.8916015625
16.112548828125 23.1466064453125 -22.470947265625
24.081787109375 10.7152099609375 -42.859375
-15.765625 -8.0831298828125 18.610107421875
7.48193359375 3.3211669921875 -30.5203857421875
-4.8349609375 4.0169677734375 -34.231689453125
-16.939697265625 -6.4775390625 1.4044189453125
22.41015625 15.2393798828125 54.5040283203125
24.06103515625 6.0123291015625 -32.289794921875
23.259521484375 8.140625 -40.6334228515625
-3.868408203125 34.4122314453125 -43.189453125
-21.97216796875 -10.22509765625 12.138427734375
4.3623046875 11.0430908203125 -52.19140625
-26.8671875 -5.61865234375 16.43359375
-2.388671875 10.2611083984375 -50.0894775390625
13.845458984375 12.7755126953125 -57.1488037109375
-25.232177734375 -9.1788330078125 11.351318359375
-18.009765625 -12.824462890625 20.122802734375
-4.11572265625 8.1973876953125 21.6796875
-30.87158203125 -4.556396484375 16.2730712890625
2.605224609375 0.082275390625 47.201171875
-12.790771484375 7.8404541015625 20.80859375
-12.347412109375 -8.3175048828125 9.9891357421875
-25.2373046875 -7.8701171875 6.860595703125
-28.418701171875 -8.2132568359375 5.3626708984375
6.836669921875 8.9931640625 -46.754150390625
14.8681640625 -10.162841796875 38.1700439453125
2.985107421875 3.438232421875 -31.085205078125
4.21337890625 33.5472412109375 -28.617431640625
17.742919921875 11.412353515625 -52.414306640625
-14.897216796875 -10.9237060546875 19.4130859375
12.945068359375 5.230712890625 -37.5614013671875
-8.522216796875 -3.81689453125 20.5338134765625
14.932861328125 11.40625 -52.809814453125
-9.621826171875 7.6192626953125 22.623779296875
11.71435546875 10.873046875 -51.71533203125
-2.154052734375 11.615966796875 -54.180908203125
24.343994140625 -8.083740234375 32.5523681640625
-16.737548828125 -9.9755859375 13.69921875
15.412841796875 -12.6727294921875 44.1796875
-15.89111328125 -8.135498046875 8.2879638671875
6.335205078125 13.912109375 -16.3077392578125
31.484619140625 -5.8939208984375 26.8309326171875
-16.8994140625 -11.254150390625 17.21240234375
-19.853759765625 -13.8551025390625 16.8660888671875
5.3779296875 3.127685546875 -33.00634765625
8.05908203125 10.71142578125 -51.275146484375
20.853271484375 4.171142578125 -33.078125
-13.642578125 6.143310546875 26.048583984375
5.9873046875 7.1121826171875 -42.7884521484375
1.956787109375 6.5377197265625 -41.4901123046875
-7.861328125 -9.436279296875 10.5533447265625
0.47216796875 8.0418701171875 -45.1922607421875
-7.43115234375 9.8603515625 16.7958984375
15.928466796875 24.888916015625 -27.5303955078125
-33.4775390625 -3.587646484375 20.0791015625
28.4052734375 -6.759765625 27.869873046875
-15.41748046875 -6.0150146484375 2.744873046875
-7.702880859375 6.800048828125 25.4505615234375
19.26904296875 24.0635986328125 -24.704345703125
-12.01171875 -10.2200927734375 15.159423828125
-22.025146484375 -8.22412109375 6.34423828125
16.11572265625 6.1309814453125 -39.354736328125
6.363525390625 35.142333984375 -40.5924072265625
2.120849609375 34.212158203125 -43.381103515625
4.670166015625 34.4698486328125 -41.9671630859375
1.867431640625 36.0089111328125 -40.5919189453125
-1.298828125 35.4345703125 -42.7567138671875
9.59423828125 8.0537109375 -44.7327880859375
9.18359375 -1.2935791015625 27.3037109375
18.83740234375 5.2032470703125 -37.360595703125
12.463134765625 6.0677490234375 -39.505615234375
15.61669921875 6.821533203125 -41.21533203125
1.617431640625 5.1495361328125 31.3504638671875
-4.228515625 7.2889404296875 25.443115234375
15.18896484375 5.14111328125 -37.5133056640625
-0.662353515625 0.9625244140625 42.9244384765625
-4.34033203125 9.2877197265625 18.343994140625
3.48486328125 16.5338134765625 -14.5654296875
-1.87939453125 34.1575927734375 -53.2366943359375
1.364990234375 3.7828369140625 34.8193359375
11.36572265625 16.6455078125 -12.313720703125
-1.230224609375 4.5074462890625 33.152099609375
-32.85205078125 -9.2386474609375 7.3724365234375
7.42138671875 11.43505859375 12.4395751953125
6.506591796875 6.421875 -40.9268798828125
5.650146484375 5.733154296875 -39.2708740234375
-4.36865234375 13.2852783203125 -56.28466796875
15.33447265625 18.7454833984375 -8.7412109375
-12.62890625 9.61962890625 16.5679931640625
19.275390625 20.0435791015625 -12.29736328125
9.48291015625 13.4052734375 -15.2119140625
3.11279296875 14.787353515625 -61.746826171875
-16.720458984375 -6.0430908203125 18.2384033203125
2.84912109375 13.401123046875 -57.5706787109375
10.086181640625 7.2069091796875 -42.7645263671875
-11.893798828125 33.791748046875 -50.6646728515625
7.0478515625 -0.3734130859375 29.156982421875
-21.30908203125 -6.3006591796875 18.409912109375
17.550537109375 -12.8448486328125 37.5286865234375
14.768798828125 13.6376953125 11.7557373046875
-1.89306640625 11.12158203125 11.1666259765625
30.534423828125 -4.8426513671875 32.0889892578125
1.0400390625 -1.64208984375 50.51416015625
-26.153564453125 -12.8797607421875 17.716064453125
4.22021484375 17.9556884765625 -6.925537109375
3.52880859375 -17.15966796875 48.141845703125
-2.581787109375 7.195068359375 -42.9027099609375
-18.36083984375 -8.279296875 21.1268310546875
2.944091796875 4.5616455078125 32.752197265625
-9.508056640625 -9.047119140625 13.542236328125
-30.453125 -3.2288818359375 20.6546630859375
7.357177734375 12.52197265625 -12.75146484375
-17.765625 -10.8795166015625 19.5362548828125
20.851806640625 -11.2301025390625 37.9251708984375
10.106201171875 14.4163818359375 -19.4549560546875
-23.709228515625 -6.9244384765625 1.703369140625
0.52099609375 1.9873046875 -30.693359375
6.48291015625 0.1651611328125 23.4129638671875
24.476806640625 8.74365234375 -29.802490234375
-17.890869140625 -8.5416259765625 3.212646484375
-29.07568359375 -11.2744140625 15.64111328125
9.111083984375 18.376220703125 -7.7041015625
-2.245849609375 8.8885498046875 -46.6378173828125
-17.00537109375 -8.7076416015625 6.9312744140625
5.848876953125 -16.1048583984375 45.4234619140625
8.816162109375 13.481201171875 -57.986572265625
11.515380859375 13.72900390625 6.0614013671875
-27.01025390625 -7.5372314453125 2.77001953125
-27.49072265625 -9.8924560546875 10.8065185546875
13.59912109375 9.6143798828125 -48.73974609375
10.833251953125 15.8062744140625 0.2325439453125
23.08935546875 14.7137451171875 -57.310302734375
8.0087890625 13.9571533203125 5.70751953125
14.412109375 4.0458984375 -34.097412109375
10.453125 3.579345703125 29.8466796875
-34.314453125 -11.25732421875 10.673095703125
12.9765625 18.3563232421875 -17.1356201171875
18.724609375 -11.8857421875 42.715576171875
-20.7109375 -8.510498046875 0.9390869140625
-6.009765625 33.1051025390625 -43.5516357421875
-22.11572265625 -8.973388671875 9.616455078125
6.513916015625 2.4268798828125 30.7200927734375
31.235595703125 -3.290771484375 31.222412109375
-0.741455078125 10.8026123046875 13.9752197265625
-2.600341796875 -0.1727294921875 45.628173828125
-10.80615234375 -6.9495849609375 7.027587890625
13.827880859375 19.6767578125 -11.9324951171875
18.61279296875 -12.7569580078125 39.5362548828125
-27.70703125 -9.322998046875 8.6572265625
2.76806640625 6.4044189453125 24.91064453125
9.02978515625 10.0364990234375 -49.4993896484375
7.0068359375 -2.1201171875 28.1453857421875
-27.0068359375 -11.9764404296875 16.4959716796875
-21.180908203125 -7.694091796875 20.9615478515625
19.04345703125 -11.166748046875 36.4410400390625
22.58447265625 12.1378173828125 -51.86279296875
28.974365234375 -6.9017333984375 29.675537109375
-20.463623046875 -10.331298828125 8.081298828125
7.261962890625 12.7042236328125 8.93359375
14.35546875 -13.563232421875 47.47119140625
21.849609375 -0.83837890625 49.74169921875
-13.88720703125 -6.67919921875 5.64404296875
-6.04150390625 7.4271240234375 24.3369140625
-6.834716796875 33.3480224609375 -50.50830078125
-1.26806640625 9.091064453125 19.2325439453125
-25.771728515625 -4.98583984375 20.5562744140625
11.08837890625 -1.343505859375 25.539794921875
-14.26806640625 -9.559814453125 12.948486328125
2.940673828125 1.3267822265625 -27.8026123046875
-0.8095703125 14.768798828125 -59.6910400390625
-7.886474609375 -2.8203125 17.5487060546875
-2.701904296875 7.6573486328125 23.5408935546875
21.94189453125 14.31396484375 55.8800048828125
0.128662109375 8.403076171875 21.1796875
2.94921875 33.2208251953125 -27.109130859375
1.5634765625 10.4827880859375 -51.709716796875
15.090087890625 8.7919921875 -45.9488525390625
6.42236328125 4.6783447265625 33.39111328125
-6.11474609375 -7.0379638671875 4.1341552734375
18.1904296875 21.523681640625 -16.918212890625
-30.229736328125 -6.8350830078125 17.3165283203125
-31.1865234375 -9.27880859375 10.3436279296875
9.913818359375 0.218505859375 23.6195068359375
-12.34130859375 -6.425537109375 4.2113037109375
1.9169921875 5.5679931640625 29.6962890625
20.173583984375 6.5538330078125 -40.5546875
-3.614501953125 3.779296875 38.570556640625
-11.44482421875 -9.18017578125 11.667724609375
-13.143798828125 -10.574462890625 16.523681640625
5.74169921875 13.8323974609375 5.271484375
-31.670166015625 -10.44775390625 13.8953857421875
-13.38232421875 0.4395751953125 19.4190673828125
-1.48193359375 10.1898193359375 15.87255859375
-33.429931640625 -7.802490234375 1.94580078125
2.43994140625 23.0628662109375 -18.8831787109375
3.41259765625 4.77001953125 29.30615234375
23.962646484375 7.5418701171875 -36.7845458984375
-31.404541015625 -4.501708984375 18.2353515625
-20.442138671875 -9.025390625 3.5595703125
-18.767578125 -10.1737060546875 8.10009765625
13.3818359375 -12.7860107421875 44.6328125
0.282470703125 4.777587890625 -37.439453125
3.937744140625 17.34423828125 -12.068603515625
0.00927734375 13.697021484375 5.0880126953125
-25.134765625 -7.0465087890625 0.6429443359375
4.100830078125 2.9573974609375 37.87744140625
11.6328125 4.904052734375 -36.5423583984375
-29.802978515625 -13.01318359375 18.108154296875
-1.43994140625 5.5679931640625 29.90869140625
25.15185546875 -7.3983154296875 30.683837890625
-1.277099609375 1.9681396484375 39.8558349609375
-5.55322265625 34.4471435546875 -53.0877685546875
6.473876953125 13.6630859375 -58.612548828125
3.490234375 4.1871337890625 -35.77001953125
15.66943359375 19.86962890625 -11.9287109375
-3.477783203125 2.539306640625 41.3963623046875
10.73681640625 -12.6986083984375 42.877685546875
22.6181640625 10.7413330078125 -48.364013671875
-17.206787109375 -11.294189453125 14.958740234375
-3.489013671875 33.7344970703125 -50.4356689453125
21.06494140625 10.4595947265625 -49.426025390625
11.859130859375 14.7784423828125 -16.4815673828125
4.004638671875 2.74072265625 26.8875732421875
5.335693359375 4.5162353515625 -35.878173828125
23.672119140625 11.983642578125 -49.887939453125
-4.161376953125 13.945556640625 -59.4444580078125
-2.037841796875 1.732177734375 -29.4361572265625
-21.751953125 -7.13916015625 0.904052734375
-15.32421875 -6.9398193359375 4.6614990234375
15.332275390625 17.6771240234375 -2.6798095703125
12.8330078125 7.4521484375 -43.0338134765625
18.447509765625 23.1240234375 -21.943359375
16.83154296875 17.8201904296875 -5.5706787109375
8.843017578125 12.4183349609375 -55.721923828125
3.830810546875 16.489501953125 -4.0770263671875
-18.85205078125 2.3843994140625 26.1513671875
4.067138671875 36.6126708984375 -38.7586669921875
14.608642578125 7.3641357421875 25.812255859375
-9.371337890625 -6.681884765625 4.6572265625
14.4228515625 12.1202392578125 -54.7318115234375
-4.3828125 33.8515625 -46.5111083984375
-8.604248046875 33.0858154296875 -49.3975830078125
28.83935546875 -5.165771484375 24.2210693359375
29.657958984375 -6.255859375 26.444580078125
21.050537109375 11.357421875 -51.5640869140625
-20.255859375 -10.12255859375 21.537841796875
-3.855712890625 6.474609375 -41.1197509765625
-20.74658203125 -0.3427734375 24.6273193359375
-3.9560546875 8.9351806640625 15.0966796875
16.483642578125 8.634033203125 24.830810546875
-22.18408203125 -7.8597412109375 4.75048828125
-22.139404296875 -3.7947998046875 21.517578125
19.29541015625 -12.0169677734375 44.4581298828125
5.670166015625 12.5966796875 -55.602783203125
-20.267333984375 -9.87353515625 5.889892578125
-28.177734375 -4.9989013671875 21.0732421875
5.200927734375 0.66748046875 22.4931640625
-34.72216796875 -1.97119140625 12.9259033203125
6.32568359375 33.895751953125 -30.8585205078125
20.652099609375 9.0455322265625 -45.8280029296875
5.512451171875 15.9002685546875 -63.0262451171875
8.3359375 -14.0421142578125 45.760009765625
5.298828125 16.06591796875 -2.184814453125
10.314697265625 11.272216796875 -52.6920166015625
-32.489990234375 -3.7679443359375 21.361083984375
17.85498046875 24.3145751953125 -25.5648193359375
-11.299072265625 9.246826171875 17.429443359375
-9.943359375 -4.5673828125 20.27294921875
21.608642578125 8.1322021484375 -43.398681640625
20.5400390625 12.3216552734375 -54.1702880859375
2.36474609375 18.186767578125 -11.6693115234375
-24.200927734375 -11.0670166015625 14.94482421875
-24.440673828125 -12.189453125 17.45263671875
16.479736328125 7.364990234375 -42.7906494140625
-11.51220703125 6.3433837890625 25.98291015625
-6.462646484375 -9.9365234375 12.4053955078125
27.256591796875 -7.1580810546875 34.287841796875
14.43505859375 16.0294189453125 0.3411865234375
12.8740234375 16.092529296875 -1.83642578125
-34.67822265625 -8.4896240234375 5.468017578125
10.001220703125 3.6568603515625 33.1522216796875
-16.6923828125 -7.767578125 4.9268798828125
20.43701171875 21.6956787109375 -17.5023193359375
0.534423828125 6.6246337890625 -42.252685546875
19.6904296875 9.964111328125 -48.2706298828125
23.893310546875 6.2152099609375 -34.441162109375
17.052978515625 -9.673095703125 49.6451416015625
-6.367919921875 9.7734375 15.1829833984375
17.246337890625 12.532470703125 -55.1229248046875
-3.492431640625 -0.7962646484375 49.22705078125
10.06787109375 14.5352783203125 3.50830078125
-17.075927734375 -3.44580078125 21.676513671875
9.7080078125 5.675048828125 -39.1484375
12.533203125 14.8485107421875 1.3486328125
-1.63671875 12.180908203125 8.15673828125
12.1123046875 -11.90380859375 42.6861572265625
4.00830078125 34.837158203125 -32.4415283203125
9.048095703125 15.377685546875 0.83251953125
25.069091796875 -8.385498046875 36.2127685546875
1.34619140625 6.526123046875 27.01953125
8.36865234375 0.3392333984375 21.05859375
5.5009765625 8.50439453125 -45.6134033203125
-9.158935546875 -7.970458984375 8.162841796875
-14.154296875 8.43896484375 19.375244140625
14.4052734375 10.507568359375 -51.60400390625
8.484130859375 11.3919677734375 -52.8604736328125
4.4619140625 16.0150146484375 -12.9852294921875
-6.280517578125 -8.914794921875 8.9874267578125
25.66748046875 9.3548583984375 -28.35302734375
14.601806640625 17.5037841796875 -4.9278564453125
-18.177490234375 3.6065673828125 23.5418701171875
-6.74365234375 -6.8946533203125 2.2713623046875
-13.93798828125 8.95361328125 17.1734619140625
-26.45703125 -4.490478515625 18.1102294921875
16.79296875 26.158935546875 -30.514404296875
-17.927001953125 -12.7196044921875 14.4534912109375
5.619140625 -15.33203125 49.103759765625
5.2900390625 13.268310546875 -12.69775390625
17.326171875 4.47216796875 -32.9521484375
18.009521484375 13.3829345703125 -58.526611328125
-2.16845703125 2.7120361328125 38.318359375
8.76806640625 14.9500732421875 -16.3974609375
-10.668212890625 -8.432861328125 10.1602783203125
-21.103759765625 -7.83984375 18.6878662109375
-8.33984375 34.4847412109375 -52.997802734375
11.73388671875 18.4217529296875 -8.295654296875
-8.5595703125 -12.5130615234375 19.34326171875
-2.76806640625 4.720947265625 -36.6866455078125
5.16259765625 17.855712890625 -10.08935546875
16.910400390625 8.6722412109375 -45.779541015625
13.05126953125 5.6119384765625 -33.137451171875
10.575927734375 13.011962890625 -12.717529296875
9.762939453125 13.068603515625 7.251220703125
12.309326171875 3.4796142578125 27.6524658203125
8.6708984375 3.2830810546875 -31.802978515625
0.077880859375 2.0728759765625 -27.060302734375
-0.28857421875 6.0863037109375 -40.6883544921875
1.935546875 12.7744140625 -56.423095703125
2.67236328125 14.0916748046875 4.8111572265625
18.3193359375 8.4307861328125 -44.9114990234375
15.150390625 12.811279296875 -58.0267333984375
-2.688720703125 4.9765625 30.9063720703125
0.30029296875 0.423095703125 44.791259765625
4.87353515625 -16.383056640625 47.9619140625
31.418212890625 -5.4114990234375 29.402587890625
8.187255859375 13.0679931640625 -14.237548828125
14.541748046875 24.207763671875 -26.326171875
21.4296875 13.547119140625 -57.2852783203125
23.23486328125 13.6702880859375 -53.4754638671875
-19.4296875 -7.8839111328125 0.311767578125
16.60400390625 -12.1953125 42.828125
-9.258056640625 9.47998046875 16.4107666015625
11.69482421875 0.3388671875 27.873046875
16.0146484375 23.6005859375 -24.247314453125
8.773193359375 -0.2073974609375 29.1920166015625
2.769287109375 7.863525390625 -44.5782470703125
1.849609375 8.80859375 20.6282958984375
10.570556640625 11.1480712890625 13.8551025390625
14.53271484375 23.3785400390625 -24.832275390625
-4.4375 6.045654296875 28.8902587890625
8.066162109375 10.6453857421875 15.5833740234375
-32.015380859375 -12.5726318359375 16.4940185546875
-0.65185546875 -1.45361328125 49.8638916015625
-10.26220703125 -4.2418212890625 17.359130859375
-24.656005859375 -7.5179443359375 4.6334228515625
5.340576171875 13.1759033203125 6.666015625
-5.8115234375 6.35302734375 27.62158203125
12.698486328125 -13.916259765625 47.956298828125
10.517333984375 17.0928955078125 -4.835205078125
4.30810546875 9.6785888671875 18.2698974609375
14.493408203125 8.88037109375 -47.44970703125
-7.92724609375 -1.606689453125 15.525146484375
-9.673583984375 32.600830078125 -46.1669921875
13.148193359375 11.3299560546875 13.23046875
20.327392578125 5.568359375 -36.8792724609375
5.271484375 12.0477294921875 11.617431640625
-26.04541015625 -8.6798095703125 7.9478759765625
-12.264404296875 -5.580322265625 0.367431640625
8.38671875 -14.72314453125 43.8341064453125
6.65283203125 -0.1551513671875 25.4063720703125
-1.749755859375 10.8587646484375 12.71484375
3.45166015625 10.4251708984375 -51.0618896484375
12.02294921875 12.6453857421875 -56.62890625
21.638671875 -10.1707763671875 47.1923828125
-18.134521484375 -11.680419921875 11.60107421875
-19.484130859375 -2.2191162109375 23.899169921875
-8.017578125 -10.79931640625 14.6019287109375
3.06591796875 21.5185546875 -18.6968994140625
-33.519775390625 -3.1583251953125 16.587158203125
21.234375 -8.5594482421875 47.89111328125
-6.46875 33.7662353515625 -51.9259033203125
7.026611328125 -14.1568603515625 48.7353515625
-33.41943359375 -12.8272705078125 15.5341796875
9.999267578125 -13.9659423828125 42.266845703125
-11.588623046875 -5.942626953125 2.825927734375
-7.276611328125 -7.4044189453125 5.5423583984375
6.997802734375 5.3214111328125 -30.535400390625
17.760009765625 24.77294921875 -27.35498046875
-20.01318359375 -11.887939453125 10.2333984375
-27.6982421875 -10.7532958984375 13.1925048828125
12.9931640625 17.7056884765625 -15.771240234375
-18.048828125 -9.84033203125 6.813232421875
-15.357666015625 -9.5076904296875 14.0985107421875
-21.001708984375 -7.572021484375 3.8555908203125
3.83154296875 6.683349609375 22.6734619140625
-0.15234375 4.470947265625 -33.015380859375
5.2724609375 12.8818359375 -16.0167236328125
4.048583984375 9.78271484375 -48.685791015625
-12.98876953125 -10.794921875 18.0072021484375
-12.34228515625 -4.645263671875 18.0047607421875
-32.3408203125 -6.602294921875 2.4859619140625
-3.62890625 8.3394775390625 -45.9744873046875
11.979736328125 16.666748046875 -2.9351806640625
-14.69580078125 7.9693603515625 15.9180908203125
-23.201904296875 -8.510009765625 7.232421875
14.500732421875 13.2548828125 10.059814453125
-11.298583984375 7.3612060546875 23.0953369140625
-28.385009765625 -4.2808837890625 18.8822021484375
-10.601318359375 -11.67431640625 18.416259765625
10.093505859375 13.3612060546875 -58.763671875
7.938232421875 10.9080810546875 14.038818359375
4.286865234375 35.905517578125 -35.7476806640625
12.547119140625 17.291748046875 -19.0155029296875
9.33203125 16.3216552734375 -2.1895751953125
-17.135009765625 5.0933837890625 26.3409423828125
-24.52734375 -8.8448486328125 10.0748291015625
-14.46728515625 -10.498046875 15.830810546875
-20.336181640625 -12.722900390625 14.9766845703125
13.4033203125 5.2421875 26.5933837890625
4.7763671875 13.7293701171875 -17.8896484375
-26.803955078125 -5.882568359375 -0.587158203125
0.81591796875 12.0965576171875 10.591552734375
10.036865234375 11.9119873046875 11.657470703125
11.9814453125 1.9461669921875 27.5142822265625
16.10009765625 22.3228759765625 -20.9912109375
5.265625 15.07666015625 -12.154052734375
-29.87744140625 -9.6275634765625 11.1873779296875
-16.41455078125 -4.759765625 18.9256591796875
-30.16015625 -8.9832763671875 8.5400390625
9.731689453125 2.162841796875 29.7308349609375
11.32666015625 10.5023193359375 -50.330078125
-14.423828125 -8.7137451171875 10.6480712890625
-3.11669921875 34.154052734375 -51.8553466796875
19.261962890625 -3.8992919921875 51.1278076171875
7.213623046875 17.3511962890625 -10.7728271484375
29.437255859375 -6.0584716796875 32.4168701171875
-2.6728515625 0.6134033203125 43.9312744140625
-31.883056640625 -3.685302734375 16.9786376953125
26.75390625 -7.711669921875 30.508544921875
15.98779296875 -11.106201171875 38.8394775390625
-2.443603515625 5.311279296875 -38.6728515625
22.82421875 -9.820556640625 45.908447265625
-7.805908203125 33.2454833984375 -46.978515625
-33.9765625 -12.23193359375 13.9376220703125
-12.597412109375 -9.6748046875 13.1195068359375
8.464111328125 12.6083984375 -59.52783203125
9.838623046875 5.023193359375 -36.7119140625
11.722412109375 -12.2010498046875 39.75146484375
28.40673828125 -6.1019287109375 34.9425048828125
-8.51171875 32.5791015625 -44.2763671875
27.79736328125 -7.7657470703125 32.626953125
-17.41943359375 -12.4903564453125 17.9637451171875
-34.461181640625 -2.305419921875 20.5675048828125
20.519287109375 -1.4659423828125 50.2705078125
13.08837890625 19.5045166015625 -14.2144775390625
-5.83056640625 33.0472412109375 -49.4840087890625
20.326416015625 -11.52001953125 45.373291015625
-17.761962890625 -6.831298828125 20.73046875
19.903076171875 12.5091552734375 -56.2864990234375
-19.02001953125 -12.0986328125 20.8935546875
18.68408203125 10.9803466796875 -51.307861328125
16.0537109375 -13.280029296875 47.4547119140625
-33.98486328125 -13.4261474609375 17.8350830078125
21.974853515625 -11.0882568359375 44.405517578125
6.37451171875 2.398193359375 -30.7554931640625
6.285888671875 35.4669189453125 -33.8310546875
1.3564453125 1.3128662109375 41.9134521484375
-3.52978515625 3.5726318359375 -33.760498046875
-19.11767578125 -13.5206298828125 18.8612060546875
-3.41943359375 1.6064453125 43.173583984375
9.180419921875 13.933837890625 4.4923095703125
2.95947265625 15.486328125 -64.3271484375
-19.76123046875 -11.50927734375 8.5570068359375
5.573486328125 18.3590087890625 -7.4306640625
21.581298828125 -12.0640869140625 42.6822509765625
2.870361328125 17.5535888671875 -6.421875
5.71875 33.4315185546875 -43.2252197265625
1.072265625 35.25048828125 -42.123046875
2.730712890625 33.299072265625 -44.60986328125
8.3857421875 -0.3487548828125 26.0792236328125
-6.2060546875 33.0980224609375 -45.1124267578125
17.742431640625 10.3602294921875 -50.176025390625
-1.392333984375 13.6407470703125 -58.8487548828125
10.260986328125 3.7445068359375 -34.506591796875
-17.298828125 -5.15771484375 22.1175537109375
-20.25146484375 -5.9403076171875 22.66796875
3.361328125 36.0750732421875 -39.899658203125
18.599609375 11.818603515625 -53.9384765625
11.904052734375 3.760009765625 -31.7998046875
0.341552734375 7.8336181640625 23.7757568359375
-14.518310546875 -5.0430908203125 21.008056640625
3.86865234375 0.6395263671875 25.5921630859375
-15.512451171875 -10.0380859375 16.75390625
7.6123046875 15.5570068359375 -0.4359130859375
3.480224609375 4.2186279296875 27.2208251953125
4.99853515625 0.4920654296875 28.2301025390625
-25.09619140625 -3.95556640625 21.2899169921875
19.4326171875 22.3299560546875 -19.6729736328125
-31.115966796875 -11.0487060546875 15.4971923828125
1.06787109375 15.9412841796875 -61.4207763671875
10.4677734375 9.1510009765625 -47.184326171875
0.592041015625 13.238037109375 -56.921875
19.49072265625 -6.0487060546875 49.79541015625
-9.083740234375 -8.8851318359375 10.0545654296875
4.233642578125 17.1614990234375 -5.51220703125
6.787353515625 9.481201171875 -48.0966796875
-13.80615234375 -6.331787109375 2.5604248046875
8.30908203125 14.7701416015625 -60.827880859375
4.0205078125 15.7271728515625 -1.2393798828125
5.528564453125 15.214599609375 1.1729736328125
-5.020751953125 5.046630859375 -37.38623046875
3.616455078125 8.9573974609375 -47.023193359375
15.277099609375 21.6483154296875 -18.904541015625
23.2177734375 9.758056640625 -44.737060546875
-10.678955078125 -9.6781005859375 15.0623779296875
10.794189453125 12.7724609375 9.130859375
18.677734375 25.26220703125 -28.3502197265625
13.9443359375 20.4781494140625 -16.44921875
13.9716796875 20.664306640625 -20.650146484375
10.248291015625 12.421630859375 -55.524658203125
16.33740234375 11.4093017578125 -52.612060546875
3.295166015625 2.0506591796875 -29.838134765625
31.400390625 -4.4390869140625 22.408203125
23.021728515625 13.3280029296875 -54.833984375
-1.640380859375 14.6805419921875 -62.693115234375
5.01220703125 5.0692138671875 20.852294921875
16.422119140625 10.1732177734375 -49.2159423828125
7.962646484375 4.5430908203125 -36.5098876953125
11.672607421875 11.3680419921875 -53.076416015625
15.81298828125 12.373046875 -55.219970703125
23.222900390625 -11.9722900390625 42.3157958984375
8.9384765625 1.3848876953125 24.192138671875
17.93603515625 4.75537109375 -36.3685302734375
17.305908203125 9.0384521484375 -47.151611328125
12.22607421875 9.7655029296875 -49.03515625
2.431640625 14.0062255859375 2.9449462890625
25.1201171875 10.783447265625 -27.998291015625
23.838623046875 -9.4326171875 38.7646484375
12.58154296875 11.8358154296875 -54.115966796875
8.804931640625 13.6802978515625 -17.7449951171875
19.298095703125 23.5494384765625 -23.3953857421875
6.708740234375 10.6163330078125 -50.893310546875
18.14794921875 -12.77001953125 46.8134765625
14.25146484375 6.5792236328125 -40.7510986328125
-31.333740234375 -6.6436767578125 3.72314453125
14.60791015625 7.816650390625 -44.1968994140625
9.07568359375 9.5462646484375 -48.1512451171875
6.1494140625 -1.5975341796875 27.13916015625
12.2607421875 8.0858154296875 -45.384765625
-0.275390625 10.4483642578125 -51.7791748046875
23.002685546875 15.54052734375 51.5428466796875
18.948974609375 19.0703125 -9.1884765625
12.21044921875 12.2125244140625 11.054931640625
4.68212890625 10.1727294921875 16.9951171875
23.20361328125 6.5665283203125 -37.6082763671875
-6.49169921875 -6.7779541015625 0.7056884765625
3.058349609375 4.1744384765625 34.29833984375
-24.028076171875 -9.998046875 11.994384765625
31.161376953125 -5.2525634765625 30.768798828125
5.035400390625 -0.7001953125 26.9339599609375
6.63818359375 3.904296875 36.47802734375
21.7451171875 5.481689453125 -36.1177978515625
4.49853515625 10.9010009765625 14.2764892578125
17.866455078125 20.539794921875 -13.7757568359375
-14.730712890625 6.317626953125 27.1224365234375
-14.692138671875 6.9310302734375 23.5347900390625
6.584716796875 5.3162841796875 -38.2017822265625
19.628173828125 21.1795654296875 -15.5177001953125
18.7490234375 6.6412353515625 -41.32080078125
11.084716796875 6.0662841796875 -39.7032470703125
6.927978515625 0.978759765625 29.4654541015625
12.408935546875 18.96142578125 -11.2454833984375
19.403564453125 4.3443603515625 -34.39501953125
3.33154296875 6.539306640625 -41.2930908203125
16.5283203125 -11.16650390625 40.1160888671875
15.089599609375 4.561767578125 -33.00244140625
13.06396484375 4.1943359375 -34.387451171875
-30.54052734375 -6.9398193359375 0.8272705078125
13.98779296875 18.8936767578125 -9.031005859375
-20.96142578125 -12.500732421875 19.19384765625
20.70654296875 19.05029296875 -9.5574951171875
3.335693359375 36.5364990234375 -36.9493408203125
6.682861328125 4.367919921875 -35.5882568359375
11.650390625 14.8323974609375 -14.437744140625
2.402099609375 5.9229736328125 26.1556396484375
18.105224609375 18.260009765625 -7.0751953125
7.094970703125 -14.70458984375 46.7540283203125
14.02783203125 19.9090576171875 -18.7159423828125
-18.89599609375 -4.9833984375 22.365966796875
3.218017578125 18.72314453125 -9.119140625
5.953125 10.641357421875 16.02294921875
5.173828125 2.8704833984375 29.385986328125
-3.088134765625 7.645751953125 -44.10400390625
1.923583984375 4.64208984375 -34.6343994140625
-34.3125 -12.2735595703125 11.68798828125
-9.86279296875 8.1866455078125 20.031005859375
8.4658203125 13.362060546875 6.888671875
20.10302734375 10.7357177734375 -50.4300537109375
2.628662109375 16.753173828125 -3.457763671875
14.367919921875 14.151611328125 7.20458984375
0.9833984375 6.0455322265625 28.2581787109375
-3.345703125 14.357666015625 -60.9853515625
3.292236328125 -17.1256103515625 49.4967041015625
8.43017578125 16.6876220703125 -10.6859130859375
-8.8984375 -9.322021484375 12.1375732421875
7.818603515625 17.6328125 -6.03369140625
9.76220703125 -1.225830078125 28.5484619140625
18.063232421875 -12.42333984375 45.333251953125
2.132568359375 15.3092041015625 -59.11572265625
-2.53564453125 6.564697265625 -41.4874267578125
-20.846435546875 -6.0108642578125 21.432861328125
-5.755615234375 7.8529052734375 22.6575927734375
10.48828125 -12.6695556640625 44.2572021484375
8.369384765625 16.83740234375 -3.741943359375
-12.20361328125 7.7586669921875 22.1446533203125
0.010009765625 33.829345703125 -44.82421875
-2.011474609375 33.6673583984375 -45.8773193359375
-2.72216796875 35.4246826171875 -42.9605712890625
3.435302734375 14.1112060546875 -14.7607421875
-13.307373046875 6.6226806640625 24.8094482421875
1.60888671875 1.473388671875 -28.089111328125
7.505126953125 12.4769287109375 -55.4345703125
10.057861328125 14.3358154296875 -11.8026123046875
2.550048828125 4.3243408203125 -32.529296875
-21.54150390625 -12.44140625 17.8916015625
4.403076171875 11.4576416015625 12.5755615234375
9.882080078125 12.348876953125 -13.7191162109375
-11.191162109375 -7.480224609375 17.7972412109375
9.9208984375 17.207763671875 -10.2801513671875
-12.503173828125 -8.0909423828125 8.477783203125
-4.9375 14.974853515625 -59.8955078125
-11.96826171875 8.4139404296875 19.8817138671875
-17.532470703125 -9.0577392578125 19.0181884765625
-1.3828125 32.9180908203125 -47.205810546875
15.03271484375 22.2347412109375 -22.25244140625
13.7353515625 -10.2449951171875 39.3406982421875
-7.113037109375 32.425048828125 -43.9754638671875
10.05615234375 18.1014404296875 -6.76171875
-31.6630859375 -7.50927734375 5.22216796875
0.676025390625 12.362548828125 9.033447265625
-0.518798828125 9.3221435546875 18.01171875
-10.177978515625 -10.420654296875 16.746337890625
3.2900390625 34.3321533203125 -29.8929443359375
1.514404296875 11.531494140625 -53.9447021484375
23.95654296875 -8.7412109375 34.3157958984375
5.84033203125 9.9080810546875 -49.190673828125
6.5 17.932373046875 -6.4056396484375
12.89306640625 12.8681640625 8.156494140625
-22.438720703125 -3.8841552734375 16.4715576171875
2.843505859375 11.47265625 -54.22998046875
11.414306640625 -12.837646484375 45.49169921875
-33.1572265625 -9.8197021484375 8.7012939453125
12.38232421875 18.0286865234375 -13.7799072265625
-31.028564453125 -12.6087646484375 17.6964111328125
-31.84912109375 -8.2469482421875 7.566650390625
-10.1904296875 6.6292724609375 26.042236328125
-33.275634765625 -10.6190185546875 11.5167236328125
6.942138671875 14.88623046875 2.5177001953125
-1.15771484375 11.4942626953125 -53.2757568359375
26.157470703125 -7.9384765625 33.4970703125
-27.439208984375 -3.4049072265625 15.881591796875
-30.7880859375 -12.8956298828125 19.65185546875
3.3349609375 12.368896484375 9.4412841796875
23.97119140625 8.8160400390625 -39.618896484375
13.407958984375 -11.9786376953125 43.361328125
2.281494140625 0.49560546875 43.9180908203125
-25.11328125 -12.9874267578125 19.4072265625
-9.393310546875 -6.3187255859375 0.6153564453125
-33.221435546875 -7.688232421875 0.3948974609375
-2.1201171875 -2.1356201171875 52.23388671875
5.099853515625 12.0189208984375 10.2159423828125
-0.009765625 6.9781494140625 25.67138671875
5.17626953125 14.072021484375 3.7996826171875
-2.79736328125 10.09716796875 12.3529052734375
4.831787109375 1.9283447265625 28.0418701171875
22.318115234375 -8.701416015625 34.6260986328125
-24.52490234375 -4.7003173828125 17.336669921875
-0.34521484375 4.1173095703125 34.0821533203125
-32.34375 -3.57177734375 19.362060546875
-16.531494140625 -10.1380615234375 12.3262939453125
22.2822265625 -9.7376708984375 36.488037109375
-7.600341796875 6.122314453125 27.16162109375
-0.65576171875 3.564208984375 35.7855224609375
5.65869140625 4.0728759765625 31.509033203125
12.173095703125 -11.2315673828125 38.3037109375
11.067138671875 -13.46923828125 47.1849365234375
-34.847412109375 -1.894775390625 14.8038330078125
-2.745849609375 3.6488037109375 35.703369140625
-14.55322265625 -7.5867919921875 8.1815185546875
4.84912109375 4.039306640625 35.3887939453125
-12.3984375 9.6181640625 15.0872802734375
17.133544921875 9.129150390625 25.881591796875
3.9423828125 8.8106689453125 20.1968994140625
-1.088134765625 10.0484619140625 -50.27294921875
10.697509765625 13.1378173828125 -15.8419189453125
3.080810546875 2.4727783203125 40.589111328125
16.69091796875 17.9495849609375 -7.11083984375
-10.97509765625 -6.8585205078125 5.581298828125
14.067626953125 20.189453125 -14.7938232421875
7.395263671875 13.7686767578125 -18.4954833984375
-34.541748046875 -9.4100341796875 1.6396484375
7.886962890625 2.6275634765625 31.2769775390625
-8.343994140625 -6.4378662109375 2.378173828125
2.08935546875 5.7327880859375 -38.9522705078125
6.912841796875 4.888671875 19.126953125
-9.649169921875 33.6578369140625 -51.11376953125
-24.2255859375 -4.9462890625 19.7410888671875
-2.827880859375 8.0555419921875 21.956787109375
1.62841796875 7.69189453125 24.0526123046875
25.998046875 7.8338623046875 -30.66845703125
-14.373779296875 -4.6336669921875 18.42919921875
-4.2109375 8.8857421875 19.941162109375
22.648193359375 8.0755615234375 -42.0291748046875
-12.943115234375 -5.4927978515625 20.9029541015625
-8.308349609375 -11.31494140625 16.3388671875
-1.86572265625 4.0098876953125 -35.442626953125
0.068603515625 14.11328125 -58.956787109375
5.59765625 12.9403076171875 -56.8740234375
-0.61572265625 2.9820556640625 36.9676513671875
-17.416259765625 4.0704345703125 25.4962158203125
-16.255615234375 6.694580078125 21.6197509765625
3.015380859375 4.7799072265625 -37.04541015625
5.23583984375 11.35400390625 -53.1265869140625
0.710693359375 2.90185546875 37.6585693359375
0.40966796875 1.995361328125 39.9659423828125
-15.87646484375 5.4600830078125 25.903564453125
-19.3916015625 -14.509765625 18.0386962890625
7.652587890625 13.4539794921875 -11.8084716796875
11.029541015625 -0.3240966796875 23.184814453125
-16.473388671875 7.0306396484375 19.6087646484375
-4.148193359375 34.2152099609375 -41.4049072265625
-2.504150390625 4.1429443359375 33.5791015625
3.175048828125 1.80810546875 -26.6041259765625
-22.779052734375 -12.1695556640625 17.550537109375
-0.75390625 1.670166015625 -29.6990966796875
-28.093994140625 -6.7906494140625 0.1990966796875
-11.2666015625 -4.979736328125 20.2911376953125
14.12841796875 18.362548828125 -6.77392578125
9.90625 3.1588134765625 -32.533203125
-28.754150390625 -10.5648193359375 14.261474609375
30.95849609375 -5.038818359375 23.7264404296875
-22.60107421875 -11.1085205078125 14.620361328125
8.187744140625 3.651123046875 32.12744140625
-19.4248046875 -12.5615234375 12.34765625
-20.854248046875 -7.6575927734375 1.9493408203125
2.35986328125 17.9622802734375 -15.088134765625
16.675048828125 13.1898193359375 -57.544921875
-25.113037109375 -10.081298828125 13.2159423828125
-8.18115234375 8.9647216796875 18.8240966796875
3.248779296875 4.344970703125 -34.2532958984375
-30.117919921875 -10.1444091796875 12.92724609375
12.490478515625 3.658203125 28.9324951171875
18.373779296875 19.5718994140625 -11.346923828125
10.665283203125 16.5697021484375 -2.6033935546875
-19.047119140625 -8.3406982421875 22.2327880859375
9.450439453125 0.919189453125 29.44775390625
8.017578125 17.982177734375 -8.766357421875
-24.13134765625 -11.75244140625 16.2244873046875
-20.990478515625 -9.70458984375 18.6888427734375
-7.2890625 8.9896240234375 15.7659912109375
3.013427734375 11.39599609375 11.9315185546875
-2.753662109375 1.9473876953125 -28.372314453125
1.763427734375 -0.5970458984375 48.1177978515625
-0.136474609375 9.9600830078125 16.6634521484375
6.86767578125 13.366455078125 -14.612060546875
0.067626953125 13.220947265625 6.2947998046875
5.702880859375 36.3526611328125 -36.316650390625
27.99560546875 -6.217529296875 26.7645263671875
-4.51025390625 34.4744873046875 -52.2606201171875
-1.6455078125 1.365478515625 41.1168212890625
1.49365234375 13.04541015625 7.5440673828125
-29.544677734375 -7.9500732421875 5.9462890625
19.65966796875 -12.464111328125 40.996337890625
9.21630859375 6.9053955078125 -41.8544921875
2.707763671875 13.4656982421875 6.0994873046875
30.392578125 -6.21435546875 29.5260009765625
5.991943359375 12.7596435546875 9.17236328125
16.8779296875 20.916259765625 -15.2864990234375
3.525634765625 34.0574951171875 -43.078857421875
6.8525390625 7.4139404296875 -43.69970703125
-7.22509765625 8.4783935546875 20.2894287109375
-34.093505859375 -2.752685546875 17.9093017578125
-4.0 9.634521484375 17.1488037109375
-5.633544921875 9.4300537109375 18.0657958984375
-22.414306640625 -10.0960693359375 17.7958984375
-21.000244140625 -9.373291015625 9.1112060546875
