5.98046875 11.2783203125 -51.177001953125
20.515380859375 -8.2286376953125 38.732421875
-2.88427734375 4.6871337890625 -33.6064453125
5.550537109375 1.72216796875 30.4149169921875
-11.755615234375 10.565673828125 19.5125732421875
10.762939453125 19.2181396484375 -5.556640625
10.14404296875 7.1065673828125 -40.376708984375
8.218017578125 3.2607421875 31.992919921875
4.953125 10.49462890625 19.4036865234375
25.6923828125 9.5535888671875 -26.7528076171875
6.234375 15.8450927734375 -60.75927734375
1.15869140625 6.681884765625 -37.3907470703125
11.37939453125 5.5 -34.871826171875
7.428466796875 12.9100341796875 14.188720703125
19.43212890625 9.670654296875 -45.8228759765625
-3.527099609375 32.365234375 -49.9649658203125
-8.169921875 10.38134765625 20.307861328125
1.1318359375 4.8125 -34.6571044921875
14.2763671875 -12.0523681640625 46.951416015625
-7.044189453125 33.134521484375 -45.1163330078125
10.361572265625 10.913330078125 -49.2845458984375
-7.806396484375 7.243896484375 30.0614013671875
-31.614990234375 -8.173583984375 10.1695556640625
-2.153076171875 12.491943359375 -54.3221435546875
-9.84033203125 -8.7777099609375 13.40869140625
13.534423828125 5.8250732421875 32.0584716796875
31.96337890625 -2.7540283203125 28.95556640625
-13.617431640625 -9.4718017578125 18.02392578125
-24.6259765625 -10.6048583984375 19.619873046875
-11.255126953125 33.737548828125 -48.906005859375
-21.4033203125 -9.7777099609375 11.657958984375
-33.013427734375 -11.7138671875 18.23046875
7.602783203125 5.6112060546875 33.8756103515625
27.95849609375 -4.649169921875 36.4376220703125
15.46435546875 20.2144775390625 -2.476806640625
-11.0751953125 -5.9102783203125 3.7578125
-27.692626953125 -9.368896484375 14.808837890625
24.613525390625 12.83349609375 -21.98291015625
29.823974609375 -1.195556640625 34.4158935546875
6.3837890625 17.7176513671875 -8.95458984375
10.216552734375 14.5550537109375 8.738525390625
-16.970703125 -5.84521484375 20.26171875
-5.649658203125 8.9990234375 -43.6109619140625
0.3681640625 14.1180419921875 9.60205078125
5.36962890625 37.6793212890625 -36.875
-23.30322265625 -6.6907958984375 6.9736328125
-3.94091796875 4.463623046875 42.982177734375
23.17626953125 6.493408203125 -30.7947998046875
9.95703125 -11.72021484375 49.0645751953125
15.061279296875 10.5838623046875 29.467529296875
-18.3251953125 4.7557373046875 25.799072265625
-2.719970703125 6.9117431640625 -39.27392578125
3.0556640625 2.328857421875 -26.22265625
20.8798828125 12.071533203125 -50.380859375
14.38232421875 19.061279296875 1.957275390625
-6.98291015625 -6.2413330078125 5.4925537109375
-6.263671875 11.3250732421875 16.9552001953125
11.37744140625 -9.40673828125 43.056396484375
-0.160400390625 -8.458251953125 50.5377197265625
14.53076171875 22.392822265625 -18.0633544921875
16.834228515625 12.9473876953125 -54.347900390625
-21.755126953125 -12.295654296875 20.8341064453125
3.333251953125 7.1971435546875 -39.30859375
-5.6494140625 5.5718994140625 -35.065673828125
-35.14697265625 -11.4769287109375 20.5072021484375
10.02978515625 13.7158203125 -13.85498046875
-3.16357421875 12.97705078125 11.460205078125
-15.11279296875 -5.6646728515625 2.5537109375
7.196533203125 8.729736328125 18.8167724609375
-4.033203125 6.080078125 37.0260009765625
12.447021484375 18.5653076171875 -13.3961181640625
2.723876953125 16.28955078125 -62.96533203125
-8.101806640625 8.7987060546875 25.970458984375
19.188720703125 23.9696044921875 -21.0540771484375
14.302734375 8.9813232421875 -44.151123046875
21.661376953125 -11.8299560546875 48.1136474609375
-1.49462890625 1.7294921875 48.9005126953125
-6.067626953125 10.8646240234375 -49.5728759765625
-7.171142578125 35.1563720703125 -52.427978515625
4.040771484375 2.142822265625 24.7318115234375
-26.757568359375 -7.640625 10.736572265625
-3.590576171875 3.9307861328125 -30.85595703125
-12.641357421875 -5.78466796875 23.626708984375
-1.43359375 3.43017578125 43.891845703125
-3.447998046875 15.8695068359375 -62.260498046875
4.50732421875 6.05126953125 36.224365234375
23.6826171875 -6.5224609375 36.791259765625
19.229736328125 20.4755859375 -10.203125
11.411865234375 13.3619384765625 13.100830078125
-13.69287109375 -7.7486572265625 12.2564697265625
-3.101806640625 9.4957275390625 -46.1800537109375
20.704345703125 -10.3653564453125 40.6463623046875
9.747314453125 0.4095458984375 27.7606201171875
-29.09326171875 -7.4375 9.19384765625
1.62060546875 12.9921875 -55.02490234375
7.7958984375 17.9759521484375 -1.660888671875
-32.97802734375 -2.5615234375 18.208740234375
19.730712890625 -10.2425537109375 46.847412109375
-17.46142578125 -10.8466796875 19.5997314453125
15.52587890625 12.2064208984375 -51.9052734375
10.105712890625 4.2327880859375 -31.6793212890625
-7.73046875 -0.688720703125 18.485107421875
16.3671875 6.1065673828125 -36.974365234375
18.9365234375 11.01611328125 -48.71044921875
-29.46435546875 -11.7763671875 22.2750244140625
15.728271484375 25.1331787109375 -24.641357421875
6.984130859375 19.5107421875 -6.9378662109375
5.6826171875 3.5745849609375 -29.1668701171875
11.80810546875 5.0836181640625 29.8802490234375
-0.02490234375 10.4393310546875 21.971923828125
-4.302978515625 7.8472900390625 29.5113525390625
6.65185546875 5.5687255859375 -35.912841796875
19.664794921875 6.5526123046875 -37.497314453125
15.798583984375 7.780029296875 -41.0753173828125
6.575927734375 13.8499755859375 -58.47509765625
-3.041259765625 11.5692138671875 17.6199951171875
-11.6494140625 8.435302734375 25.9332275390625
8.949951171875 1.09228515625 23.718505859375
6.79248046875 0.5050048828125 28.34033203125
22.380859375 -9.605224609375 46.4764404296875
-33.39794921875 -5.9471435546875 1.94189453125
-37.497802734375 -2.7376708984375 13.9510498046875
-2.291748046875 14.9190673828125 -59.1485595703125
-10.110107421875 -9.8560791015625 15.989990234375
-3.65087890625 13.78271484375 -56.9754638671875
17.937255859375 25.820068359375 -27.1453857421875
1.704833984375 14.8438720703125 -57.3138427734375
6.502685546875 13.504638671875 -12.4100341796875
11.966064453125 11.9876708984375 -53.656494140625
-30.511474609375 -6.58740234375 4.610595703125
3.500244140625 6.1890869140625 31.570068359375
1.5498046875 8.163330078125 27.1527099609375
13.40771484375 4.9866943359375 -32.3834228515625
0.978271484375 23.306884765625 -16.5220947265625
10.031982421875 18.57373046875 -2.9874267578125
-12.312255859375 -6.69970703125 8.432373046875
-22.66748046875 -10.029541015625 17.9130859375
24.4853515625 -4.56884765625 32.358642578125
13.41064453125 8.627685546875 26.373046875
-25.9853515625 -4.88671875 18.8477783203125
4.81494140625 7.0479736328125 33.7701416015625
0.96337890625 10.642578125 -48.988525390625
-5.294189453125 7.2557373046875 -38.31201171875
-21.306396484375 -9.4832763671875 9.0257568359375
1.56640625 17.07080078125 0.7115478515625
13.894287109375 21.24755859375 -13.6048583984375
-23.1845703125 -6.9530029296875 19.7935791015625
-8.737548828125 -3.5650634765625 21.1549072265625
-11.29833984375 -3.83349609375 24.7486572265625
-11.89697265625 -4.9412841796875 18.67431640625
5.2783203125 5.9810791015625 38.9599609375
11.4765625 19.7047119140625 -8.05029296875
-33.134765625 -9.713623046875 21.0455322265625
2.698486328125 13.8321533203125 10.7457275390625
15.39990234375 -12.1990966796875 49.557861328125
-14.362060546875 -4.3321533203125 21.809814453125
-21.724853515625 -6.9866943359375 3.3060302734375
18.464111328125 19.394287109375 -6.8525390625
13.37353515625 17.5625 -0.1151123046875
-0.1171875 6.7818603515625 33.003662109375
-21.584716796875 -7.517822265625 22.6280517578125
10.487548828125 15.5599365234375 5.636474609375
18.626953125 8.0380859375 -41.37548828125
-2.758056640625 2.740478515625 -26.1243896484375
4.36669921875 16.814453125 1.756591796875
-4.032470703125 6.8424072265625 32.8326416015625
1.805419921875 4.612548828125 40.7891845703125
-1.291748046875 0.8580322265625 51.57861328125
18.60595703125 21.726318359375 -13.878662109375
2.7353515625 15.227783203125 5.4840087890625
20.095703125 -12.2508544921875 42.59814453125
-4.736572265625 9.1417236328125 24.59765625
-24.205078125 -4.7774658203125 1.659423828125
-27.56787109375 -3.2294921875 23.6517333984375
5.318115234375 4.6505126953125 -33.97216796875
0.06787109375 5.726318359375 35.8656005859375
10.823486328125 18.0101318359375 -10.6370849609375
-18.541748046875 -9.3154296875 13.2064208984375
-33.860595703125 -13.5372314453125 19.8758544921875
-30.64501953125 -10.9180908203125 19.2025146484375
-24.064453125 -3.162353515625 21.4000244140625
-2.59521484375 34.3087158203125 -41.8853759765625
-7.274658203125 -10.8507080078125 19.2760009765625
1.52001953125 19.1005859375 -13.291748046875
20.7841796875 5.3004150390625 -33.2694091796875
-16.23046875 -10.713134765625 22.14599609375
4.123291015625 5.769287109375 23.401611328125
9.43994140625 15.6793212890625 -10.6241455078125
-30.2861328125 -9.2152099609375 14.3388671875
11.861083984375 -11.638671875 47.25341796875
10.0166015625 9.404541015625 -45.5389404296875
-8.869140625 -8.42724609375 10.5533447265625
7.56640625 -12.0260009765625 50.613037109375
22.767822265625 -5.65966796875 34.6717529296875
-18.71923828125 -10.469970703125 16.2950439453125
11.409423828125 8.2392578125 -43.539306640625
-16.385498046875 -7.655517578125 11.341796875
-4.47412109375 10.0072021484375 22.15625
27.044189453125 -4.5516357421875 31.8145751953125
-16.02587890625 -6.258544921875 6.0689697265625
23.253662109375 9.159912109375 -35.5833740234375
13.301025390625 10.974853515625 -48.39794921875
2.54541015625 9.7559814453125 -46.0972900390625
5.16552734375 15.154541015625 7.011474609375
30.357421875 -3.1402587890625 27.0684814453125
7.955810546875 10.94677734375 -49.8101806640625
22.692138671875 -10.32470703125 43.02294921875
19.315673828125 23.2064208984375 -18.539306640625
5.69677734375 10.0902099609375 -47.6278076171875
14.541259765625 -9.7506103515625 41.6309814453125
8.824951171875 13.313720703125 -11.7960205078125
6.88037109375 3.95263671875 -31.2703857421875
5.4794921875 18.1663818359375 -2.2734375
10.478515625 -10.5047607421875 40.9622802734375
16.27880859375 -11.7696533203125 45.482666015625
-25.883056640625 -9.1787109375 21.0755615234375
-3.348876953125 0.3421630859375 52.6884765625
27.0810546875 -2.7994384765625 28.558349609375
-5.59521484375 34.1160888671875 -49.9476318359375
14.14501953125 16.25830078125 8.5299072265625
23.623291015625 10.8284912109375 -26.9920654296875
20.76220703125 13.2442626953125 -53.8369140625
1.9638671875 19.0196533203125 -9.6966552734375
-29.6484375 -3.4066162109375 21.305908203125
11.730712890625 6.554931640625 -37.7330322265625
3.1923828125 35.0897216796875 -42.6103515625
22.95947265625 -7.0540771484375 39.0828857421875
2.235595703125 7.68408203125 -41.496826171875
3.66455078125 37.3333740234375 -38.482666015625
5.084716796875 14.341552734375 -14.1090087890625
1.93896484375 18.7435302734375 -5.9119873046875
14.517333984375 18.7646484375 -4.08642578125
5.346435546875 15.47216796875 -10.1011962890625
2.58544921875 6.1435546875 27.920166015625
5.720947265625 5.9234619140625 -28.9595947265625
8.9970703125 14.5306396484375 -16.1590576171875
1.37646484375 12.5467529296875 -52.4705810546875
-33.796142578125 -9.0849609375 10.67431640625
6.35986328125 8.718017578125 -43.678466796875
-12.679443359375 -8.0716552734375 19.98876953125
15.639892578125 9.6041259765625 -45.94775390625
-6.723876953125 33.86962890625 -47.29541015625
18.54443359375 5.0455322265625 -32.048828125
-6.891357421875 -9.7735595703125 14.254150390625
16.2158203125 19.3782958984375 -6.3419189453125
17.228759765625 24.3111572265625 -22.3924560546875
-32.331787109375 -3.852783203125 23.5748291015625
2.397216796875 4.20654296875 -30.8714599609375
-28.921630859375 -6.7841796875 6.8270263671875
8.344482421875 -11.657958984375 46.135009765625
2.05517578125 10.94287109375 20.2938232421875
11.24755859375 13.912109375 10.8538818359375
3.06787109375 4.49365234375 -33.333984375
-24.512939453125 -11.8414306640625 21.688232421875
-19.21728515625 -1.0576171875 26.02099609375
-25.9609375 -6.0135498046875 5.7265625
6.83447265625 13.58056640625 11.979248046875
16.3671875 -11.4666748046875 42.065673828125
-19.89453125 -7.5716552734375 4.697021484375
-2.8955078125 8.6815185546875 25.8948974609375
8.107177734375 12.4554443359375 16.7587890625
3.598388671875 12.014892578125 16.9561767578125
-16.635009765625 -3.5433349609375 19.9637451171875
14.26318359375 20.405029296875 -9.050048828125
-11.68115234375 -6.159423828125 6.0184326171875
6.58349609375 16.1470947265625 -15.972412109375
-22.592041015625 -3.71337890625 23.29296875
13.74072265625 16.33056640625 5.0350341796875
-0.57568359375 35.220458984375 -42.343017578125
12.85791015625 12.1939697265625 15.86962890625
28.77001953125 -2.6622314453125 35.80517578125
14.369140625 8.724853515625 30.4996337890625
-23.199951171875 -8.0538330078125 12.1134033203125
16.9892578125 11.51171875 -50.18505859375
-7.469482421875 -2.4776611328125 22.7462158203125
-4.065673828125 2.0250244140625 48.35400390625
-15.27783203125 -10.229736328125 19.2740478515625
-4.450439453125 33.8514404296875 -44.4971923828125
-9.1484375 9.414794921875 23.939453125
22.9404296875 14.1832275390625 -48.85107421875
-2.833984375 7.682373046875 -41.3336181640625
-7.469970703125 8.3050537109375 28.02099609375
-14.602294921875 -8.328369140625 15.6981201171875
-21.434814453125 -10.9498291015625 15.7039794921875
3.05810546875 9.060546875 23.9560546875
-6.423095703125 -4.3580322265625 3.84716796875
-18.380615234375 -11.0428466796875 22.3118896484375
9.945556640625 3.9163818359375 30.8338623046875
12.4716796875 5.3602294921875 27.6705322265625
14.55712890625 21.0242919921875 -11.5369873046875
-16.4052734375 -3.03125 24.0042724609375
0.302001953125 4.5882568359375 39.2135009765625
-7.830810546875 -7.4906005859375 7.35107421875
30.263427734375 -3.7998046875 31.7374267578125
-26.36962890625 -5.7950439453125 2.7216796875
-18.335205078125 -5.5657958984375 22.3497314453125
-8.11279296875 -1.2841796875 16.431396484375
0.913330078125 15.437255859375 -60.8447265625
9.654052734375 12.8209228515625 14.2520751953125
-13.495849609375 0.0404052734375 22.77490234375
7.65185546875 9.17724609375 -45.365234375
5.655029296875 6.2708740234375 -37.7020263671875
-2.652099609375 11.943359375 13.374755859375
8.97607421875 -11.429931640625 44.0428466796875
-33.217041015625 -7.02685546875 6.957763671875
14.32470703125 22.421142578125 -15.9178466796875
23.5576171875 13.33154296875 -24.1370849609375
19.56884765625 -11.953369140625 48.5963134765625
7.342529296875 7.8455810546875 -41.761962890625
4.759521484375 12.4034423828125 15.0203857421875
-32.685791015625 -9.4515380859375 15.493408203125
-12.416259765625 10.9151611328125 17.5072021484375
9.755859375 14.9034423828125 -18.1156005859375
22.511474609375 6.9490966796875 -33.5760498046875
1.95654296875 13.3157958984375 12.672119140625
23.6689453125 14.7840576171875 -21.7921142578125
-1.3388671875 10.31298828125 -48.2138671875
12.5234375 7.0723876953125 -39.854248046875
0.066162109375 2.1483154296875 -28.0372314453125
4.448486328125 35.56787109375 -40.97021484375
-2.93359375 11.2021484375 -51.1142578125
-12.29296875 -10.6441650390625 19.7952880859375
12.223876953125 -10.4483642578125 44.7685546875
-28.68017578125 -5.9671630859375 1.85693359375
9.52880859375 6.4476318359375 34.0374755859375
7.716796875 15.973388671875 4.509033203125
-20.589599609375 2.53271484375 27.39892578125
26.03662109375 -5.689208984375 36.854248046875
-8.911376953125 -6.6806640625 4.6793212890625
8.111572265625 13.0460205078125 -56.127685546875
12.52734375 14.5238037109375 9.2591552734375
-2.986328125 4.0252685546875 41.1031494140625
-19.0146484375 -11.4532470703125 18.3343505859375
-14.061767578125 -6.0521240234375 7.49072265625
-10.258544921875 -7.8182373046875 9.063720703125
9.26220703125 12.86669921875 -54.0804443359375
-4.24462890625 6.4453125 34.9853515625
3.6103515625 8.940673828125 -43.681884765625
-20.634033203125 -8.4305419921875 24.331787109375
0.58056640625 15.466064453125 -63.5906982421875
-20.395263671875 -13.2314453125 19.5823974609375
18.263427734375 22.205078125 -5.6932373046875
14.2705078125 11.5657958984375 -53.4154052734375
4.766357421875 14.63916015625 -59.0732421875
0.12548828125 11.9083251953125 -53.9755859375
20.485107421875 7.4898681640625 -40.4149169921875
12.398193359375 13.1519775390625 -56.1512451171875
10.0751953125 0.7066650390625 29.9552001953125
1.947509765625 18.20703125 -1.5078125
11.139892578125 11.2860107421875 -51.359375
-0.825439453125 6.6868896484375 -38.524169921875
14.94287109375 23.4110107421875 -20.30712890625
-1.099609375 9.489990234375 -45.03466796875
-5.314208984375 3.712158203125 -29.7791748046875
-1.11181640625 5.2232666015625 -34.891845703125
-5.541748046875 9.1331787109375 -39.3836669921875
11.751953125 16.0211181640625 4.10595703125
16.066650390625 5.11474609375 -33.632568359375
18.255615234375 21.2083740234375 -11.9459228515625
-8.65966796875 34.1636962890625 -51.4700927734375
-25.13720703125 -7.1612548828125 9.6180419921875
-35.0732421875 -10.7340087890625 9.4234619140625
-22.257080078125 -6.6484375 5.22705078125
-5.55419921875 14.3433837890625 -57.9627685546875
-8.235595703125 -2.1314697265625 19.82421875
-4.392822265625 12.809814453125 -53.95849609375
0.686767578125 14.76123046875 7.6912841796875
-7.167724609375 33.6605224609375 -43.17919921875
6.523681640625 11.8310546875 -59.4315185546875
2.786376953125 11.7928466796875 -51.2513427734375
14.649169921875 9.684326171875 27.5518798828125
-12.06103515625 -9.2037353515625 16.5665283203125
-30.978271484375 -10.0338134765625 21.6949462890625
2.243896484375 19.3221435546875 -15.15087890625
-25.85107421875 -8.568603515625 14.9384765625
7.90185546875 16.6181640625 -9.743896484375
8.90478515625 19.606201171875 -6.3826904296875
-19.58837890625 -8.8009033203125 8.263427734375
-4.41943359375 5.859619140625 -36.6102294921875
-0.85595703125 11.326171875 17.7657470703125
0.92822265625 1.696533203125 47.9591064453125
2.176513671875 16.0819091796875 -59.3250732421875
15.038330078125 11.151123046875 -50.034912109375
-28.71484375 -9.40576171875 16.514892578125
6.18603515625 6.4132080078125 35.2266845703125
5.376708984375 1.21826171875 26.3583984375
-28.197265625 -6.093505859375 19.4876708984375
-0.125732421875 15.467529296875 -57.8021240234375
-35.283935546875 -9.2568359375 6.69287109375
10.329833984375 9.7386474609375 -47.4613037109375
-30.53125 -4.08349609375 18.950439453125
27.14111328125 -5.1846923828125 34.0081787109375
21.359130859375 1.281494140625 51.03564453125
12.640625 18.9913330078125 -4.8212890625
-1.1279296875 9.261474609375 25.234619140625
-2.066162109375 2.4898681640625 46.80078125
0.039306640625 8.2132568359375 28.9024658203125
-16.164794921875 -5.5621337890625 4.23193359375
-33.7998046875 -3.0137939453125 21.534423828125
13.689208984375 25.4197998046875 -26.4764404296875
19.58251953125 9.1080322265625 -43.33642578125
-28.451904296875 -11.7440185546875 20.5933837890625
-1.907470703125 10.0443115234375 21.5887451171875
-17.4697265625 -9.5938720703125 15.0635986328125
21.075927734375 10.279541015625 -44.9495849609375
0.2939453125 12.8338623046875 14.275146484375
-8.792724609375 33.3704833984375 -44.2799072265625
-9.794921875 -11.1455078125 19.9869384765625
-1.007568359375 7.9720458984375 -41.9586181640625
19.363525390625 -9.912841796875 39.30224609375
-17.04248046875 -7.3458251953125 9.358154296875
6.720458984375 16.52392578125 2.9171142578125
-20.89794921875 -3.127685546875 25.511962890625
-1.419189453125 13.67333984375 10.2210693359375
-13.31298828125 -5.8746337890625 3.2535400390625
-20.305908203125 -5.16064453125 25.9390869140625
2.052001953125 7.2342529296875 32.3333740234375
4.8876953125 12.967529296875 -55.2720947265625
-12.9833984375 -7.007080078125 10.227294921875
10.55126953125 5.7384033203125 -30.5394287109375
1.428955078125 35.32470703125 -41.773193359375
-15.166748046875 -8.084228515625 20.5440673828125
24.302490234375 -5.5450439453125 40.45166015625
8.56201171875 5.5025634765625 -35.263916015625
5.958740234375 -0.3187255859375 29.8828125
10.713623046875 16.6739501953125 1.958251953125
-10.770751953125 -4.310546875 22.9476318359375
29.593505859375 -1.9864501953125 25.69873046875
7.95556640625 14.4869384765625 8.7623291015625
-9.828369140625 10.159912109375 21.2667236328125
-21.763427734375 -10.655517578125 21.8973388671875
-35.44970703125 -1.326904296875 17.6221923828125
-22.67919921875 -3.9605712890625 20.0565185546875
31.337646484375 -1.01416015625 23.394775390625
-21.979736328125 -7.507568359375 8.10400390625
24.46142578125 8.92529296875 -28.23388671875
-4.010009765625 32.35546875 -61.1082763671875
5.9443359375 -13.4404296875 46.543701171875
3.3212890625 3.2132568359375 27.7471923828125
-35.50537109375 -12.20654296875 16.1612548828125
19.788330078125 21.0970458984375 -6.48876953125
5.275390625 19.5872802734375 -6.076904296875
-1.716796875 4.27294921875 -30.98046875
6.41357421875 3.3232421875 31.3798828125
2.32861328125 5.9923095703125 36.2257080078125
18.433837890625 22.5880126953125 -16.94287109375
18.726318359375 12.818359375 -54.1826171875
7.35205078125 1.6597900390625 31.0269775390625
8.96923828125 2.254150390625 25.5667724609375
2.7705078125 17.8134765625 -12.3514404296875
-19.07763671875 -7.875 22.7425537109375
2.905029296875 15.2303466796875 -14.62060546875
5.42529296875 12.0391845703125 -53.16650390625
-26.38671875 -10.4010009765625 18.9404296875
16.416748046875 19.1243896484375 -4.1817626953125
-21.05810546875 0.0911865234375 26.8011474609375
17.58203125 9.9613037109375 -46.092529296875
-8.617431640625 -10.30859375 14.9229736328125
16.40625 26.482177734375 -29.318359375
20.3515625 21.651123046875 -14.7593994140625
5.700927734375 15.177490234375 -17.856689453125
-8.747314453125 -10.6002197265625 17.5350341796875
6.13232421875 12.9495849609375 -56.685546875
-4.985107421875 10.629638671875 -48.051025390625
-5.9833984375 7.3314208984375 30.59912109375
15.774658203125 6.7835693359375 -39.3912353515625
-33.96923828125 -10.0128173828125 13.1707763671875
-0.34130859375 3.5511474609375 -29.82421875
3.29443359375 11.5386962890625 18.7447509765625
14.517333984375 18.970703125 -0.5888671875
-26.999267578125 -8.2059326171875 12.5650634765625
-11.505859375 -8.07470703125 12.9188232421875
20.189208984375 12.1202392578125 -52.45263671875
3.8837890625 2.8887939453125 -27.803955078125
16.471923828125 20.9580078125 -10.886474609375
5.16796875 7.486083984375 -39.9305419921875
-6.9443359375 11.1268310546875 18.6844482421875
8.87451171875 6.813720703125 -38.8109130859375
1.45068359375 7.006591796875 -39.2734375
25.6220703125 10.5623779296875 -25.1827392578125
-31.953125 -6.267578125 3.277587890625
21.053466796875 20.1890869140625 -9.9373779296875
8.892822265625 17.21630859375 1.0562744140625
0.3134765625 3.07470703125 44.64013671875
-9.6875 -11.95849609375 21.8311767578125
0.5859375 3.901611328125 42.31689453125
14.7421875 8.01123046875 -42.58544921875
24.26904296875 7.671875 -31.7376708984375
-6.3017578125 10.070556640625 21.535400390625
0.21875 11.0064697265625 19.669921875
4.5947265625 18.162353515625 -9.309326171875
-0.885986328125 15.7921142578125 -60.613525390625
4.119384765625 -13.951416015625 49.459228515625
-4.72705078125 4.6573486328125 -33.6741943359375
3.1630859375 18.3568115234375 -2.8858642578125
-4.78759765625 11.2869873046875 18.138671875
23.6640625 8.1702880859375 -29.7445068359375
4.40185546875 36.782470703125 -35.5904541015625
4.646240234375 3.68359375 30.6146240234375
-2.416015625 -0.29296875 54.1719970703125
-3.575927734375 8.4901123046875 27.5911865234375
4.525390625 14.0224609375 10.75244140625
-2.975341796875 12.0557861328125 -52.7374267578125
21.93115234375 -6.9169921875 37.3427734375
14.560791015625 10.275146484375 25.8211669921875
11.67431640625 14.6328125 -13.1680908203125
-21.371337890625 -8.647216796875 4.6368408203125
9.147216796875 1.9830322265625 30.9735107421875
18.22314453125 -10.923828125 46.08056640625
-0.218505859375 7.50927734375 31.230712890625
-20.220703125 -11.8336181640625 22.171630859375
5.6103515625 17.699951171875 -0.51708984375
-22.538330078125 -10.9869384765625 19.8382568359375
3.4013671875 4.9114990234375 39.3724365234375
-1.689453125 7.93896484375 29.3997802734375
7.4619140625 1.839599609375 24.636962890625
29.8095703125 -3.199462890625 34.4141845703125
-10.1962890625 -3.681884765625 20.078369140625
-6.37841796875 9.0745849609375 25.4676513671875
-13.27880859375 -3.9940185546875 19.9447021484375
-3.874755859375 8.810302734375 -43.934326171875
-9.269775390625 33.6688232421875 -48.2315673828125
-24.9677734375 -7.7025146484375 11.3446044921875
-9.904296875 34.151123046875 -50.0399169921875
0.363037109375 36.4041748046875 -40.4840087890625
11.458740234375 17.8900146484375 -1.40185546875
15.35546875 22.0107421875 -14.3486328125
27.390869140625 -4.1204833984375 30.0958251953125
-32.09912109375 -6.633056640625 5.4962158203125
2.856689453125 6.3765869140625 29.6849365234375
0.81396484375 15.392333984375 4.3016357421875
-9.968994140625 10.7503662109375 19.5262451171875
2.323974609375 19.893798828125 -8.169921875
0.831298828125 12.1107177734375 16.0159912109375
2.927490234375 6.4930419921875 -37.708740234375
-31.02001953125 -8.684814453125 11.780517578125
11.9873046875 4.7183837890625 31.947265625
0.207275390625 19.2003173828125 -9.3963623046875
4.24853515625 2.4071044921875 29.393310546875
-1.487060546875 10.7769775390625 -50.11083984375
10.1748046875 8.2635498046875 -42.1641845703125
28.705322265625 -3.0433349609375 27.8525390625
16.04296875 11.81591796875 28.1871337890625
-21.561279296875 -9.9884033203125 13.7593994140625
-23.548828125 -2.744384765625 24.4503173828125
-25.54150390625 -3.569580078125 20.484619140625
10.95703125 4.8018798828125 -33.286865234375
7.478271484375 5.9844970703125 -37.436279296875
-4.090576171875 33.832763671875 -49.0260009765625
-1.888427734375 6.6026611328125 32.9796142578125
-3.16162109375 4.68017578125 38.9361572265625
7.303955078125 11.91064453125 -53.0018310546875
2.091552734375 5.91845703125 -36.08642578125
19.905029296875 -10.4603271484375 45.055908203125
12.64892578125 5.7890625 -36.423828125
-27.50634765625 -4.0638427734375 19.23876953125
-23.8076171875 -5.2115478515625 19.504638671875
16.364990234375 5.2777099609375 -35.408203125
5.853759765625 -13.16015625 48.73388671875
18.28564453125 6.0401611328125 -36.322509765625
-5.57763671875 33.94677734375 -45.9482421875
-19.71337890625 -10.1888427734375 11.986328125
14.56298828125 6.1373291015625 -36.55615234375
13.7646484375 24.1513671875 -23.643798828125
16.114501953125 23.11181640625 -17.7581787109375
2.34326171875 20.725341796875 -16.4708251953125
-3.127685546875 3.167236328125 44.3603515625
11.052001953125 15.135986328125 7.24951171875
-9.805908203125 8.6744384765625 26.394287109375
4.549560546875 6.7406005859375 21.8504638671875
2.9287109375 14.663330078125 -58.6259765625
-3.256591796875 10.5980224609375 20.619140625
2.05859375 10.5692138671875 -47.5689697265625
-31.2314453125 -3.60107421875 22.23876953125
-1.2998046875 14.298095703125 6.85400390625
-35.185302734375 -2.1273193359375 14.572265625
4.8896484375 13.8050537109375 -11.166015625
0.944580078125 13.69970703125 11.195556640625
4.76416015625 0.716796875 29.14794921875
-18.779541015625 -4.2198486328125 23.683349609375
-12.73779296875 -3.8043212890625 23.600341796875
0.77490234375 9.52294921875 -44.97216796875
-19.230224609375 -7.881591796875 6.6944580078125
-10.87451171875 -8.5269775390625 14.971435546875
18.44140625 -11.846435546875 42.28271484375
12.968017578125 -9.507568359375 42.3087158203125
-27.023193359375 -9.6715087890625 16.761474609375
-30.58642578125 -12.21240234375 20.8375244140625
14.184326171875 9.86669921875 -46.8443603515625
7.96484375 6.59228515625 35.2525634765625
-34.225830078125 -8.4967041015625 4.5465087890625
-3.40478515625 14.9971923828125 -60.5963134765625
9.59228515625 13.3873291015625 16.4715576171875
-15.9091796875 -3.798828125 22.357666015625
1.29052734375 4.525390625 -32.9224853515625
-21.09130859375 -6.4365234375 24.8446044921875
16.936279296875 -11.8028564453125 40.2384033203125
16.21826171875 -11.1064453125 43.790283203125
-24.911376953125 -6.8819580078125 7.9381103515625
-24.301025390625 -8.9576416015625 14.3111572265625
9.033447265625 -11.250244140625 47.6514892578125
6.822021484375 4.2119140625 33.267822265625
3.428955078125 19.54931640625 -6.1600341796875
-24.174072265625 -9.157958984375 21.1671142578125
8.6396484375 1.6583251953125 27.3826904296875
4.39453125 14.4754638671875 9.0418701171875
-10.86962890625 9.13818359375 24.4447021484375
31.631103515625 -3.0426025390625 30.60791015625
11.514404296875 2.755859375 27.6876220703125
13.0771484375 19.8985595703125 -14.263671875
26.97314453125 -3.8216552734375 37.6739501953125
-33.57275390625 -10.644287109375 16.334228515625
-3.6171875 2.495849609375 -28.9400634765625
5.52197265625 10.2303466796875 -49.3172607421875
3.9033203125 10.2794189453125 -47.300048828125
-8.833251953125 -9.318603515625 12.0030517578125
-22.45068359375 -5.575439453125 2.6939697265625
12.814208984375 5.243896484375 -33.99560546875
21.964111328125 5.6107177734375 -31.5947265625
-32.6083984375 -7.397216796875 8.499267578125
-33.817138671875 -11.986572265625 21.4395751953125
-3.766357421875 7.149169921875 31.185302734375
-7.047607421875 8.650634765625 30.6651611328125
-1.324951171875 4.9654541015625 -32.55029296875
-3.165283203125 34.208984375 -46.127197265625
11.487548828125 12.6011962890625 14.9644775390625
3.826416015625 3.953125 -30.0040283203125
-28.49169921875 -7.806884765625 10.7301025390625
-26.069580078125 -10.806640625 21.490478515625
-8.61279296875 -8.1495361328125 8.870361328125
2.951904296875 13.1993408203125 -56.0435791015625
-35.39892578125 -11.068115234375 13.0960693359375
32.158935546875 -2.9683837890625 27.087890625
-3.58984375 13.0843505859375 -55.4410400390625
-7.1015625 34.3997802734375 -50.8702392578125
3.91943359375 15.731689453125 -10.9569091796875
-2.458984375 5.695556640625 36.4051513671875
-33.591552734375 -2.72900390625 19.888427734375
-27.35693359375 -7.270751953125 9.1990966796875
-1.049072265625 12.4166259765625 -52.890380859375
-4.842041015625 9.424072265625 -45.159423828125
1.33837890625 10.03857421875 22.8604736328125
3.716064453125 5.5106201171875 37.5982666015625
-16.26904296875 -6.540283203125 7.76123046875
2.835205078125 16.2296142578125 -13.0653076171875
-0.248779296875 6.11083984375 -36.7052001953125
10.321533203125 -10.650146484375 43.3961181640625
-28.165283203125 -2.854736328125 22.142333984375
-14.3173828125 -7.61767578125 13.794677734375
-8.368896484375 -12.16748046875 19.2403564453125
8.954833984375 4.7498779296875 32.0841064453125
-23.658203125 -9.548583984375 16.42626953125
3.55517578125 15.810791015625 3.986328125
22.202880859375 12.7733154296875 -48.3724365234375
13.22265625 13.8067626953125 12.4857177734375
-4.759033203125 11.06689453125 -50.5745849609375
7.341796875 5.6129150390625 -30.2288818359375
-18.857421875 2.559814453125 27.494873046875
10.781982421875 5.7584228515625 -36.4906005859375
-0.8115234375 12.861572265625 -55.4443359375
0.16796875 5.007568359375 37.616943359375
2.28369140625 10.8448486328125 -49.9908447265625
-2.78515625 11.7364501953125 15.9942626953125
6.5712890625 14.8990478515625 7.844970703125
-4.24853515625 8.260009765625 -42.420166015625
-6.5673828125 -9.093994140625 15.77294921875
-2.976806640625 13.0899658203125 9.3570556640625
-4.53466796875 11.45361328125 16.5159912109375
-1.60498046875 2.3985595703125 -27.254638671875
12.367919921875 9.04833984375 -44.8084716796875
7.65869140625 14.156494140625 10.504638671875
-3.463134765625 5.257568359375 -35.41015625
3.387451171875 2.261962890625 26.2664794921875
-20.20263671875 -11.8116455078125 16.371826171875
17.1328125 7.9771728515625 -42.0614013671875
7.553466796875 18.44287109375 -8.051025390625
-3.6845703125 34.62890625 -50.7169189453125
5.814208984375 18.78466796875 -7.84228515625
7.0234375 10.29150390625 -48.6279296875
10.008056640625 14.61376953125 -11.735107421875
-14.956787109375 -9.0968017578125 17.1546630859375
6.033447265625 13.16259765625 13.3646240234375
-34.4873046875 -12.397216796875 17.4822998046875
3.35302734375 13.063232421875 13.49609375
-29.537841796875 -10.5379638671875 17.787353515625
25.368896484375 -4.1868896484375 39.5958251953125
-0.016357421875 5.31298828125 -33.6075439453125
25.117919921875 11.6978759765625 -23.582763671875
-24.308349609375 -6.1982421875 5.4495849609375
-17.789794921875 -8.664794921875 11.7100830078125
18.40380859375 20.1937255859375 -8.823974609375
9.23681640625 17.8758544921875 -0.9014892578125
21.328857421875 -9.0572509765625 39.8975830078125
-2.42724609375 3.63916015625 42.5853271484375
-8.15576171875 33.4013671875 -46.672119140625
-17.499755859375 -7.1927490234375 5.923583984375
-3.27099609375 34.273193359375 -43.3636474609375
13.04345703125 -11.26416015625 45.910400390625
-32.052490234375 -10.466064453125 17.8304443359375
9.38427734375 17.26171875 -9.9073486328125
1.622314453125 18.306396484375 -11.315185546875
22.490966796875 -10.248291015625 44.892822265625
11.6337890625 18.2872314453125 -12.0142822265625
-26.0732421875 -3.3848876953125 22.439697265625
5.453857421875 11.5457763671875 18.278076171875
-21.443115234375 -9.189208984375 22.503173828125
5.679443359375 1.663818359375 24.6195068359375
5.38232421875 14.6787109375 -15.932373046875
-8.002197265625 10.0966796875 21.8870849609375
5.885986328125 18.887451171875 -3.7750244140625
12.97216796875 19.926513671875 -7.464599609375
-29.288818359375 -5.837646484375 3.4180908203125
16.8544921875 12.2486572265625 -52.8138427734375
30.43701171875 -3.5478515625 28.6971435546875
1.188232421875 2.549560546875 -26.9588623046875
20.22314453125 5.7176513671875 -34.9874267578125
-6.0986328125 8.0606689453125 28.8189697265625
14.67578125 18.61572265625 -2.49609375
28.795166015625 -4.296142578125 31.3248291015625
-24.380615234375 -10.0498046875 17.822998046875
16.37158203125 23.853515625 -20.877685546875
-0.405517578125 9.759765625 23.3697509765625
-7.295654296875 -6.7816162109375 3.8690185546875
4.2431640625 15.7471923828125 -61.3193359375
0.22998046875 8.8634033203125 26.11669921875
14.1298828125 8.6448974609375 28.6473388671875
15.13427734375 4.48193359375 -32.5018310546875
12.009033203125 16.8785400390625 1.054931640625
2.542236328125 18.4698486328125 -4.3524169921875
13.46826171875 -12.68017578125 48.332275390625
7.764404296875 -13.0655517578125 43.6763916015625
13.3740234375 20.2916259765625 -12.446044921875
-1.10693359375 16.103271484375 -59.07177734375
19.025146484375 22.303955078125 -15.3387451171875
8.669189453125 3.51171875 -30.909423828125
3.8232421875 10.821533203125 20.4686279296875
17.05029296875 25.18994140625 -25.514404296875
-28.608642578125 -8.6810302734375 13.6724853515625
-5.572265625 6.931396484375 -36.4359130859375
11.800048828125 10.4874267578125 -48.2803955078125
-7.087890625 -6.254638671875 8.0008544921875
23.947265625 -7.107666015625 40.31689453125
24.037353515625 -5.3489990234375 33.7818603515625
8.9140625 10.3251953125 -48.5670166015625
-0.492431640625 1.66943359375 50.1212158203125
-1.140380859375 14.0018310546875 8.48388671875
20.482177734375 10.549072265625 -46.6097412109375
15.644287109375 11.9349365234375 -54.5394287109375
2.67822265625 3.9005126953125 41.888671875
-1.553955078125 12.3360595703125 14.43017578125
9.38232421875 11.3740234375 -50.42578125
12.970458984375 6.0706787109375 30.611083984375
5.5419921875 6.135986328125 37.4033203125
6.443603515625 15.3555908203125 6.1219482421875
28.256591796875 -4.5118408203125 34.884033203125
11.126220703125 -12.5650634765625 49.6776123046875
22.548583984375 7.921875 -30.9384765625
22.7841796875 9.808837890625 -36.929931640625
19.190673828125 7.1953125 -38.8433837890625
-27.330078125 -6.73876953125 5.9434814453125
21.16162109375 -10.7113037109375 49.0859375
5.3681640625 5.6436767578125 33.365234375
-18.47119140625 -7.8387451171875 8.9639892578125
-10.9990234375 10.9730224609375 18.157958984375
3.433837890625 7.14111328125 33.052001953125
9.819580078125 4.072509765625 -29.9207763671875
-35.58203125 -9.8790283203125 8.088623046875
1.95556640625 14.961181640625 6.804931640625
-30.911865234375 -7.8099365234375 8.8289794921875
-2.267333984375 13.2913818359375 -56.4591064453125
-9.014404296875 8.447509765625 29.24609375
-28.53955078125 -3.1533203125 19.9610595703125
16.07763671875 25.667236328125 -26.6298828125
16.046875 -11.9725341796875 47.476318359375
11.594970703125 4.860595703125 -31.8736572265625
14.587646484375 -11.6480712890625 45.309326171875
-7.73974609375 9.47216796875 24.5863037109375
-4.155517578125 33.69775390625 -64.1785888671875
7.43798828125 12.8956298828125 -11.250732421875
-21.75927734375 -7.3741455078125 6.5003662109375
8.312744140625 7.3941650390625 -40.6436767578125
-38.847412109375 -3.609130859375 14.2332763671875
-10.015869140625 -6.6873779296875 2.94482421875
4.607177734375 11.7664794921875 -51.688232421875
-1.79296875 4.588623046875 39.6455078125
26.01220703125 -2.8486328125 38.836181640625
4.176025390625 9.685791015625 21.44873046875
25.778076171875 -5.0955810546875 33.2965087890625
8.211669921875 13.1715087890625 12.8887939453125
-22.120849609375 -8.386962890625 11.0697021484375
-15.505615234375 -10.3570556640625 20.8382568359375
9.7353515625 1.1806640625 26.41748046875
-5.8662109375 33.555908203125 -43.9840087890625
-12.699951171875 -5.0357666015625 22.291015625
8.052490234375 13.582275390625 -57.5616455078125
10.189208984375 19.6553955078125 -7.215576171875
23.751953125 -3.5140380859375 31.525390625
-32.71875 -8.4178466796875 11.532958984375
6.62841796875 12.494384765625 15.5665283203125
9.479736328125 19.16943359375 -4.7269287109375
10.050048828125 8.7218017578125 -44.042236328125
14.1865234375 -10.7034912109375 40.2860107421875
17.190185546875 -11.6192626953125 49.3870849609375
-0.370849609375 34.749755859375 -43.7808837890625
19.571533203125 -11.269775390625 43.64208984375
11.313232421875 18.62158203125 -3.8135986328125
1.760009765625 23.4310302734375 -17.82568359375
-16.0634765625 -9.2498779296875 15.5390625
1.790283203125 2.2991943359375 -25.376220703125
-2.741455078125 9.889892578125 -47.6053466796875
14.74169921875 19.74560546875 -7.764892578125
11.769775390625 11.177734375 -49.79443359375
21.591064453125 -11.3475341796875 42.796630859375
-19.838134765625 -2.7486572265625 26.5306396484375
-10.419921875 -3.6748046875 21.5784912109375
-18.943603515625 -12.18359375 19.6685791015625
-35.385498046875 -12.144287109375 14.163818359375
11.589599609375 19.0252685546875 -9.793701171875
-30.30224609375 -6.6953125 6.106689453125
8.536376953125 -0.000732421875 29.1820068359375
5.199951171875 35.6551513671875 -31.3115234375
-4.558837890625 4.371337890625 -31.946044921875
14.037841796875 11.878662109375 -51.888916015625
17.665771484375 19.27685546875 -5.5750732421875
4.1689453125 15.70166015625 5.4296875
-29.894287109375 -8.1522216796875 10.25634765625
-1.801025390625 2.7835693359375 45.2061767578125
15.777099609375 9.303466796875 -44.16064453125
-21.50390625 -11.745849609375 19.0443115234375
-38.557861328125 -2.262939453125 14.912841796875
-21.726806640625 -5.839599609375 22.7535400390625
-14.666748046875 -7.1134033203125 10.6636962890625
14.39892578125 7.52197265625 -40.580078125
18.976806640625 10.48779296875 -47.301025390625
11.60107421875 7.843505859375 -41.1748046875
17.384521484375 5.9608154296875 -31.772216796875
0.73876953125 13.8463134765625 -55.891845703125
-20.32421875 -10.1116943359375 10.6153564453125
-18.0478515625 -2.849853515625 24.2691650390625
2.27734375 8.657958984375 25.29638671875
-7.517578125 -1.7166748046875 21.3995361328125
18.501953125 9.18017578125 -44.7528076171875
5.744873046875 35.2911376953125 -41.67138671875
12.755126953125 11.9339599609375 -54.929931640625
5.14892578125 37.51513671875 -38.3836669921875
-5.850830078125 34.4127197265625 -52.30419921875
-3.82275390625 14.0938720703125 -58.8013916015625
-5.380859375 7.235107421875 31.9642333984375
-21.9580078125 -8.9248046875 12.7901611328125
-3.07666015625 6.5264892578125 -37.876953125
-1.793701171875 34.4527587890625 -43.267578125
-3.882080078125 34.5849609375 -41.1865234375
6.182861328125 14.91064453125 -59.599609375
13.98388671875 21.265869140625 -16.794189453125
-2.092041015625 15.042724609375 -61.5189208984375
8.321044921875 -11.6785888671875 49.3792724609375
-0.60888671875 8.6822509765625 -43.57421875
3.831787109375 36.516357421875 -39.7110595703125
10.68798828125 12.27294921875 -52.960205078125
4.651611328125 11.074951171875 -50.17041015625
4.12255859375 4.843994140625 31.60693359375
13.6357421875 7.3660888671875 30.334228515625
-32.3974609375 -11.788330078125 19.576416015625
13.9658203125 16.2440185546875 7.058837890625
3.290771484375 14.205810546875 -13.6220703125
-1.404296875 7.26513671875 -40.3502197265625
19.4111328125 11.907470703125 -50.471435546875
3.43310546875 4.8739013671875 -34.717529296875
-3.400390625 11.037841796875 18.9522705078125
3.429443359375 5.5831298828125 25.103271484375
6.751220703125 4.3958740234375 -33.099609375
-17.6513671875 -10.745361328125 18.1397705078125
17.4736328125 10.85302734375 -48.8017578125
-29.10009765625 -6.2388916015625 5.0845947265625
18.844970703125 -10.93798828125 47.812744140625
-7.956787109375 -10.154541015625 13.2301025390625
-11.891357421875 -9.451171875 18.114501953125
7.825439453125 11.4144287109375 -51.7196044921875
-5.65673828125 13.0936279296875 -53.2647705078125
17.17578125 7.4588623046875 -40.67626953125
6.568115234375 -12.116943359375 49.48095703125
0.859130859375 8.0040283203125 -41.8946533203125
18.33740234375 14.1455078125 -56.015625
9.2763671875 15.001220703125 7.706298828125
26.82080078125 -5.46630859375 35.6365966796875
-17.5 -4.7025146484375 21.23779296875
7.86962890625 13.764892578125 -12.8658447265625
21.404541015625 -10.5054931640625 47.0914306640625
-4.092041015625 7.230224609375 -39.6695556640625
3.57373046875 12.924560546875 -54.361328125
0.434814453125 11.13525390625 -50.26025390625
7.08984375 4.137451171875 -29.8349609375
-33.821533203125 -1.6541748046875 17.43212890625
19.5625 21.2598876953125 -12.7928466796875
1.01708984375 3.8001708984375 -30.298828125
5.472412109375 3.3896484375 -30.599365234375
-11.700439453125 -5.9747314453125 2.4410400390625
-32.13720703125 -3.466064453125 18.9827880859375
-25.735595703125 -5.73095703125 4.031982421875
3.740966796875 7.904296875 -40.91552734375
20.352294921875 10.8533935546875 -48.4095458984375
24.245849609375 -6.6031494140625 38.1314697265625
6.142578125 11.4278564453125 -57.9656982421875
12.596923828125 11.8782958984375 -52.08447265625
1.665283203125 7.581787109375 28.8668212890625
17.7392578125 26.9884033203125 -30.9954833984375
24.0185546875 13.7486572265625 -20.76806640625
-1.282958984375 9.6285400390625 -46.7122802734375
8.733642578125 14.512939453125 -14.5184326171875
19.3466796875 5.1435546875 -33.3675537109375
14.73681640625 10.97509765625 -48.2021484375
30.51611328125 -3.953857421875 30.3197021484375
-7.99609375 -7.2366943359375 5.765869140625
11.131591796875 6.8157958984375 -39.36181640625
8.182373046875 4.1414794921875 -32.22802734375
21.763916015625 11.77734375 -46.0166015625
-21.875732421875 -7.760498046875 20.8917236328125
-5.875732421875 5.723876953125 -33.4981689453125
-35.633056640625 -0.62548828125 15.82958984375
-4.468017578125 9.9786376953125 -46.68408203125
15.223876953125 13.092529296875 -56.2625732421875
0.884521484375 17.9273681640625 -9.3807373046875
2.176025390625 9.36181640625 -44.67431640625
18.44384765625 25.3038330078125 -25.8995361328125
-2.95654296875 2.711181640625 -27.64111328125
18.352294921875 23.67822265625 -19.638916015625
12.833740234375 8.2386474609375 -43.3436279296875
17.209716796875 21.8868408203125 -14.1754150390625
-5.944091796875 33.8404541015625 -48.581787109375
-21.630126953125 -10.79052734375 17.116943359375
8.869384765625 12.560302734375 15.54833984375
-17.6728515625 -10.830322265625 21.0833740234375
2.912841796875 16.755126953125 1.0889892578125
6.26806640625 9.499755859375 -45.7667236328125
5.215087890625 16.9931640625 -9.8572998046875
23.250732421875 9.5263671875 -27.759521484375
26.19677734375 8.41796875 -28.352783203125
-12.497802734375 -10.4852294921875 21.2039794921875
23.9072265625 12.2989501953125 -23.1085205078125
30.715576171875 -2.6170654296875 33.4713134765625
9.976318359375 5.0887451171875 -34.289306640625
17.86279296875 20.798095703125 -10.5909423828125
5.924560546875 7.8463134765625 -41.95751953125
3.433837890625 19.07958984375 -9.021728515625
13.75341796875 17.9619140625 -1.4345703125
-18.784912109375 -6.75 5.479736328125
10.689697265625 18.5283203125 -8.803466796875
-3.020263671875 7.3951416015625 29.9442138671875
15.3603515625 -10.5711669921875 42.783447265625
11.920166015625 -9.8822021484375 41.301513671875
-14.3583984375 -4.9503173828125 3.9827880859375
-0.475341796875 6.268798828125 34.2841796875
7.426513671875 17.5772705078125 -0.3433837890625
17.47802734375 5.11328125 -33.43603515625
11.37841796875 14.2376708984375 -14.9737548828125
7.786865234375 15.5496826171875 -16.44384765625
1.67529296875 15.221435546875 -62.0247802734375
-17.626220703125 -5.5335693359375 3.0576171875
16.603515625 19.783935546875 -7.682373046875
19.666748046875 -11.3282470703125 40.8494873046875
-8.6171875 -2.72607421875 17.778076171875
5.77099609375 16.9749755859375 1.872314453125
-7.53515625 -0.6571044921875 19.889404296875
11.89111328125 15.719482421875 5.7540283203125
8.5224609375 16.81982421875 2.36572265625
19.378662109375 19.8936767578125 -7.84130859375
-0.760498046875 1.9617919921875 47.712890625
4.28466796875 6.58935546875 -38.097412109375
8.66552734375 14.0924072265625 -10.6253662109375
-9.77294921875 -9.3770751953125 14.687744140625
-22.534423828125 -5.650146484375 19.9361572265625
17.932373046875 23.09521484375 -18.163330078125
-5.22509765625 9.7548828125 23.42138671875
6.263671875 13.647216796875 -10.8740234375
-7.98876953125 11.19677734375 17.393310546875
-27.977783203125 -7.1903076171875 7.820068359375
-7.283935546875 0.1688232421875 17.4571533203125
12.764404296875 12.7972412109375 14.092529296875
-2.2265625 1.4979248046875 50.0843505859375
-23.5322265625 -6.9708251953125 8.657958984375
-6.794189453125 10.6871337890625 20.3504638671875
-32.312255859375 -10.73828125 21.8828125
23.7802734375 13.671630859375 -22.78759765625
-35.030517578125 -12.765625 19.7266845703125
5.107666015625 13.503662109375 -12.610595703125
24.080810546875 -6.038330078125 35.5294189453125
-2.331787109375 34.81982421875 -40.587158203125
8.65673828125 18.7318115234375 -3.27978515625
-8.721923828125 11.0946044921875 18.5909423828125
-36.947509765625 -1.4791259765625 13.6431884765625
6.862060546875 18.5914306640625 -2.8057861328125
-13.677978515625 -8.73095703125 16.67724609375
-15.288330078125 -3.924560546875 20.834716796875
22.32568359375 -6.4342041015625 36.0838623046875
-13.55712890625 -10.2095947265625 19.364990234375
0.919677734375 6.3255615234375 34.9246826171875
-1.39013671875 2.583251953125 -25.8336181640625
19.809814453125 -6.6768798828125 37.196533203125
-17.4658203125 -8.182373046875 10.3966064453125
-3.316162109375 13.174560546875 13.3902587890625
17.209228515625 25.0279541015625 -23.85302734375
-27.772216796875 -10.8262939453125 21.3990478515625
-2.951171875 9.3245849609375 24.615234375
9.09912109375 15.9749755859375 4.7122802734375
13.266845703125 6.3424072265625 -32.0770263671875
13.81640625 9.63232421875 -45.5172119140625
7.33984375 -12.6085205078125 46.326171875
14.315673828125 25.2955322265625 -24.9415283203125
-11.14599609375 33.3321533203125 -47.576416015625
12.83251953125 20.239990234375 -9.1614990234375
-1.748779296875 12.880126953125 12.200927734375
3.367431640625 15.2767333984375 6.83740234375
0.67578125 16.790283203125 -61.0748291015625
-17.52587890625 -7.46044921875 21.22265625
-8.93310546875 -3.2659912109375 22.4976806640625
-19.908447265625 -9.2823486328125 9.5810546875
-33.361083984375 -1.69873046875 23.1688232421875
20.945068359375 0.6402587890625 52.3333740234375
10.3720703125 1.2982177734375 24.2840576171875
9.4052734375 14.1331787109375 10.1368408203125
-19.67138671875 -9.25048828125 23.105224609375
