11.4755859375 8.041015625 38.16064453125
3.3173828125 22.2213134765625 -12.169677734375
-1.268798828125 26.091552734375 -12.49951171875
-4.37158203125 12.7021484375 -43.9971923828125
-15.114990234375 -5.2200927734375 14.271728515625
-0.81494140625 33.517822265625 -43.1673583984375
29.243408203125 -0.639404296875 27.80419921875
0.7802734375 20.7274169921875 -0.263916015625
9.342041015625 6.2353515625 44.085205078125
1.767333984375 18.5093994140625 4.8824462890625
10.013671875 16.9561767578125 11.4586181640625
6.357421875 10.5177001953125 27.4830322265625
15.6123046875 6.459716796875 -29.4456787109375
17.84033203125 19.269287109375 27.7657470703125
-42.65234375 -0.664794921875 -0.6324462890625
13.519775390625 -9.6865234375 50.1939697265625
15.426513671875 16.098388671875 -52.6627197265625
-14.34326171875 -6.887939453125 19.727783203125
5.564453125 13.0390625 22.8258056640625
-27.67431640625 -4.939697265625 15.1319580078125
-2.708740234375 8.8179931640625 37.1876220703125
-35.691650390625 -8.933837890625 22.1826171875
9.372802734375 15.3184814453125 -50.7724609375
4.62548828125 33.9656982421875 -35.92431640625
5.815185546875 19.165771484375 -13.8853759765625
6.2919921875 4.4085693359375 35.9412841796875
-49.998779296875 7.6326904296875 -37.62939453125
-9.165283203125 -3.7464599609375 7.13525390625
2.877685546875 6.995361328125 42.8438720703125
-12.257568359375 -6.8280029296875 23.2174072265625
-33.382080078125 -6.714599609375 18.4027099609375
-18.8447265625 -7.752197265625 21.6767578125
1.065185546875 20.2364501953125 -7.132568359375
14.91455078125 8.1046142578125 -32.907958984375
18.79833984375 -7.3824462890625 49.5947265625
-32.71240234375 -9.0347900390625 20.3447265625
20.957275390625 18.1175537109375 32.1468505859375
8.431640625 6.2139892578125 -27.630126953125
5.45556640625 19.1346435546875 -3.753173828125
-26.261474609375 -2.9779052734375 4.647705078125
19.594482421875 23.6697998046875 -14.2711181640625
8.496337890625 -8.4798583984375 44.42919921875
14.71875 13.995361328125 27.177001953125
7.542236328125 20.8753662109375 -1.61328125
23.4384765625 -2.8795166015625 35.0635986328125
6.75439453125 3.1441650390625 54.4327392578125
3.15966796875 18.1424560546875 7.4478759765625
-3.44677734375 14.74951171875 -47.7364501953125
6.416015625 5.9901123046875 46.39111328125
5.6982421875 6.5863037109375 -29.283203125
1.11572265625 13.5316162109375 -45.827392578125
18.78369140625 9.10546875 -34.312255859375
-28.7333984375 -4.5499267578125 7.81494140625
-3.4013671875 18.377685546875 7.9830322265625
-0.091064453125 33.467041015625 -38.1707763671875
8.4169921875 7.4404296875 41.6904296875
19.278076171875 22.4742431640625 -1.1734619140625
-0.681396484375 11.4365234375 -40.483154296875
1.005859375 33.1109619140625 -40.70361328125
-15.47998046875 -2.7135009765625 7.80126953125
19.279296875 6.9783935546875 -29.677978515625
-31.3115234375 -4.257080078125 6.909423828125
7.446533203125 17.4644775390625 -10.75537109375
-48.40087890625 1.1990966796875 -48.493408203125
-14.724609375 -4.1990966796875 11.2275390625
2.57861328125 35.6619873046875 -46.1700439453125
15.9921875 23.772216796875 -10.1102294921875
9.146240234375 0.82958984375 51.820556640625
-21.967041015625 -4.2850341796875 5.02783203125
8.3984375 16.34912109375 -53.0841064453125
-2.451904296875 6.9215087890625 43.228759765625
-1.127197265625 8.1392822265625 -32.4730224609375
-15.188232421875 -8.95654296875 24.9732666015625
-1.808349609375 19.7562255859375 5.7989501953125
4.947265625 20.18505859375 1.97021484375
-22.4033203125 -8.2607421875 20.05810546875
11.987548828125 12.4453125 -43.38916015625
-29.228271484375 -4.969482421875 11.3492431640625
1.231689453125 17.0906982421875 9.25732421875
-1.375 23.3421630859375 -4.53564453125
-4.432861328125 32.7401123046875 -40.834716796875
-17.24462890625 -6.3414306640625 20.062255859375
-18.775634765625 -3.7515869140625 8.1951904296875
3.180419921875 8.1085205078125 37.4931640625
5.077880859375 14.5655517578125 -6.7578125
10.249267578125 16.19873046875 14.3316650390625
-0.001953125 7.2420654296875 40.9166259765625
7.35205078125 8.227783203125 -33.069091796875
5.103271484375 3.561279296875 32.6064453125
15.881103515625 13.7650146484375 -46.8353271484375
8.00146484375 3.2373046875 28.012939453125
3.0888671875 3.9417724609375 27.8133544921875
-2.935302734375 16.0277099609375 -51.187744140625
4.953125 -10.878662109375 48.6064453125
6.244873046875 6.6907958984375 37.3853759765625
-10.77392578125 -3.69140625 10.765625
10.95166015625 11.1898193359375 -40.72412109375
12.478271484375 -4.761962890625 41.89306640625
4.074951171875 24.564697265625 -13.4141845703125
7.3369140625 4.6866455078125 49.6353759765625
-23.21337890625 -10.115234375 23.66259765625
5.4853515625 14.924560546875 -48.8310546875
24.853515625 0.7366943359375 30.852783203125
19.72802734375 22.8800048828125 -5.3917236328125
15.938232421875 22.2860107421875 -5.24072265625
16.530517578125 9.7789306640625 39.4609375
4.562255859375 16.25244140625 -53.1204833984375
-1.349365234375 3.18798828125 -20.679443359375
5.543212890625 15.3538818359375 16.87255859375
-40.329345703125 -2.7313232421875 -4.1241455078125
-4.2392578125 3.929931640625 -21.466552734375
-3.072265625 19.0450439453125 -58.450927734375
25.80078125 -2.8880615234375 40.0579833984375
10.0302734375 14.4395751953125 19.1195068359375
-47.9140625 5.922119140625 -40.1602783203125
-47.461669921875 7.570556640625 -37.973388671875
-13.059326171875 -3.2095947265625 6.6058349609375
4.12060546875 27.6256103515625 -17.11474609375
8.2841796875 -8.6202392578125 49.55322265625
-0.5556640625 8.2274169921875 38.5169677734375
2.817626953125 41.0426025390625 -51.739990234375
-2.765625 3.5908203125 53.19287109375
-50.160888671875 10.04345703125 -38.43994140625
-1.708740234375 21.3414306640625 0.5853271484375
0.774658203125 23.4100341796875 -9.51806640625
1.96435546875 18.6273193359375 -9.082275390625
1.79541015625 7.7249755859375 34.2459716796875
28.404052734375 -2.8848876953125 35.030029296875
-24.038330078125 -6.939453125 18.609375
-51.4365234375 8.48876953125 -41.399658203125
-29.5205078125 -14.742431640625 -5.983642578125
-27.882568359375 -6.68994140625 20.442626953125
10.28369140625 -0.047119140625 47.307373046875
19.487060546875 6.87451171875 -25.9652099609375
13.293212890625 19.23779296875 3.9268798828125
15.891845703125 9.59033203125 -24.7979736328125
0.8583984375 26.6710205078125 -14.4322509765625
-38.895751953125 -5.9351806640625 -4.2979736328125
23.6376953125 12.6243896484375 -23.64501953125
-41.552490234375 -2.7799072265625 -1.4075927734375
4.5126953125 4.525390625 29.7823486328125
-33.2177734375 -3.8134765625 8.914306640625
2.177490234375 5.206298828125 47.98388671875
0.897705078125 4.0849609375 -22.8973388671875
-46.24853515625 3.10693359375 -50.120849609375
-1.430419921875 9.577880859375 -35.50537109375
-23.35546875 -4.681884765625 8.5263671875
1.5498046875 15.528564453125 -49.600341796875
16.417236328125 11.7552490234375 -42.600341796875
12.74560546875 -6.354736328125 45.3924560546875
19.990966796875 -5.2623291015625 41.5535888671875
-6.0068359375 6.139892578125 -25.216064453125
22.74072265625 -3.5020751953125 37.4583740234375
18.93603515625 -8.1060791015625 44.1824951171875
11.730712890625 4.8524169921875 47.8858642578125
-7.31103515625 8.3885498046875 -29.3499755859375
-22.90380859375 -6.02294921875 13.5692138671875
4.884033203125 -5.7188720703125 52.635986328125
7.546875 1.96142578125 32.402099609375
3.5732421875 19.316162109375 -12.6820068359375
3.425048828125 5.4891357421875 -25.4410400390625
-25.1484375 -4.0804443359375 11.4049072265625
-1.952392578125 12.7764892578125 -43.1448974609375
-28.8408203125 -19.26416015625 -5.28759765625
9.6640625 8.0279541015625 -32.2261962890625
5.596435546875 16.7353515625 12.8709716796875
14.660888671875 -8.0013427734375 45.1231689453125
6.3994140625 -3.126708984375 52.641357421875
2.199462890625 3.8619384765625 52.873046875
0.70703125 18.8731689453125 -56.0496826171875
10.478759765625 6.634765625 -29.1456298828125
17.40576171875 15.166015625 -50.7244873046875
16.228515625 12.6700439453125 31.794189453125
-18.31298828125 -5.3753662109375 16.0823974609375
-32.8974609375 -6.390869140625 15.662109375
7.127197265625 9.80810546875 -36.1009521484375
-21.932861328125 -8.574951171875 15.09716796875
-19.57763671875 -6.5294189453125 12.8558349609375
27.877685546875 -3.377685546875 32.2501220703125
-27.4375 -4.2752685546875 12.846435546875
7.11767578125 18.2841796875 -8.0816650390625
-5.271240234375 17.1998291015625 -54.669921875
-10.211669921875 -6.7615966796875 17.9769287109375
-33.491943359375 -11.486083984375 -5.5333251953125
9.91650390625 9.8424072265625 -37.2630615234375
-4.2568359375 6.244384765625 -27.9874267578125
-10.3896484375 -8.5218505859375 23.7811279296875
-25.59375 -5.3968505859375 16.398193359375
7.731201171875 -3.0592041015625 50.172119140625
13.744384765625 14.335693359375 -48.0091552734375
3.850341796875 15.531005859375 -50.387451171875
19.865478515625 15.5093994140625 46.1134033203125
12.724853515625 15.3505859375 -50.7403564453125
14.2177734375 9.844970703125 -37.1763916015625
-7.05517578125 15.0150146484375 -48.544189453125
4.292724609375 3.5509033203125 35.1285400390625
10.72314453125 18.855712890625 5.4345703125
14.8369140625 12.503662109375 -44.1571044921875
4.175048828125 11.8438720703125 -41.5592041015625
-4.89794921875 8.0699462890625 -32.5760498046875
-3.009033203125 33.7691650390625 -42.332275390625
19.858642578125 12.9398193359375 -44.84814453125
1.45751953125 33.50244140625 -36.4677734375
0.9013671875 5.7496337890625 45.82958984375
11.521484375 -8.8133544921875 48.9429931640625
2.024169921875 38.61474609375 -50.7919921875
10.2451171875 1.259521484375 49.848876953125
20.440673828125 -8.593994140625 48.543212890625
15.607421875 12.173583984375 34.2620849609375
4.384765625 13.5390625 -46.18994140625
-32.61669921875 -9.0782470703125 22.78857421875
7.5546875 3.8763427734375 30.288330078125
18.201416015625 23.38818359375 -10.52001953125
4.22998046875 -8.994384765625 49.9227294921875
15.448974609375 5.906982421875 -27.0673828125
21.907470703125 7.6395263671875 -25.768798828125
-13.84814453125 -5.7257080078125 17.1353759765625
11.648681640625 20.7149658203125 -12.1143798828125
12.94287109375 21.0079345703125 -2.187744140625
7.04150390625 19.470947265625 3.218505859375
7.951904296875 15.3072509765625 -6.066162109375
-31.355712890625 -4.817138671875 12.0582275390625
7.975830078125 -7.15087890625 46.468017578125
4.357177734375 6.1756591796875 27.588623046875
4.885009765625 25.3563232421875 -15.362548828125
3.92236328125 20.6229248046875 -3.1126708984375
13.270263671875 8.1171875 42.28271484375
7.2685546875 12.5059814453125 -43.4501953125
10.13818359375 4.4776611328125 49.3988037109375
7.7685546875 -1.5340576171875 51.9083251953125
10.462646484375 21.0482177734375 -3.15283203125
30.193603515625 -2.6923828125 30.859375
-1.658935546875 9.2308349609375 34.779052734375
10.952880859375 -4.2569580078125 43.624755859375
11.712646484375 20.213623046875 1.0311279296875
11.202880859375 8.393798828125 -33.771240234375
-7.1640625 15.891357421875 -50.83837890625
13.07177734375 13.09716796875 25.10107421875
12.320068359375 15.455322265625 15.162109375
-10.842529296875 -2.702880859375 8.085205078125
-3.72509765625 4.2716064453125 -23.8310546875
9.000244140625 12.968017578125 23.9149169921875
3.751708984375 7.424072265625 -30.427001953125
17.878662109375 10.5667724609375 -39.0526123046875
26.325439453125 -3.9293212890625 35.904541015625
24.179931640625 -2.2408447265625 33.109619140625
9.924072265625 7.6817626953125 40.1290283203125
16.380615234375 -2.2003173828125 40.7366943359375
-27.28173828125 -3.382080078125 6.5325927734375
-10.47607421875 -5.219482421875 14.5816650390625
-9.7607421875 -7.9388427734375 21.05517578125
15.29638671875 -8.9566650390625 48.3936767578125
-5.23681640625 16.1898193359375 -52.3892822265625
-4.6044921875 34.841796875 -47.5875244140625
3.477294921875 15.901611328125 -6.15478515625
0.538818359375 14.3717041015625 -47.7421875
-2.504638671875 11.386962890625 -39.3094482421875
11.58349609375 6.7259521484375 43.97216796875
-3.8154296875 9.52978515625 -35.9688720703125
10.51513671875 5.5355224609375 45.7598876953125
2.579345703125 4.0703125 33.8258056640625
12.35009765625 14.302490234375 18.3736572265625
11.078125 13.393798828125 21.98681640625
13.599609375 7.1903076171875 -30.2061767578125
31.473388671875 -1.7938232421875 27.2574462890625
-30.0791015625 -17.4779052734375 -5.383056640625
3.13720703125 7.988525390625 30.091552734375
-28.5537109375 -5.917724609375 16.89013671875
-3.8720703125 13.790771484375 -45.8558349609375
-0.482177734375 35.517578125 -48.2923583984375
-0.86669921875 18.8270263671875 -58.47216796875
2.748779296875 8.4349365234375 -33.1468505859375
-21.08544921875 -7.4326171875 10.917724609375
0.328125 19.541259765625 3.3099365234375
-25.61572265625 -7.7943115234375 23.2218017578125
17.52392578125 20.9908447265625 22.849609375
16.995361328125 22.30810546875 18.27294921875
5.471923828125 12.5133056640625 26.15966796875
-35.858642578125 -3.5667724609375 6.7818603515625
20.766357421875 11.5736083984375 -40.9139404296875
-29.7109375 -8.582763671875 21.9017333984375
-1.48779296875 24.2510986328125 -6.915283203125
18.69580078125 12.3790283203125 -42.8892822265625
0.75830078125 7.002685546875 -29.3511962890625
17.6884765625 10.53515625 35.3397216796875
16.90087890625 8.302001953125 -33.653564453125
2.409423828125 20.73046875 -5.2857666015625
9.20068359375 15.238525390625 -8.559814453125
11.8232421875 7.8358154296875 -26.859375
12.989501953125 3.914306640625 45.5494384765625
17.564208984375 25.3245849609375 -14.910888671875
-14.006591796875 -8.2994384765625 23.1474609375
-5.88134765625 33.9129638671875 -44.4185791015625
-20.292724609375 -8.2506103515625 16.9249267578125
0.782470703125 27.60498046875 -16.387451171875
15.258056640625 9.9468994140625 41.1622314453125
-16.519287109375 -4.2327880859375 12.3404541015625
11.106689453125 12.143798828125 26.04345703125
30.419677734375 0.8753662109375 24.3359375
-44.1357421875 0.710693359375 -0.0291748046875
6.892578125 -5.9832763671875 48.8505859375
4.247802734375 10.9415283203125 -39.6556396484375
-1.3291015625 34.5164794921875 -45.11474609375
-8.695068359375 34.171142578125 -46.887939453125
19.613037109375 -3.053466796875 38.18115234375
-2.314453125 32.8953857421875 -38.28857421875
21.48583984375 -0.368896484375 34.66748046875
-36.787109375 -9.5904541015625 -3.34228515625
-2.588134765625 5.3143310546875 48.0106201171875
-35.196533203125 -6.869140625 19.457275390625
-0.5166015625 4.48486328125 50.1595458984375
-22.812744140625 -3.4998779296875 6.7769775390625
18.106689453125 -9.6107177734375 45.43798828125
3.590087890625 36.952880859375 -49.324462890625
15.42333984375 -7.999267578125 42.1617431640625
20.567626953125 15.7493896484375 -51.8529052734375
0.900146484375 10.71484375 -38.532958984375
-25.531982421875 -2.8885498046875 9.19287109375
3.41650390625 16.241455078125 -10.303466796875
2.716064453125 9.4482421875 -35.4345703125
4.560791015625 6.037353515625 -27.3607177734375
-19.254638671875 -8.6846923828125 23.4871826171875
-35.255615234375 -3.443115234375 8.8677978515625
11.804443359375 14.14892578125 -46.8321533203125
11.80517578125 9.71875 -36.4249267578125
8.37109375 -10.3992919921875 45.1890869140625
20.01708984375 8.5582275390625 -32.717041015625
6.485595703125 7.3408203125 -31.1856689453125
-12.971435546875 -4.7496337890625 14.9356689453125
14.558349609375 10.0062255859375 37.5950927734375
1.677001953125 3.5447998046875 31.9007568359375
-35.344970703125 -4.850830078125 13.005126953125
-16.8857421875 -7.8349609375 24.7021484375
20.1171875 14.58203125 -48.3187255859375
3.59423828125 2.74853515625 31.4244384765625
17.89599609375 21.0008544921875 -1.5250244140625
18.871337890625 13.8851318359375 -46.37451171875
8.01318359375 2.1112060546875 52.9461669921875
-20.578857421875 -9.125244140625 20.3966064453125
-12.529296875 -6.02294921875 18.81640625
-3.65380859375 17.7239990234375 -55.8017578125
0.85693359375 9.5714111328125 -36.2684326171875
2.314453125 12.996337890625 -44.265625
-17.501220703125 -2.2117919921875 7.787353515625
8.4267578125 16.5697021484375 13.006103515625
14.895751953125 24.69482421875 -12.554931640625
-22.946044921875 -8.615234375 21.989501953125
-4.185791015625 3.862548828125 -27.5615234375
-27.00830078125 -8.832275390625 24.5072021484375
3.014892578125 18.1199951171875 -57.3394775390625
4.302001953125 4.3912353515625 50.587646484375
9.158447265625 21.0020751953125 -0.2264404296875
13.358642578125 11.1282958984375 -39.8736572265625
-33.07177734375 -4.5625 10.784912109375
1.99560546875 5.64111328125 -27.0914306640625
7.404541015625 5.6273193359375 27.2529296875
16.0908203125 -6.1090087890625 42.28955078125
14.091064453125 12.713134765625 29.013916015625
0.024658203125 38.4561767578125 -50.823486328125
3.18310546875 20.664794921875 0.2684326171875
21.1533203125 10.1455078125 -36.992919921875
19.36181640625 15.165771484375 -50.2989501953125
-4.041015625 5.890380859375 -21.1234130859375
7.991455078125 17.7574462890625 -4.75
11.1845703125 1.622314453125 46.0899658203125
-25.949462890625 -6.395263671875 19.83251953125
-18.1650390625 -6.134765625 17.9791259765625
11.413330078125 -7.16748046875 47.217041015625
-1.055908203125 5.7669677734375 45.22216796875
-50.657958984375 8.1859130859375 -39.4969482421875
-28.8857421875 -6.7198486328125 18.7239990234375
-5.52783203125 12.133544921875 -42.48291015625
13.44287109375 15.98291015625 -52.6903076171875
17.907470703125 22.371826171875 -5.997314453125
-43.766357421875 -0.134765625 -2.1826171875
18.646728515625 -9.0211181640625 47.8216552734375
9.107421875 15.7388916015625 15.888671875
3.2509765625 19.5418701171875 3.8905029296875
9.39501953125 2.64599609375 32.2867431640625
1.762939453125 16.373046875 -53.9293212890625
16.487548828125 10.8446044921875 -40.6787109375
-13.37451171875 -6.984130859375 21.4342041015625
20.9130859375 -6.5634765625 44.775146484375
-24.377685546875 -2.8837890625 5.1854248046875
-3.13330078125 7.8145751953125 -31.7620849609375
2.24951171875 19.34326171875 -11.0455322265625
-36.0107421875 -6.5413818359375 17.4417724609375
2.905029296875 4.115966796875 -21.1893310546875
4.814208984375 7.060546875 42.1558837890625
-36.985107421875 -8.15966796875 -4.647705078125
-6.236328125 10.3001708984375 -37.1168212890625
15.17431640625 23.6771240234375 -6.7308349609375
7.629638671875 17.3360595703125 8.8177490234375
-0.32421875 21.7142333984375 -3.94970703125
6.6689453125 18.51318359375 6.0040283203125
-35.092529296875 -11.3662109375 -3.6146240234375
8.20068359375 5.7833251953125 45.618896484375
8.4189453125 -3.2930908203125 47.9957275390625
27.84912109375 1.19189453125 27.2701416015625
11.283935546875 17.8656005859375 7.84375
4.94921875 7.7073974609375 38.4080810546875
-1.359619140625 14.2801513671875 -47.3720703125
2.066650390625 25.31591796875 -13.7799072265625
7.473388671875 14.1639404296875 19.75390625
2.556396484375 17.766845703125 -7.1087646484375
2.306884765625 20.9989013671875 -1.41357421875
-3.982177734375 33.4017333984375 -39.0762939453125
7.57080078125 3.92333984375 52.52685546875
12.657470703125 8.1185302734375 40.4720458984375
4.445556640625 6.205078125 44.08349609375
7.115478515625 5.67626953125 29.83154296875
7.692138671875 8.0621337890625 40.0386962890625
23.11279296875 -4.322021484375 42.5115966796875
9.3017578125 -4.8485107421875 45.917236328125
18.69384765625 23.6241455078125 -12.600830078125
21.487060546875 7.458251953125 -29.9576416015625
17.444580078125 -4.6429443359375 41.92822265625
5.847900390625 18.1236572265625 -11.5435791015625
-6.54638671875 35.693603515625 -48.32080078125
1.566162109375 8.5833740234375 38.3504638671875
15.62841796875 24.458984375 -14.2781982421875
2.762939453125 33.7276611328125 -41.010009765625
19.44482421875 -0.7587890625 37.0146484375
-0.188232421875 20.5440673828125 1.3544921875
8.319580078125 11.6072998046875 -41.1173095703125
-2.72900390625 7.3626708984375 -28.5762939453125
4.822265625 5.3193359375 -24.198486328125
3.982421875 17.5740966796875 -13.399169921875
4.492919921875 17.2498779296875 -55.8251953125
2.541015625 12.3590087890625 -42.3245849609375
-7.06640625 13.802001953125 -45.0914306640625
10.5234375 -1.720947265625 43.828125
9.146728515625 19.734619140625 3.381103515625
1.18408203125 33.848876953125 -44.7596435546875
-0.506103515625 24.7164306640625 -11.02490234375
0.065185546875 21.337158203125 -1.8807373046875
8.851806640625 16.7010498046875 -12.102783203125
5.43798828125 17.0595703125 -8.3819580078125
-3.027099609375 36.1568603515625 -49.0596923828125
-20.320068359375 -4.680908203125 5.8558349609375
29.951171875 -2.0274658203125 28.826904296875
8.247802734375 -9.2718505859375 47.640625
9.672119140625 -1.8505859375 46.762939453125
1.796142578125 4.7490234375 30.488037109375
1.857666015625 16.7293701171875 -9.017822265625
-14.525146484375 -3.6400146484375 9.3038330078125
6.567138671875 20.691162109375 0.0135498046875
27.678466796875 -0.89013671875 28.930908203125
-27.517333984375 -19.0733642578125 -7.1448974609375
-3.633544921875 37.8155517578125 -50.510986328125
-13.3857421875 -8.1954345703125 24.8817138671875
6.397216796875 3.7100830078125 28.86669921875
5.274169921875 7.7705078125 27.6094970703125
23.30029296875 -4.391357421875 39.0185546875
-22.40771484375 -11.001953125 22.2755126953125
9.913818359375 14.264892578125 -47.6527099609375
6.332763671875 20.8897705078125 -13.5587158203125
21.66552734375 -4.87060546875 40.931640625
-18.041015625 -3.5819091796875 11.564208984375
14.843994140625 9.013427734375 -34.8253173828125
19.513427734375 6.3314208984375 -27.70849609375
16.95947265625 5.8680419921875 -25.791259765625
6.98193359375 10.7696533203125 -39.6309814453125
15.541748046875 7.3681640625 -31.362060546875
18.825439453125 18.2646484375 28.9246826171875
9.96533203125 20.526611328125 1.4351806640625
4.317138671875 9.945068359375 -36.9537353515625
-16.58544921875 -2.877197265625 6.056640625
7.876708984375 10.453125 -37.622314453125
16.26171875 21.76416015625 -3.17626953125
-16.798095703125 -5.014892578125 15.0308837890625
2.10986328125 6.3338623046875 44.34765625
2.06494140625 4.6475830078125 -24.397705078125
6.262451171875 14.46044921875 -47.2615966796875
4.093505859375 3.8060302734375 52.600830078125
7.52685546875 9.148681640625 27.6748046875
-15.792236328125 -7.120849609375 20.8104248046875
-6.588623046875 18.2369384765625 -55.35205078125
6.396240234375 5.9859619140625 -27.72509765625
1.74755859375 22.712646484375 -10.875
19.783447265625 -5.844970703125 43.5579833984375
-4.88671875 11.334716796875 -39.7642822265625
5.662353515625 12.0987548828125 -42.718017578125
-9.5673828125 -3.8507080078125 9.1524658203125
-9.9384765625 -6.073974609375 16.0806884765625
-8.736572265625 -7.3480224609375 17.1136474609375
23.718505859375 14.288818359375 -22.9468994140625
5.556640625 8.4847412109375 -33.887939453125
7.4453125 15.1312255859375 -49.59619140625
11.988037109375 -5.7489013671875 43.3194580078125
10.587646484375 17.3310546875 9.415771484375
6.7001953125 13.4952392578125 21.2791748046875
-2.00390625 4.2479248046875 51.7010498046875
-26.628173828125 -6.9991455078125 21.69287109375
16.328125 14.7386474609375 -48.746337890625
-6.87109375 9.623291015625 -33.5977783203125
-5.328125 14.75048828125 -48.158935546875
-22.71728515625 -5.8389892578125 6.6834716796875
24.04541015625 -0.6846923828125 31.7459716796875
24.403076171875 -3.8634033203125 36.198486328125
5.099609375 -7.4720458984375 49.5662841796875
19.842041015625 22.052490234375 -3.81884765625
5.15625 39.972412109375 -51.0235595703125
20.353759765625 14.4556884765625 47.6702880859375
-39.334228515625 -4.2425537109375 -3.97900390625
22.041748046875 10.1553955078125 -24.9365234375
-31.024169921875 -6.2076416015625 15.4267578125
-0.356201171875 23.8304443359375 -8.217041015625
2.97119140625 34.4088134765625 -35.47119140625
8.439208984375 -8.5640869140625 51.31689453125
8.243408203125 16.2147216796875 -9.685791015625
1.071044921875 7.280517578125 42.3251953125
3.84814453125 18.6744384765625 5.8837890625
16.00927734375 20.9609375 0.10009765625
-0.336181640625 4.514892578125 -24.0882568359375
7.90087890625 6.233154296875 36.97021484375
13.388671875 20.744140625 -0.500244140625
5.158935546875 17.0009765625 11.181884765625
8.84130859375 12.89501953125 -44.5948486328125
-31.443359375 -8.4180908203125 21.4029541015625
-0.968994140625 3.3016357421875 53.72412109375
0.12060546875 18.958984375 5.312744140625
3.683349609375 -10.7293701171875 49.8162841796875
-4.6982421875 33.3616943359375 -43.2376708984375
-1.614501953125 38.98486328125 -51.18310546875
7.612060546875 11.9051513671875 27.0382080078125
17.599853515625 6.5582275390625 -29.376708984375
9.36083984375 12.56103515625 25.58203125
6.051513671875 20.909912109375 -2.53125
-28.9130859375 -8.927978515625 23.5166015625
6.672607421875 16.634765625 -53.059814453125
-13.06494140625 -3.679931640625 11.0361328125
-6.1787109375 8.09912109375 -30.9853515625
0.06591796875 7.60009765625 -30.90234375
8.71923828125 17.3905029296875 10.1824951171875
13.924560546875 8.0872802734375 -26.3448486328125
7.06689453125 3.638916015625 32.3494873046875
12.929931640625 19.64208984375 2.26806640625
-0.08740234375 12.9403076171875 -44.7110595703125
11.843505859375 16.7786865234375 11.0968017578125
11.95556640625 13.373291015625 -44.8951416015625
1.083251953125 21.8258056640625 -5.561767578125
29.775390625 -0.3819580078125 26.16552734375
7.1396484375 5.367919921875 48.0447998046875
4.677490234375 5.4447021484375 46.9638671875
-6.27685546875 11.2135009765625 -38.597412109375
18.484130859375 22.843994140625 -8.8919677734375
-51.427001953125 11.040283203125 -39.0955810546875
-46.19677734375 6.5748291015625 -37.318359375
-24.301025390625 -4.0374755859375 9.8338623046875
-22.777587890625 -7.2415771484375 11.2589111328125
5.922119140625 12.63330078125 24.4871826171875
2.390625 6.856689453125 36.2420654296875
17.037109375 -8.54443359375 48.671630859375
6.023193359375 14.3258056640625 18.3990478515625
5.989501953125 4.4658203125 30.7432861328125
-33.10693359375 -13.2608642578125 -5.4759521484375
-20.215576171875 -8.964111328125 25.4122314453125
20.12744140625 7.759765625 -31.185791015625
17.27880859375 10.1826171875 -37.476318359375
0.219970703125 25.36669921875 -12.99462890625
0.656005859375 22.1802978515625 -8.0565185546875
10.68115234375 7.2030029296875 -31.100341796875
13.40673828125 -8.8848876953125 48.668701171875
4.80419921875 21.4974365234375 -12.6641845703125
9.962890625 -8.2235107421875 49.3909912109375
11.029541015625 15.7520751953125 -51.1102294921875
-33.90625 -8.06298828125 22.120849609375
15.97705078125 -9.0836181640625 45.384765625
-22.50244140625 -8.12060546875 16.8006591796875
-0.619873046875 32.844482421875 -41.59521484375
13.135986328125 8.3814697265625 -33.3182373046875
15.1015625 -8.28369140625 46.8223876953125
-1.687255859375 17.970947265625 8.42138671875
-2.855712890625 10.5615234375 -37.413818359375
7.14013671875 -9.2982177734375 45.804931640625
-10.8544921875 -7.5411376953125 22.3177490234375
-6.251708984375 32.8736572265625 -40.8431396484375
-4.9990234375 33.957763671875 -46.0545654296875
-17.63427734375 -7.361083984375 23.10205078125
12.600341796875 14.9107666015625 16.791748046875
15.092041015625 23.7265625 -8.4412841796875
1.559814453125 17.927001953125 6.8863525390625
-20.08203125 -5.39306640625 8.982666015625
-2.821044921875 15.2413330078125 -49.67822265625
-1.464599609375 26.7677001953125 -14.0780029296875
3.40771484375 7.251708984375 41.211669921875
1.1201171875 8.0177001953125 -32.84326171875
-49.614501953125 5.9544677734375 -40.18798828125
19.6015625 11.1090087890625 -39.7657470703125
27.624755859375 -3.978271484375 33.820556640625
-27.099853515625 -3.1976318359375 8.2117919921875
1.873291015625 33.6826171875 -39.3604736328125
26.28857421875 -0.8736572265625 30.1336669921875
-0.815185546875 8.8511962890625 -33.9794921875
-24.23291015625 -5.0140380859375 12.4818115234375
1.95361328125 3.2601318359375 54.4361572265625
-6.10400390625 7.20556640625 -29.1005859375
3.5634765625 35.3408203125 -34.063232421875
17.244140625 -7.556884765625 43.3087158203125
1.936767578125 27.815673828125 -15.0396728515625
4.78369140625 2.0733642578125 33.5023193359375
26.739990234375 -2.657958984375 31.03466796875
5.769287109375 17.3953857421875 9.5830078125
7.31787109375 9.1494140625 -34.56298828125
2.80517578125 6.0950927734375 34.3516845703125
8.081298828125 18.33642578125 6.9034423828125
-23.5087890625 -9.164794921875 25.5201416015625
9.244140625 21.331787109375 -1.8712158203125
-19.136962890625 -6.9658203125 16.893310546875
-2.435302734375 8.27734375 38.8062744140625
0.871337890625 11.82177734375 -41.616455078125
-31.596923828125 -6.216796875 12.94482421875
7.040283203125 15.50390625 16.1383056640625
-9.87646484375 -7.1607666015625 19.568359375
10.82861328125 6.2373046875 -27.5579833984375
12.259033203125 11.9168701171875 -41.8250732421875
10.7099609375 10.602294921875 -39.1793212890625
-34.752685546875 -5.5634765625 14.5059814453125
9.643310546875 14.791748046875 -49.2130126953125
19.349365234375 -4.507080078125 39.9559326171875
8.416259765625 14.0067138671875 -46.4842529296875
17.98974609375 9.577880859375 -35.906005859375
-4.765869140625 5.998046875 -26.4195556640625
-5.0869140625 8.7218017578125 -34.097900390625
-4.651611328125 5.2166748046875 -24.921142578125
-8.55908203125 -5.588623046875 11.3125
-8.798828125 -6.26171875 13.62841796875
-23.724853515625 -8.53369140625 23.5972900390625
15.01708984375 10.6148681640625 39.1077880859375
-18.826416015625 -5.0662841796875 12.0035400390625
3.5810546875 16.703369140625 -11.892578125
1.506103515625 35.5797119140625 -47.437744140625
-21.389404296875 -10.1593017578125 24.203125
-15.940673828125 -6.35986328125 18.9100341796875
6.694580078125 17.275634765625 -13.347412109375
6.4306640625 7.3560791015625 41.9354248046875
4.31298828125 6.724609375 37.2344970703125
5.88720703125 24.396240234375 -13.799560546875
-2.072265625 4.792724609375 -24.5042724609375
-39.2412109375 -6.735595703125 -2.89013671875
-14.464599609375 -4.7220458984375 12.7767333984375
-14.855224609375 -5.7431640625 15.8214111328125
-30.594970703125 -6.543701171875 18.6429443359375
-0.94677734375 11.95947265625 -42.0311279296875
0.64013671875 34.49365234375 -35.0836181640625
-28.621337890625 -4.4921875 9.4600830078125
-30.745849609375 -3.89111328125 5.4034423828125
12.666748046875 9.1942138671875 38.5523681640625
-20.765625 -8.4805908203125 18.8912353515625
-1.484375 7.101318359375 41.62158203125
5.422607421875 3.4754638671875 53.515869140625
-22.791748046875 -2.4776611328125 5.3658447265625
-25.406982421875 -6.0408935546875 17.9019775390625
-6.563232421875 7.7349853515625 -26.1885986328125
12.49755859375 21.271484375 -3.87255859375
19.92236328125 22.8624267578125 -9.6883544921875
22.027587890625 -1.9183349609375 34.756591796875
-28.907958984375 -5.3612060546875 12.9112548828125
-33.064697265625 -7.106201171875 19.9642333984375
2.80419921875 10.8011474609375 -38.8902587890625
-5.522216796875 13.2537841796875 -45.14501953125
-31.788818359375 -8.039306640625 19.42724609375
0.631591796875 3.590087890625 53.5225830078125
17.6875 24.928955078125 13.17822265625
-11.0068359375 -4.2674560546875 12.277099609375
7.66552734375 13.2891845703125 23.029296875
-22.797607421875 -7.990234375 18.45068359375
-49.129638671875 4.0086669921875 -47.744873046875
5.705810546875 -9.507568359375 47.76611328125
13.90966796875 6.4854736328125 -26.60595703125
3.588134765625 7.2440185546875 28.650390625
-2.7939453125 7.422119140625 -30.19287109375
2.66943359375 13.826416015625 -46.1727294921875
18.374755859375 8.2491455078125 -32.803466796875
4.4423828125 17.7109375 8.71533203125
6.794921875 1.529541015625 54.423828125
2.639404296875 20.9058837890625 -11.167236328125
-21.804443359375 -9.8028564453125 21.3775634765625
-1.960693359375 18.5086669921875 6.81201171875
9.967529296875 15.70166015625 -52.3428955078125
-0.15380859375 32.6181640625 -39.5408935546875
24.0029296875 10.797607421875 -23.5164794921875
-41.43896484375 -3.2816162109375 -3.098388671875
14.653564453125 -8.6424560546875 43.6510009765625
5.917724609375 4.6824951171875 50.38037109375
-2.74755859375 4.0006103515625 -20.5880126953125
-46.870361328125 6.2044677734375 -38.938232421875
1.08935546875 4.874267578125 49.10498046875
1.77880859375 8.2979736328125 36.556884765625
14.402099609375 -5.663330078125 42.2579345703125
-3.077392578125 17.0826416015625 9.4337158203125
6.522705078125 7.886474609375 38.5849609375
2.669921875 23.66162109375 -12.359130859375
-22.677734375 -6.0037841796875 9.0936279296875
-3.059814453125 9.2232666015625 35.5296630859375
3.46044921875 4.7608642578125 49.2947998046875
-32.5087890625 -9.025146484375 24.44482421875
11.85791015625 6.6402587890625 -29.9281005859375
-10.108154296875 -3.6400146484375 5.8653564453125
9.623046875 18.51123046875 6.594482421875
0.19482421875 15.70263671875 -50.3974609375
-11.970458984375 -8.0751953125 24.1864013671875
-0.0517578125 37.3271484375 -49.7193603515625
7.99755859375 6.939453125 -26.2943115234375
-1.143798828125 5.4354248046875 46.8681640625
6.878173828125 -1.5792236328125 53.55908203125
10.227783203125 13.7578125 20.7113037109375
5.790283203125 15.9595947265625 15.2977294921875
12.578125 12.4669189453125 23.1790771484375
18.1630859375 -2.3115234375 39.119873046875
9.468017578125 15.3333740234375 17.5516357421875
11.1376953125 -6.625732421875 45.6051025390625
7.722412109375 6.911376953125 43.2445068359375
26.71533203125 -3.4847412109375 37.3583984375
2.9140625 17.537841796875 9.020263671875
-42.828369140625 -1.775390625 -2.0682373046875
-18.54638671875 -3.1798095703125 6.6942138671875
-48.7265625 8.56640625 -38.6282958984375
19.7822265625 9.30126953125 -35.497314453125
-30.175048828125 -4.796142578125 8.4830322265625
25.716796875 -2.8516845703125 32.2100830078125
5.09375 18.2220458984375 6.715087890625
9.591064453125 6.8408203125 42.51171875
13.761962890625 7.6461181640625 -31.7742919921875
10.68896484375 12.757568359375 -44.1806640625
7.028564453125 6.3828125 44.796875
2.334716796875 7.95556640625 -27.9315185546875
11.994384765625 -9.82275390625 50.44287109375
-48.68896484375 6.911376953125 -39.2578125
-20.63037109375 -7.6748046875 13.3455810546875
4.830322265625 15.7279052734375 -51.5675048828125
-29.636474609375 -4.4443359375 6.565673828125
10.658203125 9.259521484375 -35.2900390625
-4.9912109375 1.62646484375 -27.5458984375
13.812255859375 9.15625 41.277099609375
14.626220703125 15.4248046875 -51.5301513671875
3.88037109375 8.8902587890625 -34.272216796875
15.29345703125 13.7852783203125 30.2371826171875
16.216552734375 11.390625 35.4359130859375
17.0908203125 12.5975341796875 30.524169921875
0.99755859375 4.4425048828125 51.6038818359375
10.78173828125 16.4564208984375 12.6917724609375
19.958984375 10.7105712890625 -38.170166015625
-22.540771484375 -7.130859375 14.569091796875
7.22216796875 6.758056640625 -29.2144775390625
15.63720703125 13.174072265625 -45.281982421875
20.380615234375 -0.697265625 35.801025390625
3.585693359375 39.7432861328125 -51.060546875
-7.34423828125 33.74609375 -43.6324462890625
-7.077392578125 12.5889892578125 -41.6387939453125
18.0869140625 24.4036865234375 -13.7696533203125
17.10205078125 24.1221923828125 -11.2882080078125
14.2958984375 21.6793212890625 -2.4239501953125
10.609375 11.0277099609375 28.352783203125
3.2783203125 16.55908203125 -53.8978271484375
14.89453125 24.50537109375 -10.877685546875
-0.0751953125 3.8948974609375 -21.73779296875
4.521240234375 3.8641357421875 28.3319091796875
-1.11669921875 19.4091796875 4.485595703125
6.53662109375 -10.61669921875 48.400390625
4.29345703125 19.72265625 -4.54345703125
-27.73828125 -3.241455078125 4.91064453125
4.17724609375 7.9144287109375 39.7042236328125
-1.24169921875 34.8389892578125 -46.7293701171875
9.8359375 -0.1700439453125 48.9814453125
-4.353271484375 19.16357421875 -57.6383056640625
4.701171875 14.2574462890625 -47.711181640625
22.837646484375 11.38671875 -24.29248046875
2.947021484375 28.0252685546875 -16.239013671875
4.72216796875 26.8524169921875 -15.95556640625
6.512451171875 15.370361328125 -6.5413818359375
1.537353515625 20.2333984375 0.95361328125
7.384521484375 19.9053955078125 -3.0892333984375
-2.328857421875 34.3052978515625 -43.910400390625
-25.719482421875 -4.4490966796875 12.9205322265625
8.086181640625 19.2486572265625 -9.1324462890625
-0.861083984375 21.2701416015625 -0.6629638671875
-12.024658203125 -6.252197265625 21.7073974609375
11.8251953125 19.20068359375 4.2728271484375
4.823974609375 4.8629150390625 31.6131591796875
2.221923828125 19.650390625 -6.345947265625
-28.97021484375 -5.6641845703125 14.877197265625
2.706787109375 36.10205078125 -48.1915283203125
16.4423828125 6.1005859375 -28.2445068359375
14.6201171875 6.26611328125 -28.268798828125
8.15771484375 15.760986328125 -51.5377197265625
-14.018310546875 -3.3946533203125 7.7421875
-31.7568359375 -14.8321533203125 -5.7230224609375
-3.49365234375 12.4842529296875 -42.8052978515625
2.607177734375 -10.3104248046875 51.5511474609375
16.6865234375 6.7855224609375 -30.6009521484375
-2.530029296875 33.20458984375 -36.58251953125
1.245849609375 16.974853515625 -52.649169921875
10.536376953125 2.64501953125 49.3765869140625
0.87890625 8.0565185546875 39.897705078125
16.258056640625 15.745849609375 -51.4771728515625
3.009521484375 2.8553466796875 28.8297119140625
-28.845947265625 -7.7069091796875 20.948486328125
5.028076171875 9.871337890625 27.663330078125
8.171142578125 7.8720703125 -31.8779296875
-17.5458984375 -7.0399169921875 21.5294189453125
4.2734375 -11.4873046875 50.95263671875
8.75830078125 4.6907958984375 48.88916015625
7.370361328125 16.6463623046875 -12.1717529296875
11.39013671875 7.706787109375 39.8206787109375
-5.5810546875 32.2501220703125 -39.677490234375
-31.115478515625 -9.6270751953125 22.769287109375
13.64306640625 12.984375 27.2969970703125
17.39453125 13.834716796875 -46.3990478515625
13.81201171875 -4.146484375 41.73974609375
15.64501953125 9.8714599609375 -37.5540771484375
-36.95849609375 -9.6431884765625 21.91455078125
5.2001953125 13.1878662109375 -45.0106201171875
21.017333984375 8.7540283203125 -33.9024658203125
-3.18798828125 34.7135009765625 -46.3509521484375
-1.270263671875 8.843994140625 36.8792724609375
-26.125 -4.552490234375 14.9168701171875
-1.162109375 7.8367919921875 40.1025390625
8.921630859375 8.5157470703125 -33.3966064453125
-7.103759765625 34.3480224609375 -45.20068359375
14.74462890625 11.13720703125 -40.6668701171875
1.52392578125 17.6739501953125 -54.5780029296875
-1.21337890625 2.7017822265625 55.282470703125
13.47216796875 14.8642578125 -49.573974609375
-1.48486328125 4.5174560546875 -20.0458984375
-2.758056640625 13.1259765625 -44.3192138671875
9.024658203125 -0.0821533203125 50.6800537109375
13.450439453125 12.49365234375 -43.3609619140625
-0.237060546875 13.7080078125 -46.628173828125
22.973388671875 8.6143798828125 -25.99462890625
2.2841796875 2.123046875 31.595703125
8.539794921875 9.83447265625 -36.4755859375
-0.0576171875 18.4808349609375 -57.3056640625
8.458984375 10.762451171875 27.696044921875
4.1474609375 17.012939453125 -5.4908447265625
-8.440673828125 -4.2344970703125 8.311767578125
1.612548828125 18.08544921875 -56.945068359375
-11.442626953125 -4.38671875 13.877685546875
-11.3515625 -2.9490966796875 9.6527099609375
7.13525390625 -7.0802001953125 47.705810546875
-9.52490234375 -4.7562255859375 10.6090087890625
-19.863037109375 -8.787353515625 21.7657470703125
-21.61767578125 -9.06689453125 17.4615478515625
-14.58251953125 -7.5594482421875 22.037841796875
-19.564208984375 -8.0926513671875 20.3048095703125
-11.711181640625 -2.4703369140625 6.8453369140625
-7.317626953125 11.9154052734375 -39.32177734375
3.015869140625 7.9097900390625 -31.5926513671875
-6.97998046875 10.4996337890625 -35.8919677734375
-2.716796875 14.26904296875 -46.583251953125
4.041015625 14.8734130859375 -48.852294921875
2.15625 7.0260009765625 -29.717041015625
16.607666015625 -3.5155029296875 41.281982421875
-28.23388671875 -20.551025390625 -5.5174560546875
9.5341796875 11.162109375 -40.344482421875
-24.15625 -6.170166015625 17.1390380859375
-23.920654296875 -7.708251953125 20.078857421875
-21.915771484375 -3.249755859375 4.0294189453125
19.14794921875 22.8846435546875 -6.7078857421875
15.788330078125 14.0245361328125 28.137451171875
-4.675048828125 14.1390380859375 -47.0263671875
3.54541015625 33.8856201171875 -37.2132568359375
-2.9580078125 18.2574462890625 -56.9388427734375
-25.6923828125 -3.709228515625 5.7442626953125
-33.975341796875 -6.00048828125 16.8985595703125
-30.279296875 -16.1619873046875 -5.9146728515625
-32.71875 -3.572021484375 7.37744140625
21.357177734375 -3.383056640625 37.8082275390625
-33.8076171875 -4.37060546875 11.9979248046875
-12.3525390625 -7.2491455078125 25.6083984375
20.2353515625 -6.7391357421875 50.346435546875
-31.810302734375 -4.49853515625 8.4462890625
-34.151123046875 -3.9952392578125 10.031005859375
-14.6767578125 -3.6173095703125 6.4215087890625
-2.887451171875 3.933349609375 -22.2340087890625
-52.302490234375 9.4114990234375 -42.05517578125
10.4296875 5.2008056640625 47.4210205078125
-32.33251953125 -6.0252685546875 14.1583251953125
0.537841796875 33.3370361328125 -42.759033203125
-4.7265625 11.7841796875 -41.3104248046875
-24.161865234375 -1.5797119140625 4.6612548828125
19.0517578125 21.37158203125 -2.260986328125
-22.77880859375 -8.33984375 13.867431640625
5.62890625 19.5506591796875 3.1611328125
17.24658203125 21.9501953125 -4.8162841796875
-18.19580078125 -3.656005859375 9.482666015625
7.8193359375 4.5279541015625 50.956298828125
22.084228515625 17.58056640625 45.9493408203125
5.3388671875 17.472412109375 -13.784912109375
11.329345703125 14.098876953125 19.5615234375
14.954345703125 22.10009765625 -3.6019287109375
18.76806640625 22.0126953125 -4.7364501953125
8.67724609375 20.4534912109375 -2.923095703125
-30.091552734375 -5.8482666015625 12.3154296875
6.184814453125 2.075439453125 32.7532958984375
17.28857421875 21.4940185546875 -0.164306640625
5.2021484375 5.80517578125 36.6397705078125
10.76025390625 11.850341796875 -42.266357421875
14.02587890625 10.507080078125 -38.7225341796875
10.6875 -7.6959228515625 48.3048095703125
0.89306640625 5.5521240234375 47.5223388671875
3.55419921875 25.4757080078125 -14.5430908203125
4.924560546875 6.0478515625 45.3963623046875
12.36865234375 12.26953125 29.217041015625
3.568603515625 4.83056640625 34.9603271484375
9.974365234375 -7.6160888671875 44.365966796875
5.341064453125 18.194091796875 -4.7877197265625
21.258056640625 12.8548583984375 -44.8409423828125
5.65380859375 10.968994140625 -40.032958984375
-35.140869140625 -8.8460693359375 23.4686279296875
-34.843017578125 -6.0572509765625 18.0455322265625
20.01123046875 12.064208984375 -42.0911865234375
5.642578125 9.7449951171875 -36.5489501953125
1.976806640625 17.9453125 -10.470458984375
1.544189453125 34.6214599609375 -45.900146484375
1.9521484375 19.3115234375 -7.6898193359375
28.9033203125 -3.1839599609375 31.073486328125
3.51220703125 21.50390625 -2.1097412109375
2.21435546875 3.8797607421875 -22.4801025390625
4.600341796875 22.865234375 -12.85009765625
-0.36328125 22.6666259765625 -5.4671630859375
1.35546875 20.0782470703125 -8.83935546875
16.387451171875 12.685791015625 -44.1104736328125
24.7841796875 12.7872314453125 -22.7421875
-3.88916015625 17.140869140625 -54.2689208984375
10.1083984375 -4.1859130859375 44.8685302734375
-1.63671875 36.094970703125 -49.056640625
14.49267578125 13.8486328125 -46.840576171875
-0.458251953125 9.7708740234375 -36.6717529296875
9.936767578125 13.033447265625 22.6934814453125
0.634033203125 11.2386474609375 -40.0833740234375
-0.40966796875 17.63623046875 8.850830078125
-0.263427734375 33.8939208984375 -36.860595703125
12.8359375 5.1871337890625 46.7550048828125
15.131103515625 14.2525634765625 -48.005126953125
4.37060546875 6.6939697265625 -28.89404296875
-17.9638671875 -1.974609375 5.3482666015625
8.610107421875 14.5247802734375 19.04541015625
-2.438232421875 8.33984375 -32.8795166015625
20.80322265625 6.74755859375 -26.7764892578125
25.25439453125 -3.9349365234375 34.9449462890625
11.550537109375 15.9560546875 13.92626953125
-26.49462890625 -4.0924072265625 11.7236328125
-3.174072265625 33.3057861328125 -40.73828125
-1.994140625 11.634033203125 -40.8819580078125
-4.324951171875 15.995361328125 -50.80126953125
-26.93994140625 -5.40771484375 16.7120361328125
-5.121337890625 9.7286376953125 -36.37109375
3.804931640625 14.900390625 -7.1722412109375
3.0107421875 8.510986328125 38.8878173828125
-24.63037109375 -9.4254150390625 24.1337890625
13.1357421875 6.786865234375 44.564453125
18.61865234375 15.8984375 46.5545654296875
3.390869140625 28.9398193359375 -17.3385009765625
10.211181640625 7.5313720703125 38.36376953125
5.190673828125 16.6544189453125 -54.2791748046875
-2.74658203125 9.682861328125 -35.1134033203125
6.890380859375 16.493896484375 12.46630859375
6.3916015625 19.05419921875 4.38525390625
-3.924560546875 16.0899658203125 -52.793701171875
6.239501953125 19.9456787109375 1.5601806640625
-16.29443359375 -2.64501953125 9.00048828125
-11.314208984375 -6.29833984375 26.3388671875
-14.531494140625 -6.238037109375 18.21044921875
18.98779296875 24.449462890625 -15.43994140625
17.25830078125 23.3197021484375 -9.2841796875
7.835693359375 5.9227294921875 31.244384765625
9.06298828125 6.611572265625 -28.778076171875
0.227294921875 26.5318603515625 -15.747802734375
3.50537109375 15.922119140625 -51.957275390625
-18.313232421875 -7.8709716796875 24.1700439453125
3.54736328125 5.0938720703125 47.6417236328125
3.460693359375 3.06005859375 34.0743408203125
-4.1357421875 15.342041015625 -49.275634765625
20.71337890625 18.69287109375 30.9359130859375
-0.415771484375 10.913330078125 -38.934326171875
21.15869140625 17.422607421875 33.76953125
-1.73876953125 15.5892333984375 -50.4287109375
8.94775390625 2.1737060546875 51.7342529296875
20.885986328125 16.4012451171875 45.987060546875
12.626220703125 17.64501953125 7.8726806640625
11.600341796875 21.2259521484375 -2.208740234375
28.812744140625 0.404541015625 26.717529296875
1.936279296875 15.902587890625 -7.9072265625
-22.115966796875 -6.00830078125 11.169677734375
1.857177734375 40.129638671875 -51.439453125
24.986328125 -4.098876953125 39.2376708984375
-1.74853515625 7.7440185546875 -31.33251953125
-2.256103515625 6.24560546875 44.8070068359375
-27.89501953125 -4.1336669921875 11.2154541015625
-1.251953125 6.4432373046875 43.6431884765625
12.15771484375 7.002685546875 42.776123046875
0.385009765625 8.5848388671875 34.7813720703125
10.406982421875 15.4962158203125 15.484375
14.648681640625 -9.3546142578125 49.5257568359375
-2.8447265625 7.211669921875 41.967041015625
0.45068359375 8.42626953125 37.3487548828125
15.683837890625 21.100341796875 1.405029296875
5.630126953125 11.8140869140625 27.3056640625
8.705322265625 16.02685546875 14.6309814453125
-29.63330078125 -6.169677734375 15.939453125
0.89306640625 19.8182373046875 2.1163330078125
-34.357177734375 -12.3494873046875 -4.9620361328125
-11.900390625 -3.3076171875 11.6063232421875
16.4697265625 12.10107421875 32.9920654296875
-49.925048828125 8.611572265625 -36.705810546875
14.880859375 22.9471435546875 -4.733154296875
18.240478515625 6.958984375 -30.5335693359375
15.200927734375 -2.6583251953125 41.8193359375
4.967041015625 4.637451171875 35.890869140625
-38.178466796875 -7.1197509765625 -4.10302734375
22.18115234375 -2.6126708984375 35.898193359375
0.56689453125 15.9637451171875 -54.38818359375
8.89697265625 -6.348388671875 45.90673828125
1.6376953125 7.5550537109375 41.138671875
2.767333984375 4.1358642578125 51.687744140625
21.47607421875 14.4788818359375 -48.7283935546875
16.2314453125 22.92041015625 -6.3970947265625
19.8349609375 23.1031494140625 -13.0782470703125
18.779296875 -4.77783203125 41.1400146484375
12.289794921875 12.4256591796875 26.630615234375
13.001953125 18.6068115234375 5.0751953125
1.650390625 19.3238525390625 3.3350830078125
-29.721923828125 -4.9378662109375 10.1043701171875
