-0.3837890625 23.7003173828125 -16.54443359375
6.742431640625 12.4189453125 34.6832275390625
3.94189453125 24.6104736328125 -0.400146484375
-32.94287109375 -1.06640625 17.46337890625
-9.018798828125 18.9183349609375 -45.7342529296875
-12.52734375 8.782958984375 20.4569091796875
12.34228515625 30.5787353515625 -16.73486328125
3.71435546875 11.3338623046875 38.5921630859375
8.590576171875 20.3929443359375 -49.959228515625
-6.90966796875 14.52880859375 -36.665771484375
10.39111328125 22.871337890625 4.9798583984375
2.4892578125 8.641357421875 26.116455078125
7.513916015625 26.4913330078125 -12.58056640625
10.126220703125 13.53076171875 -32.7774658203125
11.88916015625 27.1767578125 -6.3763427734375
-0.384033203125 -6.9166259765625 49.8583984375
-3.982421875 -8.258056640625 51.1982421875
2.909423828125 25.44970703125 -9.5179443359375
-5.26611328125 24.4259033203125 -59.397705078125
9.85009765625 -4.5211181640625 41.83935546875
-14.046142578125 1.3314208984375 6.1947021484375
-25.595947265625 2.3548583984375 1.7886962890625
-16.91357421875 -1.7230224609375 15.233154296875
1.32177734375 10.3548583984375 28.619873046875
-6.3193359375 19.3519287109375 -47.615478515625
20.927490234375 17.2054443359375 -36.8968505859375
6.27001953125 12.0537109375 30.01416015625
24.5966796875 2.6751708984375 26.9996337890625
-18.703369140625 5.0428466796875 -0.4227294921875
4.704833984375 22.4625244140625 -18.330078125
-8.551513671875 23.3046875 -56.742431640625
3.204345703125 22.55419921875 -14.4937744140625
9.948486328125 14.18408203125 30.6402587890625
15.091796875 28.3819580078125 -10.6640625
-25.18359375 -5.0264892578125 16.73486328125
27.683837890625 6.1903076171875 19.660400390625
-4.187255859375 10.7098388671875 -32.0516357421875
0.61376953125 12.8681640625 29.2412109375
0.768798828125 6.583984375 27.0189208984375
-12.448974609375 -2.0648193359375 12.6087646484375
28.655517578125 4.3253173828125 27.627197265625
-32.475341796875 1.302490234375 4.56201171875
11.80078125 -5.2158203125 46.7318115234375
-24.73828125 -1.4844970703125 4.9595947265625
6.873291015625 14.8583984375 -37.2388916015625
22.247802734375 1.4271240234375 35.57470703125
-14.797119140625 2.082763671875 0.93310546875
-12.658935546875 4.3489990234375 -0.173095703125
18.768798828125 16.7689208984375 -39.2928466796875
4.31201171875 19.4508056640625 -48.1925048828125
12.4091796875 19.94189453125 21.70556640625
18.359619140625 18.6051025390625 -44.7919921875
6.9677734375 -0.460693359375 37.046875
8.859619140625 18.2044677734375 -45.719970703125
-12.439697265625 -0.0887451171875 7.9718017578125
25.45703125 2.9505615234375 31.6080322265625
-34.83935546875 -4.4600830078125 17.370849609375
1.1513671875 10.3953857421875 21.25
4.07421875 13.8607177734375 -34.791015625
-13.923095703125 -0.0137939453125 10.7318115234375
14.295166015625 -3.658935546875 40.4210205078125
0.991455078125 24.0927734375 -12.2210693359375
15.174560546875 17.26708984375 24.84130859375
-1.02392578125 25.7672119140625 -62.7398681640625
-15.933837890625 5.7835693359375 18.7005615234375
-30.02783203125 -3.906005859375 17.560302734375
4.396484375 -5.96142578125 48.010498046875
-36.128173828125 0.9052734375 7.6702880859375
-37.190185546875 -2.826416015625 16.5440673828125
7.686279296875 -5.90966796875 45.9888916015625
16.54638671875 29.775146484375 -14.3358154296875
-20.10205078125 2.9979248046875 3.171875
10.59912109375 16.179931640625 27.255859375
6.813720703125 19.405029296875 15.7769775390625
-12.734619140625 -5.234619140625 16.9925537109375
19.15625 -3.6275634765625 41.1572265625
-6.065185546875 12.1275634765625 -31.2030029296875
-34.805908203125 2.4456787109375 0.7457275390625
12.651123046875 18.8319091796875 -46.8641357421875
-23.294677734375 1.2325439453125 19.3873291015625
6.981689453125 -7.156494140625 51.5943603515625
-9.049560546875 17.73876953125 -43.12353515625
14.8759765625 23.2745361328125 -56.7591552734375
-21.45654296875 0.7047119140625 7.6376953125
-3.531005859375 23.2745361328125 -57.9266357421875
11.43115234375 0.6895751953125 34.7186279296875
17.580078125 -3.9713134765625 38.8343505859375
-21.13525390625 6.109375 18.3985595703125
-38.78466796875 0.2154541015625 8.1141357421875
-32.638916015625 -1.6363525390625 12.822021484375
-22.92919921875 0.7877197265625 5.640380859375
4.765625 -4.5543212890625 43.22998046875
5.461181640625 7.5506591796875 27.655029296875
-38.650146484375 -2.74658203125 14.579833984375
16.92041015625 -7.1102294921875 46.38427734375
-30.77197265625 2.251708984375 2.44970703125
-34.40673828125 -0.022705078125 9.3387451171875
-3.534912109375 20.9185791015625 -51.6708984375
6.3994140625 20.56005859375 12.9847412109375
16.760009765625 -0.5430908203125 33.853759765625
10.006591796875 -2.4168701171875 37.3677978515625
-6.911865234375 13.54345703125 -34.1474609375
14.920166015625 -3.8048095703125 43.3162841796875
12.40966796875 21.87841796875 -53.690673828125
1.831298828125 15.3787841796875 -38.5166015625
2.670166015625 13.0616455078125 32.02392578125
14.472900390625 -6.990966796875 47.88232421875
28.53759765625 4.7138671875 24.55517578125
-23.002685546875 2.8404541015625 0.5081787109375
-6.83642578125 16.8612060546875 -41.83154296875
8.16357421875 23.87548828125 2.82861328125
-0.486572265625 13.1708984375 -32.6441650390625
18.97998046875 -3.3668212890625 43.67626953125
-29.88623046875 3.4053955078125 0.392333984375
9.6337890625 33.791015625 -24.9442138671875
12.87353515625 17.445556640625 23.757080078125
0.936279296875 17.23779296875 -43.4598388671875
4.65185546875 9.4716796875 23.1534423828125
-15.78955078125 -3.7630615234375 17.980224609375
7.67431640625 21.272705078125 -52.4002685546875
-28.419677734375 1.054931640625 6.7001953125
-27.76171875 1.5565185546875 3.501708984375
20.95068359375 20.1407470703125 -28.264892578125
10.86669921875 27.529541015625 -8.6031494140625
8.14013671875 25.4376220703125 -59.20458984375
5.8046875 23.2833251953125 3.6622314453125
10.0810546875 22.1785888671875 -54.3822021484375
9.872314453125 17.9248046875 18.7379150390625
-25.171142578125 2.2601318359375 20.3094482421875
5.187255859375 17.941162109375 16.6240234375
1.84716796875 -7.18701171875 51.720458984375
-8.31787109375 26.3887939453125 -61.848388671875
-39.14306640625 -2.6524658203125 18.023193359375
6.24462890625 26.4827880859375 -5.5545654296875
3.44140625 20.741943359375 -51.2017822265625
-29.151123046875 -0.138427734375 10.4384765625
-6.684326171875 22.6285400390625 -54.9483642578125
-17.81640625 -0.94140625 13.0716552734375
13.494384765625 17.548095703125 -43.8719482421875
7.004638671875 -4.56787109375 44.2470703125
16.4111328125 24.4700927734375 -59.184814453125
-4.347900390625 22.8116455078125 -55.3280029296875
-33.813720703125 -2.8184814453125 16.1395263671875
-26.15869140625 5.2718505859375 -0.8485107421875
-38.528076171875 3.554931640625 0.5745849609375
-0.395751953125 18.146240234375 -45.352783203125
8.8212890625 -2.9652099609375 40.5146484375
6.520263671875 16.6630859375 -41.3087158203125
12.259521484375 28.7359619140625 -12.2164306640625
17.485595703125 20.3240966796875 -49.775390625
11.652587890625 -7.0831298828125 50.683837890625
16.018798828125 13.386962890625 -33.53759765625
19.50244140625 -0.814697265625 36.13916015625
1.91845703125 23.6436767578125 -16.370361328125
4.84765625 11.3192138671875 36.3172607421875
-23.044921875 4.6083984375 19.7093505859375
7.280517578125 8.3072509765625 26.0509033203125
-26.112060546875 -2.153076171875 14.6866455078125
-34.9873046875 1.3592529296875 5.29443359375
1.2197265625 23.5159912109375 -57.7216796875
8.447509765625 13.1824951171875 26.1412353515625
-18.53662109375 1.6796875 4.0789794921875
-26.28173828125 -0.828369140625 10.205322265625
3.84228515625 20.76318359375 -12.864501953125
7.13525390625 23.52587890625 -14.2650146484375
15.749267578125 -3.582275390625 36.4527587890625
19.09228515625 15.7926025390625 -31.71142578125
19.167236328125 21.9744873046875 -51.828125
25.007080078125 3.176025390625 24.726318359375
16.42041015625 18.9847412109375 -46.95556640625
2.260986328125 -5.6861572265625 47.376220703125
-23.8427734375 -2.427490234375 11.890869140625
0.432373046875 7.7281494140625 25.175537109375
-0.984130859375 13.47412109375 24.5550537109375
21.269287109375 0.935546875 30.177001953125
-2.1640625 19.938232421875 -49.2769775390625
17.71826171875 22.368896484375 -53.614501953125
10.62060546875 15.7669677734375 -39.3446044921875
-25.6767578125 -0.653564453125 7.0885009765625
12.103271484375 -5.05615234375 44.591064453125
14.26318359375 28.1549072265625 -8.6798095703125
2.489990234375 9.6427001953125 23.3773193359375
3.843017578125 27.3389892578125 -9.0662841796875
-24.620361328125 1.4639892578125 0.086669921875
-19.080810546875 -1.2362060546875 18.8372802734375
-32.391845703125 -0.4619140625 8.737548828125
18.907958984375 -2.3656005859375 39.35302734375
10.532470703125 26.7667236328125 -4.7650146484375
3.719970703125 25.279052734375 -60.912353515625
-2.35107421875 -7.2015380859375 52.5743408203125
-22.083251953125 -3.2420654296875 18.6431884765625
-11.45361328125 8.3790283203125 18.6561279296875
13.0361328125 -4.62646484375 38.5609130859375
23.406982421875 1.9407958984375 31.5301513671875
-19.01171875 4.8492431640625 20.4923095703125
-13.539306640625 -1.8204345703125 14.41796875
26.69091796875 3.579833984375 27.9429931640625
4.27587890625 -7.0997314453125 49.8001708984375
26.265625 5.498291015625 21.2281494140625
11.319091796875 20.353759765625 -50.8023681640625
8.65283203125 -6.7188720703125 49.7166748046875
19.431884765625 0.2025146484375 31.7584228515625
-20.92529296875 -0.0372314453125 10.2867431640625
1.6240234375 21.16943359375 -13.1153564453125
10.621826171875 17.21484375 24.4835205078125
9.39306640625 28.60302734375 -12.7523193359375
3.095703125 23.0792236328125 -56.4566650390625
13.22216796875 20.097412109375 -49.59521484375
7.9970703125 13.698486328125 30.0478515625
13.92236328125 -8.0316162109375 49.7083740234375
9.44091796875 19.402587890625 -47.9600830078125
5.371337890625 21.489990234375 8.943359375
-3.635498046875 19.0743408203125 -47.9234619140625
-32.664794921875 1.410888671875 2.4012451171875
5.811279296875 22.2530517578125 -55.2142333984375
17.563232421875 14.4044189453125 -34.892578125
12.88134765625 14.7088623046875 -36.6361083984375
10.291748046875 18.9906005859375 20.7513427734375
13.267822265625 29.92578125 -14.875244140625
-0.192626953125 21.900390625 -53.330078125
-3.72900390625 15.190185546875 -38.63427734375
16.593017578125 14.9150390625 -37.185791015625
-4.059814453125 26.6278076171875 -62.050537109375
11.06201171875 32.5748291015625 -21.145263671875
3.5166015625 -3.477783203125 40.727783203125
13.021484375 23.64892578125 -57.5406494140625
-18.264892578125 -2.699951171875 16.8292236328125
20.765380859375 16.157470703125 -29.24609375
-0.46875 15.9677734375 -40.18603515625
17.054931640625 -4.0306396484375 43.5323486328125
4.517578125 24.13037109375 2.3243408203125
5.830322265625 21.64404296875 -53.17529296875
15.099365234375 20.5091552734375 -50.899658203125
7.15625 27.849365234375 -9.5738525390625
1.28857421875 8.3302001953125 28.4554443359375
19.3544921875 17.723876953125 -40.9874267578125
26.934814453125 4.0318603515625 23.5260009765625
15.761474609375 16.48095703125 -41.140380859375
15.322998046875 17.1806640625 -43.1051025390625
-1.44287109375 14.3709716796875 -36.4560546875
15.264892578125 31.5191650390625 -18.216796875
10.578857421875 28.961669921875 -10.665283203125
-5.1083984375 13.935546875 -35.398193359375
12.574951171875 16.4544677734375 -40.2337646484375
-7.10693359375 24.2490234375 -58.6129150390625
14.781494140625 0.00537109375 34.857666015625
1.25830078125 25.756591796875 -18.9970703125
14.69287109375 14.932861328125 -37.8570556640625
6.28955078125 24.96826171875 -0.7479248046875
12.282958984375 13.01220703125 -32.9527587890625
3.196533203125 12.7918701171875 -31.2254638671875
4.3955078125 24.581298828125 -11.3719482421875
-0.648193359375 11.5086669921875 -29.970947265625
7.021728515625 18.0362548828125 -44.958251953125
-29.8720703125 -1.5347900390625 14.610595703125
21.02392578125 0.549560546875 34.1044921875
7.4765625 14.040771484375 -32.9932861328125
12.476806640625 33.49853515625 -23.8489990234375
11.894775390625 34.3245849609375 -27.6953125
-31.171630859375 4.1939697265625 -0.8990478515625
-25.66162109375 -2.3065185546875 19.773681640625
-5.4248046875 11.55419921875 -27.5223388671875
20.1455078125 20.8372802734375 -47.44482421875
9.0361328125 22.2371826171875 7.0433349609375
5.13037109375 22.17626953125 -12.3837890625
14.12646484375 13.4051513671875 -34.207275390625
7.936767578125 11.068603515625 26.0433349609375
22.29443359375 2.4149169921875 26.861572265625
6.982421875 7.76416015625 23.9903564453125
-36.22021484375 2.4625244140625 3.9549560546875
0.605712890625 19.4735107421875 -48.1475830078125
14.145263671875 18.014404296875 26.6197509765625
-31.80078125 -3.6749267578125 16.460205078125
9.35693359375 29.28515625 -15.1829833984375
9.05322265625 -0.7935791015625 36.857421875
7.918212890625 27.698974609375 -5.519775390625
-26.989501953125 2.7088623046875 0.1568603515625
6.657470703125 13.1573486328125 31.5689697265625
8.549560546875 27.5400390625 -14.2884521484375
6.39453125 -6.3963623046875 47.42724609375
7.607421875 12.5921630859375 28.4918212890625
15.6767578125 -4.947998046875 39.995361328125
-17.1298828125 0.1968994140625 8.4935302734375
18.902099609375 24.025390625 -56.0924072265625
25.11865234375 2.2471923828125 29.5819091796875
10.6162109375 25.6641845703125 -0.4859619140625
10.18359375 23.6337890625 -57.6077880859375
-9.415283203125 21.70458984375 -51.9747314453125
-15.59130859375 4.487548828125 20.5770263671875
5.409912109375 22.7471923828125 -16.1849365234375
-21.767578125 -2.339599609375 15.4798583984375
-11.8466796875 0.84326171875 2.53076171875
5.850830078125 13.85009765625 -35.4891357421875
-36.700439453125 -3.447021484375 18.28125
12.029296875 -4.1177978515625 40.718017578125
2.4013671875 18.9295654296875 -47.331298828125
13.524169921875 27.6712646484375 -4.83447265625
-25.077392578125 -2.3414306640625 7.7337646484375
6.8564453125 -3.73486328125 39.9736328125
14.725341796875 33.781494140625 -26.073974609375
-0.452880859375 25.5665283203125 -16.9002685546875
-25.399658203125 0.317138671875 3.42822265625
-21.802001953125 -1.0137939453125 12.27294921875
17.7001953125 -0.793701171875 35.4835205078125
-25.32080078125 -3.5611572265625 12.25439453125
7.119873046875 11.135009765625 21.3314208984375
10.781494140625 18.724609375 -46.57861328125
13.5771484375 -5.2376708984375 47.381591796875
-15.787841796875 1.6756591796875 5.48046875
-28.580322265625 -1.3043212890625 18.6878662109375
10.946044921875 -3.50732421875 36.1256103515625
8.934326171875 23.918701171875 0.9193115234375
-1.99609375 23.2371826171875 -56.244140625
9.2099609375 22.9384765625 -55.8697509765625
7.84814453125 26.1904296875 -2.0560302734375
9.46826171875 21.009521484375 10.3218994140625
15.2001953125 21.4090576171875 -52.5499267578125
-25.705810546875 -4.3021240234375 18.80810546875
-19.68994140625 1.168212890625 6.9111328125
8.79296875 16.42822265625 -41.1019287109375
10.013671875 13.830078125 -35.1279296875
-5.792724609375 21.0911865234375 -51.39501953125
-8.64599609375 12.2861328125 -29.979736328125
-5.677001953125 26.3056640625 -63.6392822265625
14.564697265625 19.1156005859375 -47.197998046875
8.62158203125 -4.6978759765625 43.249755859375
1.242919921875 -5.03076171875 43.6614990234375
-0.0517578125 25.6375732421875 -12.3802490234375
-6.759765625 20.2322998046875 -49.639404296875
0.663818359375 20.666748046875 -50.7919921875
-0.37451171875 11.316650390625 26.9510498046875
-26.593017578125 -3.163330078125 16.184326171875
3.23046875 16.4105224609375 -41.2611083984375
-2.166259765625 21.2587890625 -52.8895263671875
4.638916015625 10.97314453125 29.467041015625
-0.917236328125 27.1776123046875 -15.775390625
3.52392578125 21.4442138671875 8.722900390625
17.339599609375 27.97021484375 -10.4097900390625
-31.144287109375 0.8446044921875 5.7747802734375
-2.652587890625 18.0830078125 -44.5584716796875
14.335693359375 15.9752197265625 -39.89990234375
4.903076171875 22.7811279296875 5.2037353515625
10.87646484375 30.732421875 -17.9693603515625
9.06201171875 27.8350830078125 -8.8919677734375
-1.777587890625 -7.8128662109375 50.922119140625
16.2431640625 -5.9783935546875 45.0843505859375
-29.142822265625 0.8770751953125 8.5452880859375
21.95849609375 18.5985107421875 -28.0740966796875
2.760986328125 17.4044189453125 -44.2171630859375
-6.377197265625 18.46630859375 -45.993408203125
-4.5576171875 16.33203125 -40.6334228515625
10.488525390625 -6.1708984375 49.4691162109375
-0.5693359375 24.2557373046875 -14.797119140625
-1.498291015625 26.49462890625 -64.7745361328125
-2.798828125 16.6187744140625 -42.332275390625
-7.832275390625 15.6141357421875 -39.5526123046875
12.434326171875 35.15283203125 -29.350341796875
6.839111328125 23.0604248046875 -56.5113525390625
10.023681640625 34.135498046875 -26.9417724609375
1.772216796875 25.0499267578125 -61.0487060546875
0.634033203125 -6.338134765625 45.1207275390625
9.728271484375 17.1617431640625 -43.261474609375
-30.816162109375 -1.12744140625 12.947265625
-1.58251953125 26.80224609375 -61.02294921875
6.029296875 17.186767578125 -43.2222900390625
-4.666259765625 27.1256103515625 -64.96044921875
5.85546875 20.96875 10.755615234375
6.013427734375 15.5943603515625 -38.6756591796875
4.59375 20.687255859375 12.732177734375
-23.967529296875 -1.7928466796875 9.2255859375
11.095947265625 -5.126708984375 43.030517578125
21.537109375 4.67529296875 26.6512451171875
2.587158203125 24.64599609375 -11.156005859375
-5.5654296875 11.6190185546875 -29.3360595703125
19.990234375 19.461181640625 -44.749755859375
-20.77685546875 -0.9437255859375 13.855712890625
0.479736328125 14.0013427734375 -34.3360595703125
-16.327392578125 4.104248046875 18.1358642578125
-19.133056640625 0.156005859375 10.469482421875
19.52294921875 3.0029296875 29.250732421875
17.565185546875 1.50634765625 31.8038330078125
12.00732421875 16.92626953125 -43.0548095703125
4.6787109375 12.5074462890625 31.0023193359375
-7.14501953125 22.01220703125 -53.3138427734375
-1.988037109375 11.1893310546875 -28.8111572265625
0.782470703125 22.38623046875 -15.52294921875
20.78076171875 20.3367919921875 -25.047607421875
-31.489990234375 -2.7779541015625 17.9830322265625
-30.556640625 -0.1629638671875 9.323486328125
-38.23583984375 -0.8919677734375 11.237060546875
12.77392578125 27.51513671875 -7.9207763671875
5.3359375 9.38916015625 20.909912109375
-0.064453125 16.4539794921875 -42.2076416015625
6.190185546875 19.7972412109375 -49.0081787109375
-36.346435546875 3.273681640625 1.222412109375
5.0107421875 12.712158203125 34.4061279296875
10.283447265625 -5.9188232421875 46.130615234375
4.17919921875 8.1842041015625 26.4188232421875
-0.525634765625 9.5694580078125 24.6004638671875
-16.4853515625 2.536376953125 0.625244140625
3.2041015625 11.662841796875 36.8878173828125
16.796875 17.8656005859375 -44.4022216796875
20.277099609375 16.140380859375 -35.6441650390625
-14.974853515625 2.61474609375 2.6065673828125
-34.28955078125 -1.6143798828125 13.44482421875
-37.11767578125 -1.562255859375 15.0565185546875
-21.212158203125 -2.48876953125 17.145751953125
-27.780517578125 -1.4959716796875 13.926025390625
12.86181640625 -2.5771484375 35.3797607421875
-24.054443359375 -4.326171875 18.1917724609375
20.100830078125 14.5604248046875 -32.5003662109375
-23.548583984375 0.6185302734375 4.0133056640625
-17.68115234375 5.4742431640625 19.3828125
-35.45751953125 -2.795654296875 16.75732421875
2.09619140625 8.3243408203125 22.3026123046875
-8.703125 13.3831787109375 -33.4107666015625
-15.12158203125 -1.3189697265625 14.9566650390625
7.56103515625 -2.09130859375 38.4425048828125
-33.1064453125 -0.6370849609375 10.5718994140625
4.35302734375 20.166748046875 -49.779296875
0.339111328125 12.2733154296875 -31.184326171875
3.6376953125 -4.936279296875 46.31787109375
6.296875 23.3167724609375 -18.244384765625
-35.97900390625 -1.3282470703125 13.1744384765625
13.4072265625 22.813232421875 -55.959716796875
-25.923828125 1.075927734375 19.2923583984375
23.927001953125 6.15234375 23.5821533203125
2.164306640625 22.3238525390625 -54.2421875
21.068115234375 18.928466796875 -41.031494140625
-19.108154296875 -1.390869140625 14.1563720703125
6.44287109375 23.895263671875 -58.0909423828125
15.673828125 19.5474853515625 24.0416259765625
19.1123046875 14.8372802734375 -34.2738037109375
0.77685546875 24.1719970703125 -59.2506103515625
-7.412353515625 26.911865234375 -63.5484619140625
14.275146484375 32.062255859375 -20.524658203125
-39.927490234375 -4.49560546875 17.559326171875
14.158203125 -4.66162109375 36.3326416015625
3.107666015625 23.3436279296875 -17.839599609375
-20.10205078125 4.6728515625 18.49365234375
-38.86328125 -4.94677734375 16.233642578125
14.248291015625 32.7576904296875 -22.993896484375
-29.989990234375 -2.9605712890625 16.13134765625
6.2998046875 22.459228515625 6.4366455078125
-1.016357421875 -7.239013671875 48.300537109375
4.974853515625 -4.9173583984375 41.57177734375
-7.147705078125 24.863525390625 -60.6649169921875
-2.505615234375 15.423828125 -35.6314697265625
11.030029296875 30.584228515625 -15.64208984375
-22.3935546875 -0.1689453125 8.7623291015625
-34.279296875 3.589599609375 -0.3990478515625
12.59619140625 18.1185302734375 -45.283203125
23.00146484375 1.44482421875 33.7789306640625
0.85595703125 -6.588623046875 48.449951171875
-15.575927734375 -0.0462646484375 11.7984619140625
-36.445556640625 -0.54150390625 11.3897705078125
0.428466796875 26.23388671875 -63.5509033203125
-9.061767578125 15.0462646484375 -36.4908447265625
-1.787353515625 15.8121337890625 -39.0447998046875
4.573974609375 19.4024658203125 16.038330078125
-8.19873046875 19.069580078125 -47.2830810546875
-14.123291015625 -3.786865234375 17.360595703125
-16.0419921875 -2.44921875 16.95458984375
3.614501953125 23.8800048828125 -58.1575927734375
-5.034423828125 25.9901123046875 -60.7896728515625
3.91650390625 -4.9849853515625 44.6229248046875
-26.8017578125 0.49853515625 6.597412109375
2.27587890625 13.9310302734375 -34.5634765625
-25.852783203125 -0.1270751953125 8.744873046875
12.039794921875 27.03369140625 -4.083740234375
-28.2724609375 -3.2982177734375 16.831298828125
17.690185546875 16.699462890625 -40.9896240234375
0.571044921875 18.7606201171875 -46.5679931640625
4.87744140625 26.1385498046875 -4.4130859375
-2.22412109375 18.5130615234375 -46.118408203125
-12.979736328125 -3.92529296875 15.9654541015625
16.39111328125 23.916748046875 -57.6121826171875
-13.343017578125 2.2701416015625 2.029296875
17.603271484375 -0.259521484375 32.4459228515625
-4.169189453125 17.3497314453125 -44.1719970703125
15.4716796875 -6.1448974609375 46.8560791015625
12.4296875 32.1240234375 -20.2998046875
19.953857421875 0.0955810546875 38.96142578125
8.518310546875 32.597412109375 -23.6221923828125
-8.874267578125 24.4295654296875 -57.9322509765625
-18.94482421875 3.5159912109375 0.31884765625
-27.913330078125 -0.85986328125 11.2672119140625
3.635986328125 15.3089599609375 -38.7471923828125
-13.4267578125 4.9134521484375 19.3997802734375
3.481201171875 21.462158203125 -52.7979736328125
2.288818359375 16.80224609375 -42.6148681640625
-5.506103515625 14.9669189453125 -37.418212890625
-39.538818359375 -0.2794189453125 10.007568359375
-23.730712890625 0.941650390625 1.3746337890625
4.0341796875 13.1658935546875 -33.2529296875
-0.199462890625 22.9921875 -56.4378662109375
-13.673828125 -1.3426513671875 11.779296875
15.677490234375 27.8248291015625 -7.4189453125
12.291748046875 25.1990966796875 -59.737060546875
9.146240234375 15.1513671875 -38.5391845703125
7.68505859375 27.4876708984375 -7.7410888671875
19.077392578125 20.7052001953125 -48.6768798828125
3.20556640625 22.19873046875 -19.00146484375
8.626220703125 20.624755859375 12.2672119140625
17.668212890625 15.8704833984375 -38.4744873046875
15.1044921875 29.8631591796875 -15.095947265625
0.69580078125 -6.3292236328125 50.9290771484375
13.6962890625 28.6483154296875 -11.4591064453125
-9.003173828125 20.6431884765625 -49.8931884765625
19.78466796875 16.72509765625 -38.0272216796875
-20.90380859375 4.887939453125 -0.12109375
3.834716796875 18.8421630859375 -46.5755615234375
-3.744873046875 -8.4632568359375 49.542724609375
-33.402099609375 -2.12646484375 14.7015380859375
-14.09765625 3.66748046875 0.1270751953125
9.291259765625 14.6441650390625 26.7275390625
4.615234375 24.69287109375 -20.139892578125
8.255615234375 14.5987548828125 -36.4451904296875
-3.8642578125 22.3382568359375 -53.862060546875
-0.196044921875 22.4454345703125 -54.8818359375
3.8603515625 8.19677734375 22.552001953125
6.672119140625 25.834716796875 -4.1258544921875
9.49658203125 25.724365234375 -3.0882568359375
21.7900390625 1.6466064453125 28.739990234375
-21.669677734375 2.3780517578125 1.7327880859375
-0.95166015625 24.7757568359375 -59.158935546875
7.55517578125 24.1802978515625 0.1376953125
-27.66357421875 1.1795654296875 5.28857421875
2.726806640625 8.5760498046875 29.1251220703125
-2.73046875 11.388916015625 -27.3914794921875
5.69482421875 18.9493408203125 -46.8604736328125
9.540771484375 23.6143798828125 3.6083984375
8.593017578125 19.3385009765625 15.579345703125
-0.40234375 14.495849609375 23.4755859375
8.620849609375 21.7462158203125 8.96484375
-18.5029296875 -4.1781005859375 17.51220703125
10.113525390625 20.5892333984375 13.882080078125
-2.3466796875 14.9310302734375 -37.8419189453125
-23.595947265625 3.4661865234375 20.802490234375
2.975341796875 9.9476318359375 38.8310546875
4.130126953125 10.9443359375 23.445556640625
13.564697265625 19.4130859375 20.760498046875
-16.2080078125 1.12744140625 6.9267578125
-11.82421875 10.168212890625 20.1737060546875
-39.633056640625 -2.2900390625 12.4932861328125
-6.8994140625 13.02294921875 -32.65966796875
16.129638671875 29.505126953125 -12.845703125
-29.0625 1.9622802734375 2.7232666015625
-23.801513671875 -3.7449951171875 15.0906982421875
5.685302734375 8.1778564453125 23.2138671875
11.947509765625 15.9261474609375 28.01318359375
-13.18212890625 -0.0511474609375 9.3529052734375
1.6904296875 11.73388671875 29.2664794921875
-37.42626953125 1.3084716796875 6.898193359375
-14.478515625 2.13427734375 4.3717041015625
8.125 33.4486083984375 -25.1466064453125
7.64599609375 25.5155029296875 -13.790771484375
16.205322265625 22.03662109375 -53.7923583984375
-3.252197265625 11.9559326171875 -29.7200927734375
1.630126953125 12.993896484375 30.4134521484375
9.650390625 12.5611572265625 31.74462890625
5.77294921875 10.4542236328125 28.5396728515625
-37.31591796875 0.93359375 8.6717529296875
3.673583984375 12.962646484375 33.6578369140625
7.4736328125 12.2242431640625 33.32763671875
-0.096435546875 23.7872314453125 -13.3956298828125
6.79541015625 22.48486328125 -15.3956298828125
0.3935546875 25.4984130859375 -61.9202880859375
2.656494140625 10.1055908203125 29.3677978515625
4.991455078125 23.98388671875 -58.856201171875
-13.521240234375 1.0157470703125 7.9188232421875
-25.62353515625 -2.4061279296875 11.2452392578125
-40.09423828125 -3.6630859375 14.477294921875
-8.97509765625 22.864013671875 -55.1533203125
-17.2080078125 1.4349365234375 4.8270263671875
5.96337890625 25.50244140625 -11.7415771484375
23.9287109375 4.40625 23.8172607421875
-21.607666015625 1.6204833984375 4.0328369140625
-23.598388671875 -0.560302734375 5.9547119140625
1.7822265625 26.40478515625 -9.094970703125
-33.63916015625 1.4483642578125 1.215087890625
3.138916015625 14.2479248046875 -36.13134765625
21.744384765625 18.3790283203125 -36.3394775390625
3.117919921875 7.1767578125 27.10546875
5.6962890625 27.4530029296875 -9.3189697265625
5.36669921875 -4.0230712890625 38.486083984375
6.81494140625 26.79931640625 -10.7144775390625
13.7197265625 30.6876220703125 -17.3951416015625
3.07763671875 -7.0657958984375 50.751708984375
17.9873046875 -4.593994140625 40.5477294921875
-29.014404296875 -3.626220703125 18.6707763671875
13.45263671875 -4.6680908203125 43.9862060546875
14.481689453125 -3.1824951171875 35.69775390625
18.555419921875 21.0633544921875 -50.57568359375
-0.671142578125 20.5040283203125 -49.6259765625
-19.716796875 3.387939453125 1.7476806640625
-35.56884765625 0.1661376953125 10.3074951171875
-24.29296875 -2.0615234375 6.2984619140625
14.299560546875 -5.0240478515625 39.3115234375
5.6220703125 -7.2310791015625 50.915283203125
-0.111572265625 9.9708251953125 23.1953125
-23.80712890625 -3.113525390625 13.7095947265625
15.286376953125 -3.536376953125 41.5643310546875
-18.25341796875 -0.362548828125 11.7406005859375
-25.4873046875 -3.6693115234375 15.280029296875
11.475830078125 15.0294189453125 -37.904052734375
11.30517578125 -4.23681640625 37.439697265625
-20.511962890625 -2.0552978515625 19.129638671875
10.415283203125 -3.515625 40.404052734375
-1.389892578125 -6.52392578125 47.0206298828125
0.783447265625 11.364013671875 -28.764404296875
18.85693359375 18.0142822265625 -42.3856201171875
1.358154296875 8.2991943359375 24.1258544921875
-36.1279296875 1.708984375 6.23779296875
-15.658203125 0.328857421875 10.0216064453125
16.7041015625 -3.6181640625 37.6214599609375
7.650390625 -6.7894287109375 48.166748046875
9.79443359375 -2.0517578125 39.0391845703125
13.066650390625 18.5888671875 22.698974609375
17.90185546875 19.0732421875 -46.2445068359375
16.9833984375 19.71044921875 -48.1463623046875
10.941162109375 -5.6453857421875 48.1190185546875
11.934814453125 31.48876953125 -18.7156982421875
-0.15234375 21.53369140625 -51.83203125
8.12109375 18.745361328125 17.0518798828125
-7.31884765625 15.32958984375 -38.174560546875
14.518798828125 -8.696533203125 48.4658203125
-25.576416015625 3.167724609375 0.3336181640625
-25.85498046875 3.4779052734375 19.77880859375
15.068603515625 28.755126953125 -12.112060546875
7.20849609375 19.65625 14.3607177734375
6.625 8.833740234375 27.3551025390625
6.352783203125 13.56689453125 -34.1143798828125
9.412841796875 24.693359375 -58.719482421875
13.269287109375 33.870361328125 -26.8416748046875
25.496337890625 3.732177734375 23.2962646484375
11.45263671875 21.4296875 -52.4998779296875
11.345703125 36.576171875 -29.5040283203125
4.885009765625 21.19677734375 -51.9881591796875
-32.0068359375 0.29296875 6.83935546875
-26.0283203125 1.6441650390625 3.27197265625
-3.01806640625 20.62548828125 -50.263427734375
10.587890625 15.66455078125 28.636474609375
12.625244140625 19.1947021484375 -48.353759765625
0.780517578125 22.924072265625 -16.9998779296875
-3.450927734375 23.08349609375 -56.469970703125
8.003173828125 19.4903564453125 -48.718017578125
-17.585693359375 2.5626220703125 2.937744140625
14.0615234375 19.407958984375 -48.6055908203125
-25.470458984375 -2.66845703125 13.4100341796875
5.079345703125 16.51513671875 -41.5399169921875
2.69677734375 15.69873046875 -40.095458984375
-12.919677734375 1.033447265625 4.8048095703125
8.520751953125 20.581298828125 -51.4063720703125
12.814453125 29.4765625 -13.3468017578125
4.216796875 17.78955078125 -44.5106201171875
-2.83154296875 26.012939453125 -62.5430908203125
21.206787109375 20.363037109375 -44.190673828125
28.502685546875 4.2188720703125 25.92578125
1.411376953125 25.1842041015625 -10.1943359375
-35.804931640625 -0.96240234375 18.6383056640625
1.3017578125 14.6707763671875 -37.3590087890625
-16.498046875 -1.18359375 13.811767578125
-33.78564453125 -3.657470703125 17.9678955078125
-0.08984375 12.14208984375 28.1121826171875
3.896728515625 9.2230224609375 25.445068359375
27.923583984375 5.1512451171875 20.6505126953125
-0.658935546875 10.4925537109375 25.791748046875
4.223388671875 25.3765869140625 -10.12646484375
-31.19384765625 1.542724609375 3.9285888671875
3.0234375 21.7318115234375 7.3936767578125
5.871826171875 -3.750732421875 43.8612060546875
9.456298828125 30.7548828125 -18.25634765625
-7.191650390625 23.407470703125 -57.436279296875
4.3896484375 22.27783203125 -55.4912109375
26.50732421875 4.462890625 22.213134765625
15.6337890625 28.26123046875 -9.329345703125
-4.94970703125 23.299072265625 -58.202880859375
-27.415771484375 1.7811279296875 2.116943359375
2.86279296875 -5.4202880859375 43.5299072265625
7.173828125 20.4180908203125 -50.2366943359375
11.0869140625 33.702392578125 -24.1781005859375
11.354248046875 32.3055419921875 -22.5296630859375
-35.8837890625 2.6876220703125 2.5728759765625
-12.840576171875 0.65576171875 6.595947265625
9.67578125 32.7781982421875 -21.4735107421875
15.6611328125 31.8590087890625 -20.1964111328125
6.671630859375 18.42822265625 16.8231201171875
13.794189453125 21.67529296875 -53.36279296875
-0.040771484375 14.576904296875 -36.694091796875
11.711669921875 27.1234130859375 -2.689453125
13.29931640625 14.078125 -35.1668701171875
10.84326171875 13.1583251953125 -34.169677734375
-4.986328125 18.97607421875 -47.24365234375
9.968505859375 20.19091796875 -49.6329345703125
4.375732421875 21.4805908203125 -13.9805908203125
-0.623779296875 -6.71142578125 51.5191650390625
-8.197509765625 18.0626220703125 -44.7119140625
8.3466796875 27.8570556640625 -12.0213623046875
10.885498046875 28.9375 -12.5418701171875
5.475830078125 14.884765625 -37.5159912109375
-6.9697265625 11.704833984375 -30.0765380859375
11.590576171875 23.6734619140625 -57.818359375
-1.339111328125 16.7056884765625 -41.6278076171875
24.53759765625 2.5526123046875 32.617919921875
9.98681640625 19.5460205078125 15.386474609375
23.793701171875 3.366455078125 25.70361328125
20.44775390625 -0.263671875 35.1185302734375
-8.230712890625 16.8870849609375 -42.1075439453125
10.521484375 27.3773193359375 -6.7001953125
20.90185546875 18.4678955078125 -29.2930908203125
9.0068359375 22.5970458984375 5.640380859375
4.9697265625 25.343017578125 -1.1041259765625
1.809326171875 12.8187255859375 -31.50244140625
20.061279296875 15.5755615234375 -30.41064453125
6.847412109375 24.2491455078125 2.4742431640625
-3.975830078125 14.87255859375 -35.306396484375
7.118408203125 22.9107666015625 4.0155029296875
9.209716796875 25.99072265625 -1.733642578125
-2.938232421875 27.1871337890625 -61.4051513671875
-7.852294921875 13.9288330078125 -35.481689453125
8.708984375 13.6173095703125 -33.524658203125
4.951904296875 24.5648193359375 0.8426513671875
7.167724609375 21.1282958984375 9.681396484375
15.521728515625 1.4093017578125 34.1802978515625
9.462158203125 14.460693359375 29.3521728515625
0.81396484375 13.091796875 -33.260009765625
13.376953125 33.851318359375 -25.443359375
15.76171875 22.7550048828125 -55.804443359375
10.572021484375 16.527099609375 25.898193359375
-34.977294921875 1.1009521484375 1.4449462890625
12.860595703125 -7.1173095703125 49.7296142578125
-1.197998046875 26.02490234375 -59.9228515625
6.4140625 15.845703125 -40.1766357421875
-2.89208984375 26.698974609375 -65.1046142578125
11.52392578125 22.395751953125 -54.640625
-12.429931640625 -2.542236328125 13.9705810546875
-7.410400390625 12.3248291015625 -31.5216064453125
2.97265625 -7.992431640625 52.0943603515625
-4.14599609375 -7.5391845703125 52.3822021484375
16.46875 -2.407958984375 36.23486328125
-18.862548828125 1.616455078125 5.432861328125
9.97021484375 24.650146484375 0.217529296875
5.9033203125 22.203125 7.87158203125
-30.455810546875 2.3153076171875 1.0955810546875
8.4462890625 13.2557373046875 31.35791015625
-34.8544921875 1.144287109375 7.0419921875
-21.9892578125 5.708984375 19.4212646484375
4.0244140625 -4.882080078125 40.412841796875
13.80859375 35.0157470703125 -29.5023193359375
-1.36376953125 13.2333984375 25.93798828125
23.5947265625 1.95166015625 28.068115234375
-33.310546875 0.9102783203125 5.59814453125
-36.078125 0.4244384765625 9.037109375
-5.540771484375 17.3143310546875 -43.972900390625
19.90771484375 0.748779296875 30.3525390625
12.46875 16.46337890625 -41.6146240234375
8.062255859375 -5.697021484375 44.67333984375
21.2412109375 15.331787109375 -32.3594970703125
13.479248046875 17.6748046875 24.97900390625
15.001708984375 15.49462890625 28.1640625
-1.080810546875 12.12939453125 -31.418212890625
-12.1201171875 -2.0048828125 11.2694091796875
17.948974609375 -3.64794921875 42.5537109375
20.39404296875 0.165283203125 32.9388427734375
9.738525390625 17.696044921875 -44.7872314453125
-29.987548828125 -0.52734375 11.463134765625
13.037109375 13.9942626953125 -32.351318359375
13.297119140625 27.153564453125 -6.0887451171875
19.618408203125 20.28515625 -46.3004150390625
-15.232421875 4.7154541015625 19.2091064453125
8.7939453125 17.1064453125 18.9786376953125
-16.340087890625 2.480712890625 2.362548828125
-16.552734375 -0.8643798828125 12.47802734375
16.44140625 29.7916259765625 -15.7149658203125
14.224365234375 30.385009765625 -16.009765625
8.431884765625 18.8465576171875 -47.2169189453125
-23.108642578125 -2.468994140625 15.2327880859375
-0.77392578125 25.656982421875 -15.4996337890625
-37.37158203125 3.0283203125 4.4305419921875
2.08935546875 20.881103515625 -51.0457763671875
0.953125 15.881103515625 -39.4364013671875
-24.46142578125 1.20703125 20.8109130859375
6.343994140625 13.251220703125 32.89404296875
-24.279541015625 -0.40869140625 2.984619140625
3.097412109375 25.0838623046875 -17.26123046875
19.69775390625 -0.5467529296875 37.7874755859375
5.845458984375 7.7835693359375 26.283447265625
14.224365234375 17.480224609375 23.59912109375
-20.92626953125 0.6055908203125 8.8861083984375
0.162353515625 7.4918212890625 27.82958984375
5.383056640625 8.856201171875 28.3577880859375
12.72119140625 -4.6790771484375 45.74169921875
20.5654296875 1.8912353515625 29.2757568359375
9.183349609375 27.2080078125 -5.589599609375
-19.009765625 5.501953125 19.10302734375
-11.573486328125 0.3038330078125 6.9345703125
2.90087890625 19.4761962890625 -48.469482421875
7.884521484375 12.3306884765625 27.188720703125
4.470703125 6.873291015625 28.287353515625
17.804443359375 23.6483154296875 -56.7935791015625
21.238037109375 0.7642822265625 36.18994140625
8.3525390625 17.6602783203125 -44.5867919921875
1.66015625 21.87890625 -14.6236572265625
-13.01123046875 2.3341064453125 0.6671142578125
-0.76611328125 19.6746826171875 -48.472412109375
11.54248046875 14.8480224609375 -36.486083984375
18.372802734375 23.464599609375 -54.9271240234375
1.776611328125 6.7086181640625 28.181640625
25.107177734375 2.573974609375 28.2493896484375
-17.820068359375 2.5650634765625 0.3492431640625
11.72314453125 17.9720458984375 24.697998046875
20.261474609375 22.34912109375 -51.1270751953125
4.5537109375 22.6549072265625 -15.142333984375
-7.742919921875 19.6767578125 -48.8961181640625
13.843017578125 28.81103515625 -10.1256103515625
-27.54248046875 -0.4794921875 9.8702392578125
8.739501953125 -3.7542724609375 41.8741455078125
-22.427490234375 4.9932861328125 20.8697509765625
-11.62353515625 -0.7158203125 8.842041015625
-0.992431640625 13.452880859375 -34.0133056640625
-31.29296875 -4.13720703125 18.1708984375
4.058349609375 24.324951171875 -59.76123046875
14.935546875 24.005615234375 -58.379638671875
-29.252197265625 1.682861328125 5.829345703125
7.725341796875 22.60888671875 6.69140625
-33.7685546875 1.4921875 4.255859375
9.979736328125 -2.0999755859375 36.0635986328125
7.26025390625 14.055908203125 -35.7266845703125
-7.71533203125 18.60498046875 -45.8402099609375
18.013916015625 -0.893310546875 34.1837158203125
6.2294921875 22.645263671875 5.0662841796875
9.15576171875 15.6802978515625 -40.05078125
-26.203857421875 -4.049072265625 17.553466796875
16.800537109375 14.3114013671875 -32.4649658203125
-7.84619140625 17.1396484375 -43.6107177734375
1.76904296875 24.0216064453125 -19.178466796875
3.529052734375 -6.3372802734375 48.9720458984375
26.383056640625 3.3660888671875 24.5450439453125
5.878662109375 12.1719970703125 35.672119140625
-22.32568359375 -0.0767822265625 18.615966796875
-9.12646484375 15.9254150390625 -39.4473876953125
8.703857421875 22.0765380859375 -53.6893310546875
8.3349609375 -6.8248291015625 51.4207763671875
-18.88818359375 2.753662109375 2.6292724609375
-0.42041015625 7.4873046875 26.169677734375
-7.31787109375 16.3233642578125 -40.713134765625
5.892333984375 19.7918701171875 14.49462890625
-31.661865234375 -1.2542724609375 17.7666015625
9.93701171875 -1.1495361328125 38.073486328125
2.16796875 9.5157470703125 25.1683349609375
16.02099609375 20.1722412109375 -50.004638671875
-21.5458984375 0.8660888671875 6.3233642578125
-15.23681640625 -3.7008056640625 19.1842041015625
20.599609375 19.6973876953125 -31.3670654296875
-31.325927734375 3.0013427734375 -0.2257080078125
10.068603515625 28.4019775390625 -9.57958984375
-14.03271484375 -1.56298828125 13.1478271484375
-22.923583984375 -0.0703125 7.5157470703125
-33.0966796875 -3.854736328125 16.6431884765625
8.108154296875 -2.029296875 39.6424560546875
13.871826171875 -4.033447265625 41.771728515625
1.683837890625 -5.9046630859375 46.2115478515625
11.801025390625 19.711669921875 20.478271484375
-24.840087890625 -4.81201171875 15.3841552734375
-25.37744140625 2.840087890625 21.5313720703125
8.547119140625 23.06103515625 4.2694091796875
12.3056640625 -5.3104248046875 47.9410400390625
-8.84228515625 25.646484375 -60.625732421875
11.961181640625 17.8292236328125 22.48681640625
18.31640625 -4.428466796875 44.2802734375
15.3564453125 17.5982666015625 26.09765625
-5.476318359375 16.6617431640625 -41.5093994140625
-38.27392578125 -3.5789794921875 15.5194091796875
-11.63232421875 -3.79638671875 16.213134765625
13.70751953125 19.5740966796875 22.0501708984375
5.943359375 -4.2740478515625 40.9747314453125
2.745361328125 15.050048828125 -37.6429443359375
8.97998046875 -6.1474609375 46.7103271484375
-5.586669921875 12.654541015625 -32.2977294921875
25.644287109375 3.56494140625 25.9010009765625
20.8681640625 17.3900146484375 -38.32421875
16.252197265625 -1.2451171875 35.271240234375
7.283447265625 -7.2572021484375 50.3289794921875
-0.335693359375 12.7196044921875 23.7120361328125
2.83447265625 23.3095703125 -15.5068359375
-2.28466796875 -7.7203369140625 49.7261962890625
4.4951171875 23.0809326171875 -17.0491943359375
-0.41650390625 22.98583984375 -15.02880859375
27.727783203125 3.9237060546875 28.647216796875
15.6025390625 -4.9451904296875 44.6246337890625
-33.1171875 2.8048095703125 -0.40087890625
16.510498046875 -4.6727294921875 38.609130859375
-28.429931640625 -4.4541015625 17.4559326171875
-18.2021484375 -1.7464599609375 15.39013671875
-5.52783203125 13.5169677734375 -33.871337890625
-19.747802734375 2.1400146484375 4.1480712890625
-11.73291015625 0.843017578125 3.8223876953125
9.939697265625 20.5560302734375 -51.1290283203125
-21.999267578125 3.6175537109375 0.2435302734375
13.248779296875 -4.1500244140625 39.7471923828125
-7.65234375 22.7886962890625 -55.79443359375
4.50927734375 10.1734619140625 24.812744140625
2.95556640625 22.0614013671875 -55.2325439453125
28.3583984375 4.3873291015625 23.3162841796875
-19.9287109375 -2.4658203125 16.9901123046875
4.4013671875 7.041015625 26.978271484375
-2.035888671875 25.7496337890625 -63.5428466796875
11.25830078125 -5.2781982421875 45.541748046875
3.6748046875 23.5181884765625 -11.5391845703125
16.277587890625 -3.413818359375 42.7076416015625
-24.50927734375 -3.336181640625 11.2637939453125
12.619873046875 -8.25732421875 50.2822265625
18.7041015625 16.0621337890625 -37.73095703125
20.790771484375 0.388427734375 31.584228515625
8.20166015625 22.9208984375 -56.6697998046875
-31.834716796875 -1.4093017578125 11.831787109375
1.67236328125 23.0078125 -12.1026611328125
7.6630859375 24.167236328125 1.484619140625
-26.7607421875 -3.0618896484375 18.742431640625
27.531982421875 3.6533203125 26.974609375
-2.22021484375 19.2864990234375 -48.1737060546875
7.0283203125 18.5723876953125 -46.4879150390625
0.8291015625 25.1259765625 -11.4808349609375
16.46484375 28.488525390625 -11.316162109375
3.25927734375 17.9471435546875 -45.34716796875
-5.419189453125 18.3089599609375 -45.1583251953125
-36.286865234375 -2.1795654296875 15.9078369140625
2.64697265625 21.36083984375 -12.370849609375
-33.49462890625 -1.175537109375 11.9940185546875
-4.891845703125 -5.7459716796875 53.9384765625
-6.792236328125 21.07373046875 -52.1878662109375
17.795654296875 17.883056640625 -43.6097412109375
-12.84033203125 -0.9000244140625 10.3145751953125
-21.136962890625 2.2774658203125 2.9906005859375
6.962890625 27.859130859375 -6.3446044921875
17.543212890625 14.7589111328125 -36.3544921875
-16.7861328125 -4.515869140625 18.2127685546875
-35.01611328125 -2.156494140625 15.752197265625
7.03955078125 24.6229248046875 -18.596923828125
16.078857421875 14.0849609375 -35.0826416015625
4.95068359375 27.888671875 -8.3885498046875
-27.437744140625 -1.276611328125 12.5648193359375
12.6162109375 24.2430419921875 -58.5855712890625
3.57958984375 19.9713134765625 13.4049072265625
11.51416015625 -4.7547607421875 41.6856689453125
4.90234375 14.005126953125 -36.3157958984375
12.92822265625 22.4344482421875 -54.8489990234375
-23.057373046875 2.082275390625 1.522216796875
-14.847900390625 1.26025390625 7.1722412109375
5.02197265625 13.705810546875 -33.9656982421875
7.66259765625 25.85205078125 -3.340087890625
6.893798828125 21.0970458984375 11.953125
9.016357421875 18.4202880859375 17.8809814453125
-3.030517578125 22.494873046875 -55.43505859375
-18.423095703125 0.816650390625 7.2491455078125
16.899658203125 -5.241943359375 39.89599609375
6.80224609375 22.029296875 -53.8809814453125
-25.478515625 -0.5931396484375 4.4632568359375
-37.81640625 -4.1461181640625 16.828369140625
-12.623291015625 4.987548828125 18.4315185546875
7.807861328125 15.29052734375 -38.3885498046875
0.969482421875 22.1871337890625 -12.770263671875
10.4873046875 21.58984375 -53.3475341796875
-4.610107421875 15.69140625 -39.5523681640625
9.64892578125 -6.3907470703125 50.4107666015625
-0.432373046875 14.3282470703125 -35.2047119140625
9.840087890625 -4.990966796875 43.1507568359375
14.620849609375 20.1348876953125 -49.7998046875
-35.0029296875 -3.36474609375 18.0667724609375
9.73095703125 17.5379638671875 23.661376953125
6.4853515625 -5.4097900390625 45.646728515625
13.569580078125 18.4974365234375 -45.9755859375
-0.274169921875 25.1224365234375 -13.6275634765625
24.38330078125 2.44580078125 30.9295654296875
7.14111328125 -3.6766357421875 43.2974853515625
-5.3720703125 20.508056640625 -50.3714599609375
-5.3056640625 22.42626953125 -54.6219482421875
26.32666015625 3.5146484375 29.2872314453125
6.830810546875 11.25 28.3177490234375
10.5732421875 18.7274169921875 19.428466796875
16.71533203125 16.3238525390625 -40.3050537109375
2.977294921875 20.3685302734375 -50.10498046875
1.028564453125 -6.2738037109375 49.6446533203125
11.253662109375 19.095703125 -47.669921875
9.224609375 34.396484375 -25.9520263671875
-32.542236328125 -2.7957763671875 15.9840087890625
7.702880859375 20.191162109375 13.332763671875
-33.627685546875 0.0467529296875 8.3719482421875
-8.096923828125 21.6287841796875 -52.612060546875
-17.744140625 4.7139892578125 20.3643798828125
11.911865234375 30.0625 -14.7293701171875
-28.550537109375 1.4854736328125 4.478515625
-5.39697265625 19.793212890625 -48.7872314453125
22.255615234375 1.1138916015625 30.902587890625
4.422607421875 18.1956787109375 17.5606689453125
0.016845703125 17.5693359375 -44.341064453125
-1.348876953125 17.7696533203125 -44.6644287109375
-18.308349609375 0.3868408203125 9.46875
1.3125 7.416015625 25.9822998046875
-20.426025390625 4.607421875 19.8330078125
12.912109375 15.9429931640625 28.778564453125
9.260009765625 16.7945556640625 -42.1805419921875
-3.213134765625 17.1929931640625 -43.3387451171875
14.86376953125 32.1195068359375 -19.212890625
1.39453125 17.6048583984375 -44.540771484375
-3.222412109375 25.191650390625 -59.415771484375
25.12890625 6.0184326171875 22.15771484375
-31.75830078125 -1.937744140625 13.6199951171875
-40.515380859375 -1.989501953125 11.6968994140625
14.22119140625 14.569580078125 -36.7862548828125
-6.485107421875 16.93994140625 -43.288330078125
-3.612548828125 16.705322265625 -41.3140869140625
5.595458984375 -6.4598388671875 48.3504638671875
6.97119140625 13.0634765625 30.242431640625
0.43408203125 10.8145751953125 22.1448974609375
3.96142578125 12.9266357421875 31.897216796875
2.406982421875 10.9569091796875 24.0760498046875
9.65380859375 14.572265625 -36.167724609375
