-3.143310546875 -13.7880859375 -37.1485595703125
-3.162841796875 32.228515625 -33.5972900390625
-1.95068359375 10.0546875 34.682373046875
0.18994140625 9.7996826171875 -62.6751708984375
25.069091796875 9.425537109375 43.3585205078125
-3.228759765625 -11.3131103515625 2.4925537109375
14.084228515625 6.2501220703125 17.1146240234375
9.400146484375 28.53955078125 -52.3792724609375
14.460205078125 -0.4212646484375 -32.6962890625
25.885009765625 -15.5816650390625 43.8311767578125
15.0126953125 32.312744140625 -23.0013427734375
-1.88427734375 26.793212890625 -14.7913818359375
-6.883056640625 17.699951171875 5.0947265625
9.81640625 -2.7789306640625 43.4761962890625
-0.847412109375 3.7042236328125 -43.2528076171875
-11.284912109375 -15.53759765625 19.6822509765625
22.8291015625 16.77587890625 -15.8214111328125
-7.684814453125 31.802734375 -56.0216064453125
-20.935791015625 -10.357666015625 -0.5980224609375
7.52099609375 -5.0618896484375 26.90673828125
29.40478515625 2.9515380859375 -29.8870849609375
11.861083984375 6.154296875 -53.1954345703125
14.516357421875 33.79833984375 -39.2142333984375
-0.912109375 -6.2083740234375 53.2821044921875
22.284912109375 4.563232421875 29.2904052734375
0.893310546875 -3.7840576171875 -27.223388671875
9.218017578125 18.4566650390625 -20.894775390625
10.189208984375 41.894287109375 -58.72998046875
4.529296875 9.127197265625 47.0738525390625
17.965576171875 9.913330078125 4.24365234375
25.005615234375 -7.7010498046875 32.1912841796875
-1.482421875 26.58251953125 -45.7606201171875
2.2861328125 8.9813232421875 5.147216796875
13.8427734375 -17.042724609375 40.0035400390625
0.669189453125 22.469970703125 -2.9564208984375
23.1865234375 1.23974609375 -40.8345947265625
14.84375 8.072998046875 -13.542724609375
-0.752197265625 -1.1865234375 38.8865966796875
-14.373779296875 -13.433349609375 8.68017578125
3.22900390625 30.72265625 -24.1925048828125
0.260498046875 16.4107666015625 -12.322265625
19.981689453125 13.482666015625 -5.767333984375
11.42333984375 1.944580078125 -42.7393798828125
-2.9931640625 -15.162841796875 12.921630859375
0.43115234375 37.427001953125 -59.38671875
16.264404296875 -0.3255615234375 35.92041015625
11.056884765625 9.77099609375 -62.5386962890625
9.615478515625 -11.2974853515625 50.34326171875
0.555908203125 6.286865234375 -53.41357421875
-20.849609375 -13.61962890625 20.159912109375
21.951416015625 8.2548828125 -58.4765625
-0.084716796875 1.693115234375 29.65771484375
5.51025390625 30.72802734375 -37.798828125
3.0908203125 -0.8087158203125 -35.6533203125
4.68212890625 17.690673828125 3.6971435546875
33.8935546875 -9.3662109375 30.380126953125
-28.038818359375 -10.45458984375 4.616943359375
10.38037109375 33.5472412109375 -30.3465576171875
19.2978515625 4.375 -47.930908203125
6.652099609375 0.22900390625 34.71484375
-7.7119140625 30.618896484375 -41.58203125
16.37060546875 -7.9713134765625 39.6478271484375
22.80322265625 -1.9375 -31.790283203125
17.349609375 -17.73974609375 47.59765625
7.7705078125 10.4984130859375 -17.281982421875
-0.02490234375 29.08447265625 -54.15625
10.63623046875 8.635986328125 9.9830322265625
9.988525390625 1.2852783203125 22.1590576171875
-12.91943359375 -10.09326171875 0.4217529296875
8.88671875 -3.0521240234375 -27.5728759765625
11.031494140625 28.037109375 -43.55322265625
-22.156982421875 -12.6390380859375 9.91455078125
1.177490234375 -3.6009521484375 46.3228759765625
2.05712890625 22.003173828125 -19.3193359375
9.39599609375 34.2001953125 -57.5528564453125
20.697265625 -13.5557861328125 36.83203125
10.349609375 10.5880126953125 2.1466064453125
3.646240234375 44.4891357421875 -61.892333984375
17.614013671875 4.8548583984375 23.6544189453125
-7.533935546875 28.01025390625 -49.4556884765625
2.599609375 8.103759765625 39.9176025390625
8.375244140625 25.8062744140625 -23.0882568359375
14.219970703125 -5.061767578125 24.456787109375
17.561767578125 7.700927734375 11.1494140625
-0.0986328125 -7.984375 -34.8914794921875
6.31005859375 3.402099609375 -47.1717529296875
2.51171875 15.474609375 -5.10205078125
-5.722412109375 -11.6163330078125 20.701904296875
6.9658203125 -4.9794921875 50.52734375
27.456298828125 -11.541748046875 37.1474609375
18.103759765625 -2.0654296875 42.2908935546875
-16.814697265625 -17.687255859375 16.6015625
6.78515625 12.419921875 -11.0201416015625
5.40576171875 26.962890625 -46.796875
2.940185546875 32.570068359375 -31.1978759765625
13.220947265625 -8.099365234375 45.8997802734375
-2.5927734375 24.104248046875 -8.8736572265625
13.976318359375 12.8619384765625 -9.253662109375
-1.067138671875 20.5653076171875 3.0535888671875
-8.239013671875 -11.6287841796875 8.728515625
11.362060546875 -1.407470703125 30.785888671875
4.246826171875 11.267822265625 -0.691162109375
27.347900390625 3.6666259765625 -44.9215087890625
-0.802490234375 29.905517578125 -38.960205078125
29.375244140625 -7.3076171875 26.5316162109375
15.697265625 8.2708740234375 -58.166748046875
5.069580078125 1.5208740234375 -41.3587646484375
6.6884765625 7.390380859375 -56.3956298828125
-27.33056640625 -17.0126953125 18.3460693359375
5.862060546875 17.1373291015625 -14.8846435546875
10.440673828125 -17.0321044921875 47.922607421875
9.17578125 -0.886962890625 -36.266357421875
16.1494140625 0.64306640625 -39.082763671875
-3.10546875 40.9622802734375 -62.7830810546875
19.007080078125 -15.282958984375 42.32275390625
5.257080078125 10.681396484375 -65.3382568359375
-8.303955078125 -13.95849609375 14.870361328125
-0.160888671875 28.61279296875 -19.9727783203125
24.080078125 14.0738525390625 -9.7611083984375
-18.90966796875 -11.2867431640625 4.6898193359375
0.505126953125 4.7635498046875 35.749267578125
13.97265625 10.4266357421875 -18.688720703125
5.538818359375 1.4071044921875 28.7825927734375
14.758056640625 12.807861328125 -3.6102294921875
3.457763671875 33.0843505859375 -57.3565673828125
4.930908203125 -1.5421142578125 39.7923583984375
18.88720703125 6.7080078125 -53.7979736328125
27.025390625 7.56005859375 -56.4176025390625
26.136962890625 -0.00634765625 -36.35595703125
12.66796875 3.742431640625 -47.77685546875
0.30322265625 19.5860595703125 -7.8607177734375
11.109130859375 -0.827880859375 37.5042724609375
-1.106201171875 -2.71923828125 -32.036865234375
-2.459228515625 32.7672119140625 -57.06689453125
29.288818359375 -11.2579345703125 32.116455078125
8.09814453125 31.7156982421875 -25.9832763671875
22.5546875 6.437744140625 23.5616455078125
21.735595703125 3.1414794921875 34.2186279296875
14.082275390625 35.2109375 -34.27783203125
9.0 7.944091796875 -12.177490234375
-13.408203125 -13.8785400390625 14.47216796875
-7.4013671875 30.8050537109375 -36.4962158203125
-1.50927734375 -0.428955078125 -37.796630859375
5.3056640625 21.2113037109375 -23.1510009765625
-25.936279296875 -11.218505859375 -0.3096923828125
1.736083984375 7.962158203125 -58.031494140625
-23.145751953125 -14.0985107421875 15.6925048828125
22.375244140625 -17.541748046875 46.877685546875
12.706787109375 12.8719482421875 -14.46728515625
-7.947265625 -9.5679931640625 0.8775634765625
-0.82080078125 5.083740234375 -48.7442626953125
12.750244140625 -12.582275390625 41.9805908203125
3.97802734375 -2.9764404296875 -31.0574951171875
-17.75244140625 -14.8448486328125 12.230224609375
-0.3349609375 22.3809814453125 -12.947509765625
-4.21728515625 -16.10107421875 17.6317138671875
-3.478759765625 -13.9168701171875 8.152099609375
19.953857421875 -0.5570068359375 -36.244384765625
9.180419921875 32.7127685546875 -35.24853515625
18.99560546875 6.772216796875 19.37841796875
8.299560546875 -3.273193359375 22.2188720703125
23.43896484375 -16.6475830078125 39.7762451171875
13.253662109375 9.296630859375 5.967041015625
-28.68603515625 -12.0291748046875 9.134521484375
5.0537109375 38.80126953125 -59.163818359375
1.228271484375 0.1331787109375 34.615234375
7.5615234375 47.255615234375 -62.38671875
-4.79736328125 37.54443359375 -59.857177734375
11.115966796875 -4.376220703125 48.040771484375
1.248779296875 14.8782958984375 5.4759521484375
4.989013671875 5.6480712890625 -51.7801513671875
-0.367919921875 31.513427734375 -27.2099609375
4.495361328125 17.8233642578125 -1.493408203125
4.3251953125 28.018310546875 -51.2896728515625
2.832763671875 27.9351806640625 -41.254638671875
-6.7880859375 26.398193359375 -45.0858154296875
-1.112060546875 6.58203125 31.674560546875
16.571533203125 2.70751953125 -44.5333251953125
0.34326171875 18.6710205078125 -16.5872802734375
-4.7392578125 28.213134765625 -53.107666015625
10.0751953125 -2.220703125 -31.922119140625
11.855224609375 -0.9002685546875 25.7099609375
-12.722900390625 -10.9967041015625 5.2071533203125
21.329345703125 -9.2032470703125 35.850341796875
10.9765625 31.0238037109375 -39.296142578125
13.047607421875 14.761962890625 -19.2349853515625
16.595703125 -12.3199462890625 38.068359375
6.47021484375 30.4774169921875 -55.1202392578125
15.16748046875 -3.9244384765625 45.040771484375
14.726318359375 33.9390869140625 -27.0914306640625
0.12939453125 27.248779296875 -49.807861328125
12.1455078125 28.9815673828125 -22.8182373046875
23.272705078125 6.7269287109375 -53.70703125
10.080078125 21.1373291015625 -24.238525390625
5.54833984375 -3.637939453125 46.33154296875
12.9296875 4.737548828125 21.043701171875
-16.548095703125 -12.4775390625 0.479736328125
17.191162109375 11.5679931640625 -0.2442626953125
-24.270751953125 -12.0234375 6.186279296875
10.917236328125 7.0399169921875 13.9969482421875
13.41455078125 -1.467529296875 41.0958251953125
33.268798828125 -9.0560302734375 26.0006103515625
-16.120849609375 -14.552978515625 4.5782470703125
4.305419921875 15.6268310546875 -9.6878662109375
8.971435546875 15.2025146484375 -18.0711669921875
21.46044921875 2.772216796875 -44.385986328125
14.561279296875 -15.522705078125 44.4190673828125
24.614501953125 4.3526611328125 -48.2139892578125
-19.3046875 -6.5838623046875 0.32421875
2.894287109375 -5.364501953125 51.741455078125
4.434814453125 26.515625 -21.8492431640625
7.180908203125 27.9783935546875 -41.971923828125
4.807373046875 19.03466796875 -18.4368896484375
-7.593994140625 31.6495361328125 -51.8853759765625
-15.39306640625 -15.4486083984375 20.1842041015625
6.391357421875 10.4091796875 3.143798828125
-8.454345703125 -10.81640625 4.72705078125
11.546142578125 -5.06982421875 29.0030517578125
19.22802734375 16.76123046875 -17.7255859375
10.928466796875 -16.5113525390625 42.891357421875
20.329833984375 15.39306640625 -10.5806884765625
24.820068359375 -11.394775390625 33.856201171875
25.8642578125 0.62451171875 -31.66943359375
10.773193359375 -12.2734375 46.6763916015625
11.756591796875 8.0611572265625 -57.850341796875
11.6376953125 30.9769287109375 -54.5494384765625
-1.190673828125 -4.6256103515625 49.301513671875
-8.154541015625 30.0872802734375 -45.4373779296875
-4.68994140625 28.2022705078125 -41.0086669921875
0.694580078125 -2.4017333984375 42.648193359375
2.46875 9.270751953125 43.7750244140625
2.603759765625 2.46337890625 -44.5560302734375
12.35302734375 -2.9815673828125 21.764404296875
8.428466796875 4.883544921875 -50.1759033203125
-11.034912109375 -12.669921875 11.193603515625
8.42041015625 9.067626953125 -59.8145751953125
13.01220703125 -0.8397216796875 -36.5341796875
4.955078125 -4.081298828125 -27.5076904296875
30.60302734375 -10.3643798828125 28.51220703125
9.45263671875 0.73095703125 -39.700439453125
-0.77685546875 9.19384765625 38.5479736328125
15.818359375 5.4276123046875 -51.9798583984375
0.434326171875 41.182861328125 -61.4635009765625
8.01806640625 11.076416015625 -0.9224853515625
10.62353515625 11.3929443359375 -10.15087890625
2.031982421875 31.359375 -36.5361328125
-25.34228515625 -13.6998291015625 12.714111328125
26.879150390625 1.6568603515625 -40.6563720703125
0.686279296875 1.183837890625 -40.32470703125
12.097412109375 39.021728515625 -57.3509521484375
4.97314453125 12.8702392578125 -4.186279296875
1.72802734375 -4.06787109375 -34.5938720703125
18.129638671875 -0.752197265625 -32.609375
15.1865234375 0.707275390625 32.5521240234375
4.550048828125 15.0947265625 0.9794921875
2.191650390625 20.57763671875 -0.2093505859375
13.52734375 11.243896484375 -0.5413818359375
7.643310546875 -1.6453857421875 28.206298828125
6.513916015625 32.912109375 -31.875244140625
24.26123046875 -13.5516357421875 38.059814453125
17.838134765625 6.0010986328125 16.03564453125
27.536865234375 -9.0111083984375 29.89306640625
-2.816650390625 18.089599609375 5.01904296875
8.109130859375 44.4755859375 -60.150390625
14.577880859375 8.6929931640625 9.408203125
6.466796875 14.0748291015625 -7.2940673828125
19.05419921875 1.6405029296875 -40.9034423828125
9.681640625 3.3489990234375 -45.863525390625
-0.933349609375 24.2188720703125 -5.736083984375
-28.8359375 -13.9677734375 19.378173828125
4.20654296875 31.888671875 -27.3994140625
14.0078125 34.733154296875 -30.4610595703125
7.837646484375 -18.764892578125 46.277587890625
19.9755859375 -16.5106201171875 38.591064453125
-4.857177734375 -11.9820556640625 5.5633544921875
22.261474609375 -15.7958984375 43.835205078125
10.572265625 0.2615966796875 34.212890625
-0.432373046875 43.418212890625 -64.577880859375
10.609130859375 9.740234375 -19.3984375
9.884521484375 -6.7802734375 51.219482421875
16.644287109375 13.80810546875 -6.7625732421875
0.265380859375 23.74365234375 -16.09814453125
-17.51953125 -9.07666015625 -1.324462890625
17.84375 -1.3203125 38.9117431640625
-1.1279296875 7.6962890625 -56.094482421875
6.245849609375 -0.0504150390625 -37.87841796875
14.74560546875 7.1644287109375 -55.050537109375
10.457275390625 5.774169921875 18.9022216796875
22.565185546875 17.5072021484375 -19.1590576171875
8.814697265625 27.0247802734375 -47.1280517578125
3.127197265625 18.1568603515625 -13.12548828125
25.4150390625 -18.9866943359375 46.357421875
14.44677734375 7.188720703125 13.861083984375
-7.6845703125 -14.1220703125 19.4990234375
-1.218505859375 1.943115234375 33.1055908203125
-3.164306640625 27.239501953125 -48.6309814453125
7.43505859375 13.09130859375 -15.123779296875
16.432861328125 4.85888671875 20.48095703125
-20.302001953125 -15.764404296875 17.6019287109375
-0.396728515625 32.727783203125 -31.7191162109375
4.202392578125 10.190185546875 -62.17236328125
2.121826171875 4.6304931640625 -50.3590087890625
14.89697265625 10.761474609375 2.4803466796875
-4.13818359375 30.705322265625 -37.2525634765625
31.732666015625 -6.512451171875 24.2950439453125
12.034423828125 32.555908203125 -25.68798828125
-5.737548828125 33.8226318359375 -57.818603515625
2.093994140625 27.043701171875 -46.44580078125
-1.287353515625 -11.5594482421875 -35.5167236328125
-17.404052734375 -14.6929931640625 8.159423828125
22.019287109375 5.18994140625 -51.052001953125
2.357666015625 19.4063720703125 -3.467041015625
10.618408203125 13.6776123046875 -7.56396484375
-7.255126953125 -11.894775390625 12.508056640625
-23.766357421875 -15.4864501953125 18.6163330078125
3.544677734375 -0.2852783203125 36.91650390625
-21.313720703125 -13.045654296875 13.1949462890625
8.97412109375 38.7705078125 -58.271728515625
16.1103515625 -0.5865478515625 -35.55810546875
-25.24365234375 -11.0413818359375 3.050537109375
2.8759765625 30.0924072265625 -55.229248046875
1.668701171875 10.7041015625 2.4622802734375
16.056884765625 -14.36328125 41.39599609375
0.968994140625 16.43701171875 -8.0047607421875
9.099609375 10.6871337890625 5.1138916015625
12.08740234375 33.606201171875 -36.30859375
9.64697265625 -1.902099609375 40.16357421875
6.012451171875 32.2745361328125 -34.989990234375
0.032470703125 27.34130859375 -42.680908203125
19.105712890625 1.1165771484375 35.6761474609375
7.40380859375 -0.814208984375 24.0411376953125
0.0849609375 30.2911376953125 -23.966552734375
7.4150390625 -1.71728515625 -33.5887451171875
7.724365234375 2.2274169921875 -43.62646484375
-0.451416015625 19.4351806640625 -11.790771484375
13.91015625 -9.96923828125 43.25390625
7.6767578125 32.97509765625 -28.8125
19.375 -16.632080078125 45.494873046875
-1.49072265625 2.8880615234375 -46.6390380859375
5.5341796875 35.1864013671875 -58.328857421875
7.31201171875 -0.6044921875 37.63623046875
6.12744140625 28.79736328125 -23.1053466796875
-14.362548828125 -15.79736328125 16.850341796875
5.634765625 42.6107177734375 -59.973388671875
2.196533203125 19.4237060546875 3.0277099609375
4.736083984375 1.42529296875 31.775390625
3.8134765625 7.2164306640625 -55.25341796875
8.467529296875 10.3826904296875 -64.122802734375
23.91162109375 14.3123779296875 -6.6824951171875
-11.78369140625 -11.2760009765625 8.539306640625
-0.379150390625 -1.1719970703125 -35.0216064453125
29.980712890625 -10.4879150390625 35.0216064453125
12.075439453125 8.972412109375 -11.3887939453125
-3.246826171875 24.9207763671875 -11.766845703125
-22.06494140625 -10.1473388671875 2.2431640625
18.992919921875 12.3331298828125 -2.5823974609375
2.06640625 28.4195556640625 -22.0546875
21.863037109375 5.82421875 26.4573974609375
14.267333984375 -0.585693359375 38.315185546875
-5.1689453125 30.2447509765625 -55.3455810546875
10.853515625 10.4915771484375 -14.1519775390625
6.28173828125 15.1015625 -12.676025390625
11.691650390625 -7.663330078125 48.9517822265625
19.05517578125 2.1575927734375 32.83349609375
11.6708984375 12.4757080078125 -2.5673828125
17.4267578125 8.5982666015625 8.2816162109375
3.6796875 -2.32080078125 42.9747314453125
-7.37109375 27.752685546875 -42.4053955078125
24.94189453125 8.36181640625 -58.4149169921875
18.809326171875 5.453857421875 -50.677001953125
-27.56396484375 -14.7515869140625 16.4034423828125
18.398681640625 7.7862548828125 -56.5426025390625
18.594482421875 -14.0498046875 39.55224609375
14.42626953125 -17.7506103515625 48.1529541015625
13.152099609375 2.6695556640625 -45.0460205078125
-4.84326171875 -13.2618408203125 10.705322265625
8.11181640625 -0.252197265625 30.7825927734375
-5.77783203125 -10.1058349609375 3.4095458984375
0.271484375 17.5623779296875 4.6806640625
3.289306640625 -4.414794921875 48.96337890625
-0.35986328125 7.5849609375 35.51806640625
-1.77197265625 28.310546875 -51.790771484375
7.479248046875 6.0042724609375 -53.3067626953125
23.288818359375 -0.6810302734375 -36.14599609375
-5.14697265625 -10.37158203125 0.481689453125
12.471923828125 -2.5830078125 44.68701171875
7.572021484375 -3.4046630859375 -30.1610107421875
13.213134765625 9.1363525390625 -60.141357421875
9.723876953125 -2.8736572265625 25.90869140625
24.304931640625 3.5513916015625 -45.4364013671875
-25.85693359375 -12.6810302734375 9.204345703125
22.83349609375 -11.6439208984375 36.23193359375
2.169921875 3.6395263671875 -47.653076171875
22.37841796875 15.6904296875 -12.5816650390625
25.04541015625 -1.2672119140625 -33.6787109375
1.175537109375 26.4971923828125 -18.565185546875
-0.73681640625 0.746337890625 36.7744140625
7.978759765625 20.694580078125 -22.269287109375
7.218017578125 -2.082763671875 42.51806640625
15.004638671875 -7.3656005859375 43.6390380859375
-5.6923828125 -14.210693359375 13.7664794921875
-0.571533203125 21.705322265625 -10.081298828125
-4.14501953125 26.8157958984375 -44.124267578125
3.317138671875 -0.1531982421875 -38.4034423828125
13.275634765625 0.583740234375 34.9903564453125
-27.873046875 -10.766357421875 1.6949462890625
-19.974609375 -13.532470703125 8.2276611328125
-1.331787109375 31.402587890625 -36.6358642578125
-1.6552734375 0.5015869140625 -41.722412109375
8.5947265625 -3.541259765625 47.1207275390625
-11.639892578125 -14.235595703125 16.62060546875
19.279296875 -10.995361328125 36.496337890625
14.440185546875 2.1676025390625 -42.6160888671875
9.219482421875 -14.8699951171875 46.655517578125
-18.719482421875 -15.202392578125 15.3818359375
27.4853515625 -11.9871826171875 34.3939208984375
12.778076171875 10.6409912109375 -16.1553955078125
11.734375 17.65234375 -20.0660400390625
0.51611328125 34.8399658203125 -58.440185546875
2.82421875 1.7447509765625 29.0609130859375
7.4072265625 17.66552734375 -18.9844970703125
-19.19775390625 -10.70458984375 1.501708984375
25.538330078125 2.9111328125 -43.005126953125
-6.197509765625 -14.5369873046875 16.5828857421875
-10.1884765625 -10.3538818359375 2.2117919921875
-0.8037109375 8.6639404296875 -60.4073486328125
18.274658203125 14.29345703125 -9.171630859375
2.3876953125 10.5008544921875 -64.17919921875
13.922607421875 13.3536376953125 -6.5760498046875
-15.0595703125 -15.94970703125 13.8455810546875
22.752685546875 3.420654296875 31.7127685546875
11.320068359375 19.699951171875 -22.29345703125
-18.04052734375 -16.0589599609375 20.219482421875
0.21044921875 32.2764892578125 -34.327392578125
13.111572265625 -14.197509765625 39.8319091796875
8.39013671875 13.3402099609375 -9.0435791015625
15.202392578125 9.0010986328125 -16.7598876953125
7.368896484375 9.4586181640625 -13.6776123046875
1.04638671875 3.7740478515625 38.1826171875
11.37890625 5.9117431640625 16.388916015625
20.9951171875 0.679931640625 -39.331787109375
-2.024169921875 36.4110107421875 -59.12158203125
3.427734375 36.697509765625 -59.015380859375
-21.82666015625 -11.0130615234375 7.8355712890625
2.95068359375 26.63720703125 -43.963623046875
9.40185546875 8.9840087890625 -15.7818603515625
8.8125 10.9681396484375 -12.03955078125
20.990234375 7.14306640625 -55.3450927734375
10.5810546875 3.99853515625 21.986572265625
3.028076171875 13.9547119140625 2.80419921875
8.760498046875 32.0665283203125 -56.142822265625
9.64697265625 -3.37939453125 29.6937255859375
28.9677734375 -5.7825927734375 28.634033203125
9.586181640625 28.864990234375 -23.37841796875
-23.54541015625 -10.1458740234375 -0.322021484375
-0.250732421875 22.0252685546875 -6.988525390625
6.75830078125 11.3648681640625 -62.404541015625
15.14404296875 -10.8170166015625 39.63916015625
20.74365234375 18.32568359375 -16.075439453125
17.027099609375 -16.27783203125 44.03125
12.036865234375 -15.8330078125 46.25
1.456787109375 -2.3255615234375 -32.2791748046875
4.58642578125 18.609619140625 1.2745361328125
10.859375 33.747802734375 -32.885009765625
1.487060546875 -1.6458740234375 40.3001708984375
-15.189697265625 -12.7379150390625 2.988525390625
26.48583984375 -10.916015625 31.9437255859375
6.589599609375 29.32958984375 -39.673583984375
3.0322265625 19.068115234375 -15.5279541015625
15.45361328125 -2.3428955078125 42.3941650390625
2.770751953125 27.6441650390625 -49.27978515625
-28.46484375 -11.8099365234375 11.6707763671875
34.76416015625 -8.0882568359375 24.169921875
25.781982421875 6.7886962890625 -53.23486328125
11.84130859375 7.9654541015625 -13.7215576171875
9.3681640625 27.368408203125 -49.5931396484375
-0.9375 -2.8873291015625 44.54150390625
12.65625 4.76220703125 -50.0931396484375
11.881591796875 11.9266357421875 -19.370361328125
23.530517578125 -8.6661376953125 34.0030517578125
-1.849609375 3.568115234375 31.2799072265625
14.986083984375 4.4781494140625 -48.435791015625
-0.52392578125 27.6734619140625 -16.7166748046875
21.2099609375 -15.596923828125 41.1488037109375
27.169189453125 4.4293212890625 -47.3099365234375
1.380615234375 17.86962890625 -5.9844970703125
6.900146484375 -3.45068359375 25.085693359375
1.62353515625 44.474853515625 -63.601318359375
-4.626708984375 27.009765625 -46.613037109375
18.210205078125 -13.5548095703125 36.588623046875
-26.664306640625 -11.431396484375 6.551025390625
12.047119140625 9.964599609375 3.8590087890625
23.95947265625 -16.8992919921875 42.390380859375
-0.662109375 22.524658203125 -0.858154296875
-22.531494140625 -11.1912841796875 4.446044921875
3.73681640625 13.9503173828125 -2.324951171875
7.837158203125 31.353515625 -37.20751953125
-8.1806640625 30.2977294921875 -48.74609375
3.308837890625 41.9510498046875 -60.500244140625
1.023193359375 1.98876953125 -42.6368408203125
2.322998046875 28.851318359375 -52.4744873046875
-7.420166015625 28.417236328125 -51.8887939453125
10.974365234375 -1.240478515625 -34.6121826171875
15.56689453125 9.931884765625 5.3916015625
9.002685546875 7.205810546875 -55.562744140625
6.537353515625 18.884765625 -20.9420166015625
11.647216796875 -9.9736328125 46.5343017578125
6.682373046875 27.6922607421875 -48.7679443359375
-29.893798828125 -14.95361328125 17.3929443359375
6.24267578125 24.60546875 -22.9560546875
18.1259765625 -0.2021484375 -37.907958984375
4.1064453125 24.1312255859375 -21.4185791015625
13.347900390625 -3.810791015625 46.658447265625
-15.156982421875 -9.8768310546875 -0.510986328125
0.529296875 17.10693359375 -14.735107421875
18.824462890625 3.30908203125 -45.2078857421875
24.24365234375 -16.79345703125 45.52587890625
2.378173828125 24.372802734375 -19.741943359375
11.03515625 -1.0167236328125 21.2586669921875
12.921875 31.3123779296875 -23.69140625
12.63427734375 30.6368408203125 -41.011962890625
4.355224609375 32.6614990234375 -33.274658203125
31.549560546875 -10.7061767578125 30.707763671875
1.73828125 19.6484375 -18.8994140625
1.847900390625 6.037353515625 38.41455078125
16.798828125 -10.2403564453125 36.8919677734375
12.751708984375 -4.4117431640625 26.228271484375
9.322509765625 11.6431884765625 -18.6947021484375
20.289306640625 5.9444580078125 24.1397705078125
-17.104736328125 -17.099609375 13.405517578125
2.23291015625 30.8665771484375 -26.356689453125
-8.404541015625 -15.201416015625 17.496337890625
5.468505859375 4.58154296875 -49.0655517578125
0.03466796875 11.0855712890625 4.153564453125
0.065185546875 21.5447998046875 -15.2235107421875
25.690185546875 -12.6142578125 35.814208984375
10.14208984375 5.5179443359375 -51.6834716796875
-1.664794921875 39.9384765625 -61.2113037109375
2.2041015625 9.1072998046875 -61.5206298828125
10.941650390625 -13.41796875 44.622802734375
11.5380859375 13.36767578125 -5.41796875
22.379638671875 -14.960205078125 37.9359130859375
9.521728515625 -5.92724609375 28.1697998046875
-5.2939453125 26.89404296875 -49.5567626953125
4.824462890625 2.9840087890625 -44.0084228515625
-10.196533203125 -11.547607421875 6.1005859375
11.78271484375 0.626708984375 -39.640380859375
-12.568359375 -13.74072265625 20.431884765625
0.69091796875 0.08154296875 -37.2325439453125
-0.010498046875 5.08349609375 -51.157470703125
-0.8916015625 31.1937255859375 -56.404052734375
-3.78271484375 34.8629150390625 -58.4969482421875
2.669677734375 17.4852294921875 4.8245849609375
-4.793212890625 18.9638671875 4.206298828125
19.5068359375 5.75244140625 21.381591796875
-11.36767578125 -13.4681396484375 13.4835205078125
6.25537109375 -2.263671875 -31.6689453125
0.50537109375 -3.3331298828125 -30.4395751953125
10.220458984375 -17.8642578125 44.614501953125
17.1591796875 6.7391357421875 13.963623046875
12.655029296875 -1.84033203125 -32.5838623046875
19.663818359375 8.48193359375 -58.4853515625
21.5830078125 4.141845703125 -47.906005859375
7.139404296875 0.9285888671875 -40.5648193359375
19.93505859375 -16.767578125 47.712890625
11.83251953125 -2.6007080078125 42.4027099609375
6.40673828125 32.2332763671875 -56.5787353515625
4.582763671875 10.7744140625 1.8084716796875
4.30224609375 20.0416259765625 -20.4149169921875
6.20166015625 12.231689453125 -1.6611328125
7.4072265625 -1.517822265625 40.0443115234375
2.22314453125 30.0987548828125 -38.4173583984375
10.675048828125 -2.71630859375 23.8570556640625
1.762939453125 16.3145751953125 -10.1241455078125
-0.213134765625 19.2166748046875 -14.3834228515625
10.24853515625 -10.0526123046875 48.563720703125
-19.970947265625 -12.87548828125 10.4443359375
5.2822265625 27.271240234375 -42.9697265625
8.8251953125 27.594482421875 -43.673828125
3.445068359375 -3.000732421875 45.8466796875
4.9765625 32.6456298828125 -30.255126953125
-15.156005859375 -13.8128662109375 6.465576171875
-17.888671875 -12.6475830078125 3.2261962890625
3.09912109375 -3.8548583984375 -29.1910400390625
1.3095703125 9.168701171875 41.40625
-1.908935546875 43.4893798828125 -66.2581787109375
-2.177490234375 27.6845703125 -42.691650390625
9.466796875 -9.0823974609375 50.5179443359375
13.91552734375 0.1436767578125 -39.2330322265625
-7.504638671875 28.7789306640625 -47.271240234375
16.078857421875 3.690185546875 -46.4635009765625
20.613525390625 -1.2763671875 -34.260986328125
-6.684326171875 29.0662841796875 -53.8631591796875
-25.38037109375 -14.89501953125 16.14013671875
16.70947265625 -8.0030517578125 37.4754638671875
24.034423828125 5.20703125 -50.1778564453125
-5.95361328125 31.6163330078125 -35.0577392578125
20.38037109375 14.3538818359375 -7.743408203125
-14.949462890625 -14.6212158203125 10.4339599609375
11.289794921875 6.9996337890625 -55.13818359375
-3.296630859375 -15.94873046875 15.6461181640625
-5.590087890625 29.897216796875 -38.6837158203125
6.4638671875 -2.725341796875 44.4718017578125
10.16259765625 28.9302978515625 -41.7525634765625
-3.07080078125 26.5380859375 -16.61376953125
-17.81298828125 -13.609619140625 6.3123779296875
7.376708984375 26.9091796875 -45.4947509765625
16.47412109375 4.7132568359375 -50.010009765625
-2.868408203125 29.092041015625 -53.79052734375
1.185791015625 20.8961181640625 -4.536865234375
-0.8427734375 28.2254638671875 -40.8953857421875
0.94970703125 7.961669921875 37.9483642578125
10.43798828125 26.869873046875 -23.24951171875
10.690185546875 33.0328369140625 -28.258544921875
3.363037109375 6.25390625 -53.359375
10.594482421875 30.708740234375 -23.889404296875
29.148681640625 -10.460693359375 30.111572265625
2.85498046875 7.6435546875 -60.0740966796875
10.95703125 10.1256103515625 -17.1915283203125
7.9404296875 36.8861083984375 -58.0904541015625
9.70703125 30.0816650390625 -53.85546875
3.101806640625 15.8447265625 -7.1412353515625
20.30224609375 4.220703125 33.0269775390625
4.4140625 16.0450439453125 -12.170166015625
22.145751953125 13.7537841796875 -5.58837890625
11.88818359375 -18.026611328125 41.7041015625
12.91748046875 9.8492431640625 -14.1641845703125
0.1337890625 1.0374755859375 31.68994140625
-1.05126953125 -5.4169921875 51.2918701171875
15.045654296875 -15.001953125 39.3740234375
8.92041015625 -13.2259521484375 49.7161865234375
23.133056640625 2.1531982421875 -42.7725830078125
-1.09130859375 42.0614013671875 -63.0574951171875
11.999267578125 8.603515625 8.3353271484375
27.28955078125 2.0518798828125 -30.9608154296875
28.90380859375 -9.0482177734375 28.25146484375
2.712890625 31.9815673828125 -29.1580810546875
-12.921630859375 -15.021484375 18.41259765625
16.099853515625 12.3990478515625 -1.87841796875
0.572265625 -6.0986328125 -34.1539306640625
17.611083984375 5.4132080078125 18.0733642578125
-16.591064453125 -15.948486328125 10.8236083984375
-0.888916015625 21.937255859375 1.177978515625
7.72314453125 32.5927734375 -33.599853515625
5.4365234375 -4.9365234375 49.04736328125
-0.331787109375 33.190185546875 -57.39990234375
3.0908203125 1.4921875 -42.648193359375
3.324462890625 0.3729248046875 34.8760986328125
7.40771484375 0.462890625 28.2763671875
12.049560546875 7.5711669921875 11.154052734375
12.591552734375 -18.1588134765625 38.7056884765625
7.257568359375 -19.12890625 48.28271484375
-7.522216796875 -11.0162353515625 6.834228515625
32.774658203125 -10.1451416015625 28.761962890625
20.0361328125 -1.638671875 -32.2650146484375
-13.148193359375 -10.7459716796875 3.1595458984375
8.660400390625 -17.6575927734375 48.858154296875
-6.117919921875 -15.512451171875 19.7142333984375
7.961669921875 28.42333984375 -50.7431640625
6.83154296875 -3.3726806640625 -26.8919677734375
10.9296875 15.2867431640625 -18.8150634765625
-22.83251953125 -13.8360595703125 19.517822265625
3.35498046875 8.396484375 41.8470458984375
9.5458984375 4.120361328125 -47.8033447265625
2.76171875 -4.658447265625 -26.881591796875
7.546875 29.6629638671875 -53.528076171875
3.225830078125 39.95703125 -59.8922119140625
15.656982421875 1.6251220703125 -41.011962890625
11.51513671875 -14.6519775390625 42.1588134765625
0.392822265625 39.227783203125 -60.43212890625
-5.128662109375 -12.7518310546875 8.70947265625
13.435546875 -16.3031005859375 41.9039306640625
1.227294921875 -4.626220703125 49.12255859375
3.2255859375 0.7257080078125 -40.7205810546875
2.02490234375 -1.9688720703125 -34.243408203125
1.143798828125 23.759521484375 -18.1951904296875
-2.137451171875 2.341552734375 29.6357421875
9.080322265625 30.2401123046875 -39.041015625
-17.814453125 -13.9619140625 10.36181640625
2.899169921875 34.794921875 -58.41259765625
14.522216796875 -5.8641357421875 45.327392578125
18.254638671875 -15.2269287109375 37.8917236328125
9.321044921875 -0.423828125 36.5570068359375
-10.515380859375 -15.6392822265625 17.6307373046875
13.42431640625 1.123291015625 -41.1573486328125
4.881103515625 31.161376953125 -25.3421630859375
-5.786865234375 35.60107421875 -58.8519287109375
26.926025390625 -0.6722412109375 -33.0947265625
-1.22412109375 1.94287109375 -40.270751953125
12.41259765625 2.93359375 21.883544921875
25.892333984375 -12.6331787109375 38.9058837890625
17.18017578125 7.205810546875 -54.99853515625
2.31396484375 32.496826171875 -33.3695068359375
-17.814453125 -17.1494140625 18.30712890625
-2.973876953125 19.69189453125 3.61376953125
6.40576171875 26.6156005859375 -22.605224609375
4.031005859375 7.779541015625 -57.205322265625
8.4931640625 0.916748046875 34.1871337890625
6.77490234375 41.0699462890625 -59.294921875
4.591064453125 29.19921875 -39.3275146484375
1.527099609375 -0.3880615234375 36.6947021484375
4.141357421875 9.5128173828125 44.901611328125
-29.180908203125 -13.51123046875 16.1544189453125
10.02392578125 12.065185546875 -1.45703125
14.46826171875 -12.731201171875 39.492919921875
7.36962890625 0.85302734375 32.3099365234375
10.109619140625 37.2352294921875 -57.595703125
7.33740234375 14.790771484375 -16.947021484375
0.2265625 25.523193359375 -17.0662841796875
-3.6787109375 39.7618408203125 -61.2542724609375
-23.557373046875 -13.8465576171875 13.6502685546875
-0.70703125 4.133544921875 -45.2205810546875
15.921875 4.6239013671875 22.5784912109375
11.3037109375 32.345703125 -37.8082275390625
16.178466796875 -1.7152099609375 39.97412109375
13.4296875 10.41943359375 -11.0389404296875
1.919677734375 31.97705078125 -56.6800537109375
13.2353515625 34.058349609375 -28.4302978515625
20.902099609375 1.572021484375 -41.683837890625
2.337890625 21.022216796875 -2.279052734375
12.222412109375 0.6573486328125 33.1475830078125
-24.10546875 -11.3291015625 1.4298095703125
12.444580078125 -17.80615234375 48.3580322265625
13.802490234375 6.1527099609375 -52.745849609375
3.173095703125 21.548583984375 -21.0552978515625
13.08935546875 10.2625732421875 1.8245849609375
-7.26220703125 -11.7177734375 10.4547119140625
6.0703125 28.616943359375 -52.0140380859375
20.437255859375 4.8187255859375 -49.490234375
21.47265625 17.180908203125 -17.5426025390625
13.358154296875 -6.31103515625 46.8526611328125
-3.122802734375 31.586181640625 -35.8172607421875
13.39697265625 6.101318359375 15.2799072265625
11.490478515625 -1.315185546875 40.503173828125
-17.218017578125 -13.8023681640625 1.787109375
27.63525390625 -7.1568603515625 29.0511474609375
9.937744140625 13.518798828125 -18.327392578125
7.761962890625 -5.4671630859375 52.248046875
16.73486328125 -13.1103515625 40.0560302734375
7.0078125 13.0909423828125 -4.879638671875
12.295654296875 9.2164306640625 -18.5635986328125
-0.27734375 2.6099853515625 34.6778564453125
18.585693359375 13.773681640625 -7.091064453125
10.26806640625 27.710693359375 -45.31103515625
14.8896484375 5.76904296875 18.8172607421875
-4.532958984375 32.461669921875 -57.135986328125
12.179931640625 5.4317626953125 18.0859375
8.884033203125 -5.038330078125 50.275634765625
32.35693359375 -5.364501953125 22.8681640625
6.745361328125 33.8104248046875 -57.6387939453125
10.11962890625 -15.5765380859375 44.3719482421875
-27.0087890625 -11.80810546875 3.162841796875
17.872314453125 -0.2425537109375 36.98046875
13.2177734375 32.3970947265625 -39.45703125
34.900634765625 -9.1895751953125 28.75146484375
3.736572265625 12.530029296875 -5.614013671875
17.08447265625 -1.5296630859375 -34.0184326171875
8.229248046875 28.8548583984375 -40.54443359375
9.668212890625 43.6756591796875 -59.3756103515625
-16.961669921875 -10.6527099609375 -0.388916015625
6.268310546875 30.0657958984375 -24.6075439453125
6.416015625 17.4833984375 -17.357421875
17.622314453125 1.8038330078125 -42.1622314453125
24.87158203125 -9.56884765625 32.5782470703125
-1.745849609375 7.955810546875 32.8436279296875
2.95263671875 26.3729248046875 -20.6522216796875
-1.617919921875 34.4127197265625 -58.1041259765625
6.83447265625 -4.0845947265625 47.6680908203125
-1.11083984375 -2.1146240234375 42.103759765625
17.74560546875 10.6700439453125 1.3431396484375
-3.032958984375 38.190673828125 -60.176513671875
26.459716796875 -7.6031494140625 30.5909423828125
21.1796875 -16.2010498046875 46.246337890625
-2.510498046875 30.2335205078125 -38.1180419921875
0.39306640625 19.61767578125 3.819580078125
-7.202392578125 30.4814453125 -50.3660888671875
0.397705078125 32.267333984375 -30.05419921875
10.792236328125 4.8067626953125 -49.721923828125
-1.68994140625 24.3021240234375 -12.66064453125
-0.558349609375 -4.140869140625 46.8681640625
-0.1259765625 5.518798828125 34.127197265625
24.2490234375 -15.0977783203125 44.67578125
23.07568359375 -10.299560546875 34.852783203125
17.8251953125 0.3079833984375 -39.9049072265625
5.030029296875 16.7412109375 1.784423828125
25.2578125 0.3338623046875 -37.99853515625
17.164306640625 -3.6671142578125 42.652587890625
5.85400390625 15.0113525390625 -10.576904296875
7.541259765625 11.48974609375 -14.1385498046875
21.563720703125 6.19775390625 -52.575439453125
9.1455078125 9.61279296875 -18.22216796875
-7.1650390625 29.7333984375 -40.016357421875
16.8037109375 -16.85595703125 46.0352783203125
22.5068359375 -13.1171875 37.5640869140625
1.018310546875 8.533447265625 -59.9925537109375
-7.7958984375 30.625244140625 -43.679443359375
-24.180419921875 -12.05615234375 8.654541015625
3.264892578125 1.3033447265625 32.9215087890625
14.41259765625 5.325927734375 -50.384765625
8.773681640625 -17.127685546875 45.5362548828125
-18.48779296875 -14.4266357421875 21.00146484375
12.404296875 34.76318359375 -33.106689453125
2.342041015625 17.481201171875 -11.5821533203125
-2.451416015625 42.3133544921875 -64.298583984375
6.427490234375 4.7545166015625 -50.64794921875
8.669677734375 10.158203125 2.8101806640625
20.128173828125 -15.3138427734375 37.1820068359375
9.289794921875 -1.527587890625 30.1295166015625
-15.244140625 -16.66943359375 18.2293701171875
17.23486328125 6.2945556640625 -53.0648193359375
15.665771484375 6.61181640625 15.1334228515625
13.816162109375 30.1597900390625 -22.547119140625
-0.951904296875 0.531982421875 34.9488525390625
23.31201171875 7.965087890625 -57.256103515625
4.143310546875 16.4322509765625 -2.6602783203125
-14.02099609375 -13.9898681640625 12.730712890625
9.6044921875 31.876953125 -37.0743408203125
-15.938232421875 -16.819580078125 15.225341796875
-2.84765625 28.071044921875 -40.9752197265625
17.87548828125 3.5101318359375 -46.8533935546875
22.200927734375 14.0606689453125 -7.6976318359375
-9.914794921875 -12.05517578125 8.087646484375
7.215576171875 39.15478515625 -58.6717529296875
-12.6689453125 -12.333740234375 11.976806640625
25.809326171875 9.9736328125 41.7626953125
21.699951171875 0.0745849609375 -37.7435302734375
25.644287109375 7.5709228515625 -55.2020263671875
0.4208984375 7.052734375 -55.3397216796875
23.98095703125 6.1229248046875 -52.1212158203125
-0.730712890625 24.4608154296875 -14.72998046875
8.954345703125 8.203369140625 -58.28662109375
0.683349609375 42.6356201171875 -62.55517578125
4.77294921875 41.00732421875 -59.7496337890625
10.224853515625 0.263427734375 -38.10400390625
-0.03662109375 18.1959228515625 -9.0064697265625
4.515380859375 31.452880859375 -36.4434814453125
20.368408203125 7.8804931640625 -56.906494140625
9.642822265625 2.125244140625 -42.3558349609375
17.092529296875 3.9781494140625 -48.4532470703125
15.373779296875 -0.0025634765625 -37.5577392578125
0.952392578125 31.369384765625 -28.466796875
-26.47314453125 -16.150146484375 16.9814453125
5.863037109375 -0.43359375 36.22314453125
1.927734375 38.4354248046875 -59.66748046875
-1.07861328125 6.4517822265625 -50.590087890625
17.991943359375 1.0718994140625 34.23046875
12.317138671875 -0.238525390625 -38.1109619140625
13.8466796875 9.6688232421875 3.9166259765625
20.17236328125 2.2041015625 34.279296875
14.654541015625 -1.5531005859375 -34.113037109375
-1.099365234375 38.218017578125 -60.1497802734375
-10.69287109375 -14.068603515625 15.06689453125
-0.93798828125 6.8804931640625 -52.555908203125
-3.52294921875 -14.3045654296875 11.404541015625
16.827880859375 10.628173828125 3.0135498046875
25.7060546875 5.62109375 -50.9105224609375
-1.150634765625 23.9713134765625 -7.525390625
1.08984375 28.237060546875 -40.8385009765625
21.761474609375 -16.830322265625 38.6839599609375
3.8271484375 28.1148681640625 -22.4600830078125
20.13037109375 -16.00146484375 43.5562744140625
16.12060546875 13.928466796875 -8.4974365234375
14.701904296875 -15.0760498046875 42.3720703125
2.879150390625 5.2728271484375 -51.8775634765625
-19.84716796875 -11.4530029296875 6.2337646484375
4.67529296875 -5.6748046875 51.8487548828125
10.2275390625 9.9759521484375 6.3389892578125
-1.6201171875 29.730224609375 -54.9346923828125
4.5078125 3.560791015625 -47.196533203125
6.528076171875 22.536376953125 -23.2977294921875
21.670166015625 17.208984375 -14.5020751953125
7.51416015625 9.7001953125 4.3636474609375
2.2607421875 -3.517578125 -30.8077392578125
4.766845703125 29.99072265625 -54.7919921875
30.138671875 -9.3365478515625 26.9732666015625
23.344482421875 3.7530517578125 -47.0892333984375
0.60009765625 28.3428955078125 -52.573486328125
-20.28515625 -10.3831787109375 3.965576171875
-1.76953125 32.2303466796875 -34.82568359375
-18.413818359375 -7.37158203125 -1.0218505859375
0.9453125 -2.7398681640625 -28.6829833984375
-0.04931640625 3.8697509765625 -47.677978515625
30.63232421875 -10.8482666015625 33.226806640625
8.157470703125 -3.321044921875 28.70263671875
3.019775390625 11.5543212890625 0.5789794921875
16.3720703125 13.103515625 -4.3204345703125
-8.74658203125 -12.877685546875 12.578857421875
4.141845703125 14.998779296875 -5.9593505859375
0.35888671875 31.8055419921875 -36.0965576171875
1.88427734375 27.208740234375 -42.6495361328125
24.06201171875 0.901123046875 -39.197998046875
14.823486328125 33.0067138671875 -24.6331787109375
7.98583984375 29.552490234375 -23.7607421875
2.704833984375 9.859619140625 3.642578125
21.15966796875 -11.1781005859375 36.6309814453125
0.183349609375 44.6617431640625 -65.6961669921875
5.79248046875 -19.047119140625 47.2767333984375
-10.733642578125 -10.343017578125 0.5186767578125
11.921630859375 10.9515380859375 0.161865234375
10.1669921875 -3.1883544921875 45.1693115234375
-1.605224609375 9.650634765625 36.3765869140625
10.4130859375 9.42578125 -10.966552734375
-3.980712890625 -11.9420166015625 3.96826171875
-3.496826171875 30.72802734375 -55.67236328125
-0.725830078125 8.5445556640625 -57.595703125
18.920166015625 -1.6962890625 -33.9766845703125
14.3271484375 -5.105224609375 26.6300048828125
8.027587890625 32.910400390625 -30.962646484375
6.003662109375 6.8775634765625 -54.8489990234375
-2.907958984375 25.6756591796875 -13.3282470703125
18.262451171875 -0.97802734375 -35.9566650390625
11.37109375 32.3345947265625 -55.6470947265625
1.436279296875 28.01904296875 -20.433837890625
23.892578125 14.7607421875 -11.3760986328125
24.267333984375 13.3870849609375 -8.1461181640625
6.5 10.2640380859375 -64.1593017578125
0.89501953125 22.3416748046875 -17.1771240234375
4.696044921875 29.77392578125 -23.4306640625
17.010009765625 -15.342529296875 42.5377197265625
1.143310546875 -1.239990234375 38.6214599609375
11.41650390625 -3.4127197265625 26.7938232421875
-13.912353515625 -12.4808349609375 7.27392578125
-17.68505859375 -16.6383056640625 15.12353515625
2.440185546875 1.763916015625 30.7769775390625
3.618408203125 19.60400390625 0.114990234375
0.674072265625 21.316162109375 0.2806396484375
-14.6962890625 -12.8629150390625 5.060302734375
8.61474609375 12.3328857421875 -3.2139892578125
-7.8359375 28.0340576171875 -45.7159423828125
2.919677734375 -0.6748046875 38.5076904296875
4.729736328125 22.72705078125 -22.4888916015625
8.68359375 -0.912353515625 39.009521484375
-2.203369140625 24.0731201171875 -10.58056640625
3.284423828125 2.9720458984375 -46.0916748046875
10.7314453125 7.720947265625 12.3955078125
6.10693359375 14.19189453125 -15.4144287109375
9.10009765625 -2.1568603515625 41.805419921875
-22.030029296875 -15.666015625 18.7222900390625
6.455078125 31.4549560546875 -26.5223388671875
-5.0810546875 -11.714111328125 7.276611328125
8.37060546875 24.0845947265625 -23.3819580078125
23.61767578125 7.4556884765625 -55.255126953125
19.63330078125 -14.899169921875 40.7401123046875
20.954345703125 5.5679931640625 22.3380126953125
12.212158203125 -16.119140625 44.005859375
17.968994140625 -14.4337158203125 41.134765625
-26.15283203125 -13.708984375 15.1217041015625
6.352294921875 19.56298828125 -22.5367431640625
-15.772216796875 -15.1085205078125 8.6025390625
12.8369140625 -0.394287109375 37.34326171875
7.07568359375 27.0848388671875 -43.7919921875
22.469482421875 14.6739501953125 -9.30078125
8.28466796875 10.5369873046875 0.706787109375
4.509521484375 27.3427734375 -49.701171875
28.213623046875 4.203125 -29.727783203125
8.312744140625 -4.3115234375 24.5633544921875
15.358642578125 7.546630859375 -56.62744140625
-22.830322265625 -13.227783203125 12.2022705078125
1.6962890625 29.59423828125 -54.060546875
0.468505859375 -5.3800048828125 -26.698486328125
0.304931640625 9.251220703125 39.9974365234375
6.119873046875 14.473388671875 -8.951904296875
6.439208984375 12.8179931640625 -12.6700439453125
8.250244140625 -4.280029296875 48.64892578125
-6.272705078125 30.9354248046875 -56.5213623046875
10.721923828125 9.048583984375 -61.0030517578125
15.21435546875 11.58251953125 -0.36572265625
7.8505859375 3.67431640625 -47.909423828125
7.9736328125 35.170654296875 -57.876220703125
9.585205078125 8.3114013671875 -14.2003173828125
10.492431640625 7.2177734375 -12.6595458984375
2.170166015625 6.7864990234375 -54.9356689453125
1.3154296875 32.3092041015625 -31.724609375
-0.203369140625 16.2978515625 -10.6622314453125
-22.005859375 -11.2032470703125 6.1290283203125
1.80908203125 29.960205078125 -24.80859375
11.32373046875 2.7364501953125 -44.26708984375
7.52197265625 27.7935791015625 -23.216552734375
10.5068359375 32.558349609375 -26.6136474609375
16.104736328125 11.245849609375 1.3570556640625
9.22119140625 13.685546875 -6.35205078125
0.664306640625 -5.940673828125 52.6534423828125
0.416748046875 27.308837890625 -44.354248046875
25.4931640625 4.0166015625 -46.5819091796875
13.475341796875 7.390625 12.08935546875
2.507080078125 28.176513671875 -50.8875732421875
5.233642578125 13.4749755859375 -5.76708984375
14.10693359375 35.06103515625 -32.13818359375
22.765380859375 4.6064453125 -49.0509033203125
-2.09033203125 32.3218994140625 -32.26904296875
-1.0986328125 26.550537109375 -47.4263916015625
22.161376953125 3.2891845703125 -45.9459228515625
5.944091796875 36.8314208984375 -58.5455322265625
10.852294921875 -4.980224609375 49.6175537109375
23.469970703125 -1.3460693359375 -34.582275390625
12.77978515625 11.6790771484375 -9.5478515625
3.70703125 26.4833984375 -46.4842529296875
8.05322265625 10.292724609375 -62.1092529296875
8.646728515625 12.2679443359375 -10.9476318359375
4.74609375 31.8590087890625 -56.6507568359375
5.8857421875 29.2938232421875 -53.6055908203125
-7.5458984375 -9.8350830078125 2.5107421875
-28.850830078125 -15.6361083984375 18.552734375
4.670166015625 -2.143798828125 41.363525390625
26.40380859375 -0.5396728515625 -34.762939453125
-26.252197265625 -12.764892578125 11.6240234375
4.452880859375 26.80517578125 -44.741455078125
1.612060546875 0.9859619140625 32.6864013671875
13.708251953125 11.7122802734375 -2.1646728515625
-17.704345703125 -12.459228515625 4.9293212890625
11.730712890625 9.1456298828125 6.6976318359375
6.335693359375 28.083251953125 -50.4019775390625
13.52294921875 8.7537841796875 7.606201171875
-6.874267578125 -13.009521484375 13.9539794921875
-3.5810546875 -13.1361083984375 6.6510009765625
0.35986328125 20.4404296875 -6.400390625
7.029296875 27.301025390625 -47.1322021484375
25.29296875 7.9666748046875 -56.809326171875
12.046630859375 -3.6962890625 23.7352294921875
13.465576171875 -10.5516357421875 41.7322998046875
