-3.28271484375 -2.6676025390625 -30.1556396484375
17.900146484375 5.8603515625 -42.7313232421875
10.6162109375 12.6239013671875 -57.016845703125
-12.768798828125 29.1783447265625 -38.7940673828125
-29.38671875 -13.2972412109375 16.125244140625
0.5849609375 13.2620849609375 -58.1761474609375
8.89599609375 23.03662109375 -23.825927734375
0.754150390625 33.7987060546875 -32.761474609375
-7.42431640625 30.55029296875 -52.53662109375
-4.237060546875 7.404052734375 -47.566162109375
-7.6171875 9.3431396484375 -50.86572265625
-33.204833984375 -10.662353515625 8.947509765625
5.160888671875 9.2672119140625 13.7705078125
5.006103515625 11.0750732421875 -9.427978515625
-4.76416015625 29.93310546875 -39.0706787109375
-31.1650390625 -14.862548828125 18.68310546875
-1.1923828125 1.382080078125 -33.6773681640625
8.31787109375 10.5225830078125 9.713134765625
-37.653564453125 -3.761962890625 10.638916015625
-9.441650390625 32.47216796875 -54.21826171875
22.763427734375 11.007568359375 49.008056640625
2.318115234375 5.0118408203125 -41.849609375
8.00244140625 -14.0616455078125 42.8216552734375
-1.89111328125 8.3961181640625 16.8546142578125
21.862548828125 6.6796875 -24.812255859375
-5.677734375 6.3912353515625 -45.271240234375
7.168701171875 14.6885986328125 -3.7486572265625
-18.61962890625 4.542724609375 25.7100830078125
16.139404296875 -15.0396728515625 41.736083984375
5.566162109375 36.2657470703125 -32.5413818359375
-0.992919921875 11.3726806640625 6.6529541015625
-16.17236328125 -11.958984375 14.826904296875
-4.925048828125 24.8450927734375 -17.98974609375
-3.72802734375 5.7117919921875 24.79638671875
4.3740234375 11.3494873046875 7.3724365234375
-21.585693359375 -1.299072265625 25.2962646484375
-13.04296875 30.272216796875 -52.1905517578125
2.2734375 15.35693359375 -5.5460205078125
-14.75732421875 30.0863037109375 -43.4461669921875
-22.790771484375 -12.8182373046875 7.763916015625
9.89990234375 13.0625 3.3526611328125
-37.847900390625 -13.0919189453125 14.1214599609375
-0.251708984375 6.40234375 -45.0755615234375
-7.94970703125 5.3685302734375 21.4586181640625
-38.403564453125 -5.52685546875 20.7138671875
5.43115234375 13.6690673828125 1.0892333984375
-29.600341796875 -9.856689453125 4.580810546875
8.270263671875 9.7498779296875 -53.1038818359375
-23.311767578125 -11.408203125 2.4771728515625
20.030029296875 22.6580810546875 17.782470703125
-21.565673828125 -10.533447265625 6.3287353515625
-6.19970703125 5.0592041015625 -41.6595458984375
-19.61279296875 -11.0323486328125 11.26171875
-7.14599609375 4.757080078125 28.709716796875
15.673095703125 17.1259765625 -7.9110107421875
8.494140625 13.4573974609375 0.7828369140625
17.6103515625 27.3753662109375 2.4710693359375
-2.612548828125 0.456787109375 40.238037109375
5.56201171875 -1.094482421875 26.18505859375
21.7890625 -9.4183349609375 38.7490234375
1.31494140625 11.108154296875 -11.22607421875
-33.583251953125 -13.5458984375 21.6058349609375
-7.37841796875 5.1893310546875 36.276123046875
-4.1669921875 28.3704833984375 -45.3072509765625
1.314453125 -16.767333984375 47.500244140625
-21.466064453125 -14.8778076171875 20.1033935546875
-23.992919921875 -11.609130859375 21.877197265625
22.419189453125 -9.41162109375 34.5272216796875
16.07177734375 9.4573974609375 -51.7464599609375
-2.038818359375 16.80078125 -8.0211181640625
16.166259765625 -14.48828125 46.97314453125
9.989501953125 8.57080078125 15.971435546875
5.759033203125 11.333984375 -12.69384765625
19.0234375 16.1851806640625 -8.5560302734375
13.165283203125 -13.785400390625 43.090087890625
18.484375 25.601318359375 9.4378662109375
-3.752685546875 29.361328125 -49.3895263671875
-2.22509765625 -1.71533203125 -24.3094482421875
-19.1494140625 -13.538818359375 19.196533203125
25.498779296875 -7.814453125 35.235107421875
-4.89794921875 4.2264404296875 -39.343017578125
-0.721923828125 15.900146484375 -5.3099365234375
11.959228515625 16.002685546875 -4.5645751953125
-37.7529296875 -8.2396240234375 19.4578857421875
17.486083984375 23.821044921875 -30.131103515625
0.20458984375 -0.369384765625 27.4775390625
27.434326171875 -7.4923095703125 29.1214599609375
17.412841796875 27.680419921875 -2.088623046875
14.3623046875 4.651611328125 32.024658203125
20.711669921875 17.3277587890625 -16.219970703125
-33.483154296875 -13.8170166015625 18.3350830078125
22.480224609375 16.4600830078125 -21.2388916015625
-5.0107421875 7.24365234375 19.971435546875
1.974365234375 -4.3837890625 30.02490234375
17.7880859375 27.43408203125 5.1455078125
6.600341796875 11.091064453125 -56.04150390625
22.25927734375 9.6248779296875 -24.1912841796875
17.339599609375 23.9923095703125 12.5206298828125
22.003662109375 3.8770751953125 -32.7393798828125
23.43115234375 13.52099609375 -14.3636474609375
1.609130859375 -0.8079833984375 30.7725830078125
-1.25 -1.948974609375 -28.81298828125
3.184326171875 4.0340576171875 -38.528076171875
-1.49609375 11.9456787109375 -57.0511474609375
-3.9677734375 0.42041015625 -31.7362060546875
6.341552734375 10.976318359375 -16.2642822265625
-9.600341796875 36.784912109375 -56.8173828125
16.431884765625 5.0140380859375 -40.4931640625
3.640625 14.173095703125 -7.690185546875
-29.90380859375 -15.6064453125 20.7437744140625
-11.369140625 28.7738037109375 -50.1170654296875
31.87255859375 -5.545654296875 19.4517822265625
0.779541015625 13.1717529296875 -61.9154052734375
1.730712890625 12.495361328125 3.499755859375
-5.1435546875 21.4080810546875 -16.2943115234375
-24.126220703125 -14.48583984375 17.007080078125
-5.46240234375 2.989990234375 -36.6898193359375
22.541748046875 14.7359619140625 -11.814208984375
15.375732421875 7.76220703125 -47.9580078125
17.420166015625 1.8997802734375 -32.1236572265625
-13.91015625 27.767333984375 -43.8863525390625
9.734375 10.339111328125 11.7742919921875
-1.72705078125 4.4954833984375 -39.8251953125
-4.01513671875 -2.386962890625 48.218017578125
-38.763671875 -14.0166015625 20.194091796875
29.52197265625 -6.4532470703125 30.0106201171875
-1.7080078125 10.1787109375 -53.73779296875
-33.119140625 -12.2374267578125 13.84521484375
-5.834228515625 27.9241943359375 -47.7916259765625
18.435791015625 3.507568359375 -29.9420166015625
-34.750244140625 -7.02001953125 22.6624755859375
-34.7294921875 -12.7369384765625 15.7845458984375
18.083984375 24.4151611328125 15.4815673828125
11.801025390625 8.419921875 -49.508544921875
24.884521484375 8.569580078125 51.622802734375
22.599853515625 12.173828125 -22.554443359375
9.710693359375 -14.92138671875 46.8448486328125
-13.98876953125 -7.7047119140625 2.3424072265625
-25.2099609375 -11.336669921875 10.6907958984375
-14.18603515625 5.4951171875 24.6602783203125
-23.04443359375 -0.9449462890625 27.4918212890625
2.90380859375 11.164794921875 -14.55126953125
-29.09716796875 -10.4635009765625 7.177001953125
-17.866943359375 -10.25634765625 9.653076171875
2.373046875 1.767822265625 32.8330078125
-13.738037109375 34.2955322265625 -54.6248779296875
-6.697021484375 10.898193359375 -56.0469970703125
-5.718017578125 29.121826171875 -43.42529296875
-3.2138671875 29.1824951171875 -40.950439453125
-12.440673828125 -13.8251953125 19.76123046875
19.99169921875 6.9388427734375 -43.285888671875
-32.6044921875 -10.3681640625 20.936767578125
0.085205078125 2.045166015625 36.3929443359375
15.735107421875 10.9990234375 -56.7799072265625
0.27978515625 6.974853515625 21.5972900390625
0.277099609375 1.1263427734375 -30.6624755859375
6.90234375 0.812744140625 32.932373046875
22.873046875 14.9581298828125 -23.222900390625
10.884033203125 2.77392578125 33.0806884765625
-7.904296875 28.3787841796875 -39.212158203125
-14.980712890625 -13.415771484375 18.30126953125
9.856201171875 11.8590087890625 7.5457763671875
20.509765625 4.284912109375 -29.036865234375
-36.222900390625 -5.875 1.989013671875
29.289794921875 -2.532958984375 20.5078125
-19.096923828125 -12.07275390625 15.5906982421875
1.34130859375 14.0103759765625 -1.167724609375
8.140869140625 7.3953857421875 19.3970947265625
-14.186767578125 4.431640625 27.8026123046875
11.392333984375 -13.4666748046875 40.3533935546875
18.005126953125 18.3636474609375 -12.498779296875
8.41650390625 12.0867919921875 5.0263671875
3.937255859375 -15.49072265625 44.233642578125
-24.910400390625 -9.961181640625 5.330078125
15.49169921875 1.0518798828125 -30.32177734375
10.837890625 21.13525390625 -21.7974853515625
14.800537109375 10.27392578125 -53.6588134765625
20.063720703125 7.9573974609375 -30.775390625
19.037109375 -12.3414306640625 42.314208984375
21.40283203125 6.546875 -40.617919921875
-10.568603515625 -13.91796875 16.6552734375
-9.012939453125 28.9033203125 -49.990966796875
15.461669921875 6.3636474609375 28.2423095703125
-38.4140625 -9.938720703125 10.2379150390625
-15.32763671875 -10.6358642578125 10.7039794921875
15.62744140625 21.11083984375 -3.3131103515625
-12.036865234375 -12.5355224609375 15.3116455078125
23.60400390625 6.7257080078125 -26.3916015625
0.960205078125 11.3304443359375 9.5052490234375
-0.21240234375 7.4759521484375 18.98681640625
-21.58984375 -12.2332763671875 10.8739013671875
22.226318359375 11.8302001953125 -52.2857666015625
15.372314453125 26.0716552734375 8.799560546875
26.64794921875 -6.810546875 26.991943359375
-4.7783203125 -0.750244140625 43.945556640625
18.783935546875 -6.8868408203125 34.11181640625
22.1845703125 11.6416015625 -19.2169189453125
-13.052734375 -7.5001220703125 20.811767578125
-12.656005859375 28.5419921875 -48.0040283203125
-8.95947265625 5.0494384765625 32.6619873046875
0.8681640625 -13.611328125 47.9466552734375
6.09228515625 -2.7978515625 27.6663818359375
12.239501953125 -15.1461181640625 47.8468017578125
-9.8125 5.740234375 24.58251953125
-3.207275390625 6.76708984375 22.4315185546875
15.558837890625 -13.67529296875 39.9649658203125
15.9853515625 21.4453125 -21.574951171875
2.256103515625 20.649169921875 -18.3748779296875
-12.48876953125 5.8544921875 23.14306640625
-37.609619140625 -1.623046875 11.49462890625
4.96044921875 12.6085205078125 -59.049072265625
8.916748046875 2.923583984375 -35.8123779296875
5.6240234375 10.5555419921875 9.130615234375
7.17578125 -15.1239013671875 47.525146484375
1.6904296875 9.1737060546875 15.0328369140625
18.659423828125 7.956787109375 -47.520751953125
22.565673828125 11.0816650390625 -25.9276123046875
-2.254638671875 10.0350341796875 12.2735595703125
13.830322265625 7.7637939453125 24.3331298828125
-8.71630859375 27.7734375 -42.221923828125
10.845947265625 7.27978515625 20.85205078125
-27.18701171875 -11.261474609375 12.157470703125
7.308837890625 5.163330078125 -42.0843505859375
-2.386474609375 2.48828125 -35.6051025390625
8.214111328125 1.9122314453125 35.588623046875
-4.357177734375 5.757568359375 -43.4510498046875
8.7412109375 1.3092041015625 -31.7794189453125
-18.76171875 -7.2069091796875 23.0523681640625
32.97509765625 -5.488037109375 23.580322265625
-1.220703125 3.193603515625 32.144775390625
4.152099609375 9.4638671875 -52.01123046875
-2.1943359375 13.2420654296875 2.0377197265625
12.23193359375 4.209228515625 -38.8330078125
-7.6474609375 0.8818359375 40.2659912109375
-8.058349609375 28.2733154296875 -47.593994140625
-0.91259765625 3.642822265625 -37.8974609375
-15.8017578125 -9.4322509765625 6.29833984375
-11.87353515625 27.9808349609375 -41.868896484375
9.81591796875 -14.0157470703125 44.6783447265625
-4.74658203125 17.70263671875 -4.7662353515625
-2.37744140625 8.1129150390625 -49.3841552734375
4.84912109375 7.8409423828125 -48.8900146484375
19.64306640625 23.661376953125 -32.2139892578125
-6.4287109375 8.0396728515625 -48.8248291015625
12.38427734375 1.63330078125 -32.3214111328125
3.39697265625 1.948974609375 -33.9578857421875
-34.37060546875 -11.1480712890625 11.27099609375
8.319091796875 9.4989013671875 13.820068359375
22.50927734375 13.943115234375 -16.602294921875
-5.404541015625 31.3699951171875 -53.0269775390625
17.370849609375 -9.456787109375 36.7093505859375
-2.900634765625 17.77099609375 -10.8123779296875
-36.20166015625 -9.1907958984375 4.785888671875
-4.457763671875 19.83740234375 -14.2232666015625
3.506591796875 -16.392578125 47.6417236328125
1.650634765625 11.684326171875 -56.937255859375
-29.39892578125 -11.4300537109375 11.1820068359375
6.2041015625 12.0977783203125 5.272216796875
-4.01123046875 -2.6588134765625 -27.8448486328125
-26.530517578125 -10.5059814453125 7.7347412109375
-36.634521484375 -15.368408203125 18.96630859375
19.64208984375 11.2154541015625 -54.1014404296875
8.032958984375 7.703125 -48.35400390625
-27.47705078125 -9.3594970703125 3.3878173828125
3.763427734375 10.4921875 -55.0255126953125
5.908935546875 0.3782958984375 39.3966064453125
18.40869140625 9.5687255859375 -51.6239013671875
8.00341796875 6.997314453125 -45.8631591796875
15.75439453125 28.198974609375 6.131591796875
6.889892578125 -14.5604248046875 40.54736328125
22.530517578125 -6.4798583984375 29.4742431640625
17.69921875 4.1759033203125 -38.163818359375
8.33740234375 1.729736328125 31.3814697265625
-4.6318359375 3.1514892578125 32.9237060546875
0.44384765625 8.6595458984375 -49.910400390625
-35.683837890625 -9.9837646484375 7.835693359375
-11.932373046875 4.8480224609375 27.923828125
-2.66845703125 11.0748291015625 9.0811767578125
21.6650390625 7.74462890625 52.860595703125
-6.572509765625 0.3026123046875 -30.4822998046875
2.864501953125 0.84521484375 -30.919921875
15.6962890625 2.6669921875 -34.352783203125
31.474609375 -5.7861328125 21.6624755859375
22.15576171875 8.752685546875 -21.7197265625
-31.768310546875 -10.0965576171875 4.45751953125
5.7109375 2.4552001953125 -34.83203125
13.64306640625 4.886474609375 -41.0111083984375
15.008544921875 8.5333251953125 -49.964111328125
-23.30224609375 -9.1912841796875 2.0206298828125
31.6396484375 -6.033203125 26.349853515625
-34.76953125 -14.667236328125 19.8717041015625
-10.874755859375 4.6533203125 31.229736328125
9.7294921875 2.7681884765625 28.535888671875
20.77490234375 5.4935302734375 -38.43994140625
6.57373046875 -15.059814453125 44.322021484375
-11.663818359375 -10.5726318359375 8.1676025390625
-13.515869140625 -9.3314208984375 8.1368408203125
-21.86962890625 -11.705810546875 22.493896484375
3.52685546875 -1.988525390625 31.5950927734375
0.3466796875 9.9229736328125 12.0076904296875
-0.87646484375 14.27099609375 -1.8515625
12.75244140625 14.5750732421875 -0.362060546875
-5.833251953125 6.0845947265625 24.5318603515625
-21.495361328125 -13.32080078125 15.251953125
-33.5576171875 -6.560302734375 20.7847900390625
-11.42578125 -6.6341552734375 23.003662109375
-24.373779296875 -8.0782470703125 23.804931640625
24.02880859375 -5.394775390625 27.4661865234375
-6.455322265625 13.0499267578125 -59.955322265625
12.77783203125 12.10546875 -57.1612548828125
-2.60009765625 1.769775390625 35.8651123046875
3.330322265625 7.84619140625 18.1116943359375
-23.99462890625 -13.161865234375 15.0836181640625
18.365478515625 -10.9752197265625 38.8951416015625
-5.660400390625 -0.48876953125 -27.2835693359375
-12.867919921875 -10.749755859375 21.770751953125
-1.905029296875 -2.6348876953125 48.86865234375
-10.020751953125 -10.3994140625 6.67724609375
0.47802734375 12.2994384765625 5.4365234375
-30.6552734375 -12.727783203125 14.495361328125
3.36328125 -1.19140625 26.0089111328125
19.3896484375 21.065185546875 -24.6519775390625
-27.982421875 -6.4337158203125 21.82666015625
-7.638916015625 6.121337890625 23.4365234375
-7.231201171875 7.8203125 17.532470703125
-4.156005859375 1.811279296875 38.11328125
-14.88330078125 -12.383056640625 16.4351806640625
-0.71435546875 1.310302734375 39.93017578125
1.289306640625 12.1497802734375 -15.47021484375
11.75732421875 5.0833740234375 30.5257568359375
13.42041015625 18.2520751953125 -12.3875732421875
23.813720703125 -8.3533935546875 30.8853759765625
14.0029296875 -14.539306640625 46.37548828125
2.737060546875 -1.3345947265625 23.5587158203125
1.03955078125 1.873291015625 25.337890625
10.19140625 37.621337890625 -31.5517578125
4.164794921875 1.7314453125 33.9197998046875
1.730224609375 3.2806396484375 -37.24072265625
4.445068359375 10.4427490234375 11.8997802734375
-1.6201171875 21.6197509765625 -18.5792236328125
-16.669677734375 5.0377197265625 21.595458984375
-17.04150390625 -8.6966552734375 4.5966796875
-1.27001953125 32.9775390625 -32.3125
-0.138671875 1.388916015625 28.9278564453125
-20.16845703125 -9.541015625 5.12451171875
-21.06689453125 2.40869140625 27.5821533203125
0.7314453125 12.7137451171875 -12.3955078125
26.8798828125 7.9588623046875 51.0838623046875
17.918212890625 -14.060302734375 45.9306640625
-20.375732421875 -6.411865234375 21.8355712890625
5.05615234375 15.1953125 -3.607421875
5.173095703125 6.4547119140625 -45.345458984375
-10.317626953125 27.9503173828125 -45.805419921875
21.59130859375 6.31201171875 -27.8519287109375
6.159912109375 -3.1746826171875 30.2431640625
22.640380859375 4.0220947265625 -30.14208984375
21.22216796875 8.270263671875 -44.255126953125
-26.801513671875 -12.27685546875 14.397216796875
4.11083984375 13.348876953125 2.626220703125
-22.990478515625 -8.053466796875 25.31689453125
0.741455078125 17.25341796875 -15.1806640625
7.320068359375 8.0780029296875 17.6427001953125
-4.88232421875 9.05224609375 15.7691650390625
-5.578125 20.3004150390625 -12.386474609375
-0.097900390625 12.7393798828125 1.8975830078125
20.2587890625 20.15185546875 25.199951171875
20.5322265625 3.8946533203125 -34.822509765625
26.183349609375 -7.65087890625 30.9549560546875
21.3603515625 19.9083251953125 -25.0859375
-2.94189453125 7.1903076171875 18.468505859375
18.109130859375 -14.1512451171875 42.239501953125
18.468505859375 3.0758056640625 -35.2606201171875
2.96484375 -0.099853515625 42.260986328125
22.572509765625 -8.5101318359375 32.7100830078125
-3.837158203125 11.8758544921875 -57.6436767578125
7.61376953125 36.81591796875 -31.9849853515625
-4.83203125 31.024169921875 -36.996826171875
21.5048828125 -9.9652099609375 36.364013671875
12.93701171875 17.1116943359375 -8.0394287109375
-23.228515625 -15.56591796875 20.831787109375
6.96533203125 16.0850830078125 -5.345458984375
-0.493896484375 13.1815185546875 -60.3409423828125
0.729736328125 22.173583984375 -19.4412841796875
-0.40673828125 -0.80810546875 -26.975830078125
18.619140625 22.5037841796875 -28.573974609375
16.460205078125 22.3990478515625 -25.520263671875
-14.7041015625 29.769287109375 -48.0640869140625
-1.689453125 15.1422119140625 -3.70849609375
15.895751953125 15.88623046875 -6.33740234375
10.953369140625 17.1595458984375 -10.9647216796875
2.684814453125 -2.830322265625 28.4488525390625
21.212890625 17.9117431640625 -18.2239990234375
15.17724609375 17.7081298828125 -11.125244140625
-6.406982421875 2.0230712890625 -34.0711669921875
-11.595458984375 -11.8936767578125 13.4671630859375
-6.9345703125 22.6641845703125 -13.6387939453125
5.8857421875 13.0853271484375 -17.5770263671875
-22.670654296875 -4.728759765625 25.9796142578125
5.8017578125 11.99951171875 -14.63330078125
9.311767578125 14.529296875 -12.0107421875
22.89111328125 15.516357421875 -25.6334228515625
-36.350830078125 -6.0771484375 21.421630859375
-11.513916015625 -15.48193359375 20.3670654296875
-36.360107421875 -10.854736328125 11.85791015625
12.673583984375 22.11865234375 -25.9122314453125
20.7841796875 17.1044921875 -13.9156494140625
11.6416015625 38.4656982421875 -34.2901611328125
-2.571044921875 14.2152099609375 -0.318115234375
-22.750244140625 -14.20166015625 12.21826171875
-27.63916015625 -13.3328857421875 17.18505859375
-4.109130859375 4.623779296875 29.262451171875
-13.195556640625 -8.6884765625 4.5789794921875
19.235595703125 1.6998291015625 -30.9517822265625
31.49560546875 -2.0147705078125 17.616455078125
1.35693359375 14.312255859375 -8.790771484375
17.159912109375 20.00634765625 -18.655517578125
-17.017333984375 -13.453369140625 19.3636474609375
-5.298095703125 -3.23388671875 50.915283203125
20.1337890625 7.9788818359375 -45.8770751953125
-34.900390625 -8.126220703125 2.724609375
-26.086669921875 -14.2255859375 18.0067138671875
21.600830078125 18.55419921875 -22.516845703125
14.9208984375 3.763916015625 -37.2481689453125
-2.723388671875 11.8994140625 5.4329833984375
10.209716796875 6.568115234375 -45.120849609375
-0.141357421875 16.777587890625 -13.17138671875
-4.9296875 18.5706787109375 -10.2945556640625
10.54345703125 5.6412353515625 -43.088134765625
19.773681640625 15.98974609375 -10.4022216796875
21.8125 5.6182861328125 -36.781982421875
-15.150390625 -5.9998779296875 22.4581298828125
0.614501953125 18.9591064453125 -16.4434814453125
-9.56591796875 28.87451171875 -38.19287109375
-2.342529296875 -3.5567626953125 51.901611328125
5.39013671875 9.401123046875 -10.8966064453125
-14.17626953125 -14.403564453125 20.8828125
-2.182861328125 5.3726806640625 -43.177734375
26.97021484375 -6.927001953125 33.702392578125
8.564697265625 3.8780517578125 -38.275146484375
-10.783447265625 -11.090576171875 10.279296875
-6.850830078125 3.3243408203125 31.4385986328125
5.4306640625 3.9759521484375 -38.349853515625
-5.597900390625 29.97998046875 -51.203125
-0.620361328125 30.763427734375 -35.59375
-5.81005859375 9.683349609375 -52.1241455078125
5.90625 14.0771484375 -7.0423583984375
23.641845703125 -7.2398681640625 37.843994140625
2.483154296875 15.6370849609375 -3.400146484375
-14.68017578125 30.94775390625 -51.2132568359375
-8.29931640625 28.212890625 -44.26171875
24.155517578125 9.650146484375 49.03662109375
22.418701171875 10.0335693359375 -48.1099853515625
-0.3681640625 16.6934814453125 -9.5369873046875
-20.09130859375 4.2064208984375 24.225830078125
10.956787109375 9.128662109375 -51.4385986328125
1.6396484375 2.2701416015625 -34.7149658203125
-1.309326171875 4.0557861328125 27.785888671875
3.13818359375 13.8507080078125 -0.4556884765625
3.056396484375 10.577880859375 -9.9827880859375
-14.929931640625 -11.3231201171875 12.4725341796875
13.380615234375 2.3609619140625 -33.9815673828125
-6.101318359375 -4.091796875 54.3702392578125
-2.369140625 8.860595703125 14.663818359375
9.3564453125 -11.8033447265625 41.5592041015625
-4.033447265625 16.3251953125 -2.7884521484375
15.015869140625 21.665771484375 -23.33984375
0.72607421875 7.1468505859375 -46.7783203125
-19.1044921875 -12.1556396484375 21.44140625
16.70703125 7.3282470703125 -46.6351318359375
10.60888671875 18.416259765625 -14.3502197265625
-7.125244140625 1.8682861328125 38.404541015625
0.980712890625 9.5584716796875 -52.07568359375
-7.349609375 21.7669677734375 -10.2376708984375
16.574462890625 6.2916259765625 -44.046142578125
-18.700927734375 -11.581298828125 13.781494140625
-21.372802734375 -9.3414306640625 22.4478759765625
-6.996826171875 31.4990234375 -36.3736572265625
-37.2861328125 -13.2066650390625 16.1573486328125
-31.154296875 -5.3265380859375 21.5604248046875
16.27294921875 10.8907470703125 -54.957763671875
-5.396728515625 10.08447265625 -54.1396484375
-1.6884765625 -1.07080078125 46.5843505859375
13.70166015625 6.52001953125 27.544921875
13.52880859375 20.503173828125 -20.15380859375
11.657470703125 19.361083984375 -16.038330078125
-1.790771484375 10.3499755859375 -55.6273193359375
-31.68603515625 -8.89697265625 2.509765625
14.318115234375 18.778564453125 -14.8681640625
-1.995849609375 7.1407470703125 -46.875
-36.454345703125 -13.1119384765625 21.016845703125
3.7421875 5.6083984375 -43.1046142578125
2.720458984375 12.2039794921875 6.08154296875
30.913818359375 -5.829345703125 28.0848388671875
-13.136474609375 -10.802734375 12.17431640625
29.250732421875 -6.180419921875 23.235595703125
-17.67919921875 4.3480224609375 27.3363037109375
10.448486328125 22.246826171875 -25.21044921875
1.213134765625 -17.6263427734375 49.23583984375
20.179931640625 -7.74169921875 32.4229736328125
-21.965576171875 0.4444580078125 26.73193359375
-15.99365234375 5.3343505859375 24.0279541015625
18.502197265625 25.2430419921875 11.2867431640625
10.42236328125 4.3699951171875 -39.5499267578125
4.576171875 -15.83203125 49.0849609375
19.39453125 6.0894775390625 -41.6123046875
2.98974609375 -16.28173828125 45.6517333984375
-3.332275390625 3.6029052734375 31.4554443359375
5.32568359375 2.2052001953125 36.680908203125
8.314208984375 -15.97998046875 49.1455078125
12.9365234375 10.2264404296875 -53.86083984375
-1.912841796875 18.7525634765625 -12.93798828125
-17.4140625 -13.9390869140625 21.15380859375
2.685302734375 1.8140869140625 37.4232177734375
8.3486328125 10.8489990234375 -12.44970703125
4.97509765625 14.107177734375 -0.7159423828125
11.634765625 10.8336181640625 -55.2506103515625
12.808837890625 5.58349609375 -42.9111328125
7.735595703125 9.056884765625 -51.4521484375
2.647705078125 34.1392822265625 -33.5474853515625
3.109619140625 1.2138671875 39.5609130859375
-28.206298828125 -11.0826416015625 20.1669921875
23.458984375 11.041015625 -17.883056640625
-3.62451171875 31.6248779296875 -34.9603271484375
25.947265625 9.978515625 47.980712890625
19.667236328125 19.308349609375 -19.7135009765625
0.052734375 -0.15380859375 43.8048095703125
2.371826171875 0.146728515625 -28.8961181640625
11.384033203125 15.1402587890625 -2.9871826171875
2.313232421875 10.1529541015625 -12.920166015625
14.17822265625 15.7838134765625 -4.3291015625
-14.027587890625 32.6387939453125 -53.655517578125
-21.458251953125 -15.453857421875 21.8587646484375
-16.951416015625 -6.1163330078125 21.414306640625
9.14306640625 5.207275390625 -41.8787841796875
-0.85693359375 11.3258056640625 8.833740234375
-22.67626953125 -15.244140625 16.15478515625
-29.661376953125 -5.942626953125 20.669189453125
-0.04345703125 -15.935791015625 49.14306640625
-5.590087890625 1.181640625 -32.1690673828125
-2.77685546875 8.88134765625 -51.38427734375
16.333251953125 -15.7166748046875 48.334228515625
3.498779296875 9.4215087890625 14.7928466796875
8.9951171875 14.7376708984375 -3.5233154296875
11.609375 2.9664306640625 -36.1678466796875
18.974609375 20.8131103515625 -22.709716796875
-0.90625 -0.315673828125 -29.7071533203125
3.607421875 4.42138671875 -40.4981689453125
-6.0810546875 7.15234375 -47.2528076171875
4.34521484375 35.377685546875 -33.587158203125
2.530029296875 11.9447021484375 -58.5281982421875
22.52685546875 14.4969482421875 -18.989013671875
-37.028076171875 -4.56298828125 19.9744873046875
6.88525390625 11.4935302734375 -9.737548828125
21.634765625 3.2479248046875 -28.026123046875
12.7900390625 1.05078125 -30.4305419921875
-20.0166015625 -7.993896484375 2.671142578125
8.241943359375 14.862548828125 -8.8184814453125
6.545166015625 1.5296630859375 -32.00537109375
1.91015625 10.44482421875 -55.226318359375
7.8857421875 -2.3756103515625 26.9901123046875
17.59716796875 19.29052734375 -15.821533203125
-11.262939453125 -9.4423828125 4.08251953125
-30.308837890625 -12.3890380859375 12.723388671875
9.27001953125 1.2115478515625 -30.0269775390625
29.672119140625 -6.6141357421875 25.3779296875
18.57177734375 -9.489013671875 35.345947265625
11.572265625 18.20068359375 -12.6104736328125
-7.175537109375 21.216064453125 -12.394287109375
-0.265625 5.4801025390625 25.3221435546875
-1.034912109375 19.4921875 -15.911376953125
1.745849609375 8.0601806640625 -48.538818359375
4.109619140625 12.154296875 -13.5699462890625
-7.430908203125 6.6751708984375 -45.5732421875
-7.766845703125 3.9327392578125 34.814208984375
-8.34033203125 4.1025390625 20.00537109375
22.29345703125 10.7137451171875 -20.8280029296875
-7.221923828125 3.3115234375 -37.447509765625
17.572021484375 -14.931640625 44.034912109375
-34.318603515625 -15.1885986328125 21.5650634765625
14.223388671875 6.1405029296875 30.5400390625
-12.16748046875 27.349365234375 -44.0028076171875
5.29443359375 -1.7579345703125 31.3778076171875
-2.222412109375 -0.94189453125 44.5484619140625
9.267333984375 1.9737548828125 -33.361572265625
-5.074462890625 29.0748291015625 -40.68505859375
-5.1611328125 -1.33837890625 46.544677734375
-37.251220703125 -9.8206787109375 8.8232421875
-0.1962890625 3.7606201171875 26.0157470703125
14.305419921875 17.39794921875 -9.1568603515625
-10.709228515625 4.1226806640625 29.1805419921875
22.07568359375 15.5694580078125 -16.00048828125
-23.773681640625 -12.0675048828125 9.40966796875
-4.0400390625 -1.48095703125 -25.912353515625
8.07470703125 11.665771484375 -56.8687744140625
17.40380859375 16.9295654296875 -8.521240234375
-6.88720703125 2.07763671875 34.9970703125
4.9228515625 35.1956787109375 -31.2691650390625
19.677734375 -13.8802490234375 46.1441650390625
5.60595703125 0.9677734375 -30.4012451171875
-3.80224609375 13.023681640625 -61.244384765625
-23.78076171875 -10.1453857421875 3.967529296875
-16.452392578125 -9.35791015625 2.9619140625
6.5078125 -1.9766845703125 24.1109619140625
1.637939453125 0.92529296875 31.348388671875
-34.414306640625 -8.515625 4.44189453125
-3.506103515625 16.0618896484375 -7.2489013671875
-6.413330078125 4.7186279296875 26.9412841796875
5.569091796875 8.1943359375 17.3792724609375
-20.0615234375 3.5411376953125 26.4488525390625
-7.959228515625 5.137939453125 -41.4505615234375
2.97021484375 10.751220703125 8.5146484375
4.545166015625 12.6749267578125 -8.8204345703125
0.546630859375 -2.121337890625 26.032470703125
21.479248046875 -5.836181640625 30.74609375
-6.072998046875 22.937744140625 -15.159423828125
1.599365234375 -2.5703125 30.6231689453125
5.648681640625 9.0029296875 15.4996337890625
24.910400390625 -6.9185791015625 27.611328125
14.4541015625 -14.05615234375 44.63525390625
2.007568359375 14.7008056640625 -7.163330078125
-2.71630859375 19.59716796875 -14.3782958984375
8.63818359375 14.4129638671875 -0.7503662109375
-0.86865234375 0.2657470703125 41.3416748046875
-19.20703125 -13.072021484375 17.0377197265625
1.298828125 14.0306396484375 -15.4384765625
26.423583984375 -5.569580078125 24.282958984375
-1.419677734375 7.01025390625 22.2012939453125
20.880126953125 15.312255859375 -11.7406005859375
22.1953125 16.722412109375 -19.443115234375
14.2470703125 23.05810546875 -26.7830810546875
-22.293212890625 -13.0499267578125 9.4327392578125
1.6953125 8.2021484375 18.6585693359375
-3.202392578125 5.6131591796875 26.462158203125
-25.0712890625 -6.68603515625 21.9727783203125
5.984130859375 9.5533447265625 -52.28076171875
1.306640625 12.7716064453125 -10.68994140625
-28.26953125 -15.5101318359375 20.134521484375
13.54736328125 7.9246826171875 -48.682373046875
-10.234130859375 5.20556640625 26.415283203125
-29.36474609375 -13.8770751953125 17.890625
30.3359375 -4.87939453125 19.9312744140625
19.8740234375 9.6334228515625 -50.4453125
7.476318359375 10.5872802734375 -54.6231689453125
-32.061279296875 -11.6185302734375 9.84375
-7.60986328125 -1.7496337890625 49.3104248046875
19.421142578125 2.026611328125 -29.2548828125
-7.897216796875 7.041748046875 35.2164306640625
-14.877197265625 4.62744140625 29.536376953125
-1.052734375 2.662353515625 30.0946044921875
0.1015625 10.058837890625 -53.484619140625
-0.350830078125 1.5213623046875 38.1898193359375
-4.138916015625 2.56787109375 -35.400390625
-6.431884765625 6.542724609375 20.6710205078125
11.85595703125 6.1175537109375 27.798583984375
33.60791015625 -5.6640625 19.7125244140625
17.045166015625 18.5799560546875 -14.2423095703125
-6.56787109375 -3.663818359375 52.3193359375
0.69091796875 2.0401611328125 32.543212890625
6.91162109375 5.9639892578125 -44.5272216796875
-10.9912109375 31.494140625 -53.2698974609375
11.062255859375 17.1497802734375 -9.176513671875
15.071533203125 -14.5577392578125 43.005126953125
9.592041015625 21.8792724609375 -22.72998046875
20.18310546875 19.852783203125 -21.2667236328125
-20.108642578125 -10.019287109375 7.328369140625
18.895751953125 23.732666015625 16.840087890625
0.4853515625 15.3179931640625 -12.0330810546875
-14.09521484375 -9.3626708984375 6.08984375
-30.740234375 -14.084716796875 16.8365478515625
-24.11962890625 -10.71142578125 6.656494140625
8.96728515625 -11.271728515625 39.8795166015625
23.21484375 8.7630615234375 52.1787109375
4.026611328125 -2.9239501953125 29.58544921875
-6.143798828125 5.877197265625 -43.703857421875
-3.88037109375 10.595458984375 12.3515625
-5.9248046875 0.728759765625 40.9486083984375
-5.345458984375 11.177978515625 -57.23828125
9.632080078125 16.2303466796875 -6.5780029296875
-22.381103515625 -11.587890625 4.0982666015625
-26.189208984375 -15.754638671875 20.7760009765625
-23.468017578125 -11.6915283203125 23.4937744140625
14.9580078125 20.090087890625 -17.4998779296875
-1.19091796875 2.4527587890625 35.2022705078125
19.298583984375 18.924072265625 -16.3985595703125
-4.365478515625 0.224853515625 40.445556640625
1.777587890625 10.6798095703125 10.8427734375
-33.23388671875 -10.0721435546875 7.1517333984375
18.70068359375 22.534423828125 18.827880859375
20.166748046875 -10.60595703125 38.662841796875
11.49658203125 -13.9173583984375 44.0909423828125
23.98388671875 -8.5557861328125 35.0780029296875
-2.908935546875 4.6055908203125 27.86669921875
13.087890625 3.7208251953125 -37.4556884765625
-5.9892578125 -2.170166015625 49.61767578125
-36.939697265625 -6.2928466796875 19.8544921875
5.682861328125 11.4276123046875 -57.409423828125
-19.164794921875 5.0728759765625 22.7083740234375
23.408935546875 7.319580078125 -24.7003173828125
-14.0810546875 28.1065673828125 -47.231689453125
-39.3212890625 -14.0841064453125 18.6160888671875
1.927490234375 6.5797119140625 21.4871826171875
14.44873046875 16.44287109375 -2.7044677734375
-2.937255859375 0.40234375 41.945556640625
-11.397705078125 -14.2750244140625 18.061767578125
11.92822265625 -13.39892578125 41.9315185546875
-1.381591796875 -1.4818115234375 -25.8011474609375
10.37109375 8.0205078125 -48.74951171875
-2.99951171875 27.0826416015625 -44.18408203125
3.65625 -0.40869140625 27.544921875
16.118408203125 27.0906982421875 1.7882080078125
11.616943359375 7.005859375 -46.3399658203125
7.123779296875 8.0343017578125 -49.7049560546875
16.25390625 24.314208984375 15.6943359375
-36.285400390625 -16.29541015625 20.33203125
0.9130859375 9.9813232421875 13.673828125
15.005126953125 -12.3714599609375 39.0152587890625
5.454833984375 -15.334716796875 47.7203369140625
-1.961669921875 5.754638671875 25.0299072265625
16.433349609375 -8.3291015625 37.4739990234375
-4.82080078125 32.2545166015625 -54.2960205078125
5.4951171875 5.078369140625 -41.825927734375
-7.470947265625 9.29736328125 -48.5740966796875
-11.123291015625 33.481201171875 -54.748046875
-0.426025390625 4.59912109375 -40.9288330078125
-4.051513671875 -1.0087890625 -27.802734375
14.1767578125 5.85400390625 -44.0755615234375
1.412353515625 5.337890625 -43.1837158203125
21.368896484375 9.9085693359375 -49.790771484375
26.190185546875 -7.94677734375 32.6749267578125
-11.678466796875 29.8577880859375 -51.3133544921875
-16.042236328125 -11.4776611328125 20.9906005859375
-1.777099609375 31.5084228515625 -34.696533203125
-36.0634765625 -9.1798095703125 6.4554443359375
-32.7978515625 -14.959716796875 19.2943115234375
-6.681884765625 29.6983642578125 -39.23486328125
19.905029296875 21.2381591796875 21.9951171875
0.642333984375 6.0380859375 23.854736328125
-31.327392578125 -16.28662109375 20.197021484375
-39.28955078125 -12.880615234375 16.3199462890625
-24.7275390625 -14.924560546875 21.2955322265625
-0.58154296875 8.66259765625 15.802001953125
-13.71875 5.08154296875 26.3775634765625
-8.439697265625 29.77783203125 -51.24658203125
17.5 2.5067138671875 -33.63818359375
2.610107421875 -2.223388671875 24.986572265625
20.28125 21.69677734375 -28.1280517578125
-3.600341796875 30.6319580078125 -37.9903564453125
-28.055419921875 -12.65576171875 15.44189453125
13.439697265625 6.8438720703125 -45.6177978515625
-13.635498046875 -12.1522216796875 15.41845703125
9.17138671875 8.485595703125 17.3740234375
3.4521484375 6.904541015625 -45.6981201171875
-4.287353515625 29.060791015625 -42.6558837890625
4.909912109375 3.3048095703125 -36.751953125
-9.138916015625 30.481689453125 -37.2508544921875
-33.31689453125 -9.5960693359375 4.9571533203125
21.098876953125 11.3238525390625 -53.39404296875
9.40234375 20.7164306640625 -21.0726318359375
-11.026123046875 28.7603759765625 -38.9105224609375
-0.29443359375 1.062744140625 -32.3656005859375
-12.568359375 28.5687255859375 -40.5302734375
16.901123046875 25.2921142578125 -30.8707275390625
5.812255859375 0.1861572265625 31.873046875
-4.248291015625 2.43017578125 34.6759033203125
4.303955078125 11.56298828125 -15.25390625
-12.931884765625 -7.490478515625 22.4730224609375
32.160888671875 -4.382568359375 18.3724365234375
-1.990234375 17.434326171875 -9.5028076171875
17.43505859375 23.0672607421875 -27.6370849609375
9.89892578125 13.8577880859375 0.1021728515625
-2.8388671875 12.854248046875 -59.92578125
27.867431640625 -4.823486328125 22.7376708984375
-37.45556640625 -14.7857666015625 17.71142578125
1.464599609375 2.57275390625 35.756591796875
-2.574462890625 1.00048828125 -32.95556640625
-6.508544921875 -0.7889404296875 43.70703125
-10.147705078125 1.099853515625 22.4090576171875
-2.060791015625 21.2449951171875 -17.0809326171875
-3.072509765625 10.4056396484375 -54.5438232421875
-1.535888671875 -3.452392578125 -27.517578125
12.204345703125 20.9044189453125 -20.9969482421875
9.593994140625 9.3555908203125 -52.2449951171875
-36.449951171875 -12.5526123046875 14.694580078125
16.06982421875 23.5672607421875 -29.4337158203125
-3.432861328125 15.4244384765625 -4.0089111328125
2.2822265625 0.98291015625 40.93017578125
12.760009765625 20.7425537109375 -18.7467041015625
-22.182861328125 -15.4716796875 17.8021240234375
-22.108154296875 -13.686767578125 13.71923828125
-14.076416015625 27.611328125 -45.69482421875
-17.23388671875 5.2335205078125 25.0262451171875
-4.874755859375 22.814453125 -17.0906982421875
-3.773681640625 -1.0750732421875 -30.046630859375
-24.01953125 -11.9927978515625 11.521240234375
-7.30078125 -1.4708251953125 46.7711181640625
0.587890625 14.1832275390625 -13.1444091796875
11.892333984375 16.178466796875 -6.381591796875
1.235107421875 12.5108642578125 -59.4482421875
15.9482421875 1.3931884765625 -31.812255859375
1.171142578125 34.022705078125 -34.2728271484375
-5.987060546875 7.2830810546875 18.35107421875
1.1103515625 14.43408203125 0.546142578125
8.47998046875 -0.58056640625 29.1820068359375
-24.614990234375 -7.8216552734375 25.451904296875
7.2666015625 13.67431640625 1.7647705078125
-0.571044921875 32.38623046875 -33.658935546875
5.994873046875 15.028076171875 -2.3470458984375
-12.472412109375 5.634521484375 29.9754638671875
9.791748046875 13.06884765625 1.5960693359375
-18.710205078125 -9.8076171875 8.3955078125
-3.981201171875 14.109130859375 -1.0203857421875
9.5625 16.406494140625 -8.3980712890625
16.767578125 20.5877685546875 -20.10595703125
5.40771484375 12.961181640625 3.4365234375
16.3115234375 4.235107421875 -38.91015625
7.220703125 4.1002197265625 -39.0665283203125
-26.056884765625 -10.89111328125 9.43994140625
7.90673828125 0.2803955078125 30.3768310546875
11.647705078125 7.4627685546875 -47.845947265625
-7.823486328125 5.7991943359375 34.12353515625
-1.299072265625 15.8438720703125 -7.014892578125
17.101318359375 24.4189453125 14.2530517578125
15.935546875 22.913330078125 16.4058837890625
11.0048828125 8.6917724609375 17.5748291015625
-37.329833984375 -12.0777587890625 13.0372314453125
1.082275390625 15.73974609375 -4.594970703125
3.617431640625 15.1318359375 -4.764404296875
20.390625 2.8768310546875 -32.2889404296875
0.615478515625 12.7198486328125 -14.171875
19.208251953125 11.618408203125 -55.5543212890625
17.81884765625 5.2423095703125 -41.18798828125
11.33056640625 14.46826171875 -1.068115234375
7.819580078125 15.0772705078125 -2.12109375
6.92041015625 9.3951416015625 13.1212158203125
10.603759765625 1.7532958984375 -32.57568359375
16.610595703125 18.119873046875 -11.8314208984375
9.743408203125 10.32080078125 -53.924072265625
13.027587890625 7.63916015625 26.1553955078125
2.502197265625 8.5294189453125 16.355712890625
4.230712890625 7.485595703125 19.8004150390625
-5.46484375 5.3916015625 25.883544921875
5.337890625 -0.680908203125 27.8345947265625
0.250244140625 1.8863525390625 -33.9898681640625
11.23486328125 12.839111328125 4.1278076171875
-6.301513671875 4.2861328125 29.9661865234375
16.678955078125 26.8905029296875 -3.2122802734375
10.536865234375 3.97314453125 29.54296875
19.184814453125 4.6900634765625 -38.486083984375
-26.137451171875 -9.4508056640625 4.5223388671875
-7.973876953125 3.6571044921875 32.769775390625
-8.489990234375 5.0506591796875 27.1064453125
28.025634765625 -6.4508056640625 26.3697509765625
-4.609375 6.0279541015625 23.5574951171875
-3.171875 8.775390625 16.063720703125
31.66162109375 -4.65234375 27.403076171875
1.66015625 -1.7415771484375 -25.674560546875
-10.61083984375 -13.048583984375 13.152587890625
-18.77783203125 -8.9189453125 4.8404541015625
-6.205810546875 4.6109619140625 -40.1796875
-2.717529296875 12.847900390625 -58.0751953125
6.589111328125 10.5556640625 10.3348388671875
12.35986328125 21.897705078125 -22.612060546875
-3.154541015625 3.9442138671875 -39.042724609375
9.41015625 11.505615234375 8.975830078125
-4.035888671875 17.2987060546875 -6.1044921875
-5.9189453125 1.8092041015625 37.453857421875
9.493408203125 7.337646484375 20.1246337890625
-7.17626953125 28.7340087890625 -43.13671875
0.901123046875 -2.7940673828125 27.3671875
10.991943359375 10.284912109375 10.772705078125
-8.8642578125 28.3370361328125 -46.0966796875
-16.99462890625 -10.5531005859375 10.8758544921875
14.623779296875 9.35009765625 -52.450927734375
-4.1259765625 6.9254150390625 21.217529296875
10.53271484375 38.11181640625 -35.4859619140625
-31.26220703125 -11.0721435546875 7.9661865234375
-1.735107421875 4.98486328125 -41.7686767578125
18.607421875 16.8447265625 -10.8951416015625
-2.240478515625 11.426025390625 7.6575927734375
-13.61572265625 -13.1729736328125 18.9415283203125
26.06689453125 -7.589111328125 28.4368896484375
-5.8759765625 3.535400390625 -38.13134765625
-4.010498046875 -4.114501953125 54.1741943359375
23.671142578125 13.0916748046875 -16.1033935546875
-23.824462890625 -9.068603515625 22.666015625
7.9482421875 22.635498046875 -22.702392578125
6.388427734375 10.1026611328125 -12.0562744140625
-3.28662109375 1.50244140625 39.32470703125
-0.599609375 14.33837890625 -59.2589111328125
8.625244140625 37.4266357421875 -33.1966552734375
-29.02001953125 -10.752685546875 8.9088134765625
-11.150634765625 5.79736328125 23.86279296875
5.9501953125 36.31396484375 -34.0115966796875
18.12646484375 3.78857421875 -36.7572021484375
-2.626220703125 -1.719970703125 47.585693359375
-33.88134765625 -13.1767578125 17.0179443359375
3.996337890625 8.54638671875 -50.812744140625
-17.087890625 -9.820068359375 7.3680419921875
9.615234375 2.6756591796875 34.0701904296875
2.250732421875 13.4942626953125 -61.7427978515625
-0.896728515625 9.97705078125 13.00390625
-5.409912109375 4.838623046875 28.5159912109375
17.084716796875 25.6610107421875 8.68505859375
7.15087890625 3.00341796875 -35.6068115234375
-24.8623046875 -11.3157958984375 20.6741943359375
17.780029296875 4.7904052734375 -39.6976318359375
19.57666015625 22.016357421875 -25.8126220703125
2.712646484375 9.1053466796875 -51.71923828125
9.586669921875 2.98828125 32.3350830078125
5.275390625 1.202880859375 33.0411376953125
4.1220703125 -1.2734375 24.672607421875
9.601318359375 9.1171875 14.61669921875
-24.122802734375 -13.17578125 13.43115234375
22.921142578125 -8.3974609375 38.49365234375
-21.9794921875 -8.6524658203125 23.6448974609375
-28.20263671875 -9.272216796875 4.724365234375
-30.509765625 -9.7105712890625 3.387451171875
23.677978515625 -6.8526611328125 28.5712890625
0.70556640625 -0.6556396484375 29.5794677734375
1.191162109375 19.791748046875 -17.6025390625
-30.004638671875 -10.318115234375 5.9873046875
-21.522216796875 -12.51953125 12.5975341796875
-22.7470703125 -12.1153564453125 6.3568115234375
1.635986328125 6.8179931640625 -45.4359130859375
-38.12841796875 -1.3770751953125 9.8089599609375
-0.611572265625 8.0172119140625 17.6446533203125
-34.775634765625 -10.1290283203125 9.0216064453125
20.660888671875 -9.6676025390625 35.1595458984375
-15.91064453125 4.3507080078125 27.996337890625
-9.207275390625 31.0220947265625 -52.9031982421875
2.185791015625 2.3370361328125 34.4542236328125
24.855224609375 -7.2698974609375 36.4749755859375
-21.053466796875 -14.4283447265625 18.73388671875
-10.41796875 34.8587646484375 -55.6981201171875
-14.01025390625 -10.0987548828125 9.6092529296875
17.5224609375 -10.6795654296875 37.6971435546875
20.21923828125 8.605712890625 -47.4384765625
-14.053466796875 -6.5218505859375 21.59033203125
-37.20751953125 -8.9620361328125 7.3861083984375
-8.1318359375 31.926513671875 -53.767333984375
-4.06103515625 -3.5936279296875 51.6607666015625
18.16357421875 21.765625 -25.1226806640625
-37.1650390625 -9.3470458984375 3.662109375
6.594970703125 -2.163818359375 26.2470703125
11.2646484375 13.296875 2.71240234375
-6.386962890625 8.6622314453125 -50.380615234375
-18.650146484375 -10.876220703125 12.384765625
10.90966796875 -12.3341064453125 41.4771728515625
5.074951171875 11.530517578125 -17.1322021484375
16.96826171875 -11.4393310546875 39.1002197265625
-7.535400390625 5.7066650390625 20.073974609375
19.1728515625 24.0931396484375 12.304931640625
18.5087890625 6.6673583984375 -43.93896484375
-17.470458984375 -12.3056640625 15.453125
-38.3876953125 -4.8114013671875 19.33056640625
-20.164306640625 -13.2271728515625 15.921142578125
22.115478515625 -8.462646484375 39.8292236328125
-5.20361328125 29.197021484375 -49.627197265625
-4.2099609375 7.1142578125 -46.1177978515625
0.991943359375 4.9483642578125 -41.20556640625
-24.113525390625 -15.063232421875 18.77001953125
9.2939453125 2.4349365234375 29.905517578125
6.0966796875 10.1575927734375 -9.806884765625
-11.5859375 -11.3038330078125 11.674072265625
11.22607421875 11.800537109375 8.2825927734375
16.427001953125 5.3017578125 -41.9366455078125
-39.14306640625 -13.03662109375 13.4248046875
-16.14794921875 -11.405029296875 13.4638671875
22.31982421875 10.3353271484375 -18.4908447265625
16.776611328125 19.97265625 -17.236083984375
-37.70703125 -15.036865234375 20.26171875
14.1162109375 1.1107177734375 -31.0615234375
-5.75341796875 11.957763671875 -59.2677001953125
18.981201171875 10.222412109375 -52.80810546875
20.932861328125 6.7742919921875 -41.9896240234375
-3.350830078125 17.1937255859375 -8.8446044921875
16.834716796875 -13.913330078125 41.102783203125
13.1787109375 5.343505859375 31.1923828125
9.086669921875 -13.280029296875 43.42626953125
18.818115234375 23.728515625 -30.737060546875
-1.288330078125 12.4158935546875 5.1737060546875
-32.0078125 -12.6044921875 12.95556640625
22.83447265625 13.263671875 -23.740234375
19.70751953125 16.7891845703125 -7.4110107421875
-21.402587890625 -8.4307861328125 2.4949951171875
-8.81494140625 1.470703125 21.779541015625
-8.55126953125 4.066650390625 29.387451171875
11.098388671875 10.28076171875 12.5079345703125
-5.714599609375 19.367919921875 -11.270263671875
-4.40966796875 28.135986328125 -48.0340576171875
-33.943115234375 -11.645751953125 12.572998046875
15.36865234375 -14.0499267578125 45.7703857421875
17.696044921875 11.0855712890625 -55.202880859375
-15.0068359375 -13.9637451171875 19.6500244140625
8.52490234375 13.1212158203125 2.613037109375
-7.069580078125 -0.7879638671875 -27.47705078125
6.30029296875 -14.9830322265625 46.3736572265625
-26.149658203125 -10.1959228515625 6.3643798828125
-1.04931640625 2.26806640625 -34.820068359375
-32.297119140625 -13.7384033203125 17.3603515625
6.292236328125 15.485107421875 -6.4847412109375
11.327392578125 -15.152587890625 46.716552734375
7.9521484375 13.995361328125 -9.94482421875
-0.1904296875 15.8896484375 -10.7313232421875
-34.230224609375 -11.8704833984375 14.7342529296875
-14.86474609375 -9.427001953125 7.461669921875
-27.34228515625 -6.7862548828125 20.1463623046875
18.7705078125 8.7930908203125 -49.60791015625
15.2265625 2.8890380859375 -35.7054443359375
-5.14794921875 12.952392578125 -60.572265625
25.175048828125 7.67333984375 53.3778076171875
-12.43701171875 34.028564453125 -55.2003173828125
-1.216552734375 13.337890625 -57.95361328125
-4.688232421875 30.221923828125 -52.3350830078125
24.833251953125 8.73193359375 49.9244384765625
-3.4365234375 29.8436279296875 -39.6851806640625
-4.25732421875 29.6143798828125 -50.80810546875
-30.757568359375 -11.6741943359375 10.544921875
-2.2431640625 9.5289306640625 -52.55908203125
