-10.987548828125 -6.953857421875 15.696044921875
12.2705078125 15.932861328125 19.1947021484375
5.3974609375 8.1654052734375 38.32763671875
-32.930419921875 -9.09619140625 22.5494384765625
-1.71337890625 3.93359375 -22.8243408203125
-22.18310546875 -0.6851806640625 4.4615478515625
4.185546875 6.974853515625 26.893310546875
25.189453125 1.3272705078125 27.8399658203125
-37.904541015625 -5.0391845703125 8.392578125
10.378662109375 -4.492431640625 43.6397705078125
22.27490234375 -3.40234375 42.0767822265625
12.555908203125 21.7216796875 -4.8956298828125
-33.472900390625 -4.801513671875 13.230224609375
5.52978515625 18.1961669921875 6.8292236328125
-28.078369140625 -6.2249755859375 19.4853515625
29.009033203125 3.5313720703125 23.8306884765625
13.681884765625 21.1595458984375 -1.749267578125
5.850341796875 19.4405517578125 5.3463134765625
7.01171875 11.8074951171875 27.6317138671875
14.497314453125 24.215087890625 -5.5308837890625
14.77734375 -8.2252197265625 44.754150390625
-17.291015625 -7.108642578125 22.5108642578125
19.04052734375 12.139404296875 -39.776123046875
-11.96826171875 -4.4173583984375 9.698486328125
13.879638671875 -4.95751953125 41.6029052734375
5.41845703125 -9.8319091796875 49.986572265625
-20.44580078125 -4.3770751953125 8.0369873046875
7.103759765625 6.644287109375 30.7332763671875
0.505615234375 15.478759765625 18.4122314453125
4.97509765625 12.616455078125 26.741943359375
7.574951171875 5.47216796875 49.2366943359375
14.7001953125 7.8314208984375 -31.6983642578125
6.400634765625 17.145751953125 -11.8416748046875
16.41015625 -5.395751953125 42.6470947265625
5.7880859375 20.7733154296875 2.4813232421875
2.417236328125 10.7830810546875 -37.2591552734375
13.441650390625 25.189697265625 -8.131591796875
-2.822509765625 16.775146484375 -50.4649658203125
30.194580078125 1.0926513671875 23.27099609375
-13.66357421875 -5.141845703125 16.37451171875
6.9599609375 21.64111328125 0.06201171875
7.943603515625 8.8592529296875 -32.431884765625
-1.446533203125 24.5048828125 -11.310546875
-4.713623046875 2.7806396484375 52.0672607421875
4.0009765625 20.4786376953125 0.438720703125
6.30322265625 9.205810546875 -33.3572998046875
-28.595703125 -5.283935546875 15.7562255859375
-4.11572265625 4.7247314453125 46.7972412109375
0.889892578125 21.8795166015625 -4.4808349609375
21.792724609375 -4.0552978515625 37.2734375
7.166015625 16.283203125 12.4102783203125
-30.44091796875 -7.4730224609375 20.2080078125
17.526611328125 27.4334716796875 -20.5010986328125
16.54638671875 6.77783203125 -28.2679443359375
29.01708984375 0.251220703125 25.644287109375
8.458740234375 16.442138671875 -11.38134765625
19.632568359375 -2.0128173828125 36.754150390625
9.66845703125 -7.2457275390625 45.86474609375
-13.6591796875 -2.3504638671875 8.3272705078125
11.492431640625 18.8028564453125 7.513916015625
2.38134765625 27.2149658203125 -14.9344482421875
10.6611328125 20.3773193359375 2.356201171875
8.5625 19.7591552734375 7.032958984375
11.21142578125 21.8870849609375 -4.0625
3.5107421875 26.3046875 -14.134765625
10.75927734375 16.721923828125 15.5968017578125
14.0556640625 8.621337890625 -33.3421630859375
21.291259765625 -1.0357666015625 34.034423828125
9.708251953125 17.6922607421875 13.0072021484375
5.967041015625 4.0029296875 47.2115478515625
-19.35107421875 -5.952880859375 15.59716796875
3.003662109375 18.72265625 5.3712158203125
-25.13525390625 -6.2086181640625 20.22216796875
7.719482421875 15.1700439453125 15.3629150390625
25.14892578125 -0.424072265625 29.60693359375
1.751953125 16.7923583984375 -8.2718505859375
0.455078125 10.6844482421875 28.9439697265625
2.004150390625 21.2510986328125 -1.8167724609375
-1.08984375 21.564697265625 -1.1025390625
3.26318359375 16.875732421875 12.2032470703125
3.50634765625 13.70458984375 24.1553955078125
10.009765625 5.958984375 46.88720703125
3.591796875 17.7777099609375 8.36865234375
23.368408203125 -0.2396240234375 30.8431396484375
7.632568359375 13.5111083984375 20.3887939453125
-1.345703125 20.8631591796875 1.8798828125
0.342041015625 20.3763427734375 1.9100341796875
7.89599609375 9.115966796875 37.03515625
3.31982421875 15.751953125 16.4713134765625
7.0078125 14.3558349609375 17.8172607421875
16.571533203125 11.2666015625 -37.9173583984375
-1.756103515625 18.300537109375 10.74267578125
-7.10791015625 10.929443359375 -37.041015625
17.6943359375 14.9638671875 -46.37646484375
3.28466796875 3.0123291015625 53.96142578125
3.082763671875 3.732177734375 51.40869140625
7.103759765625 2.4927978515625 29.530517578125
-1.049560546875 7.680908203125 40.7132568359375
16.361083984375 -8.8992919921875 45.6195068359375
19.656494140625 -4.92138671875 42.235595703125
6.986328125 12.736328125 -43.5496826171875
-35.065673828125 -8.9561767578125 23.6832275390625
-19.420166015625 -7.5328369140625 20.4163818359375
6.864013671875 18.303466796875 7.8856201171875
-3.676025390625 1.822509765625 54.6240234375
0.8203125 20.6866455078125 -9.268310546875
-4.8583984375 2.38330078125 53.7568359375
1.150634765625 3.4547119140625 53.8665771484375
-4.591064453125 9.005859375 -33.7528076171875
-1.24755859375 5.863525390625 47.932373046875
2.932861328125 16.80029296875 -52.691650390625
2.5234375 3.7515869140625 28.977783203125
2.320556640625 8.9229736328125 28.627197265625
6.905029296875 3.1436767578125 26.5286865234375
20.329345703125 -4.2271728515625 40.2476806640625
6.925048828125 1.935302734375 31.1624755859375
12.56494140625 -7.9617919921875 46.861328125
10.911865234375 14.162841796875 20.8798828125
10.575439453125 16.2864990234375 18.211669921875
1.187255859375 5.45654296875 -22.280029296875
11.037841796875 -8.687744140625 47.8184814453125
11.625 28.0186767578125 -16.302001953125
7.861083984375 -8.816650390625 49.6878662109375
7.6982421875 7.9857177734375 -30.87353515625
-34.57275390625 -6.5982666015625 21.3560791015625
12.8349609375 13.536865234375 -42.5782470703125
10.301513671875 15.3515625 -46.800048828125
5.057861328125 6.3251953125 36.3653564453125
-28.627197265625 -3.275390625 5.381591796875
-11.38037109375 -4.1119384765625 7.2021484375
1.2548828125 18.7353515625 -55.529052734375
1.398193359375 13.4000244140625 -42.0762939453125
14.80908203125 14.008544921875 -45.8548583984375
12.51611328125 24.670654296875 -11.0479736328125
12.711181640625 11.687255859375 -38.11181640625
13.371337890625 15.0738525390625 -48.38720703125
-2.976806640625 18.9998779296875 -57.481689453125
3.072998046875 13.153076171875 -41.570068359375
6.291748046875 12.0087890625 -40.6807861328125
10.60546875 7.6341552734375 -28.543212890625
5.611572265625 12.63671875 -42.3564453125
8.97119140625 16.7109375 -50.5826416015625
9.087158203125 14.1182861328125 -44.9110107421875
-4.672607421875 10.47705078125 -35.2159423828125
2.758056640625 8.7366943359375 -34.5731201171875
11.22119140625 26.481689453125 -14.3900146484375
-2.279541015625 10.9869384765625 -38.42236328125
0.712890625 9.2637939453125 -35.055908203125
3.47705078125 5.6719970703125 -24.2391357421875
-5.181396484375 11.716552734375 -38.06005859375
0.126220703125 8.8956298828125 -32.9957275390625
5.32763671875 5.7830810546875 -26.6907958984375
2.7998046875 6.2972412109375 -25.90771484375
1.19775390625 14.1693115234375 -44.1285400390625
10.38671875 10.8997802734375 28.168701171875
3.60791015625 6.4476318359375 40.37158203125
-28.104736328125 -8.3033447265625 21.517822265625
-2.29833984375 13.71923828125 -46.1749267578125
1.8369140625 11.8953857421875 -38.83642578125
-10.4140625 -5.078857421875 10.547607421875
-12.249267578125 -5.18896484375 12.9788818359375
-14.947509765625 -6.435791015625 20.7333984375
-14.45556640625 -5.0855712890625 14.9927978515625
3.98193359375 5.3565673828125 35.507568359375
20.95166015625 -2.299072265625 34.987548828125
13.5859375 15.6624755859375 -50.889892578125
21.138427734375 -4.2611083984375 43.05615234375
-25.613525390625 -3.8416748046875 11.6253662109375
-20.88134765625 -6.798828125 17.8443603515625
-19.384521484375 -8.8228759765625 24.0054931640625
-23.738037109375 -7.398193359375 12.589599609375
-31.8271484375 -5.1705322265625 12.8524169921875
-34.963623046875 -2.785888671875 7.0946044921875
-35.6259765625 -4.603271484375 14.8209228515625
-23.98193359375 -8.0677490234375 15.4361572265625
-24.18115234375 -9.7523193359375 22.81005859375
22.539306640625 14.3521728515625 -35.1771240234375
15.223876953125 -3.020751953125 41.8944091796875
13.375 12.513916015625 -39.2274169921875
-37.7607421875 -10.9873046875 20.640625
-0.516845703125 20.0458984375 -59.3372802734375
18.41748046875 -6.132080078125 43.9970703125
11.42431640625 -4.0794677734375 41.6119384765625
13.38818359375 16.568603515625 -52.063720703125
7.240966796875 15.2349853515625 -47.8916015625
6.049072265625 6.224365234375 32.78369140625
1.86279296875 5.6048583984375 33.994140625
20.867431640625 11.114013671875 -35.01318359375
19.451904296875 16.446044921875 -49.0767822265625
16.99853515625 -3.2047119140625 40.662109375
9.221435546875 14.5166015625 19.8983154296875
18.392333984375 12.8692626953125 -41.8792724609375
2.588623046875 5.8306884765625 27.315673828125
11.2255859375 10.778076171875 -39.252197265625
12.1669921875 -6.3626708984375 43.2457275390625
14.79345703125 9.8953857421875 -33.4853515625
-0.419189453125 18.9132080078125 -56.471923828125
9.296142578125 14.583251953125 18.0947265625
4.408935546875 18.250732421875 -11.7603759765625
6.01904296875 6.505859375 -29.5439453125
3.66064453125 -9.591064453125 51.6773681640625
23.52880859375 -2.7611083984375 34.6630859375
-4.039794921875 17.630126953125 8.54833984375
3.326171875 13.136962890625 25.8095703125
7.35986328125 20.729248046875 -4.2001953125
5.277099609375 21.7147216796875 -2.7890625
17.34326171875 -8.2679443359375 47.7452392578125
0.76708984375 24.3360595703125 -11.6192626953125
22.614501953125 12.9483642578125 -34.108642578125
6.969482421875 25.6690673828125 -13.995361328125
4.35107421875 17.5802001953125 -14.1495361328125
8.126708984375 18.2781982421875 10.272216796875
-1.60888671875 3.22900390625 54.86328125
14.072021484375 21.2822265625 1.045654296875
-0.024169921875 26.8797607421875 -12.4844970703125
-25.1123046875 -6.65673828125 17.905029296875
6.29150390625 6.9951171875 44.0430908203125
30.05517578125 -0.7071533203125 28.20166015625
12.171630859375 12.774169921875 -41.0113525390625
17.271484375 9.3096923828125 -32.5411376953125
17.8955078125 17.020751953125 -51.7054443359375
13.069580078125 26.8199462890625 -13.2630615234375
19.770751953125 14.5638427734375 -44.9942626953125
-13.925537109375 -7.093017578125 24.1787109375
-11.2138671875 -8.8050537109375 23.076416015625
19.145751953125 -8.3525390625 46.0997314453125
13.30224609375 -7.016357421875 44.52294921875
4.36572265625 15.7386474609375 -50.1680908203125
-4.364990234375 3.96484375 49.2783203125
10.336669921875 8.1434326171875 -30.21142578125
13.474853515625 27.931884765625 -17.99072265625
7.10888671875 8.2354736328125 41.2882080078125
-12.24560546875 -7.6416015625 22.42431640625
-19.15380859375 -6.315185546875 19.46875
7.4013671875 20.4278564453125 5.7265625
0.620361328125 22.263916015625 -7.126953125
8.079345703125 16.510498046875 13.465087890625
4.3349609375 6.03466796875 42.6163330078125
0.267333984375 6.1983642578125 44.9853515625
2.607421875 7.3802490234375 36.4256591796875
11.04150390625 13.303955078125 24.7811279296875
6.18994140625 17.5189208984375 9.448486328125
-0.16015625 8.922119140625 35.6826171875
-4.233154296875 14.472412109375 -48.3394775390625
0.556396484375 14.8294677734375 -46.6636962890625
8.700439453125 25.350830078125 -13.9256591796875
4.1689453125 18.2001953125 -54.5625
-0.84423828125 6.896484375 42.787353515625
26.981201171875 -1.324462890625 36.8172607421875
-1.03369140625 4.77734375 -24.7705078125
15.643798828125 24.8485107421875 -8.482177734375
18.2548828125 22.9781494140625 -4.131103515625
15.47607421875 25.678955078125 -11.498291015625
18.5126953125 23.685791015625 -7.1396484375
16.80615234375 26.74755859375 -17.0703125
5.50244140625 19.6949462890625 4.0135498046875
15.030029296875 27.0364990234375 -16.2412109375
5.995849609375 15.48974609375 15.2855224609375
-14.73828125 -7.2491455078125 22.286376953125
6.12646484375 8.19287109375 30.1693115234375
13.940185546875 25.1986083984375 -9.453857421875
4.216064453125 21.21826171875 -1.181884765625
-0.05615234375 19.2056884765625 6.1258544921875
-5.497802734375 4.4342041015625 46.5538330078125
18.021484375 16.04736328125 -48.79736328125
-27.190673828125 -1.949951171875 6.732177734375
9.463134765625 20.9454345703125 1.4776611328125
11.622802734375 17.8753662109375 10.9447021484375
10.5673828125 21.405517578125 -1.5025634765625
10.53466796875 18.745361328125 8.782470703125
8.081787109375 21.0101318359375 2.7386474609375
14.376953125 11.296875 33.279541015625
8.908935546875 21.9951171875 -1.9608154296875
12.853271484375 19.9674072265625 1.5382080078125
21.969970703125 16.4578857421875 -44.0882568359375
27.556396484375 -1.3211669921875 31.8643798828125
1.481201171875 17.243408203125 -10.4317626953125
7.405029296875 6.4888916015625 47.694091796875
-12.499267578125 -3.4114990234375 6.403564453125
10.99462890625 -5.5657958984375 44.2763671875
-35.8203125 -5.5076904296875 15.860107421875
2.17333984375 20.35888671875 0.7052001953125
9.291748046875 7.827392578125 40.4737548828125
10.447998046875 7.16162109375 41.7745361328125
0.02587890625 23.3470458984375 -9.1900634765625
4.622314453125 15.4869384765625 16.06787109375
8.386962890625 11.7430419921875 26.3760986328125
11.49462890625 6.1951904296875 44.353515625
7.028076171875 13.1318359375 22.511474609375
3.116943359375 16.474853515625 13.907470703125
6.4111328125 8.8797607421875 39.56884765625
10.005615234375 8.50732421875 37.07275390625
1.023681640625 18.40771484375 8.74951171875
0.841064453125 17.9066162109375 10.8797607421875
3.340087890625 14.52783203125 21.16552734375
4.991455078125 13.9407958984375 21.6217041015625
6.0380859375 12.974365234375 24.20068359375
9.8798828125 6.8824462890625 43.47119140625
6.28173828125 21.3209228515625 -8.2249755859375
4.36669921875 14.7855224609375 19.05029296875
-0.697021484375 18.7261962890625 8.6739501953125
18.15185546875 10.593994140625 -37.0538330078125
3.555419921875 5.029296875 45.8939208984375
24.82080078125 1.7996826171875 29.303466796875
-25.115966796875 -5.2716064453125 13.910400390625
23.25732421875 15.0743408203125 -23.0137939453125
27.077880859375 -0.1490478515625 27.1544189453125
-1.287841796875 8.301025390625 38.5845947265625
-0.8515625 9.4984130859375 33.4940185546875
-2.843017578125 10.4036865234375 32.183837890625
-2.677490234375 9.5841064453125 35.160888671875
5.4580078125 2.60595703125 53.1505126953125
0.2509765625 4.8798828125 50.08349609375
2.476806640625 5.891845703125 43.750244140625
8.775634765625 -7.6219482421875 43.384765625
3.908203125 18.44287109375 -9.0667724609375
0.457763671875 8.973876953125 31.1903076171875
20.137939453125 15.8125 -47.386474609375
6.42626953125 17.716552734375 -9.0218505859375
22.26123046875 10.43115234375 -27.5615234375
1.7060546875 7.1644287109375 35.353271484375
-24.62548828125 -8.0233154296875 20.6336669921875
0.73779296875 13.33349609375 24.238525390625
26.9169921875 -1.8583984375 33.91650390625
6.444091796875 5.4910888671875 29.4224853515625
-1.178466796875 16.3009033203125 -50.4356689453125
27.3916015625 -0.5052490234375 28.90087890625
17.930419921875 7.066162109375 -28.1075439453125
-30.164306640625 -9.9453125 23.4578857421875
-5.4150390625 18.385986328125 -53.8365478515625
22.01416015625 -3.3392333984375 35.6956787109375
17.98974609375 -4.501953125 41.7318115234375
12.526123046875 -5.0760498046875 41.4205322265625
12.09912109375 -9.5955810546875 49.455078125
-27.28173828125 -4.7403564453125 16.912109375
3.7900390625 17.2362060546875 -12.9287109375
16.465087890625 -8.782958984375 42.951171875
-28.98583984375 -6.8812255859375 18.3338623046875
5.518798828125 13.699462890625 -45.6558837890625
-2.150634765625 2.5712890625 53.664794921875
20.505859375 17.0638427734375 -49.78369140625
-34.214599609375 -9.4180908203125 21.88916015625
-30.233642578125 -4.1939697265625 9.3446044921875
-6.10986328125 9.6414794921875 -35.90966796875
3.341796875 12.643798828125 -39.9017333984375
19.049560546875 15.09814453125 -46.2645263671875
20.866943359375 15.475830078125 -44.76708984375
19.011962890625 7.768310546875 -29.204345703125
-2.658447265625 5.12353515625 -25.693603515625
4.64892578125 20.7525634765625 -3.518798828125
9.042236328125 -7.8951416015625 46.9466552734375
-37.19189453125 -10.3623046875 19.5750732421875
-2.161865234375 8.6785888671875 -31.031982421875
12.779296875 14.6368408203125 -46.7557373046875
10.4443359375 15.743896484375 -48.468017578125
10.303955078125 -9.6297607421875 50.1492919921875
15.531005859375 10.9163818359375 -35.4300537109375
11.44921875 15.99609375 -50.538330078125
14.864013671875 12.8431396484375 -42.1243896484375
6.674560546875 20.7557373046875 -10.1231689453125
-1.521240234375 13.5150146484375 -44.8585205078125
-19.571533203125 -6.802001953125 17.094970703125
14.835205078125 -9.1494140625 50.361083984375
14.128173828125 -7.5548095703125 42.1785888671875
-30.26220703125 -5.672119140625 13.7391357421875
0.851806640625 18.6546630859375 -56.86572265625
14.849853515625 23.9603271484375 -4.19189453125
19.740478515625 10.1787109375 -34.390380859375
12.17919921875 6.96435546875 -27.6832275390625
-1.296142578125 18.623046875 -57.8675537109375
-11.66796875 -7.6661376953125 18.5098876953125
7.851318359375 14.40966796875 -45.3795166015625
14.46875 17.3492431640625 -52.7430419921875
12.439208984375 27.458740234375 -17.262451171875
12.054443359375 12.5008544921875 29.7081298828125
3.51806640625 19.0611572265625 -55.77197265625
3.08642578125 14.509033203125 -46.1153564453125
4.01806640625 14.49951171875 -47.7913818359375
13.903564453125 21.971923828125 -2.9066162109375
8.1845703125 12.2825927734375 -43.1123046875
-0.570068359375 8.299072265625 -29.2474365234375
2.031982421875 7.916015625 -31.30517578125
-4.649658203125 13.1754150390625 -44.2625732421875
-2.527587890625 10.30615234375 -35.52783203125
0.236572265625 6.7142333984375 -24.7110595703125
-7.283935546875 13.3978271484375 -42.2388916015625
-2.779541015625 12.0985107421875 -42.158447265625
-9.337646484375 -4.363037109375 8.6429443359375
-4.023681640625 11.1676025390625 -37.211181640625
-30.42919921875 -3.77685546875 5.9537353515625
-27.600341796875 -3.162353515625 11.180908203125
-4.05419921875 4.929931640625 -24.103271484375
-5.509033203125 5.884765625 -26.1912841796875
-6.183349609375 6.50732421875 -27.8529052734375
-27.855712890625 -3.7752685546875 14.4925537109375
-18.531982421875 -5.188720703125 19.8480224609375
3.200439453125 17.6990966796875 -6.1490478515625
13.368408203125 25.0579833984375 -6.801025390625
-35.181640625 -1.9765625 5.5457763671875
-7.143798828125 8.818115234375 -35.70556640625
-18.78466796875 -3.746337890625 11.8646240234375
-17.3876953125 -3.2803955078125 11.244384765625
-12.10498046875 -7.2557373046875 20.7841796875
-13.694091796875 -6.6907958984375 20.3450927734375
-18.059326171875 -2.6602783203125 9.5897216796875
13.969482421875 -9.18701171875 49.3436279296875
7.03466796875 21.7730712890625 -1.263916015625
-32.19091796875 -3.635498046875 8.0013427734375
7.936279296875 20.5386962890625 3.9781494140625
-0.69970703125 4.52783203125 -23.491455078125
29.52001953125 -0.6099853515625 32.7281494140625
-21.266357421875 -7.8553466796875 22.3360595703125
-20.197021484375 -6.1470947265625 14.5848388671875
-31.800048828125 -3.6492919921875 17.6492919921875
-25.193359375 -2.689208984375 6.7252197265625
-25.403564453125 -3.265380859375 9.17529296875
-18.03125 -8.78857421875 22.393798828125
24.7373046875 -1.7637939453125 32.35595703125
-24.50537109375 -4.4798583984375 12.8720703125
1.358642578125 6.068115234375 -23.4486083984375
17.841796875 27.0074462890625 -19.2041015625
17.636962890625 27.73681640625 -21.7904052734375
-22.80859375 -4.092529296875 4.837646484375
0.918701171875 7.1829833984375 32.539306640625
-32.88037109375 -3.1754150390625 6.3172607421875
-33.980224609375 -4.9722900390625 14.4429931640625
-24.4892578125 -8.238525390625 16.64892578125
-32.42333984375 -4.3642578125 10.3980712890625
-29.32177734375 -6.844482421875 16.5626220703125
-22.6884765625 -6.9610595703125 9.7574462890625
-30.615234375 -7.9512939453125 22.2413330078125
22.738525390625 15.0965576171875 -20.3724365234375
8.46240234375 16.490966796875 15.322021484375
23.910400390625 14.26904296875 -21.3443603515625
11.525146484375 21.462890625 -2.771240234375
12.087158203125 15.2943115234375 20.381591796875
11.866943359375 14.6904296875 22.9490966796875
9.818115234375 17.994140625 11.723876953125
-23.443115234375 -3.04638671875 4.1771240234375
16.480224609375 -8.007568359375 49.09765625
19.36083984375 7.7080078125 -26.556640625
-18.9521484375 -4.28759765625 13.4581298828125
-29.615234375 -5.11865234375 10.8990478515625
22.04345703125 -1.7227783203125 33.0
5.683349609375 15.9122314453125 13.99951171875
7.574462890625 14.7020263671875 16.59423828125
5.320068359375 14.8426513671875 17.7872314453125
-0.777587890625 21.142333984375 0.18310546875
-1.877197265625 20.6842041015625 3.1505126953125
8.889892578125 6.7249755859375 45.160400390625
0.99951171875 22.18017578125 -5.759033203125
-2.173095703125 22.430908203125 -3.2554931640625
-2.392333984375 21.82958984375 -0.6990966796875
8.94677734375 5.6011962890625 49.428466796875
-0.98046875 21.8653564453125 -2.3807373046875
0.597900390625 21.0777587890625 -1.0723876953125
8.171875 8.5933837890625 38.7469482421875
0.6220703125 17.305419921875 13.4361572265625
0.250244140625 14.77783203125 21.3922119140625
4.3037109375 18.5257568359375 5.4383544921875
21.80908203125 13.0245361328125 -36.3526611328125
-1.276611328125 23.6119384765625 -8.78662109375
-14.510009765625 -4.00390625 10.8851318359375
-38.717041015625 -9.9775390625 17.7960205078125
20.471435546875 12.5982666015625 -39.595703125
21.761474609375 10.0302734375 -28.999267578125
1.3984375 6.7542724609375 41.606689453125
0.962158203125 5.556884765625 46.697265625
3.19189453125 4.031494140625 50.135986328125
5.103271484375 19.4693603515625 -11.4354248046875
2.076904296875 4.794189453125 48.4166259765625
-1.893798828125 10.460693359375 30.9261474609375
3.4462890625 4.72998046875 47.16650390625
2.9833984375 7.353515625 38.2886962890625
-2.281982421875 6.696533203125 44.406494140625
29.166748046875 0.71142578125 24.426025390625
6.5517578125 -8.71484375 50.0274658203125
12.744384765625 -7.3504638671875 45.7161865234375
4.67041015625 4.2666015625 47.61328125
13.966552734375 6.8804931640625 -29.3148193359375
17.022705078125 14.06689453125 -45.697998046875
14.968505859375 7.25830078125 -30.4781494140625
21.15087890625 9.20703125 -30.083740234375
3.072998046875 17.25732421875 -53.9110107421875
17.519287109375 -1.13818359375 39.9853515625
2.515869140625 11.825439453125 28.1044921875
20.8056640625 13.8114013671875 -41.112060546875
-11.75341796875 -6.291259765625 16.6837158203125
-37.176025390625 -3.5989990234375 6.67333984375
23.7998046875 -2.699462890625 42.000732421875
2.973388671875 16.2640380859375 -8.2899169921875
5.693359375 14.318359375 -46.8428955078125
9.205810546875 11.2760009765625 -41.044677734375
6.92578125 3.9384765625 31.2940673828125
7.12255859375 7.5845947265625 36.4981689453125
15.1298828125 6.3924560546875 -28.0125732421875
-6.98974609375 15.5263671875 -50.0740966796875
6.964599609375 17.4228515625 -13.5260009765625
20.545654296875 -3.6336669921875 37.7242431640625
6.400390625 1.7586669921875 32.4168701171875
2.631591796875 4.04833984375 27.716064453125
22.63671875 -4.051025390625 39.18212890625
-16.026123046875 -7.0906982421875 23.084228515625
2.80078125 20.121826171875 -5.62744140625
4.970458984375 8.4825439453125 39.7569580078125
6.664794921875 5.2574462890625 48.14599609375
1.299072265625 3.7900390625 51.689208984375
10.01171875 17.0611572265625 -53.0699462890625
8.864013671875 16.4166259765625 -49.3316650390625
-19.578857421875 -8.1298828125 21.5482177734375
17.378662109375 9.603759765625 -33.79150390625
5.631103515625 7.7388916015625 41.9000244140625
-1.13134765625 6.0340576171875 45.700927734375
21.57958984375 16.4105224609375 -46.316650390625
-2.2412109375 17.276611328125 -51.6461181640625
-14.43115234375 -2.4765625 5.590087890625
11.087646484375 -6.87255859375 45.6865234375
-5.48828125 14.5997314453125 -48.8330078125
-5.16552734375 13.0018310546875 -43.0294189453125
-2.58251953125 11.3968505859375 -39.670166015625
-28.321533203125 -3.1309814453125 8.4990234375
9.118408203125 18.57275390625 9.52392578125
-22.963623046875 -10.158447265625 22.3779296875
15.193603515625 -8.1656494140625 46.1787109375
-35.809326171875 -8.74462890625 22.3590087890625
-36.953125 -9.4310302734375 17.6929931640625
1.752197265625 24.6331787109375 -12.3775634765625
-14.77734375 -4.894287109375 13.255615234375
17.4033203125 13.9803466796875 -44.377197265625
-15.263916015625 -7.3038330078125 24.423828125
-12.354736328125 -5.478271484375 14.208984375
-13.4990234375 -7.3865966796875 22.8126220703125
-3.832763671875 16.03271484375 -50.6510009765625
-3.02392578125 15.9925537109375 -49.306640625
-23.8154296875 -5.547119140625 12.2115478515625
-24.26025390625 -9.8861083984375 24.07763671875
24.72802734375 -2.951171875 38.37158203125
-0.5625 24.2919921875 -12.1876220703125
-21.021484375 -7.18310546875 19.4776611328125
29.9609375 -0.8184814453125 30.8896484375
-25.217041015625 -6.9443359375 19.1280517578125
0.9462890625 12.4791259765625 25.84765625
2.117919921875 22.155029296875 -11.9873046875
6.5322265625 6.308349609375 45.6976318359375
8.31005859375 14.0909423828125 17.413818359375
-35.81103515625 -6.886962890625 19.8372802734375
14.66650390625 -8.8175048828125 43.6492919921875
21.34814453125 12.7840576171875 -37.7469482421875
-33.279296875 -5.4915771484375 15.6773681640625
-30.530029296875 -6.49609375 16.541015625
-35.068115234375 -3.0728759765625 8.3145751953125
-22.947998046875 -8.89453125 17.490966796875
25.9287109375 -2.13818359375 34.6419677734375
1.00390625 19.4578857421875 -9.078857421875
-35.63916015625 -6.1385498046875 18.7567138671875
-13.32470703125 -3.0574951171875 7.2958984375
10.518310546875 17.415283203125 13.925048828125
1.184326171875 4.2943115234375 32.62744140625
15.361572265625 27.9462890625 -20.1092529296875
17.71484375 25.3682861328125 -12.7496337890625
18.02978515625 24.9422607421875 -11.4527587890625
17.473388671875 25.99658203125 -14.90625
15.73388671875 26.3865966796875 -14.5068359375
13.84716796875 26.3721923828125 -12.3883056640625
16.253662109375 25.231201171875 -10.62353515625
18.697021484375 24.1912841796875 -9.28857421875
19.216552734375 23.035888671875 -5.4052734375
16.941162109375 23.245361328125 -3.72412109375
17.608154296875 22.494384765625 -1.56005859375
16.56884765625 24.8050537109375 -9.3265380859375
12.827880859375 27.3770751953125 -15.8885498046875
2.95068359375 9.5955810546875 27.514404296875
11.99755859375 26.03466796875 -13.5166015625
9.630126953125 20.11865234375 4.4805908203125
0.955078125 8.1591796875 37.4024658203125
2.38671875 14.4705810546875 22.4285888671875
5.633056640625 15.611328125 -49.6727294921875
-0.043701171875 6.618896484375 43.7052001953125
-30.53369140625 -4.063720703125 7.1737060546875
-31.660400390625 -7.066162109375 20.6395263671875
5.05859375 16.757080078125 11.4273681640625
1.309326171875 15.2025146484375 19.3270263671875
11.67578125 19.3060302734375 5.374267578125
9.4833984375 19.7159423828125 6.1922607421875
4.500244140625 26.603759765625 -14.8966064453125
8.68896484375 21.3912353515625 0.606689453125
11.863037109375 17.2498779296875 13.0919189453125
13.2890625 12.1668701171875 31.1173095703125
10.220947265625 19.1695556640625 7.4912109375
-0.873046875 4.1961669921875 52.499755859375
-38.99365234375 -10.7364501953125 21.0224609375
-0.143798828125 10.240966796875 30.5831298828125
17.3876953125 15.3782958984375 -47.63818359375
3.747314453125 19.7078857421875 2.9539794921875
3.482177734375 17.47705078125 9.6468505859375
-1.183349609375 22.5882568359375 -4.944580078125
3.13720703125 15.2508544921875 18.6015625
7.65283203125 12.287109375 25.0828857421875
7.8798828125 7.7916259765625 42.1553955078125
-1.005859375 19.080322265625 6.917724609375
4.5087890625 17.7347412109375 7.5316162109375
4.42333984375 13.66162109375 23.318359375
1.153564453125 17.484375 12.16552734375
7.94482421875 13.0887451171875 21.6744384765625
10.2451171875 7.8846435546875 39.2105712890625
22.8515625 13.088623046875 -25.6651611328125
20.38427734375 13.734130859375 -42.46875
2.375732421875 13.01318359375 26.59619140625
0.416748046875 4.0601806640625 53.060546875
-1.598876953125 8.7215576171875 37.304443359375
5.183349609375 3.126220703125 51.4461669921875
0.667236328125 7.2960205078125 40.3189697265625
0.0126953125 5.4998779296875 47.9549560546875
-1.619140625 9.9403076171875 32.630615234375
20.02099609375 -3.810302734375 38.978515625
-1.010009765625 12.2081298828125 -42.450927734375
8.787109375 7.3035888671875 -28.7442626953125
9.832763671875 -8.1722412109375 47.8511962890625
26.258056640625 -1.182861328125 31.3175048828125
8.59521484375 22.4193115234375 -3.2520751953125
2.114013671875 17.7861328125 -12.4969482421875
6.701904296875 15.0787353515625 -7.80029296875
25.7841796875 -2.53515625 36.3297119140625
26.44287109375 -0.6241455078125 29.679931640625
-0.364501953125 11.4207763671875 -40.81201171875
-29.93359375 -7.30224609375 18.9952392578125
5.912841796875 6.2139892578125 -28.30322265625
8.063232421875 15.1282958984375 -46.9852294921875
4.750244140625 3.5465087890625 27.3326416015625
4.28173828125 2.260498046875 32.8001708984375
19.348388671875 -4.504638671875 40.967041015625
22.02587890625 11.043701171875 -29.66455078125
-0.6435546875 13.732666015625 -43.89453125
8.353759765625 -9.2137451171875 45.0911865234375
-20.25146484375 -5.070068359375 10.4942626953125
19.40185546875 17.7509765625 -51.93115234375
4.569580078125 25.0543212890625 -13.4149169921875
-1.66552734375 14.73828125 -45.959716796875
-4.8974609375 18.560302734375 -55.0743408203125
15.510986328125 14.8712158203125 -47.8448486328125
-4.520263671875 16.790771484375 -51.437744140625
9.13525390625 -9.016845703125 49.765380859375
11.341796875 15.701904296875 -49.287353515625
14.66552734375 13.55078125 -44.6337890625
-26.433837890625 -8.518798828125 21.1864013671875
-9.724609375 -5.4246826171875 13.156982421875
4.416015625 7.07568359375 -29.98681640625
18.5498046875 -8.7850341796875 47.71240234375
-15.447265625 -2.880859375 7.5830078125
15.62744140625 23.5125732421875 -3.317138671875
3.03125 15.6046142578125 -50.2762451171875
1.528076171875 16.4700927734375 -51.967041015625
4.59130859375 13.57861328125 -44.8699951171875
10.89013671875 8.41552734375 -31.8651123046875
-0.913330078125 15.857421875 -48.323974609375
-24.002197265625 -5.636474609375 16.1077880859375
-18.039794921875 -3.83837890625 14.107421875
-4.04345703125 12.3555908203125 -41.7669677734375
-25.8583984375 -4.5140380859375 14.4837646484375
-1.602294921875 10.361572265625 -36.7537841796875
-6.252197265625 13.7452392578125 -44.705322265625
-3.047119140625 12.605712890625 -43.81982421875
-4.18505859375 11.966552734375 -40.1129150390625
1.728759765625 8.325927734375 -32.552978515625
-6.110595703125 14.13427734375 -46.3592529296875
-2.704833984375 9.81982421875 -33.4603271484375
3.421875 6.7626953125 -28.38134765625
2.24853515625 6.0263671875 -24.260986328125
-3.720703125 10.7576904296875 -35.96337890625
-4.8466796875 13.8770751953125 -46.7508544921875
-3.68896484375 13.3282470703125 -45.90185546875
1.92578125 7.624267578125 -30.0645751953125
-0.1767578125 9.3055419921875 -34.2435302734375
-23.97412109375 -5.8131103515625 14.747802734375
2.477294921875 15.33251953125 -48.6221923828125
-20.391357421875 -5.4542236328125 12.1275634765625
26.43798828125 0.83935546875 26.9168701171875
-6.68115234375 7.6142578125 -31.5733642578125
-5.242431640625 5.379638671875 -24.5369873046875
-6.91259765625 8.2161865234375 -33.639404296875
-6.449951171875 7.012451171875 -29.5072021484375
-29.3095703125 -3.92529296875 8.6318359375
10.364990234375 12.3232421875 24.9012451171875
-10.099853515625 -6.6044921875 16.758544921875
-17.5478515625 -2.4881591796875 8.3668212890625
-12.30029296875 -6.5599365234375 18.316650390625
-21.44189453125 -1.112060546875 5.2955322265625
-11.373779296875 -8.013671875 20.201904296875
15.29248046875 22.3240966796875 -1.3404541015625
-28.337158203125 -4.3985595703125 13.4000244140625
3.382568359375 21.1177978515625 -3.54150390625
-28.23388671875 -8.743896484375 22.6910400390625
14.8935546875 -4.3997802734375 41.8853759765625
-29.268798828125 -5.212890625 12.2149658203125
-24.734619140625 -3.8829345703125 10.8231201171875
13.5341796875 23.8770751953125 -6.142578125
-24.6904296875 -2.792724609375 4.5634765625
-12.8505859375 -4.3759765625 10.5040283203125
-13.1513671875 -3.969482421875 9.2667236328125
-35.017333984375 -5.46826171875 16.8231201171875
-19.540283203125 -4.262939453125 7.27783203125
-35.78466796875 -3.8175048828125 11.9671630859375
-23.962646484375 -9.236083984375 19.91650390625
-19.165771484375 -3.80810546875 10.49609375
-33.05078125 -6.0859375 17.7177734375
-34.173828125 -4.2822265625 11.9959716796875
-34.33251953125 -3.4964599609375 9.1422119140625
-26.255126953125 -9.42041015625 23.1336669921875
17.47265625 -6.4298095703125 43.3466796875
28.983642578125 1.6805419921875 23.7696533203125
6.522216796875 15.832275390625 -48.709716796875
18.29541015625 8.3642578125 -30.018310546875
-29.9404296875 -8.893310546875 22.4747314453125
-38.637451171875 -4.6171875 7.568359375
6.426513671875 21.4615478515625 1.3375244140625
24.961669921875 0.54248046875 28.95703125
-33.08935546875 -3.7493896484375 8.7572021484375
8.2734375 18.680419921875 8.5623779296875
6.768798828125 8.1661376953125 37.552734375
-0.064453125 11.0748291015625 -39.118408203125
7.48876953125 17.525146484375 10.934814453125
9.616455078125 11.2777099609375 26.8248291015625
5.005615234375 20.15625 -4.5308837890625
15.71337890625 17.190185546875 -51.381103515625
5.169921875 16.990234375 9.677001953125
7.59228515625 -8.364501953125 47.5401611328125
2.9111328125 19.3001708984375 -13.4444580078125
24.2412109375 -2.967529296875 39.682861328125
0.061279296875 9.45556640625 32.66064453125
-0.83544921875 10.8170166015625 28.3958740234375
1.19091796875 20.0335693359375 -58.3695068359375
9.6806640625 -5.585205078125 43.673583984375
3.283203125 15.8453369140625 -7.0152587890625
2.229736328125 3.086181640625 33.286376953125
6.820556640625 5.5269775390625 31.746826171875
-4.190673828125 18.1627197265625 -52.9285888671875
6.705078125 7.481689453125 -30.60888671875
20.33447265625 7.98974609375 -27.306396484375
-5.79931640625 16.62255859375 -52.84326171875
-10.668212890625 -8.0894775390625 23.77880859375
3.740966796875 7.6380615234375 -32.1029052734375
-4.813232421875 15.5206298828125 -50.3656005859375
-6.517822265625 17.217041015625 -53.6583251953125
5.67822265625 11.7735595703125 27.0318603515625
-6.88623046875 19.414794921875 -55.498779296875
5.964111328125 16.018798828125 -6.3021240234375
18.430419921875 -3.009033203125 39.0546875
10.162109375 13.047119140625 22.3345947265625
23.103515625 -1.182861328125 31.904541015625
1.053955078125 17.5657958984375 -9.05126953125
21.675048828125 11.165771484375 -31.8690185546875
7.09619140625 16.3721923828125 -11.060302734375
25.8349609375 -2.1885986328125 37.806640625
15.0107421875 10.7412109375 -34.1864013671875
30.236328125 -0.210205078125 26.089111328125
23.68994140625 -3.6361083984375 37.1448974609375
6.492431640625 6.7183837890625 36.1744384765625
1.006591796875 7.9344482421875 34.5953369140625
5.224365234375 9.75 27.3287353515625
7.25537109375 -10.2886962890625 44.1763916015625
1.064697265625 19.9296875 -8.068603515625
-11.007080078125 -5.7769775390625 11.18310546875
0.78271484375 12.738525390625 -40.9320068359375
1.947265625 17.8409423828125 -55.62353515625
-32.424072265625 -8.3880615234375 23.2440185546875
-10.394775390625 -6.2569580078125 15.0653076171875
15.874755859375 16.24951171875 -49.34033203125
-31.681884765625 -2.9168701171875 8.6754150390625
28.910400390625 -1.111328125 33.886474609375
5.864013671875 5.4073486328125 46.263427734375
17.001708984375 12.5086669921875 -42.4736328125
-23.750244140625 -5.9583740234375 9.0528564453125
11.00439453125 13.3370361328125 26.163330078125
1.837646484375 17.61376953125 -53.93310546875
-29.19677734375 -3.9705810546875 6.0179443359375
10.651611328125 25.777587890625 -15.490478515625
1.1181640625 11.525634765625 27.8797607421875
10.429443359375 14.3167724609375 -44.351318359375
-10.357666015625 -7.6109619140625 18.21435546875
-17.14794921875 -8.5009765625 23.005615234375
9.93994140625 22.25390625 -4.085205078125
15.626708984375 -6.8050537109375 42.575439453125
-5.617431640625 19.15673828125 -55.8919677734375
11.8603515625 -5.947998046875 41.9832763671875
5.483154296875 15.5400390625 -8.2449951171875
27.08203125 1.44091796875 25.3328857421875
19.990478515625 8.2413330078125 -28.600341796875
16.640869140625 8.648681640625 -31.3994140625
-28.442138671875 -4.6864013671875 14.6234130859375
6.815673828125 19.2882080078125 -10.4368896484375
3.0791015625 5.2073974609375 34.9134521484375
4.417724609375 7.748291015625 38.0994873046875
5.840576171875 6.7574462890625 42.5406494140625
1.27392578125 4.112060546875 28.9554443359375
1.97705078125 9.0067138671875 -35.4473876953125
4.885009765625 18.87060546875 -8.89013671875
23.2216796875 -3.2841796875 41.3018798828125
21.1826171875 17.9017333984375 -50.919189453125
8.531005859375 -8.6649169921875 43.4798583984375
9.968994140625 12.58740234375 -42.0672607421875
-4.192626953125 4.5894775390625 48.1214599609375
17.663330078125 17.765869140625 -52.9122314453125
5.875244140625 7.365234375 32.186767578125
5.1904296875 17.3216552734375 -51.5968017578125
19.3466796875 11.725341796875 -38.5157470703125
-1.55859375 6.2840576171875 46.6522216796875
23.028076171875 14.2120361328125 -22.31494140625
11.78173828125 22.16748046875 -5.7666015625
18.532470703125 10.505615234375 -35.730224609375
18.57470703125 13.4912109375 -43.07080078125
16.24169921875 7.1900634765625 -29.522705078125
2.908203125 7.218505859375 39.615234375
0.792236328125 26.3939208984375 -12.9764404296875
13.750732421875 9.033447265625 -34.5965576171875
11.621826171875 9.1759033203125 -35.594970703125
-32.721923828125 -7.9853515625 22.0181884765625
4.680419921875 5.7781982421875 43.951904296875
21.462158203125 8.9212646484375 -27.9178466796875
8.243408203125 1.9609375 31.7584228515625
14.916748046875 8.6729736328125 -32.395751953125
20.916015625 9.8177490234375 -32.1800537109375
21.573486328125 13.6373291015625 -38.456298828125
1.81005859375 9.9332275390625 -37.4583740234375
0.482177734375 14.699462890625 -45.388671875
-0.69482421875 4.7587890625 50.8603515625
5.344970703125 8.8614501953125 -33.0567626953125
3.869384765625 23.884521484375 -13.2720947265625
10.174560546875 14.8426513671875 20.5350341796875
18.288330078125 -5.9825439453125 49.9547119140625
7.924560546875 18.9351806640625 7.227294921875
4.42724609375 22.0970458984375 -1.8648681640625
13.1630859375 25.6461181640625 -10.328125
21.871337890625 14.6900634765625 -40.0064697265625
-2.5703125 14.2918701171875 -47.394775390625
3.71240234375 9.0802001953125 -34.874267578125
19.972412109375 -0.6861572265625 36.277587890625
20.2275390625 14.740234375 -44.058349609375
-24.501708984375 -7.852294921875 18.5048828125
9.146484375 12.6953125 -42.9752197265625
0.8779296875 21.22900390625 -7.790771484375
19.19287109375 -7.8948974609375 48.525146484375
5.331298828125 17.780029296875 -52.818359375
-0.433349609375 5.61572265625 -24.5521240234375
1.9443359375 19.5997314453125 -57.5218505859375
0.4541015625 23.086669921875 -10.1153564453125
1.58203125 9.6597900390625 28.763916015625
-6.127685546875 11.3712158203125 -37.7567138671875
11.8466796875 15.9197998046875 18.234375
5.627197265625 -9.0672607421875 48.9031982421875
28.5419921875 -1.1029052734375 30.663330078125
19.54833984375 -5.218017578125 43.4967041015625
7.245361328125 6.277099609375 -28.6263427734375
0.531494140625 12.468017578125 24.890380859375
-24.8125 -9.0416259765625 20.7618408203125
-3.653076171875 9.4759521484375 -33.16064453125
13.073486328125 20.5714111328125 -1.029296875
0.2568359375 16.30322265625 17.69677734375
19.216552734375 17.058349609375 -51.1787109375
0.24560546875 4.92919921875 -23.3348388671875
11.814208984375 13.1259765625 27.562255859375
11.86669921875 27.1773681640625 -15.5523681640625
-11.2783203125 -5.21533203125 9.990966796875
5.057373046875 21.1121826171875 -0.2271728515625
4.626220703125 11.0860595703125 27.190673828125
8.4248046875 2.39306640625 29.1824951171875
6.377197265625 3.093017578125 28.7244873046875
14.404052734375 22.3291015625 -1.8707275390625
9.044677734375 -8.0738525390625 45.531494140625
14.521728515625 15.9822998046875 -50.3428955078125
-18.145263671875 -4.127685546875 15.3375244140625
9.86181640625 15.198974609375 18.7698974609375
3.43701171875 20.0621337890625 1.1973876953125
1.37353515625 22.9744873046875 -11.4176025390625
9.43896484375 24.7342529296875 -13.0941162109375
-18.58447265625 -6.2237548828125 16.4747314453125
13.312255859375 22.9921875 -5.45166015625
12.53955078125 20.3916015625 0.2469482421875
-23.5380859375 -6.765869140625 10.6002197265625
-36.378662109375 -8.0567626953125 19.0106201171875
-4.82080078125 8.0738525390625 -32.6473388671875
7.53515625 21.6446533203125 -3.5208740234375
20.07080078125 11.321533203125 -36.3475341796875
22.667236328125 -4.0743408203125 37.8140869140625
7.793701171875 15.63916015625 -48.658447265625
11.52490234375 13.5675048828125 -42.6619873046875
9.00830078125 18.27099609375 10.8070068359375
7.645263671875 19.596435546875 6.4549560546875
16.734130859375 10.4609375 -34.990966796875
7.249267578125 25.00390625 -13.2113037109375
12.851318359375 -7.235107421875 43.045654296875
5.67529296875 17.55126953125 -14.04931640625
3.211181640625 6.6258544921875 27.15087890625
-0.88330078125 18.2933349609375 11.2757568359375
-2.178466796875 16.0499267578125 -48.3751220703125
28.4345703125 3.1260986328125 24.572509765625
-27.9267578125 -7.5546875 20.4366455078125
1.202392578125 21.4571533203125 -3.1951904296875
-11.485595703125 -4.401123046875 8.4320068359375
5.864501953125 16.4808349609375 12.3411865234375
8.583984375 13.7017822265625 20.07470703125
14.25537109375 11.04638671875 -35.9344482421875
29.491943359375 -0.98388671875 29.88427734375
3.53662109375 20.1170654296875 -13.6649169921875
-34.639892578125 -9.187255859375 22.7857666015625
11.2373046875 -9.57373046875 48.9127197265625
9.584716796875 15.7904052734375 17.5286865234375
12.048828125 10.669189453125 -38.3426513671875
4.939208984375 10.6524658203125 -35.362548828125
-23.62744140625 -3.4669189453125 6.668212890625
-28.7734375 -6.0352783203125 16.8424072265625
-19.381591796875 -3.6636962890625 6.1383056640625
1.1767578125 16.1927490234375 16.3861083984375
2.55810546875 13.5140380859375 24.467041015625
17.048095703125 -4.619384765625 42.503662109375
0.5810546875 10.2877197265625 -37.4803466796875
-1.532470703125 3.36474609375 53.5350341796875
3.947021484375 8.4117431640625 -33.2442626953125
14.254638671875 24.7025146484375 -8.628173828125
16.319580078125 13.20458984375 -43.709228515625
-5.99072265625 11.82421875 -38.9647216796875
0.69140625 3.5399169921875 54.764892578125
-20.55078125 -4.665283203125 9.261962890625
10.0810546875 25.4266357421875 -14.2523193359375
1.0185546875 4.4378662109375 50.9468994140625
14.66357421875 23.2449951171875 -3.4598388671875
6.369140625 16.844970703125 -12.805419921875
6.402099609375 18.4276123046875 -54.3873291015625
4.5712890625 5.4786376953125 45.2255859375
6.839111328125 16.911865234375 -51.1221923828125
0.845947265625 7.8597412109375 38.6754150390625
5.260986328125 7.4407958984375 37.6365966796875
20.49365234375 -5.039794921875 43.19921875
0.309326171875 8.6402587890625 33.3609619140625
-4.42724609375 9.681884765625 -34.4801025390625
17.369384765625 -8.5870361328125 44.0167236328125
11.038330078125 25.765625 -13.650634765625
-36.343994140625 -9.545654296875 22.072021484375
11.6103515625 13.918701171875 25.46630859375
27.678955078125 -0.3740234375 36.717529296875
21.65869140625 -4.20654296875 40.850830078125
15.033935546875 24.4658203125 -6.3409423828125
8.68212890625 17.0938720703125 12.7586669921875
-10.23876953125 -8.4405517578125 21.956298828125
11.376220703125 11.2554931640625 27.9095458984375
-32.020263671875 -4.2076416015625 11.3507080078125
21.286376953125 11.124267578125 -34.103271484375
4.58740234375 8.638916015625 38.8447265625
6.74169921875 21.2305908203125 -9.110107421875
20.31884765625 9.317138671875 -31.001953125
-10.09814453125 -8.0550537109375 20.3170166015625
2.6865234375 11.9495849609375 -37.896728515625
-0.36572265625 14.6431884765625 -46.32275390625
4.58544921875 6.86279296875 40.601806640625
-2.847412109375 1.7071533203125 55.5989990234375
5.5302734375 17.153564453125 -12.3583984375
-36.887939453125 -4.21435546875 7.4061279296875
21.1591796875 16.3974609375 -47.222900390625
-2.73876953125 2.00537109375 54.3311767578125
6.739990234375 21.0374755859375 2.6280517578125
-2.536865234375 4.425048828125 50.5478515625
-7.10986328125 18.4000244140625 -54.8057861328125
-3.77685546875 2.9639892578125 51.7730712890625
8.670654296875 15.4290771484375 15.5198974609375
6.980224609375 20.412353515625 4.7740478515625
24.201171875 -0.54296875 30.38525390625
-3.60009765625 3.5244140625 50.1387939453125
1.199951171875 14.9019775390625 20.6044921875
7.89990234375 15.80615234375 14.1778564453125
6.227783203125 21.9794921875 -2.646728515625
15.828857421875 22.573974609375 -2.148681640625
10.865966796875 -4.475830078125 42.3358154296875
16.9091796875 8.0740966796875 -30.1767578125
15.181884765625 22.0211181640625 -0.052490234375
15.481201171875 18.001708984375 -52.14013671875
0.79443359375 16.34716796875 15.4794921875
11.84423828125 -7.3082275390625 46.537841796875
-6.06396484375 15.58203125 -51.30029296875
5.913818359375 18.0419921875 7.73486328125
11.6298828125 -8.1373291015625 47.155029296875
6.07958984375 21.646484375 -0.467041015625
3.092041015625 3.134033203125 34.2979736328125
17.71630859375 16.5284423828125 -49.6126708984375
5.048828125 19.5111083984375 3.0205078125
3.205810546875 22.888671875 -13.09033203125
13.2138671875 10.374267578125 -35.695556640625
18.50537109375 -9.180908203125 45.7652587890625
25.87255859375 -1.025146484375 30.4151611328125
3.3388671875 21.223876953125 -1.708984375
9.17529296875 17.444580078125 13.808349609375
7.463623046875 17.513427734375 -52.725341796875
2.533447265625 21.4990234375 -2.6195068359375
0.4990234375 19.2354736328125 -55.9326171875
0.67236328125 22.019287109375 -9.8836669921875
18.68212890625 13.7860107421875 -44.3245849609375
16.8515625 -8.583984375 46.6812744140625
6.06298828125 18.71435546875 -5.2252197265625
8.80712890625 21.07177734375 -4.9053955078125
11.243408203125 24.75732421875 -12.9447021484375
7.953857421875 21.7991943359375 -1.633544921875
2.232666015625 19.16650390625 4.5040283203125
0.11572265625 22.3924560546875 -4.8802490234375
16.42138671875 24.4007568359375 -7.607421875
17.62451171875 23.8302001953125 -6.72509765625
16.01220703125 25.859375 -12.780029296875
17.808837890625 24.335693359375 -8.8740234375
15.34912109375 24.039794921875 -5.0439453125
13.99462890625 26.776611328125 -14.107421875
16.916748046875 27.05078125 -18.3597412109375
15.214111328125 27.5418701171875 -18.39013671875
14.677978515625 27.3614501953125 -17.1083984375
17.158203125 26.422607421875 -16.203125
14.141845703125 27.180908203125 -15.82666015625
16.662841796875 23.7724609375 -5.450927734375
14.66162109375 26.0255126953125 -11.943359375
19.0693359375 22.6314697265625 -3.6861572265625
6.629150390625 16.1259765625 -49.958740234375
17.755615234375 22.898681640625 -3.2791748046875
13.347900390625 26.2928466796875 -11.536376953125
17.4404296875 23.3248291015625 -4.576171875
18.602783203125 25.223876953125 -13.164306640625
17.141845703125 25.086669921875 -11.0380859375
15.382080078125 26.7115478515625 -15.3740234375
18.86474609375 23.36083984375 -6.2724609375
28.257080078125 0.754150390625 25.2562255859375
15.918212890625 26.8919677734375 -16.65576171875
