25.1044921875 -7.365234375 36.568115234375
-14.653564453125 -8.6180419921875 2.6593017578125
15.1845703125 22.616455078125 14.959716796875
-6.181884765625 -2.537109375 52.5496826171875
-13.15576171875 -10.6827392578125 13.452880859375
14.5927734375 -14.7607421875 40.496826171875
11.525634765625 5.9674072265625 25.3990478515625
-24.029296875 -4.083251953125 22.4539794921875
-0.58154296875 21.697998046875 -18.1561279296875
12.618408203125 21.5172119140625 -20.317138671875
1.686279296875 -0.86865234375 46.1416015625
-14.807861328125 -11.2537841796875 14.3978271484375
-16.392333984375 -10.9942626953125 13.19921875
-24.06298828125 -11.1041259765625 6.62646484375
17.134033203125 -8.740234375 35.7166748046875
24.610107421875 8.665283203125 49.627685546875
18.22119140625 18.595703125 -12.648193359375
-21.782958984375 -13.8238525390625 19.006103515625
16.651611328125 16.365478515625 -4.9298095703125
20.224365234375 11.5167236328125 -56.0479736328125
16.063232421875 3.0701904296875 -35.94091796875
21.52880859375 3.012939453125 -29.8504638671875
-6.792724609375 3.035400390625 -34.578369140625
20.8388671875 -13.5718994140625 43.8125
21.802490234375 -9.9783935546875 35.749267578125
-14.183349609375 29.299560546875 -50.4737548828125
-2.735595703125 8.297119140625 18.8328857421875
-5.63134765625 10.9656982421875 -54.73828125
0.8662109375 8.8541259765625 -50.227783203125
1.8740234375 6.6085205078125 -45.0467529296875
23.07763671875 4.8824462890625 -33.2823486328125
-3.0341796875 21.0335693359375 0.421630859375
-6.21630859375 6.4302978515625 24.1630859375
1.125732421875 14.8682861328125 -14.721923828125
-6.968505859375 11.95263671875 8.811279296875
17.2265625 17.4813232421875 -8.133544921875
-3.4609375 3.3509521484375 -36.462158203125
0.64892578125 1.8673095703125 27.064697265625
-6.382568359375 4.5833740234375 29.3585205078125
9.06884765625 -14.48193359375 46.571533203125
10.06396484375 11.0318603515625 10.5345458984375
8.112060546875 16.1275634765625 -7.99658203125
3.67626953125 -15.85009765625 45.6456298828125
-8.523193359375 28.881591796875 -40.5858154296875
-1.89892578125 12.641357421875 6.4476318359375
6.595458984375 2.49462890625 39.9569091796875
12.0078125 3.953125 -37.6640625
13.408203125 5.0145263671875 -39.66064453125
17.015625 26.752685546875 3.9686279296875
15.370849609375 27.1148681640625 7.4071044921875
-3.3203125 8.926513671875 -50.48583984375
23.2041015625 12.7037353515625 -17.6300048828125
-2.628173828125 4.936279296875 30.4495849609375
3.389404296875 12.7313232421875 -61.1744384765625
-5.680908203125 20.6824951171875 -5.81787109375
-1.852783203125 6.7667236328125 -43.660888671875
0.194580078125 16.8052978515625 -5.3082275390625
7.46826171875 10.314697265625 12.8172607421875
-4.7109375 -0.8756103515625 -26.2783203125
23.258544921875 15.4283447265625 -12.6405029296875
23.64697265625 5.5445556640625 -26.7125244140625
-8.303466796875 5.443603515625 32.5885009765625
-3.073486328125 -3.7188720703125 54.20556640625
-3.980224609375 10.652099609375 -53.87890625
23.6455078125 11.44921875 -51.4725341796875
-0.263427734375 3.986083984375 32.1534423828125
-4.092041015625 -1.9676513671875 52.0489501953125
22.341064453125 5.632568359375 -36.802490234375
12.469970703125 10.6641845703125 -53.765625
15.767578125 6.9488525390625 -44.882080078125
21.78759765625 16.7374267578125 -9.429443359375
7.781005859375 16.5428466796875 -3.8172607421875
0.111083984375 4.0791015625 26.7843017578125
2.3427734375 11.0263671875 -10.6353759765625
23.096923828125 14.5966796875 -16.7308349609375
-3.472900390625 17.213134765625 2.7850341796875
11.165771484375 -10.9061279296875 40.542236328125
24.0419921875 -8.77490234375 35.9527587890625
-3.537353515625 6.7349853515625 -44.8458251953125
19.014404296875 21.4434814453125 -24.4129638671875
7.24462890625 8.4803466796875 16.8570556640625
-25.71533203125 -13.4561767578125 18.6668701171875
-11.034423828125 35.226318359375 -56.5069580078125
2.756591796875 11.18603515625 -13.6295166015625
-26.787353515625 -11.504150390625 14.3992919921875
-27.42529296875 -8.2767333984375 5.037353515625
18.4951171875 24.6640625 14.990966796875
-0.7919921875 11.2052001953125 9.997802734375
3.77734375 10.82666015625 12.8477783203125
-27.639404296875 -12.868408203125 19.03271484375
11.715087890625 3.9111328125 35.97509765625
4.89892578125 11.2550048828125 -9.5050048828125
1.41845703125 2.4298095703125 -33.9356689453125
24.796142578125 -6.4967041015625 27.126708984375
7.243408203125 8.3499755859375 18.95751953125
2.12353515625 -2.6531982421875 30.0709228515625
16.361572265625 7.6663818359375 25.455810546875
-26.596435546875 -5.7451171875 21.5546875
5.44140625 -14.6988525390625 46.676025390625
8.116943359375 2.0595703125 32.1793212890625
2.628662109375 5.740478515625 -41.06982421875
-28.144287109375 -5.278076171875 22.7413330078125
-5.938232421875 9.456787109375 16.2603759765625
-2.791748046875 7.5452880859375 22.6739501953125
16.45947265625 25.70947265625 8.456298828125
-28.712890625 -9.1112060546875 3.6123046875
-4.590576171875 4.3603515625 -37.4937744140625
-5.537841796875 18.32958984375 -6.24267578125
-9.718994140625 7.6475830078125 30.701171875
21.049072265625 -9.572265625 34.104736328125
-0.74072265625 3.3150634765625 34.3009033203125
0.80517578125 0.327392578125 -25.10009765625
0.8251953125 -0.0211181640625 28.5384521484375
30.955322265625 -4.05224609375 21.3109130859375
2.516357421875 6.9638671875 22.6085205078125
-14.9697265625 4.8223876953125 29.1419677734375
-4.951416015625 19.5606689453125 -4.362060546875
-0.94775390625 5.32666015625 28.7080078125
-11.482666015625 29.329833984375 -40.134765625
4.001220703125 13.9542236328125 -9.565185546875
6.43408203125 -0.87060546875 27.683837890625
6.964599609375 11.3193359375 -14.6497802734375
23.738525390625 13.295166015625 -15.6434326171875
20.74267578125 16.6575927734375 28.7750244140625
8.63720703125 11.0640869140625 -11.284423828125
-17.973388671875 -11.7008056640625 20.975341796875
-29.48828125 -8.562744140625 1.9267578125
-23.17724609375 -15.7996826171875 17.359375
19.35693359375 8.4407958984375 -47.9576416015625
-2.677978515625 16.95556640625 1.11181640625
7.94140625 4.7552490234375 -38.5284423828125
9.098388671875 9.920166015625 14.5015869140625
-20.02734375 -4.420166015625 23.1990966796875
10.37841796875 17.2757568359375 -9.990478515625
14.79931640625 21.9908447265625 -24.80126953125
-9.2666015625 31.2391357421875 -53.8021240234375
-1.81787109375 17.9635009765625 -10.1248779296875
-3.92236328125 22.19873046875 -17.7073974609375
17.510009765625 27.292236328125 1.2757568359375
-1.30029296875 18.8721923828125 -12.018798828125
3.95068359375 8.8282470703125 15.6510009765625
-0.999267578125 8.953125 18.272216796875
0.861328125 15.925537109375 -12.3753662109375
30.42041015625 -2.415771484375 19.859619140625
1.081787109375 1.8702392578125 29.513671875
10.6591796875 15.89599609375 -2.948486328125
-13.06396484375 -9.595947265625 10.857177734375
13.48583984375 7.9925537109375 24.6578369140625
-2.635498046875 17.4432373046875 -0.6673583984375
20.537353515625 20.99609375 21.85693359375
-21.6142578125 -11.058837890625 10.9603271484375
5.753662109375 -15.09033203125 42.7354736328125
7.283203125 12.3526611328125 6.6300048828125
8.47607421875 -12.75341796875 40.4156494140625
-14.894287109375 -12.4073486328125 17.7886962890625
17.18798828125 -13.7572021484375 44.3165283203125
14.227294921875 1.7491455078125 -30.5313720703125
18.120849609375 5.6954345703125 -40.866455078125
21.634521484375 9.4315185546875 -47.881103515625
-11.230224609375 28.6318359375 -49.5611572265625
14.208740234375 7.8902587890625 -47.594970703125
3.368408203125 -15.38623046875 48.7772216796875
-2.058837890625 15.4200439453125 -2.4442138671875
3.8662109375 11.745361328125 8.9322509765625
12.33642578125 5.504638671875 32.055908203125
12.637451171875 2.36962890625 -33.121337890625
-6.74853515625 30.368896484375 -51.9381103515625
-18.86279296875 -12.3634033203125 18.6990966796875
14.608154296875 10.005859375 22.268310546875
-11.94091796875 29.2425537109375 -41.8370361328125
-12.831787109375 29.1776123046875 -43.9620361328125
-12.4765625 28.82666015625 -47.3768310546875
-9.4228515625 28.780029296875 -43.13720703125
20.576171875 15.542724609375 30.6036376953125
22.572021484375 16.6090087890625 -17.114501953125
-19.6796875 -12.3896484375 17.1268310546875
10.14306640625 9.023681640625 -50.2550048828125
17.756591796875 22.5203857421875 17.88720703125
17.495361328125 10.2369384765625 -52.59716796875
17.7373046875 21.4412841796875 -22.6416015625
11.94287109375 -13.859375 43.2518310546875
-30.42041015625 -3.4501953125 21.32958984375
1.5087890625 9.0728759765625 18.1832275390625
-2.69189453125 2.611328125 -32.9755859375
11.265869140625 11.2469482421875 -56.427978515625
17.2119140625 17.307861328125 -6.3966064453125
-0.404541015625 12.7301025390625 -59.71533203125
1.858154296875 12.5091552734375 7.1922607421875
-25.461181640625 -8.509033203125 3.802978515625
2.873291015625 2.41015625 38.4171142578125
-2.136962890625 1.49755859375 41.091796875
-7.736572265625 6.7008056640625 33.6544189453125
15.61328125 22.5419921875 16.6649169921875
-2.2392578125 22.00244140625 -17.300048828125
-7.71435546875 8.04736328125 20.668701171875
-15.759765625 -13.1905517578125 19.1334228515625
5.369384765625 2.8447265625 35.0257568359375
-16.65478515625 -9.1629638671875 8.476806640625
13.1796875 19.18359375 -13.8680419921875
8.94189453125 10.3646240234375 -13.2664794921875
-16.978271484375 5.576904296875 25.8082275390625
1.012451171875 4.7666015625 25.4315185546875
-32.0146484375 -3.4532470703125 22.1842041015625
-11.30322265625 -12.2138671875 15.647705078125
-17.728759765625 -7.2763671875 2.927734375
5.689208984375 10.9989013671875 -11.16845703125
-22.49169921875 -11.2476806640625 5.7967529296875
8.2529296875 7.3731689453125 -46.3590087890625
3.117431640625 16.69677734375 -7.5078125
-4.580078125 13.2840576171875 -61.81298828125
11.924560546875 15.9310302734375 -4.2691650390625
6.459716796875 16.393798828125 -7.5653076171875
-3.77197265625 12.841552734375 -60.018310546875
-2.624267578125 11.8017578125 -58.93408203125
1.698486328125 10.9215087890625 12.4766845703125
3.459716796875 23.4967041015625 -21.6778564453125
-6.73193359375 12.6893310546875 -58.986328125
21.76171875 4.3721923828125 -28.484130859375
-5.150146484375 11.664794921875 -57.07568359375
-30.16455078125 -5.1739501953125 20.76611328125
-1.016845703125 13.2960205078125 2.529296875
-5.00732421875 5.8538818359375 28.333984375
-3.006103515625 5.4681396484375 27.0948486328125
10.993896484375 4.974609375 29.2659912109375
8.387451171875 14.448974609375 2.8765869140625
6.294921875 14.6290283203125 1.6461181640625
-7.972900390625 5.0740966796875 28.9254150390625
0.578369140625 10.0086669921875 -52.212890625
5.380615234375 4.3338623046875 -38.3209228515625
9.0068359375 10.069091796875 -53.029052734375
13.814453125 17.3814697265625 -7.147216796875
-1.38525390625 13.8343505859375 0.76513671875
16.95654296875 -15.0537109375 40.8721923828125
-3.165771484375 3.489990234375 35.980712890625
22.896240234375 8.593505859375 -26.0828857421875
15.302490234375 26.823974609375 4.0101318359375
21.921630859375 8.4527587890625 -43.819580078125
9.400634765625 12.3153076171875 9.5120849609375
-5.658203125 21.596923828125 -14.1011962890625
8.38916015625 -1.435791015625 26.0714111328125
-5.1572265625 28.301513671875 -41.89306640625
-13.972412109375 -7.9359130859375 21.514404296875
12.490234375 1.30126953125 -31.1959228515625
2.517578125 -2.542724609375 26.7874755859375
-4.5703125 1.807861328125 39.073974609375
-1.1728515625 9.3785400390625 -51.1219482421875
5.811279296875 10.4715576171875 12.005859375
-20.2255859375 -6.30029296875 21.85791015625
17.47314453125 26.78564453125 6.9649658203125
20.20947265625 -12.5809326171875 45.722412109375
-22.28173828125 -15.0775146484375 20.4041748046875
-10.33203125 6.17724609375 27.196044921875
-11.539306640625 -9.751220703125 4.7791748046875
5.98388671875 13.042724609375 -9.460693359375
17.16015625 -14.0538330078125 47.540771484375
9.751953125 8.25634765625 21.812744140625
26.685302734375 8.522705078125 51.25390625
11.002197265625 8.19189453125 23.034912109375
6.7646484375 1.2611083984375 31.49365234375
13.112548828125 22.0828857421875 -22.6033935546875
-0.315185546875 -0.5909423828125 46.158203125
15.05517578125 24.8046875 11.2132568359375
21.381591796875 -10.1922607421875 39.4117431640625
-3.254150390625 20.414306640625 -14.3822021484375
2.71240234375 1.0120849609375 41.4393310546875
15.121826171875 17.8006591796875 -11.533203125
2.823974609375 13.8367919921875 1.8929443359375
-0.309814453125 7.3819580078125 24.6993408203125
16.956298828125 5.78271484375 33.5587158203125
1.293212890625 3.104736328125 35.095947265625
14.55859375 19.8956298828125 -14.9119873046875
-6.35107421875 22.8192138671875 -12.6021728515625
-6.484375 21.2569580078125 -8.028076171875
-15.874267578125 -9.1551513671875 6.4320068359375
-20.00048828125 -11.1077880859375 12.9261474609375
-10.4384765625 36.813232421875 -57.385009765625
-7.892578125 6.037841796875 25.91259765625
-13.159423828125 6.7684326171875 25.9561767578125
8.30078125 -14.037353515625 42.16064453125
20.828857421875 20.0882568359375 23.2471923828125
-11.522705078125 -10.2119140625 11.3133544921875
-1.0556640625 17.0284423828125 -6.5791015625
-14.713623046875 -9.985107421875 10.569091796875
16.89501953125 -13.1407470703125 45.8560791015625
18.93505859375 13.1292724609375 31.7818603515625
-16.309814453125 -9.2706298828125 4.4461669921875
-16.380126953125 -10.7010498046875 11.5433349609375
-11.338134765625 4.3994140625 28.2801513671875
26.507080078125 -6.05615234375 26.2069091796875
-0.163330078125 0.797119140625 43.1610107421875
15.444091796875 4.612548828125 -39.2271728515625
-6.826171875 22.218994140625 -10.7593994140625
9.3701171875 2.8685302734375 -34.36181640625
1.0849609375 9.27294921875 14.417724609375
21.40576171875 -10.2559814453125 45.452880859375
5.884765625 15.7718505859375 -15.4959716796875
4.8408203125 16.802978515625 -5.463623046875
-7.202880859375 34.3924560546875 -56.0196533203125
-2.747314453125 -0.3167724609375 43.746337890625
23.124755859375 -9.26220703125 32.3970947265625
13.692626953125 10.286865234375 -52.4415283203125
6.81591796875 -0.9510498046875 25.6392822265625
16.1181640625 6.41796875 -43.0723876953125
3.58447265625 -0.5743408203125 24.857421875
22.765869140625 15.1131591796875 -15.11767578125
5.009033203125 -2.49658203125 31.1971435546875
22.91259765625 8.616455078125 -23.9737548828125
7.03955078125 14.8841552734375 -14.511962890625
-4.968505859375 0.5352783203125 -28.2440185546875
12.1005859375 13.897216796875 2.429931640625
4.19384765625 14.7733154296875 -0.0003662109375
-28.8486328125 -12.9481201171875 17.8839111328125
-12.994384765625 32.9915771484375 -55.4046630859375
-17.835205078125 5.04052734375 27.13623046875
-17.921875 -10.0867919921875 11.088134765625
-32.68017578125 -8.85107421875 3.6964111328125
-6.35205078125 0.10400390625 44.597412109375
6.94970703125 -3.093994140625 29.18701171875
-5.110595703125 0.10986328125 46.600341796875
-10.597900390625 30.8271484375 -52.762939453125
21.037109375 2.6251220703125 -31.4215087890625
-5.235107421875 6.3380126953125 -42.9888916015625
13.72265625 16.4598388671875 -1.0272216796875
15.918212890625 1.9871826171875 -32.32763671875
-11.593994140625 -11.11962890625 14.279296875
-1.73681640625 3.8826904296875 -36.6597900390625
11.98779296875 9.7242431640625 13.1925048828125
-0.79736328125 11.0377197265625 11.697021484375
-9.60205078125 -10.3470458984375 4.416259765625
9.84765625 36.0079345703125 -28.894775390625
-4.85546875 7.851806640625 19.3726806640625
-21.927734375 -9.1046142578125 2.5810546875
-30.77490234375 -10.9381103515625 9.62158203125
9.729736328125 -15.4769287109375 47.8511962890625
24.67626953125 8.94677734375 52.9139404296875
-5.100830078125 9.662841796875 14.5401611328125
25.051513671875 8.7493896484375 51.2674560546875
-1.833251953125 9.2095947265625 14.51318359375
26.65234375 8.382080078125 49.61083984375
-9.790771484375 30.157470703125 -51.315673828125
18.131591796875 -10.1353759765625 36.6654052734375
1.4794921875 10.564208984375 -53.6746826171875
19.992919921875 9.878662109375 -50.907958984375
-3.08056640625 11.377685546875 -57.0927734375
-19.580322265625 -11.8011474609375 20.6361083984375
4.771728515625 9.9012451171875 -52.3712158203125
3.4541015625 9.404052734375 -50.908447265625
-1.16455078125 7.319580078125 22.660400390625
-30.77685546875 -9.7999267578125 2.59423828125
-32.667236328125 -9.4814453125 8.2318115234375
15.945556640625 8.2442626953125 -48.184814453125
0.798095703125 12.158935546875 -58.7606201171875
-5.9765625 8.98486328125 17.9942626953125
32.947021484375 -4.540283203125 25.8277587890625
12.335693359375 8.88330078125 20.4033203125
-2.64794921875 7.282470703125 -46.2877197265625
-0.45947265625 0.28662109375 -27.534912109375
8.415283203125 -13.3350830078125 43.6761474609375
-30.68896484375 -9.4266357421875 6.9530029296875
30.21142578125 -6.05615234375 28.5528564453125
-6.41552734375 3.9139404296875 33.9605712890625
-8.6328125 28.6805419921875 -48.812255859375
20.58740234375 -12.6220703125 42.514404296875
-3.8447265625 18.155517578125 -3.7213134765625
-5.139892578125 7.352294921875 -45.775390625
0.560302734375 16.9793701171875 -13.84423828125
18.56689453125 25.36376953125 9.7359619140625
5.561279296875 -0.9915771484375 23.22412109375
-3.791748046875 8.353759765625 -48.623779296875
18.54541015625 22.0308837890625 19.2137451171875
16.9814453125 -14.9923095703125 43.257568359375
-20.291748046875 -8.748291015625 2.463623046875
-24.09521484375 -12.1220703125 11.613037109375
10.53857421875 37.901611328125 -30.2081298828125
5.96484375 -13.911865234375 48.17431640625
12.20703125 -14.956787109375 47.7430419921875
-12.53662109375 -12.883056640625 19.39306640625
6.917724609375 3.2545166015625 -35.609619140625
11.321533203125 4.129150390625 34.31201171875
20.787841796875 18.80810546875 -17.4903564453125
15.477783203125 7.226806640625 28.029541015625
-5.107177734375 31.8243408203125 -34.857666015625
-18.3740234375 -10.93896484375 14.05419921875
-12.522216796875 -7.71044921875 4.455810546875
6.981689453125 -15.243896484375 49.476806640625
9.2392578125 21.9632568359375 -22.43505859375
-5.454833984375 29.237060546875 -39.4873046875
15.257568359375 9.385986328125 -50.9989013671875
20.153564453125 18.4183349609375 25.6065673828125
-6.9814453125 9.9534912109375 -51.862548828125
15.214599609375 21.791259765625 -22.6207275390625
20.672607421875 8.6856689453125 -46.80029296875
-19.0546875 -8.7843017578125 5.6624755859375
27.15380859375 -7.2230224609375 32.848876953125
19.6435546875 22.8184814453125 -26.886474609375
-24.733154296875 -9.782958984375 7.2259521484375
-11.2236328125 5.2908935546875 29.8050537109375
-26.246826171875 -8.103271484375 2.1409912109375
21.079833984375 17.8507080078125 -14.742431640625
0.33056640625 3.78662109375 -36.3031005859375
12.841552734375 19.94775390625 -17.0035400390625
5.404052734375 11.70458984375 -56.7120361328125
2.08837890625 12.25 -57.56201171875
11.158447265625 20.1439208984375 -17.4107666015625
11.41796875 11.852294921875 7.42431640625
7.992431640625 11.24609375 9.724853515625
9.6845703125 4.2841796875 33.510498046875
10.63671875 -14.699462890625 46.55859375
6.593017578125 21.2957763671875 -20.9100341796875
-28.407470703125 -12.1458740234375 16.1494140625
-0.241943359375 10.2916259765625 -53.951416015625
-5.131591796875 -4.02685546875 54.275634765625
-4.785400390625 32.60546875 -54.7862548828125
0.146484375 10.344482421875 -58.2401123046875
14.158447265625 10.674560546875 -54.6976318359375
21.298828125 7.1893310546875 -42.634033203125
-26.643798828125 -8.791748046875 7.1177978515625
13.517822265625 9.0301513671875 -50.405029296875
-4.743408203125 31.4161376953125 -36.96435546875
4.7080078125 9.9107666015625 -10.5032958984375
-7.397705078125 6.9842529296875 23.2926025390625
1.46630859375 13.0733642578125 2.0672607421875
21.260498046875 4.08740234375 -34.2886962890625
-3.427978515625 18.4957275390625 -8.4693603515625
-10.122314453125 -12.1536865234375 13.1939697265625
21.31982421875 16.6304931640625 -13.2314453125
5.6279296875 12.67919921875 4.1051025390625
17.861328125 26.5816650390625 5.2630615234375
9.6875 1.70703125 28.898681640625
19.033203125 21.35888671875 -19.6585693359375
5.013671875 8.3887939453125 -49.01806640625
8.14013671875 12.3802490234375 8.27978515625
-5.193359375 2.5428466796875 -34.1104736328125
17.036865234375 19.4029541015625 -16.6170654296875
2.68310546875 13.586181640625 -10.2947998046875
-19.53076171875 4.55908203125 26.014892578125
11.708251953125 4.8189697265625 -39.121337890625
5.883544921875 1.56640625 -31.40966796875
-6.500732421875 31.247802734375 -37.7291259765625
7.780029296875 6.9210205078125 -44.9560546875
-3.2109375 7.6961669921875 20.1778564453125
-2.4453125 19.87646484375 -11.74560546875
-1.108154296875 7.988525390625 19.66162109375
-5.12646484375 3.2742919921875 -36.3751220703125
24.577392578125 -7.81689453125 28.9329833984375
19.669189453125 16.8829345703125 -11.0894775390625
5.7099609375 3.6224365234375 -36.9051513671875
17.447998046875 6.9097900390625 -44.5206298828125
-13.70556640625 29.1856689453125 -45.2342529296875
-6.887451171875 28.390625 -43.584716796875
0.795166015625 4.313720703125 -38.545166015625
-5.0625 19.0078125 -8.9345703125
10.25048828125 6.53125 -43.6966552734375
9.06201171875 2.7099609375 35.771240234375
16.626220703125 23.69384765625 14.331787109375
5.61474609375 6.3553466796875 -43.8775634765625
3.889404296875 2.277099609375 -33.5823974609375
11.2685546875 10.6224365234375 11.400634765625
18.426513671875 23.4241943359375 -29.566162109375
-5.789306640625 0.4527587890625 -26.9471435546875
-26.294921875 -9.6810302734375 9.2703857421875
-1.865478515625 2.6953125 -34.281982421875
-2.40087890625 15.9337158203125 -0.833740234375
-5.94970703125 7.6673583984375 -47.0865478515625
4.507080078125 9.9295654296875 14.6346435546875
0.962890625 1.94189453125 -31.2984619140625
18.832275390625 -13.630126953125 46.6617431640625
-3.64599609375 5.6053466796875 -41.613525390625
-4.585693359375 6.2401123046875 24.5576171875
-2.66650390625 17.6966552734375 -7.072265625
9.9970703125 4.5064697265625 -38.133544921875
14.971923828125 23.263671875 -27.2366943359375
11.413818359375 22.2437744140625 -23.4351806640625
20.49365234375 -10.698974609375 40.6976318359375
-3.57568359375 3.8792724609375 31.0194091796875
-2.319091796875 10.4583740234375 -53.4769287109375
17.401123046875 3.6251220703125 -36.547119140625
1.41845703125 13.6513671875 -11.53125
8.741943359375 21.3621826171875 -20.5731201171875
-6.350830078125 9.727294921875 13.31787109375
22.158935546875 8.909912109375 52.1412353515625
3.130615234375 16.6820068359375 -5.808349609375
1.766357421875 16.1319580078125 -8.62890625
10.4130859375 13.984130859375 0.7801513671875
-4.252685546875 22.7945556640625 -15.241943359375
4.12255859375 0.64794921875 -28.6287841796875
-2.0869140625 8.671630859375 -49.626953125
-20.86962890625 -12.1112060546875 15.117431640625
1.09326171875 21.4656982421875 -18.169921875
-1.37646484375 21.9945068359375 -16.0438232421875
-25.673095703125 -12.7423095703125 16.959716796875
-8.908935546875 4.017578125 29.497802734375
-20.514404296875 -12.996826171875 18.843505859375
3.5673828125 11.0849609375 -15.32470703125
13.212890625 5.940185546875 29.497802734375
5.14990234375 5.8582763671875 -41.204833984375
14.45068359375 19.0816650390625 -13.03759765625
4.1572265625 -15.347900390625 47.1690673828125
-0.4951171875 7.8494873046875 -47.369873046875
-10.47021484375 30.548095703125 -38.2811279296875
19.668212890625 4.7607421875 -38.173583984375
18.431640625 20.2044677734375 -18.5435791015625
4.4609375 7.1881103515625 -45.3031005859375
21.333740234375 19.7044677734375 -21.5546875
21.073974609375 5.662109375 -38.44677734375
4.859375 -0.6328125 31.3724365234375
5.0009765625 22.17138671875 -21.031494140625
22.3720703125 11.514892578125 -52.717529296875
21.867919921875 7.1129150390625 52.7218017578125
-3.721435546875 19.9422607421875 -12.9931640625
18.9365234375 17.4295654296875 -6.05078125
-18.02001953125 -4.4384765625 22.7406005859375
19.59130859375 19.2347412109375 -14.532470703125
11.01708984375 11.8961181640625 9.1097412109375
18.342529296875 -13.94189453125 40.71337890625
28.08349609375 -6.5616455078125 31.5230712890625
29.264892578125 -4.3154296875 22.6240234375
0.014404296875 11.1046142578125 8.3155517578125
-22.9423828125 -5.6767578125 24.669677734375
-0.200439453125 17.2437744140625 -8.3455810546875
4.65576171875 16.0162353515625 -14.6505126953125
8.586181640625 16.3203125 -5.076904296875
14.017578125 15.714599609375 -3.451171875
-15.057373046875 -9.314208984375 9.259033203125
21.778076171875 10.3795166015625 -49.8341064453125
-0.47314453125 18.8077392578125 -13.3135986328125
15.419921875 10.5733642578125 -53.8734130859375
8.324951171875 11.3731689453125 -55.9014892578125
23.548828125 10.7117919921875 -47.005859375
29.851806640625 -5.690185546875 25.2508544921875
-22.148193359375 -12.4619140625 10.80712890625
20.646240234375 20.88818359375 -24.3572998046875
11.4892578125 3.203125 -36.2044677734375
-0.93603515625 22.414794921875 -20.0045166015625
2.037109375 0.5592041015625 -29.3587646484375
-1.27490234375 4.4097900390625 -38.9017333984375
12.494873046875 13.818115234375 0.3193359375
5.107666015625 13.2122802734375 -16.2291259765625
18.567138671875 -12.55224609375 40.1502685546875
14.721435546875 -14.2598876953125 48.0145263671875
23.428466796875 7.1873779296875 -39.3319091796875
-0.521728515625 1.5135498046875 38.6015625
21.56982421875 19.26904296875 26.30517578125
-23.48046875 -14.6885986328125 16.3994140625
-3.8935546875 13.646728515625 3.82275390625
16.746337890625 23.69482421875 -29.1275634765625
1.0927734375 11.343505859375 -14.4442138671875
4.367431640625 12.610595703125 4.9971923828125
21.197998046875 18.765380859375 -19.2113037109375
7.624755859375 4.2984619140625 33.9722900390625
23.582763671875 8.162841796875 -40.84521484375
-17.4404296875 -8.8675537109375 7.2406005859375
-24.840576171875 -11.8441162109375 13.593505859375
-12.440185546875 34.231201171875 -56.1883544921875
2.890625 10.657958984375 9.5548095703125
-0.786376953125 13.15087890625 -61.09619140625
14.721435546875 -14.02490234375 42.4066162109375
-11.52294921875 -10.06103515625 9.6759033203125
17.360107421875 5.866455078125 29.8134765625
-2.33251953125 6.1636962890625 -42.2271728515625
-10.190185546875 -8.6268310546875 6.1593017578125
16.162353515625 19.1326904296875 -13.5352783203125
4.817626953125 8.7955322265625 20.2100830078125
-25.66357421875 -12.343994140625 14.898681640625
-27.890869140625 -9.82421875 10.1485595703125
-23.482666015625 -14.1795654296875 12.330322265625
19.34521484375 2.4671630859375 -30.4793701171875
20.267578125 5.9415283203125 -40.170654296875
8.452392578125 8.109619140625 18.1258544921875
-4.259033203125 9.655029296875 15.7657470703125
1.86767578125 8.80517578125 15.715087890625
8.101806640625 8.41259765625 21.004638671875
-2.625244140625 9.4283447265625 15.752197265625
3.76904296875 0.7191162109375 25.90478515625
7.501708984375 10.4559326171875 14.467041015625
-1.89208984375 -0.2655029296875 47.379150390625
-2.50537109375 -2.22314453125 51.634765625
-13.888916015625 -7.0267333984375 20.1683349609375
11.716064453125 4.084228515625 32.65966796875
-3.58056640625 7.7633056640625 23.907958984375
-5.680419921875 7.76513671875 20.65185546875
17.84716796875 26.869384765625 -2.9805908203125
6.18017578125 2.561279296875 38.320068359375
19.847900390625 21.1859130859375 -22.236083984375
-24.082275390625 -11.5389404296875 8.3076171875
0.467529296875 15.560791015625 -4.2442626953125
-6.118408203125 12.2811279296875 6.6380615234375
-23.9443359375 -9.447021484375 3.918701171875
-2.04296875 2.5281982421875 37.2947998046875
-6.9736328125 1.12646484375 -29.9610595703125
-4.811767578125 36.280517578125 -56.6104736328125
-12.37353515625 6.5513916015625 24.72705078125
-9.521240234375 6.227783203125 25.5185546875
-3.31201171875 0.6102294921875 -28.326416015625
9.89892578125 3.1265869140625 29.5321044921875
20.176025390625 -10.0123291015625 36.197021484375
3.921875 0.92431640625 40.60400390625
21.9072265625 17.7498779296875 -16.4630126953125
31.697998046875 -4.589599609375 25.0501708984375
6.7509765625 1.7445068359375 -29.81494140625
-5.77734375 1.8953857421875 39.909423828125
7.468505859375 14.6270751953125 -9.38916015625
12.417724609375 7.0623779296875 -45.1903076171875
9.58642578125 -10.68701171875 40.55517578125
-16.8955078125 -12.4530029296875 17.454345703125
5.13232421875 1.7109375 25.3228759765625
-3.589599609375 3.6026611328125 33.1068115234375
5.57666015625 1.8287353515625 27.3487548828125
-3.5361328125 2.37646484375 -31.635009765625
-13.393310546875 -8.399658203125 5.41357421875
-2.8037109375 19.5587158203125 -1.0316162109375
22.94921875 -7.81787109375 29.7874755859375
11.253662109375 13.8060302734375 3.73828125
15.117431640625 -14.159912109375 44.8062744140625
-1.3388671875 1.43115234375 39.855712890625
-5.3173828125 -1.7825927734375 48.8214111328125
11.378662109375 14.9447021484375 -1.5325927734375
-14.3583984375 31.3751220703125 -46.6126708984375
19.252685546875 10.6798095703125 -54.0723876953125
7.5791015625 1.8739013671875 -32.3841552734375
10.712890625 9.4075927734375 16.61962890625
-1.52978515625 -0.4144287109375 44.5418701171875
25.329833984375 -8.3106689453125 33.0308837890625
-32.78173828125 -12.6883544921875 17.9603271484375
19.0166015625 9.0118408203125 -49.364501953125
-10.3857421875 -10.5804443359375 8.9202880859375
-7.24072265625 11.5419921875 -54.392822265625
1.623779296875 15.16748046875 -10.560302734375
-9.845458984375 34.0791015625 -55.8228759765625
-4.91357421875 -1.9600830078125 50.8525390625
-9.995849609375 32.613525390625 -54.999755859375
19.15380859375 7.0247802734375 -44.1981201171875
-7.5712890625 30.8736572265625 -53.3446044921875
-21.552001953125 -9.9339599609375 7.150146484375
-2.62451171875 13.9210205078125 1.632080078125
19.441162109375 3.213134765625 -34.431884765625
-13.6318359375 -11.7508544921875 17.2498779296875
-31.1259765625 -9.6510009765625 5.3966064453125
8.525634765625 -15.6016845703125 49.4781494140625
12.059814453125 13.4857177734375 5.03173828125
-27.61181640625 -12.2950439453125 17.3475341796875
-13.80615234375 -8.3367919921875 3.796630859375
-3.783935546875 0.0224609375 -26.9298095703125
-15.313720703125 -5.4752197265625 22.0037841796875
11.34765625 -12.430419921875 41.9102783203125
28.258056640625 -5.3900146484375 24.436767578125
10.193603515625 12.1925048828125 5.72509765625
12.71435546875 -13.88134765625 39.24365234375
8.597412109375 2.27099609375 37.0650634765625
-22.100830078125 -11.743896484375 9.0821533203125
-27.013916015625 -7.8912353515625 3.3409423828125
19.13134765625 -14.171875 44.31591796875
-15.224609375 -12.0076904296875 20.1407470703125
3.573486328125 10.7711181640625 -9.78759765625
-12.99560546875 -8.6827392578125 7.87646484375
-1.896484375 -1.4613037109375 -25.015869140625
12.38916015625 10.02783203125 -51.8902587890625
12.411376953125 6.216796875 27.8271484375
-11.30322265625 -12.363037109375 17.275146484375
25.8154296875 -7.768798828125 29.7056884765625
7.892333984375 -2.2518310546875 29.867919921875
-19.31298828125 -5.2152099609375 22.0792236328125
1.65869140625 -16.332275390625 50.096923828125
-12.477783203125 29.192138671875 -50.9566650390625
-6.304443359375 -3.6383056640625 53.45947265625
-12.707275390625 -10.1229248046875 12.141357421875
8.143310546875 12.6473388671875 4.0311279296875
-25.938720703125 -10.349365234375 10.5762939453125
25.797119140625 -7.9222412109375 31.3487548828125
-13.28271484375 -12.5306396484375 20.562744140625
14.52978515625 7.16796875 -46.1546630859375
-31.53662109375 -10.7276611328125 10.8133544921875
31.186279296875 -5.166015625 26.368408203125
17.765625 -15.0611572265625 42.0504150390625
24.98876953125 -7.9730224609375 34.6181640625
-19.243408203125 -11.76025390625 15.012939453125
6.64208984375 -14.41943359375 41.8441162109375
16.586669921875 9.8001708984375 -51.590576171875
-6.8427734375 11.4979248046875 -56.1021728515625
1.786376953125 23.7662353515625 -21.2410888671875
11.764892578125 5.2890625 -40.9229736328125
23.273193359375 -8.35107421875 31.0635986328125
15.77001953125 3.93408203125 -37.3944091796875
23.203369140625 11.301025390625 -50.1314697265625
8.39306640625 -13.5914306640625 45.6976318359375
-32.017822265625 -12.682373046875 15.9425048828125
-5.674072265625 3.0765380859375 36.091552734375
20.997802734375 10.905029296875 -52.4986572265625
23.281494140625 8.972412109375 -43.154296875
15.555419921875 2.392578125 -33.6636962890625
11.348388671875 8.529296875 -48.48193359375
6.44970703125 16.0850830078125 -3.69091796875
2.50341796875 10.605224609375 13.75537109375
16.759033203125 1.9793701171875 -31.103271484375
19.218505859375 -10.9505615234375 37.5400390625
5.071044921875 0.8880615234375 31.5841064453125
2.2919921875 -1.0347900390625 24.5472412109375
17.1806640625 24.7281494140625 9.875732421875
-0.5859375 9.2757568359375 13.6331787109375
13.9990234375 6.2777099609375 -42.5252685546875
-5.38818359375 9.1767578125 -50.883056640625
0.089111328125 7.501953125 21.3568115234375
9.9130859375 -14.1263427734375 45.32080078125
-5.392822265625 31.03857421875 -53.9200439453125
6.36181640625 2.124267578125 -33.22900390625
1.931884765625 2.011962890625 30.703369140625
16.767333984375 17.359619140625 -10.2266845703125
27.202880859375 -6.7950439453125 27.5089111328125
17.05859375 7.168701171875 -45.83984375
0.1982421875 6.482177734375 -43.6778564453125
9.705078125 5.538330078125 -41.318603515625
19.06005859375 -14.516845703125 41.9593505859375
-5.86669921875 8.48486328125 -48.5665283203125
-3.306640625 -2.268798828125 53.272705078125
7.89013671875 14.1502685546875 -1.2786865234375
21.677734375 6.8470458984375 -40.4481201171875
17.1083984375 4.5377197265625 -39.278564453125
-29.64794921875 -12.72509765625 15.8780517578125
-5.054443359375 5.354248046875 29.6358642578125
20.50341796875 19.80517578125 -19.826416015625
17.571044921875 24.3123779296875 13.3563232421875
19.1279296875 3.9720458984375 -37.1209716796875
16.076904296875 5.615234375 30.29248046875
19.875732421875 22.390625 17.8463134765625
11.3388671875 18.07568359375 -10.601318359375
22.57470703125 6.671875 -26.4964599609375
19.516845703125 18.7044677734375 -13.142333984375
17.739501953125 3.065673828125 -35.16845703125
9.9638671875 20.9027099609375 -20.094482421875
21.9892578125 -8.7310791015625 31.55029296875
4.690185546875 -14.455322265625 48.2574462890625
-12.237548828125 -13.8619384765625 20.33056640625
-8.2109375 28.3480224609375 -46.1326904296875
20.253173828125 21.94287109375 20.88330078125
19.024169921875 6.1246337890625 -41.8543701171875
-29.3369140625 -5.036376953125 21.93310546875
23.410888671875 9.8470458984375 -45.9307861328125
-7.8876953125 32.021240234375 -54.5010986328125
8.393798828125 12.280517578125 -10.6661376953125
17.249755859375 21.9202880859375 19.691162109375
0.3935546875 14.6632080078125 0.14208984375
-19.928466796875 -9.8736572265625 8.699462890625
-6.7646484375 3.3839111328125 -35.91552734375
13.913818359375 2.583984375 -34.0609130859375
15.168701171875 2.6468505859375 -34.96533203125
-5.92822265625 23.0269775390625 -15.2281494140625
-5.947021484375 29.6080322265625 -49.5943603515625
-0.601806640625 17.510009765625 -9.656005859375
4.5654296875 14.537841796875 -2.0830078125
-2.259765625 2.948974609375 -35.57958984375
15.169189453125 -13.56640625 38.34765625
-6.09814453125 28.1085205078125 -47.4705810546875
17.1259765625 7.0706787109375 28.8365478515625
21.328369140625 16.61572265625 -11.5225830078125
11.973876953125 16.383056640625 -6.4759521484375
9.527099609375 3.322021484375 31.1632080078125
-2.71337890625 17.0355224609375 -3.5577392578125
14.758544921875 21.458984375 -19.5233154296875
-3.415771484375 10.02783203125 12.3504638671875
-4.939208984375 0.88037109375 -29.5701904296875
1.470703125 16.9122314453125 -5.794677734375
10.210205078125 16.18408203125 -11.478515625
-5.449462890625 1.08544921875 41.622802734375
1.631103515625 12.0360107421875 -11.2265625
9.624267578125 14.511474609375 -1.82177734375
5.0 1.06640625 -29.591552734375
-24.3720703125 -10.6016845703125 10.16748046875
4.134765625 2.6566162109375 37.94873046875
-22.250732421875 -14.18017578125 15.88427734375
1.076416015625 0.8477783203125 43.9423828125
1.61767578125 14.2852783203125 1.4332275390625
-20.68603515625 -9.03076171875 5.3538818359375
11.2900390625 21.209716796875 -20.2056884765625
3.10888671875 12.4088134765625 8.009521484375
-28.69873046875 -9.70751953125 8.5462646484375
4.947021484375 -15.3094482421875 45.5594482421875
15.360595703125 19.68701171875 -17.8994140625
-0.44287109375 9.0052490234375 -57.850830078125
22.45166015625 15.752197265625 -13.953369140625
9.616943359375 14.9818115234375 -11.2271728515625
18.379638671875 -8.5399169921875 34.8533935546875
-17.461181640625 -8.7080078125 3.98095703125
-1.339599609375 -0.24462890625 -26.135986328125
-10.737060546875 29.3223876953125 -50.6279296875
4.329345703125 6.1016845703125 -43.337890625
-14.181884765625 29.11669921875 -48.68359375
-4.908203125 1.30615234375 -31.7496337890625
7.153076171875 5.185791015625 -40.2828369140625
-26.762939453125 -11.0361328125 13.12158203125
-12.216552734375 32.0777587890625 -54.764892578125
0.298095703125 -0.3197021484375 -26.1832275390625
-11.8837890625 30.9676513671875 -53.1805419921875
-32.747314453125 -11.5745849609375 14.19140625
9.00732421875 3.356201171875 -36.5582275390625
-6.83837890625 3.6588134765625 35.6416015625
6.641357421875 4.4329833984375 -38.8173828125
-4.7958984375 6.634521484375 -44.3450927734375
-8.506103515625 30.01708984375 -50.8984375
-11.3427734375 -12.8302001953125 18.549560546875
-1.651123046875 19.668701171875 -14.7197265625
5.539306640625 11.7076416015625 9.3065185546875
-12.819091796875 30.1668701171875 -52.0615234375
-5.781494140625 2.1002197265625 37.0272216796875
-2.738525390625 10.5643310546875 -54.76220703125
17.3359375 21.46728515625 -19.1885986328125
6.18701171875 10.0101318359375 14.5732421875
-21.356689453125 -13.3062744140625 17.3179931640625
-6.19189453125 20.2579345703125 -9.556640625
5.65966796875 3.15625 -35.1158447265625
-4.11669921875 19.9329833984375 -9.992919921875
10.487060546875 1.8963623046875 -32.9248046875
-8.972900390625 28.830810546875 -41.8614501953125
-11.03125 -8.6456298828125 2.9501953125
31.2080078125 -5.105712890625 28.8099365234375
5.14404296875 2.3746337890625 -34.0743408203125
-29.17724609375 -12.4422607421875 19.8111572265625
9.044677734375 9.44580078125 16.2447509765625
-23.9765625 -10.0281982421875 5.6331787109375
9.537353515625 7.59326171875 -47.3172607421875
25.3740234375 -5.484375 25.75244140625
-15.817626953125 4.7606201171875 27.1195068359375
-14.176513671875 -6.1103515625 21.658935546875
0.87255859375 12.8349609375 -60.23046875
12.222412109375 18.4158935546875 -12.830810546875
1.28271484375 15.1036376953125 -0.80810546875
11.68359375 11.140380859375 -55.13671875
3.369873046875 12.4398193359375 -58.954345703125
15.242431640625 26.5694580078125 1.0377197265625
-6.71435546875 0.6932373046875 42.1025390625
-23.385498046875 -12.9000244140625 10.5179443359375
20.69677734375 21.3148193359375 -27.0362548828125
15.987060546875 25.9083251953125 -1.4591064453125
-4.521484375 20.20166015625 -11.30908203125
-4.00830078125 12.54541015625 5.6903076171875
22.947021484375 16.371337890625 -19.216796875
7.62841796875 5.7169189453125 -42.5396728515625
16.467529296875 21.580078125 -23.0540771484375
16.342041015625 24.7384033203125 12.4713134765625
18.006591796875 24.4327392578125 11.6116943359375
9.294677734375 22.462890625 -24.2635498046875
11.800048828125 22.04052734375 -25.1300048828125
16.48583984375 21.60009765625 -20.906005859375
21.816650390625 18.0858154296875 28.1439208984375
17.48974609375 -11.66650390625 38.469970703125
-14.41357421875 31.5244140625 -52.7740478515625
11.56591796875 20.1015625 -19.1318359375
-6.9111328125 12.75390625 5.3271484375
-5.688720703125 10.3310546875 -52.867919921875
22.831787109375 3.298828125 -29.9664306640625
23.352294921875 -8.1348876953125 38.724609375
-2.380615234375 9.8245849609375 -51.6087646484375
8.89013671875 9.0760498046875 -49.7884521484375
21.867431640625 -9.4962158203125 32.8629150390625
15.18017578125 25.7586669921875 8.91650390625
-3.344482421875 12.990234375 -61.361572265625
17.02392578125 -14.5889892578125 39.6202392578125
17.0 18.9652099609375 -12.2489013671875
-2.0732421875 15.434326171875 -4.13671875
11.61083984375 20.2301025390625 -15.72998046875
18.71142578125 19.170654296875 -16.630859375
-3.478271484375 22.248779296875 -16.4476318359375
-0.173583984375 13.118896484375 5.47509765625
18.69140625 9.7041015625 -51.232177734375
1.4814453125 12.9259033203125 5.8756103515625
13.099609375 22.1517333984375 -25.633544921875
13.419189453125 17.6485595703125 -8.461181640625
22.3173828125 17.758056640625 -19.4759521484375
4.047607421875 3.662109375 -37.265380859375
-0.74365234375 16.0115966796875 -4.708740234375
3.645751953125 11.104736328125 -55.1927490234375
2.012451171875 11.575439453125 -56.09716796875
30.808349609375 -4.9110107421875 23.48291015625
-8.52490234375 34.2357177734375 -55.921142578125
9.21044921875 4.9368896484375 -39.8875732421875
18.0458984375 2.2745361328125 -32.8985595703125
11.65087890625 7.6513671875 -46.9996337890625
16.826904296875 8.5230712890625 -49.1441650390625
5.35009765625 7.618896484375 -46.2955322265625
-5.380859375 20.2095947265625 -12.56005859375
12.998046875 17.808349609375 -11.0343017578125
12.197998046875 18.067626953125 -9.3502197265625
15.96728515625 17.6190185546875 -8.54248046875
14.69970703125 17.720703125 -9.370849609375
19.969970703125 19.9930419921875 24.5562744140625
11.866943359375 -14.4322509765625 44.909912109375
15.06591796875 11.1129150390625 -55.7088623046875
12.653076171875 14.9649658203125 -1.1544189453125
3.535400390625 10.157470703125 -53.234130859375
3.1357421875 12.8665771484375 4.15234375
-6.578369140625 20.7738037109375 -11.7735595703125
16.854248046875 26.0078125 -2.7977294921875
7.1455078125 14.94140625 -2.6624755859375
-1.1142578125 5.8756103515625 -41.7869873046875
1.794189453125 9.59765625 -51.3099365234375
-2.400634765625 10.1866455078125 -58.5064697265625
16.734375 10.9671630859375 -56.6005859375
13.161865234375 15.7225341796875 -4.697021484375
8.552490234375 16.17724609375 -6.7471923828125
-4.31884765625 17.9627685546875 -6.640869140625
9.034912109375 16.40576171875 -3.4100341796875
2.1396484375 1.390869140625 -30.38525390625
-1.6025390625 6.4635009765625 -57.533447265625
-1.286376953125 14.7003173828125 -0.2318115234375
8.79052734375 1.54296875 -30.6854248046875
13.02294921875 8.4549560546875 -48.535888671875
2.492919921875 4.6253662109375 -39.5311279296875
4.740478515625 15.9647216796875 -4.0362548828125
21.182373046875 16.707275390625 30.0224609375
0.09912109375 3.3421630859375 35.9176025390625
28.49853515625 -6.4112548828125 27.015869140625
21.502197265625 -9.513427734375 40.5404052734375
7.468994140625 7.843505859375 -47.714599609375
5.699951171875 10.61279296875 -53.8760986328125
10.535888671875 8.0023193359375 20.162841796875
10.24951171875 3.256591796875 -35.74658203125
-8.444580078125 29.39306640625 -38.5313720703125
0.008544921875 15.13330078125 -2.4613037109375
7.08837890625 14.371826171875 -0.024169921875
14.851318359375 3.357177734375 -36.3790283203125
15.870361328125 24.5794677734375 9.937744140625
6.227783203125 14.3441162109375 -1.6807861328125
9.189208984375 14.2274169921875 1.6221923828125
6.744873046875 12.91162109375 -17.0745849609375
21.483154296875 8.4033203125 -45.063720703125
1.6708984375 14.939453125 -2.05908203125
2.88623046875 14.6605224609375 -3.3170166015625
7.19482421875 8.995361328125 -49.6934814453125
-32.68017578125 -9.145751953125 5.3590087890625
19.978759765625 6.86279296875 -42.9219970703125
2.296142578125 -1.4041748046875 30.720703125
13.197021484375 -13.4083251953125 40.3765869140625
1.04541015625 2.8345947265625 -35.2698974609375
-29.093505859375 -9.4681396484375 7.3114013671875
26.966552734375 -6.0079345703125 34.3291015625
-13.3251953125 -7.4815673828125 2.4139404296875
23.4736328125 6.9716796875 -25.3306884765625
3.780029296875 22.5792236328125 -20.2105712890625
7.0380859375 10.3492431640625 10.7333984375
0.211181640625 8.582763671875 19.5386962890625
-4.901611328125 9.8223876953125 -51.9207763671875
11.1962890625 7.3524169921875 -45.6337890625
7.33642578125 10.7703857421875 -11.1820068359375
8.527099609375 12.2166748046875 7.033935546875
0.63623046875 13.018310546875 3.7852783203125
6.846435546875 12.3033447265625 5.390869140625
-1.81787109375 13.4320068359375 4.634033203125
6.05615234375 12.5594482421875 7.0543212890625
2.369873046875 11.3494873046875 -12.3836669921875
7.6982421875 10.50048828125 -13.67041015625
3.84130859375 -14.9171142578125 49.9102783203125
-21.223876953125 -11.297119140625 12.1915283203125
6.876220703125 6.373291015625 -43.513671875
-29.91796875 -10.08203125 9.0498046875
-3.694091796875 11.546142578125 7.52099609375
12.2861328125 6.0452880859375 -42.395751953125
10.636962890625 15.925048828125 -6.3468017578125
11.822998046875 37.68505859375 -30.6522216796875
14.296142578125 5.40673828125 -41.0579833984375
0.634033203125 6.7440185546875 -45.449462890625
15.87451171875 16.883544921875 -5.8485107421875
9.537841796875 10.232666015625 11.513427734375
9.044189453125 6.9390869140625 -44.5919189453125
5.799072265625 10.484619140625 10.3309326171875
8.70703125 10.1793212890625 13.2196044921875
-2.415771484375 11.50341796875 10.8363037109375
-1.913818359375 21.003173828125 -14.9727783203125
-5.33642578125 11.6898193359375 8.38525390625
4.154296875 10.6285400390625 11.194580078125
-3.269287109375 11.4759521484375 9.1932373046875
-4.89306640625 11.774169921875 10.0316162109375
0.429931640625 10.999267578125 9.5751953125
-2.03076171875 11.340576171875 9.595458984375
-19.072998046875 -9.114013671875 6.930908203125
1.371337890625 5.7227783203125 -41.43359375
1.385986328125 5.9228515625 -42.7469482421875
2.256591796875 16.3958740234375 -4.87890625
-14.8662109375 -11.9737548828125 16.117919921875
23.172607421875 7.4354248046875 53.0789794921875
17.908935546875 19.37939453125 -13.6446533203125
17.509033203125 27.346435546875 -0.0286865234375
-0.275634765625 10.149169921875 -55.614013671875
-6.621337890625 4.76025390625 -37.924560546875
23.99365234375 -8.98046875 33.5528564453125
-13.3642578125 4.6446533203125 27.890869140625
8.847900390625 -1.2493896484375 28.8961181640625
1.133544921875 1.6231689453125 38.9578857421875
17.510986328125 27.238037109375 2.57958984375
11.380126953125 4.720703125 30.52685546875
23.084228515625 4.7303466796875 -27.774169921875
9.707763671875 8.1279296875 18.5035400390625
2.834228515625 3.94873046875 -37.703125
5.993408203125 8.4144287109375 17.7353515625
0.275146484375 9.2076416015625 17.782470703125
6.0263671875 8.55517578125 19.37841796875
-1.783447265625 9.420654296875 16.977783203125
-0.182861328125 9.05322265625 15.3211669921875
15.97802734375 7.8284912109375 26.6915283203125
24.53466796875 -8.11572265625 30.5953369140625
3.5791015625 3.135986328125 -35.0260009765625
12.77490234375 3.45361328125 -36.7364501953125
-5.2119140625 3.791748046875 32.71435546875
22.6162109375 10.251220703125 -48.1304931640625
-18.451904296875 -12.093017578125 17.445068359375
0.814208984375 19.0906982421875 -15.5469970703125
-7.886474609375 36.1551513671875 -56.88525390625
-4.142333984375 4.771240234375 -39.288818359375
9.873779296875 36.118896484375 -27.598388671875
-6.89892578125 28.77392578125 -48.9095458984375
-24.220703125 -6.07470703125 21.53515625
-16.84814453125 -11.7686767578125 15.34326171875
-5.822998046875 35.052978515625 -56.250244140625
0.996826171875 2.2894287109375 -32.6324462890625
6.893310546875 2.112548828125 32.6143798828125
13.67724609375 6.1290283203125 32.358154296875
13.644287109375 5.9888916015625 30.7218017578125
15.304443359375 5.9033203125 32.3447265625
19.8974609375 -9.15234375 33.67822265625
-16.521240234375 -5.3782958984375 21.21484375
19.547607421875 -14.0443115234375 43.09423828125
