-19.979736328125 -7.5067138671875 19.9512939453125
16.115234375 -6.6197509765625 38.6343994140625
-15.068115234375 -5.5330810546875 10.2032470703125
-3.57177734375 9.6346435546875 -42.245849609375
-2.11962890625 5.862060546875 39.601806640625
-2.989501953125 6.072021484375 30.56005859375
-3.4326171875 5.9454345703125 28.5313720703125
-3.46142578125 2.3797607421875 28.1998291015625
-7.940185546875 3.1622314453125 -26.67626953125
2.175048828125 1.7095947265625 27.73681640625
24.13330078125 -2.289306640625 30.578125
-33.5478515625 -6.2109375 10.4786376953125
5.2568359375 6.26904296875 28.263671875
17.5673828125 13.5009765625 -47.521728515625
3.850341796875 15.44091796875 9.001708984375
-25.447021484375 -1.802734375 22.06103515625
-18.24951171875 -4.5797119140625 4.45654296875
-38.3017578125 -4.42919921875 3.4490966796875
4.154052734375 7.6529541015625 -36.587158203125
-6.61181640625 5.9520263671875 40.514892578125
-4.427978515625 8.0015869140625 27.4510498046875
5.159912109375 20.0001220703125 -10.076171875
-0.304931640625 7.5709228515625 34.00439453125
-37.136962890625 -8.0841064453125 19.7254638671875
-23.4814453125 -5.0245361328125 7.944091796875
24.248779296875 -1.4713134765625 24.737060546875
2.975341796875 -11.6412353515625 50.7091064453125
12.14208984375 11.151123046875 -45.8358154296875
0.364990234375 -10.0899658203125 47.814453125
9.078857421875 13.6171875 -51.8924560546875
-1.301513671875 15.39453125 -57.0498046875
18.36376953125 -5.116943359375 33.941650390625
-5.471435546875 9.5311279296875 28.92236328125
22.4521484375 -2.621826171875 34.334228515625
-30.744873046875 -4.82373046875 2.4678955078125
0.094482421875 1.3564453125 29.0660400390625
11.10693359375 -10.3570556640625 40.408447265625
2.378173828125 -9.9720458984375 47.3590087890625
20.269287109375 -3.29052734375 28.77294921875
16.595703125 26.050048828125 -28.51611328125
11.890380859375 -10.573486328125 42.4176025390625
-14.4990234375 -8.2371826171875 15.4825439453125
15.2001953125 11.835693359375 -46.1402587890625
9.62890625 -9.8175048828125 48.78369140625
-21.08837890625 -4.6270751953125 2.9315185546875
-26.693603515625 -11.116943359375 18.3043212890625
-8.886962890625 6.249755859375 -33.6236572265625
-21.296142578125 -4.51416015625 19.9296875
-5.50390625 4.4996337890625 46.37744140625
-16.918701171875 -8.91064453125 20.4832763671875
-39.306640625 -4.85546875 19.6856689453125
8.382568359375 21.77490234375 -9.2479248046875
6.186279296875 -11.4761962890625 49.43017578125
0.8486328125 16.0726318359375 -9.587646484375
-26.603515625 -9.66357421875 15.2674560546875
-24.46826171875 -8.1192626953125 16.157470703125
15.161865234375 8.2574462890625 -30.8421630859375
15.60107421875 24.9185791015625 -22.173583984375
1.00439453125 20.359130859375 -5.3203125
21.07275390625 -0.8035888671875 25.5455322265625
-15.88623046875 -5.3115234375 6.5418701171875
-3.05029296875 -11.814453125 47.676025390625
-2.405029296875 16.99951171875 -60.8770751953125
16.864501953125 24.8848876953125 -26.1038818359375
17.07666015625 23.1771240234375 -18.8419189453125
-8.158447265625 9.7275390625 -42.922607421875
6.406982421875 8.9842529296875 -39.5374755859375
4.03076171875 -9.299560546875 41.2486572265625
15.542236328125 14.3170166015625 -52.3592529296875
27.896240234375 3.060791015625 17.376953125
15.2646484375 -9.65673828125 44.64013671875
17.97802734375 20.4083251953125 -11.44580078125
-0.21484375 16.608154296875 6.82275390625
-1.13525390625 7.3360595703125 36.9366455078125
6.925537109375 20.1749267578125 -3.7763671875
15.992919921875 -5.085693359375 46.93896484375
25.58251953125 1.615478515625 20.139404296875
4.142822265625 -8.6212158203125 43.9715576171875
10.994384765625 22.186767578125 -9.8433837890625
8.416259765625 18.505126953125 -0.119384765625
18.626953125 19.285888671875 -17.234375
-11.30078125 11.8546142578125 -47.1434326171875
-9.857421875 32.900634765625 -45.643310546875
-6.548828125 8.99169921875 -39.8505859375
12.43115234375 13.34912109375 -51.5396728515625
2.426025390625 17.8511962890625 1.4576416015625
15.168212890625 -4.7095947265625 33.5626220703125
19.646728515625 15.0040283203125 -19.3660888671875
-2.86328125 12.4556884765625 -48.9365234375
18.725830078125 17.1702880859375 -16.80224609375
-20.641357421875 -4.6131591796875 6.97314453125
10.32763671875 20.3162841796875 -6.044921875
4.663330078125 18.94970703125 -0.928955078125
20.59619140625 -3.8609619140625 31.2845458984375
-22.3154296875 -5.8785400390625 11.695068359375
19.336181640625 10.5738525390625 -25.610595703125
5.330810546875 14.1431884765625 -53.57958984375
13.29345703125 10.2735595703125 -43.1104736328125
3.631103515625 25.1796875 -20.9327392578125
12.088134765625 24.238525390625 -18.4534912109375
8.470703125 22.5909423828125 -12.8363037109375
26.722900390625 -1.515869140625 27.953857421875
-0.52685546875 18.53857421875 -9.5985107421875
17.86669921875 9.6639404296875 -37.6300048828125
14.974365234375 7.1571044921875 -34.3734130859375
18.701171875 22.864013671875 -27.0255126953125
22.034912109375 14.6949462890625 47.1917724609375
2.77587890625 13.16064453125 17.3663330078125
19.01611328125 11.686279296875 -40.2957763671875
3.31591796875 15.0283203125 -55.8702392578125
-5.989501953125 10.4818115234375 -43.62744140625
-9.673583984375 16.20556640625 -59.0390625
27.222412109375 -0.978271484375 26.2274169921875
-3.273681640625 19.821533203125 -3.380126953125
-7.0263671875 20.26611328125 -4.189697265625
10.886962890625 10.78369140625 31.2462158203125
-28.95849609375 -9.8692626953125 18.971435546875
11.93505859375 -7.4384765625 38.027099609375
-7.302978515625 14.3909912109375 -53.9443359375
-9.740234375 10.6138916015625 -44.349365234375
1.09716796875 17.232177734375 3.2994384765625
-3.82470703125 7.1712646484375 -36.5677490234375
-28.058349609375 -6.5086669921875 4.3074951171875
1.49853515625 6.349609375 -34.0631103515625
19.10205078125 9.1954345703125 -28.6759033203125
4.6484375 14.9647216796875 11.9996337890625
-7.784912109375 16.310302734375 7.9432373046875
-5.93310546875 23.17529296875 -13.74072265625
-17.59423828125 -6.9715576171875 13.35107421875
27.795654296875 0.00830078125 22.7867431640625
3.1845703125 3.3541259765625 23.7864990234375
-6.174560546875 6.4681396484375 36.751708984375
0.701416015625 13.33447265625 16.143310546875
9.858642578125 12.7103271484375 23.091552734375
-2.235107421875 6.40478515625 -33.9268798828125
8.863037109375 -9.099365234375 37.9027099609375
-3.365478515625 19.7476806640625 -13.1427001953125
-0.637451171875 12.4146728515625 19.6619873046875
-12.469970703125 32.986328125 -48.62255859375
13.532958984375 22.1741943359375 -13.3564453125
18.659912109375 19.57373046875 -19.4365234375
1.757568359375 8.654296875 -39.6873779296875
-40.760498046875 -9.0511474609375 19.5802001953125
-33.513671875 -7.291015625 19.49853515625
-26.572998046875 -8.91552734375 12.3345947265625
3.623779296875 20.9638671875 -5.5196533203125
-7.2626953125 5.7117919921875 -30.212158203125
-5.64013671875 12.169189453125 21.501708984375
9.972900390625 -10.0146484375 43.998046875
21.54345703125 -2.9796142578125 27.4737548828125
-11.446533203125 14.9671630859375 -53.9163818359375
5.046142578125 26.3553466796875 -24.2564697265625
-22.196044921875 -3.7364501953125 4.4302978515625
-6.351806640625 6.7467041015625 -34.6829833984375
2.1337890625 7.26953125 34.395263671875
-5.61865234375 8.08349609375 31.59619140625
-10.254638671875 4.7073974609375 -28.6085205078125
-2.312255859375 3.943359375 45.1434326171875
14.337890625 25.0469970703125 -20.859130859375
1.27001953125 6.77001953125 37.7713623046875
10.8251953125 24.4610595703125 -19.74755859375
-5.037841796875 19.0604248046875 -1.9107666015625
-7.9033203125 17.083740234375 -61.0799560546875
2.15576171875 19.9912109375 -14.6624755859375
-14.46044921875 -8.130615234375 18.2823486328125
-6.59619140625 12.978759765625 -50.61474609375
-0.978271484375 17.4822998046875 2.897705078125
6.23193359375 10.4268798828125 27.25634765625
-33.1328125 -4.928466796875 4.183349609375
5.19970703125 -6.611328125 40.099365234375
12.486328125 -9.55908203125 49.49560546875
-2.48095703125 6.3729248046875 37.9075927734375
-0.094482421875 5.617919921875 39.993896484375
-11.37060546875 15.87646484375 -56.302978515625
12.54931640625 24.3702392578125 -16.343017578125
-3.021240234375 13.699462890625 14.51904296875
-7.337890625 2.5631103515625 49.063720703125
-18.6796875 -5.4708251953125 10.3026123046875
-9.506103515625 32.4947509765625 -49.4989013671875
-24.6845703125 -4.4935302734375 3.8343505859375
-3.75390625 19.7900390625 -9.733154296875
-29.806884765625 -1.0487060546875 22.068359375
-2.9736328125 23.2191162109375 -15.9937744140625
-31.14208984375 -5.24072265625 5.3897705078125
-35.937744140625 -4.90380859375 3.459716796875
18.47802734375 24.306884765625 -29.9315185546875
-1.60888671875 19.884765625 -7.271484375
18.972412109375 -4.0111083984375 38.65576171875
14.327392578125 28.283203125 -29.796142578125
-7.45458984375 1.2642822265625 52.84716796875
7.146484375 18.5657958984375 -1.36328125
12.35986328125 -4.542236328125 36.0416259765625
9.301025390625 12.068603515625 -48.9332275390625
-5.74462890625 17.591064453125 -63.041259765625
-1.85302734375 18.1265869140625 -10.7467041015625
-37.908935546875 -6.61474609375 13.897216796875
7.041748046875 -7.8214111328125 39.3968505859375
-41.07080078125 -4.986328125 7.676513671875
8.55078125 26.860107421875 -24.4940185546875
-39.1494140625 -8.451904296875 19.0404052734375
14.84423828125 25.6929931640625 -24.0408935546875
-2.173828125 15.8768310546875 -16.219482421875
-0.638671875 -11.505615234375 45.2022705078125
17.857177734375 11.9068603515625 53.7867431640625
-38.296630859375 -5.6240234375 9.717529296875
13.41455078125 21.1070556640625 -7.150146484375
8.789306640625 10.80908203125 28.3856201171875
16.964111328125 20.6243896484375 30.236572265625
-7.4716796875 10.3173828125 25.9683837890625
19.089111328125 22.6533203125 -28.719970703125
14.174072265625 23.8701171875 -19.3131103515625
14.146728515625 13.468505859375 -51.2177734375
10.872802734375 7.890380859375 -37.7613525390625
7.906005859375 -10.524169921875 46.49951171875
-0.63037109375 9.733154296875 -41.9703369140625
4.580810546875 15.0560302734375 -57.220458984375
3.79345703125 8.1737060546875 -38.38623046875
-4.216064453125 14.38427734375 11.51318359375
12.662353515625 5.566650390625 -30.9600830078125
6.85546875 5.873779296875 -32.9033203125
-19.576416015625 -6.804931640625 13.7860107421875
1.258544921875 18.6981201171875 0.0728759765625
23.0869140625 16.0677490234375 44.5172119140625
-25.624755859375 -7.237548828125 12.8291015625
-26.498779296875 -7.699951171875 9.712646484375
-11.066162109375 9.6611328125 -41.095703125
2.3818359375 6.480224609375 26.246337890625
-2.743408203125 7.872314453125 33.613525390625
-4.748291015625 22.0181884765625 -8.4271240234375
19.616455078125 15.790771484375 -49.9163818359375
15.295166015625 17.9151611328125 31.89111328125
-3.001953125 11.1297607421875 -46.037841796875
2.5146484375 15.961669921875 -10.0460205078125
13.20068359375 26.3480224609375 -26.7205810546875
6.303955078125 18.388671875 2.5123291015625
1.040771484375 5.74951171875 -29.2896728515625
7.318603515625 12.681640625 18.985107421875
-36.298828125 -4.88720703125 6.298095703125
2.141845703125 15.203125 9.092041015625
5.369873046875 7.0194091796875 29.8101806640625
-9.154052734375 12.50341796875 -49.102783203125
-2.6083984375 2.56201171875 29.7896728515625
-32.981201171875 -0.3858642578125 21.2457275390625
-11.158447265625 13.4554443359375 -50.5421142578125
29.862548828125 -0.01416015625 23.9676513671875
9.15478515625 10.8531494140625 -44.7830810546875
-1.1103515625 14.0145263671875 -12.0716552734375
14.98486328125 26.8114013671875 -28.1903076171875
-23.653076171875 -8.265380859375 18.9683837890625
-9.504150390625 8.546142578125 -38.7760009765625
16.42626953125 21.34619140625 -9.00732421875
-2.820556640625 12.9281005859375 -50.7655029296875
2.908447265625 11.41015625 -46.3612060546875
0.914794921875 15.287353515625 11.636474609375
-4.6787109375 11.087158203125 -45.5316162109375
27.57080078125 1.1485595703125 19.7423095703125
-4.43603515625 13.5506591796875 -51.7122802734375
-8.47802734375 8.367919921875 30.3934326171875
-5.755859375 24.9102783203125 -16.2408447265625
-30.456298828125 -8.869384765625 19.65771484375
3.0009765625 4.6656494140625 31.006591796875
-0.9375 13.7666015625 13.1927490234375
-7.587890625 14.067138671875 11.6634521484375
22.27734375 13.5478515625 48.9705810546875
4.8818359375 13.1351318359375 20.2386474609375
-6.309814453125 14.11865234375 14.1290283203125
1.47412109375 -10.467041015625 42.2445068359375
-0.1103515625 5.97509765625 32.14599609375
-0.5048828125 13.6168212890625 17.3885498046875
17.079833984375 12.2052001953125 55.845458984375
12.48095703125 10.371826171875 29.1820068359375
-2.34912109375 11.8255615234375 22.71142578125
1.541259765625 14.230712890625 -53.0087890625
-25.980224609375 -5.95703125 6.9718017578125
-28.527587890625 -8.4993896484375 12.3236083984375
8.749267578125 24.8203125 -17.1627197265625
-8.5009765625 15.0772705078125 -55.3582763671875
4.34765625 -10.17431640625 46.5394287109375
-19.02734375 -4.470703125 6.0858154296875
-18.318115234375 -2.8316650390625 19.9920654296875
-0.049560546875 3.766357421875 23.4029541015625
9.53662109375 -10.066650390625 39.609130859375
-42.827880859375 -10.4425048828125 18.6627197265625
7.789794921875 6.6776123046875 -34.81396484375
9.261474609375 15.123291015625 -56.5894775390625
-2.666748046875 -12.079833984375 50.078857421875
25.53857421875 -1.2777099609375 30.4073486328125
7.53662109375 8.0035400390625 -38.0753173828125
-28.814208984375 -6.8692626953125 10.4466552734375
-26.1201171875 -8.8642578125 16.7271728515625
-28.348876953125 -4.973876953125 2.8232421875
16.59521484375 -6.0950927734375 36.942626953125
-22.79541015625 -7.3004150390625 16.37890625
4.003173828125 6.4281005859375 -34.602294921875
18.5078125 16.153564453125 -28.1021728515625
1.222412109375 4.006591796875 24.5673828125
-41.986083984375 -8.81591796875 15.582763671875
-5.3818359375 19.9600830078125 -5.0357666015625
6.191650390625 21.35205078125 -9.947265625
-4.570556640625 5.858154296875 40.888671875
-15.862548828125 -5.27685546875 8.5626220703125
7.07470703125 14.5830078125 -55.0594482421875
-6.4677734375 12.447998046875 18.1507568359375
-31.6669921875 -8.9544677734375 18.5048828125
-1.480712890625 2.03076171875 25.7410888671875
-5.55859375 4.2451171875 43.549072265625
-7.537353515625 7.4566650390625 -37.326904296875
0.050048828125 0.9095458984375 30.76123046875
-5.1328125 -12.73974609375 50.19970703125
18.54931640625 13.53076171875 -22.837890625
-30.087890625 -8.6739501953125 16.0103759765625
-3.174560546875 17.7974853515625 -12.7584228515625
3.610107421875 17.0367431640625 4.9454345703125
-7.21240234375 18.1951904296875 1.27685546875
28.676025390625 0.3447265625 21.0677490234375
2.361572265625 17.0455322265625 6.6708984375
-3.55078125 7.8658447265625 35.6939697265625
5.514892578125 19.5953369140625 -12.1405029296875
7.4267578125 -8.0206298828125 41.0189208984375
-0.50634765625 -10.832275390625 51.09716796875
13.349365234375 -6.0875244140625 37.0196533203125
16.91455078125 -3.87158203125 30.56591796875
-1.067138671875 13.557861328125 -51.861328125
9.732666015625 5.5498046875 -32.100830078125
12.238037109375 25.4256591796875 -21.72705078125
-21.6513671875 -8.2176513671875 19.305419921875
19.9072265625 11.6597900390625 54.18359375
0.669677734375 13.1861572265625 14.494140625
-15.5498046875 -5.7998046875 4.9957275390625
-35.940185546875 -6.4930419921875 11.8072509765625
-1.397705078125 25.9573974609375 -20.05322265625
-41.527587890625 -6.47802734375 9.9639892578125
6.048583984375 12.667236328125 16.931884765625
11.672119140625 -9.4847412109375 45.90283203125
21.525146484375 11.358642578125 53.3511962890625
12.952880859375 10.610595703125 32.46435546875
6.2158203125 -11.1929931640625 47.8057861328125
-20.91552734375 -8.6480712890625 17.3441162109375
18.6923828125 15.447021484375 -53.2254638671875
7.289794921875 12.3245849609375 21.9630126953125
-17.443115234375 -4.947021484375 8.1488037109375
-22.745361328125 -6.4010009765625 13.4100341796875
-16.794189453125 -7.1903076171875 15.380126953125
-27.791259765625 -10.422607421875 21.0224609375
-30.78125 -6.8472900390625 12.51611328125
-17.6533203125 -7.9420166015625 17.13720703125
-5.37841796875 12.4896240234375 -48.8370361328125
-5.587158203125 8.2301025390625 33.2254638671875
-14.48486328125 -7.8779296875 13.0052490234375
-38.629638671875 -4.160888671875 7.4552001953125
4.830078125 9.876220703125 -42.6573486328125
17.107421875 26.651611328125 -30.4058837890625
-40.3154296875 -7.2171630859375 14.8709716796875
17.540283203125 7.3804931640625 -31.574951171875
18.517333984375 13.380859375 -24.5037841796875
-28.30126953125 -11.358642578125 17.989990234375
14.031005859375 -9.8851318359375 46.695556640625
-5.692626953125 21.0968017578125 -7.36669921875
16.69580078125 23.6131591796875 -21.9364013671875
-15.320068359375 -3.4384765625 3.3436279296875
0.267578125 25.6474609375 -20.909912109375
6.91796875 9.78125 -42.2967529296875
0.674560546875 21.21875 -7.1756591796875
2.58349609375 16.72119140625 -14.0152587890625
24.615234375 12.3857421875 51.9478759765625
-2.662109375 14.4197998046875 -53.7296142578125
-36.717041015625 -5.7352294921875 9.2850341796875
-0.2734375 7.717529296875 35.6336669921875
17.934326171875 -5.3175048828125 36.00390625
4.48828125 3.6236572265625 28.64404296875
16.9150390625 8.9281005859375 -36.566162109375
-32.759765625 -6.60888671875 12.1331787109375
23.9677734375 10.98095703125 52.9239501953125
11.712646484375 21.142333984375 -7.52783203125
-1.772705078125 5.1622314453125 42.543212890625
19.326904296875 21.3406982421875 -26.2825927734375
-0.44091796875 11.522216796875 -46.67236328125
-34.40673828125 -7.6795654296875 13.96923828125
3.010009765625 1.7431640625 29.3475341796875
-0.0341796875 -10.177490234375 49.4268798828125
14.092529296875 -9.2769775390625 40.6112060546875
5.0380859375 14.6275634765625 14.14208984375
15.756103515625 9.726806640625 -40.1046142578125
-7.24609375 22.533935546875 -10.1497802734375
18.57763671875 21.9677734375 -24.238525390625
16.75439453125 -4.96728515625 33.151123046875
-0.360595703125 19.5830078125 -5.1300048828125
-5.643798828125 14.24169921875 -54.831787109375
14.032958984375 12.60009765625 -48.4208984375
-3.004638671875 15.2298583984375 -56.0721435546875
-40.261474609375 -3.7554931640625 2.9842529296875
1.616455078125 15.02734375 -56.6514892578125
6.78369140625 26.4832763671875 -23.915283203125
1.52734375 10.41943359375 -45.1995849609375
-7.348388671875 9.41748046875 -41.6114501953125
-7.11376953125 9.6051025390625 28.954345703125
-9.121337890625 3.7083740234375 -27.58837890625
12.9423828125 7.6790771484375 -36.9493408203125
-4.93017578125 13.23388671875 -55.8709716796875
16.488525390625 22.01904296875 -16.0032958984375
14.77197265625 -10.1373291015625 41.9002685546875
-22.55810546875 -1.0953369140625 22.6868896484375
28.108154296875 1.878662109375 18.37890625
-10.50390625 35.7791748046875 -54.698486328125
19.046142578125 19.4554443359375 -23.7125244140625
8.0390625 18.96875 -2.7396240234375
-3.0380859375 15.4722900390625 -13.1429443359375
-7.58447265625 11.4564208984375 -47.62353515625
1.317626953125 19.299072265625 -2.1588134765625
4.875244140625 -9.195556640625 45.220703125
-10.129638671875 35.03955078125 -52.760009765625
12.797119140625 26.387451171875 -23.2491455078125
-2.402099609375 15.8399658203125 7.439453125
-34.44140625 -8.6075439453125 16.52783203125
-5.30224609375 15.8787841796875 10.4625244140625
-41.1064453125 -6.821044921875 13.2237548828125
24.195556640625 -1.8433837890625 27.24658203125
12.489013671875 10.5858154296875 -44.4305419921875
-6.685791015625 19.4111328125 -2.345703125
1.22607421875 7.5933837890625 -36.4542236328125
11.475830078125 22.7479248046875 -13.8289794921875
7.177734375 7.8760986328125 35.0220947265625
3.19873046875 25.24755859375 -22.6558837890625
12.362548828125 6.4671630859375 -33.6837158203125
14.035888671875 9.53564453125 -41.2589111328125
2.0107421875 13.9053955078125 13.9234619140625
1.496337890625 10.0260009765625 -42.5557861328125
12.275390625 8.9521484375 -39.7705078125
-16.4619140625 -8.142822265625 18.3416748046875
-6.25927734375 12.7088623046875 -56.5211181640625
6.567138671875 20.8004150390625 -6.438720703125
14.319580078125 8.50732421875 -38.052001953125
11.72265625 28.1845703125 -29.240966796875
-29.15625 -5.47998046875 5.774169921875
-5.6669921875 2.9329833984375 48.990234375
9.833740234375 26.76025390625 -23.6536865234375
11.506103515625 26.4490966796875 -24.5140380859375
-2.06640625 7.9749755859375 -37.255615234375
30.1328125 1.5970458984375 18.365234375
-5.888671875 3.0670166015625 -26.3173828125
0.644775390625 18.155029296875 -15.5137939453125
15.45166015625 23.770751953125 -18.476318359375
9.5576171875 24.55126953125 -18.859130859375
-3.912109375 26.3463134765625 -19.6134033203125
-2.3564453125 11.9903564453125 19.3558349609375
15.27685546875 -6.8350830078125 39.8905029296875
-10.806640625 7.989990234375 -38.164794921875
4.755859375 8.4493408203125 32.529541015625
-24.76220703125 -6.232421875 10.6175537109375
-3.64501953125 7.4263916015625 30.8087158203125
7.42529296875 20.797607421875 -5.186767578125
13.92138671875 14.9512939453125 -55.0321044921875
9.44189453125 9.3056640625 33.5465087890625
-1.971923828125 15.7320556640625 10.3883056640625
18.2822265625 19.7296142578125 -14.744873046875
6.4326171875 -6.41552734375 39.2415771484375
9.142333984375 14.1307373046875 -53.3155517578125
15.755859375 21.1685791015625 27.2332763671875
7.396484375 13.6917724609375 -51.8388671875
2.1259765625 14.8792724609375 12.5068359375
6.939208984375 16.7332763671875 4.8955078125
-5.37890625 6.1650390625 38.0009765625
-26.477783203125 -6.728515625 4.2967529296875
-5.5234375 13.491943359375 17.1304931640625
-1.588623046875 19.7032470703125 -2.1390380859375
16.52978515625 12.2481689453125 -46.728759765625
14.51904296875 23.1038818359375 -14.43505859375
8.316162109375 10.243408203125 31.7955322265625
18.291015625 15.5361328125 -51.082275390625
16.47802734375 14.91162109375 -53.4161376953125
-16.89892578125 -3.0709228515625 3.3275146484375
-1.770263671875 15.3681640625 -10.6287841796875
-7.4248046875 10.896240234375 23.8121337890625
-0.72314453125 17.2196044921875 -13.5762939453125
0.64453125 14.475341796875 -9.6904296875
12.297607421875 12.3255615234375 -48.7022705078125
17.709716796875 11.5162353515625 -42.329345703125
2.994873046875 1.7855224609375 26.4765625
4.036376953125 15.0516357421875 -15.845703125
-4.2861328125 17.9422607421875 2.9200439453125
2.198486328125 12.6236572265625 -50.05078125
4.09228515625 15.3134765625 -12.935791015625
-1.322998046875 15.8740234375 -14.9779052734375
2.138671875 12.033447265625 -47.7650146484375
1.56884765625 14.5504150390625 -54.8070068359375
-7.173828125 4.432373046875 43.1558837890625
-40.671142578125 -5.33056640625 9.3369140625
7.77099609375 9.389892578125 30.2618408203125
-28.520263671875 -8.642578125 13.9532470703125
-34.03369140625 -8.876220703125 18.9605712890625
-4.86572265625 11.5106201171875 24.071533203125
-34.322265625 -5.162109375 6.28466796875
-17.0712890625 -4.9637451171875 5.300048828125
5.849365234375 7.2520751953125 34.7196044921875
-8.743896484375 3.2347412109375 -25.413818359375
15.498046875 10.9154052734375 -43.3638916015625
-6.635009765625 15.155029296875 11.0396728515625
15.98193359375 11.3665771484375 -44.7752685546875
4.039794921875 13.3846435546875 14.7850341796875
10.858154296875 -9.625244140625 47.9371337890625
29.1474609375 0.5780029296875 25.9583740234375
1.8046875 5.2591552734375 25.6083984375
8.66015625 13.02978515625 24.7491455078125
10.71875 12.78173828125 25.1475830078125
3.990234375 12.915283203125 16.533447265625
-8.80224609375 14.3123779296875 12.496337890625
-2.310302734375 21.0264892578125 -6.614013671875
2.337890625 12.903076171875 19.0894775390625
9.41796875 19.744384765625 -2.92626953125
-25.956298828125 -5.2327880859375 3.6038818359375
18.698486328125 12.031982421875 51.271240234375
-37.560791015625 -7.7786865234375 16.0843505859375
-3.45751953125 6.6533203125 -34.7769775390625
-0.768310546875 4.459228515625 -27.2493896484375
5.304443359375 24.9078369140625 -21.3668212890625
-4.745361328125 22.4000244140625 -13.1990966796875
4.70068359375 8.7520751953125 -39.41015625
1.43701171875 -10.8575439453125 44.2857666015625
-21.984619140625 -6.978759765625 14.692138671875
-28.37939453125 -8.0740966796875 21.8798828125
1.11181640625 5.4901123046875 38.750244140625
16.034912109375 -7.3809814453125 46.3798828125
-29.551025390625 -5.787353515625 8.2655029296875
-26.759521484375 -7.721435546875 21.7811279296875
6.321533203125 11.8065185546875 -47.45947265625
-32.68603515625 -4.077880859375 2.7989501953125
3.067626953125 -10.8980712890625 49.4361572265625
20.89501953125 -1.911376953125 26.5247802734375
-5.59619140625 22.142578125 -10.12939453125
2.975341796875 7.3033447265625 36.01904296875
2.92041015625 7.046875 33.1678466796875
4.61376953125 -7.958740234375 40.6754150390625
-0.056884765625 6.7816162109375 25.85546875
-1.300048828125 5.745849609375 41.23681640625
6.751953125 15.1142578125 9.81103515625
8.48828125 -9.045166015625 41.115234375
2.314208984375 14.5262451171875 -11.8701171875
-0.988037109375 6.464599609375 -34.830810546875
-0.89794921875 7.2674560546875 -36.2891845703125
-19.309326171875 -8.796142578125 19.7303466796875
17.0439453125 23.0250244140625 -20.5318603515625
16.839111328125 14.413330078125 -51.1544189453125
8.573486328125 9.58935546875 -41.893798828125
-23.49169921875 -4.732177734375 4.650634765625
-25.3369140625 -0.6717529296875 23.10595703125
-2.6630859375 2.3074951171875 26.9613037109375
-4.31396484375 4.2591552734375 45.5611572265625
-4.677001953125 4.496826171875 47.5841064453125
19.358154296875 -3.9127197265625 30.50927734375
-27.73193359375 -8.0362548828125 9.0037841796875
3.111083984375 16.2608642578125 8.0452880859375
-8.2060546875 9.0665283203125 -39.80078125
-1.195556640625 4.4827880859375 -29.3272705078125
-2.717529296875 5.6575927734375 -30.7965087890625
18.190673828125 8.9425048828125 -34.50390625
-31.426513671875 -1.15576171875 21.72412109375
6.2431640625 -4.84033203125 38.2479248046875
7.4189453125 -11.2855224609375 50.1807861328125
-10.878173828125 16.8135986328125 -59.5816650390625
-3.7041015625 4.1783447265625 -27.906494140625
2.76025390625 -9.8128662109375 41.7386474609375
-22.3095703125 -2.608154296875 21.28515625
8.3271484375 25.1060791015625 -21.9495849609375
7.62353515625 12.1434326171875 -48.880615234375
8.076416015625 5.6251220703125 -32.0531005859375
-3.876953125 4.694580078125 42.6435546875
18.252685546875 12.317626953125 -43.40478515625
-24.7109375 -5.2200927734375 7.206787109375
-10.687744140625 33.717041015625 -51.076904296875
2.6845703125 5.7562255859375 -31.870849609375
12.295166015625 -10.4501953125 39.5904541015625
-37.981201171875 -3.0352783203125 20.57568359375
-17.475341796875 -5.564453125 11.0914306640625
8.796630859375 -9.7789306640625 43.1971435546875
-34.349609375 -6.064453125 9.26904296875
19.638427734375 -4.7730712890625 33.0540771484375
-15.513671875 -10.7305908203125 20.323486328125
5.729248046875 17.2264404296875 3.15673828125
-1.930908203125 1.4874267578125 29.100341796875
-37.099609375 -4.522705078125 4.236572265625
15.078857421875 -5.32861328125 34.85986328125
-39.096923828125 -4.6453857421875 4.7269287109375
-37.135009765625 -6.687744140625 12.680419921875
-5.8828125 11.69140625 -47.757568359375
23.656494140625 -2.7127685546875 31.870361328125
9.673095703125 11.6571044921875 -47.56396484375
8.0849609375 22.9781494140625 -14.6160888671875
-24.413818359375 -7.187255859375 13.5899658203125
-3.6357421875 16.0931396484375 6.5924072265625
-21.8974609375 -5.4993896484375 10.0009765625
-2.47216796875 14.9681396484375 11.7869873046875
3.18115234375 -9.582275390625 40.100830078125
0.566650390625 13.090576171875 -50.9556884765625
-20.328857421875 -5.7913818359375 9.1939697265625
11.5302734375 9.7305908203125 -42.900390625
-1.97412109375 17.1444091796875 -62.2279052734375
-31.88427734375 -4.8072509765625 7.358154296875
-35.237060546875 -8.35546875 14.9075927734375
-27.10595703125 -11.5919189453125 20.3858642578125
9.328369140625 8.891357421875 -39.634521484375
-9.134521484375 17.4979248046875 -61.9991455078125
-4.844970703125 12.0242919921875 19.4195556640625
-35.28125 -9.813232421875 19.5430908203125
7.34765625 13.039306640625 16.0009765625
-10.0810546875 11.6082763671875 -47.97998046875
-6.22314453125 8.0489501953125 -37.525390625
-2.6220703125 10.7208251953125 -44.6771240234375
5.728271484375 13.8851318359375 -52.244873046875
8.317138671875 7.54150390625 -36.728759765625
16.712158203125 13.5037841796875 -48.7696533203125
-31.205810546875 -7.58154296875 15.0628662109375
-12.477783203125 33.1248779296875 -50.8492431640625
-3.751953125 6.795166015625 27.1873779296875
5.5712890625 19.556640625 -3.6182861328125
17.140625 23.7626953125 -23.27880859375
14.791259765625 21.9068603515625 -10.774169921875
8.36962890625 11.3209228515625 -46.1448974609375
0.105224609375 15.7264404296875 8.224609375
-5.9599609375 10.8328857421875 -44.9884033203125
13.842041015625 11.2314453125 -45.92822265625
4.581787109375 18.8748779296875 -10.6883544921875
-39.141845703125 -7.81005859375 16.5364990234375
8.929443359375 11.8887939453125 26.5697021484375
13.810302734375 20.8438720703125 -5.8316650390625
-8.03369140625 11.044677734375 -45.802001953125
-0.458251953125 18.4564208984375 0.170654296875
17.5498046875 10.3822021484375 -39.0653076171875
-1.454345703125 5.8685302734375 -31.7337646484375
19.834228515625 -3.682373046875 36.9715576171875
2.38330078125 10.4539794921875 -43.54833984375
10.883056640625 24.9544677734375 -21.5784912109375
-2.98193359375 19.53955078125 -14.8173828125
17.7734375 25.310302734375 -29.2630615234375
-26.664306640625 -10.55078125 16.6142578125
21.19140625 11.9183349609375 52.0614013671875
9.494384765625 20.2120361328125 -1.3109130859375
9.61474609375 24.8175048828125 -15.900390625
-0.567138671875 -11.115966796875 47.944580078125
1.1494140625 15.6171875 -17.5556640625
-42.303466796875 -5.5772705078125 7.4158935546875
15.339111328125 6.7528076171875 -33.0272216796875
17.32666015625 21.9488525390625 -17.3070068359375
13.856201171875 -5.380859375 35.7059326171875
11.56396484375 6.775146484375 -34.98876953125
-33.080810546875 -1.6260986328125 20.626708984375
-4.680419921875 9.3863525390625 26.8531494140625
4.239013671875 18.8421630859375 0.801025390625
-2.707275390625 21.88330078125 -15.7308349609375
1.463623046875 6.0045166015625 -32.72021484375
4.578125 -11.541259765625 49.47119140625
13.94970703125 5.815185546875 -31.489013671875
-7.8154296875 6.4287109375 37.2060546875
-7.632080078125 15.5205078125 -58.08544921875
0.09375 4.8804931640625 -29.8883056640625
-3.49658203125 12.972900390625 17.988037109375
15.711669921875 25.7855224609375 -25.3914794921875
6.739990234375 22.3817138671875 -12.306884765625
17.06298828125 -5.9749755859375 45.3980712890625
-5.53662109375 18.2864990234375 -0.4840087890625
-38.304931640625 -4.1383056640625 1.7767333984375
-6.670654296875 3.520263671875 -27.64013671875
10.98388671875 11.6412353515625 26.96728515625
-33.508544921875 -5.164794921875 7.4718017578125
-3.231201171875 15.7921142578125 9.1546630859375
-25.331787109375 -9.472412109375 20.806884765625
-2.501220703125 11.8895263671875 -47.529052734375
-7.55908203125 14.0546875 15.0113525390625
-7.86279296875 12.8775634765625 -50.107421875
-6.4453125 7.770263671875 35.3638916015625
0.6728515625 17.0440673828125 5.8782958984375
6.24951171875 25.64599609375 -22.8521728515625
8.0595703125 8.792724609375 -39.13525390625
-1.84326171875 -11.765625 48.439453125
10.25 26.845458984375 -27.586669921875
-9.7529296875 5.83056640625 -32.65185546875
5.2880859375 16.9189453125 6.181396484375
2.4248046875 6.504150390625 31.60205078125
-4.099365234375 17.0357666015625 -61.2401123046875
-25.987548828125 -6.4268798828125 9.881103515625
-26.57861328125 -9.200927734375 13.98779296875
5.26806640625 20.7481689453125 -8.9451904296875
5.9619140625 -7.0103759765625 41.738037109375
-6.361572265625 18.1923828125 2.5184326171875
10.08447265625 21.73974609375 -8.8704833984375
8.267822265625 20.89453125 -8.22021484375
-3.3564453125 16.0048828125 -58.8402099609375
-2.690673828125 4.301025390625 43.478759765625
7.123779296875 11.052734375 23.4017333984375
-5.185302734375 22.1307373046875 -11.421630859375
1.37548828125 1.781982421875 28.97509765625
-8.51806640625 12.7750244140625 16.9075927734375
9.43017578125 13.047119140625 -50.4749755859375
19.572265625 12.0435791015625 -25.0977783203125
-0.94775390625 10.683349609375 -44.3143310546875
5.879150390625 15.234375 -56.8980712890625
-14.73291015625 -5.875244140625 7.010498046875
2.02294921875 -9.525634765625 45.3209228515625
11.90380859375 26.2757568359375 -25.790283203125
8.10400390625 26.80419921875 -25.7645263671875
-18.869140625 -8.2432861328125 18.4263916015625
10.878173828125 14.451416015625 -54.3345947265625
15.85400390625 -8.49462890625 45.3001708984375
2.75390625 13.782470703125 -52.51513671875
-3.2470703125 20.228759765625 -6.006591796875
7.52978515625 10.710205078125 28.8468017578125
8.73583984375 -10.384521484375 47.6644287109375
7.980712890625 11.1239013671875 25.450927734375
-2.92236328125 23.7464599609375 -17.389892578125
0.204833984375 -11.2252197265625 46.3470458984375
14.9755859375 -9.0302734375 47.784912109375
3.152099609375 13.5247802734375 -51.1826171875
-7.210205078125 15.4185791015625 -56.7919921875
6.59033203125 24.8465576171875 -20.1072998046875
15.063720703125 23.9813232421875 -16.78271484375
8.263671875 24.5745849609375 -20.5413818359375
6.622802734375 24.9986572265625 -18.41650390625
4.10205078125 14.5172119140625 -54.91015625
-24.91259765625 -9.0643310546875 19.5302734375
20.635986328125 13.7327880859375 50.234619140625
4.431396484375 16.7138671875 7.9300537109375
17.95361328125 20.432373046875 -16.58935546875
23.01171875 12.8475341796875 51.1046142578125
-6.892333984375 12.069580078125 21.96630859375
18.528076171875 21.5546875 -21.566162109375
6.443115234375 8.6787109375 32.4583740234375
-27.826416015625 -9.534912109375 11.674560546875
2.554443359375 7.167724609375 37.2813720703125
-6.6376953125 16.9853515625 -60.2509765625
18.088134765625 14.151611328125 -48.56787109375
-8.77197265625 16.8017578125 -60.10302734375
14.91650390625 12.8779296875 -49.385498046875
4.134521484375 11.1204833984375 -45.9139404296875
11.433837890625 22.3348388671875 -11.1724853515625
13.551513671875 22.1572265625 -9.923828125
9.742919921875 22.491943359375 -12.0029296875
4.8310546875 13.4503173828125 -51.2359619140625
26.09765625 -0.249267578125 22.4593505859375
16.54736328125 25.677490234375 -27.131591796875
0.036865234375 12.0908203125 -48.5406494140625
17.681396484375 21.2177734375 -10.3094482421875
10.982666015625 5.4901123046875 -30.8763427734375
9.31640625 26.083740234375 -22.6251220703125
-1.61279296875 12.4012451171875 -49.4017333984375
0.302978515625 10.7086181640625 -45.6458740234375
-6.07861328125 16.79345703125 5.2841796875
23.72900390625 0.38427734375 22.430908203125
12.23046875 15.070068359375 -56.2777099609375
15.84912109375 23.4576416015625 -15.8427734375
-3.314453125 6.1033935546875 40.42138671875
18.01513671875 23.9862060546875 -26.8148193359375
2.28076171875 20.3817138671875 -4.940673828125
16.076416015625 15.1336669921875 -55.17626953125
4.899658203125 21.0323486328125 -6.4273681640625
12.853271484375 20.08154296875 -4.8043212890625
11.520263671875 12.833740234375 -49.655029296875
-10.150390625 15.5089111328125 -56.6851806640625
-2.8115234375 7.423583984375 32.0245361328125
-10.510986328125 11.350830078125 -46.1990966796875
-19.95361328125 -6.42529296875 12.5234375
-0.7939453125 16.16748046875 -58.5712890625
-3.644775390625 8.8199462890625 -39.0841064453125
16.787841796875 21.023193359375 -11.954345703125
-22.247802734375 -4.646484375 7.4345703125
12.11962890625 14.1962890625 -53.463623046875
18.892822265625 7.9754638671875 -31.7669677734375
12.261474609375 22.226806640625 -12.894287109375
-3.712646484375 8.165771484375 -37.65625
-2.798583984375 7.2227783203125 36.57861328125
11.74951171875 11.4068603515625 -47.162109375
-8.595703125 16.7879638671875 4.941162109375
5.37109375 7.3662109375 -36.1456298828125
-2.572021484375 19.1051025390625 -10.064697265625
-27.83544921875 -10.103515625 14.9754638671875
4.623046875 18.761962890625 -3.01611328125
-4.128173828125 19.8243408203125 -4.6268310546875
-2.0361328125 19.6107177734375 -3.8060302734375
22.405517578125 17.082275390625 44.00390625
-20.044189453125 -7.6480712890625 15.14697265625
5.9169921875 18.8140869140625 -0.5198974609375
0.177734375 17.4417724609375 -9.832763671875
-9.39892578125 9.7822265625 -42.4620361328125
13.708251953125 -9.2943115234375 44.63427734375
-8.13037109375 12.3253173828125 19.465087890625
-4.454345703125 13.8875732421875 -58.63427734375
11.224365234375 -9.6795654296875 43.130615234375
-31.902587890625 -5.458740234375 9.8961181640625
-3.5888671875 21.1329345703125 -9.1480712890625
4.913818359375 10.6160888671875 -44.9686279296875
21.039794921875 13.72509765625 47.312744140625
-11.26611328125 7.354248046875 -35.470703125
-7.60302734375 6.6500244140625 -34.1900634765625
2.321533203125 16.98486328125 2.4595947265625
-1.415771484375 17.427490234375 1.6533203125
0.707763671875 17.40185546875 4.54931640625
7.387451171875 16.781005859375 7.8302001953125
-5.70361328125 13.530029296875 -52.0777587890625
-2.388671875 11.640869140625 20.6583251953125
-4.564453125 24.1307373046875 -15.69482421875
5.960693359375 8.325927734375 29.62060546875
-4.298583984375 17.7408447265625 4.22265625
-10.22021484375 5.163818359375 -30.3857421875
-3.470458984375 6.4600830078125 -33.4710693359375
2.69482421875 9.50390625 -41.205078125
17.18896484375 24.1324462890625 -24.655517578125
-27.529541015625 -2.874755859375 23.4915771484375
23.49072265625 13.2593994140625 49.390625
6.936279296875 9.9779052734375 -43.618896484375
17.713623046875 21.7388916015625 -18.9962158203125
22.18603515625 15.6710205078125 45.833740234375
-5.725830078125 16.02392578125 7.9293212890625
7.546875 14.6383056640625 12.8082275390625
4.212646484375 14.9102783203125 10.760498046875
6.28759765625 14.6983642578125 11.5745849609375
6.878662109375 9.4307861328125 -40.9368896484375
10.808837890625 10.1666259765625 32.989013671875
0.773681640625 18.755859375 -8.8348388671875
-4.765869140625 10.193359375 -43.1826171875
-28.10986328125 -7.55126953125 7.31982421875
17.0390625 -5.9346923828125 39.3377685546875
-2.205322265625 26.445556640625 -21.4202880859375
-40.71337890625 -5.111328125 5.2662353515625
19.155517578125 -2.5728759765625 28.2955322265625
19.344482421875 13.1351318359375 -20.65869140625
25.420166015625 0.6451416015625 21.1124267578125
-36.78466796875 -8.423095703125 18.1678466796875
4.6953125 16.6204833984375 -11.9464111328125
0.893798828125 8.3828125 -38.7408447265625
-2.381591796875 13.9566650390625 -12.8599853515625
5.31591796875 13.1893310546875 21.472900390625
3.619873046875 13.1578369140625 18.5977783203125
-4.235595703125 13.9447021484375 15.35205078125
-1.7431640625 13.7508544921875 16.984619140625
7.752685546875 12.73583984375 20.21923828125
6.096435546875 12.8897705078125 19.40576171875
2.765380859375 3.2210693359375 25.04931640625
-18.1591796875 -3.524169921875 3.0428466796875
-5.29296875 9.010986328125 -39.4853515625
9.435546875 6.4869384765625 -34.4134521484375
6.301513671875 14.6483154296875 14.5224609375
-35.99658203125 -8.7103271484375 19.3907470703125
-4.127685546875 20.33056640625 -11.529052734375
4.775634765625 5.9320068359375 -33.67431640625
23.167724609375 -3.1317138671875 29.8997802734375
11.37890625 8.5260009765625 -38.78271484375
3.937255859375 5.774658203125 -31.505126953125
10.569091796875 -8.4593505859375 37.782958984375
-5.751220703125 6.3670654296875 39.62646484375
2.434326171875 18.52490234375 -8.8460693359375
-5.09912109375 6.8436279296875 -35.176513671875
20.33935546875 11.7137451171875 55.4127197265625
22.766357421875 11.26220703125 54.1641845703125
9.65380859375 10.917236328125 30.8438720703125
25.216796875 10.92138671875 54.1475830078125
0.067626953125 7.052978515625 37.3541259765625
8.35205078125 14.60400390625 -54.69287109375
-29.2119140625 -7.281982421875 13.3463134765625
-30.384521484375 -6.6141357421875 10.8538818359375
-24.835205078125 -7.598876953125 14.877685546875
-3.968994140625 7.9267578125 34.0487060546875
25.864501953125 -1.6585693359375 25.1302490234375
-38.288818359375 -6.093017578125 12.615478515625
-35.169677734375 -5.12109375 2.2613525390625
-5.0390625 9.941162109375 25.5428466796875
-6.2119140625 10.3316650390625 28.0050048828125
-3.746826171875 6.0906982421875 37.9715576171875
-21.466064453125 -4.6463623046875 5.38232421875
-26.145751953125 -9.3272705078125 18.00439453125
18.93017578125 15.8223876953125 -18.6607666015625
-5.88427734375 7.10498046875 -33.5284423828125
1.135498046875 2.947998046875 31.2806396484375
13.016845703125 28.1712646484375 -29.2867431640625
4.988037109375 7.1859130859375 31.0361328125
14.886474609375 -6.67041015625 37.8624267578125
5.406005859375 6.96533203125 36.0025634765625
-1.379638671875 14.5596923828125 -53.8236083984375
-1.535888671875 7.6666259765625 33.197998046875
0.92626953125 7.47509765625 34.810791015625
4.6640625 12.0797119140625 -48.73681640625
7.512451171875 25.10986328125 -15.8861083984375
-26.499755859375 -7.268310546875 6.412841796875
16.59912109375 -8.8553466796875 44.1190185546875
-23.883056640625 -4.8232421875 6.3009033203125
11.339111328125 -9.14453125 49.07666015625
-11.192626953125 32.8087158203125 -48.6312255859375
7.727294921875 -8.612548828125 38.271484375
-40.758056640625 -8.7313232421875 18.331298828125
14.46875 26.1239013671875 -25.4190673828125
-24.309326171875 -5.4208984375 8.8480224609375
-19.484619140625 -4.776123046875 3.71923828125
16.7705078125 10.892578125 -41.70947265625
22.24658203125 -1.1553955078125 25.15478515625
10.431884765625 -9.6771240234375 45.1507568359375
18.709228515625 19.9376220703125 -20.8009033203125
3.96923828125 9.64013671875 -41.2918701171875
26.369873046875 -1.2032470703125 29.1483154296875
1.757080078125 19.35400390625 -0.9093017578125
17.63623046875 -4.4942626953125 31.4434814453125
-30.70361328125 -5.1895751953125 8.197021484375
-1.798828125 13.4912109375 14.098388671875
23.279052734375 -2.54833984375 33.08154296875
8.62060546875 12.8443603515625 22.6876220703125
-42.28564453125 -6.54931640625 12.812255859375
0.498291015625 16.3912353515625 -59.55029296875
-6.841796875 8.2158203125 31.1971435546875
-5.60693359375 8.276123046875 30.3331298828125
18.453369140625 24.1925048828125 -31.20361328125
-37.4677734375 -4.5421142578125 6.677734375
4.106689453125 25.7008056640625 -23.6490478515625
21.01904296875 -3.80810546875 32.4874267578125
-8.61328125 4.632080078125 -28.655029296875
-4.248046875 13.7469482421875 16.6375732421875
-39.0732421875 -7.490478515625 20.08837890625
0.923095703125 13.4114990234375 -10.334228515625
6.619140625 -8.0904541015625 42.2503662109375
1.6923828125 15.7003173828125 -58.12548828125
-2.658935546875 26.1328125 -20.044677734375
11.60107421875 27.281982421875 -28.16748046875
-19.703857421875 -0.67626953125 21.7335205078125
17.942138671875 -5.169677734375 32.742431640625
29.9404296875 0.473876953125 21.013916015625
-41.580078125 -8.90625 16.78466796875
-34.347900390625 -5.0880126953125 3.8466796875
-10.057373046875 7.1099853515625 -36.2998046875
-29.444091796875 -1.35791015625 20.8892822265625
-0.74462890625 15.52294921875 9.9659423828125
5.337890625 -8.6783447265625 43.55029296875
12.29541015625 22.3319091796875 -9.915283203125
24.22216796875 -1.657470703125 25.992431640625
-20.767822265625 -6.748046875 14.21533203125
7.60205078125 -9.7215576171875 43.6180419921875
-1.776123046875 17.664794921875 5.4249267578125
-8.5712890625 14.3699951171875 -54.3096923828125
-0.507568359375 14.839111328125 -54.7928466796875
7.157470703125 -10.094482421875 45.27001953125
-33.193359375 -7.30712890625 13.4696044921875
6.8857421875 12.96240234375 -49.915771484375
-13.940185546875 -5.7669677734375 4.533203125
-24.323486328125 -4.80126953125 2.6617431640625
-3.925048828125 14.4364013671875 -53.678466796875
10.2314453125 12.6947021484375 -49.563232421875
5.157470703125 12.6878662109375 -50.19580078125
-17.509521484375 -6.03466796875 12.385009765625
3.001708984375 12.2724609375 -49.141357421875
13.8779296875 21.4139404296875 -8.507080078125
10.3759765625 20.5426025390625 -3.5299072265625
10.351806640625 20.429443359375 -4.787353515625
5.060302734375 11.82373046875 -47.4100341796875
0.648681640625 13.7957763671875 -51.9993896484375
21.918701171875 -3.219970703125 28.720703125
-5.161376953125 -13.0555419921875 51.4210205078125
-35.89990234375 -5.12353515625 7.5391845703125
13.20703125 22.5098876953125 -4.839599609375
-23.522705078125 -5.8935546875 11.330078125
4.061279296875 -9.156982421875 42.8331298828125
-34.46875 -9.21240234375 17.826416015625
-1.743896484375 -11.1290283203125 50.7557373046875
20.620849609375 -3.6768798828125 30.038330078125
-15.6904296875 -8.1082763671875 15.0938720703125
7.121826171875 11.4559326171875 -46.552001953125
-8.617431640625 13.7769775390625 -52.0159912109375
-4.12109375 12.47265625 -48.88671875
21.154296875 -3.0416259765625 34.4195556640625
-39.0908203125 -6.5582275390625 14.3248291015625
13.50146484375 -10.5433349609375 41.976806640625
4.0849609375 14.3165283203125 -53.5711669921875
9.932861328125 -10.1571044921875 40.8125
0.463134765625 19.3018798828125 -3.4053955078125
2.954345703125 18.9554443359375 -3.4222412109375
6.092529296875 20.76953125 -12.820556640625
-28.909423828125 -9.01611328125 17.2335205078125
-39.8515625 -4.5740966796875 7.56591796875
-3.753173828125 3.686279296875 -26.540771484375
-23.657958984375 -8.1219482421875 17.339599609375
-10.693359375 14.1082763671875 -53.292236328125
17.892578125 23.08642578125 -24.02392578125
3.224365234375 14.990966796875 -10.725341796875
15.669921875 20.526611328125 29.01318359375
-6.891845703125 9.8636474609375 -43.0101318359375
-1.14697265625 15.8238525390625 7.404296875
-11.4375 15.167724609375 -55.2523193359375
-4.89013671875 16.1092529296875 6.6278076171875
1.77880859375 16.9488525390625 -12.7598876953125
-29.5224609375 -4.5546875 2.37890625
19.6484375 17.6033935546875 -16.0703125
6.69970703125 10.8714599609375 25.9356689453125
-1.42431640625 2.169921875 30.6302490234375
4.03125 10.2247314453125 -43.5594482421875
-2.08056640625 3.471923828125 30.472900390625
-7.387451171875 16.2598876953125 6.2574462890625
-26.56005859375 -8.59423828125 11.0745849609375
-18.058349609375 -8.2459716796875 19.609375
0.9443359375 20.0125732421875 -7.3809814453125
-4.318115234375 17.792724609375 1.2572021484375
-0.52001953125 15.646728515625 -16.230712890625
2.345703125 17.0970458984375 3.7066650390625
-28.62744140625 -10.384521484375 17.044677734375
6.501708984375 9.3387451171875 27.813232421875
18.57763671875 22.01416015625 -25.5408935546875
-22.665771484375 -5.0272216796875 9.134033203125
-4.229736328125 18.7052001953125 -1.0247802734375
-40.7021484375 -6.4095458984375 11.937255859375
6.235107421875 11.0628662109375 -45.1383056640625
18.650390625 11.682373046875 52.54931640625
-1.2646484375 18.8116455078125 -0.7149658203125
-32.815673828125 -8.470458984375 18.86181640625
17.8564453125 19.65869140625 -12.5770263671875
9.438720703125 9.82568359375 -43.2611083984375
8.182861328125 20.038818359375 -3.3662109375
-15.81298828125 -4.5130615234375 5.586181640625
-4.87841796875 16.0211181640625 9.165771484375
3.4130859375 15.136474609375 12.008056640625
10.3681640625 7.2562255859375 -36.74267578125
-6.821533203125 17.73486328125 3.8795166015625
0.25341796875 6.3680419921875 -34.0177001953125
-0.308837890625 13.6639404296875 -11.1854248046875
-2.405517578125 4.766845703125 -29.7640380859375
6.47021484375 -6.08984375 37.9918212890625
-1.17626953125 8.514892578125 -38.6884765625
1.947021484375 6.3582763671875 -29.88525390625
-2.80322265625 8.938232421875 -39.991943359375
-16.36474609375 -6.704833984375 13.270263671875
