11.752197265625 10.47265625 23.679931640625
9.804931640625 12.6519775390625 18.795166015625
-16.034423828125 -8.4505615234375 17.4921875
11.465087890625 4.0015869140625 -28.9893798828125
11.046630859375 4.7137451171875 30.2225341796875
17.468994140625 4.795654296875 -30.4476318359375
18.382080078125 25.9229736328125 -24.2330322265625
0.944580078125 26.40576171875 -17.946044921875
-35.33740234375 -12.9298095703125 24.3203125
-35.543212890625 -8.6722412109375 16.5399169921875
27.3359375 -0.479248046875 27.501708984375
6.088134765625 17.9658203125 -4.160888671875
7.25146484375 5.98193359375 -32.96484375
18.904052734375 11.5301513671875 -46.537841796875
-3.975830078125 11.53564453125 -46.533447265625
-8.755615234375 -8.594970703125 12.86865234375
12.830078125 10.861572265625 -45.042724609375
10.906982421875 19.7435302734375 -6.91943359375
3.426025390625 11.852783203125 19.2423095703125
18.582275390625 22.789794921875 -14.406982421875
29.41064453125 -3.574951171875 34.478515625
21.24951171875 19.8116455078125 -9.5828857421875
-1.402099609375 10.20068359375 -43.781005859375
-29.288818359375 -10.613037109375 21.1290283203125
10.791259765625 6.2105712890625 33.409423828125
22.885009765625 11.6173095703125 -42.0428466796875
-22.900390625 -9.8428955078125 20.230712890625
21.7880859375 -1.3302001953125 34.1529541015625
-2.061279296875 1.74462890625 -21.7198486328125
21.609619140625 13.2486572265625 -48.310302734375
-2.348876953125 8.99169921875 28.518798828125
15.239013671875 4.3316650390625 -27.7830810546875
5.63525390625 11.1004638671875 22.129638671875
4.58203125 14.945068359375 -14.49951171875
-24.3837890625 -2.6473388671875 23.714599609375
9.796875 -10.1580810546875 47.434814453125
-11.35986328125 -9.8675537109375 22.19580078125
-21.979248046875 -5.102783203125 28.84619140625
-11.94140625 -4.00537109375 23.75048828125
-5.590576171875 31.0118408203125 -47.41064453125
-21.424560546875 -8.8609619140625 9.4154052734375
25.0673828125 -5.1259765625 35.186279296875
-0.3359375 0.6776123046875 -24.7958984375
-3.24853515625 4.109375 -28.3687744140625
-24.930419921875 -6.240966796875 5.94677734375
-19.719970703125 -7.8597412109375 11.95556640625
1.500732421875 6.7308349609375 35.62939453125
-26.252197265625 -7.974853515625 15.285888671875
3.387939453125 2.6566162109375 -23.5537109375
2.53173828125 8.8531494140625 -40.7725830078125
7.520751953125 0.4617919921875 33.79443359375
-0.2255859375 20.65234375 -7.5025634765625
9.616455078125 14.5386962890625 -11.9212646484375
-8.44189453125 9.0372314453125 28.3538818359375
-32.89794921875 -10.392578125 22.34423828125
-2.80712890625 4.2916259765625 44.394775390625
29.67578125 -3.3646240234375 30.21923828125
-2.43310546875 21.1776123046875 -2.4178466796875
-3.47607421875 22.64111328125 -9.30859375
20.677490234375 10.6864013671875 -28.252197265625
-29.9521484375 -5.9420166015625 6.0872802734375
22.911376953125 8.929443359375 -35.8525390625
-22.310302734375 -10.9486083984375 14.954345703125
1.511474609375 6.8447265625 -34.6572265625
-15.310791015625 -10.2457275390625 21.48095703125
10.154541015625 1.5135498046875 29.97509765625
22.744873046875 7.68896484375 -24.6456298828125
19.617919921875 19.260986328125 -3.873046875
15.634033203125 11.7822265625 -48.45703125
20.06591796875 6.82470703125 -27.23681640625
-20.092529296875 -6.795166015625 25.593505859375
-35.48193359375 -9.5377197265625 24.148193359375
-10.974609375 -5.7156982421875 7.9334716796875
11.687744140625 5.496826171875 -32.0933837890625
31.010009765625 -0.8740234375 24.602294921875
-15.65673828125 -6.6326904296875 11.2239990234375
-29.411376953125 -6.910400390625 10.0118408203125
-6.003173828125 1.02978515625 52.584228515625
-28.98779296875 -2.2694091796875 23.3526611328125
-11.1396484375 30.893310546875 -46.600341796875
-6.679931640625 3.570068359375 -24.650634765625
10.087646484375 16.93408203125 5.7513427734375
6.564453125 17.5762939453125 4.289794921875
12.60009765625 0.0665283203125 40.39501953125
6.345458984375 2.445068359375 27.7265625
15.940185546875 -9.8125 42.2315673828125
-13.240478515625 33.176513671875 -50.697265625
-2.290283203125 7.8280029296875 33.35546875
-7.0380859375 13.0556640625 -50.2042236328125
23.384765625 12.5609130859375 -22.7115478515625
3.63671875 13.318359375 16.8011474609375
0.015625 1.7076416015625 51.047119140625
-6.725341796875 10.0224609375 -41.614013671875
-10.79833984375 29.5286865234375 -43.93798828125
17.31201171875 24.1455078125 -18.6436767578125
18.4775390625 8.54443359375 -39.2537841796875
2.32666015625 11.3642578125 -46.919921875
1.21630859375 18.7938232421875 -5.95263671875
-14.552001953125 -2.592529296875 24.2314453125
9.84716796875 14.9632568359375 10.10498046875
-7.182861328125 10.8349609375 -44.511474609375
-6.646728515625 5.2220458984375 -29.976318359375
5.40771484375 5.2855224609375 -30.7353515625
-4.1064453125 9.791748046875 25.608154296875
-38.582763671875 -11.2080078125 21.1046142578125
12.9375 -10.9012451171875 46.789794921875
8.203369140625 10.8558349609375 -45.7708740234375
27.156494140625 -2.8310546875 29.1568603515625
11.213623046875 19.872314453125 -9.6802978515625
5.6875 4.0477294921875 -28.2203369140625
13.142822265625 23.35888671875 -15.653564453125
-23.174072265625 -7.0733642578125 24.7554931640625
13.060546875 -8.2305908203125 43.556884765625
-5.821533203125 3.61669921875 46.4676513671875
11.890380859375 5.73193359375 38.8406982421875
-4.105224609375 6.3909912109375 37.1400146484375
1.249267578125 10.5296630859375 24.4456787109375
7.036865234375 8.294677734375 -38.97314453125
9.64990234375 19.5277099609375 -4.478515625
1.188232421875 20.2542724609375 -11.6373291015625
-25.57421875 -6.76611328125 9.932861328125
-10.0087890625 3.40087890625 25.6405029296875
-20.223388671875 -6.713134765625 7.574951171875
-22.56689453125 -8.0440673828125 14.015869140625
23.623046875 14.1829833984375 -26.7557373046875
0.2841796875 22.5264892578125 -13.369140625
-4.02294921875 25.61083984375 -14.399169921875
3.0166015625 3.1485595703125 27.14697265625
-2.691650390625 13.028564453125 -53.134033203125
-25.779541015625 -8.6943359375 17.8681640625
-4.5185546875 30.5291748046875 -37.5845947265625
10.624267578125 12.2496337890625 -49.726318359375
12.444091796875 13.9326171875 13.0443115234375
8.393798828125 18.5858154296875 0.7685546875
-6.931640625 14.6873779296875 -54.387451171875
-0.896728515625 12.059814453125 19.7105712890625
-3.238525390625 9.4869384765625 -41.5030517578125
-2.028564453125 5.607421875 38.702392578125
12.26416015625 24.65185546875 -20.3897705078125
16.9736328125 10.2044677734375 30.417236328125
-7.276123046875 7.8446044921875 24.587890625
3.92919921875 3.1143798828125 34.2152099609375
0.346923828125 4.2197265625 -28.4361572265625
12.21435546875 16.862548828125 4.18212890625
-31.94677734375 -6.7412109375 24.4810791015625
-33.673583984375 -4.552001953125 23.469970703125
19.74755859375 -11.6072998046875 43.295166015625
-3.922607421875 6.459228515625 -33.810791015625
4.859619140625 0.7835693359375 31.5264892578125
16.344970703125 13.1605224609375 -50.79150390625
2.739501953125 5.09814453125 40.76513671875
13.9755859375 11.6170654296875 25.820556640625
-25.62841796875 -11.7685546875 22.9686279296875
-5.43017578125 11.3077392578125 20.3677978515625
13.971435546875 21.907470703125 -10.9122314453125
4.661865234375 11.9100341796875 -48.322998046875
8.760498046875 15.2984619140625 -7.5081787109375
16.82470703125 24.9168701171875 -22.4188232421875
18.668212890625 6.8841552734375 -35.662353515625
0.28759765625 7.668212890625 33.5145263671875
-0.8310546875 31.83740234375 -36.0816650390625
-34.543701171875 -8.890625 18.9544677734375
15.669921875 8.41845703125 -39.746337890625
21.92529296875 -5.9229736328125 37.3134765625
-10.724853515625 -9.2972412109375 17.431396484375
12.4970703125 7.1214599609375 35.6236572265625
3.815185546875 7.3739013671875 -36.0162353515625
3.93505859375 2.6708984375 48.448974609375
10.184814453125 7.72021484375 -36.98388671875
23.33251953125 7.7786865234375 -30.6202392578125
16.338134765625 9.8458251953125 -42.9635009765625
12.265625 -2.9915771484375 41.6868896484375
19.802978515625 10.9713134765625 -44.2069091796875
-20.591552734375 -10.896240234375 20.5616455078125
15.650146484375 20.50537109375 -7.22314453125
13.94873046875 23.5196533203125 -18.06982421875
12.653076171875 8.2371826171875 33.3240966796875
13.64306640625 -5.505615234375 40.646240234375
-14.481689453125 -9.5328369140625 24.5791015625
-16.227783203125 -3.2647705078125 26.629638671875
-9.090576171875 -6.2392578125 6.10595703125
-1.14404296875 2.7730712890625 48.9737548828125
-10.188232421875 -6.6688232421875 10.14208984375
13.291748046875 11.4376220703125 -47.5693359375
-22.697509765625 -7.718017578125 11.450439453125
-30.953369140625 -9.080810546875 17.3118896484375
-16.07763671875 -5.7496337890625 8.566650390625
1.79150390625 4.215087890625 30.496826171875
-13.50244140625 -7.3004150390625 13.618408203125
3.39794921875 3.5299072265625 -26.8887939453125
-8.76708984375 31.7138671875 -48.568115234375
1.7138671875 13.2587890625 14.8687744140625
2.173828125 16.1312255859375 -8.18994140625
-31.840576171875 -3.161376953125 26.7559814453125
-30.15771484375 -8.3856201171875 15.0003662109375
8.542724609375 -11.1229248046875 45.2540283203125
-1.41162109375 15.836181640625 -58.3167724609375
20.919921875 -9.738037109375 46.6019287109375
18.7529296875 20.0350341796875 -6.6151123046875
8.815185546875 4.9443359375 35.0831298828125
7.115478515625 13.8558349609375 13.6885986328125
0.15185546875 18.759033203125 -1.8033447265625
-6.656494140625 8.62451171875 30.337890625
31.63720703125 -2.4698486328125 29.0181884765625
19.56396484375 6.072265625 -31.9521484375
-26.750244140625 -4.660400390625 5.4276123046875
5.88330078125 15.5400390625 8.7197265625
19.0166015625 21.8603515625 -10.635986328125
22.589599609375 -7.021728515625 39.470458984375
-8.472412109375 33.8685302734375 -51.5625
-37.61865234375 -7.9232177734375 14.9822998046875
7.271240234375 16.7415771484375 -15.2457275390625
-13.1572265625 -5.406494140625 6.4417724609375
21.09765625 10.1082763671875 -41.399169921875
-2.545654296875 17.1475830078125 3.718505859375
15.0419921875 18.9259033203125 -2.7913818359375
-2.977783203125 29.9688720703125 -39.988525390625
4.07958984375 14.551025390625 12.1796875
18.860107421875 -9.78515625 48.052734375
2.91748046875 13.327392578125 -52.63427734375
2.30078125 3.532958984375 46.439697265625
-7.19921875 7.455078125 32.69482421875
16.343994140625 8.7908935546875 33.6824951171875
19.731201171875 -4.5780029296875 37.3607177734375
-22.294921875 -8.2197265625 7.2879638671875
11.109375 18.349853515625 1.8143310546875
-3.958251953125 0.2659912109375 54.101318359375
4.52685546875 10.2593994140625 -43.7144775390625
3.928955078125 23.449462890625 -16.7601318359375
20.57080078125 13.3114013671875 -50.5035400390625
-0.7392578125 12.683349609375 -50.0772705078125
14.41650390625 22.5469970703125 -13.82275390625
-10.261474609375 -8.3211669921875 14.6806640625
3.3583984375 10.610595703125 22.9034423828125
-16.43798828125 -9.095947265625 19.74462890625
10.7529296875 15.5965576171875 7.6845703125
14.15869140625 18.4429931640625 -0.3563232421875
8.518798828125 9.2730712890625 -41.2625732421875
-20.70166015625 -10.0465087890625 16.676025390625
12.017822265625 8.5001220703125 -40.174560546875
0.88720703125 7.8096923828125 29.18896484375
-4.017333984375 31.840576171875 -35.1832275390625
27.287841796875 -4.8275146484375 34.479248046875
-4.244140625 33.65380859375 -50.678466796875
7.049072265625 13.106689453125 -51.7723388671875
-34.327880859375 -5.0772705078125 7.301025390625
2.900390625 -0.4215087890625 32.7705078125
10.102783203125 12.7664794921875 16.1387939453125
28.953125 -0.5947265625 25.6409912109375
-0.824951171875 1.1343994140625 53.260009765625
10.15087890625 11.7288818359375 21.0723876953125
-2.682861328125 10.707275390625 24.01171875
-3.195068359375 36.70068359375 -53.0870361328125
1.642578125 16.4217529296875 -10.417236328125
16.4248046875 -10.49169921875 46.36328125
4.920166015625 3.1767578125 29.4619140625
9.238525390625 0.778564453125 32.2957763671875
9.395751953125 5.3988037109375 -32.20751953125
-14.405517578125 -8.1243896484375 15.5618896484375
3.335693359375 5.677001953125 34.7393798828125
-5.382080078125 5.1121826171875 41.6466064453125
-36.328857421875 -12.718505859375 21.934814453125
-22.427734375 -6.451171875 27.05078125
-1.894775390625 12.3150634765625 17.193359375
-6.8603515625 30.623779296875 -38.2218017578125
-9.85302734375 30.47314453125 -40.5740966796875
-3.05322265625 0.337646484375 -24.3475341796875
-7.6142578125 30.0732421875 -40.31201171875
-6.67333984375 9.9166259765625 25.8818359375
-1.171142578125 3.1793212890625 -27.078857421875
6.294189453125 15.803955078125 -5.967041015625
25.462158203125 -3.0198974609375 31.0592041015625
1.803955078125 16.54150390625 4.1866455078125
5.013427734375 5.9478759765625 39.140869140625
-22.653076171875 -5.9140625 6.8687744140625
0.477294921875 14.9053955078125 -54.1243896484375
-17.616943359375 -10.486083984375 25.1090087890625
-1.09716796875 4.3756103515625 -30.5191650390625
26.2705078125 -4.684814453125 38.7396240234375
-3.0751953125 30.876953125 -44.4312744140625
-28.404296875 -9.65673828125 19.19140625
13.282470703125 19.982177734375 -6.3692626953125
-27.210693359375 -7.06591796875 11.4547119140625
-2.1259765625 17.7257080078125 1.3455810546875
-18.209716796875 -8.5035400390625 16.926025390625
1.1220703125 16.090576171875 -55.9542236328125
13.1787109375 25.1163330078125 -22.447265625
7.155029296875 13.0654296875 -9.058349609375
-17.888916015625 -5.69091796875 7.0826416015625
8.59326171875 14.2802734375 -54.1839599609375
-21.789794921875 -13.5196533203125 23.6502685546875
19.239990234375 -8.2894287109375 40.0145263671875
12.1787109375 9.6650390625 -42.7933349609375
10.99853515625 19.063720703125 -2.764892578125
6.5361328125 5.7183837890625 36.9056396484375
10.64013671875 -7.5899658203125 42.9097900390625
7.890380859375 4.7445068359375 41.510009765625
15.734130859375 21.3724365234375 -9.6669921875
-0.66015625 24.39697265625 -14.1104736328125
5.818359375 -0.8355712890625 32.92529296875
-28.081298828125 -11.45703125 22.7901611328125
-0.842041015625 16.4627685546875 4.9647216796875
6.799560546875 17.3330078125 2.096923828125
23.330322265625 11.7049560546875 54.9130859375
-23.80126953125 -10.7996826171875 22.1673583984375
2.0791015625 2.2535400390625 29.50732421875
17.77783203125 18.9320068359375 -2.6842041015625
14.209716796875 -11.33154296875 48.7447509765625
-36.15234375 -10.4666748046875 18.6104736328125
-2.033203125 7.716064453125 -37.1099853515625
1.15087890625 6.6322021484375 31.03857421875
23.1064453125 13.28564453125 -46.6751708984375
5.279541015625 8.8154296875 -40.2333984375
4.947509765625 18.2882080078125 -2.30322265625
-3.382080078125 2.158935546875 49.701416015625
-13.65869140625 -10.8955078125 23.060791015625
-27.371826171875 -8.615966796875 23.85791015625
-11.651123046875 34.310302734375 -51.707763671875
4.769287109375 15.0882568359375 -12.3157958984375
-24.03564453125 -2.1055908203125 26.5040283203125
-21.855712890625 -10.85009765625 25.666259765625
12.814453125 9.5875244140625 30.1231689453125
-8.260986328125 -7.6424560546875 10.51806640625
5.288818359375 4.087646484375 43.9674072265625
-3.205810546875 15.6759033203125 -57.0748291015625
2.726318359375 5.4859619140625 -31.320556640625
-17.774658203125 -6.9566650390625 12.3868408203125
16.375 6.7493896484375 -35.3138427734375
5.606689453125 7.01904296875 -34.8123779296875
-30.49853515625 -5.6939697265625 3.987060546875
-36.212158203125 -4.3465576171875 8.23193359375
17.5947265625 -10.314697265625 43.760986328125
1.385498046875 15.4925537109375 8.3927001953125
1.63916015625 17.26806640625 -59.64697265625
13.259765625 27.576904296875 -24.4044189453125
-26.904052734375 -2.667236328125 24.0130615234375
6.54541015625 15.5926513671875 -55.661376953125
-33.737060546875 -6.9755859375 13.910888671875
-1.58349609375 20.1800537109375 -5.89013671875
-6.91015625 7.2469482421875 -34.5048828125
7.900634765625 11.627685546875 20.918212890625
-0.336181640625 18.0494384765625 0.175048828125
-11.34326171875 -9.127197265625 19.98046875
14.734619140625 10.3343505859375 29.36572265625
9.6962890625 5.603759765625 39.09814453125
-5.373046875 12.0311279296875 -48.772216796875
20.51220703125 9.2432861328125 -39.259033203125
-4.71337890625 2.58544921875 -24.6741943359375
16.914306640625 -8.9981689453125 40.3680419921875
12.272705078125 6.7725830078125 -35.6646728515625
1.321533203125 12.19677734375 19.4285888671875
-13.524658203125 -6.699462890625 11.3994140625
-0.580322265625 13.228271484375 13.8431396484375
-3.66552734375 7.0843505859375 34.8861083984375
7.64990234375 9.98974609375 -43.621826171875
-11.30224609375 -4.013671875 26.603271484375
9.81103515625 -10.59521484375 49.522705078125
-6.190185546875 6.7633056640625 36.8958740234375
-20.06494140625 -11.134521484375 22.613525390625
-0.630859375 5.4556884765625 40.663818359375
3.27197265625 16.1004638671875 7.6124267578125
31.69482421875 -1.8187255859375 26.37255859375
5.790771484375 12.9013671875 17.4881591796875
29.654541015625 -3.8253173828125 32.392578125
-0.060302734375 9.633544921875 27.731201171875
-4.603515625 29.630615234375 -42.0159912109375
-0.537109375 10.7181396484375 23.33447265625
23.3876953125 -1.4461669921875 32.3128662109375
7.84912109375 -11.0714111328125 47.35595703125
5.57666015625 -12.37255859375 50.1983642578125
21.444580078125 -10.1192626953125 42.9091796875
-0.77880859375 3.987060546875 43.8016357421875
21.735107421875 -8.7896728515625 48.43798828125
7.948486328125 1.6414794921875 28.939208984375
-2.733154296875 18.40234375 -60.2791748046875
15.755859375 5.5069580078125 -32.1978759765625
-25.13037109375 -5.99072265625 8.0364990234375
-3.41552734375 23.4718017578125 -11.296142578125
-4.48828125 32.1124267578125 -48.8056640625
-10.905029296875 -11.9248046875 23.7457275390625
-0.275634765625 2.231201171875 -23.4058837890625
-8.343505859375 -10.0596923828125 17.7047119140625
23.56103515625 14.5400390625 -21.832763671875
-22.603515625 -5.0355224609375 4.988037109375
7.864501953125 16.953857421875 6.0164794921875
10.6767578125 14.2869873046875 11.8797607421875
14.460693359375 13.3958740234375 -52.4482421875
-18.595947265625 -5.3779296875 24.344482421875
8.239990234375 6.690673828125 -34.636962890625
-5.11279296875 8.84814453125 -40.1590576171875
7.106689453125 3.926025390625 -26.5908203125
-0.498779296875 14.217529296875 11.4779052734375
21.88720703125 5.3721923828125 -27.579345703125
7.226806640625 2.4456787109375 34.368408203125
3.894287109375 8.4202880859375 26.1961669921875
4.6025390625 14.745849609375 -6.867431640625
-12.033203125 31.846923828125 -49.08740234375
1.573974609375 17.9439697265625 2.1749267578125
-34.59765625 -6.18310546875 11.76611328125
14.403076171875 -7.687744140625 42.1044921875
-20.123046875 -7.0126953125 9.734130859375
6.63134765625 9.6123046875 23.12109375
-1.8876953125 21.4781494140625 -8.364013671875
-24.659912109375 -9.814697265625 19.188720703125
-32.876953125 -8.4771728515625 17.8466796875
-2.9443359375 2.2384033203125 -23.4945068359375
3.730712890625 18.03857421875 0.5625
-29.602783203125 -11.4786376953125 24.6220703125
-12.718994140625 -8.8101806640625 17.580322265625
-2.129150390625 15.6929931640625 8.3406982421875
7.49072265625 -5.9061279296875 46.303955078125
11.594970703125 12.8182373046875 -51.4130859375
14.627197265625 7.268310546875 -36.5697021484375
14.08056640625 10.109130859375 -43.63671875
-2.267578125 14.5711669921875 10.3157958984375
2.2841796875 2.07177734375 51.5872802734375
11.644775390625 13.828125 14.9014892578125
9.642333984375 25.36376953125 -21.1256103515625
4.149658203125 13.89404296875 -10.1905517578125
-22.599365234375 -12.049072265625 19.7655029296875
-33.00537109375 -6.0325927734375 10.2801513671875
7.403076171875 14.761962890625 -12.13427734375
2.637451171875 15.0731201171875 -56.8154296875
0.024169921875 10.784423828125 -45.0572509765625
18.365478515625 21.6566162109375 -12.7735595703125
-1.813720703125 14.965087890625 -54.2763671875
16.56982421875 26.2562255859375 -24.9940185546875
18.182861328125 13.2796630859375 -51.5509033203125
-0.78271484375 6.3179931640625 -33.3040771484375
17.87646484375 10.79931640625 -44.8128662109375
6.4130859375 11.419189453125 -47.513916015625
-10.08251953125 -3.5487060546875 24.29345703125
0.469482421875 20.472900390625 -9.795166015625
2.908447265625 18.1396484375 -5.1365966796875
19.629150390625 6.6998291015625 -33.9306640625
10.659423828125 13.419677734375 -54.237548828125
-31.010009765625 -7.776123046875 13.314453125
0.81005859375 9.5384521484375 -42.0841064453125
-19.03271484375 -9.181396484375 24.635498046875
-24.320556640625 -8.5810546875 14.748779296875
-33.71923828125 -9.6429443359375 20.65234375
-5.86865234375 11.1265869140625 -46.1524658203125
1.967529296875 14.0799560546875 -9.9525146484375
0.684814453125 0.04296875 54.46337890625
-16.8349609375 -7.6890869140625 15.772705078125
-3.712158203125 5.4700927734375 39.74365234375
-26.843505859375 -2.8565673828125 4.64599609375
-8.390380859375 -11.1524658203125 20.8251953125
4.22216796875 17.1026611328125 4.665771484375
-6.956787109375 7.746337890625 -36.8883056640625
-30.9267578125 -10.8740234375 22.197021484375
-0.311767578125 16.1746826171875 7.1531982421875
-34.16162109375 -3.4400634765625 5.2529296875
18.126953125 23.22412109375 -16.263427734375
16.349853515625 22.9744873046875 -14.162109375
9.68505859375 17.1754150390625 -8.0201416015625
12.373779296875 -9.58740234375 45.451904296875
1.771728515625 14.755615234375 10.234130859375
21.27197265625 7.9290771484375 -35.374755859375
-28.0810546875 -8.4237060546875 14.7559814453125
13.284423828125 3.8111572265625 -27.841552734375
19.39990234375 4.892822265625 -28.929931640625
-4.321533203125 22.1488037109375 -6.852783203125
12.814697265625 18.9058837890625 -2.0654296875
2.97705078125 15.4476318359375 -13.5078125
-4.880615234375 5.754150390625 -32.1480712890625
21.652587890625 7.3853759765625 -26.23095703125
-4.556884765625 4.7115478515625 -30.1324462890625
7.06884765625 2.92626953125 30.102783203125
2.561767578125 25.434814453125 -17.4818115234375
-20.695556640625 -8.9503173828125 13.5426025390625
-29.525634765625 -6.611572265625 7.859619140625
-4.998291015625 7.55126953125 32.8555908203125
11.37353515625 3.224365234375 -26.99267578125
-6.32568359375 31.2281494140625 -45.482177734375
-35.551513671875 -7.9608154296875 14.7384033203125
-5.775634765625 22.5283203125 -9.4422607421875
20.52783203125 -3.09423828125 36.224853515625
-7.419921875 30.133544921875 -44.10009765625
1.2744140625 4.7591552734375 -30.041259765625
-1.102294921875 8.266845703125 -38.745361328125
-32.673095703125 -11.8961181640625 23.822509765625
4.798095703125 13.5760498046875 -52.9744873046875
23.62939453125 -5.80126953125 36.2769775390625
-4.581298828125 3.674560546875 -26.7406005859375
16.974853515625 11.357666015625 -47.1435546875
21.55810546875 6.5645751953125 -31.4395751953125
25.84326171875 -5.7464599609375 36.8575439453125
20.022705078125 20.0072021484375 -8.1177978515625
5.28564453125 14.5546875 10.2877197265625
19.10595703125 24.1063232421875 -19.323974609375
2.515869140625 3.076904296875 32.697509765625
25.54248046875 -4.6466064453125 33.3919677734375
4.384033203125 14.37109375 -55.46728515625
17.3291015625 24.6488037109375 -20.589111328125
2.97265625 13.3861083984375 13.39306640625
-2.779541015625 8.48095703125 30.3468017578125
-2.745849609375 10.620361328125 -45.0799560546875
8.025146484375 12.806640625 18.10986328125
10.770263671875 9.246826171875 -41.5694580078125
3.092041015625 9.676513671875 -42.4407958984375
15.05517578125 19.412841796875 -4.6806640625
22.7255859375 -8.7034912109375 42.9892578125
-23.1513671875 -8.9561767578125 25.0780029296875
-13.7890625 30.187255859375 -42.759521484375
16.8828125 3.98974609375 -28.8189697265625
-30.639892578125 -7.3067626953125 11.5013427734375
3.311767578125 16.2230224609375 -58.180419921875
12.55078125 15.4403076171875 8.3768310546875
-2.982177734375 30.7786865234375 -36.4573974609375
8.0537109375 15.1190185546875 9.414306640625
-13.124267578125 -9.8392333984375 21.15087890625
22.88818359375 14.548095703125 -48.84326171875
16.263916015625 10.424560546875 32.1712646484375
5.58349609375 7.5198974609375 -37.2054443359375
13.543212890625 5.7325439453125 -32.4052734375
19.93603515625 12.26416015625 -48.2703857421875
-2.7958984375 2.31103515625 -27.9814453125
21.320556640625 11.211181640625 -43.1002197265625
4.454833984375 11.989501953125 20.8250732421875
10.273681640625 4.89453125 -30.3984375
8.380615234375 6.06884765625 37.072998046875
-4.4794921875 35.134765625 -52.4755859375
-6.4619140625 29.5343017578125 -41.7337646484375
3.14501953125 10.51513671875 -44.96533203125
2.035888671875 8.1610107421875 -38.6990966796875
23.24169921875 13.1038818359375 -20.1046142578125
23.10693359375 6.6954345703125 -28.9669189453125
24.6123046875 -6.1162109375 39.951416015625
-4.224853515625 3.443115234375 45.4912109375
-2.170166015625 12.775390625 -51.2852783203125
-0.355224609375 16.7139892578125 -59.663330078125
20.22314453125 21.992919921875 -13.9896240234375
2.56689453125 10.0887451171875 26.0784912109375
24.1826171875 13.712158203125 -14.9520263671875
-5.13134765625 8.217529296875 -38.1719970703125
12.436767578125 12.49169921875 18.949462890625
24.37255859375 9.989013671875 -24.050048828125
8.843505859375 14.0447998046875 12.141357421875
10.9736328125 10.81884765625 -45.2305908203125
6.840087890625 18.7037353515625 -2.622314453125
23.470458984375 -4.5198974609375 34.43896484375
-4.21435546875 4.2547607421875 42.8883056640625
-4.4775390625 23.333984375 -12.9356689453125
23.312255859375 14.5107421875 -18.173095703125
-4.205322265625 30.562744140625 -46.07177734375
1.543701171875 2.4603271484375 -23.70458984375
-11.71435546875 -7.148681640625 14.2156982421875
5.040283203125 5.3695068359375 35.438232421875
3.66943359375 4.9234619140625 42.3602294921875
-34.839111328125 -11.918701171875 22.84814453125
-34.435546875 -2.54541015625 24.456787109375
0.988037109375 3.990966796875 44.4427490234375
13.84033203125 8.341796875 -39.4727783203125
-2.025390625 3.502685546875 46.0765380859375
10.45166015625 3.77783203125 31.7017822265625
9.97900390625 18.12255859375 -0.6680908203125
-4.865478515625 12.7003173828125 -50.4156494140625
7.52587890625 4.280517578125 -28.5262451171875
-4.6591796875 1.74560546875 51.1229248046875
-22.88330078125 -9.1334228515625 18.435791015625
4.44580078125 1.9764404296875 27.173095703125
-4.9755859375 16.1728515625 -57.8955078125
0.222900390625 24.8575439453125 -16.1409912109375
12.520751953125 4.83056640625 -30.2369384765625
1.65869140625 18.344482421875 -10.8348388671875
1.5546875 13.0667724609375 -51.4381103515625
0.308349609375 6.7711181640625 37.01806640625
7.900634765625 18.0499267578125 -4.4044189453125
1.78466796875 4.2919921875 -27.3060302734375
-16.490966796875 -10.3375244140625 22.8812255859375
10.3056640625 24.0098876953125 -19.5330810546875
14.991455078125 25.0369873046875 -22.666015625
2.299072265625 6.049560546875 -33.20703125
19.00927734375 24.6016845703125 -23.0911865234375
6.0673828125 12.334716796875 -49.564208984375
-6.922119140625 13.9989013671875 -51.873779296875
8.77978515625 11.6893310546875 -47.4617919921875
3.344482421875 18.7891845703125 -1.31591796875
11.89990234375 21.0185546875 -10.9119873046875
16.673583984375 29.05126953125 0.4031982421875
-1.72509765625 0.763916015625 -25.9620361328125
14.300048828125 9.51953125 32.9505615234375
4.00537109375 3.6346435546875 45.8292236328125
-12.12939453125 -5.875 10.22509765625
20.841064453125 12.9356689453125 -28.8179931640625
-5.401123046875 3.0823974609375 48.1468505859375
2.84619140625 2.73291015625 -25.2806396484375
1.024169921875 19.20263671875 -3.78271484375
-12.922119140625 31.1448974609375 -46.4178466796875
15.773193359375 23.399658203125 -17.822509765625
-14.7529296875 -5.225341796875 7.4520263671875
-27.662841796875 -6.5489501953125 9.725341796875
7.50439453125 2.2451171875 26.3575439453125
11.49462890625 19.8187255859375 -5.2156982421875
-27.15869140625 -7.48388671875 13.20849609375
2.82763671875 6.0423583984375 38.5269775390625
-37.439453125 -11.1180419921875 19.7130126953125
23.97119140625 12.0904541015625 -18.16552734375
0.141845703125 7.09619140625 -35.8905029296875
12.221435546875 6.1456298828125 -33.685546875
3.085205078125 15.9593505859375 5.4638671875
2.17724609375 17.605712890625 -7.1639404296875
5.4951171875 13.439208984375 -8.482666015625
-10.543212890625 30.0540771484375 -42.23974609375
-1.555908203125 19.208740234375 -2.1270751953125
18.369873046875 7.7467041015625 -37.2073974609375
-3.6494140625 11.34912109375 20.5831298828125
-8.296630859375 -8.959716796875 14.5635986328125
3.027099609375 0.658447265625 30.4925537109375
-3.4814453125 6.981201171875 -35.8126220703125
-2.772705078125 9.5460205078125 26.7752685546875
-2.3525390625 13.149658203125 14.067626953125
-30.134521484375 -10.0106201171875 19.4630126953125
23.031982421875 -9.77685546875 46.382080078125
-4.10888671875 8.725341796875 29.185546875
-23.261474609375 -3.39111328125 29.1260986328125
-2.662353515625 31.5543212890625 -47.4949951171875
3.2734375 12.1678466796875 -49.5821533203125
14.969970703125 -11.2642822265625 47.02783203125
-0.549072265625 11.177734375 21.5418701171875
25.93603515625 -1.04931640625 29.0174560546875
2.4423828125 3.8375244140625 28.7933349609375
6.3310546875 5.0406494140625 42.8922119140625
-2.45458984375 24.7255859375 -14.8590087890625
5.25341796875 12.9854736328125 15.802001953125
5.805908203125 14.27001953125 12.4615478515625
-19.0888671875 -9.8814697265625 20.6163330078125
22.465576171875 9.341552734375 -37.7235107421875
-30.468994140625 -1.8204345703125 24.7008056640625
-36.1669921875 -5.462890625 11.397216796875
-18.16943359375 -7.428466796875 14.206298828125
23.504638671875 11.6240234375 -39.3702392578125
-10.001220703125 -11.1177978515625 21.8402099609375
-18.494140625 -3.41064453125 25.2474365234375
-26.628173828125 -10.4195556640625 22.4337158203125
0.710693359375 9.7308349609375 25.9208984375
-0.79248046875 2.95751953125 47.259033203125
2.68505859375 11.912109375 21.043212890625
17.138916015625 7.743896484375 -27.5186767578125
1.185791015625 5.927734375 34.0982666015625
-20.65966796875 -10.457763671875 18.4130859375
-28.19873046875 -5.5782470703125 5.794921875
20.43408203125 -11.1060791015625 45.1986083984375
8.46435546875 13.60400390625 14.8802490234375
16.704345703125 9.1033935546875 -40.984130859375
14.479736328125 11.3388671875 27.9541015625
-31.671875 -6.334716796875 6.8037109375
-22.806884765625 -12.1485595703125 22.703125
-27.92626953125 -2.012939453125 25.271728515625
22.146728515625 -3.0281982421875 33.9462890625
9.74560546875 4.2506103515625 -28.8187255859375
9.91748046875 4.6234130859375 33.3218994140625
24.73046875 12.56982421875 52.1531982421875
4.400146484375 18.378173828125 -4.034912109375
0.0 13.30517578125 15.496826171875
-1.041015625 7.2713623046875 34.56640625
28.149658203125 -2.166748046875 27.6751708984375
0.4736328125 11.5599365234375 -48.09228515625
-6.532470703125 34.1021728515625 -51.4266357421875
6.656005859375 5.2960205078125 40.3115234375
-2.66796875 11.6273193359375 -47.6641845703125
7.148193359375 5.232177734375 -31.4088134765625
8.224609375 14.1163330078125 -10.7579345703125
8.3681640625 7.878173828125 -37.6834716796875
10.34521484375 16.6529541015625 4.0074462890625
-4.729736328125 14.9840087890625 -56.6531982421875
-7.47509765625 7.5751953125 34.39404296875
2.9140625 22.7340087890625 -15.562744140625
21.243408203125 14.2886962890625 -51.7999267578125
-8.588134765625 32.85498046875 -49.8480224609375
18.201416015625 13.7655029296875 -53.55224609375
9.383056640625 12.971435546875 -50.67626953125
-33.296142578125 -3.5009765625 25.3214111328125
11.000732421875 5.775146484375 31.7587890625
10.58203125 6.6456298828125 35.0592041015625
-24.81982421875 -10.50439453125 24.30224609375
-16.500244140625 1.2979736328125 25.8975830078125
21.047119140625 12.572998046875 -46.65771484375
5.780029296875 2.3641357421875 26.112060546875
14.160888671875 10.9527587890625 -46.1759033203125
-5.09423828125 9.481201171875 -42.153564453125
-7.442626953125 31.1319580078125 -47.6541748046875
6.310302734375 10.410400390625 -44.9237060546875
12.571044921875 6.9859619140625 37.3245849609375
31.193359375 -2.8031005859375 30.805419921875
11.759765625 10.93359375 21.8817138671875
20.792236328125 -7.4122314453125 40.1348876953125
-1.15673828125 4.68017578125 42.081787109375
24.275390625 10.6959228515625 -21.4932861328125
-22.568359375 -10.8172607421875 16.6275634765625
7.385986328125 18.6134033203125 -0.890869140625
-37.017578125 -12.95703125 24.11328125
11.014892578125 7.78271484375 -38.4796142578125
0.888427734375 2.8724365234375 47.091064453125
-1.642822265625 1.9776611328125 50.7762451171875
22.810791015625 9.3526611328125 -24.1455078125
-1.736328125 23.095703125 -11.880126953125
-5.231201171875 14.0640869140625 -53.990478515625
-5.677490234375 6.54638671875 -33.5919189453125
-21.75537109375 -11.7177734375 24.154541015625
-9.3671875 29.94775390625 -44.7174072265625
-23.439208984375 -4.3297119140625 24.3126220703125
11.47705078125 -10.072265625 46.836669921875
6.060546875 2.12939453125 31.1832275390625
19.87890625 22.724853515625 -15.4681396484375
-14.38134765625 -8.7196044921875 17.76220703125
-14.14794921875 -11.6226806640625 24.486328125
-20.5849609375 -5.6417236328125 26.70068359375
21.906982421875 18.68994140625 -8.5301513671875
-23.0654296875 -3.81884765625 27.512451171875
-10.668701171875 -5.693359375 6.1917724609375
-25.75830078125 -12.8792724609375 24.4158935546875
5.607666015625 2.841064453125 34.4892578125
-1.797119140625 20.62744140625 -4.1693115234375
17.32080078125 -10.941650390625 42.238037109375
-37.746337890625 -9.1986083984375 16.4898681640625
0.986083984375 5.060791015625 40.5430908203125
18.355712890625 26.2598876953125 -26.15234375
15.27880859375 26.828125 -25.8797607421875
-5.01708984375 4.231201171875 -28.6063232421875
-36.575927734375 -10.789306640625 24.0867919921875
5.0859375 10.297607421875 23.6146240234375
-2.78564453125 4.5897216796875 -29.8948974609375
6.554931640625 0.47900390625 32.2225341796875
-31.437255859375 -6.572998046875 10.1942138671875
-14.41796875 -2.56396484375 25.8851318359375
-34.186279296875 -7.89208984375 15.8116455078125
17.17333984375 21.772216796875 -10.3846435546875
12.37744140625 11.757080078125 -48.9139404296875
-1.45068359375 9.600341796875 -42.2406005859375
9.041259765625 0.444091796875 30.688232421875
3.097412109375 6.71826171875 27.412109375
3.472900390625 13.14013671875 15.1162109375
-16.46533203125 -9.04833984375 24.727294921875
-5.8515625 10.137939453125 24.470458984375
7.492919921875 -11.23486328125 49.0391845703125
14.70166015625 7.8642578125 -38.099365234375
12.5947265625 -1.560791015625 40.6226806640625
-23.915771484375 -7.0361328125 10.203857421875
-9.900146484375 -7.7913818359375 12.0120849609375
-3.968994140625 11.308349609375 22.3453369140625
8.684814453125 17.0257568359375 4.5794677734375
-33.4951171875 -5.6646728515625 8.5823974609375
0.7841796875 19.38232421875 -7.809814453125
-1.32861328125 5.5103759765625 -31.6728515625
-34.2158203125 -11.5401611328125 24.352783203125
15.83203125 6.0975341796875 -33.7137451171875
-10.593017578125 31.79052734375 -48.331787109375
-2.655517578125 5.921142578125 -32.9456787109375
-1.25537109375 12.013427734375 -48.4326171875
16.708984375 4.599609375 -27.147705078125
0.232666015625 21.9041748046875 -11.873046875
-8.037841796875 31.205078125 -37.2752685546875
-11.9755859375 30.110107421875 -42.991455078125
0.0302734375 15.742431640625 -57.09716796875
15.62939453125 4.5269775390625 -29.6820068359375
-17.2548828125 -9.43505859375 21.15087890625
2.030029296875 6.6533203125 37.26611328125
2.629638671875 14.2801513671875 11.529052734375
20.119873046875 -10.0394287109375 41.8096923828125
12.451904296875 26.09375 -23.4954833984375
6.59814453125 3.848388671875 45.10791015625
12.685546875 23.0050048828125 -14.15478515625
-12.932373046875 -4.1263427734375 5.3060302734375
12.66552734375 24.0848388671875 -18.94287109375
22.797607421875 7.8604736328125 -32.3826904296875
1.9462890625 7.1712646484375 -36.1590576171875
-5.98681640625 2.505615234375 -23.5955810546875
-0.90234375 8.34912109375 32.6983642578125
22.9111328125 12.0977783203125 -44.017578125
-3.8193359375 7.838134765625 -37.3475341796875
-25.161865234375 -2.846923828125 25.092529296875
13.227783203125 -3.9815673828125 40.891845703125
-25.00634765625 -8.503173828125 16.488525390625
-26.611328125 -9.1822509765625 19.305908203125
6.425537109375 15.9852294921875 -11.3802490234375
17.035888671875 12.0042724609375 -49.1793212890625
5.017822265625 17.6243896484375 -5.294189453125
-36.437744140625 -2.9981689453125 21.8544921875
12.3271484375 17.6346435546875 2.691650390625
11.96044921875 11.345703125 -46.4334716796875
-31.7158203125 -10.1536865234375 20.9205322265625
17.251708984375 24.962158203125 -1.574951171875
-8.9462890625 9.2747802734375 26.6727294921875
5.89013671875 14.5616455078125 -13.686767578125
-25.48828125 -3.781982421875 23.62353515625
5.015625 17.4521484375 1.8494873046875
5.405029296875 5.7462158203125 -32.65283203125
8.7666015625 13.79248046875 -8.0819091796875
-0.927001953125 9.2548828125 29.166748046875
19.51806640625 9.2301025390625 -40.49169921875
10.443359375 4.838623046875 40.3826904296875
18.671630859375 19.4173583984375 -5.1317138671875
4.44921875 9.4576416015625 -41.6578369140625
-27.313720703125 -3.4776611328125 26.28369140625
3.5009765625 1.6341552734375 33.6466064453125
-2.8076171875 9.81884765625 -43.0225830078125
6.7080078125 4.909423828125 -29.9185791015625
6.3408203125 16.076416015625 6.8070068359375
13.819091796875 4.4542236328125 -29.41943359375
22.075439453125 10.6317138671875 -27.5186767578125
22.946044921875 10.6058349609375 -20.397216796875
-18.640380859375 -10.7706298828125 23.62353515625
-35.3740234375 -6.7730712890625 23.6468505859375
19.933837890625 4.81396484375 -27.1824951171875
0.68359375 8.3785400390625 -39.47802734375
28.289794921875 -4.20166015625 33.4388427734375
12.7578125 18.0137939453125 0.7899169921875
14.059814453125 4.7318115234375 -26.8245849609375
28.554931640625 -3.775634765625 35.857421875
8.5869140625 14.362548828125 -13.09375
-6.861328125 31.988037109375 -48.91064453125
-5.95654296875 3.3084716796875 -26.0189208984375
16.35693359375 -10.3778076171875 44.72119140625
-2.60400390625 0.7640380859375 53.4906005859375
11.9931640625 20.5772705078125 -7.678466796875
20.544189453125 20.7696533203125 -10.5985107421875
7.140625 9.0562744140625 -40.5562744140625
7.66015625 16.8504638671875 3.41259765625
18.69482421875 10.1502685546875 -43.3734130859375
11.010009765625 12.419921875 17.8280029296875
2.53564453125 12.16162109375 17.997314453125
-12.1083984375 30.3231201171875 -45.37255859375
18.34716796875 -10.366455078125 49.404052734375
-0.648681640625 6.1220703125 38.0576171875
-2.5625 15.92236328125 -55.3731689453125
-1.274658203125 0.18310546875 -23.6624755859375
22.5478515625 -7.602783203125 49.0203857421875
16.426025390625 19.153076171875 -3.45556640625
-7.120361328125 9.4381103515625 27.2886962890625
4.145263671875 1.6943359375 30.203857421875
10.550537109375 18.693115234375 -8.0006103515625
11.76708984375 16.52392578125 5.6258544921875
28.868408203125 -2.9200439453125 28.9779052734375
-20.759033203125 -8.326416015625 10.911376953125
10.104736328125 11.106201171875 22.90478515625
-29.107666015625 -12.7877197265625 23.9713134765625
9.59130859375 6.9388427734375 -35.79248046875
1.667236328125 14.0506591796875 -53.5880126953125
-9.527587890625 -6.6859130859375 7.522705078125
-9.92919921875 -9.10595703125 16.0452880859375
-2.108154296875 22.872802734375 -9.981689453125
8.918212890625 5.06884765625 42.609375
18.953857421875 5.29541015625 -30.7724609375
-16.50244140625 -6.19580078125 9.9755859375
27.830322265625 -3.73486328125 30.4830322265625
-0.36376953125 1.4976806640625 -21.88671875
13.331298828125 12.19287109375 27.091552734375
17.41162109375 12.033203125 29.232421875
-2.652587890625 8.501220703125 32.0244140625
-5.288818359375 10.022216796875 26.55908203125
-6.750244140625 8.7618408203125 28.630126953125
-38.36962890625 -9.8551025390625 20.41845703125
1.8447265625 4.3558349609375 43.0521240234375
9.390625 -9.2115478515625 43.677734375
-30.78125 -1.997802734375 26.43505859375
14.859130859375 12.84423828125 -50.95703125
5.47607421875 6.41748046875 37.7626953125
-3.94287109375 13.06396484375 -51.5748291015625
-6.225830078125 5.5439453125 -31.4610595703125
-22.268798828125 -9.351318359375 10.8760986328125
11.145751953125 15.0567626953125 9.055419921875
-14.779052734375 -6.9178466796875 12.4371337890625
-27.085205078125 -8.465087890625 16.7315673828125
9.453125 15.5023193359375 8.7369384765625
15.390380859375 9.4873046875 -41.81884765625
1.398193359375 11.0037841796875 -45.7701416015625
17.02490234375 8.1998291015625 -38.96337890625
-23.446044921875 -7.76123046875 12.8101806640625
14.38525390625 22.09033203125 -12.3607177734375
-18.410888671875 -3.7293701171875 5.478515625
12.69970703125 23.753662109375 -17.0491943359375
-39.102783203125 -12.19384765625 22.169677734375
1.747802734375 5.9078369140625 29.8143310546875
20.90380859375 -4.8115234375 36.433349609375
-3.9921875 9.6182861328125 27.754638671875
-27.925537109375 -10.0159912109375 20.859130859375
13.340576171875 9.5068359375 31.7818603515625
16.962646484375 20.115966796875 -6.4080810546875
-12.175537109375 -3.7266845703125 25.4031982421875
-24.087646484375 -4.033935546875 4.9686279296875
7.635498046875 5.175537109375 36.021728515625
21.443359375 -6.36767578125 38.6748046875
8.90185546875 5.546142578125 40.4517822265625
3.440185546875 15.5836181640625 -7.3426513671875
-26.476318359375 -5.7279052734375 6.458251953125
-17.310302734375 -8.8145751953125 18.54638671875
-19.63623046875 -9.434326171875 17.68603515625
-22.599853515625 -9.87451171875 13.5318603515625
1.91162109375 2.841552734375 31.11865234375
-22.61181640625 -8.7296142578125 15.4068603515625
11.086669921875 12.2764892578125 19.57568359375
8.3359375 11.9544677734375 19.5174560546875
-14.888916015625 -9.8109130859375 20.10595703125
6.14697265625 11.7462158203125 20.6700439453125
22.7490234375 12.868408203125 -27.2364501953125
-3.3408203125 29.9476318359375 -38.5313720703125
30.4423828125 0.321533203125 23.6226806640625
22.799072265625 6.5535888671875 -25.73388671875
17.769287109375 -10.394775390625 47.0233154296875
-24.2529296875 -9.3797607421875 17.81201171875
-16.42333984375 -4.9534912109375 7.17919921875
-0.4736328125 12.3865966796875 18.3104248046875
-19.544921875 2.4495849609375 27.3172607421875
-4.80126953125 7.4705810546875 35.7969970703125
0.9853515625 23.850830078125 -14.6549072265625
4.44873046875 12.6859130859375 18.1153564453125
-6.399169921875 10.0631103515625 -43.4971923828125
-2.4775390625 8.519775390625 -39.9847412109375
2.8662109375 7.5230712890625 -37.284423828125
7.0859375 16.944091796875 -5.412353515625
2.038330078125 16.5965576171875 -11.8480224609375
2.612548828125 2.72265625 47.7550048828125
14.90673828125 -9.13330078125 43.070556640625
0.5283203125 2.2867431640625 -24.860595703125
-19.2119140625 -6.3946533203125 8.6558837890625
1.420654296875 2.363525390625 50.405517578125
20.27490234375 -9.3623046875 48.2569580078125
-20.854736328125 -7.8499755859375 8.302001953125
11.372802734375 -10.748046875 48.1575927734375
-25.13330078125 -10.8963623046875 21.5146484375
-13.7724609375 32.4930419921875 -49.48974609375
0.1298828125 19.7286376953125 -5.5643310546875
-32.697509765625 -5.3173828125 7.147216796875
30.510498046875 -2.6385498046875 33.3798828125
11.10595703125 13.03515625 -52.7974853515625
0.138427734375 2.5682373046875 49.6898193359375
10.77490234375 -11.7940673828125 49.979248046875
-22.460205078125 -7.6387939453125 8.879638671875
7.5419921875 13.615234375 -53.3795166015625
9.698486328125 18.41455078125 -6.0443115234375
-25.570068359375 -8.23095703125 13.99658203125
-10.3447265625 33.7677001953125 -51.2696533203125
-36.9169921875 -8.029541015625 13.6651611328125
-11.7861328125 33.33984375 -50.4747314453125
-31.35009765625 -11.8001708984375 24.4725341796875
22.816650390625 11.38427734375 -18.7567138671875
-27.48828125 -8.90185546875 18.111328125
-29.677734375 -9.2802734375 18.0277099609375
6.542724609375 18.336181640625 1.0450439453125
-8.954833984375 7.416259765625 32.4759521484375
18.422119140625 11.7454833984375 -47.91552734375
-34.23876953125 -8.7232666015625 17.224365234375
19.129638671875 -11.0550537109375 44.51416015625
10.078125 -10.2884521484375 45.7919921875
-36.01220703125 -13.77197265625 23.319580078125
0.87890625 1.4169921875 52.2264404296875
2.214599609375 13.013427734375 16.5880126953125
4.08447265625 5.6966552734375 -32.0091552734375
1.50390625 21.839111328125 -12.9234619140625
-15.50390625 -3.3682861328125 25.3106689453125
4.528076171875 3.5601806640625 47.443359375
3.33740234375 6.884765625 -34.46630859375
-22.700439453125 -11.1802978515625 21.2772216796875
-34.616943359375 -10.568603515625 22.1668701171875
4.298828125 2.998046875 -24.6485595703125
-13.185302734375 -5.95263671875 7.8275146484375
22.79638671875 11.0093994140625 -40.49169921875
-37.53955078125 -12.2291259765625 21.166748046875
1.472900390625 18.8192138671875 -2.42431640625
-20.7119140625 -9.48486328125 14.9017333984375
-9.716552734375 31.09765625 -46.8548583984375
-3.9794921875 30.655029296875 -43.307861328125
-10.239013671875 -10.0726318359375 20.851806640625
-6.86474609375 9.13330078125 -40.4451904296875
9.27392578125 12.19384765625 -49.0562744140625
23.78076171875 14.36572265625 -24.99951171875
-2.623779296875 1.0654296875 -27.2490234375
-0.04443359375 15.183837890625 8.1849365234375
3.70068359375 5.744140625 39.732421875
13.01416015625 13.0045166015625 -51.6676025390625
14.056640625 -7.0234375 40.401611328125
13.4296875 -6.6768798828125 42.4820556640625
13.9140625 0.26318359375 39.8076171875
5.140380859375 17.4659423828125 3.6007080078125
20.378173828125 11.604248046875 -45.3790283203125
12.19384765625 9.392333984375 -41.3486328125
17.635986328125 5.708251953125 -32.0518798828125
3.749755859375 11.5113525390625 -46.7012939453125
-5.29638671875 32.94189453125 -49.8626708984375
-1.555908203125 -0.474853515625 -25.236083984375
-3.37646484375 14.108642578125 -53.8067626953125
-20.6875 -12.2451171875 23.296142578125
3.08984375 13.0816650390625 -9.4349365234375
1.02392578125 5.749267578125 32.4564208984375
9.565673828125 10.6356201171875 -44.983154296875
-2.425537109375 6.1175537109375 37.4144287109375
21.881591796875 -10.741455078125 46.2218017578125
-21.4208984375 -7.755126953125 6.2410888671875
-35.0478515625 -9.7398681640625 20.00048828125
3.257568359375 11.7257080078125 -48.07275390625
-2.068115234375 4.1932373046875 43.0806884765625
-4.063720703125 10.3721923828125 24.2259521484375
6.682373046875 3.4345703125 28.7991943359375
14.9228515625 13.7386474609375 -54.0078125
-14.863037109375 -6.4368896484375 9.822021484375
20.018798828125 19.4786376953125 -5.7606201171875
2.74951171875 1.843505859375 28.2318115234375
-6.6064453125 13.840087890625 -53.26416015625
4.689208984375 16.2099609375 8.2994384765625
-24.24365234375 -10.2935791015625 20.4718017578125
15.217041015625 -9.085693359375 40.976806640625
1.7587890625 4.5545654296875 -28.710693359375
-5.799072265625 30.8052978515625 -37.0130615234375
21.7431640625 14.0321044921875 -49.9368896484375
7.3251953125 10.857421875 21.97509765625
10.427490234375 6.0364990234375 -32.9608154296875
11.766845703125 -8.415771484375 44.1317138671875
-2.211181640625 11.2484130859375 -46.2452392578125
-4.507568359375 10.9072265625 -45.36767578125
-0.7275390625 17.8739013671875 1.5865478515625
-4.449951171875 31.065185546875 -44.7598876953125
9.63427734375 14.26318359375 -10.5225830078125
-0.70166015625 13.7767333984375 -53.6336669921875
16.4365234375 18.871337890625 -2.0596923828125
8.21142578125 18.929931640625 -3.2843017578125
-0.994384765625 32.68896484375 -34.8701171875
20.19189453125 10.426025390625 -42.7354736328125
-2.680908203125 19.97607421875 -1.6981201171875
