7.276123046875 18.9798583984375 -18.6009521484375
8.862548828125 9.243896484375 -34.9561767578125
10.935791015625 8.4222412109375 27.630126953125
-18.7119140625 -4.076171875 9.0435791015625
7.713134765625 -8.183349609375 40.9578857421875
-37.72119140625 -5.830078125 11.90869140625
-26.265869140625 -5.4876708984375 15.28125
-5.277587890625 10.1171875 -37.525390625
-2.61767578125 36.580810546875 -51.6856689453125
5.80029296875 8.388916015625 37.2418212890625
-1.0244140625 37.6099853515625 -52.6439208984375
-25.7900390625 1.8531494140625 19.5330810546875
2.1767578125 20.7579345703125 -59.091796875
1.902099609375 14.168701171875 -46.904296875
5.256103515625 -9.2418212890625 46.763427734375
8.158203125 -10.400146484375 49.5357666015625
-0.1708984375 18.0167236328125 -56.597900390625
5.50537109375 18.7073974609375 -58.019775390625
0.55078125 17.4698486328125 8.2926025390625
22.07080078125 14.7711181640625 -46.86083984375
10.585693359375 15.727294921875 15.531005859375
20.848388671875 -5.227294921875 37.161865234375
4.684326171875 3.9818115234375 29.7880859375
2.300048828125 4.0205078125 27.0074462890625
2.011962890625 15.5362548828125 -50.0888671875
10.65673828125 13.86865234375 -46.5596923828125
-8.921630859375 -6.030517578125 12.1939697265625
-22.84521484375 -9.2962646484375 19.3997802734375
1.042236328125 18.822998046875 4.4102783203125
29.10205078125 -0.171630859375 26.183837890625
11.9736328125 13.2105712890625 -45.1572265625
20.533447265625 18.1324462890625 -56.057373046875
-4.280517578125 11.6363525390625 -41.2664794921875
16.447021484375 22.8955078125 -6.2491455078125
5.16796875 20.2728271484375 -61.7430419921875
9.13671875 19.0018310546875 -11.493896484375
-11.97021484375 -0.4686279296875 1.5216064453125
-1.775634765625 24.537841796875 -8.6109619140625
5.744384765625 -9.801513671875 49.6934814453125
-22.652099609375 -1.4122314453125 1.61279296875
7.296142578125 17.586181640625 -55.106689453125
14.34033203125 13.592529296875 -46.0286865234375
-0.638671875 15.4183349609375 17.2159423828125
-3.0400390625 7.985107421875 38.16796875
-12.882080078125 -2.59619140625 7.2547607421875
21.371337890625 17.0509033203125 -53.0294189453125
22.8720703125 13.686279296875 53.909423828125
21.3125 -2.3302001953125 32.0247802734375
4.365966796875 6.8267822265625 41.0233154296875
-33.103515625 -4.3436279296875 12.8348388671875
9.84228515625 -6.34912109375 40.086669921875
11.70263671875 -8.9921875 45.697021484375
-34.04052734375 -0.1990966796875 18.1956787109375
-2.16015625 9.161865234375 34.478271484375
13.20703125 10.990478515625 -38.705078125
8.9814453125 8.540283203125 31.2860107421875
24.487060546875 12.9805908203125 -37.36474609375
16.54345703125 26.498779296875 -18.9952392578125
-18.715087890625 -2.5445556640625 4.86279296875
-1.2294921875 34.6492919921875 -46.0831298828125
9.73779296875 19.1639404296875 3.837890625
7.186279296875 16.1480712890625 -51.400634765625
17.995849609375 8.451904296875 -32.686279296875
-20.9033203125 -7.9837646484375 18.9664306640625
-3.53369140625 17.223876953125 8.7821044921875
-17.30615234375 -2.9686279296875 7.384765625
6.376953125 22.1461181640625 -9.0693359375
13.179931640625 20.6610107421875 1.8280029296875
-26.373291015625 -3.427001953125 8.914306640625
-36.057861328125 0.15673828125 3.7015380859375
11.605712890625 9.2857666015625 -35.311279296875
16.957275390625 13.1181640625 26.31982421875
-5.667724609375 15.9234619140625 -48.71630859375
-3.227294921875 12.7835693359375 -43.086181640625
-5.489990234375 13.3065185546875 -44.322265625
6.11962890625 17.698974609375 9.434814453125
3.016845703125 21.817626953125 -64.2791748046875
-10.508544921875 -2.7711181640625 4.416015625
-32.836669921875 -3.605712890625 9.23876953125
9.46044921875 21.775146484375 -2.9598388671875
-0.272216796875 9.812255859375 -36.70458984375
17.269775390625 10.712158203125 -39.151123046875
-21.05859375 -7.0692138671875 14.5654296875
6.93994140625 5.92236328125 30.1383056640625
-26.2392578125 -0.090087890625 18.621826171875
8.135986328125 22.7801513671875 -5.739501953125
0.73583984375 22.7374267578125 -6.2567138671875
14.400146484375 -7.9710693359375 43.2156982421875
14.2158203125 22.0543212890625 -1.7261962890625
4.156494140625 7.5716552734375 -30.7532958984375
16.385498046875 -8.341552734375 41.8109130859375
-4.061767578125 21.0277099609375 -62.139892578125
3.4814453125 21.6519775390625 -2.716552734375
14.215576171875 13.2283935546875 25.2659912109375
-5.379638671875 2.8343505859375 51.7734375
-5.8037109375 8.6737060546875 -33.8887939453125
2.645263671875 -10.3382568359375 50.05078125
-0.407470703125 21.2122802734375 -64.120849609375
3.97216796875 9.2509765625 33.4205322265625
-3.393798828125 18.3594970703125 -57.2083740234375
12.03857421875 20.5635986328125 -1.201416015625
18.44921875 25.8402099609375 -15.828857421875
15.9501953125 28.6795654296875 -22.191650390625
2.282958984375 6.4453125 24.907470703125
-2.631591796875 13.230224609375 21.3028564453125
13.1142578125 14.883544921875 -48.5494384765625
3.239013671875 17.017822265625 9.4195556640625
15.047607421875 23.5555419921875 -8.9710693359375
15.24951171875 14.5125732421875 22.321533203125
16.0791015625 25.378662109375 -14.5303955078125
0.068359375 14.3062744140625 -47.1688232421875
-0.17724609375 11.703125 -41.810791015625
1.16162109375 23.4906005859375 -9.1964111328125
14.47119140625 10.1683349609375 -37.273193359375
-35.66064453125 -8.9356689453125 17.7628173828125
4.800537109375 7.4610595703125 38.7540283203125
7.77978515625 12.9676513671875 -44.5537109375
7.420654296875 15.8900146484375 14.9521484375
-17.6279296875 -5.437255859375 15.6138916015625
24.025390625 14.1558837890625 -26.91796875
9.4638671875 20.8662109375 0.390625
1.13330078125 16.9378662109375 11.89111328125
-2.643310546875 36.07763671875 -43.8670654296875
0.60107421875 14.1153564453125 19.943603515625
7.048828125 -5.5306396484375 40.6737060546875
6.174072265625 22.7315673828125 -7.333740234375
5.718994140625 10.0799560546875 -37.0689697265625
11.557373046875 16.911376953125 12.111572265625
-21.32763671875 -5.5159912109375 7.0184326171875
-3.62646484375 14.127197265625 -46.6407470703125
-5.716064453125 7.70751953125 -29.5565185546875
15.21044921875 -8.9691162109375 39.486083984375
-10.49462890625 -5.760009765625 13.6072998046875
13.667724609375 15.166748046875 23.267333984375
11.7314453125 -9.8511962890625 49.5478515625
29.2353515625 2.8118896484375 21.80419921875
11.362060546875 15.9388427734375 -50.9505615234375
3.724609375 19.52685546875 -11.885986328125
-1.2421875 8.2294921875 37.9578857421875
8.307861328125 4.4365234375 22.857421875
1.8154296875 6.49853515625 -27.928466796875
-28.32763671875 -2.260986328125 3.2943115234375
-35.089111328125 -0.6956787109375 6.787353515625
6.9208984375 18.390625 -56.6973876953125
-2.887939453125 11.329833984375 -39.9798583984375
11.39892578125 10.14697265625 28.19970703125
30.6484375 -0.002197265625 29.028076171875
21.624267578125 -6.7613525390625 42.3624267578125
-12.180419921875 0.12255859375 20.52001953125
22.75244140625 -3.83740234375 33.3758544921875
-22.67529296875 -3.1224365234375 22.1693115234375
-6.044677734375 35.5693359375 -50.0157470703125
-29.539794921875 -3.64501953125 7.5863037109375
26.679443359375 -0.95263671875 26.5487060546875
10.226318359375 9.3553466796875 33.646728515625
22.32861328125 12.958251953125 -42.216064453125
-13.33251953125 -4.4366455078125 12.3927001953125
19.312255859375 12.0985107421875 -42.0823974609375
-30.6357421875 -7.6141357421875 19.1043701171875
-21.52392578125 -0.115478515625 23.6912841796875
21.992919921875 -5.047119140625 40.8399658203125
-4.384765625 8.541015625 36.0780029296875
22.8642578125 12.810302734375 -40.3800048828125
5.0009765625 -7.54541015625 43.2349853515625
-14.011474609375 -8.2081298828125 19.964111328125
7.062744140625 3.395751953125 27.9073486328125
11.654541015625 10.508544921875 30.7354736328125
-3.17626953125 5.34619140625 44.5010986328125
-1.690185546875 12.7642822265625 23.4697265625
-1.164794921875 16.6201171875 -52.7813720703125
6.133544921875 19.659912109375 2.79296875
17.049072265625 -8.9476318359375 48.1038818359375
-21.150146484375 -5.654541015625 20.7242431640625
0.71826171875 20.2901611328125 1.473388671875
-5.8623046875 13.651123046875 18.499755859375
19.295654296875 15.6280517578125 -50.0194091796875
16.652099609375 13.13232421875 28.5428466796875
7.53466796875 14.8404541015625 -48.28125
-22.540771484375 -6.924560546875 11.709716796875
-30.4140625 -4.5753173828125 9.578857421875
21.21630859375 -7.2431640625 44.987060546875
2.16943359375 8.146240234375 30.298583984375
5.56689453125 19.4061279296875 -59.6478271484375
-18.06103515625 -5.101318359375 20.301513671875
-7.44970703125 11.75 20.7303466796875
12.835205078125 17.203369140625 9.688232421875
-33.74267578125 -2.4459228515625 6.106201171875
7.356201171875 -8.45947265625 43.1234130859375
10.596435546875 18.0557861328125 7.0921630859375
-17.56298828125 5.4442138671875 21.079833984375
6.96484375 8.8575439453125 33.1761474609375
-3.103515625 10.149658203125 30.5418701171875
9.890625 11.1444091796875 -40.64013671875
-0.93896484375 6.6378173828125 41.1368408203125
1.77734375 6.430419921875 43.034912109375
4.65771484375 -9.1458740234375 43.8912353515625
24.507568359375 -2.915283203125 36.48828125
20.661376953125 10.954833984375 -37.78369140625
-3.357177734375 19.140869140625 5.287353515625
27.295166015625 -1.5052490234375 32.164794921875
2.8896484375 16.910400390625 11.2607421875
-1.329833984375 23.5675048828125 -5.728271484375
12.398193359375 24.1148681640625 -16.1500244140625
18.078369140625 -8.676513671875 42.5294189453125
5.3623046875 17.0860595703125 -54.2421875
8.072265625 19.5347900390625 -15.5999755859375
-14.651611328125 -3.2861328125 8.87841796875
23.854736328125 14.57275390625 51.5723876953125
2.254638671875 8.4906005859375 36.717041015625
10.65185546875 18.9454345703125 -16.2379150390625
-30.41162109375 -2.940185546875 5.824951171875
3.358642578125 -10.080078125 47.048583984375
-0.314697265625 17.17919921875 9.777587890625
-36.231201171875 -5.773681640625 14.2919921875
23.40234375 12.453369140625 -29.685302734375
-33.2568359375 -1.4512939453125 4.5628662109375
-27.73681640625 -3.302490234375 7.75048828125
0.44970703125 4.437255859375 49.3525390625
-14.07080078125 -4.2279052734375 19.30126953125
2.966552734375 11.78564453125 23.1380615234375
14.07080078125 23.820068359375 -10.75048828125
0.11865234375 10.9671630859375 29.66162109375
-1.28466796875 23.1693115234375 -3.833740234375
-12.541748046875 -6.80859375 18.2921142578125
1.90380859375 20.0931396484375 -60.77587890625
-26.796142578125 -4.5509033203125 11.7474365234375
-25.551513671875 -7.1688232421875 17.6285400390625
10.998046875 22.502685546875 -3.272216796875
11.121337890625 -7.07666015625 42.580078125
-3.97265625 8.2139892578125 -32.1773681640625
-16.010986328125 -6.89892578125 18.2542724609375
-23.83837890625 -5.8577880859375 19.7703857421875
18.498779296875 16.8780517578125 -53.080322265625
-33.153076171875 -5.26708984375 14.288818359375
13.4609375 18.111572265625 -56.066162109375
-27.265625 -8.037353515625 19.6607666015625
7.28515625 22.6524658203125 -4.249267578125
11.625732421875 28.636474609375 -23.537353515625
13.339599609375 12.946044921875 26.714599609375
5.8251953125 21.1351318359375 -0.15966796875
4.960205078125 12.5228271484375 -43.610107421875
3.462890625 20.85498046875 -0.2955322265625
16.792236328125 -7.6456298828125 45.4608154296875
9.768798828125 4.0645751953125 26.2322998046875
-4.853271484375 12.2716064453125 24.311767578125
-12.0078125 -1.765380859375 4.82861328125
17.24755859375 14.498779296875 -48.0465087890625
-15.938232421875 -0.4190673828125 1.0888671875
-21.799560546875 2.3037109375 25.044677734375
0.125732421875 6.840087890625 43.142822265625
-18.92333984375 0.02392578125 0.9051513671875
-24.387451171875 -4.4564208984375 9.31494140625
-24.774658203125 -6.2733154296875 14.403564453125
-35.332275390625 -3.927001953125 10.8642578125
16.487548828125 12.21240234375 -43.1488037109375
0.762939453125 4.833984375 46.3096923828125
6.470947265625 7.93798828125 -31.586669921875
0.991455078125 27.3936767578125 -17.8138427734375
-2.538330078125 17.109130859375 -54.145263671875
-27.822265625 1.6905517578125 21.494140625
19.6865234375 23.0771484375 -7.111083984375
-6.3251953125 37.22314453125 -52.335693359375
2.74072265625 22.6466064453125 -10.12353515625
0.40869140625 26.2056884765625 -15.6435546875
24.03759765625 14.537109375 -44.236083984375
15.743408203125 17.2896728515625 -53.7750244140625
-2.573974609375 21.6470947265625 -62.9940185546875
5.296142578125 15.2607421875 -48.5687255859375
22.311767578125 -4.2379150390625 35.1812744140625
-4.0068359375 15.42578125 -49.73876953125
10.02587890625 20.7569580078125 -11.498291015625
-2.03662109375 17.923095703125 -56.3232421875
-30.688232421875 -6.1185302734375 15.023681640625
16.736572265625 28.811767578125 -25.1253662109375
-35.624755859375 -1.8045654296875 7.921142578125
5.06005859375 13.6541748046875 -46.24609375
-4.82373046875 35.5963134765625 -46.3414306640625
14.089599609375 11.3302001953125 -40.758056640625
-28.494873046875 -6.083984375 15.630126953125
16.009033203125 15.8504638671875 -51.0638427734375
-1.226806640625 15.4207763671875 -49.633544921875
-3.1181640625 35.0909423828125 -47.390625
3.989501953125 22.4644775390625 -4.750732421875
5.564453125 14.8074951171875 17.9857177734375
4.447998046875 11.452392578125 -40.4862060546875
8.394775390625 20.8330078125 -1.75146484375
9.455322265625 -7.076416015625 43.5809326171875
-32.4580078125 -3.047607421875 7.3699951171875
6.670654296875 21.2606201171875 -1.6387939453125
19.0009765625 13.3941650390625 -45.1741943359375
1.78857421875 29.426513671875 -19.7366943359375
-31.445556640625 -6.6109619140625 17.3209228515625
-31.99169921875 -4.2615966796875 10.5545654296875
10.81884765625 10.4439697265625 -37.804443359375
8.585693359375 5.5589599609375 29.592041015625
9.209228515625 17.5693359375 -54.40869140625
-3.391845703125 16.0775146484375 14.3011474609375
8.181396484375 14.515869140625 17.7568359375
-1.61572265625 14.133056640625 20.173583984375
12.74609375 24.8375244140625 -13.569091796875
-3.12255859375 23.4769287109375 -63.4378662109375
-2.32568359375 6.9122314453125 -30.2445068359375
8.728515625 16.6265869140625 11.571533203125
8.292236328125 -9.49658203125 48.1688232421875
2.05810546875 22.33154296875 -12.2698974609375
18.286865234375 15.657958984375 -51.3109130859375
-0.352294921875 19.9388427734375 -59.001708984375
12.228759765625 29.902587890625 -26.233154296875
11.747802734375 23.5977783203125 -9.9786376953125
1.096435546875 29.1090087890625 -21.91455078125
-5.619140625 17.1229248046875 -51.8577880859375
4.86669921875 21.9346923828125 -10.2249755859375
4.501953125 17.570556640625 -13.852783203125
18.0732421875 9.4456787109375 -35.7012939453125
16.343017578125 29.7574462890625 -27.6376953125
18.859130859375 11.49658203125 -31.6722412109375
-28.177490234375 -7.459228515625 17.538818359375
9.061279296875 16.5247802734375 -52.690673828125
11.14208984375 18.41455078125 -56.7906494140625
2.945556640625 25.7850341796875 -17.7021484375
-19.630126953125 -1.947265625 2.678955078125
4.778564453125 7.7564697265625 30.956298828125
-9.002197265625 -7.4503173828125 15.456298828125
8.782958984375 18.540283203125 -57.461181640625
16.091064453125 8.2491455078125 -32.8604736328125
-0.364501953125 11.7596435546875 26.5457763671875
-17.80517578125 -7.682373046875 19.431884765625
23.220947265625 11.638427734375 -36.8798828125
-35.361572265625 -6.2657470703125 15.561767578125
9.11181640625 21.9715576171875 -8.891357421875
4.124267578125 4.4727783203125 26.3189697265625
22.8505859375 10.4937744140625 -30.0849609375
-8.2060546875 8.3681640625 20.48291015625
-11.1982421875 -3.7613525390625 9.8795166015625
2.52880859375 6.421142578125 41.2545166015625
19.240478515625 -8.8021240234375 40.75146484375
-2.06591796875 8.856689453125 -33.0299072265625
-3.263916015625 19.930419921875 -60.510009765625
7.9140625 19.9166259765625 1.1927490234375
21.912841796875 -4.7740478515625 38.269287109375
1.931396484375 15.7818603515625 14.224365234375
8.83349609375 16.307861328125 14.287353515625
-24.53564453125 1.2923583984375 20.3521728515625
16.44970703125 14.95166015625 25.2188720703125
8.88720703125 14.9727783203125 -49.4310302734375
-15.88623046875 -4.9613037109375 14.4837646484375
-0.175537109375 -11.824462890625 51.319091796875
-20.008056640625 1.6441650390625 21.9598388671875
2.70263671875 5.2943115234375 28.5020751953125
12.0244140625 18.479736328125 6.4114990234375
6.0390625 16.8011474609375 11.385498046875
-27.345947265625 -2.53662109375 5.4014892578125
-1.423828125 6.0621337890625 -27.4254150390625
1.279541015625 8.5023193359375 29.0374755859375
-3.53076171875 6.5394287109375 -26.8231201171875
-2.08544921875 19.3834228515625 3.3052978515625
24.214599609375 11.279296875 -34.13525390625
-11.874755859375 -8.04150390625 19.2818603515625
-20.5947265625 -4.076416015625 7.0960693359375
-17.6669921875 -3.6217041015625 10.137939453125
-5.01416015625 13.8770751953125 -45.928466796875
-12.58544921875 1.1295166015625 0.4036865234375
4.587890625 15.1103515625 15.8265380859375
2.544677734375 15.7000732421875 16.832275390625
12.3505859375 -6.3485107421875 38.5748291015625
10.791259765625 22.2554931640625 -5.482421875
17.1982421875 13.7064208984375 -45.490234375
1.84814453125 7.4769287109375 -30.9000244140625
2.616943359375 21.574462890625 -14.929443359375
2.593505859375 19.3736572265625 -14.4639892578125
1.345703125 9.16064453125 34.1280517578125
-2.4521484375 17.205322265625 11.3419189453125
4.278076171875 16.275634765625 13.89013671875
-29.614501953125 -1.8623046875 2.495361328125
1.32470703125 12.099853515625 24.13525390625
-22.91943359375 -0.3563232421875 23.0225830078125
10.79150390625 -9.54443359375 47.1036376953125
14.6005859375 11.449462890625 31.1766357421875
4.523681640625 5.4639892578125 22.2215576171875
13.869873046875 28.922607421875 -26.2127685546875
19.903564453125 8.655029296875 -32.5118408203125
12.650634765625 13.608154296875 20.5257568359375
-23.621826171875 -0.5667724609375 20.1363525390625
-0.4716796875 8.1724853515625 36.5999755859375
4.572509765625 9.177490234375 35.963134765625
-3.982177734375 11.4755859375 26.524658203125
21.3271484375 16.5330810546875 -51.4664306640625
2.30078125 24.4833984375 -15.9647216796875
14.99365234375 25.1055908203125 -1.47314453125
-9.949462890625 -8.7703857421875 18.34716796875
9.2158203125 12.8311767578125 -43.30517578125
27.9482421875 -1.35546875 27.3421630859375
14.26416015625 26.0413818359375 -16.3087158203125
20.56884765625 14.451171875 -47.0545654296875
22.118408203125 13.906005859375 55.2431640625
1.829345703125 13.261962890625 -44.79296875
-9.541015625 6.1092529296875 20.989990234375
22.02587890625 14.25927734375 -45.315185546875
5.716796875 15.77294921875 -51.10791015625
-5.17626953125 18.3314208984375 -56.0164794921875
8.454833984375 3.4788818359375 28.61572265625
17.6328125 -7.6175537109375 37.802001953125
12.839111328125 16.9405517578125 -53.7723388671875
1.805908203125 7.902587890625 38.5601806640625
-10.11767578125 -3.7452392578125 6.72705078125
-24.9501953125 -2.390869140625 2.50146484375
-29.75 -1.8363037109375 0.768798828125
-37.29248046875 -7.3377685546875 15.1153564453125
9.245361328125 8.3214111328125 36.0482177734375
19.9541015625 -2.803466796875 33.510986328125
-3.567138671875 7.12255859375 39.6201171875
-22.4814453125 -3.003173828125 2.340087890625
13.019775390625 -3.1595458984375 36.3819580078125
-14.15087890625 0.9071044921875 21.0301513671875
-3.5732421875 2.2587890625 54.6075439453125
-29.845703125 -5.1514892578125 12.6219482421875
20.075927734375 -7.1334228515625 40.030517578125
11.963623046875 15.974609375 14.8990478515625
-34.749267578125 -4.2713623046875 18.5479736328125
-23.109375 -7.37060546875 16.5477294921875
-23.119140625 -2.7108154296875 4.5245361328125
6.9306640625 20.5552978515625 -15.680908203125
3.95068359375 17.4010009765625 -55.5587158203125
-10.840087890625 -4.887939453125 12.199951171875
-24.818359375 -2.4163818359375 4.2266845703125
17.280029296875 -9.3165283203125 39.328857421875
11.34375 14.626953125 17.4051513671875
-33.247314453125 -7.903076171875 19.0130615234375
2.966796875 8.4490966796875 -31.2720947265625
-14.591064453125 1.5208740234375 19.2530517578125
9.0986328125 -7.6595458984375 40.3331298828125
-29.90673828125 -7.6820068359375 17.7652587890625
25.504150390625 -2.1795654296875 35.00830078125
24.154052734375 13.169921875 -28.0947265625
11.448974609375 8.00634765625 -32.6826171875
12.103515625 10.8900146484375 29.328125
-21.09716796875 -6.5758056640625 12.7713623046875
20.951904296875 8.74658203125 -30.8228759765625
-1.091552734375 20.42431640625 1.1990966796875
-1.31884765625 36.6796875 -53.8116455078125
12.5078125 19.107666015625 4.4447021484375
-24.42578125 -2.07861328125 19.1929931640625
10.74462890625 19.9794921875 2.2230224609375
2.59716796875 22.7779541015625 -6.0211181640625
-2.81787109375 38.9285888671875 -55.177490234375
-16.078125 0.5394287109375 19.5753173828125
10.535400390625 -5.145263671875 39.4371337890625
-14.254150390625 -6.021728515625 16.205322265625
-3.9619140625 16.111328125 -51.3349609375
19.734375 -10.0289306640625 47.143310546875
3.995361328125 18.1759033203125 -16.66357421875
-27.226318359375 -3.996337890625 10.405517578125
-25.08056640625 -4.68505859375 12.0113525390625
-20.838623046875 -0.4979248046875 22.3978271484375
-11.591796875 -5.27490234375 14.929443359375
4.68505859375 28.3013916015625 -21.2349853515625
27.0830078125 -1.200927734375 34.717529296875
-0.798828125 5.3812255859375 -29.1590576171875
7.48974609375 18.8427734375 5.4945068359375
11.698974609375 -8.460693359375 43.53955078125
9.37158203125 -7.87890625 45.364990234375
11.626708984375 17.585693359375 10.648193359375
0.145263671875 15.640625 14.882568359375
12.724365234375 11.2554931640625 -40.10107421875
1.14013671875 11.052978515625 -40.4254150390625
-0.307373046875 2.41943359375 51.3453369140625
21.50634765625 13.7664794921875 53.1668701171875
7.484619140625 19.4947509765625 -10.489501953125
-5.62353515625 11.561767578125 -40.612548828125
9.346435546875 10.1319580078125 -38.0030517578125
20.08154296875 -4.3194580078125 34.9886474609375
13.1162109375 -9.3326416015625 48.939453125
14.850341796875 9.0135498046875 -33.809326171875
14.46044921875 18.7685546875 -57.803955078125
3.52392578125 29.642578125 -22.3211669921875
4.12744140625 19.49072265625 -60.430419921875
18.715576171875 14.9267578125 -48.818603515625
5.465087890625 18.7774658203125 -17.4244384765625
-2.0712890625 15.1087646484375 16.9769287109375
12.823974609375 23.629638671875 -7.8134765625
0.355224609375 21.5931396484375 -1.4454345703125
1.5693359375 6.078125 -30.0748291015625
-5.8681640625 13.16064453125 19.8983154296875
-4.5693359375 35.7294921875 -49.7677001953125
-4.395751953125 14.6195068359375 17.304443359375
-33.3876953125 -6.443603515625 19.2001953125
15.38427734375 -7.852783203125 37.634033203125
-0.4287109375 4.7852783203125 48.1248779296875
10.550048828125 17.47412109375 -55.03369140625
17.98876953125 26.7086181640625 -19.2103271484375
-3.008056640625 6.416748046875 43.499267578125
12.205078125 22.17236328125 -4.713623046875
21.224853515625 11.6954345703125 -39.4307861328125
6.31689453125 16.873779296875 -11.6409912109375
-4.411376953125 16.786865234375 -53.3382568359375
11.435546875 22.765625 -11.612060546875
17.204345703125 26.5806884765625 -16.30126953125
14.668212890625 15.946533203125 -50.4423828125
14.732421875 12.69677734375 -43.51318359375
1.97412109375 4.9217529296875 25.6070556640625
-10.5087890625 -2.310302734375 3.0218505859375
-24.638916015625 -7.547607421875 19.2943115234375
-26.882568359375 -7.693115234375 18.2882080078125
-18.51806640625 -5.9560546875 16.656005859375
0.328857421875 17.74267578125 -55.1705322265625
15.73193359375 9.3485107421875 -35.84521484375
-2.665283203125 4.0211181640625 49.6954345703125
24.7119140625 -2.5745849609375 30.8599853515625
-1.6484375 11.3680419921875 28.4781494140625
16.19482421875 26.6136474609375 -17.58349609375
-1.421875 35.49853515625 -44.8355712890625
-5.976806640625 35.3857421875 -48.536865234375
-1.065673828125 36.238525390625 -42.19287109375
1.155517578125 16.26513671875 -51.580322265625
-15.193359375 -2.700439453125 5.7978515625
-34.433349609375 -4.2655029296875 12.1116943359375
15.922607421875 11.1922607421875 -40.492431640625
16.714111328125 18.054931640625 -56.48193359375
15.756591796875 13.8212890625 25.898681640625
-21.7412109375 -6.6776123046875 10.2906494140625
15.074462890625 22.181396484375 -3.2139892578125
9.244140625 8.42041015625 -32.9656982421875
-33.040771484375 -1.226806640625 1.4593505859375
-3.400634765625 10.595703125 -38.3448486328125
24.00048828125 13.636962890625 -40.728759765625
5.152587890625 19.389404296875 -10.654296875
-22.87744140625 -7.1595458984375 13.499755859375
13.273681640625 24.736328125 -12.2255859375
21.58984375 15.0423583984375 -48.280029296875
-5.067626953125 19.667724609375 -58.7684326171875
14.667236328125 25.405517578125 -14.834228515625
-18.520263671875 -4.4417724609375 12.5330810546875
4.3125 10.4378662109375 -38.826171875
17.163818359375 17.2603759765625 -53.4803466796875
23.355224609375 12.4893798828125 -38.4991455078125
4.966552734375 6.384033203125 25.5074462890625
7.632080078125 17.060546875 -13.2003173828125
8.400634765625 9.7286376953125 -36.860107421875
17.3310546875 28.473388671875 -21.843505859375
13.512451171875 28.739501953125 -23.78564453125
3.98876953125 16.43603515625 -51.5281982421875
18.582275390625 17.5733642578125 -54.69921875
18.26611328125 23.16064453125 -7.883544921875
-28.6865234375 -2.457763671875 4.672607421875
-1.7080078125 9.45068359375 -36.43310546875
4.790771484375 20.425537109375 0.541748046875
15.737548828125 17.6318359375 -55.2884521484375
-5.277587890625 17.518310546875 -54.8358154296875
23.408447265625 -3.5772705078125 35.8341064453125
-19.010986328125 -6.9776611328125 18.5908203125
5.65869140625 9.4122314453125 -35.5146484375
-2.969482421875 9.4449462890625 -34.8939208984375
4.03271484375 4.71630859375 24.126220703125
27.146240234375 1.1859130859375 24.4464111328125
18.32666015625 24.6090087890625 -12.7845458984375
14.457763671875 14.4505615234375 -47.6719970703125
25.7021484375 -2.4375 32.0272216796875
15.11328125 7.6285400390625 -31.2132568359375
-8.246826171875 6.6527099609375 19.0262451171875
16.49267578125 11.88037109375 -41.667724609375
15.877197265625 22.1890869140625 -5.132568359375
8.469970703125 4.52001953125 24.9971923828125
13.689208984375 11.941162109375 -42.255859375
20.239501953125 13.487060546875 55.4576416015625
-19.94677734375 -4.8387451171875 11.90234375
10.8828125 11.7237548828125 -41.841796875
-21.029296875 -6.92138671875 20.0740966796875
3.671630859375 27.1571044921875 -18.5439453125
1.177978515625 -11.0736083984375 49.8636474609375
3.11279296875 11.879150390625 -41.350341796875
-5.388916015625 7.585693359375 -30.935302734375
1.994873046875 15.0255126953125 -48.5447998046875
1.02001953125 21.646728515625 -5.163818359375
-3.904541015625 9.774658203125 32.840087890625
-1.272216796875 22.3128662109375 -0.9459228515625
11.775634765625 21.652587890625 -2.286865234375
1.0810546875 13.85498046875 21.2547607421875
17.986328125 -10.3358154296875 48.180419921875
17.94970703125 12.302001953125 -42.42578125
-1.2763671875 14.737060546875 -48.0416259765625
1.80517578125 20.08349609375 -62.1903076171875
-1.681396484375 12.224853515625 25.30126953125
-0.1845703125 10.6510009765625 -38.3070068359375
4.08740234375 13.5113525390625 20.5546875
-22.8642578125 -5.2916259765625 8.870361328125
1.844970703125 7.541259765625 40.31982421875
10.70361328125 18.7813720703125 -14.8338623046875
23.471435546875 9.8543701171875 -32.3175048828125
3.501708984375 19.8980712890625 3.4918212890625
-13.327392578125 -3.776123046875 10.5491943359375
2.518310546875 23.2879638671875 -8.8543701171875
7.881591796875 19.2310791015625 -17.3487548828125
25.175537109375 11.8651123046875 -28.3819580078125
7.6181640625 21.7044677734375 -9.5809326171875
4.779052734375 22.7589111328125 -7.636474609375
-11.33740234375 -6.0206298828125 20.5902099609375
4.671875 18.5006103515625 5.4163818359375
9.90283203125 10.815185546875 -39.1688232421875
20.75244140625 19.366455078125 -57.8497314453125
-4.3486328125 9.4757080078125 -35.1861572265625
-0.33447265625 18.8509521484375 4.1080322265625
0.981689453125 -9.5684814453125 48.0438232421875
-34.93115234375 -0.58349609375 3.2843017578125
-22.838623046875 -4.0665283203125 6.0504150390625
-17.231689453125 -1.5682373046875 4.509033203125
-20.5732421875 -5.1888427734375 10.3165283203125
0.666259765625 19.6085205078125 2.958251953125
4.744873046875 17.727294921875 9.1318359375
3.22216796875 22.1158447265625 -1.41357421875
-1.22216796875 15.9442138671875 13.6474609375
-9.45068359375 10.718505859375 20.6700439453125
-2.5341796875 18.4779052734375 6.2132568359375
-14.357177734375 -2.0308837890625 3.4031982421875
8.285400390625 18.328857421875 -14.9129638671875
3.381591796875 21.0584716796875 -63.15625
2.09326171875 21.679443359375 -3.019287109375
8.70361328125 18.558837890625 -16.385009765625
-22.844970703125 -1.5467529296875 21.5003662109375
-7.928955078125 35.7047119140625 -50.287109375
0.25732421875 9.447265625 -34.383056640625
4.23388671875 8.726318359375 -33.7891845703125
2.10009765625 20.262451171875 1.7760009765625
10.157958984375 17.603271484375 9.01318359375
12.355712890625 -4.2158203125 37.0166015625
-2.897705078125 11.4111328125 29.46875
6.53955078125 13.9713134765625 -46.0528564453125
7.85009765625 19.2342529296875 2.6807861328125
-0.413818359375 12.6705322265625 22.91357421875
2.0107421875 -10.398193359375 47.2169189453125
0.722900390625 15.3896484375 17.5184326171875
9.72705078125 8.3177490234375 29.9412841796875
-22.31494140625 -1.3741455078125 0.2596435546875
-4.38232421875 10.0284423828125 31.5548095703125
1.994384765625 18.341552734375 6.6365966796875
2.0283203125 9.0892333984375 31.4752197265625
-30.957275390625 -2.196044921875 2.714111328125
30.413330078125 0.291748046875 23.37744140625
21.04052734375 -7.5355224609375 43.35888671875
0.60791015625 15.5657958984375 -50.3819580078125
8.0576171875 15.6473388671875 -50.440673828125
1.687744140625 5.5081787109375 -26.3177490234375
7.94970703125 19.5137939453125 -59.5208740234375
14.233642578125 14.3719482421875 21.1240234375
5.996826171875 -8.781005859375 43.296875
7.173583984375 10.99560546875 -39.3297119140625
12.979736328125 9.306640625 -35.489013671875
3.525390625 3.5010986328125 27.3914794921875
-13.8388671875 -2.5728759765625 6.055908203125
0.679443359375 9.9163818359375 28.4556884765625
-0.734375 18.343994140625 6.487548828125
4.229736328125 14.3243408203125 -47.2476806640625
18.833984375 15.0635986328125 26.721435546875
2.551025390625 10.4189453125 -37.674072265625
0.7509765625 23.2547607421875 -7.730224609375
-31.723388671875 -2.291015625 4.119140625
-0.779052734375 20.5714111328125 -60.5482177734375
-25.08984375 -5.294921875 13.407958984375
-27.868408203125 -4.0841064453125 18.6241455078125
15.903564453125 -8.578857421875 49.003173828125
-2.315185546875 13.24560546875 -44.7177734375
2.76513671875 13.9810791015625 19.2969970703125
9.710693359375 18.65625 5.283935546875
2.850830078125 9.030029296875 -35.067138671875
22.0869140625 9.505859375 -30.6812744140625
1.57275390625 20.642333984375 -0.49609375
-0.838623046875 8.9176025390625 35.24267578125
10.037353515625 15.0474853515625 16.58837890625
1.67236328125 9.244873046875 25.845703125
19.49853515625 -5.39794921875 37.3182373046875
7.63330078125 11.6668701171875 -41.8758544921875
4.116943359375 -9.6005859375 50.2384033203125
-12.966796875 -1.7418212890625 3.6259765625
-0.879150390625 5.581787109375 -31.016845703125
2.400146484375 18.8489990234375 4.25537109375
22.920166015625 -2.8995361328125 31.9439697265625
7.4775390625 17.7242431640625 9.2830810546875
-36.951904296875 -8.703125 17.0167236328125
3.169677734375 6.5177001953125 -28.100341796875
24.18212890625 13.4906005859375 54.23974609375
11.57373046875 28.8116455078125 -24.9739990234375
-34.368896484375 -5.3692626953125 15.293212890625
27.191650390625 -1.431884765625 30.0155029296875
-35.917236328125 0.129150390625 5.4249267578125
-28.501953125 1.641845703125 18.5704345703125
-35.8701171875 0.0157470703125 1.10205078125
28.9404296875 1.6170654296875 22.4559326171875
11.423828125 8.929443359375 33.1531982421875
10.726318359375 14.5523681640625 -48.15234375
-2.267822265625 6.668212890625 40.8353271484375
12.084228515625 11.530029296875 26.614990234375
8.990478515625 9.6158447265625 34.1669921875
-29.84765625 -5.759033203125 14.0140380859375
9.309814453125 14.018798828125 -46.424072265625
15.17578125 24.7215576171875 -11.520263671875
-4.61767578125 12.8135986328125 -43.378662109375
9.2548828125 17.7889404296875 -12.1717529296875
5.8525390625 22.5048828125 -4.5142822265625
6.0830078125 7.5616455078125 31.2852783203125
3.47412109375 7.951416015625 30.62744140625
-1.301513671875 9.650390625 32.595947265625
3.10498046875 29.10009765625 -19.8226318359375
13.04931640625 27.311767578125 -18.29052734375
11.43310546875 -4.7830810546875 38.455078125
-32.545654296875 -1.6751708984375 3.2264404296875
-3.97900390625 15.090087890625 -48.2491455078125
3.77197265625 5.75927734375 29.6199951171875
29.6103515625 -0.6536865234375 29.6588134765625
-1.70361328125 26.2830810546875 -13.106689453125
-0.79443359375 27.64892578125 -17.6572265625
5.8544921875 3.6075439453125 28.862060546875
-17.64599609375 -3.0052490234375 8.7269287109375
-18.114990234375 -2.35205078125 6.493408203125
-22.8056640625 -5.408447265625 20.8599853515625
-15.93994140625 -3.7562255859375 10.4027099609375
29.395751953125 -0.45703125 24.897705078125
-27.272705078125 1.1287841796875 18.955078125
-29.08154296875 -4.653564453125 10.303466796875
23.165771484375 13.4029541015625 52.62353515625
-16.8515625 -1.16162109375 2.6466064453125
5.240478515625 8.890869140625 33.7764892578125
-34.468505859375 -3.4049072265625 9.8131103515625
0.3271484375 24.457763671875 -11.1290283203125
3.46435546875 7.4913330078125 38.451904296875
4.60498046875 13.2552490234375 -44.6839599609375
10.2734375 9.4354248046875 -35.18017578125
0.54248046875 14.271484375 18.6026611328125
14.232421875 26.8006591796875 -19.71728515625
19.688720703125 -9.0352783203125 41.9990234375
22.68359375 11.1231689453125 -35.7598876953125
-10.83544921875 -1.469970703125 2.024169921875
-1.558349609375 11.1805419921875 -40.1123046875
10.376953125 -9.1578369140625 45.8448486328125
-9.986572265625 -4.0213623046875 9.36083984375
13.68603515625 7.4901123046875 -31.461669921875
-16.017578125 -3.1611328125 7.709716796875
-1.249267578125 21.3184814453125 -63.08056640625
-20.0712890625 -2.8780517578125 5.079345703125
-18.768798828125 1.5465087890625 21.4149169921875
1.111328125 9.7816162109375 -36.4119873046875
5.34326171875 7.537841796875 39.9786376953125
-31.88232421875 -4.443359375 12.2900390625
3.48046875 23.0809326171875 -7.5516357421875
-24.84033203125 1.412841796875 21.65185546875
-17.210693359375 -5.9892578125 16.9473876953125
-21.356689453125 -4.6083984375 4.258056640625
6.227294921875 19.6695556640625 4.133544921875
13.51220703125 -9.1461181640625 47.6295166015625
18.125244140625 8.6380615234375 -31.366943359375
-1.790283203125 -11.6236572265625 51.8599853515625
2.749267578125 18.8310546875 -57.685546875
5.750732421875 19.0909423828125 -14.3177490234375
2.765625 19.731201171875 -13.18701171875
3.3701171875 18.3133544921875 6.939208984375
23.7138671875 -0.9532470703125 29.0072021484375
-1.089111328125 36.309814453125 -49.40478515625
21.4208984375 -5.284423828125 39.6566162109375
25.315185546875 -1.478271484375 28.49072265625
14.984375 -9.132080078125 50.4044189453125
8.871826171875 17.642333984375 10.041259765625
-3.982666015625 4.0518798828125 49.3941650390625
-21.597900390625 -9.242431640625 18.8323974609375
-0.181396484375 17.214111328125 -54.0146484375
7.108154296875 8.722900390625 35.773681640625
-4.10107421875 2.643310546875 52.0958251953125
-23.46630859375 -3.3642578125 7.2835693359375
5.322021484375 -10.1407470703125 51.0167236328125
-3.670654296875 6.6236572265625 -29.09765625
-31.258056640625 -3.30615234375 6.853271484375
-33.170654296875 -7.03515625 18.0068359375
-31.236572265625 0.6488037109375 19.033447265625
11.488037109375 16.2391357421875 13.5701904296875
13.75048828125 16.6131591796875 -52.85888671875
10.395751953125 7.7647705078125 28.651611328125
-1.7421875 10.069580078125 31.281982421875
1.658935546875 9.3648681640625 -33.6209716796875
0.241455078125 16.5908203125 -52.4884033203125
-27.541015625 -5.297119140625 14.959716796875
8.610107421875 -10.629638671875 50.7637939453125
10.451416015625 16.26513671875 -51.860595703125
8.741943359375 16.2965087890625 12.963623046875
22.47314453125 17.716552734375 -53.3505859375
0.96875 8.2828369140625 -33.2716064453125
20.106689453125 -8.093994140625 44.7786865234375
-16.532958984375 -7.872314453125 19.7525634765625
15.7783203125 -8.7335205078125 40.6605224609375
-22.954345703125 -4.09228515625 21.08154296875
15.671630859375 -8.1610107421875 43.536376953125
0.086181640625 9.091796875 -35.6522216796875
3.392333984375 14.94140625 18.635009765625
-25.838623046875 -6.0379638671875 16.611328125
-20.901611328125 -6.9339599609375 16.2313232421875
7.4150390625 8.8824462890625 -34.6861572265625
10.335693359375 -6.4273681640625 41.3115234375
25.284912109375 -2.635009765625 33.3818359375
22.8212890625 16.570068359375 -50.25244140625
7.428466796875 5.5999755859375 25.373046875
-35.44873046875 -8.291259765625 18.895751953125
14.12353515625 -8.2421875 39.9169921875
2.07177734375 6.5318603515625 27.94970703125
-0.864990234375 6.1412353515625 -26.1510009765625
-0.925048828125 13.494873046875 -45.42822265625
6.218505859375 6.3370361328125 24.5167236328125
-20.655029296875 -2.4515380859375 2.024169921875
8.691162109375 3.3402099609375 26.0205078125
6.12158203125 8.656005859375 -32.632080078125
5.977294921875 19.302001953125 -18.51611328125
23.1044921875 -3.5460205078125 37.9888916015625
14.68115234375 -9.0484619140625 38.2867431640625
-13.85546875 -5.2193603515625 13.4493408203125
-3.693115234375 35.867919921875 -44.6385498046875
-2.14990234375 17.419677734375 8.596435546875
-19.544189453125 -4.2822265625 10.035888671875
-23.20849609375 -8.441162109375 18.02001953125
8.8681640625 19.183349609375 -58.60009765625
2.40380859375 -9.9061279296875 51.264404296875
14.380859375 -6.5618896484375 37.1356201171875
14.1103515625 22.7308349609375 -5.9517822265625
-0.081787109375 5.3450927734375 45.0535888671875
-1.358642578125 3.5255126953125 51.317138671875
15.38671875 13.446044921875 28.62548828125
21.55712890625 10.634765625 -36.8907470703125
20.84814453125 -4.93212890625 35.8475341796875
-23.851806640625 -4.7852783203125 11.4647216796875
17.531005859375 23.2156982421875 -5.0601806640625
0.88671875 9.8951416015625 31.474853515625
-36.437744140625 -2.0125732421875 8.912841796875
-1.218994140625 25.4805908203125 -10.240234375
-1.26953125 6.2843017578125 43.7740478515625
4.02734375 9.100830078125 34.7325439453125
-3.0341796875 37.187255859375 -52.7550048828125
-26.05712890625 -2.5228271484375 5.25341796875
2.748779296875 4.862060546875 24.2369384765625
13.379150390625 13.7100830078125 24.39990234375
-23.94482421875 -1.2191162109375 1.286865234375
18.399169921875 -7.7142333984375 43.63623046875
18.69677734375 10.9061279296875 -39.380126953125
16.982666015625 7.9329833984375 -31.9769287109375
2.6162109375 17.4962158203125 -54.9345703125
14.31884765625 28.45751953125 -24.7569580078125
6.106689453125 21.1845703125 -2.92333984375
6.9111328125 14.8309326171875 17.83984375
30.5693359375 0.3310546875 25.95849609375
12.777587890625 14.3885498046875 19.5054931640625
-21.263916015625 -6.0582275390625 9.264404296875
15.718017578125 27.1898193359375 -19.9761962890625
11.845947265625 27.0391845703125 -21.3482666015625
-21.8505859375 -7.122314453125 21.044921875
2.902587890625 20.117919921875 -59.9642333984375
-21.72412109375 -8.1834716796875 19.9375
4.9775390625 -8.963134765625 48.0042724609375
-14.395263671875 2.0235595703125 20.4420166015625
8.242919921875 -8.1043701171875 42.15380859375
-7.470947265625 9.9691162109375 19.7088623046875
-8.87548828125 -5.2144775390625 10.319091796875
7.004638671875 -9.98974609375 50.01123046875
16.833251953125 29.47119140625 -26.221923828125
-1.51318359375 6.8018798828125 -31.231201171875
-37.102783203125 -5.280517578125 13.0196533203125
25.47705078125 -0.48193359375 26.6014404296875
18.10546875 14.036865234375 26.5064697265625
9.439208984375 -10.3907470703125 49.413330078125
13.105224609375 21.2205810546875 -1.4447021484375
-22.7685546875 -5.6759033203125 11.078369140625
-23.19482421875 -0.07568359375 24.2880859375
19.536376953125 13.915771484375 -46.3140869140625
-0.50146484375 12.60400390625 -42.92724609375
16.04248046875 24.8526611328125 -13.031494140625
7.03955078125 -8.3355712890625 44.3929443359375
13.3779296875 13.180419921875 -44.86328125
24.768798828125 10.69921875 -29.9078369140625
-21.63232421875 -8.554931640625 16.59423828125
-15.5224609375 -4.3135986328125 11.7503662109375
11.253662109375 22.6658935546875 -6.9864501953125
-0.6318359375 -11.5970458984375 50.0977783203125
-16.334228515625 -4.5648193359375 13.174560546875
-2.870849609375 15.98388671875 15.5902099609375
12.370361328125 12.317138671875 -42.647705078125
-0.237548828125 18.861083984375 5.4427490234375
0.45556640625 9.517333984375 32.8707275390625
16.31689453125 13.249755859375 29.8740234375
15.815185546875 23.246337890625 -3.043212890625
7.02734375 7.8656005859375 37.6214599609375
-11.674560546875 -6.4486083984375 17.2830810546875
14.21337890625 12.04150390625 29.82177734375
22.325927734375 12.291748046875 -39.251708984375
15.98583984375 10.98193359375 -38.59130859375
3.927490234375 20.077880859375 -17.52099609375
7.155029296875 22.755859375 -6.53662109375
-14.423095703125 -7.660888671875 18.639404296875
-21.006103515625 -8.0072021484375 17.7066650390625
9.8603515625 22.98046875 -8.2626953125
-1.1953125 36.6181640625 -51.8802490234375
6.61181640625 16.5472412109375 14.0396728515625
2.974853515625 -10.2647705078125 48.35302734375
5.02490234375 18.351806640625 -56.90869140625
-28.3193359375 -1.0198974609375 0.4420166015625
4.146240234375 18.857666015625 -57.879638671875
-1.9462890625 12.2369384765625 -42.64697265625
-22.93603515625 -8.7213134765625 16.7650146484375
-4.8701171875 8.5283203125 -33.0555419921875
16.341552734375 14.82373046875 -48.95361328125
21.4912109375 -3.4390869140625 32.591796875
28.039306640625 -1.382080078125 29.0614013671875
-10.9560546875 -9.50634765625 18.58056640625
-2.499267578125 14.4461669921875 19.3358154296875
23.78857421875 14.8321533203125 49.391845703125
-27.064453125 -2.20068359375 2.7049560546875
15.842041015625 14.7584228515625 23.546630859375
3.969482421875 16.7752685546875 -53.0301513671875
10.382080078125 15.575927734375 -50.2554931640625
-23.42333984375 -7.84912109375 19.21484375
17.044921875 -8.659912109375 46.81640625
18.169677734375 10.06396484375 -36.78857421875
-1.099365234375 20.9896240234375 -0.7142333984375
-11.5908203125 -2.7890625 7.5802001953125
21.355712890625 13.2144775390625 -44.026611328125
6.916748046875 19.3829345703125 1.8543701171875
-0.728759765625 27.1832275390625 -15.253173828125
5.1611328125 19.6358642578125 2.0028076171875
-1.750244140625 12.9185791015625 22.1373291015625
6.2763671875 16.7591552734375 -53.330322265625
-25.187255859375 -3.0245361328125 6.548583984375
-31.848876953125 -7.313232421875 19.1837158203125
2.598388671875 16.9801025390625 -53.3758544921875
0.69384765625 10.3994140625 27.0775146484375
10.6396484375 28.257080078125 -22.868896484375
-2.400390625 1.58984375 54.9913330078125
1.853515625 7.934814453125 26.4605712890625
5.54443359375 17.955322265625 6.764892578125
1.965576171875 7.9007568359375 28.1895751953125
-2.58056640625 18.8651123046875 4.3541259765625
-22.618408203125 -5.7315673828125 7.634521484375
19.097412109375 14.3603515625 -47.780517578125
4.27880859375 16.8287353515625 12.0162353515625
-34.80224609375 -2.418212890625 8.8060302734375
1.71533203125 23.5968017578125 -14.7884521484375
19.67919921875 10.930419921875 -38.5819091796875
-2.107666015625 16.202880859375 -51.6038818359375
-27.587890625 -4.5975341796875 12.70068359375
-37.950927734375 -4.62890625 11.712890625
-0.698486328125 15.575927734375 15.8692626953125
12.017822265625 28.05126953125 -22.521484375
17.27392578125 10.383056640625 -37.6796875
2.685302734375 9.3958740234375 33.529052734375
1.079833984375 24.0030517578125 -12.041259765625
-3.031982421875 9.4681396484375 33.65966796875
17.225341796875 14.6771240234375 24.298828125
5.318359375 4.831787109375 23.10693359375
-3.561279296875 8.5987548828125 35.12744140625
13.387451171875 -7.19091796875 37.741943359375
29.34033203125 -0.4635009765625 31.8128662109375
-2.92919921875 7.2149658203125 42.1104736328125
-28.695556640625 1.9886474609375 20.6798095703125
-31.879638671875 -5.6593017578125 15.072265625
-9.837890625 -4.941650390625 8.2169189453125
-4.215087890625 12.256591796875 -42.3597412109375
-11.49951171875 -0.468994140625 19.685302734375
3.353271484375 -6.015380859375 45.29345703125
4.602294921875 7.1439208984375 -29.3370361328125
13.14111328125 11.5162353515625 29.13232421875
-0.054931640625 13.000732421875 -44.481689453125
3.3857421875 21.643310546875 -4.067626953125
-0.409912109375 7.7611083984375 38.796875
8.57470703125 11.51904296875 -41.0303955078125
8.039794921875 -8.532958984375 47.2432861328125
-1.898193359375 2.475341796875 53.1693115234375
-5.444580078125 6.7099609375 -28.8975830078125
12.504638671875 -9.435791015625 46.509521484375
17.898193359375 -4.5380859375 36.08642578125
0.77880859375 12.0572509765625 -42.4879150390625
-18.491943359375 -5.1441650390625 14.800048828125
-0.053955078125 6.03076171875 -27.133056640625
-15.116455078125 -5.7288818359375 15.391845703125
21.04052734375 -6.953125 40.7567138671875
3.640380859375 17.503173828125 -12.82568359375
-34.43017578125 -1.4451904296875 5.991943359375
-9.40380859375 1.1666259765625 19.621826171875
-18.049072265625 1.32373046875 20.085205078125
-0.74951171875 10.7412109375 30.6510009765625
12.236328125 10.63720703125 -38.0316162109375
-3.191162109375 2.4591064453125 53.2916259765625
11.204345703125 9.89013671875 -36.79248046875
26.294677734375 1.1337890625 25.409423828125
7.05859375 4.746337890625 22.93896484375
4.368896484375 10.0067138671875 -36.4189453125
10.008056640625 17.618408203125 -14.0513916015625
-0.095947265625 25.3775634765625 -13.5672607421875
1.668212890625 10.96044921875 -39.082275390625
-35.016357421875 -0.4429931640625 1.96435546875
13.457275390625 -7.6597900390625 40.746826171875
8.22412109375 7.4239501953125 30.656005859375
-5.679443359375 10.668701171875 -38.533447265625
-22.2841796875 -5.6971435546875 6.2984619140625
-9.70947265625 -6.572509765625 14.95166015625
-12.472900390625 -2.23828125 5.83984375
-3.480224609375 8.400146484375 36.8671875
-0.1171875 4.817626953125 -30.4732666015625
16.4208984375 23.640869140625 -9.6051025390625
21.929931640625 9.42333984375 -32.946533203125
7.81982421875 3.123779296875 27.0072021484375
19.365234375 -6.120849609375 38.2757568359375
-0.1376953125 23.8128662109375 -9.111572265625
4.178466796875 4.0670166015625 28.5338134765625
19.24755859375 23.8758544921875 -9.9761962890625
-3.001220703125 10.0440673828125 -37.33642578125
20.74755859375 -1.2086181640625 32.350830078125
-2.224609375 5.32080078125 45.68701171875
10.73388671875 23.052978515625 -9.2939453125
-10.29150390625 -7.909423828125 16.95751953125
11.16259765625 19.3087158203125 4.1055908203125
13.305419921875 8.03857421875 -32.4627685546875
2.597900390625 7.7958984375 37.6373291015625
13.20947265625 23.057861328125 -6.82861328125
-13.81103515625 -3.078369140625 7.8812255859375
-16.270751953125 1.0955810546875 21.2239990234375
-5.479736328125 36.5677490234375 -51.792236328125
15.181884765625 -8.083740234375 42.3148193359375
7.345703125 20.7666015625 -10.2747802734375
14.95849609375 28.2999267578125 -21.524169921875
-19.64111328125 -4.09912109375 8.28857421875
