6.74658203125 22.4002685546875 -56.8074951171875
7.001220703125 20.5120849609375 -51.7933349609375
-17.864990234375 3.502685546875 22.111083984375
-8.220458984375 18.731689453125 -45.5850830078125
-0.085205078125 24.8507080078125 -14.177734375
16.064697265625 3.352294921875 49.367431640625
7.228515625 3.243408203125 49.263916015625
10.7900390625 20.213134765625 -49.280029296875
5.34814453125 24.4080810546875 -12.1507568359375
1.292236328125 23.18359375 -59.850341796875
14.446533203125 33.7158203125 -19.9310302734375
23.218505859375 8.7127685546875 39.168701171875
11.260009765625 31.365234375 -9.9652099609375
-14.89306640625 5.7369384765625 21.9000244140625
23.994384765625 8.69091796875 32.97216796875
7.57080078125 3.36962890625 41.9468994140625
14.49609375 34.4090576171875 -24.087890625
15.4755859375 16.661376953125 -39.6746826171875
16.89697265625 18.1075439453125 -43.6854248046875
13.42138671875 36.5076904296875 -29.062744140625
5.82080078125 28.78662109375 -14.2364501953125
-12.336669921875 5.515869140625 6.6470947265625
-5.004150390625 16.200927734375 -36.3087158203125
2.083984375 22.36572265625 -56.973388671875
-20.228515625 3.756591796875 22.5523681640625
-26.754150390625 5.59375 7.6475830078125
11.068359375 14.30810546875 -30.9591064453125
0.151123046875 18.757080078125 -45.1763916015625
-20.326171875 5.9849853515625 7.2786865234375
10.67529296875 34.942138671875 -26.26318359375
15.513671875 8.9171142578125 39.3907470703125
-17.154052734375 2.803466796875 20.20556640625
-27.500732421875 2.031982421875 22.0052490234375
-27.496337890625 3.3228759765625 18.0489501953125
-1.03857421875 19.6834716796875 -47.5908203125
-17.936279296875 6.1204833984375 5.493896484375
22.58740234375 10.33642578125 31.447265625
7.83740234375 20.253173828125 -49.5693359375
13.153076171875 18.6217041015625 -45.8277587890625
13.219970703125 2.892822265625 52.365478515625
-6.242919921875 16.7747802734375 -39.8680419921875
-5.59912109375 13.111328125 -27.1953125
-24.83544921875 3.4588623046875 10.9683837890625
9.05908203125 15.232666015625 -35.0078125
3.63720703125 20.4952392578125 -50.73046875
17.314697265625 7.1888427734375 39.6629638671875
-7.57373046875 15.1708984375 -34.9913330078125
-3.598388671875 19.09228515625 -46.3870849609375
14.85546875 14.759521484375 -33.8663330078125
-1.45166015625 12.974365234375 -24.38232421875
3.2763671875 24.6104736328125 -11.6817626953125
-15.898193359375 4.4434814453125 15.6881103515625
20.308349609375 18.0740966796875 -37.7806396484375
13.364501953125 35.86767578125 -26.661376953125
-3.69140625 17.421630859375 -40.642822265625
2.664306640625 18.8001708984375 -45.759033203125
-22.83837890625 1.6649169921875 18.2515869140625
-15.900634765625 5.26171875 11.388427734375
9.6650390625 3.657958984375 47.4945068359375
14.660888671875 20.9031982421875 -51.9091796875
-16.706787109375 5.6414794921875 9.271728515625
-19.927734375 5.046630859375 11.196044921875
18.992431640625 4.30224609375 46.670654296875
-4.455078125 20.4599609375 -58.1265869140625
25.599609375 11.09814453125 36.9759521484375
-12.644775390625 5.8980712890625 10.6875
26.103515625 9.1348876953125 32.8072509765625
1.617919921875 15.96240234375 -37.0052490234375
4.7529296875 18.635009765625 -44.948486328125
11.575439453125 15.336181640625 -35.1695556640625
-19.047607421875 6.5537109375 9.1436767578125
5.099609375 1.728271484375 53.622802734375
1.12451171875 1.62109375 54.96728515625
-16.378173828125 5.2998046875 6.4600830078125
-18.308837890625 4.9237060546875 12.80126953125
-27.513427734375 5.193603515625 11.06298828125
14.998046875 16.0399169921875 -36.8604736328125
-3.114013671875 20.2957763671875 -50.7291259765625
-24.8349609375 4.313232421875 7.8878173828125
15.068603515625 30.968017578125 -6.9844970703125
-6.4169921875 21.1240234375 -52.572998046875
14.32373046875 32.2086181640625 -12.506591796875
17.31591796875 14.2757568359375 -31.693115234375
2.187744140625 25.94189453125 -9.4102783203125
-30.756103515625 5.21484375 8.3216552734375
-12.724365234375 3.730224609375 17.775390625
11.84033203125 32.911865234375 -13.4586181640625
8.806640625 21.8594970703125 -56.2957763671875
-4.289794921875 14.5731201171875 -32.8314208984375
8.297607421875 16.0010986328125 -36.9329833984375
-8.142822265625 20.0286865234375 -48.6248779296875
14.71875 21.5091552734375 -54.31005859375
1.3828125 1.0205078125 48.6414794921875
14.958740234375 29.9666748046875 -4.983642578125
-5.346435546875 17.9691162109375 -43.7564697265625
20.690185546875 17.2606201171875 -27.1837158203125
2.943115234375 16.806884765625 -38.635986328125
5.770263671875 15.833740234375 -37.1793212890625
7.489501953125 14.0386962890625 28.73681640625
8.068603515625 18.11669921875 -43.22021484375
1.133544921875 20.8995361328125 -52.4761962890625
2.41162109375 15.3216552734375 -34.2657470703125
16.23779296875 4.4893798828125 51.99560546875
10.697998046875 34.947265625 -24.062744140625
26.197021484375 9.869140625 29.75927734375
21.415771484375 7.659912109375 35.7392578125
14.817138671875 32.9659423828125 -15.7945556640625
-23.3193359375 3.174072265625 7.6998291015625
18.146728515625 21.72021484375 -54.133056640625
18.43115234375 16.634033203125 -37.2264404296875
-0.646484375 0.2393798828125 52.054443359375
20.427490234375 15.5657958984375 -30.958740234375
10.30126953125 5.9259033203125 42.5892333984375
12.611328125 21.67578125 -55.1279296875
12.491943359375 16.0869140625 -36.74609375
-1.331298828125 15.329345703125 -34.5052490234375
-0.549072265625 20.8011474609375 -51.4774169921875
7.940673828125 24.9561767578125 -11.55615234375
-23.29736328125 1.819580078125 14.16259765625
-14.666015625 5.092041015625 14.254150390625
19.948974609375 18.66650390625 -40.5537109375
4.5869140625 24.8175048828125 -9.215576171875
0.64306640625 19.8701171875 -49.049072265625
-21.5400390625 2.3258056640625 21.7066650390625
14.117919921875 19.832275390625 -49.7689208984375
17.244384765625 17.3394775390625 -39.9853515625
4.793701171875 14.088134765625 -31.8583984375
-3.880126953125 17.5640869140625 -56.2694091796875
-6.8515625 13.18212890625 -28.8565673828125
-13.039306640625 6.4493408203125 8.0938720703125
-28.308349609375 4.3883056640625 13.7479248046875
14.210693359375 5.0380859375 41.4051513671875
11.24560546875 20.6934814453125 -52.0880126953125
18.341552734375 5.249267578125 50.1759033203125
1.45166015625 13.582275390625 -28.9696044921875
-24.119384765625 -0.4736328125 21.2310791015625
-24.485107421875 0.92138671875 17.678955078125
4.80224609375 3.4970703125 44.0408935546875
11.266845703125 16.462158203125 -38.5274658203125
12.374267578125 34.363525390625 -20.8956298828125
6.219482421875 24.898193359375 -14.47998046875
-0.4521484375 16.0145263671875 -36.4847412109375
-31.655517578125 4.635009765625 4.8123779296875
20.36572265625 8.9500732421875 34.283935546875
-20.70703125 4.42333984375 15.0675048828125
15.51708984375 2.5362548828125 44.67578125
5.81689453125 21.4471435546875 -54.2342529296875
-23.330322265625 2.1011962890625 11.23974609375
-7.43896484375 17.6038818359375 -41.79833984375
-6.66162109375 16.48193359375 -38.031005859375
-6.74658203125 23.0643310546875 -59.35302734375
-7.62890625 14.02734375 -31.209716796875
18.839599609375 6.302734375 43.0498046875
6.832763671875 26.1622314453125 -10.1080322265625
0.034912109375 17.1124267578125 -40.30712890625
10.1923828125 34.02294921875 -20.6976318359375
12.83203125 34.778564453125 -23.2344970703125
3.386962890625 17.365478515625 -41.861328125
-4.198974609375 23.357177734375 -60.479248046875
21.026123046875 20.6090087890625 -46.033935546875
-1.3896484375 0.4317626953125 54.4459228515625
-26.39208984375 6.1339111328125 3.7899169921875
24.45458984375 11.998779296875 28.9637451171875
-4.3115234375 21.6138916015625 -55.915771484375
-30.38720703125 5.4251708984375 6.199951171875
20.217041015625 7.5340576171875 41.5457763671875
14.32275390625 17.67138671875 -42.538818359375
7.54052734375 14.700439453125 26.1009521484375
-3.435546875 15.01806640625 -34.299072265625
15.9931640625 21.6033935546875 -55.7296142578125
-11.971923828125 2.9481201171875 19.153076171875
11.70556640625 16.756103515625 -40.37255859375
12.727783203125 33.32861328125 -15.361328125
11.395263671875 33.1181640625 -17.868896484375
-21.966552734375 6.2945556640625 3.9708251953125
4.400146484375 13.9881591796875 -28.8145751953125
24.210693359375 10.2999267578125 29.7413330078125
-7.349609375 19.338623046875 -47.1341552734375
8.320556640625 6.3099365234375 41.3607177734375
2.654052734375 26.767578125 -13.10546875
-6.897216796875 20.120849609375 -50.027587890625
1.80224609375 12.708740234375 -26.1639404296875
-3.330322265625 16.445556640625 -37.3328857421875
8.618896484375 14.8543701171875 -32.7197265625
4.10791015625 21.3099365234375 -54.52978515625
-0.543701171875 21.59912109375 -57.87255859375
-1.772705078125 21.5172119140625 -54.27490234375
8.1279296875 18.8916015625 -46.51708984375
11.611083984375 30.49658203125 -6.71044921875
5.89892578125 17.181396484375 -39.7738037109375
0.359619140625 24.8929443359375 -12.4874267578125
16.912841796875 14.2861328125 -29.9599609375
1.860595703125 1.5482177734375 50.54150390625
11.387939453125 17.6876220703125 -41.9559326171875
-26.3212890625 4.0882568359375 14.5567626953125
-3.66552734375 18.2166748046875 -44.79296875
8.374755859375 16.9195556640625 -40.250732421875
7.24609375 13.63037109375 -30.5570068359375
14.866943359375 18.8460693359375 -45.9937744140625
18.79150390625 16.0474853515625 -34.470458984375
11.960693359375 29.6314697265625 -3.4691162109375
-21.128662109375 3.26025390625 18.6260986328125
-8.326171875 16.5 -38.3797607421875
9.17333984375 16.45068359375 -38.4149169921875
-6.751220703125 14.857177734375 -33.2225341796875
8.294189453125 20.8233642578125 -52.8446044921875
4.429931640625 19.8658447265625 -48.818115234375
-3.904296875 20.9893798828125 -52.2293701171875
-0.684814453125 12.608154296875 -26.010498046875
-3.510986328125 13.0509033203125 -24.7291259765625
4.377685546875 2.5029296875 52.3055419921875
-11.654296875 1.558349609375 21.904052734375
17.690673828125 17.63525390625 -41.837646484375
-15.106689453125 4.0052490234375 17.3968505859375
20.578857421875 7.314697265625 39.52783203125
-26.323974609375 3.3984375 16.7618408203125
12.755126953125 14.6856689453125 -34.1656494140625
2.9345703125 25.91357421875 -17.2027587890625
-1.619384765625 17.5712890625 -42.959716796875
-11.54833984375 3.6639404296875 16.5167236328125
1.622314453125 21.8438720703125 -55.4515380859375
4.15673828125 13.3544921875 30.243896484375
-14.2548828125 6.9921875 4.7025146484375
11.147705078125 19.5784912109375 -47.77880859375
3.2412109375 20.913330078125 -52.5970458984375
9.52099609375 31.186279296875 -11.580322265625
13.29248046875 4.0284423828125 43.6597900390625
9.589111328125 2.908935546875 49.248291015625
-4.390380859375 19.986328125 -49.68408203125
-10.30126953125 5.6441650390625 7.3543701171875
24.853271484375 8.8642578125 35.791748046875
-3.97802734375 12.7088623046875 -26.3031005859375
-25.158935546875 4.18505859375 12.441162109375
-22.405517578125 5.38623046875 5.45849609375
13.57373046875 14.323486328125 -30.661376953125
-12.27392578125 5.22607421875 12.4815673828125
5.457275390625 17.1373291015625 -41.464111328125
23.1083984375 8.0528564453125 36.83544921875
-13.92333984375 3.106201171875 21.2330322265625
-2.06884765625 16.8612060546875 -39.684326171875
-23.544189453125 1.65771484375 23.153564453125
1.626220703125 24.7275390625 -10.3487548828125
15.79736328125 15.6600341796875 -35.4884033203125
15.652587890625 14.381591796875 -32.500244140625
12.062255859375 3.9525146484375 42.0906982421875
19.90771484375 22.0250244140625 -51.7000732421875
1.064208984375 14.072998046875 -31.237060546875
14.337646484375 2.804931640625 43.448974609375
5.21533203125 26.6802978515625 -9.312255859375
3.53271484375 2.5123291015625 47.9000244140625
6.14306640625 15.1634521484375 -33.9776611328125
-25.93994140625 4.8267822265625 11.087890625
-14.257080078125 5.8360595703125 10.7691650390625
2.448486328125 25.0531005859375 -14.7811279296875
-15.5341796875 3.147216796875 20.063232421875
8.349365234375 28.4130859375 -11.2147216796875
11.32666015625 4.2674560546875 45.3033447265625
-19.516845703125 3.9296875 16.7725830078125
-7.00244140625 18.227294921875 -44.6177978515625
8.16748046875 4.715087890625 45.3243408203125
1.9580078125 2.1922607421875 52.8369140625
13.24658203125 2.994140625 53.9603271484375
-22.873046875 2.5716552734375 12.7393798828125
-27.52587890625 5.5211181640625 9.341552734375
5.855712890625 25.5391845703125 -15.9366455078125
21.864501953125 16.79248046875 -30.114990234375
9.4189453125 34.9365234375 -23.1187744140625
18.33154296875 19.538818359375 -46.8447265625
7.881103515625 1.8011474609375 51.915771484375
0.846923828125 22.8148193359375 -58.3773193359375
5.038330078125 22.3529052734375 -57.5732421875
-4.831298828125 19.44580078125 -47.30615234375
20.57666015625 16.7625732421875 -33.4906005859375
4.434326171875 27.8330078125 -15.2108154296875
-24.465087890625 4.6861572265625 4.90185546875
-22.36328125 2.9619140625 17.521728515625
5.94384765625 26.078125 -13.4979248046875
6.025146484375 18.87890625 -46.3997802734375
14.85888671875 3.5198974609375 46.5416259765625
-24.81591796875 4.9866943359375 6.4852294921875
5.845703125 13.9716796875 28.810546875
-6.410888671875 13.6812744140625 -30.3109130859375
-7.6416015625 22.201171875 -57.246337890625
4.587158203125 16.573974609375 -38.6468505859375
12.797607421875 2.9683837890625 48.731201171875
15.06396484375 31.1474609375 -10.075927734375
6.409423828125 2.970947265625 50.5487060546875
-17.906005859375 4.1328125 16.660400390625
23.238037109375 11.6646728515625 39.4244384765625
13.1103515625 33.2275390625 -18.8548583984375
-5.458984375 23.56103515625 -61.35888671875
3.78271484375 25.8328857421875 -15.9228515625
24.259521484375 10.284423828125 38.4180908203125
5.327392578125 15.478515625 -35.7532958984375
19.948486328125 15.0595703125 -29.490234375
18.636962890625 8.0955810546875 36.9814453125
-15.913818359375 5.7757568359375 7.9696044921875
20.023681640625 19.355224609375 -43.3892822265625
14.254150390625 17.0130615234375 -40.5892333984375
7.81689453125 15.2322998046875 -34.0848388671875
18.037353515625 20.688232421875 -50.2705078125
-0.384521484375 23.44677734375 -60.727783203125
-1.2822265625 23.152099609375 -62.331298828125
12.79638671875 29.6341552734375 -4.80419921875
19.77001953125 20.863525390625 -48.6734619140625
21.109619140625 17.666015625 -35.5283203125
-22.90869140625 4.033447265625 5.0020751953125
17.06298828125 19.587158203125 -47.664794921875
20.551025390625 7.234619140625 37.0849609375
8.405517578125 33.275634765625 -19.5267333984375
4.539794921875 24.5623779296875 -10.865234375
2.694091796875 19.219970703125 -47.202880859375
11.230224609375 3.373779296875 47.0908203125
0.6904296875 24.387939453125 -15.3770751953125
19.674560546875 20.015625 -45.76611328125
21.90185546875 16.95849609375 -28.0135498046875
8.4541015625 3.521484375 48.366943359375
6.506591796875 4.0235595703125 47.934814453125
9.657470703125 21.779541015625 -54.999755859375
-7.291015625 20.6011962890625 -51.474609375
-24.51708984375 2.8956298828125 8.6392822265625
18.593017578125 18.0145263671875 -40.706787109375
-21.939208984375 4.428955078125 13.069091796875
13.48046875 17.7496337890625 -43.8206787109375
-24.859619140625 2.103271484375 14.5654296875
11.53466796875 14.81201171875 -32.4254150390625
9.817138671875 14.3558349609375 -31.7677001953125
-1.09521484375 18.957763671875 -46.043212890625
17.23291015625 6.5089111328125 41.0228271484375
-26.34912109375 2.2066650390625 19.4840087890625
8.999755859375 30.271728515625 -10.442138671875
6.388427734375 18.1346435546875 -43.5701904296875
-24.841064453125 1.92236328125 16.2369384765625
-8.067626953125 21.71875 -54.4317626953125
-6.418701171875 12.96826171875 -25.8358154296875
18.658447265625 14.9173583984375 -31.52978515625
-19.136962890625 5.9808349609375 6.4051513671875
22.068115234375 18.603515625 -38.03955078125
1.775390625 14.2935791015625 27.2310791015625
24.8076171875 8.6173095703125 34.19482421875
22.8125 9.0284423828125 32.1204833984375
2.54541015625 17.1292724609375 -40.012939453125
16.057861328125 3.5146484375 45.69287109375
22.312744140625 8.314697265625 33.9317626953125
-17.51416015625 4.4844970703125 14.5145263671875
1.131591796875 14.9573974609375 -33.6568603515625
1.700439453125 13.447998046875 28.656494140625
5.396240234375 13.36962890625 31.4383544921875
12.976806640625 31.688720703125 -12.741943359375
-6.71142578125 15.6800537109375 -36.0546875
-22.375732421875 4.62841796875 10.1685791015625
-0.50390625 21.6751708984375 -55.274658203125
-10.68994140625 4.75537109375 13.7630615234375
-18.306640625 3.55859375 19.2613525390625
-17.0673828125 7.2645263671875 3.9256591796875
3.2607421875 15.6182861328125 -35.691162109375
-22.646484375 3.159912109375 23.186767578125
6.861083984375 3.8056640625 45.9398193359375
10.73681640625 2.23779296875 52.555908203125
-24.80078125 1.0196533203125 21.7254638671875
13.694091796875 34.9742431640625 -25.534912109375
-13.423828125 7.0638427734375 5.89013671875
-12.697998046875 4.4229736328125 15.564453125
-22.349853515625 3.4886474609375 16.1732177734375
-10.64453125 5.842529296875 10.2064208984375
-25.1689453125 3.65673828125 13.7962646484375
11.990234375 2.8372802734375 49.9921875
17.34814453125 3.996826171875 47.99609375
-29.22216796875 5.134765625 5.402099609375
21.30517578125 18.6099853515625 -26.3251953125
9.421875 5.2200927734375 43.9713134765625
6.290771484375 2.4849853515625 44.5853271484375
6.602783203125 20.8406982421875 -53.1944580078125
11.347412109375 21.6719970703125 -54.1795654296875
-21.163818359375 5.7701416015625 6.132080078125
-22.362548828125 5.15966796875 8.8046875
-28.302490234375 4.917724609375 12.39208984375
-19.08740234375 4.933349609375 14.06103515625
19.0400390625 22.0933837890625 -55.1890869140625
-0.10107421875 1.385986328125 54.2431640625
-22.83984375 1.202880859375 19.9842529296875
-26.34619140625 1.744140625 21.2147216796875
9.503173828125 20.1077880859375 -50.047119140625
16.07373046875 18.3388671875 -45.02099609375
3.583984375 2.7347412109375 50.27685546875
7.98974609375 14.8922119140625 27.7081298828125
-11.9248046875 5.850341796875 5.306640625
5.33544921875 20.657470703125 -51.3148193359375
-13.403564453125 6.6072998046875 9.7205810546875
-5.142822265625 21.3453369140625 -53.1556396484375
4.2353515625 1.8963623046875 45.570068359375
12.431396484375 19.82421875 -49.23828125
-2.31201171875 19.464111328125 -47.0142822265625
-1.113525390625 20.1177978515625 -57.3209228515625
10.965087890625 4.83349609375 41.9600830078125
20.335693359375 18.3406982421875 -39.16748046875
14.404296875 2.70556640625 53.1676025390625
18.493408203125 3.6868896484375 45.1756591796875
8.127197265625 14.137451171875 -31.614501953125
15.02099609375 16.3037109375 -38.240234375
17.197509765625 3.1031494140625 44.109375
-3.333251953125 16.6455078125 -39.1177978515625
-16.3564453125 3.076416015625 18.8880615234375
7.958251953125 25.346435546875 -14.251953125
-22.882080078125 3.992431640625 6.654541015625
-13.12158203125 3.3797607421875 19.915283203125
-1.00048828125 14.2362060546875 -32.038330078125
16.137939453125 4.3084716796875 42.2930908203125
18.25341796875 15.0870361328125 -32.8515625
16.65234375 19.7611083984375 -49.0096435546875
-0.167724609375 13.876220703125 -28.552001953125
3.098876953125 13.50048828125 -29.0269775390625
-6.58544921875 17.96728515625 -42.8258056640625
5.3701171875 27.9615478515625 -8.36572265625
-0.046142578125 16.0682373046875 -37.8128662109375
21.873291015625 10.6197509765625 41.3175048828125
1.364990234375 18.2518310546875 -44.2076416015625
-8.06201171875 13.33154296875 -27.9906005859375
3.319091796875 21.9173583984375 -55.571533203125
0.489013671875 17.6220703125 -41.7918701171875
-17.08935546875 5.2662353515625 12.2579345703125
-21.1435546875 4.7044677734375 11.739990234375
-15.07373046875 5.3328857421875 12.5701904296875
-19.087646484375 6.8653564453125 5.35400390625
-24.8251953125 3.9871826171875 9.609130859375
-16.323974609375 6.1827392578125 5.4095458984375
15.589111328125 17.73681640625 -43.060791015625
10.105224609375 33.196533203125 -19.5833740234375
-20.73046875 2.961669921875 19.902099609375
-16.7587890625 2.5052490234375 21.4801025390625
11.999267578125 35.243896484375 -26.4144287109375
1.830810546875 13.1162109375 -27.5667724609375
15.25390625 3.2208251953125 50.62939453125
25.8271484375 9.89404296875 36.3787841796875
18.906494140625 6.96337890625 39.65234375
-5.480712890625 23.133056640625 -59.887939453125
-5.133056640625 14.10546875 -30.5068359375
-5.9326171875 22.6102294921875 -58.362060546875
12.56494140625 31.56787109375 -9.6417236328125
16.365234375 20.9759521484375 -52.02734375
-4.587646484375 16.693359375 -39.9285888671875
-19.098388671875 2.96142578125 22.28125
-2.951416015625 23.089111328125 -60.015869140625
10.79150390625 20.32861328125 -50.62841796875
9.38134765625 34.4915771484375 -21.6708984375
15.29833984375 3.7076416015625 48.1138916015625
8.047119140625 15.203369140625 29.7203369140625
14.2626953125 31.4598388671875 -8.8177490234375
3.54638671875 14.0252685546875 -31.347900390625
5.20947265625 15.7611083984375 26.7935791015625
7.438720703125 13.4876708984375 30.0980224609375
6.5947265625 24.2056884765625 -11.291259765625
3.337890625 22.279296875 -57.4521484375
17.40771484375 18.8387451171875 -44.822021484375
18.578857421875 21.69921875 -52.8330078125
9.818603515625 18.963134765625 -46.6317138671875
8.270263671875 20.4637451171875 -50.97314453125
14.511962890625 15.0860595703125 -30.0850830078125
-28.308349609375 6.083984375 8.41259765625
-0.96826171875 20.9755859375 -52.8228759765625
10.451171875 31.980224609375 -13.143310546875
10.6318359375 18.553466796875 -44.3673095703125
14.07275390625 19.2952880859375 -46.9708251953125
14.60986328125 31.0130615234375 -11.3258056640625
13.35498046875 20.6171875 -51.740478515625
7.766845703125 19.524169921875 -48.0135498046875
3.921630859375 26.390869140625 -9.1771240234375
-27.167724609375 5.7529296875 6.3912353515625
-22.83349609375 2.511474609375 15.2008056640625
10.325439453125 2.0521240234375 53.80810546875
15.86865234375 30.505859375 -6.0302734375
-6.81689453125 21.812744140625 -55.8448486328125
10.283203125 14.9710693359375 -34.5584716796875
2.22021484375 1.4912109375 47.724853515625
19.480712890625 4.8575439453125 47.77294921875
1.623046875 24.8447265625 -11.6708984375
8.776123046875 21.4075927734375 -53.946533203125
5.867431640625 22.0274658203125 -55.7515869140625
3.867431640625 18.1170654296875 -43.863525390625
1.0654296875 1.4188232421875 51.7943115234375
-3.198974609375 20.34765625 -57.720947265625
17.24560546875 3.3265380859375 46.4993896484375
-19.514892578125 5.522705078125 9.829345703125
-4.20458984375 15.7593994140625 -35.351318359375
-1.885498046875 19.7623291015625 -48.875244140625
-20.322021484375 5.73828125 8.575439453125
-6.10009765625 19.2269287109375 -46.730712890625
-29.55810546875 5.414306640625 7.810791015625
12.97216796875 16.7962646484375 -40.0196533203125
9.93505859375 2.3084716796875 51.3602294921875
13.73291015625 16.0 -37.2137451171875
1.732421875 17.623779296875 -42.72265625
-0.8251953125 16.75 -39.28271484375
-14.676513671875 6.181640625 7.81640625
-24.888916015625 0.076416015625 20.3251953125
-1.693603515625 16.12548828125 -36.8856201171875
14.415283203125 14.46875 -32.035400390625
-4.791015625 21.17236328125 -57.0465087890625
0.1103515625 26.4718017578125 -12.0460205078125
12.322021484375 14.3712158203125 -31.470458984375
6.04833984375 14.1273193359375 -31.506103515625
-0.122802734375 14.91796875 -34.0089111328125
12.89501953125 3.982666015625 44.89892578125
13.782958984375 30.923583984375 -7.3511962890625
-24.861572265625 0.8773193359375 18.922119140625
2.309326171875 14.1358642578125 -31.747314453125
14.134033203125 19.8707275390625 -48.4737548828125
17.132080078125 2.2138671875 51.5543212890625
-12.432373046875 1.40869140625 24.0
13.01416015625 36.6025390625 -27.7431640625
5.672119140625 14.59619140625 -32.9180908203125
6.6884765625 1.72705078125 53.172119140625
4.290771484375 15.033203125 25.3175048828125
16.177978515625 7.7911376953125 39.5853271484375
8.911376953125 4.155517578125 46.213623046875
21.835205078125 7.5787353515625 39.434326171875
8.110107421875 18.6246337890625 -45.12451171875
-1.841796875 20.4266357421875 -50.84326171875
-0.954833984375 21.541748046875 -56.515869140625
2.974365234375 13.649169921875 31.053466796875
-22.84423828125 1.90625 16.974609375
2.8984375 24.8603515625 -10.44189453125
18.166015625 7.5303955078125 38.748779296875
15.249755859375 32.8184814453125 -13.149658203125
-17.8759765625 6.0150146484375 9.639892578125
17.536865234375 5.7135009765625 41.980224609375
26.13427734375 9.38671875 31.515625
5.6708984375 3.608154296875 49.24853515625
4.75244140625 2.7891845703125 47.003173828125
-14.26123046875 3.628662109375 22.35107421875
-10.7890625 2.699462890625 19.5721435546875
2.117919921875 22.883544921875 -58.912353515625
16.81103515625 21.30419921875 -54.7939453125
7.03076171875 15.87353515625 -36.826904296875
11.51806640625 14.772705078125 -33.7001953125
-25.56298828125 5.3433837890625 8.0711669921875
21.1669921875 8.4951171875 41.7420654296875
-24.675048828125 2.448974609375 23.4246826171875
-11.880859375 5.9310302734375 7.76171875
-4.108642578125 17.5927734375 -41.9710693359375
6.552734375 20.03271484375 -48.9893798828125
7.552490234375 28.7236328125 -9.9632568359375
14.439453125 3.2310791015625 49.0361328125
12.406005859375 3.125244140625 47.5025634765625
17.30517578125 3.6107177734375 49.281982421875
6.951416015625 12.9169921875 28.9913330078125
14.41455078125 2.88720703125 51.52197265625
11.962890625 19.2822265625 -46.8531494140625
-15.199462890625 6.940185546875 21.6405029296875
-2.950927734375 23.3885498046875 -62.3203125
17.61181640625 16.86376953125 -38.5538330078125
-28.3203125 6.721435546875 5.7833251953125
9.4853515625 30.9927978515625 -12.83203125
8.51171875 4.3338623046875 44.166748046875
4.998046875 29.0894775390625 -15.1502685546875
-0.742919921875 18.0872802734375 -44.041015625
-28.711181640625 5.30078125 10.67626953125
10.619384765625 5.1129150390625 44.3580322265625
4.383544921875 2.8653564453125 49.018798828125
2.402099609375 20.8511962890625 -51.6563720703125
12.435302734375 3.1053466796875 51.142333984375
-24.510009765625 2.6527099609375 9.9267578125
-5.14697265625 21.5513916015625 -54.97314453125
0.272216796875 20.504150390625 -50.549560546875
12.110595703125 31.4334716796875 -10.8917236328125
7.16015625 3.1822509765625 43.2117919921875
1.14599609375 21.16943359375 -53.8798828125
-18.334228515625 2.80908203125 21.06494140625
-11.477783203125 5.35986328125 11.1824951171875
-12.800048828125 2.0689697265625 22.239501953125
5.98095703125 3.04638671875 46.9163818359375
1.409423828125 18.8231201171875 -45.6993408203125
-5.64501953125 20.0089111328125 -49.623291015625
-4.484130859375 18.5107421875 -45.71240234375
8.410400390625 17.336181640625 -41.6845703125
10.563720703125 17.918212890625 -43.2874755859375
7.1220703125 16.94287109375 -40.192626953125
-5.540283203125 14.5338134765625 -33.1829833984375
5.23095703125 19.4166259765625 -47.84033203125
-2.663330078125 17.0596923828125 -55.2921142578125
5.848876953125 16.614013671875 -38.2943115234375
25.457275390625 10.4442138671875 28.837646484375
-13.886962890625 4.1832275390625 17.7159423828125
-22.357666015625 2.7193603515625 18.800537109375
-2.34716796875 12.3695068359375 -25.00634765625
2.014892578125 15.641845703125 -35.6343994140625
-1.03271484375 0.19580078125 53.2750244140625
4.353759765625 13.7362060546875 -30.4439697265625
19.6845703125 16.150634765625 -28.949951171875
-2.86328125 17.4814453125 -41.56884765625
23.41796875 10.0838623046875 39.3092041015625
-5.4345703125 16.2200927734375 -37.5811767578125
0.550537109375 12.583984375 -26.0643310546875
-8.394287109375 15.112548828125 -34.074462890625
13.080810546875 22.107666015625 -56.18115234375
-1.0634765625 13.3551025390625 -29.626708984375
16.398193359375 2.7698974609375 50.672607421875
-15.482177734375 5.73876953125 10.020263671875
13.638427734375 3.403564453125 46.6025390625
-19.0712890625 6.5135498046875 7.9180908203125
-5.619873046875 13.0718994140625 -28.4588623046875
14.361083984375 32.8309326171875 -17.0496826171875
-6.83056640625 13.221435546875 -27.593017578125
10.7744140625 2.7215576171875 50.05126953125
2.727783203125 27.0328369140625 -9.2957763671875
6.330322265625 14.871826171875 26.1090087890625
3.08056640625 15.20458984375 25.325439453125
15.375 19.7198486328125 -49.3629150390625
14.587158203125 20.2606201171875 -50.8126220703125
-3.05419921875 21.2054443359375 -53.2230224609375
-7.255615234375 21.267333984375 -53.4482421875
-19.06396484375 5.9368896484375 10.9427490234375
10.471923828125 3.789794921875 46.2298583984375
12.848876953125 34.8135986328125 -21.9248046875
7.001708984375 20.396484375 -50.444580078125
2.367919921875 20.3385009765625 -49.736328125
12.88427734375 4.14599609375 41.2135009765625
-17.106201171875 4.3262939453125 15.7642822265625
-16.314453125 3.9698486328125 17.044189453125
23.716796875 9.665771484375 31.1314697265625
18.23095703125 18.60693359375 -43.485107421875
3.164794921875 2.3072509765625 52.7794189453125
11.885986328125 18.5556640625 -45.303466796875
23.163330078125 8.3826904296875 38.001708984375
3.497314453125 18.657958984375 -44.8890380859375
-20.70654296875 3.0023193359375 21.1134033203125
-17.976806640625 5.3814697265625 6.5072021484375
-26.332275390625 2.8724365234375 18.1080322265625
10.070556640625 17.1661376953125 -41.2841796875
6.82080078125 15.1171875 31.0286865234375
12.658935546875 17.8416748046875 -42.9400634765625
-19.857177734375 7.659912109375 3.944091796875
20.56494140625 7.274658203125 38.306640625
-7.0732421875 16.91552734375 -40.731201171875
11.56591796875 34.9578857421875 -23.22607421875
16.08642578125 7.04833984375 40.5496826171875
-29.148193359375 6.650146484375 4.600341796875
-16.694580078125 5.538330078125 10.5311279296875
-0.788330078125 17.429931640625 -42.093505859375
8.295654296875 1.7664794921875 53.91943359375
-2.421142578125 18.0166015625 -43.9281005859375
-23.310302734375 0.834716796875 17.2462158203125
7.3701171875 27.1910400390625 -10.408935546875
16.232421875 15.864990234375 -36.86865234375
12.021728515625 2.9185791015625 52.3983154296875
-13.46484375 5.2305908203125 13.35107421875
-13.8740234375 4.81591796875 15.1085205078125
16.603271484375 15.3681640625 -34.5765380859375
12.529052734375 31.1011962890625 -7.3428955078125
-18.30908203125 3.8023681640625 17.9801025390625
-11.17431640625 2.654296875 20.8214111328125
1.500732421875 14.42529296875 -32.65234375
-27.52099609375 3.9715576171875 14.63330078125
14.595947265625 30.5260009765625 -5.980224609375
20.668212890625 21.1829833984375 -47.953369140625
-24.50048828125 2.329345703125 11.6405029296875
1.263916015625 16.849609375 -39.8553466796875
1.9609375 2.0921630859375 54.05908203125
4.61669921875 29.3414306640625 -13.9000244140625
-1.701171875 22.9119873046875 -60.024169921875
7.53857421875 2.3800048828125 50.6171875
19.366943359375 17.365478515625 -37.939697265625
18.82568359375 20.12060546875 -47.9376220703125
4.09521484375 20.923828125 -51.7740478515625
15.114990234375 5.784912109375 41.232177734375
4.056640625 15.0655517578125 -33.411376953125
6.151611328125 24.163330078125 -12.9813232421875
1.13916015625 24.5206298828125 -14.142578125
18.960693359375 21.2783203125 -50.95751953125
18.89306640625 20.69873046875 -49.445556640625
19.31298828125 6.843017578125 42.1156005859375
1.288818359375 23.30126953125 -61.2113037109375
13.11865234375 32.892333984375 -13.5108642578125
6.308837890625 17.3489990234375 -42.4427490234375
9.1015625 6.033203125 42.201904296875
1.33642578125 25.9315185546875 -10.230712890625
-25.196044921875 5.8006591796875 4.648193359375
21.1796875 18.2371826171875 -37.0106201171875
9.89892578125 19.7801513671875 -48.6502685546875
-25.96728515625 5.6456298828125 6.7789306640625
-7.1904296875 14.44189453125 -32.215087890625
-19.51806640625 4.887939453125 12.4490966796875
-7.4892578125 16.710205078125 -39.351318359375
-0.16064453125 14.24658203125 -31.22900390625
-32.409912109375 5.1546630859375 5.5333251953125
-20.679931640625 2.8812255859375 23.1737060546875
5.873046875 1.45703125 54.4483642578125
19.98291015625 22.7254638671875 -54.5789794921875
5.188232421875 2.6939697265625 51.4417724609375
8.38623046875 2.8538818359375 49.7000732421875
19.118896484375 5.0968017578125 48.9603271484375
-2.110107421875 1.1820068359375 53.939453125
-2.77587890625 16.022216796875 -55.790771484375
6.74267578125 25.9781494140625 -16.5325927734375
2.298095703125 1.454833984375 54.9595947265625
4.306396484375 1.678955078125 54.458740234375
0.94775390625 14.2833251953125 26.433349609375
-8.517578125 21.020263671875 -51.98583984375
-11.1806640625 4.9163818359375 6.7489013671875
-5.057373046875 15.0277099609375 -31.6513671875
-13.45947265625 6.465576171875 6.8687744140625
14.391845703125 33.2080078125 -18.90869140625
13.16357421875 33.7353515625 -19.876953125
19.744873046875 7.1175537109375 40.4129638671875
21.3974609375 20.0750732421875 -42.824951171875
21.275390625 19.102783203125 -40.763427734375
16.269775390625 8.5360107421875 38.6181640625
-2.348388671875 18.9805908203125 -45.9835205078125
9.0751953125 1.7752685546875 51.8829345703125
7.13427734375 22.005126953125 -55.814453125
2.041015625 16.167236328125 -38.383544921875
11.731201171875 21.2777099609375 -53.1893310546875
24.8359375 8.8902587890625 32.07666015625
18.685546875 5.1346435546875 44.088134765625
20.24853515625 17.5919189453125 -36.7587890625
14.20068359375 16.532958984375 -39.56689453125
13.880859375 21.6534423828125 -55.190673828125
-26.744873046875 4.95947265625 10.2685546875
-22.36181640625 1.7923583984375 22.2659912109375
14.267578125 21.2327880859375 -53.313720703125
-20.313720703125 3.7366943359375 17.6666259765625
-2.72119140625 19.905029296875 -49.7476806640625
14.20947265625 4.2196044921875 54.1263427734375
-21.55419921875 5.4976806640625 7.864013671875
-26.3408203125 3.499755859375 15.5147705078125
-7.1806640625 22.7869873046875 -58.353759765625
-7.995361328125 23.2413330078125 -59.3447265625
21.4951171875 8.2611083984375 34.7943115234375
8.25048828125 15.52392578125 -35.918212890625
9.968505859375 20.65185546875 -52.44091796875
13.658203125 34.3441162109375 -20.9500732421875
14.909423828125 15.2357177734375 -34.878662109375
10.332275390625 15.447265625 -35.571044921875
-0.489990234375 15.5382080078125 -35.4725341796875
-19.498779296875 3.503173828125 19.7288818359375
5.138671875 18.246337890625 -43.9737548828125
-20.328857421875 3.919677734375 15.989990234375
-1.3681640625 14.8546142578125 -33.496826171875
9.3251953125 18.09375 -43.279296875
20.402099609375 18.939208984375 -41.5343017578125
-5.1318359375 22.0926513671875 -57.787353515625
0.205810546875 19.596923828125 -48.063720703125
1.46240234375 19.57421875 -48.1241455078125
-24.097412109375 1.4879150390625 15.08935546875
15.530517578125 17.141845703125 -40.69775390625
-4.3984375 19.7183837890625 -48.2894287109375
23.532958984375 8.289794921875 33.893798828125
3.82470703125 17.6357421875 -42.8375244140625
-4.097412109375 17.946044921875 -43.8154296875
-4.91552734375 18.23974609375 -44.733642578125
17.87939453125 15.4713134765625 -33.81298828125
8.462646484375 29.3243408203125 -10.5982666015625
4.335205078125 2.8243408203125 44.99072265625
-5.800048828125 17.1949462890625 -40.88916015625
-30.7900390625 5.03173828125 7.137939453125
18.500244140625 3.5037841796875 49.66796875
17.201416015625 20.83203125 -51.148681640625
9.05859375 15.1212158203125 -33.6839599609375
20.311279296875 8.152099609375 42.654541015625
15.50048828125 4.926513671875 53.1575927734375
-5.21142578125 12.73291015625 -26.249267578125
22.40087890625 8.6590576171875 40.0281982421875
-31.226318359375 4.7620849609375 5.9932861328125
-24.003662109375 0.8890380859375 22.5345458984375
10.6171875 5.339111328125 41.0615234375
4.978515625 21.591064453125 -55.1129150390625
7.4267578125 24.4132080078125 -14.401123046875
15.74267578125 19.124267578125 -46.5682373046875
0.754638671875 21.5626220703125 -54.8682861328125
3.25732421875 24.8988037109375 -16.0694580078125
14.939453125 4.4156494140625 41.90625
16.302001953125 2.444580078125 43.856689453125
-8.415771484375 14.528564453125 -31.7528076171875
3.346923828125 24.9931640625 -9.2073974609375
12.698974609375 18.2606201171875 -44.3809814453125
12.412841796875 30.0355224609375 -5.7579345703125
-15.085693359375 6.589599609375 5.253662109375
3.558837890625 19.498046875 -47.7772216796875
5.094482421875 26.2774658203125 -16.107421875
-23.30419921875 0.5946044921875 18.5205078125
18.37353515625 16.1546630859375 -36.2080078125
22.216064453125 7.5252685546875 36.5595703125
-0.234619140625 19.235107421875 -46.6158447265625
2.226318359375 18.5283203125 -44.7781982421875
13.989501953125 14.4874267578125 -33.3074951171875
16.448486328125 14.00439453125 -31.1363525390625
15.581787109375 32.0303955078125 -12.5150146484375
5.964111328125 25.8785400390625 -9.5618896484375
3.7275390625 16.300048828125 -38.0833740234375
-17.917236328125 6.6561279296875 4.11767578125
20.20166015625 16.8250732421875 -28.3197021484375
-21.126220703125 4.43896484375 13.8526611328125
-15.534912109375 3.4718017578125 18.3555908203125
0.02490234375 23.20556640625 -59.7862548828125
-0.219482421875 0.623046875 51.172119140625
0.82275390625 22.478515625 -57.380615234375
-22.890869140625 3.3009033203125 8.8792724609375
15.72265625 14.7611083984375 -30.046142578125
1.21484375 22.083740234375 -56.3880615234375
7.492431640625 21.2755126953125 -53.8302001953125
20.60400390625 17.0274658203125 -34.869873046875
-21.909912109375 4.224853515625 15.5723876953125
11.57470703125 14.9776611328125 -30.3336181640625
19.5234375 15.0784912109375 -30.7635498046875
4.513671875 21.0709228515625 -53.59521484375
-24.117431640625 0.8248291015625 16.4683837890625
2.5439453125 23.0062255859375 -59.8585205078125
13.44921875 21.531494140625 -54.24755859375
10.23974609375 34.811767578125 -25.3231201171875
-25.17724609375 2.66455078125 16.88916015625
-24.134033203125 3.712890625 4.725830078125
-5.162109375 21.01171875 -52.1678466796875
4.042236328125 20.2572021484375 -49.800048828125
-20.752197265625 4.8936767578125 10.4464111328125
-0.62939453125 19.7396240234375 -48.9359130859375
8.655029296875 19.9564208984375 -48.6419677734375
19.6357421875 19.6826171875 -44.782470703125
18.294189453125 19.206298828125 -45.861083984375
-23.31201171875 -0.0850830078125 20.7054443359375
-11.890625 4.8626708984375 13.3753662109375
9.787841796875 18.632080078125 -45.6510009765625
4.77978515625 18.965576171875 -45.927490234375
7.673583984375 26.22705078125 -11.0262451171875
10.855224609375 31.611328125 -10.8834228515625
12.274169921875 33.0406494140625 -14.38720703125
16.860595703125 17.77734375 -42.70751953125
14.720458984375 17.4356689453125 -41.616455078125
9.2587890625 33.3450927734375 -20.4625244140625
14.665771484375 31.2137451171875 -7.900634765625
-1.198486328125 17.287109375 -40.2989501953125
-8.2373046875 18.40234375 -44.609619140625
-3.563232421875 19.575927734375 -47.4183349609375
-15.08447265625 4.453369140625 16.4722900390625
-5.83740234375 16.5411376953125 -38.953125
22.0322265625 18.2225341796875 -35.317138671875
-15.528076171875 5.82275390625 6.7047119140625
16.3037109375 16.5198974609375 -38.80810546875
11.664794921875 16.2279052734375 -37.6104736328125
3.361083984375 17.037353515625 -40.8892822265625
17.671875 21.2886962890625 -53.081787109375
-10.71337890625 5.3922119140625 8.2593994140625
22.751953125 8.5701904296875 33.0406494140625
10.00146484375 16.3096923828125 -37.5504150390625
20.970458984375 16.5279541015625 -32.5750732421875
-7.33203125 19.66943359375 -48.11376953125
21.866943359375 16.9547119140625 -33.18408203125
7.951171875 16.8016357421875 -39.326904296875
15.465576171875 20.5408935546875 -51.3927001953125
-27.486083984375 3.7685546875 17.12890625
-4.514404296875 17.82763671875 -42.8900146484375
25.249267578125 8.8734130859375 33.3031005859375
12.459228515625 15.76025390625 -35.779296875
14.12939453125 15.76611328125 -36.2978515625
-14.665771484375 5.5843505859375 11.6702880859375
4.394775390625 14.3197021484375 -32.7667236328125
-18.28955078125 5.3736572265625 11.8702392578125
15.509033203125 20.9654541015625 -52.8525390625
20.46630859375 15.8924560546875 -31.922119140625
-15.48095703125 5.08203125 13.4686279296875
10.971435546875 33.3309326171875 -20.099853515625
19.67919921875 16.36083984375 -33.7513427734375
1.464111328125 13.841796875 -30.3310546875
23.958984375 8.31298828125 36.343505859375
21.323974609375 15.96630859375 -30.6964111328125
-3.74609375 16.328369140625 -36.414306640625
20.2099609375 7.746337890625 36.1748046875
-7.25439453125 13.412109375 -29.7589111328125
13.9853515625 18.479248046875 -44.9559326171875
3.68701171875 24.344482421875 -9.907958984375
-3.347412109375 23.4853515625 -61.0126953125
18.427978515625 6.31884765625 41.835693359375
3.8759765625 2.1337890625 46.748046875
-13.132080078125 3.4813232421875 18.6669921875
6.699462890625 16.824951171875 -39.26904296875
15.9326171875 31.1005859375 -7.4915771484375
-27.1162109375 4.3629150390625 13.7054443359375
4.97119140625 16.1888427734375 -37.6817626953125
1.98388671875 21.0257568359375 -53.0030517578125
-6.3203125 15.29736328125 -35.095947265625
8.820068359375 28.94384765625 -12.68017578125
12.936279296875 16.3558349609375 -37.7171630859375
11.196533203125 15.720458984375 -36.13232421875
11.0166015625 5.159423828125 43.11669921875
-8.471923828125 13.7578125 -30.65673828125
13.656494140625 29.7655029296875 -5.3084716796875
7.27734375 18.7669677734375 -45.9954833984375
6.875 19.003662109375 -46.9215087890625
8.49365234375 18.2357177734375 -44.14892578125
2.354736328125 14.6964111328125 -33.208984375
3.528076171875 19.0775146484375 -46.3316650390625
18.560791015625 4.052734375 47.54150390625
7.083984375 24.737548828125 -10.5968017578125
12.115478515625 16.5850830078125 -39.0428466796875
14.0654296875 3.6522216796875 45.732666015625
9.22216796875 17.042724609375 -40.7672119140625
19.098388671875 14.9378662109375 -28.9813232421875
3.873046875 26.5819091796875 -15.27099609375
-6.941162109375 19.102294921875 -46.2103271484375
-8.190185546875 19.2139892578125 -46.6136474609375
9.46826171875 5.6697998046875 43.072265625
10.225341796875 14.1871337890625 -30.450927734375
5.120361328125 15.0433349609375 26.1170654296875
-1.29052734375 15.892333984375 -35.9730224609375
15.235595703125 2.9578857421875 52.695068359375
5.192138671875 13.856689453125 -30.951171875
-19.897705078125 4.6781005859375 14.564697265625
-25.170654296875 4.9805908203125 8.9666748046875
-4.270263671875 14.8968505859375 -33.7899169921875
-1.178466796875 19.41455078125 -56.63427734375
5.461669921875 22.267578125 -56.689453125
10.9697265625 33.2071533203125 -18.7501220703125
13.936279296875 32.919921875 -17.9307861328125
-5.54296875 21.94482421875 -55.9620361328125
3.05517578125 1.8826904296875 47.2237548828125
15.131591796875 21.4761962890625 -55.1988525390625
13.218017578125 34.5233154296875 -24.50048828125
14.81005859375 3.2967529296875 44.152099609375
8.39599609375 21.892333984375 -55.4071044921875
6.6328125 24.9571533203125 -15.81005859375
11.0908203125 34.3828125 -20.8411865234375
-21.565673828125 6.0733642578125 4.83544921875
-6.02197265625 13.302001953125 -29.3609619140625
-1.516357421875 12.4886474609375 -25.5081787109375
-24.48876953125 3.707763671875 7.2049560546875
-27.168701171875 6.14306640625 5.0572509765625
1.024658203125 1.25732421875 49.8160400390625
-32.436767578125 5.1143798828125 4.3121337890625
-11.576171875 5.136962890625 5.88525390625
-6.3115234375 23.342041015625 -60.353759765625
-17.5234375 5.6314697265625 8.48486328125
17.301025390625 3.895751953125 43.5516357421875
6.756103515625 2.9752197265625 45.287353515625
-6.488037109375 19.8836669921875 -49.100341796875
-17.109375 6.52197265625 4.94384765625
0.726318359375 20.9324951171875 -51.5921630859375
7.114990234375 14.41455078125 27.8406982421875
3.761474609375 22.1939697265625 -56.56884765625
11.7578125 32.1834716796875 -12.821044921875
17.14453125 20.3436279296875 -50.1058349609375
2.44970703125 21.6357421875 -54.98779296875
-7.22216796875 21.845458984375 -54.95947265625
20.607666015625 20.69384765625 -46.913330078125
12.261962890625 33.25244140625 -18.38427734375
-27.1201171875 4.83154296875 11.9549560546875
5.31201171875 28.0916748046875 -14.88916015625
1.12109375 1.7208251953125 53.7470703125
2.701416015625 1.9195556640625 50.851318359375
-7.66015625 21.3001708984375 -52.5648193359375
15.54443359375 21.3006591796875 -53.8455810546875
16.827880859375 17.4228515625 -40.856689453125
-1.794677734375 21.1829833984375 -53.2850341796875
0.3076171875 21.1070556640625 -52.9383544921875
-3.078369140625 20.7821044921875 -51.76806640625
5.743896484375 20.62451171875 -52.1993408203125
-7.739501953125 19.99560546875 -49.5045166015625
12.530517578125 20.8250732421875 -52.203369140625
-8.545654296875 20.0616455078125 -47.74560546875
-2.443359375 17.3984375 -40.7010498046875
-6.035400390625 20.57861328125 -51.5360107421875
8.69775390625 20.5845947265625 -51.9111328125
-3.939208984375 20.502685546875 -51.189697265625
11.615234375 20.1212158203125 -50.1666259765625
19.120849609375 18.9488525390625 -43.64404296875
5.099609375 2.591552734375 44.2005615234375
13.294921875 20.0396728515625 -50.2305908203125
-3.566162109375 19.77978515625 -49.2244873046875
18.172607421875 4.3333740234375 44.2540283203125
-15.5029296875 4.6324462890625 14.3978271484375
12.021240234375 19.857421875 -48.3551025390625
-11.49658203125 4.5609130859375 14.6630859375
2.21875 1.3114013671875 49.3663330078125
2.458740234375 16.084716796875 -37.51806640625
25.3623046875 9.7525634765625 30.2274169921875
1.2001953125 16.044921875 -37.8701171875
6.18701171875 15.7513427734375 -36.3140869140625
1.846923828125 19.09521484375 -46.6812744140625
-5.277587890625 19.0211181640625 -46.2728271484375
-27.0966796875 3.1053466796875 18.898193359375
1.659912109375 22.4510498046875 -57.856689453125
-2.0224609375 17.6048583984375 -42.0853271484375
0.587646484375 19.029052734375 -46.157470703125
2.84375 15.7005615234375 -36.5552978515625
2.68212890625 13.3853759765625 -28.1175537109375
0.60107421875 13.312744140625 -28.41796875
18.489013671875 17.114501953125 -38.2469482421875
-2.13134765625 15.68310546875 -35.0047607421875
-14.3173828125 3.3243408203125 20.3829345703125
-18.7197265625 3.16845703125 20.18310546875
5.72705078125 15.24560546875 -34.8409423828125
14.357177734375 18.001220703125 -43.515869140625
-13.529541015625 2.888427734375 22.0823974609375
16.90234375 14.3577880859375 -32.55615234375
-27.51806640625 2.1322021484375 20.765625
-7.169189453125 14.93896484375 -34.0826416015625
-26.721435546875 1.6995849609375 22.4560546875
24.75537109375 10.896484375 37.8699951171875
-13.04296875 5.789794921875 11.5538330078125
17.546630859375 16.2957763671875 -37.0733642578125
6.275390625 16.9324951171875 -41.008544921875
3.363525390625 16.9246826171875 -39.5582275390625
10.888427734375 16.9610595703125 -40.8282470703125
21.195068359375 9.0657958984375 33.8194580078125
-8.277587890625 17.3927001953125 -40.8228759765625
-0.193359375 0.64453125 53.17138671875
10.85009765625 16.544921875 -39.395751953125
-2.515625 16.4415283203125 -38.6644287109375
7.916015625 16.38623046875 -37.897705078125
18.978271484375 21.4591064453125 -51.896240234375
8.10009765625 4.3494873046875 42.960205078125
20.6328125 7.6435546875 40.69189453125
-27.91845703125 6.1922607421875 7.546630859375
12.506103515625 35.92236328125 -27.077880859375
6.003662109375 18.523193359375 -44.544677734375
11.11474609375 34.91748046875 -24.954833984375
5.584228515625 18.6068115234375 -45.41748046875
10.293212890625 35.0421142578125 -22.75
12.8564453125 35.1893310546875 -25.998291015625
7.219482421875 18.1063232421875 -44.03857421875
1.199462890625 15.845458984375 -36.0865478515625
7.19091796875 17.77685546875 -43.062255859375
6.84375 13.6646728515625 -29.6923828125
13.620361328125 14.9578857421875 -34.7252197265625
