-10.658935546875 -10.5782470703125 17.88623046875
-6.165771484375 2.5740966796875 45.8040771484375
-4.8955078125 8.976318359375 25.431396484375
15.2421875 10.267333984375 -46.39111328125
8.52490234375 18.80517578125 -3.54736328125
-6.620361328125 34.8179931640625 -45.4969482421875
14.483154296875 11.86328125 23.024169921875
7.274169921875 16.4654541015625 -20.8184814453125
17.841552734375 27.0281982421875 -28.578125
21.935302734375 -6.1064453125 30.96923828125
-23.96044921875 -7.9901123046875 12.0164794921875
7.105712890625 -9.5091552734375 39.268798828125
7.59228515625 19.3895263671875 -62.5172119140625
-6.450439453125 10.764892578125 -46.54150390625
5.62353515625 2.185791015625 20.1517333984375
24.33349609375 8.31103515625 43.9620361328125
-3.01318359375 17.0640869140625 1.233154296875
4.371337890625 13.0960693359375 -52.3050537109375
-31.471435546875 -0.870361328125 19.769775390625
2.1630859375 26.759765625 -22.4266357421875
-9.210205078125 2.1236572265625 17.3580322265625
9.610595703125 -12.6334228515625 49.8829345703125
13.159423828125 4.7603759765625 -34.5494384765625
-2.69873046875 5.6300048828125 35.6669921875
23.863037109375 14.757080078125 -23.8011474609375
-6.2275390625 12.29052734375 15.375732421875
-33.76171875 -5.83984375 8.3997802734375
12.477294921875 15.4686279296875 6.1412353515625
-2.984619140625 -3.2239990234375 53.7589111328125
-3.918701171875 4.24462890625 -28.2015380859375
-25.3955078125 -4.7449951171875 2.0615234375
23.96435546875 13.92919921875 -50.3291015625
21.8740234375 16.8753662109375 -35.230224609375
-8.82958984375 -6.9989013671875 8.02685546875
13.808349609375 14.0955810546875 -55.2208251953125
11.094482421875 20.4622802734375 -12.8717041015625
-22.236572265625 -4.9542236328125 20.7508544921875
23.458740234375 10.2352294921875 -41.8028564453125
-8.7919921875 36.5780029296875 -54.357421875
12.578125 24.923828125 -21.39208984375
6.374267578125 9.591064453125 -44.1527099609375
2.875732421875 5.1527099609375 28.2550048828125
4.652587890625 -0.3919677734375 41.306884765625
2.234130859375 10.5234375 20.07421875
16.181640625 -9.2762451171875 37.0850830078125
-0.750244140625 19.122314453125 -66.125732421875
0.26611328125 19.7713623046875 -6.455322265625
11.892333984375 12.7108154296875 14.730712890625
-14.26416015625 9.1240234375 18.4991455078125
3.686279296875 14.7509765625 -13.1539306640625
30.744140625 -6.2628173828125 30.543212890625
-5.999267578125 8.251708984375 -38.5361328125
-29.635986328125 -10.609619140625 17.359619140625
15.261474609375 9.410888671875 30.773681640625
4.652587890625 15.91943359375 3.757080078125
-16.86572265625 -6.026123046875 8.7327880859375
15.98681640625 19.7802734375 -6.3963623046875
-15.4716796875 -2.5416259765625 17.4898681640625
10.232666015625 4.9237060546875 25.80322265625
-1.718994140625 35.2176513671875 -51.5260009765625
-3.26220703125 15.6075439453125 8.7137451171875
-36.9599609375 -0.1617431640625 14.63623046875
0.68310546875 1.046630859375 48.7327880859375
1.671630859375 21.167236328125 -17.4639892578125
1.797607421875 15.884033203125 -58.87353515625
-3.48095703125 13.5150146484375 -52.8055419921875
-22.134033203125 -11.92138671875 18.054931640625
-12.22607421875 7.892333984375 25.4705810546875
3.749755859375 -12.5238037109375 45.423583984375
23.020751953125 -6.937255859375 38.23779296875
12.980712890625 -11.4091796875 43.5706787109375
16.845703125 7.7515869140625 -39.8968505859375
3.025146484375 5.03515625 -29.2352294921875
19.397216796875 23.8946533203125 -21.039794921875
-0.52978515625 9.4647216796875 -43.2408447265625
28.664306640625 -7.6331787109375 24.0587158203125
-0.385498046875 3.993408203125 42.5238037109375
14.47216796875 17.9974365234375 -60.65087890625
11.28564453125 27.1044921875 -27.810302734375
-8.664794921875 -6.0816650390625 1.30908203125
-26.642578125 -0.3277587890625 -2.597900390625
-16.92724609375 -8.791748046875 15.6864013671875
-21.993896484375 -8.7562255859375 5.909912109375
8.47705078125 7.208740234375 -38.250244140625
-25.77783203125 -1.523681640625 16.6898193359375
9.835693359375 11.767333984375 -49.368896484375
23.667724609375 13.656982421875 -30.0357666015625
5.72900390625 20.3526611328125 -9.47705078125
7.82421875 15.07861328125 -57.0736083984375
19.966064453125 14.166748046875 -55.0938720703125
16.220703125 -13.565185546875 48.9564208984375
-31.4853515625 -5.090087890625 2.8134765625
-0.49072265625 36.7313232421875 -45.77880859375
-8.45556640625 10.5435791015625 20.7393798828125
34.53515625 -7.8685302734375 18.2943115234375
-2.57861328125 27.363525390625 -18.730712890625
-6.18603515625 7.339111328125 31.0218505859375
-27.93115234375 -6.57373046875 7.45849609375
14.016357421875 31.308837890625 -30.9658203125
9.654296875 15.26953125 -15.3251953125
-34.7412109375 -5.7200927734375 17.072509765625
2.48779296875 17.924560546875 -1.345703125
15.168212890625 22.792724609375 -16.591064453125
-3.4248046875 6.063720703125 -33.7216796875
-38.31201171875 -8.7152099609375 11.5723876953125
18.107421875 7.4393310546875 -33.025634765625
6.1328125 0.7384033203125 26.4033203125
2.664794921875 5.25341796875 37.77783203125
-11.546630859375 -7.114501953125 13.099609375
12.65283203125 17.6944580078125 0.296875
-10.815673828125 -2.369873046875 20.8541259765625
6.41943359375 12.1573486328125 16.283447265625
0.04736328125 11.4600830078125 -48.4949951171875
-0.36865234375 12.4080810546875 15.1815185546875
-6.19580078125 0.6971435546875 51.1029052734375
-21.1904296875 -4.1441650390625 -1.5869140625
-5.617431640625 4.8614501953125 40.3492431640625
-30.463134765625 -8.3353271484375 12.3575439453125
0.674560546875 21.16552734375 -11.8172607421875
7.077880859375 5.8056640625 -33.124755859375
3.27734375 -12.4266357421875 50.8648681640625
9.75927734375 7.1312255859375 30.7637939453125
11.8837890625 8.904052734375 -42.348876953125
26.706298828125 -7.11767578125 34.061767578125
9.243408203125 14.22216796875 10.29541015625
-10.35791015625 34.3499755859375 -49.7156982421875
-3.168701171875 10.5269775390625 19.7532958984375
20.547119140625 10.9517822265625 -46.7725830078125
2.65283203125 15.7398681640625 -18.27783203125
17.3427734375 12.2000732421875 -50.9215087890625
22.263671875 8.2275390625 -36.9697265625
-25.179931640625 -7.4971923828125 17.2061767578125
1.681396484375 3.36865234375 23.425048828125
-4.179443359375 38.4691162109375 -55.93359375
26.037353515625 -8.4451904296875 28.745849609375
0.308349609375 8.62060546875 24.516357421875
-36.478271484375 -4.60595703125 4.1492919921875
16.525634765625 21.302734375 -11.3538818359375
-12.53759765625 -4.94677734375 5.017578125
-22.78125 0.120361328125 22.998779296875
-5.216064453125 19.44970703125 -63.697998046875
8.172119140625 -10.1357421875 44.7120361328125
-0.93701171875 7.0479736328125 30.97216796875
-19.32958984375 -5.3936767578125 3.24560546875
-3.1953125 23.1488037109375 -7.6357421875
11.34423828125 -7.74365234375 37.3551025390625
17.950927734375 -11.76513671875 41.0369873046875
3.959228515625 6.4404296875 33.172119140625
11.278076171875 19.842529296875 -7.7125244140625
2.83984375 17.544921875 -63.288330078125
-19.32763671875 -0.9488525390625 19.793212890625
3.48779296875 8.18310546875 -40.642578125
-6.109130859375 36.5819091796875 -50.3438720703125
0.972412109375 14.939208984375 6.579833984375
16.28662109375 25.42919921875 -24.2786865234375
12.7529296875 9.43701171875 26.63916015625
6.19970703125 5.4920654296875 23.5106201171875
20.223876953125 -8.414794921875 34.87451171875
-2.24560546875 19.61474609375 -2.498046875
0.668212890625 13.9395751953125 -54.8785400390625
-1.7197265625 17.5731201171875 -61.252685546875
-30.082763671875 -6.0802001953125 17.0623779296875
4.642822265625 11.1485595703125 -48.06982421875
-35.933837890625 -1.3271484375 19.0296630859375
-28.66943359375 -4.623779296875 -1.077880859375
-1.53564453125 7.8736572265625 -39.0054931640625
8.378173828125 16.8524169921875 1.3736572265625
-19.217041015625 -8.034912109375 11.9381103515625
34.037353515625 -6.5950927734375 27.2451171875
17.251953125 15.390380859375 -58.398681640625
7.69482421875 17.806884765625 -12.406005859375
9.302490234375 2.0546875 22.4068603515625
-5.12353515625 9.322998046875 -42.61962890625
5.634521484375 15.046630859375 7.8521728515625
11.8349609375 21.3399658203125 -19.1512451171875
19.422607421875 9.3912353515625 -42.956787109375
4.30029296875 -9.435302734375 42.4771728515625
-11.291259765625 -3.3880615234375 -0.6649169921875
4.299072265625 18.9923095703125 -5.39013671875
-34.62451171875 -8.210205078125 13.6444091796875
12.677001953125 7.4007568359375 -38.3599853515625
9.545654296875 13.5467529296875 -53.57080078125
-37.823486328125 -6.5469970703125 7.6883544921875
-1.26953125 24.177978515625 -16.3607177734375
-8.4443359375 8.2618408203125 27.641845703125
7.20654296875 4.5172119140625 28.7794189453125
-19.77783203125 -6.6182861328125 17.7664794921875
6.369384765625 17.344970703125 -16.752197265625
11.611328125 15.5643310546875 -58.6558837890625
-5.21044921875 -0.1435546875 55.309814453125
-2.9267578125 15.028564453125 -56.591796875
24.27490234375 11.65869140625 -26.41259765625
31.83056640625 -8.498779296875 21.2734375
-33.778076171875 -9.8760986328125 17.2535400390625
12.672119140625 18.8963623046875 -4.0272216796875
-0.321533203125 13.9124755859375 10.9227294921875
5.529296875 16.193115234375 -60.4061279296875
-13.824951171875 -7.1251220703125 17.64697265625
30.277587890625 -8.8934326171875 27.525146484375
20.5341796875 20.394775390625 -10.708251953125
13.228759765625 12.757080078125 -51.478759765625
-22.29296875 -11.207763671875 14.115234375
-2.20703125 2.5377197265625 46.2841796875
-7.321533203125 8.6883544921875 17.4014892578125
-0.560302734375 5.7484130859375 -30.7921142578125
0.577392578125 16.3438720703125 2.7742919921875
3.38134765625 3.4984130859375 41.3685302734375
10.39892578125 -9.061767578125 41.422607421875
-0.033447265625 3.1929931640625 -27.5223388671875
16.269287109375 -10.964599609375 45.7216796875
10.106201171875 10.056396484375 -45.68115234375
-29.4306640625 -0.0718994140625 16.403076171875
-14.645751953125 -11.046630859375 17.96142578125
-12.50244140625 -6.173583984375 9.1474609375
5.53759765625 34.879638671875 -28.3660888671875
3.806884765625 19.0045166015625 -12.659912109375
10.393310546875 17.248046875 -18.584228515625
16.263427734375 6.4549560546875 -36.2633056640625
12.7109375 -11.70751953125 47.4010009765625
-8.9375 -9.5576171875 14.5308837890625
-17.68896484375 -2.4498291015625 -0.5628662109375
-2.48779296875 -0.2618408203125 51.2879638671875
-6.254150390625 12.660400390625 -49.8675537109375
17.407958984375 -5.93212890625 35.6702880859375
16.48681640625 28.1412353515625 -31.9752197265625
8.78662109375 15.6138916015625 5.163818359375
13.869873046875 -10.4664306640625 40.00146484375
-6.20361328125 5.1307373046875 -31.322509765625
-3.8720703125 13.79052734375 12.2135009765625
-15.18505859375 -7.3975830078125 11.8182373046875
0.55419921875 24.9891357421875 -19.5281982421875
6.310546875 -11.6583251953125 48.413818359375
23.20263671875 15.83056640625 -55.9560546875
-1.04345703125 4.2115478515625 38.703369140625
19.892822265625 -8.882568359375 38.791748046875
-21.997802734375 -7.0185546875 1.2470703125
3.34375 5.5113525390625 -33.05224609375
11.675537109375 10.0997314453125 21.3702392578125
0.2880859375 -13.1019287109375 47.071044921875
-2.6416015625 15.4832763671875 5.0810546875
-16.16162109375 -5.53564453125 5.0941162109375
-21.9189453125 -9.75439453125 9.53173828125
3.635498046875 22.4454345703125 -20.2799072265625
-2.822265625 10.3209228515625 -45.9608154296875
-24.251220703125 -1.7242431640625 20.0074462890625
-26.896728515625 -8.4178466796875 14.1259765625
-3.142822265625 36.3504638671875 -48.2462158203125
23.55859375 -8.7716064453125 33.315673828125
-6.090576171875 6.603515625 34.5751953125
18.927734375 23.0582275390625 -17.546142578125
-24.482177734375 -7.0440673828125 8.4588623046875
4.037353515625 14.6507568359375 -55.985595703125
2.720458984375 10.0892333984375 -45.2122802734375
-18.670166015625 -9.9259033203125 18.628662109375
-11.662353515625 9.6529541015625 22.0875244140625
15.81298828125 24.2894287109375 -19.7694091796875
-3.60205078125 7.805908203125 28.524169921875
6.917236328125 13.2789306640625 12.9344482421875
2.255615234375 6.344482421875 21.5994873046875
6.075439453125 17.54052734375 -1.21875
21.415283203125 6.17041015625 -34.05908203125
-4.085205078125 3.0096435546875 42.999267578125
35.790283203125 -10.121826171875 20.6829833984375
20.770263671875 12.511474609375 -50.027099609375
0.7763671875 5.734130859375 34.4478759765625
12.60595703125 15.0350341796875 9.7994384765625
6.14404296875 4.826416015625 38.356689453125
-25.368408203125 -3.2816162109375 -1.2816162109375
-31.284912109375 -2.0770263671875 -1.72119140625
-6.106201171875 14.96923828125 -55.210205078125
2.747314453125 1.44580078125 26.2098388671875
3.10205078125 11.3587646484375 16.75927734375
-23.18017578125 -5.535400390625 4.572021484375
12.588623046875 25.8768310546875 -24.875732421875
-12.113037109375 -3.2435302734375 17.6817626953125
-22.14306640625 -8.31787109375 19.5831298828125
-36.089599609375 -1.3458251953125 1.7396240234375
-4.511962890625 36.1378173828125 -53.3409423828125
-27.342529296875 -7.2025146484375 10.9556884765625
3.197509765625 19.7535400390625 -65.874755859375
8.61376953125 8.561767578125 -41.384521484375
-6.517333984375 7.0145263671875 -35.403076171875
10.268798828125 6.2960205078125 -35.4798583984375
-8.876220703125 9.3931884765625 24.46484375
-0.242431640625 13.121826171875 -51.7109375
5.69873046875 6.660400390625 -36.3828125
-30.996337890625 -6.1588134765625 5.9937744140625
24.562744140625 9.9019775390625 -29.2930908203125
23.68359375 12.18310546875 -47.01318359375
15.560302734375 8.966064453125 -43.2965087890625
11.88427734375 11.8271484375 17.984130859375
14.52783203125 27.18505859375 -29.1597900390625
9.4345703125 1.6614990234375 25.93115234375
-19.317138671875 -6.523681640625 6.495361328125
-28.053955078125 -5.7225341796875 3.8507080078125
2.303466796875 17.3211669921875 -15.3546142578125
-5.353515625 9.945068359375 22.2672119140625
-27.65478515625 -1.1385498046875 19.4102783203125
-9.29052734375 -6.088623046875 4.869384765625
-8.95068359375 -8.6021728515625 11.353515625
32.003173828125 -8.5450439453125 24.7171630859375
13.270751953125 21.1121826171875 -10.484619140625
-0.434814453125 8.3021240234375 27.697021484375
-3.15869140625 11.797607421875 -49.10546875
7.65478515625 19.939208984375 -6.8642578125
8.877685546875 20.18701171875 -10.261962890625
2.22998046875 20.9788818359375 -8.7437744140625
20.25 8.3341064453125 -40.0009765625
19.564208984375 -5.565673828125 33.27197265625
-4.036865234375 1.401611328125 48.709716796875
-20.09033203125 -9.466552734375 15.713134765625
6.24609375 14.5018310546875 -15.228515625
14.259033203125 22.128662109375 -13.570068359375
11.543212890625 16.2364501953125 2.9476318359375
-1.5517578125 36.8499755859375 -54.3922119140625
26.450927734375 -6.443603515625 26.263916015625
-2.185791015625 9.9554443359375 22.8170166015625
-30.919921875 -7.1199951171875 9.182373046875
7.458251953125 6.2789306640625 32.8482666015625
-37.25341796875 -4.60986328125 15.439208984375
0.878662109375 2.851806640625 45.5299072265625
17.02734375 13.5223388671875 -54.0657958984375
17.439208984375 21.9638671875 -14.3651123046875
-16.486083984375 -5.5009765625 18.0887451171875
23.2705078125 14.6787109375 -33.48583984375
22.46826171875 14.2332763671875 -53.060791015625
15.427734375 11.0111083984375 27.0218505859375
7.01611328125 12.1068115234375 -50.9749755859375
-3.129150390625 11.739990234375 16.466552734375
8.9052734375 16.38818359375 -59.953125
-3.670654296875 6.1865234375 32.66455078125
-13.849365234375 -2.04638671875 20.2576904296875
-32.4560546875 -2.9034423828125 17.635498046875
11.19140625 19.918701171875 -16.4644775390625
19.148681640625 7.072265625 -37.2337646484375
-0.417236328125 11.18994140625 18.4803466796875
-33.932373046875 -3.6934814453125 1.5157470703125
18.071044921875 21.114990234375 -8.2655029296875
-31.63671875 -8.9376220703125 15.15673828125
-13.891845703125 -8.500732421875 14.8819580078125
-19.970458984375 -3.461181640625 18.1197509765625
-1.438232421875 21.2431640625 -9.295654296875
12.51220703125 10.9560546875 -48.09423828125
-36.01806640625 -7.2261962890625 10.1932373046875
28.07275390625 -8.052001953125 31.48681640625
20.64697265625 15.5849609375 -57.9427490234375
-6.209716796875 5.146728515625 37.366455078125
-0.306640625 27.77978515625 -20.9515380859375
9.57470703125 -12.013671875 46.89697265625
-12.277587890625 -4.72021484375 1.891845703125
9.483642578125 2.8780517578125 35.7017822265625
-0.24951171875 17.58056640625 -0.07177734375
2.499755859375 12.430908203125 -50.003662109375
-2.578125 21.1136474609375 -5.4803466796875
10.365478515625 5.338623046875 33.1231689453125
7.355712890625 10.514892578125 -46.85009765625
10.96142578125 7.292236328125 28.0040283203125
0.23486328125 22.1463623046875 -14.7293701171875
9.435302734375 11.592529296875 16.0582275390625
11.722412109375 7.930908203125 23.4541015625
2.064697265625 6.6573486328125 30.7275390625
1.52783203125 5.98095703125 25.223876953125
-26.618896484375 -10.166748046875 16.534423828125
-3.474609375 6.716796875 -36.6318359375
2.424072265625 13.0262451171875 14.341552734375
0.740234375 18.978515625 -3.621337890625
20.449462890625 -10.8712158203125 42.3702392578125
-7.801513671875 34.6663818359375 -48.19580078125
17.64111328125 10.93994140625 -48.2786865234375
6.89990234375 2.6424560546875 24.30517578125
-37.051025390625 -10.07421875 14.23779296875
15.721923828125 -10.7091064453125 42.80224609375
18.644287109375 -12.215576171875 47.321044921875
-24.168701171875 -4.8641357421875 17.940185546875
2.7509765625 3.025146484375 20.75439453125
10.646240234375 14.79150390625 -55.94189453125
-21.592041015625 -2.0396728515625 21.498779296875
4.918701171875 5.60107421875 30.5911865234375
5.281494140625 5.6630859375 35.7431640625
18.5849609375 25.6029052734375 -25.9981689453125
22.546630859375 10.950439453125 -44.677490234375
7.019287109375 -10.5662841796875 41.93798828125
10.75830078125 18.048095703125 -1.8321533203125
6.79052734375 13.9549560546875 -54.2657470703125
3.3857421875 17.0325927734375 1.4373779296875
-33.322509765625 -7.0150146484375 11.14697265625
14.42431640625 15.332275390625 -58.0108642578125
-19.67822265625 -7.1795654296875 9.25
-33.846435546875 -4.873779296875 5.20458984375
2.85400390625 14.592041015625 8.6781005859375
-4.601318359375 17.4466552734375 -61.787109375
-1.021728515625 15.8814697265625 -58.9744873046875
-0.013427734375 17.597412109375 -63.8775634765625
4.4970703125 2.70166015625 28.01318359375
-23.962890625 -9.259765625 15.239013671875
-17.376708984375 -3.92919921875 1.8759765625
9.818115234375 26.2872314453125 -25.5745849609375
-5.43310546875 10.918701171875 18.1650390625
-2.69140625 18.3106689453125 -64.196533203125
-3.11279296875 4.6787109375 -31.1402587890625
11.489013671875 13.6513671875 11.941650390625
16.11572265625 -11.5679931640625 38.6607666015625
14.880126953125 26.05126953125 -26.595703125
14.96435546875 11.7525634765625 -49.5556640625
0.76220703125 6.423583984375 -33.86865234375
-25.779541015625 -5.981689453125 5.8125
0.717529296875 8.1868896484375 -40.7568359375
-0.00537109375 10.4930419921875 -45.89990234375
24.022216796875 -8.118896484375 30.6151123046875
21.21484375 8.5936279296875 -32.7515869140625
15.73876953125 5.614013671875 -33.68896484375
-31.619384765625 -4.4404296875 -0.3421630859375
12.880615234375 9.8260498046875 -45.041259765625
2.71484375 -12.17578125 47.9796142578125
10.2568359375 15.316650390625 7.7572021484375
4.643798828125 16.8790283203125 -20.135498046875
12.2998046875 22.311767578125 -15.6966552734375
-14.33056640625 -5.8548583984375 7.1224365234375
-1.74951171875 22.6988525390625 -11.8475341796875
-3.714111328125 4.2677001953125 38.097412109375
9.8681640625 18.6689453125 -61.1827392578125
-2.60595703125 4.374267578125 40.977294921875
13.489013671875 -9.621337890625 37.393798828125
5.765380859375 7.6103515625 -38.9342041015625
-7.1474609375 38.068115234375 -55.93115234375
4.7392578125 3.3570556640625 22.6768798828125
-23.873046875 -9.8458251953125 17.890380859375
24.47900390625 -7.5946044921875 36.0517578125
17.995849609375 9.8079833984375 -45.2200927734375
-6.107421875 14.1639404296875 -52.6346435546875
11.053955078125 5.3511962890625 23.0345458984375
13.148193359375 8.5179443359375 29.35888671875
23.679443359375 7.8143310546875 -34.7257080078125
-0.6474609375 7.0550537109375 -36.607666015625
-11.35546875 -9.0404052734375 15.560546875
23.7080078125 -5.68359375 29.01416015625
1.61474609375 19.8861083984375 -13.965087890625
0.487060546875 -13.3382568359375 50.8138427734375
-22.870849609375 -4.571044921875 0.435302734375
9.62255859375 4.9962158203125 -33.2474365234375
14.10693359375 8.207763671875 -41.0599365234375
3.535888671875 14.9033203125 -15.912109375
-2.248046875 8.8055419921875 25.6240234375
19.3193359375 12.989990234375 -52.802001953125
23.841064453125 9.28173828125 -38.8157958984375
-2.389892578125 8.8682861328125 -41.4605712890625
6.091796875 14.27294921875 10.623291015625
-13.352783203125 -0.935302734375 17.8643798828125
23.382080078125 11.1365966796875 -31.28564453125
-20.996826171875 -7.3385009765625 3.8009033203125
5.9150390625 -10.8231201171875 45.8472900390625
12.358154296875 -12.028564453125 49.9747314453125
0.397216796875 9.7193603515625 22.1483154296875
1.224609375 18.1151123046875 -61.3172607421875
8.2265625 15.68994140625 -17.542236328125
5.871826171875 8.7384033203125 -41.5465087890625
8.822998046875 -9.09912109375 37.35791015625
-16.82666015625 -1.6087646484375 20.0684814453125
-20.33203125 -5.0699462890625 0.681640625
-11.87109375 -8.5653076171875 18.964111328125
15.122314453125 20.6318359375 -8.7593994140625
13.314453125 23.5731201171875 -19.32763671875
10.8759765625 8.0400390625 -40.1466064453125
9.815185546875 17.4365234375 -13.9525146484375
12.560791015625 28.83154296875 -29.2900390625
-21.334716796875 -9.96728515625 12.081298828125
-10.77197265625 -5.590087890625 7.1163330078125
10.51904296875 -11.0081787109375 44.17578125
-8.22607421875 36.1517333984375 -51.89794921875
-27.5439453125 -6.208251953125 16.8123779296875
-29.218994140625 -9.4964599609375 14.5657958984375
-2.967529296875 40.0845947265625 -57.4901123046875
9.62939453125 13.0545654296875 13.576171875
18.042236328125 -10.400634765625 43.8052978515625
-36.644775390625 -1.7474365234375 16.5985107421875
18.515380859375 5.9359130859375 -35.03173828125
-0.735107421875 14.8016357421875 8.5806884765625
15.01806640625 -11.401123046875 48.40283203125
7.989990234375 15.4788818359375 -13.3426513671875
3.80859375 15.513671875 6.171630859375
-3.816162109375 24.89013671875 -15.2862548828125
5.314453125 18.0179443359375 -63.272216796875
1.233642578125 4.20849609375 39.770751953125
32.049072265625 -7.615966796875 28.8831787109375
-14.8515625 -4.847412109375 3.0771484375
4.617919921875 -11.8792724609375 43.17236328125
28.04541015625 -8.7264404296875 26.437255859375
2.749755859375 24.74267578125 -20.6646728515625
30.6787109375 -6.402587890625 21.9364013671875
4.313720703125 18.3636474609375 -2.994384765625
-29.420166015625 -4.9764404296875 1.2547607421875
-3.447998046875 36.3350830078125 -45.7908935546875
21.419921875 -8.28564453125 32.1802978515625
12.12451171875 -8.6505126953125 39.5147705078125
18.63037109375 25.0693359375 -23.0711669921875
-5.30810546875 35.17041015625 -48.157958984375
11.9970703125 17.467041015625 -60.1788330078125
-22.548095703125 -2.1068115234375 -1.8341064453125
-0.03564453125 5.359130859375 36.7349853515625
3.03759765625 8.9005126953125 -43.087646484375
5.191162109375 16.993408203125 -12.411865234375
-35.70068359375 -6.1629638671875 6.5185546875
21.646484375 -8.468994140625 36.869384765625
2.72021484375 18.1298828125 -18.792724609375
-4.1171875 -0.3697509765625 53.1339111328125
3.46533203125 7.4029541015625 -38.1317138671875
-36.54248046875 -8.7010498046875 17.34912109375
3.529296875 8.469482421875 19.8206787109375
10.329345703125 19.071533203125 -5.1689453125
0.341552734375 15.1546630859375 -57.057373046875
0.875 3.9127197265625 -30.0806884765625
-17.29638671875 -7.6666259765625 13.3857421875
13.610595703125 19.7230224609375 -7.035400390625
14.793701171875 24.67626953125 -22.5352783203125
16.212646484375 14.49462890625 -56.1168212890625
-1.279541015625 13.053466796875 12.9508056640625
1.60107421875 4.5361328125 43.978759765625
9.21337890625 5.6495361328125 27.9798583984375
4.56103515625 15.4747314453125 -58.176513671875
18.827880859375 21.353759765625 -12.08837890625
7.986328125 2.5367431640625 27.684814453125
11.927490234375 13.65625 -53.4368896484375
-10.4619140625 -7.09716796875 9.95556640625
8.4912109375 18.00146484375 -1.1175537109375
-0.9091796875 35.8563232421875 -48.8892822265625
-1.895263671875 3.479736328125 -29.1827392578125
-3.9140625 35.8997802734375 -50.9349365234375
-1.58203125 14.0733642578125 -54.1466064453125
3.489990234375 1.4844970703125 23.9609375
4.459228515625 20.2730712890625 -7.4837646484375
6.12255859375 16.80712890625 2.08203125
5.015625 12.56640625 14.1434326171875
13.875732421875 10.7379150390625 25.0172119140625
3.33935546875 16.974365234375 -60.8067626953125
9.535400390625 9.079833984375 -43.493408203125
-3.81005859375 8.1678466796875 -39.71630859375
-0.492919921875 0.9486083984375 50.968505859375
-33.729248046875 -7.7017822265625 18.15478515625
18.07470703125 -8.47705078125 35.9447021484375
33.8359375 -9.4251708984375 22.0733642578125
19.2138671875 15.958984375 -59.766357421875
2.36328125 11.109130859375 -47.297607421875
0.912841796875 6.3848876953125 27.839599609375
-14.790771484375 -6.7884521484375 9.5081787109375
-10.673828125 10.8304443359375 20.0462646484375
-5.84228515625 7.9241943359375 27.8629150390625
-17.255859375 -6.6373291015625 11.04638671875
2.043212890625 13.1636962890625 -52.4910888671875
6.481201171875 15.451171875 5.44287109375
15.537841796875 12.798583984375 -52.261474609375
-27.851806640625 -2.24609375 -2.079345703125
-22.793701171875 -6.6719970703125 6.9078369140625
7.934814453125 15.20849609375 7.5762939453125
-1.477783203125 2.5775146484375 44.0823974609375
-1.834228515625 38.2880859375 -56.190185546875
-1.7177734375 16.180419921875 3.0556640625
-1.474853515625 5.9024658203125 33.350830078125
-3.396240234375 15.7698974609375 -59.10400390625
-17.957275390625 -2.138916015625 18.1181640625
2.0322265625 4.0137939453125 26.335205078125
13.957763671875 6.525390625 -36.4559326171875
3.009521484375 5.61572265625 35.108154296875
5.34521484375 2.7562255859375 40.416259765625
10.410888671875 12.757080078125 -51.58544921875
1.1708984375 7.4727783203125 -38.3228759765625
7.3671875 -13.0684814453125 50.1417236328125
2.81103515625 20.1614990234375 -10.9420166015625
6.56201171875 18.7529296875 -5.142333984375
5.796630859375 19.2891845703125 -11.5684814453125
14.970458984375 7.38330078125 -38.642822265625
-34.45556640625 -1.865966796875 17.244140625
29.636962890625 -8.43701171875 29.6705322265625
-2.7568359375 9.88037109375 -43.5272216796875
1.94189453125 15.80810546875 4.5233154296875
11.381103515625 7.779052734375 25.7041015625
1.403076171875 13.1600341796875 12.2027587890625
25.891357421875 -8.069091796875 32.1337890625
8.051513671875 6.7099609375 -35.7650146484375
1.377685546875 4.69091796875 -32.1556396484375
-16.761962890625 -10.6112060546875 17.260498046875
4.745849609375 5.1572265625 -31.3065185546875
-20.8173828125 -9.648193359375 17.9576416015625
4.726318359375 12.066162109375 -50.1968994140625
0.30712890625 23.3814697265625 -17.768310546875
-6.1328125 2.006103515625 47.9891357421875
-5.80908203125 5.6220703125 -33.777587890625
-23.1572265625 -11.9700927734375 16.0460205078125
-23.730224609375 -2.6597900390625 17.9552001953125
-7.043701171875 9.1083984375 26.0672607421875
15.476318359375 16.17529296875 -59.8095703125
-35.826416015625 -11.1805419921875 16.0
15.983154296875 8.1474609375 -32.930419921875
-15.456298828125 -2.3590087890625 -0.3939208984375
-7.666748046875 9.4554443359375 22.5811767578125
34.376220703125 -8.2294921875 25.7230224609375
-13.504638671875 -3.525634765625 -0.388427734375
-3.084716796875 26.5152587890625 -16.6341552734375
10.230712890625 17.23388671875 0.1937255859375
11.88232421875 6.830322265625 30.1588134765625
2.50927734375 19.5880126953125 -6.673095703125
10.90625 20.997314453125 -10.6533203125
-4.6650390625 9.9483642578125 -44.69677734375
-2.137939453125 23.805908203125 -14.333251953125
-26.738525390625 -4.250732421875 0.3743896484375
-1.84033203125 1.5426025390625 48.488037109375
-32.450927734375 -7.9217529296875 13.3570556640625
13.10498046875 12.2188720703125 21.3424072265625
-3.9912109375 7.3221435546875 30.8048095703125
13.9462890625 -11.5177001953125 45.58837890625
7.15576171875 2.4554443359375 22.1307373046875
21.490966796875 10.1287841796875 -42.93310546875
5.222412109375 6.0445556640625 -34.331787109375
-31.882568359375 -10.7598876953125 16.351318359375
7.75341796875 6.26123046875 30.6500244140625
-3.510009765625 12.7894287109375 14.1197509765625
32.673583984375 -6.8922119140625 20.0712890625
-10.104248046875 -5.2117919921875 3.0521240234375
17.47705078125 8.897705078125 -42.12158203125
-13.123046875 -9.723876953125 17.1502685546875
-33.853271484375 -1.8817138671875 19.3302001953125
-6.13037109375 3.470947265625 43.5640869140625
-5.68017578125 15.4365234375 -57.286376953125
15.104248046875 9.331787109375 28.61083984375
-3.928466796875 14.1954345703125 -54.81591796875
30.495361328125 -8.8582763671875 23.1932373046875
-0.27783203125 15.99169921875 4.732666015625
7.20263671875 17.5325927734375 -61.4744873046875
-30.92041015625 -1.4346923828125 17.2237548828125
9.987548828125 -8.41748046875 39.2691650390625
-4.97021484375 11.595947265625 -47.882080078125
-9.922119140625 8.10791015625 26.0736083984375
-5.9765625 8.9796142578125 -40.5699462890625
-2.16064453125 12.620849609375 -50.8587646484375
-32.072998046875 -5.461669921875 17.598388671875
-1.541748046875 25.5367431640625 -18.003662109375
-0.9091796875 10.408447265625 20.417724609375
10.755859375 6.9139404296875 -37.5382080078125
5.07421875 10.4761962890625 -46.07958984375
-15.432861328125 -0.6346435546875 18.4674072265625
22.75 12.6192626953125 -48.891845703125
-11.132080078125 9.292236328125 24.2745361328125
-9.71728515625 -4.5452880859375 0.258056640625
12.2607421875 -10.4002685546875 41.8333740234375
15.859130859375 -11.3746337890625 40.76806640625
1.47021484375 18.57373046875 -66.270263671875
-6.36279296875 36.7103271484375 -54.220703125
-29.73876953125 -0.3720703125 18.6431884765625
-3.986083984375 2.765380859375 45.1494140625
-20.870361328125 -8.230712890625 7.8463134765625
-23.422119140625 -2.8092041015625 22.2430419921875
-12.967041015625 -7.1055908203125 11.5260009765625
-26.481201171875 -6.4227294921875 8.9971923828125
18.031494140625 23.68701171875 -19.4359130859375
-28.760986328125 -7.1937255859375 9.3885498046875
-36.443115234375 -8.3045654296875 12.5767822265625
7.8974609375 16.2176513671875 3.3492431640625
-6.060546875 0.6192626953125 53.205078125
-25.289794921875 -7.503662109375 10.3548583984375
-0.741943359375 18.1370849609375 -2.3876953125
-22.80029296875 -7.9521484375 10.162841796875
-9.58349609375 -11.018310546875 16.135009765625
8.595947265625 13.984619140625 -55.4573974609375
21.09521484375 -7.993408203125 40.2578125
4.326416015625 4.313232421875 39.4586181640625
17.74072265625 -10.2916259765625 38.33642578125
3.057861328125 13.9940185546875 -54.2607421875
17.117431640625 24.375732421875 -21.80908203125
-7.345703125 10.1011962890625 18.935791015625
19.525146484375 -10.6036376953125 40.316650390625
5.349365234375 -12.570068359375 50.27294921875
-22.8916015625 -5.404296875 2.341552734375
-33.64599609375 -8.4796142578125 15.720947265625
-36.163818359375 -4.2449951171875 17.4014892578125
9.378662109375 19.0150146484375 -12.383544921875
23.63134765625 13.087158203125 -28.0439453125
6.6103515625 11.822021484375 -48.9669189453125
16.669677734375 23.4798583984375 -17.8365478515625
-38.22119140625 -7.265869140625 9.5848388671875
7.7607421875 12.51318359375 14.752197265625
21.850830078125 9.282470703125 -40.89990234375
24.415283203125 13.705322265625 -25.4915771484375
-4.440673828125 12.8638916015625 -51.0960693359375
1.83837890625 19.529052734375 -16.21875
1.621337890625 -12.4921875 45.622314453125
-19.654541015625 -8.752197265625 13.82958984375
-2.42333984375 18.167724609375 -0.392578125
11.545654296875 25.0140380859375 -23.16015625
8.2626953125 0.9112548828125 24.4266357421875
0.847900390625 6.59912109375 32.591796875
7.127685546875 17.17578125 -18.647216796875
0.90673828125 11.54248046875 16.959716796875
4.57958984375 15.9017333984375 -17.619384765625
-10.543701171875 -2.396484375 18.6722412109375
20.47216796875 10.2099609375 -44.6983642578125
32.14404296875 -8.453369140625 26.843017578125
9.73583984375 15.4102783203125 -57.8905029296875
1.473388671875 16.8712158203125 0.773193359375
-1.4326171875 20.664306640625 -7.350830078125
-1.498779296875 19.4483642578125 -4.370361328125
-34.7001953125 -4.0003662109375 3.4000244140625
20.95947265625 20.69140625 -12.662353515625
1.941650390625 22.706298828125 -18.74462890625
9.07177734375 -9.5269775390625 42.87158203125
4.53125 -11.594970703125 47.3232421875
-4.88525390625 5.648193359375 35.8792724609375
18.625 14.8948974609375 -57.0157470703125
11.69482421875 11.916015625 -50.1181640625
0.37060546875 7.3897705078125 29.489501953125
6.060791015625 15.0338134765625 -13.029052734375
-26.1484375 -4.8895263671875 3.9130859375
17.297607421875 7.2606201171875 -37.97607421875
-1.705810546875 15.055908203125 6.849609375
22.350341796875 16.6336669921875 -57.9691162109375
-23.338134765625 -3.593994140625 19.7874755859375
8.258544921875 -12.47021484375 48.3255615234375
-4.928466796875 4.32080078125 -29.9188232421875
-2.582763671875 13.9776611328125 10.7073974609375
8.2177734375 9.736328125 -44.891357421875
-10.099609375 -8.47998046875 13.18017578125
1.51513671875 14.2313232421875 10.2255859375
-30.253173828125 -6.0166015625 4.153076171875
19.5673828125 6.0299072265625 -33.33642578125
-21.914794921875 -5.86767578125 -0.7286376953125
11.317138671875 -11.699951171875 45.859130859375
-37.21337890625 -4.75 5.9898681640625
13.33740234375 23.16259765625 -17.384033203125
-1.78955078125 11.312744140625 -47.7513427734375
12.787841796875 10.52978515625 22.9554443359375
19.65625 11.561279296875 -48.6964111328125
-0.181884765625 -13.7965087890625 48.8580322265625
1.804931640625 7.9061279296875 22.7196044921875
-6.98046875 10.6463623046875 16.166259765625
6.950439453125 15.8760986328125 -59.0777587890625
-27.756103515625 -0.73779296875 17.199951171875
-0.178955078125 1.605712890625 47.0526123046875
16.418701171875 27.3533935546875 -29.896728515625
16.72314453125 26.035888671875 -27.28271484375
6.690673828125 18.650634765625 -2.858154296875
12.477783203125 14.7667236328125 -56.65087890625
12.99072265625 26.2435302734375 -27.3533935546875
8.099365234375 13.0560302734375 -52.3077392578125
-5.321044921875 12.9736328125 13.3934326171875
21.817626953125 8.7210693359375 -38.893798828125
2.56591796875 19.1331787109375 -4.310546875
-9.836669921875 9.638671875 22.7767333984375
3.8740234375 6.519775390625 -35.659912109375
-3.62451171875 9.1546630859375 23.962890625
9.303955078125 10.9576416015625 -47.21337890625
-18.81005859375 -3.91943359375 0.2869873046875
-6.279052734375 10.3603515625 20.542236328125
-2.620849609375 1.3905029296875 50.2711181640625
-23.076904296875 -6.630615234375 19.83056640625
11.25732421875 -12.5897216796875 48.474853515625
1.301025390625 9.609375 -43.9764404296875
12.810546875 21.6253662109375 -12.3787841796875
-38.60205078125 -8.9979248046875 13.789794921875
-4.808837890625 34.623046875 -46.1583251953125
22.4169921875 -8.489501953125 35.0947265625
-1.851806640625 7.4573974609375 29.26806640625
3.362548828125 17.4122314453125 -13.6610107421875
-28.8857421875 -6.34619140625 5.793701171875
0.339111328125 20.7010498046875 -8.474365234375
5.704833984375 6.0926513671875 33.9136962890625
26.30224609375 -5.60400390625 35.182373046875
-3.421875 37.1717529296875 -54.7203369140625
3.655517578125 11.161865234375 18.944091796875
-15.30810546875 -9.6038818359375 16.507568359375
14.109375 19.3912353515625 -5.1956787109375
-31.96484375 -9.5802001953125 17.8590087890625
-32.257080078125 -6.6324462890625 7.517333984375
-27.63134765625 -4.994384765625 1.92626953125
-29.7685546875 -7.080810546875 7.3245849609375
0.577392578125 12.2152099609375 -50.1680908203125
6.83251953125 4.489013671875 36.6099853515625
5.939453125 14.9810791015625 -56.7991943359375
-17.440673828125 -4.92724609375 3.817138671875
8.7119140625 16.3289794921875 -19.575439453125
-4.495849609375 4.9798583984375 -32.412841796875
20.579833984375 6.938720703125 -35.989013671875
0.55029296875 16.8582763671875 -59.9271240234375
4.289306640625 17.5626220703125 -0.5711669921875
-28.225830078125 -7.93310546875 12.4708251953125
-15.609375 -8.16357421875 14.149658203125
18.756591796875 20.5924072265625 -10.0841064453125
-16.8955078125 -5.51806640625 6.90966796875
2.659423828125 15.1435546875 -57.3603515625
9.531494140625 19.9833984375 -6.626220703125
11.097412109375 15.77685546875 4.88427734375
-18.02978515625 -6.796142578125 18.467529296875
2.583251953125 1.8865966796875 22.2552490234375
8.949462890625 4.718994140625 34.212646484375
7.681884765625 -10.8421630859375 46.5186767578125
-26.06591796875 -7.8026123046875 12.2125244140625
13.691650390625 8.8746337890625 -43.0367431640625
24.58544921875 -7.1873779296875 28.2818603515625
14.501220703125 25.925048828125 -24.6436767578125
28.13916015625 -6.5269775390625 32.984375
-22.920166015625 -9.653564453125 13.0552978515625
12.629150390625 18.091064453125 -1.5924072265625
-21.322021484375 -11.272216796875 15.728515625
7.584228515625 20.1639404296875 -8.7330322265625
-6.672607421875 9.3778076171875 24.2413330078125
34.292236328125 -8.976318359375 19.794677734375
28.145751953125 -8.795166015625 28.5841064453125
4.91259765625 13.8585205078125 -53.9945068359375
-1.0087890625 40.1424560546875 -57.270263671875
6.245361328125 13.191650390625 -52.5743408203125
14.415283203125 -11.2333984375 37.9385986328125
14.651123046875 28.09521484375 -30.7960205078125
-27.49755859375 -10.88623046875 18.02783203125
3.98486328125 26.4462890625 -22.1070556640625
-6.4150390625 10.1502685546875 -44.0587158203125
-5.350341796875 3.6265869140625 41.7633056640625
23.56396484375 11.1090087890625 -28.055908203125
4.63916015625 14.2342529296875 9.443115234375
30.322509765625 -8.388427734375 25.7264404296875
11.505615234375 20.7584228515625 -14.824951171875
-1.727294921875 35.827880859375 -46.846923828125
-6.3857421875 35.89404296875 -52.0682373046875
4.537109375 9.7265625 -44.4190673828125
11.067138671875 6.66796875 32.0035400390625
-35.036865234375 -7.29296875 11.8135986328125
9.79638671875 16.4334716796875 3.55517578125
2.26611328125 4.40869140625 21.8978271484375
18.855712890625 22.2899169921875 -15.5216064453125
-2.240234375 5.1624755859375 37.4066162109375
5.03955078125 4.7021484375 28.9705810546875
-22.686767578125 -8.5762939453125 7.67919921875
21.39013671875 13.4525146484375 -51.76953125
-3.546142578125 10.254638671875 21.593994140625
15.802978515625 11.0218505859375 -48.0638427734375
10.199462890625 16.0274658203125 -16.9239501953125
23.3955078125 6.4993896484375 -33.45556640625
-36.02490234375 -6.4056396484375 8.32373046875
-7.03564453125 8.081787109375 29.2650146484375
0.565185546875 7.3585205078125 25.9892578125
11.450927734375 5.1348876953125 -33.966552734375
-13.884521484375 -7.83984375 13.0472412109375
-35.119873046875 -2.6456298828125 0.5745849609375
-3.543212890625 16.084716796875 3.2733154296875
-3.857177734375 -1.5762939453125 54.4996337890625
18.68798828125 -7.483154296875 34.4737548828125
7.1474609375 7.9124755859375 -40.109619140625
2.394287109375 8.9644775390625 21.179931640625
23.806884765625 14.526611328125 -31.6485595703125
-18.439453125 -5.9454345703125 4.9891357421875
-3.545654296875 15.01513671875 6.608154296875
18.0966796875 14.3028564453125 -55.361328125
9.42236328125 20.0313720703125 -8.456787109375
3.5693359375 12.5279541015625 12.96826171875
-14.76904296875 -5.379638671875 17.4564208984375
-8.9287109375 11.0245361328125 18.9539794921875
-5.25390625 7.02294921875 -36.944091796875
19.82568359375 -8.6551513671875 36.646728515625
3.188232421875 4.283447265625 -30.909423828125
-37.149169921875 -8.7235107421875 10.1622314453125
12.144287109375 6.6087646484375 -36.250244140625
1.767578125 1.5184326171875 24.566162109375
18.071044921875 -10.78173828125 45.949462890625
12.03076171875 15.0113525390625 8.068359375
-4.49267578125 1.8587646484375 47.0045166015625
8.394287109375 -9.990966796875 40.891357421875
-33.630615234375 -3.39794921875 -0.7550048828125
-25.592041015625 -1.43798828125 18.8109130859375
14.17041015625 13.28955078125 -53.63232421875
10.6748046875 19.036865234375 -13.91748046875
4.585693359375 12.118408203125 16.0382080078125
-1.342041015625 11.6087646484375 16.742431640625
8.05615234375 14.4228515625 -15.422607421875
-20.64111328125 -8.2313232421875 10.8375244140625
2.68115234375 -11.3548583984375 44.54736328125
-16.608154296875 -3.78271484375 0.0118408203125
22.809814453125 9.2066650390625 -32.1627197265625
-7.7587890625 35.41455078125 -49.836669921875
-0.770263671875 16.8260498046875 1.48095703125
3.9501953125 20.6055908203125 -9.3245849609375
21.55908203125 14.9078369140625 -55.4976806640625
2.8583984375 16.2794189453125 2.98681640625
4.28564453125 -11.4031982421875 49.406982421875
6.642578125 -10.80126953125 43.6820068359375
11.273193359375 11.6312255859375 16.3035888671875
5.74853515625 -10.130859375 40.7442626953125
6.296142578125 2.73486328125 28.2601318359375
24.33203125 9.419677734375 -31.0074462890625
1.049072265625 14.7237548828125 8.40185546875
1.271240234375 3.8465576171875 41.5274658203125
-20.48388671875 -2.31689453125 19.7071533203125
14.7255859375 9.690185546875 -44.774169921875
-1.014404296875 15.01513671875 -55.8929443359375
4.43212890625 1.2474365234375 25.6346435546875
-12.54736328125 -5.61865234375 6.882568359375
1.87158203125 -12.6185302734375 49.7728271484375
4.349853515625 5.0570068359375 37.2086181640625
-18.702392578125 -9.4296875 16.8409423828125
0.94482421875 5.284423828125 38.371337890625
9.327392578125 6.6981201171875 32.606201171875
-1.016845703125 5.433837890625 35.0968017578125
7.400634765625 14.461669921875 9.108154296875
-24.640625 -4.60009765625 0.2049560546875
-8.580322265625 -6.268310546875 3.0810546875
16.70703125 -11.4443359375 47.83154296875
-2.169189453125 8.6005859375 27.3927001953125
-4.432861328125 0.728759765625 51.3577880859375
5.283447265625 3.17138671875 24.82568359375
8.607177734375 -10.3406982421875 38.8095703125
23.364501953125 13.10546875 -32.6669921875
7.96826171875 0.9346923828125 26.6209716796875
-22.518798828125 -9.966796875 19.0443115234375
-5.39404296875 6.4830322265625 32.3621826171875
-23.50048828125 -8.1961669921875 18.4266357421875
-11.553466796875 -3.149658203125 1.073486328125
13.393798828125 10.4033203125 -46.658203125
-12.20849609375 -2.1976318359375 19.2469482421875
6.073974609375 6.4075927734375 31.665771484375
16.069091796875 21.817138671875 -13.25244140625
8.28076171875 13.5843505859375 11.8465576171875
-31.277587890625 -7.520263671875 11.013916015625
17.119384765625 10.3602294921875 -46.654541015625
-4.394287109375 8.667724609375 27.1719970703125
-1.953125 28.4599609375 -19.968017578125
-14.4208984375 -5.66845703125 5.3603515625
33.64111328125 -8.8629150390625 23.7349853515625
7.218017578125 8.8692626953125 -42.6802978515625
1.185546875 26.078125 -20.764892578125
1.206298828125 8.7567138671875 -42.3536376953125
-10.825439453125 -5.2413330078125 5.3179931640625
14.337158203125 -10.7459716796875 41.67724609375
14.633544921875 21.257568359375 -11.5908203125
-11.675537109375 -4.524658203125 3.5347900390625
26.446044921875 -8.203125 26.952392578125
-13.87451171875 -3.0643310546875 16.9754638671875
-8.934326171875 -7.939453125 9.506591796875
-2.569091796875 36.1929931640625 -53.1204833984375
15.972900390625 8.2984619140625 -41.3175048828125
35.550048828125 -9.7200927734375 22.3740234375
-4.859130859375 11.9886474609375 16.6080322265625
-0.480224609375 4.240234375 40.361083984375
7.63330078125 19.156494140625 -11.2930908203125
12.255126953125 19.5799560546875 -5.939208984375
-32.44580078125 -4.860595703125 1.1397705078125
-3.944091796875 4.6656494140625 39.783935546875
-32.228271484375 -5.2337646484375 4.65869140625
26.58349609375 -8.4100341796875 30.400390625
-4.007568359375 6.0888671875 34.439697265625
-3.468994140625 19.3629150390625 -65.346923828125
12.75830078125 20.517578125 -8.9293212890625
1.894775390625 17.933837890625 -64.7073974609375
17.765869140625 27.3255615234375 -30.9986572265625
1.417236328125 3.77294921875 -28.2891845703125
4.66845703125 16.9378662109375 -61.92919921875
24.71484375 -7.992919921875 34.375732421875
2.465087890625 6.0499267578125 -34.45068359375
-0.615478515625 22.0133056640625 -13.2208251953125
-2.661865234375 11.2562255859375 18.2625732421875
23.50537109375 14.8385009765625 -54.3045654296875
22.12841796875 7.376220703125 -35.35791015625
20.892333984375 13.7823486328125 -53.68798828125
-35.107666015625 -9.193115234375 15.150146484375
-24.7919921875 -8.4013671875 13.466796875
-4.618408203125 10.6300048828125 -46.2760009765625
-8.989013671875 2.585693359375 19.00048828125
-36.06884765625 -10.9444580078125 17.6826171875
11.653564453125 26.27197265625 -26.259521484375
-1.263671875 12.066650390625 -49.421142578125
-24.552490234375 -5.4117431640625 3.3990478515625
-28.35693359375 -10.1923828125 16.299560546875
8.9482421875 12.3228759765625 -50.8109130859375
2.198974609375 14.73095703125 -55.765380859375
-1.4892578125 26.2520751953125 -19.5555419921875
17.427001953125 12.894287109375 -52.531494140625
1.6845703125 5.328125 36.1397705078125
-4.712646484375 36.121826171875 -49.4385986328125
11.02880859375 9.680419921875 -44.3011474609375
-29.360107421875 -1.2645263671875 20.041259765625
-25.6533203125 -9.1729736328125 15.4061279296875
18.78564453125 7.9095458984375 -39.2486572265625
-33.0244140625 -4.24658203125 3.2587890625
-24.1328125 -6.3885498046875 5.705322265625
14.832763671875 -11.1141357421875 44.197509765625
-0.5830078125 8.7861328125 -41.6693115234375
20.61083984375 7.494873046875 -37.98193359375
0.212158203125 13.5301513671875 -53.29248046875
-0.646240234375 18.5435791015625 -62.62109375
-1.4580078125 9.8387451171875 -44.61376953125
19.3359375 8.7086181640625 -41.376220703125
-3.426513671875 7.3878173828125 -38.185546875
-32.55859375 -6.715087890625 9.2890625
19.246337890625 12.2403564453125 -50.7054443359375
-29.641357421875 -7.924560546875 10.907470703125
5.759033203125 19.6627197265625 -6.5970458984375
0.554443359375 22.0885009765625 -16.6016845703125
-1.90869140625 -2.0997314453125 53.1190185546875
12.674072265625 9.696044921875 24.4124755859375
-5.341796875 7.6175537109375 29.5958251953125
-2.3818359375 35.9405517578125 -49.68994140625
3.621826171875 15.860107421875 -59.5849609375
-5.983154296875 2.13720703125 49.6534423828125
-27.1142578125 -3.35888671875 -1.06787109375
-3.69189453125 16.881103515625 -60.32177734375
4.94873046875 9.112060546875 -42.9185791015625
22.142333984375 11.62744140625 -46.676513671875
13.74560546875 16.792724609375 -59.7484130859375
-0.72607421875 -12.3123779296875 48.31982421875
0.57177734375 13.0399169921875 13.64599609375
-23.599609375 -3.461669921875 -0.572265625
17.293212890625 15.9161376953125 -59.979248046875
20.14453125 22.0791015625 -16.5560302734375
1.369140625 11.05859375 18.756591796875
-4.2314453125 8.777587890625 -41.2041015625
17.069091796875 22.8389892578125 -16.35595703125
-25.677734375 -6.1669921875 7.566162109375
2.19384765625 6.304443359375 33.7982177734375
-2.7421875 17.6029052734375 -62.556884765625
7.463134765625 17.230224609375 0.046142578125
14.79296875 23.670654296875 -18.589111328125
-5.861083984375 17.6048583984375 -60.232421875
-1.32080078125 9.4239501953125 24.124267578125
0.89306640625 7.4375 -35.509765625
-36.4580078125 -3.8216552734375 2.695068359375
