19.39990234375 11.3746337890625 -33.5147705078125
10.201171875 -6.3170166015625 45.16552734375
23.33251953125 -4.6490478515625 48.89990234375
3.3369140625 5.1322021484375 53.9520263671875
8.337646484375 21.0201416015625 -56.4278564453125
13.65087890625 19.0040283203125 14.0848388671875
16.5185546875 15.7344970703125 29.307373046875
15.016357421875 -6.9083251953125 47.0098876953125
-25.535400390625 0.7410888671875 20.9688720703125
20.286376953125 10.8780517578125 -32.224853515625
22.255615234375 16.9853515625 -45.988525390625
17.32861328125 18.316650390625 -51.7393798828125
14.622802734375 25.9228515625 -11.7813720703125
-35.1064453125 -4.411865234375 13.5732421875
-13.783447265625 1.0869140625 21.8326416015625
26.80859375 1.2200927734375 30.0262451171875
3.446044921875 22.0079345703125 -10.2816162109375
-10.575927734375 -1.7677001953125 12.080810546875
28.46240234375 2.4166259765625 27.900634765625
-7.238525390625 -5.485595703125 18.7996826171875
11.82666015625 -4.843017578125 42.69677734375
17.364990234375 19.1236572265625 -54.283447265625
12.034423828125 17.1666259765625 18.1248779296875
8.192626953125 11.492431640625 -33.4451904296875
6.24755859375 7.1419677734375 26.08984375
-0.503173828125 21.362548828125 -60.0673828125
14.734375 12.0428466796875 -35.412109375
18.543701171875 14.17431640625 36.07421875
-25.498046875 2.3184814453125 23.2061767578125
9.404052734375 19.26171875 -53.4384765625
24.921875 -1.3939208984375 35.317626953125
10.7900390625 -5.86181640625 48.317626953125
15.572265625 15.119384765625 -43.1680908203125
-32.0146484375 -4.09033203125 22.8223876953125
-19.012451171875 1.779052734375 25.5166015625
14.889404296875 13.7049560546875 -39.935791015625
-16.293212890625 -4.0958251953125 20.96337890625
12.88037109375 11.3427734375 36.4139404296875
5.21435546875 10.64013671875 -32.1748046875
-7.2314453125 -1.8956298828125 8.1241455078125
17.900390625 25.5235595703125 -6.8887939453125
1.931884765625 23.02734375 -61.063232421875
5.66796875 22.0760498046875 -7.5849609375
2.57373046875 16.9266357421875 19.295654296875
5.984619140625 18.8880615234375 -53.0323486328125
14.238525390625 25.406982421875 -5.7388916015625
5.888671875 9.3895263671875 33.4810791015625
-0.1259765625 8.16259765625 -26.480224609375
-1.8623046875 14.798095703125 -42.9200439453125
14.754638671875 30.1448974609375 -20.82421875
-21.588134765625 -4.60302734375 17.812744140625
16.4560546875 27.537353515625 -13.7926025390625
-26.810302734375 0.20751953125 4.1759033203125
-4.05810546875 15.0855712890625 -42.9547119140625
2.437255859375 11.2108154296875 32.08642578125
12.3466796875 24.3499755859375 -2.5111083984375
17.02099609375 28.6807861328125 -16.856689453125
-25.927734375 -3.0198974609375 15.834716796875
-10.602294921875 1.36181640625 6.05859375
15.426025390625 18.07568359375 -50.786376953125
23.073486328125 -3.3646240234375 42.1319580078125
21.997802734375 -5.9598388671875 46.3258056640625
-0.6708984375 18.4715576171875 -52.333740234375
13.87646484375 12.7591552734375 -37.2144775390625
9.127197265625 20.75146484375 -16.085205078125
7.4287109375 8.24462890625 28.3013916015625
5.159423828125 7.8919677734375 32.5184326171875
7.526611328125 16.1524658203125 21.6160888671875
2.008544921875 8.96142578125 -23.0751953125
-7.773681640625 -4.755615234375 15.8507080078125
2.647216796875 -2.865478515625 53.22705078125
4.465576171875 24.297119140625 -5.9700927734375
9.296142578125 13.024169921875 -37.2022705078125
18.157470703125 13.5157470703125 -39.68017578125
-23.3271484375 -1.1317138671875 11.315185546875
5.965576171875 18.3758544921875 -51.5101318359375
4.47216796875 17.8973388671875 -50.591796875
-11.575439453125 -0.6966552734375 11.2393798828125
-2.232177734375 15.81591796875 -45.3607177734375
-33.914794921875 -2.30810546875 10.935546875
4.05419921875 -9.5401611328125 51.7005615234375
3.07275390625 25.404541015625 -5.9075927734375
-19.936767578125 0.4515380859375 25.449951171875
8.12841796875 15.7686767578125 -44.44482421875
2.10791015625 17.3526611328125 -49.0009765625
-2.6611328125 16.677734375 -47.760498046875
-10.456787109375 -0.387939453125 21.911865234375
13.7568359375 11.32470703125 -33.2254638671875
24.657470703125 -2.501708984375 37.1802978515625
1.7568359375 35.7205810546875 -43.4307861328125
9.5166015625 10.3056640625 34.503662109375
2.032470703125 15.897705078125 -44.9588623046875
13.239013671875 10.04345703125 39.908935546875
22.702392578125 13.09619140625 -28.1700439453125
9.734375 17.13232421875 18.0762939453125
10.02978515625 24.526611328125 -3.0135498046875
8.47412109375 21.1539306640625 6.2789306640625
6.319580078125 -7.950927734375 50.80810546875
1.9404296875 25.4266357421875 -11.0758056640625
-20.55126953125 -3.5531005859375 7.0380859375
-4.909423828125 16.0201416015625 -45.265380859375
10.433349609375 21.4312744140625 6.33154296875
2.15478515625 26.6561279296875 -13.146728515625
0.150634765625 22.2325439453125 -61.3790283203125
5.129638671875 9.0968017578125 -24.1900634765625
11.398193359375 9.150146484375 42.3922119140625
16.403076171875 14.4564208984375 -41.8145751953125
1.83154296875 21.305419921875 -56.3956298828125
10.79150390625 16.5631103515625 21.02392578125
1.808349609375 37.0479736328125 -47.03173828125
13.043212890625 19.1641845703125 12.4075927734375
0.29638671875 37.4781494140625 -45.38720703125
10.165283203125 9.9083251953125 40.7991943359375
7.770751953125 6.8616943359375 49.0216064453125
-29.896484375 -6.1317138671875 22.366455078125
6.90625 17.5242919921875 -48.73828125
17.465576171875 25.0162353515625 -4.9129638671875
6.78076171875 20.6690673828125 8.856201171875
4.13720703125 19.15966796875 -53.605224609375
-4.196044921875 8.8248291015625 -24.8822021484375
11.966552734375 15.7674560546875 -43.909423828125
13.155029296875 -7.860107421875 49.430419921875
15.7197265625 29.7979736328125 -19.568115234375
9.303466796875 18.0401611328125 15.4002685546875
-9.9208984375 -3.559814453125 18.96142578125
3.4697265625 15.6427001953125 -43.8427734375
20.98779296875 12.2774658203125 -35.418212890625
8.86181640625 11.0489501953125 37.4769287109375
11.732666015625 13.7119140625 -38.7955322265625
19.67724609375 13.7017822265625 -39.588623046875
-14.420654296875 -1.1007080078125 10.5501708984375
-33.67724609375 -3.0068359375 14.3170166015625
-22.530029296875 -2.1273193359375 10.5032958984375
9.500732421875 6.9310302734375 27.72509765625
8.69873046875 6.68212890625 25.7593994140625
1.6171875 14.0040283203125 27.5921630859375
8.47021484375 5.4290771484375 31.4794921875
2.892578125 10.8924560546875 -33.0902099609375
5.47509765625 4.853271484375 30.7572021484375
7.822509765625 10.0582275390625 39.44091796875
20.264404296875 17.798828125 -49.469970703125
16.11572265625 26.5374755859375 -9.4537353515625
5.40234375 11.8822021484375 -34.7490234375
2.428955078125 14.81591796875 -42.0477294921875
6.240234375 19.234619140625 -8.5162353515625
17.174560546875 -6.8150634765625 46.279541015625
4.87841796875 15.8621826171875 22.9517822265625
-25.158203125 -0.45751953125 8.60400390625
14.659423828125 12.7698974609375 35.1187744140625
6.9541015625 21.6029052734375 -14.0223388671875
-26.365966796875 -1.2169189453125 11.04248046875
-10.6181640625 -1.316162109375 13.69873046875
6.062255859375 16.666748046875 15.7177734375
6.549072265625 19.9400634765625 -55.74951171875
0.550048828125 36.9998779296875 -42.0518798828125
12.409423828125 -5.2327880859375 45.135498046875
1.98681640625 15.7720947265625 21.715576171875
4.962158203125 10.1112060546875 34.3773193359375
10.22021484375 -5.625244140625 43.023193359375
22.40234375 11.8779296875 -30.1376953125
3.489013671875 12.28515625 26.675048828125
22.0263671875 -3.0367431640625 39.7357177734375
-2.3662109375 20.474609375 -60.802734375
10.44482421875 19.8912353515625 -13.9248046875
6.3828125 6.5302734375 32.50537109375
5.548583984375 13.5421142578125 24.8873291015625
14.414306640625 30.9188232421875 -22.28857421875
-2.463623046875 12.633056640625 -37.2938232421875
-5.726806640625 16.8966064453125 -47.119140625
10.55224609375 23.7958984375 -7.4674072265625
-24.6767578125 -2.5194091796875 11.374267578125
1.27001953125 18.810791015625 -52.862060546875
-27.468017578125 -6.1658935546875 21.9554443359375
-20.65478515625 -1.311767578125 3.296875
-24.56591796875 -3.70556640625 15.29150390625
17.226806640625 -6.7713623046875 42.9591064453125
-10.874755859375 1.84375 22.067138671875
17.13330078125 12.8492431640625 -37.93310546875
6.91650390625 20.7467041015625 -15.2020263671875
-12.0234375 0.856689453125 3.427978515625
7.708984375 11.0283203125 35.5361328125
15.56640625 -5.0059814453125 41.337646484375
21.4658203125 -4.867431640625 41.70458984375
8.0126953125 -7.639892578125 46.0421142578125
-15.4306640625 -3.072265625 18.1644287109375
-22.60595703125 1.974853515625 23.599365234375
-13.90283203125 2.03857421875 24.6319580078125
9.931396484375 20.559814453125 8.7657470703125
-13.354736328125 -4.0587158203125 20.457275390625
9.116455078125 7.663330078125 46.6610107421875
20.968017578125 18.666748046875 -50.7669677734375
5.1591796875 9.6400146484375 40.726318359375
8.39794921875 20.2095947265625 8.647705078125
4.917236328125 17.2491455078125 -48.687255859375
-24.907470703125 -2.6507568359375 13.102783203125
-29.4365234375 -1.4461669921875 10.80419921875
8.82568359375 18.4989013671875 -51.7249755859375
-23.015869140625 -1.4984130859375 8.391845703125
6.5419921875 30.32275390625 -19.2403564453125
11.527099609375 12.1741943359375 -35.21337890625
-9.866943359375 -2.9166259765625 14.2449951171875
27.618408203125 -1.1202392578125 37.8387451171875
10.93505859375 25.116943359375 -5.0771484375
-25.63232421875 -4.2142333984375 18.04248046875
20.1259765625 16.89501953125 -47.362060546875
3.70556640625 27.8328857421875 -15.4774169921875
11.14697265625 19.050537109375 12.3092041015625
-35.894775390625 -3.4345703125 11.4892578125
0.596435546875 15.3681640625 -43.59912109375
16.23583984375 12.71484375 37.0225830078125
2.74609375 27.3623046875 -14.2969970703125
20.03466796875 -6.9210205078125 44.6407470703125
11.815185546875 25.4833984375 -6.654296875
22.46435546875 -5.7921142578125 49.5555419921875
2.108154296875 11.7802734375 34.6029052734375
13.396484375 26.0205078125 -10.6602783203125
13.21337890625 21.90576171875 4.8790283203125
12.6474609375 20.0223388671875 10.1429443359375
10.281005859375 11.6527099609375 -28.485595703125
5.64013671875 16.86962890625 18.7947998046875
13.693115234375 23.422607421875 0.0877685546875
19.88916015625 15.6082763671875 -44.688720703125
-0.7587890625 16.7891845703125 -47.7578125
2.90869140625 23.593994140625 -8.68115234375
15.254150390625 24.07080078125 -0.7508544921875
3.563232421875 36.353271484375 -38.814697265625
8.49609375 21.6585693359375 4.8670654296875
-25.736328125 0.0816650390625 6.0999755859375
4.732421875 19.105712890625 -9.09814453125
5.908447265625 20.92333984375 -16.38916015625
-5.736328125 10.276123046875 -30.6666259765625
0.58447265625 40.364013671875 -51.7840576171875
9.203369140625 -7.12939453125 50.31591796875
10.563720703125 17.326904296875 -49.0504150390625
22.115234375 14.5955810546875 -38.464599609375
20.5849609375 -5.2591552734375 46.8641357421875
9.989013671875 16.2862548828125 -46.3621826171875
21.469482421875 11.517822265625 -32.60888671875
0.866455078125 13.474609375 -39.1181640625
15.55859375 26.869873046875 -11.22412109375
20.37646484375 10.6990966796875 -30.837646484375
-21.683837890625 -2.4842529296875 23.698974609375
19.278564453125 -6.968505859375 42.267822265625
0.4970703125 7.7392578125 -23.84716796875
8.594970703125 23.118408203125 1.05810546875
13.439697265625 17.16064453125 -48.262939453125
-0.169189453125 21.311279296875 -57.3311767578125
-2.356201171875 19.80078125 -55.05126953125
-22.097412109375 -3.7347412109375 14.85986328125
14.277587890625 20.023681640625 -55.2047119140625
7.503662109375 14.5784912109375 -41.7362060546875
-3.15673828125 9.908447265625 -30.6876220703125
-2.641845703125 9.171142578125 -27.9537353515625
-22.77978515625 -0.5179443359375 4.395263671875
3.202392578125 9.767333984375 32.1556396484375
-6.919921875 -1.6136474609375 6.322509765625
7.9873046875 8.02294921875 33.3328857421875
4.39599609375 11.213134765625 36.8604736328125
2.552734375 8.17529296875 45.457275390625
-23.087646484375 -4.981201171875 20.197021484375
4.0849609375 12.7303466796875 -36.9229736328125
16.513916015625 25.9412841796875 -8.0625
-35.2265625 -1.8736572265625 6.5362548828125
-20.523681640625 -7.3665771484375 17.6539306640625
15.212158203125 -7.862548828125 48.3203125
-31.177001953125 -4.73388671875 21.5513916015625
13.56884765625 14.000732421875 -40.17529296875
-28.489013671875 -3.668212890625 17.21728515625
11.587646484375 20.6700439453125 -11.140625
5.30029296875 16.5506591796875 20.6278076171875
15.556884765625 24.53759765625 -3.5792236328125
3.18115234375 22.2198486328125 -12.958740234375
15.986083984375 10.7529296875 -32.2073974609375
12.92529296875 25.115234375 -4.0958251953125
23.47998046875 -2.3724365234375 38.181884765625
7.115478515625 7.404541015625 25.0623779296875
5.1201171875 20.1602783203125 -12.9451904296875
5.681640625 7.6124267578125 47.57080078125
1.075439453125 16.5875244140625 19.1629638671875
6.78515625 20.391357421875 -7.937255859375
4.27685546875 23.181640625 -7.5228271484375
1.629638671875 14.4869384765625 26.2427978515625
5.764892578125 11.2344970703125 37.0738525390625
3.40625 29.984619140625 -17.1920166015625
-1.728271484375 8.629150390625 -26.244873046875
2.845703125 24.2730712890625 -61.5943603515625
7.983642578125 24.6549072265625 -4.8980712890625
14.657470703125 13.8560791015625 31.5589599609375
7.201171875 23.306884765625 0.388427734375
10.482421875 22.4447021484375 3.498779296875
2.03076171875 5.780517578125 52.00537109375
-23.0048828125 1.458984375 22.0858154296875
2.501220703125 12.856201171875 27.607666015625
-2.90380859375 17.74169921875 -49.339599609375
2.370361328125 25.1824951171875 -7.078125
30.82470703125 0.1844482421875 29.10986328125
-22.68359375 -5.496337890625 21.443115234375
2.52783203125 12.1822509765625 33.2174072265625
-10.282958984375 0.332275390625 4.9013671875
6.610107421875 22.94140625 -6.5760498046875
-10.477783203125 -3.0235595703125 16.4649658203125
-27.993408203125 -4.092529296875 18.8468017578125
5.2333984375 10.2646484375 39.379638671875
-27.49169921875 -0.393798828125 6.927001953125
8.748779296875 8.9425048828125 43.2210693359375
15.285888671875 12.287841796875 38.0673828125
14.79248046875 25.9500732421875 -6.8394775390625
3.15478515625 25.844482421875 -13.6378173828125
10.47705078125 21.7916259765625 -8.8885498046875
17.857666015625 14.482421875 -41.675537109375
9.223388671875 16.685791015625 22.5611572265625
2.7607421875 24.131591796875 -11.441162109375
12.018310546875 17.06982421875 -47.9239501953125
-32.957275390625 -4.702880859375 20.6265869140625
6.01025390625 9.16845703125 41.915771484375
-17.21923828125 -2.451416015625 15.8759765625
0.111328125 10.9273681640625 -29.806396484375
-17.24609375 -3.4871826171875 18.542724609375
-17.40380859375 -0.2435302734375 8.416259765625
-5.969482421875 13.272216796875 -38.0299072265625
8.89306640625 19.450927734375 11.3172607421875
14.09326171875 12.8658447265625 33.9112548828125
-9.20947265625 2.4852294921875 22.9510498046875
22.22705078125 15.5511474609375 -41.011962890625
-17.159423828125 0.546875 4.855712890625
-15.487548828125 -0.377197265625 10.1995849609375
3.0537109375 11.401123046875 36.196044921875
-11.9052734375 -1.9322509765625 21.9697265625
-33.13427734375 -1.6778564453125 11.928955078125
-2.02294921875 20.9390869140625 -59.6019287109375
-5.806396484375 12.7589111328125 -35.24169921875
-2.917236328125 16.7320556640625 -46.3394775390625
2.857421875 6.5540771484375 49.329345703125
-0.791015625 16.06396484375 -45.742431640625
26.573486328125 0.3021240234375 31.45947265625
-1.005859375 19.4451904296875 -54.3482666015625
29.398681640625 -0.9185791015625 32.88330078125
7.138671875 16.169189453125 -46.1612548828125
-0.959716796875 9.073486328125 -28.7335205078125
17.45703125 10.7152099609375 -31.5977783203125
26.1455078125 -1.7913818359375 39.4014892578125
9.763916015625 30.8299560546875 -21.3492431640625
0.551025390625 15.5908203125 21.5478515625
-33.041748046875 -6.575927734375 21.7523193359375
-8.429443359375 0.159912109375 2.8856201171875
22.417236328125 -1.1253662109375 36.0843505859375
7.0419921875 28.8858642578125 -18.1483154296875
-11.471435546875 -3.945068359375 21.3675537109375
16.016357421875 24.109619140625 -2.241455078125
31.20556640625 -0.675048828125 31.724609375
13.222412109375 10.8875732421875 -28.48291015625
29.357666015625 1.21533203125 28.347412109375
14.790283203125 -5.899169921875 45.2803955078125
-16.044677734375 1.1849365234375 23.8642578125
30.85107421875 -0.0916748046875 34.2615966796875
11.8935546875 23.9117431640625 -1.0108642578125
-21.144775390625 -7.020263671875 21.4150390625
4.27294921875 21.3502197265625 -8.9765625
-1.15771484375 38.829345703125 -49.614990234375
17.447265625 12.0045166015625 38.2066650390625
-8.281005859375 -5.4583740234375 20.640625
-20.77734375 -3.487060546875 8.3250732421875
7.0205078125 8.41650390625 45.205322265625
12.42236328125 9.662841796875 41.7626953125
3.642333984375 6.8839111328125 27.39208984375
-0.388427734375 14.9835205078125 -42.833984375
3.31396484375 8.3260498046875 30.6358642578125
20.35205078125 -5.1915283203125 41.0716552734375
-14.808837890625 0.339111328125 3.6094970703125
-14.966064453125 1.351806640625 6.0076904296875
9.5576171875 7.830322265625 32.2681884765625
2.281005859375 10.147705078125 -28.2996826171875
5.736572265625 20.156494140625 -15.308349609375
13.168212890625 14.582763671875 -41.5986328125
13.067138671875 -3.7802734375 41.976318359375
16.76611328125 -6.3404541015625 41.3179931640625
3.9052734375 6.4376220703125 30.79345703125
-16.000732421875 -1.442138671875 12.5694580078125
4.46484375 14.0189208984375 25.4241943359375
1.7138671875 37.8013916015625 -50.0147705078125
7.201904296875 9.2569580078125 33.71923828125
-10.59912109375 2.72216796875 24.8214111328125
9.536865234375 6.6112060546875 29.0374755859375
15.261474609375 -4.2342529296875 43.3675537109375
9.701904296875 -6.1806640625 47.6865234375
3.10693359375 9.80322265625 27.9268798828125
10.996337890625 8.697021484375 44.1834716796875
-34.63623046875 -2.208740234375 8.5631103515625
-10.6728515625 -5.384033203125 21.8653564453125
-3.9150390625 9.947265625 -29.6400146484375
-19.43798828125 -7.7320556640625 20.40966796875
8.35791015625 -7.3623046875 51.2750244140625
-31.5771484375 -2.4234619140625 15.909423828125
-20.825927734375 -2.146240234375 4.3204345703125
22.157958984375 18.46142578125 -48.1746826171875
19.416259765625 -5.7274169921875 46.2530517578125
-4.99365234375 10.1607666015625 -28.117919921875
-7.233154296875 -2.800048828125 10.8133544921875
-32.73095703125 -0.9696044921875 10.0748291015625
4.770751953125 17.35546875 17.56787109375
-28.16796875 -0.146484375 4.492919921875
6.854248046875 20.4266357421875 -11.08837890625
21.0126953125 19.4766845703125 -53.31591796875
27.6982421875 -1.6346435546875 36.6207275390625
11.33251953125 -8.3662109375 50.55810546875
22.668212890625 17.32763671875 -43.827880859375
6.494384765625 18.412109375 10.140869140625
13.294921875 29.8037109375 -20.0113525390625
18.31103515625 15.1942138671875 30.824951171875
-29.132080078125 -2.646484375 13.0283203125
-19.02978515625 -7.030029296875 21.4666748046875
9.414306640625 17.0281982421875 19.4478759765625
13.04052734375 -6.320556640625 46.8150634765625
-2.124267578125 15.6339111328125 -43.9700927734375
-22.82275390625 -0.63232421875 22.7861328125
9.525146484375 23.6397705078125 -0.5347900390625
-33.784423828125 2.1561279296875 12.64453125
-28.9814453125 0.453125 6.2158203125
5.164794921875 -8.6007080078125 50.6331787109375
3.4716796875 17.5050048828125 -49.80810546875
-3.3125 11.8037109375 -34.215576171875
1.2099609375 17.8536376953125 -50.3023681640625
-17.317626953125 -1.4503173828125 12.385498046875
-32.804931640625 -5.28955078125 23.1424560546875
-23.695068359375 -4.009765625 19.32470703125
16.86279296875 -6.14599609375 45.010009765625
8.414794921875 21.573974609375 -13.3994140625
11.498046875 16.47607421875 -46.2796630859375
4.049072265625 21.8936767578125 -59.3975830078125
12.313720703125 11.706787109375 34.3270263671875
-12.92724609375 1.2232666015625 24.5894775390625
20.30322265625 -6.5384521484375 49.1094970703125
0.270263671875 38.9521484375 -49.962158203125
-10.737060546875 0.205322265625 8.40234375
25.027099609375 -0.7838134765625 33.95654296875
-10.7744140625 0.77294921875 3.211669921875
1.106689453125 38.015625 -48.042236328125
5.128173828125 31.4488525390625 -19.180419921875
-26.3955078125 -4.8878173828125 20.341064453125
19.400390625 18.8245849609375 -52.3272705078125
-23.57861328125 -4.9910888671875 22.751953125
-28.318603515625 -1.622802734375 10.2149658203125
-0.8154296875 37.797119140625 -47.5660400390625
-28.56005859375 -5.602294921875 21.6458740234375
18.015625 -6.2783203125 44.03076171875
-11.066650390625 -3.3797607421875 19.546875
11.068359375 30.0108642578125 -19.6136474609375
-1.1865234375 17.6558837890625 -50.1705322265625
-16.7099609375 -3.3763427734375 22.16748046875
1.707275390625 37.1583251953125 -40.932861328125
-14.84228515625 -4.2493896484375 19.4942626953125
2.804443359375 36.1895751953125 -40.486083984375
-29.96533203125 -1.6064453125 13.4188232421875
15.994873046875 -7.373046875 49.389892578125
21.475830078125 15.3890380859375 -42.6663818359375
9.1240234375 8.0909423828125 28.053466796875
12.252685546875 20.600830078125 8.79736328125
21.9140625 -5.8035888671875 45.0755615234375
-24.596923828125 1.814697265625 21.88720703125
5.822265625 16.463623046875 -46.3973388671875
18.00146484375 25.67919921875 -2.8704833984375
-21.547119140625 -2.740234375 10.01123046875
-1.81494140625 7.7796630859375 -24.2674560546875
10.71826171875 13.8895263671875 -39.989990234375
10.552734375 6.2459716796875 27.6507568359375
-33.800537109375 -2.8525390625 13.0751953125
1.239501953125 12.1885986328125 -35.734130859375
-1.30078125 14.871337890625 19.8111572265625
8.02294921875 9.9803466796875 34.3486328125
-13.40478515625 -3.115966796875 17.4044189453125
18.227783203125 17.52001953125 -49.4171142578125
9.00390625 -7.170166015625 45.4356689453125
21.58349609375 10.999267578125 -29.7841796875
11.068359375 24.5750732421875 -2.3165283203125
15.732177734375 16.80859375 -47.7625732421875
17.560302734375 16.0234375 -45.663818359375
19.3564453125 10.32080078125 -30.0904541015625
25.09912109375 -2.2822265625 40.03369140625
-21.183349609375 -5.5142822265625 17.059814453125
13.09375 21.0164794921875 6.81689453125
10.094970703125 12.15087890625 -35.3577880859375
15.6044921875 15.911865234375 -45.669921875
12.328369140625 30.4483642578125 -22.242431640625
17.461669921875 15.352294921875 -44.09765625
-7.0751953125 -3.2618408203125 13.3902587890625
-16.02099609375 -2.931640625 16.5777587890625
8.418701171875 29.0574951171875 -18.907958984375
13.55712890625 19.216796875 -54.375732421875
-4.062744140625 21.4232177734375 -58.7779541015625
9.063720703125 16.5650634765625 -47.1455078125
-14.4189453125 -3.982421875 21.8717041015625
-4.18359375 20.5830078125 -57.1419677734375
-2.789794921875 14.0767822265625 -40.7261962890625
-23.12451171875 -3.2681884765625 15.3804931640625
-9.210693359375 0.059326171875 3.9002685546875
4.079345703125 8.630126953125 32.16748046875
11.348876953125 11.1422119140625 -33.131103515625
13.643310546875 -8.0911865234375 50.614990234375
-20.71142578125 -6.5618896484375 23.3262939453125
-23.78125 2.002685546875 24.2066650390625
-26.3330078125 -0.426513671875 9.2314453125
14.22021484375 -4.9117431640625 44.4244384765625
13.699951171875 10.0587158203125 -29.3126220703125
-20.03125 -4.2305908203125 9.5716552734375
4.057861328125 13.566162109375 -39.8365478515625
6.46826171875 19.2615966796875 -54.1651611328125
13.52587890625 -3.2088623046875 40.1790771484375
15.828369140625 17.4837646484375 -49.338134765625
-13.93115234375 0.677978515625 5.9345703125
11.096435546875 18.05419921875 15.09619140625
-34.147216796875 -2.8243408203125 19.3065185546875
-26.44677734375 -2.1484375 12.87890625
29.360595703125 -0.7696533203125 35.843505859375
12.012451171875 12.533935546875 -36.3082275390625
5.713134765625 11.2119140625 -33.761962890625
-15.1025390625 5.6851806640625 24.7166748046875
27.536865234375 -1.310546875 34.0648193359375
22.726806640625 -1.8114013671875 37.38525390625
1.65576171875 6.780517578125 49.4739990234375
1.681396484375 25.4737548828125 -9.6885986328125
-19.625732421875 -1.792236328125 24.48876953125
9.529052734375 20.1671142578125 -14.699951171875
-17.083984375 -3.498291015625 19.7623291015625
1.898681640625 14.2943115234375 -40.897705078125
12.043701171875 24.5726318359375 -9.2381591796875
7.822021484375 -7.42724609375 47.2738037109375
6.35986328125 12.3203125 -35.958984375
19.500732421875 12.0338134765625 -35.050537109375
3.172119140625 13.0054931640625 -37.69580078125
3.76416015625 25.5250244140625 -62.128173828125
12.63037109375 22.2918701171875 2.6968994140625
-5.54638671875 14.184814453125 -41.0504150390625
6.6337890625 7.731201171875 27.2222900390625
8.363525390625 9.7398681640625 -29.937255859375
-16.941162109375 -1.3291015625 14.8115234375
11.33544921875 21.72509765625 5.23974609375
10.273681640625 10.26806640625 33.54345703125
-32.710693359375 -0.1822509765625 8.27001953125
6.65087890625 18.5294189453125 -10.250244140625
13.75146484375 24.4495849609375 -2.7847900390625
5.13427734375 13.2694091796875 -37.7254638671875
-21.27734375 -3.499755859375 10.926513671875
17.729736328125 13.649658203125 34.97509765625
8.817138671875 20.9892578125 -12.0181884765625
20.285400390625 -0.2215576171875 37.5577392578125
2.54248046875 15.1890869140625 24.28515625
15.1630859375 10.296875 -29.6676025390625
2.9140625 10.88818359375 29.934326171875
3.36181640625 11.2471923828125 -34.1719970703125
-33.87158203125 -3.9617919921875 18.2099609375
12.36328125 30.08447265625 -20.800048828125
3.547119140625 18.176025390625 -51.375
12.08984375 17.880126953125 16.26611328125
10.500244140625 30.6458740234375 -22.37744140625
4.776611328125 10.2276611328125 -30.6397705078125
-17.574462890625 -4.3480224609375 21.6337890625
18.208251953125 -7.630615234375 50.3408203125
6.57958984375 8.9189453125 -26.6920166015625
-8.319091796875 -2.7247314453125 12.259033203125
-19.2978515625 -2.0050048828125 5.69677734375
1.083740234375 26.787353515625 -11.16455078125
20.931884765625 -3.670166015625 40.3902587890625
-0.156005859375 11.1231689453125 -32.4903564453125
-2.464111328125 11.3740234375 -33.4022216796875
4.650146484375 -9.39599609375 49.1669921875
2.844970703125 8.66650390625 -26.311767578125
7.203369140625 16.89599609375 13.3133544921875
6.13916015625 8.9432373046875 43.599365234375
-17.758056640625 -1.0323486328125 23.6492919921875
1.703857421875 12.6004638671875 32.443359375
2.813232421875 25.4515380859375 -4.5267333984375
8.080322265625 16.8809814453125 20.12255859375
10.1083984375 -6.7518310546875 49.330322265625
27.267822265625 -0.415283203125 32.2950439453125
2.322021484375 8.1624755859375 -25.203857421875
11.54833984375 10.2344970703125 -28.4501953125
5.7255859375 9.6217041015625 -28.4591064453125
13.838623046875 18.6396484375 16.7362060546875
-14.488525390625 -0.3421630859375 7.9041748046875
-24.666748046875 0.4097900390625 3.7392578125
13.7861328125 11.821533203125 -34.705810546875
-14.648681640625 1.7420654296875 23.1319580078125
16.517822265625 27.1136474609375 -11.90478515625
10.121826171875 10.7646484375 37.7462158203125
15.7021484375 14.384765625 30.900634765625
4.689208984375 22.539306640625 -60.1790771484375
3.029296875 16.5177001953125 20.574951171875
3.08203125 10.603515625 38.818115234375
16.85498046875 24.94873046875 -2.0875244140625
-24.291748046875 -4.8939208984375 20.3907470703125
3.9140625 15.487548828125 23.591552734375
-18.2158203125 0.782470703125 24.700927734375
3.285888671875 14.3802490234375 -41.2222900390625
7.901123046875 10.6854248046875 38.0877685546875
-22.17333984375 -0.4613037109375 5.536376953125
-21.256103515625 -4.86474609375 23.984375
-11.797119140625 -5.0074462890625 21.9984130859375
19.056884765625 -6.203369140625 41.38037109375
5.30029296875 6.5223388671875 27.6004638671875
21.768310546875 12.6590576171875 -34.28955078125
-23.91796875 -3.505859375 16.38818359375
-9.2353515625 -4.45068359375 20.232666015625
7.733154296875 7.17822265625 47.744140625
0.600341796875 8.3192138671875 -24.88037109375
10.1298828125 10.231201171875 39.5003662109375
10.2041015625 11.395263671875 36.385498046875
-0.12548828125 37.2445068359375 -44.3028564453125
-23.85498046875 0.0042724609375 4.5028076171875
-21.71728515625 -5.4722900390625 19.2125244140625
0.699951171875 21.674560546875 -59.0263671875
3.80419921875 7.6005859375 26.419189453125
-34.6650390625 -3.3719482421875 17.022705078125
4.6240234375 26.6270751953125 -15.4263916015625
-4.02685546875 14.5272216796875 -41.011474609375
-2.87060546875 21.6087646484375 -60.972900390625
14.011474609375 10.349853515625 41.4517822265625
22.386474609375 -5.3857421875 47.452392578125
15.990478515625 19.193603515625 -53.9876708984375
5.98876953125 7.7039794921875 46.267333984375
-24.524658203125 -4.587158203125 17.90869140625
7.818359375 6.559326171875 29.7393798828125
-28.242431640625 -2.9542236328125 14.16357421875
-12.388671875 -0.288818359375 10.47314453125
-1.546875 12.85302734375 -37.9962158203125
21.152099609375 -2.7733154296875 38.99560546875
3.79345703125 7.8931884765625 45.7271728515625
3.912841796875 8.924560546875 43.50634765625
8.921630859375 24.8929443359375 -5.5623779296875
12.983642578125 9.5687255859375 42.9569091796875
3.989990234375 19.2293701171875 -11.6568603515625
15.962158203125 28.62939453125 -17.5574951171875
18.687744140625 -3.4134521484375 39.4376220703125
12.354736328125 -7.4576416015625 48.68017578125
17.46875 -6.586181640625 47.8629150390625
4.63232421875 6.6993408203125 49.0643310546875
-0.070556640625 19.678466796875 -55.08642578125
5.934326171875 20.9859619140625 -12.8096923828125
9.564208984375 16.079833984375 -45.296142578125
0.6337890625 7.058349609375 47.5179443359375
16.22119140625 -7.143798828125 46.8642578125
1.624755859375 18.0615234375 -51.3717041015625
-27.4912109375 -4.322265625 20.0303955078125
10.2412109375 5.89208984375 29.8712158203125
7.459228515625 6.925048828125 32.7098388671875
18.9921875 16.1131591796875 -46.000244140625
4.240234375 5.53515625 52.96337890625
14.443603515625 32.0540771484375 -25.7513427734375
1.166015625 6.0411376953125 51.2733154296875
-4.18310546875 18.7642822265625 -51.5989990234375
5.557861328125 6.5867919921875 49.776123046875
4.200927734375 4.871826171875 54.6834716796875
15.3193359375 13.9085693359375 -40.9945068359375
21.080322265625 15.9779052734375 -44.1053466796875
8.14013671875 15.202880859375 -42.4776611328125
1.80615234375 36.196044921875 -44.48681640625
-2.494873046875 17.9488525390625 -50.4039306640625
5.2890625 30.47998046875 -18.56787109375
10.28125 -7.650634765625 50.2205810546875
13.754638671875 -3.977783203125 41.068115234375
4.31201171875 6.145751953125 51.65185546875
-27.6689453125 0.4661865234375 3.4490966796875
1.043701171875 16.2965087890625 -46.6680908203125
-11.541259765625 -2.3021240234375 16.11669921875
2.81201171875 15.864501953125 -46.043701171875
-22.800048828125 -1.31201171875 3.2764892578125
7.3154296875 17.4874267578125 12.330322265625
10.2802734375 19.4739990234375 -10.2220458984375
4.830810546875 15.791748046875 -44.6387939453125
7.893798828125 5.9229736328125 32.349853515625
17.92236328125 11.4119873046875 -34.124755859375
11.140380859375 19.6116943359375 10.4664306640625
-22.89794921875 -0.8111572265625 7.4127197265625
-29.66162109375 -0.344970703125 9.406982421875
13.96435546875 18.0455322265625 -50.9163818359375
-22.4716796875 0.9727783203125 24.140625
11.27001953125 18.4122314453125 -50.8616943359375
13.68603515625 16.0240478515625 -46.1973876953125
20.20556640625 -7.084228515625 42.97607421875
19.84521484375 -4.0487060546875 40.1773681640625
2.603759765625 5.1741943359375 54.8701171875
-5.869140625 16.76806640625 -44.3131103515625
2.8798828125 8.4735107421875 43.7083740234375
12.547119140625 16.9112548828125 19.3831787109375
10.6982421875 8.6461181640625 31.5614013671875
-13.8525390625 0.171630859375 4.7354736328125
2.0078125 8.7362060546875 42.9700927734375
18.9248046875 10.1224365234375 -29.0504150390625
29.382080078125 0.1009521484375 36.5831298828125
11.74072265625 10.9200439453125 32.3839111328125
6.060302734375 13.7716064453125 -39.4073486328125
-18.339599609375 -0.92626953125 6.5968017578125
7.91455078125 17.91748046875 -49.52197265625
1.592529296875 13.0418701171875 30.280517578125
-9.960205078125 -2.10986328125 11.1849365234375
-34.25341796875 -4.08251953125 15.8333740234375
18.952392578125 15.31787109375 -43.490234375
-32.078857421875 -3.60498046875 18.2486572265625
-27.753173828125 -3.5750732421875 16.2469482421875
-5.512939453125 13.629638671875 -39.116455078125
18.334228515625 25.740234375 -7.9130859375
14.75341796875 31.0426025390625 -23.7635498046875
6.863525390625 17.47265625 15.896240234375
1.190673828125 37.570068359375 -46.07470703125
2.059326171875 16.9073486328125 -47.961669921875
-21.443359375 -2.00390625 5.6722412109375
-21.13330078125 -7.22119140625 18.974365234375
13.509033203125 31.7344970703125 -24.5755615234375
-10.433349609375 0.8616943359375 21.7210693359375
3.918701171875 10.9332275390625 -32.4149169921875
-3.363037109375 12.137939453125 -35.631591796875
-21.68701171875 -1.093994140625 7.65966796875
11.77978515625 10.5103759765625 -31.271484375
11.76220703125 18.7860107421875 -51.994384765625
7.0859375 10.5245361328125 -31.6427001953125
23.67431640625 -2.7459716796875 41.1357421875
0.80810546875 11.7734375 -34.192626953125
15.589111328125 25.344970703125 -5.977783203125
8.51220703125 19.19091796875 -52.7515869140625
3.85595703125 10.64208984375 34.4793701171875
-1.4931640625 11.748779296875 -34.1441650390625
8.197998046875 -6.862060546875 48.385009765625
26.654296875 -1.0445556640625 33.317626953125
-4.37158203125 11.33154296875 -33.882568359375
8.2412109375 8.35693359375 27.3060302734375
-11.630615234375 1.1795654296875 5.4271240234375
-22.695068359375 -2.115478515625 9.276611328125
-10.177001953125 -2.2960205078125 13.35888671875
21.689453125 13.40478515625 -37.6512451171875
9.951416015625 -6.248779296875 46.427001953125
12.4111328125 10.9971923828125 37.375732421875
1.079345703125 17.0238037109375 -48.6895751953125
23.307861328125 -0.8763427734375 35.074951171875
6.111572265625 9.4674072265625 -24.916259765625
3.18994140625 21.01953125 -12.73388671875
9.259033203125 6.201171875 31.6787109375
2.536865234375 9.431884765625 41.556884765625
6.892578125 18.0965576171875 -50.7252197265625
-8.8076171875 -1.3846435546875 7.898681640625
-32.145263671875 -0.0714111328125 6.0589599609375
-25.803955078125 -6.2393798828125 22.091552734375
23.1328125 -4.533447265625 46.8397216796875
6.0791015625 14.271728515625 -40.8961181640625
3.326904296875 20.7725830078125 -10.9239501953125
0.194580078125 9.6385498046875 -28.64990234375
29.49755859375 1.780517578125 27.3935546875
1.0078125 15.572021484375 -44.6541748046875
-8.256103515625 3.2347412109375 21.4210205078125
4.215087890625 8.7437744140625 -26.6126708984375
3.181640625 8.55126953125 28.9332275390625
7.0576171875 15.502685546875 -44.6060791015625
-26.9521484375 -1.9158935546875 11.682861328125
6.47265625 12.9158935546875 -37.0252685546875
22.47314453125 12.3182373046875 -31.15869140625
10.63525390625 12.948974609375 -37.4739990234375
4.351806640625 -9.4681396484375 50.43505859375
14.494384765625 23.7440185546875 1.677490234375
1.7421875 26.4403076171875 -12.1258544921875
2.546142578125 20.5975341796875 -55.9195556640625
9.239990234375 12.5858154296875 -36.181396484375
3.871826171875 15.8197021484375 22.2607421875
27.93017578125 0.68212890625 29.922119140625
-4.130859375 20.2327880859375 -55.6739501953125
4.188232421875 19.610595703125 -54.657958984375
-22.02685546875 0.0029296875 23.7969970703125
13.227783203125 11.92041015625 33.7347412109375
14.7646484375 12.822265625 -37.876953125
9.94482421875 14.990966796875 -42.3660888671875
2.75732421875 10.9071044921875 28.6824951171875
10.13818359375 30.2911376953125 -20.4010009765625
12.03369140625 -4.7081298828125 43.8912353515625
2.83837890625 7.073486328125 47.617431640625
5.409912109375 10.9879150390625 24.8375244140625
18.753662109375 14.5106201171875 32.99658203125
7.31884765625 7.676513671875 29.2447509765625
11.7470703125 22.7904052734375 1.4364013671875
21.396484375 18.008544921875 -48.8360595703125
3.05029296875 23.2227783203125 -9.98291015625
9.56689453125 23.004638671875 1.7918701171875
13.8154296875 12.3197021484375 -36.190185546875
10.118408203125 8.9615478515625 43.4403076171875
4.32861328125 15.2056884765625 -43.0147705078125
-8.74951171875 -3.4932861328125 14.561767578125
2.359619140625 24.5509033203125 -8.751953125
-1.12353515625 12.0057373046875 -35.6351318359375
7.307861328125 13.318115234375 -39.119873046875
3.301025390625 14.8809814453125 -42.712646484375
-0.112548828125 12.3232421875 -35.9246826171875
-5.265625 17.26220703125 -48.2279052734375
-4.70654296875 12.27197265625 -35.821533203125
-3.6552734375 13.517333984375 -38.592529296875
7.528564453125 17.4718017578125 17.524169921875
-0.110595703125 11.5550537109375 -33.4962158203125
-0.8251953125 37.2508544921875 -46.02783203125
6.04541015625 9.718994140625 -29.896728515625
21.44140625 -6.2218017578125 42.6973876953125
2.585205078125 21.3409423828125 -57.9808349609375
-1.163818359375 10.8082275390625 -32.206298828125
-21.103515625 0.67919921875 25.6103515625
9.989990234375 10.7252197265625 -31.3939208984375
-25.08056640625 -0.957763671875 7.4193115234375
-28.161865234375 -0.7945556640625 9.21044921875
11.268310546875 9.9384765625 -29.6846923828125
10.976318359375 -5.5787353515625 45.38134765625
-33.47265625 -3.2635498046875 16.3828125
7.5205078125 19.307861328125 -53.4854736328125
24.17724609375 14.0421142578125 -27.29541015625
16.9423828125 25.28271484375 -6.2171630859375
3.835205078125 20.3660888671875 -56.160888671875
-4.4365234375 15.6019287109375 -43.9029541015625
4.269775390625 7.4451904296875 47.3734130859375
6.63232421875 9.348388671875 -27.69140625
-12.932861328125 -3.7431640625 19.5048828125
2.30078125 28.9505615234375 -15.4168701171875
7.507568359375 18.735595703125 9.914306640625
-29.537353515625 -0.6982421875 8.1932373046875
-24.037353515625 -1.67578125 10.6993408203125
12.2841796875 -4.525634765625 41.764404296875
10.7490234375 17.4532470703125 17.8607177734375
8.908203125 18.6121826171875 14.070556640625
11.23046875 19.0517578125 -53.3375244140625
17.762939453125 17.9493408203125 -50.81494140625
-3.4169921875 10.7269287109375 -31.707763671875
10.98583984375 24.6444091796875 -6.80078125
-1.76025390625 21.0140380859375 -57.8172607421875
-26.1318359375 1.008056640625 3.90625
9.544677734375 8.056640625 45.302001953125
13.788330078125 12.9061279296875 31.38623046875
-21.754638671875 -3.1201171875 12.6171875
6.5537109375 23.6986083984375 -5.8060302734375
-0.503662109375 7.4312744140625 -23.5767822265625
2.04296875 11.323486328125 -33.9063720703125
-2.684326171875 8.7451171875 -26.96142578125
6.89794921875 22.36083984375 -13.2545166015625
18.19189453125 17.006591796875 -47.890625
-5.05859375 19.999267578125 -54.9365234375
-0.56640625 19.08154296875 -53.4329833984375
3.912109375 10.168212890625 -29.9945068359375
1.237548828125 10.6549072265625 -30.8843994140625
-2.506591796875 12.1993408203125 -36.282470703125
-28.641357421875 -3.2679443359375 15.114013671875
-3.365966796875 19.1815185546875 -53.7376708984375
5.95361328125 19.221435546875 -10.6920166015625
7.81103515625 7.796142578125 46.41455078125
14.30615234375 16.7181396484375 -47.4239501953125
9.61181640625 17.0963134765625 -48.3187255859375
4.5625 20.4827880859375 -14.6923828125
10.370849609375 11.2430419921875 34.6806640625
6.645263671875 17.1888427734375 18.5810546875
4.708984375 9.3084716796875 -28.18017578125
-3.18212890625 7.9732666015625 -24.91357421875
-5.119140625 12.841552734375 -37.2142333984375
-2.465576171875 18.679931640625 -52.4346923828125
26.663818359375 -1.61376953125 35.5047607421875
-27.257568359375 -4.0 17.879638671875
-32.19384765625 -1.6461181640625 12.582275390625
-32.419189453125 -1.9730224609375 14.74609375
13.3203125 15.694580078125 -44.190673828125
21.054443359375 -6.6939697265625 44.8831787109375
4.7880859375 16.1358642578125 -46.08935546875
9.032958984375 22.18798828125 3.7989501953125
15.3486328125 29.7415771484375 -18.566650390625
13.9189453125 21.8416748046875 6.9837646484375
-30.18994140625 -4.3687744140625 21.7342529296875
11.785888671875 14.717529296875 -41.787353515625
17.13525390625 14.350830078125 31.544189453125
5.664306640625 10.5302734375 35.0628662109375
11.78515625 -8.05615234375 49.64404296875
5.1865234375 8.9715576171875 32.797119140625
18.981689453125 12.573974609375 -37.350341796875
18.838623046875 19.1551513671875 -54.156494140625
7.663330078125 10.290283203125 -26.30517578125
13.385498046875 30.7999267578125 -22.5216064453125
8.419677734375 20.7119140625 7.2423095703125
20.195068359375 17.346435546875 -48.4149169921875
16.42578125 27.897216796875 -15.22265625
5.90771484375 -8.2191162109375 48.45166015625
6.097900390625 15.1488037109375 24.1453857421875
16.926513671875 18.9114990234375 -53.195068359375
-24.087890625 -6.1708984375 22.197998046875
9.87548828125 20.1187744140625 9.7255859375
15.945068359375 14.1875 33.4642333984375
-1.777099609375 14.398193359375 -41.023681640625
-20.3203125 -0.51123046875 25.24169921875
5.091064453125 12.5540771484375 -35.738037109375
1.98974609375 12.356201171875 28.6085205078125
-2.355712890625 13.72119140625 -39.8314208984375
18.198974609375 -7.5885009765625 42.9117431640625
13.1025390625 19.6041259765625 11.4505615234375
-0.0791015625 13.03515625 -37.9039306640625
19.912109375 14.9764404296875 -42.2335205078125
9.435791015625 11.040283203125 -33.1573486328125
-8.73828125 -0.581787109375 6.0521240234375
4.380615234375 7.1060791015625 25.5457763671875
14.26708984375 26.50927734375 -9.101806640625
-10.372314453125 -0.27392578125 9.2640380859375
18.798828125 18.34716796875 -51.60986328125
-16.95751953125 0.4801025390625 6.5225830078125
-33.96923828125 -2.8411865234375 11.8641357421875
14.66796875 25.0413818359375 -4.8533935546875
-11.14697265625 -0.373291015625 10.26513671875
15.635986328125 15.5654296875 -44.208251953125
-2.33349609375 37.5745849609375 -47.648193359375
15.225341796875 12.674072265625 36.3255615234375
10.53369140625 8.3577880859375 45.1268310546875
0.318115234375 39.4339599609375 -51.0316162109375
14.5517578125 15.014404296875 -43.382080078125
-34.331298828125 -3.7869873046875 14.564208984375
13.351318359375 25.330322265625 -5.1112060546875
16.424072265625 18.24658203125 -51.051513671875
1.155517578125 38.4957275390625 -49.1080322265625
15.489990234375 18.528076171875 -51.8424072265625
12.953369140625 11.9017333984375 31.644287109375
-18.341796875 -3.604736328125 23.304443359375
28.513916015625 -0.65185546875 32.1341552734375
-11.309326171875 1.6693115234375 3.1531982421875
2.52783203125 10.3626708984375 -30.644287109375
-8.4462890625 -0.4989013671875 4.70849609375
12.561767578125 19.044677734375 -54.1068115234375
4.307861328125 21.032470703125 -58.3055419921875
14.826904296875 13.26318359375 -38.9052734375
19.229736328125 17.6905517578125 -49.680908203125
3.162841796875 9.0806884765625 27.1671142578125
9.3994140625 19.5509033203125 -54.4412841796875
10.95068359375 15.662109375 -44.1224365234375
10.518798828125 9.4151611328125 41.647705078125
3.4775390625 9.7574462890625 -28.467041015625
11.32177734375 10.1156005859375 31.7000732421875
21.255615234375 17.103515625 -46.727783203125
-1.70361328125 10.0849609375 -30.58642578125
-4.847900390625 10.7640380859375 -32.307373046875
14.0693359375 11.0377197265625 39.669677734375
3.742431640625 13.1112060546875 26.0936279296875
9.09619140625 24.0018310546875 -1.4111328125
-34.271484375 -6.8193359375 22.40966796875
1.177978515625 37.0238037109375 -44.53759765625
8.529052734375 19.99560546875 -55.28466796875
6.84521484375 -7.3043212890625 49.4420166015625
17.59521484375 16.5341796875 -47.1829833984375
1.271240234375 9.83447265625 -28.0216064453125
10.178466796875 19.9427490234375 -12.5338134765625
4.729248046875 8.5108642578125 44.2711181640625
12.45166015625 31.081298828125 -23.312255859375
-34.106689453125 -5.056640625 19.24658203125
-31.888671875 0.008056640625 7.6680908203125
21.085205078125 16.264404296875 -45.10107421875
4.609375 19.8218994140625 -55.7391357421875
19.544921875 13.09765625 -38.5054931640625
22.596435546875 16.87646484375 -42.7803955078125
13.838134765625 26.2921142578125 -8.077880859375
17.791748046875 14.0379638671875 -40.638916015625
9.3408203125 23.8955078125 -6.36083984375
3.603515625 6.208740234375 29.1824951171875
-12.49853515625 -0.12890625 9.198974609375
-12.0185546875 0.3428955078125 8.186767578125
-15.973388671875 1.37158203125 4.9168701171875
-14.496337890625 -3.83056640625 17.7054443359375
3.358642578125 10.6219482421875 27.349853515625
-26.817626953125 -2.7117919921875 14.6988525390625
12.556396484375 13.6158447265625 -39.4105224609375
4.48095703125 17.61181640625 -49.599853515625
28.546630859375 -1.27734375 34.755859375
16.97509765625 -7.096435546875 49.222900390625
9.468505859375 7.175048828125 47.499267578125
1.756591796875 36.67724609375 -42.7093505859375
0.334228515625 18.5789794921875 -52.127685546875
8.541015625 22.3673095703125 -7.7308349609375
16.146728515625 12.686279296875 -37.6854248046875
2.90087890625 19.8424072265625 -54.418212890625
-24.934326171875 -3.2381591796875 14.4508056640625
-21.32080078125 -0.6884765625 24.6083984375
-2.326416015625 20.538818359375 -57.1002197265625
1.568603515625 7.4107666015625 46.9310302734375
5.116943359375 19.330810546875 -53.871826171875
17.94189453125 26.923828125 -11.2298583984375
-12.44482421875 -1.539794921875 13.6357421875
4.124267578125 20.052978515625 -13.1800537109375
8.07763671875 10.9000244140625 -32.385986328125
2.8994140625 -9.943115234375 50.6910400390625
15.75341796875 31.2281494140625 -23.999755859375
-12.217041015625 0.4097900390625 6.5159912109375
1.056884765625 21.8499755859375 -56.8175048828125
15.752685546875 30.62841796875 -22.0360107421875
-20.860595703125 -5.6895751953125 13.7149658203125
0.12841796875 21.1968994140625 -58.3052978515625
-6.34033203125 -1.0479736328125 5.695068359375
-35.4794921875 -3.94921875 12.7388916015625
-0.392578125 20.369140625 -56.11279296875
9.7900390625 17.5667724609375 17.1328125
-20.806396484375 -6.179931640625 15.4447021484375
17.25048828125 13.29833984375 35.946044921875
16.800048828125 13.5909423828125 -39.4039306640625
10.88818359375 11.5574951171875 -34.4869384765625
7.701904296875 22.5369873046875 3.0919189453125
0.081298828125 14.565673828125 -41.47216796875
7.287353515625 12.81982421875 -37.63525390625
14.983154296875 14.652587890625 -42.471435546875
2.52880859375 14.7039794921875 25.640625
9.52490234375 21.705078125 5.5623779296875
-17.316650390625 -0.8013916015625 10.598876953125
8.13427734375 15.485595703125 -43.4605712890625
4.972900390625 13.2904052734375 -39.061767578125
3.24609375 13.66162109375 -39.22509765625
7.08740234375 -8.2091064453125 47.466064453125
18.169189453125 12.7003173828125 38.0172119140625
20.5 12.75830078125 -37.255859375
8.4287109375 14.0205078125 -39.9794921875
6.12451171875 14.994140625 -42.9039306640625
5.009521484375 19.5570068359375 -11.914794921875
-4.86865234375 16.4609375 -46.2935791015625
-21.356201171875 -7.1531982421875 20.23779296875
4.9404296875 21.632568359375 -8.260986328125
6.17724609375 15.4366455078125 -43.93603515625
4.76806640625 8.4337158203125 -24.872314453125
22.5498046875 13.041015625 -33.1595458984375
7.4150390625 15.5662841796875 22.5810546875
-0.0458984375 13.7496337890625 -39.890625
8.669189453125 8.3204345703125 44.560791015625
23.6748046875 13.6024169921875 -29.84619140625
25.20166015625 -2.02734375 36.1978759765625
-0.6220703125 18.1243896484375 -50.8740234375
5.68408203125 25.0498046875 -16.6888427734375
-18.50390625 -0.9136962890625 5.359375
