-56.480224609375 -8.76416015625 2.332763671875
-25.69287109375 -14.069091796875 8.415283203125
-12.2626953125 35.07470703125 29.734619140625
-11.837890625 67.73974609375 49.2222900390625
0.443359375 30.404296875 -8.26220703125
-13.33740234375 -31.4171142578125 32.4041748046875
-74.86767578125 63.5545654296875 47.1810302734375
-10.01953125 -17.9102783203125 10.29638671875
-63.590576171875 10.6983642578125 4.712646484375
53.212890625 29.846923828125 52.805908203125
-2.781005859375 -20.8302001953125 24.01171875
-52.441650390625 -42.7886962890625 38.0938720703125
-31.518798828125 -3.2506103515625 -2.632568359375
27.02587890625 -35.0576171875 38.21728515625
16.587158203125 -25.5263671875 20.0367431640625
-9.73583984375 -12.2216796875 5.1824951171875
2.884033203125 29.3145751953125 -6.35498046875
-49.950439453125 -37.932861328125 35.5780029296875
-44.195068359375 13.5697021484375 6.032958984375
-45.75634765625 7.7647705078125 11.91845703125
-43.017333984375 35.80712890625 -10.00830078125
-44.628173828125 -11.68896484375 7.776611328125
-9.70751953125 70.243896484375 50.871826171875
-17.6162109375 6.271728515625 5.1092529296875
-65.844970703125 -12.067626953125 13.3192138671875
55.171630859375 17.3145751953125 65.140380859375
-54.315185546875 -15.9259033203125 19.009765625
-56.830810546875 -34.9239501953125 32.974365234375
-41.31298828125 -22.5552978515625 22.077880859375
-37.6982421875 -11.504638671875 0.946533203125
45.712890625 62.548583984375 38.6630859375
6.2421875 -28.9090576171875 24.2420654296875
45.278076171875 27.7225341796875 55.8271484375
0.720458984375 -0.113037109375 3.585693359375
4.19775390625 24.0411376953125 5.682373046875
-70.140869140625 17.040771484375 11.9151611328125
-30.144287109375 -5.500244140625 0.8726806640625
-14.87158203125 -14.817138671875 8.0521240234375
-69.52783203125 17.5352783203125 6.2591552734375
12.53466796875 -36.045654296875 36.317626953125
-36.16162109375 -20.3369140625 8.2296142578125
5.224365234375 31.3095703125 -36.3580322265625
50.697265625 72.15087890625 35.4747314453125
-16.64501953125 26.982421875 32.01171875
50.00390625 25.0909423828125 56.8197021484375
-80.919677734375 28.24365234375 30.9212646484375
-37.972412109375 -23.85693359375 22.662841796875
-24.495361328125 -9.8759765625 5.8997802734375
31.680908203125 -21.486083984375 26.2030029296875
-1.08056640625 4.3446044921875 8.12060546875
-63.430419921875 -7.6051025390625 0.157470703125
52.4462890625 40.2855224609375 56.70361328125
-50.501220703125 35.040771484375 -17.946533203125
-32.45703125 -28.42041015625 29.2708740234375
-40.3759765625 -21.6632080078125 12.013427734375
-65.91845703125 -22.385009765625 29.800048828125
-60.672119140625 -8.5728759765625 13.695068359375
-77.54638671875 65.255126953125 51.854248046875
44.3095703125 53.3607177734375 55.3604736328125
-48.41357421875 -32.6259765625 32.07470703125
53.045654296875 48.9217529296875 50.8602294921875
-17.9013671875 -42.1014404296875 39.8985595703125
-60.9375 13.748291015625 0.5347900390625
55.838134765625 53.8004150390625 34.1910400390625
-62.048828125 -14.0484619140625 18.4481201171875
10.522705078125 -1.2265625 10.7410888671875
13.91650390625 14.568359375 19.9559326171875
-73.552490234375 -0.3128662109375 -1.9620361328125
11.528076171875 38.83935546875 -5.6590576171875
-55.93798828125 -6.1170654296875 -2.48681640625
0.43798828125 41.1658935546875 -16.76708984375
-24.521728515625 -19.82177734375 15.3680419921875
56.581787109375 45.5391845703125 52.52587890625
56.240966796875 28.2003173828125 54.09228515625
-14.1630859375 56.5479736328125 51.79443359375
42.342529296875 49.0186767578125 59.07177734375
-4.824951171875 24.3499755859375 0.2137451171875
-78.16845703125 55.2099609375 62.1363525390625
-70.77685546875 34.40087890625 1.1771240234375
-8.41015625 31.20458984375 0.1849365234375
-63.31103515625 35.8226318359375 -16.934326171875
-53.9130859375 -19.953857421875 21.858642578125
43.8623046875 63.942138671875 41.71875
-8.4150390625 70.8984375 48.09033203125
-36.5654296875 -5.4217529296875 -1.9332275390625
69.72705078125 2.3839111328125 71.503662109375
-45.822998046875 -38.9317626953125 35.775390625
-21.1513671875 -23.5430908203125 27.7860107421875
57.009521484375 24.8243408203125 57.3570556640625
66.544921875 32.9521484375 55.5780029296875
-8.08642578125 46.3470458984375 -11.51953125
-11.6396484375 36.3046875 0.110595703125
-12.369140625 23.296875 34.451416015625
-57.763671875 -30.3807373046875 29.0345458984375
-67.5888671875 36.1077880859375 -13.205078125
49.0224609375 47.0899658203125 54.937744140625
-22.6533203125 5.7930908203125 8.7928466796875
-31.340576171875 -20.395751953125 8.403076171875
-7.729248046875 -24.1075439453125 26.5042724609375
53.202392578125 22.280029296875 62.240234375
-78.783203125 0.2420654296875 -3.7098388671875
9.709228515625 -13.6654052734375 21.3433837890625
-4.2060546875 -18.7645263671875 14.906005859375
54.342529296875 6.6710205078125 68.80517578125
-69.269287109375 42.2711181640625 -9.5814208984375
-48.6435546875 -27.377197265625 27.5916748046875
-17.043212890625 -0.5947265625 4.245361328125
49.76806640625 67.6773681640625 39.3961181640625
40.66162109375 52.5814208984375 57.426513671875
5.725830078125 -30.216552734375 31.5687255859375
-0.452392578125 36.8253173828125 -12.998291015625
-43.848876953125 30.8060302734375 -4.930908203125
-36.534423828125 3.37890625 -4.2772216796875
39.768310546875 61.60009765625 45.5670166015625
53.499267578125 33.0048828125 53.3404541015625
-1.23095703125 -16.093505859375 19.0794677734375
-3.31396484375 28.288818359375 -6.5657958984375
-28.7724609375 -43.213623046875 39.5557861328125
-17.367431640625 27.430419921875 35.142333984375
-28.668212890625 -11.896484375 2.691162109375
-62.753662109375 -29.2744140625 31.675048828125
-18.223388671875 56.442626953125 54.2186279296875
27.299072265625 7.4412841796875 23.3458251953125
62.1982421875 58.309814453125 44.36572265625
-14.96044921875 29.595458984375 29.3741455078125
-0.60009765625 8.22900390625 13.9241943359375
10.8046875 -26.2183837890625 20.24267578125
51.743896484375 43.0726318359375 55.392333984375
62.268310546875 26.7962646484375 57.7469482421875
56.45849609375 55.7935791015625 47.1903076171875
-18.125244140625 -27.83447265625 31.0220947265625
10.854248046875 26.1318359375 25.8253173828125
-73.456787109375 57.649169921875 51.5625
-74.797607421875 69.015869140625 44.5966796875
2.098388671875 10.9705810546875 12.6455078125
-9.520751953125 45.294921875 -6.4443359375
-36.010986328125 -24.7633056640625 14.3226318359375
59.945556640625 14.3048095703125 62.9244384765625
17.265380859375 5.120849609375 17.3505859375
62.631591796875 48.5479736328125 53.8096923828125
54.2587890625 11.369873046875 66.0975341796875
9.12841796875 14.51806640625 17.5294189453125
-11.93115234375 34.9759521484375 2.9200439453125
19.0595703125 -20.0321044921875 19.2437744140625
-29.700439453125 -35.29345703125 36.285400390625
-70.279052734375 69.9185791015625 46.5267333984375
46.79248046875 44.1185302734375 57.381103515625
-3.956787109375 -26.4853515625 28.919189453125
-71.876953125 -22.5545654296875 10.337158203125
47.414794921875 72.54248046875 43.4364013671875
17.39990234375 -8.43017578125 26.69970703125
2.73291015625 -38.17822265625 37.998291015625
-0.53759765625 -23.78564453125 25.0716552734375
17.726318359375 -1.9810791015625 18.3983154296875
28.904052734375 56.9652099609375 14.3692626953125
-14.541748046875 45.462158203125 55.177001953125
-60.149658203125 7.3548583984375 13.2550048828125
-30.609619140625 33.89111328125 30.1156005859375
-69.691650390625 -21.93701171875 12.6492919921875
-15.734619140625 -4.938232421875 5.0130615234375
-66.3193359375 11.689208984375 5.4049072265625
-25.46337890625 -25.0152587890625 29.1824951171875
-82.12060546875 34.2747802734375 28.3773193359375
4.810302734375 44.2498779296875 -17.515625
-30.9765625 -11.5521240234375 0.799560546875
63.731689453125 44.740966796875 58.2315673828125
-11.6982421875 25.05078125 31.0555419921875
-9.96826171875 -22.0946044921875 14.9881591796875
-53.50927734375 35.094482421875 -19.870361328125
-4.068359375 -12.00927734375 9.05712890625
-64.864990234375 5.7957763671875 10.4736328125
8.157470703125 11.9967041015625 19.1199951171875
6.2529296875 -3.274658203125 23.5477294921875
-22.45068359375 53.9534912109375 55.81298828125
-54.003662109375 2.0447998046875 7.150634765625
-41.934326171875 2.7802734375 2.00634765625
-78.3251953125 -22.481689453125 8.3282470703125
-75.9765625 -18.56591796875 5.161376953125
-37.790771484375 -28.2952880859375 29.264892578125
-38.8916015625 -35.61181640625 35.567626953125
-59.9140625 -31.3804931640625 31.353515625
-74.65087890625 -23.8021240234375 9.73095703125
5.5771484375 30.415283203125 -5.4444580078125
-20.05126953125 -19.1278076171875 15.3468017578125
-31.9228515625 -0.33056640625 -2.7342529296875
66.998779296875 39.0072021484375 59.224365234375
-67.427978515625 57.1549072265625 50.5936279296875
-5.135986328125 21.684814453125 6.9013671875
-47.097412109375 -8.342529296875 13.1649169921875
14.071533203125 -5.2655029296875 28.441162109375
67.25830078125 18.570556640625 65.127197265625
-73.2451171875 68.530029296875 47.138671875
2.699462890625 -23.6141357421875 22.6912841796875
-4.392333984375 -20.2242431640625 20.1363525390625
4.62158203125 14.9837646484375 14.23291015625
-26.5302734375 -3.4019775390625 3.2158203125
1.951171875 -20.4498291015625 20.82861328125
-72.31689453125 24.8740234375 11.9334716796875
-0.594970703125 -28.9310302734375 31.272705078125
4.39404296875 -4.2232666015625 7.6866455078125
47.880126953125 50.168212890625 55.37158203125
11.09228515625 -41.4639892578125 39.8985595703125
27.581787109375 57.8089599609375 10.762939453125
26.334228515625 -31.2791748046875 31.510986328125
50.386962890625 52.3922119140625 52.3675537109375
-65.04833984375 -30.739013671875 32.7437744140625
44.951171875 66.5152587890625 43.7044677734375
-20.278076171875 49.09228515625 55.5234375
-57.876708984375 8.214111328125 18.8408203125
-69.92333984375 20.5003662109375 10.76318359375
-20.3759765625 -26.1795654296875 29.9478759765625
-48.158203125 -42.4918212890625 39.5880126953125
56.490966796875 47.4273681640625 50.2724609375
-1.475341796875 -12.34130859375 17.571533203125
-51.7265625 24.055908203125 -10.2362060546875
-67.986083984375 60.7474365234375 50.107177734375
-2.469482421875 34.2911376953125 -8.915771484375
-31.513916015625 -44.7484130859375 40.5604248046875
-67.6142578125 28.0845947265625 -7.51416015625
-58.9482421875 32.33837890625 -16.7935791015625
-60.630126953125 -6.4443359375 -2.5107421875
-38.484375 -41.588623046875 38.20068359375
-45.11474609375 3.4669189453125 2.1072998046875
26.744384765625 -34.3277587890625 35.2706298828125
-31.952880859375 8.5394287109375 -3.099365234375
-13.30859375 52.67822265625 51.741455078125
-56.728515625 -11.1636962890625 16.2177734375
-66.92724609375 5.749755859375 13.6605224609375
-17.30908203125 5.134521484375 2.4869384765625
66.1337890625 25.8619384765625 66.4215087890625
-67.406982421875 -16.651123046875 12.7872314453125
-69.11328125 -24.9522705078125 33.8514404296875
2.137451171875 66.22021484375 53.794921875
-34.764404296875 -13.44384765625 1.9512939453125
57.4892578125 22.2852783203125 62.7376708984375
-15.521728515625 -9.940673828125 4.333740234375
58.79150390625 23.880615234375 60.5589599609375
-12.747802734375 8.99267578125 0.647705078125
15.386474609375 3.2320556640625 13.21240234375
-79.421142578125 60.03125 59.21435546875
-71.90478515625 -22.37890625 30.7548828125
-51.44970703125 8.9825439453125 5.7421875
50.483154296875 16.4083251953125 68.407958984375
23.062744140625 -8.298583984375 27.2720947265625
-77.08251953125 -10.52392578125 -0.6007080078125
-34.35888671875 5.099609375 -5.563232421875
59.444580078125 9.708740234375 63.523681640625
-19.119384765625 57.65087890625 56.8287353515625
61.097900390625 51.40380859375 49.6396484375
68.4697265625 2.247802734375 75.1651611328125
-26.216796875 -21.1270751953125 24.60693359375
-62.974609375 31.3978271484375 -14.6080322265625
20.10009765625 12.6270751953125 17.6524658203125
-8.810302734375 -19.99853515625 12.44775390625
47.725341796875 21.3118896484375 64.2625732421875
-74.266845703125 -29.2501220703125 67.1141357421875
-78.7529296875 67.061767578125 53.65234375
-72.137939453125 29.40966796875 6.5557861328125
61.121826171875 19.4154052734375 64.603271484375
56.853515625 34.7886962890625 56.8433837890625
-43.90771484375 -13.3160400390625 9.9625244140625
48.115966796875 23.294677734375 58.56298828125
-8.295654296875 34.9404296875 -7.5927734375
57.109130859375 15.562744140625 64.094482421875
-73.765380859375 -4.6524658203125 -5.06689453125
58.1181640625 42.457763671875 55.1929931640625
19.783203125 7.661865234375 13.5152587890625
-8.109375 25.5416259765625 4.165771484375
-74.773193359375 55.225830078125 55.6785888671875
-65.0205078125 -19.56591796875 23.4912109375
11.223876953125 -12.0347900390625 24.146728515625
7.866943359375 40.354248046875 -10.9085693359375
54.4765625 3.400634765625 76.573974609375
-23.087646484375 -1.0604248046875 11.23193359375
5.91015625 64.5277099609375 56.782470703125
-77.67041015625 33.39599609375 26.802490234375
46.231689453125 70.373291015625 46.1988525390625
-43.39794921875 -8.6298828125 2.6195068359375
52.20751953125 13.5986328125 68.37353515625
47.648193359375 5.7664794921875 74.985107421875
-12.71435546875 -23.405029296875 19.899658203125
16.594482421875 -34.394775390625 35.396484375
15.893310546875 0.047119140625 13.97802734375
11.9453125 -3.2529296875 28.2088623046875
-40.979248046875 -12.6468505859375 2.8026123046875
-76.26708984375 52.82080078125 57.94091796875
-74.939453125 -25.2559814453125 14.7130126953125
-47.92529296875 -9.45263671875 1.370361328125
5.7451171875 38.752197265625 -12.8197021484375
-7.9736328125 28.284423828125 0.5489501953125
-76.68701171875 56.8060302734375 54.2691650390625
20.6708984375 34.26708984375 41.0440673828125
-23.070068359375 0.052490234375 6.6976318359375
-67.767822265625 21.7767333984375 4.7261962890625
5.05029296875 10.2061767578125 18.5975341796875
14.580078125 -14.8775634765625 20.8470458984375
-0.156005859375 -31.9833984375 33.6612548828125
-50.206298828125 8.86767578125 15.10986328125
54.697021484375 8.648681640625 66.4407958984375
-15.195068359375 -33.2332763671875 33.7021484375
-66.772216796875 -19.56396484375 26.002685546875
-2.40673828125 27.32470703125 -4.1405029296875
-44.6044921875 11.2158203125 11.5804443359375
20.655029296875 -31.6607666015625 32.559814453125
23.4833984375 9.299560546875 14.6474609375
-17.947998046875 -36.131591796875 37.036865234375
-12.36279296875 -34.595458984375 35.5770263671875
0.814697265625 -13.272705078125 22.6204833984375
-66.7119140625 -12.7335205078125 1.5279541015625
-14.445068359375 -21.9266357421875 15.0081787109375
-54.8896484375 -7.7591552734375 -0.551513671875
-32.80419921875 -9.1572265625 1.73046875
12.837158203125 1.55224609375 9.669677734375
-33.042236328125 -30.933349609375 30.7803955078125
-40.096923828125 -45.8465576171875 41.1817626953125
-21.078369140625 -21.6815185546875 25.7796630859375
46.455322265625 55.2392578125 52.736572265625
-57.5556640625 37.3193359375 -20.7860107421875
-70.6806640625 40.3924560546875 -4.4901123046875
47.990966796875 75.2161865234375 41.7686767578125
-9.78271484375 -22.7734375 22.2628173828125
-49.534912109375 -22.6585693359375 24.22900390625
-70.015625 64.9281005859375 48.138916015625
-45.994873046875 -0.717041015625 -1.4049072265625
28.78173828125 -1.313232421875 27.0252685546875
66.380859375 3.6512451171875 67.79736328125
-4.159912109375 -16.5050048828125 12.94970703125
-47.627197265625 12.1939697265625 7.4053955078125
-43.0234375 28.7337646484375 -2.1107177734375
68.395263671875 5.9854736328125 64.8402099609375
3.80712890625 -39.82421875 -77.3558349609375
51.869140625 8.4632568359375 71.3175048828125
21.840087890625 -21.129150390625 20.513671875
-68.45166015625 -17.77197265625 10.151123046875
-64.01123046875 12.9918212890625 15.6339111328125
23.1787109375 -19.4892578125 22.3297119140625
-67.6181640625 -6.823486328125 -2.2943115234375
16.23974609375 10.345947265625 21.3126220703125
-73.996337890625 -30.5426025390625 69.8770751953125
-73.99658203125 29.0164794921875 29.529296875
58.766845703125 56.1497802734375 34.5556640625
66.317138671875 51.972900390625 53.150634765625
-2.534423828125 16.978271484375 9.856201171875
-51.974609375 -14.69091796875 18.496337890625
-47.8447265625 -16.3570556640625 19.0848388671875
-15.8173828125 54.3974609375 52.66015625
-60.419921875 -17.8499755859375 21.646240234375
-48.707763671875 13.8421630859375 2.573486328125
-5.80712890625 30.54248046875 -6.9989013671875
-27.8115234375 -29.5687255859375 32.5518798828125
-68.628662109375 67.134521484375 49.3577880859375
26.26953125 5.989013671875 21.1470947265625
22.242431640625 -25.509521484375 22.72265625
62.215087890625 24.539794921875 62.7359619140625
59.72216796875 2.3470458984375 75.5206298828125
-56.8798828125 -14.8040771484375 17.9005126953125
60.10107421875 39.59033203125 56.1319580078125
49.54150390625 42.4322509765625 57.5638427734375
19.1083984375 8.2071533203125 21.134033203125
7.03076171875 -9.853271484375 25.85107421875
48.33447265625 37.3140869140625 57.2734375
-15.277099609375 26.0921630859375 -0.9925537109375
-47.94921875 10.6737060546875 16.8331298828125
-13.62451171875 43.48779296875 52.8905029296875
57.25048828125 37.4564208984375 56.189697265625
5.9521484375 -40.98193359375 39.52880859375
-65.59375 19.9940185546875 -1.1796875
-57.838134765625 5.85205078125 5.58154296875
9.894287109375 -1.8426513671875 26.4854736328125
-69.99365234375 70.01171875 49.4580078125
-74.136962890625 32.3428955078125 28.8353271484375
-37.8828125 -21.872314453125 9.993896484375
54.1103515625 48.2401123046875 48.204345703125
-35.58740234375 -36.2796630859375 35.614013671875
63.03662109375 42.2808837890625 59.4510498046875
-74.668212890625 2.5919189453125 -4.7901611328125
-10.573974609375 30.468994140625 1.7703857421875
23.559326171875 0.6375732421875 19.5048828125
-70.017333984375 54.163330078125 54.74365234375
19.32958984375 -34.991943359375 34.505615234375
45.175048828125 58.6981201171875 50.873779296875
-67.88427734375 39.311279296875 -15.393798828125
2.89013671875 27.6468505859375 -4.3116455078125
5.078857421875 -1.0889892578125 6.7393798828125
1.269775390625 23.359130859375 1.8548583984375
-68.7392578125 36.080322265625 -1.96240234375
64.622802734375 26.003662109375 61.21533203125
-53.7802734375 18.0599365234375 -5.2650146484375
-44.490478515625 15.262939453125 4.0369873046875
-3.823486328125 -32.8553466796875 34.23583984375
-7.142822265625 -6.29443359375 3.5152587890625
-40.5234375 -22.9580078125 16.4085693359375
-73.083251953125 -19.455078125 6.67333984375
-9.71337890625 48.4080810546875 54.4720458984375
55.1455078125 41.27685546875 56.3018798828125
-66.41259765625 24.0509033203125 -4.3870849609375
22.8916015625 -42.5247802734375 41.463134765625
-78.8388671875 62.031494140625 56.2830810546875
-60.422607421875 -34.9202880859375 33.5472412109375
-23.9130859375 -36.7344970703125 36.2225341796875
16.0283203125 -3.1365966796875 25.6429443359375
-68.28271484375 37.1231689453125 -8.6060791015625
64.00537109375 6.7767333984375 63.87646484375
-14.970458984375 4.1829833984375 -0.034423828125
-10.08837890625 27.121337890625 19.3311767578125
-28.517333984375 -21.3590087890625 10.935546875
58.407470703125 29.5201416015625 53.4530029296875
-12.672607421875 -7.2044677734375 4.267578125
57.602783203125 4.9393310546875 67.5418701171875
23.032470703125 -32.59423828125 32.020263671875
-42.88525390625 -43.2626953125 39.0294189453125
61.742919921875 34.185302734375 54.711669921875
-68.78076171875 36.2042236328125 -6.0360107421875
16.971435546875 15.021484375 18.452392578125
-12.581787109375 -22.7706298828125 22.7093505859375
-2.641845703125 -16.8138427734375 16.3389892578125
0.531982421875 -37.969482421875 -86.2923583984375
7.463134765625 29.7305908203125 1.1041259765625
-24.160400390625 -12.041748046875 7.88916015625
8.533447265625 46.4002685546875 -14.0382080078125
-59.5751953125 29.1734619140625 -12.6802978515625
-67.24365234375 12.830810546875 11.8914794921875
48.475341796875 30.41357421875 53.7413330078125
26.305908203125 -38.2838134765625 39.1815185546875
-8.894287109375 -22.6776123046875 24.6890869140625
-62.102294921875 24.3189697265625 -8.0687255859375
65.37841796875 53.717529296875 49.679443359375
-73.830810546875 26.3543701171875 30.6553955078125
-58.904052734375 10.5699462890625 17.3255615234375
-12.503662109375 46.689697265625 -5.0361328125
-29.053955078125 -3.8553466796875 2.550048828125
11.14892578125 41.0101318359375 -7.52587890625
19.74560546875 -16.25634765625 19.87158203125
-77.495849609375 56.7210693359375 60.128173828125
3.65869140625 -32.314208984375 35.8544921875
-40.28662109375 6.0875244140625 2.378173828125
-14.116943359375 24.793701171875 31.8880615234375
-12.79345703125 4.630126953125 -1.32421875
-13.85595703125 -16.8421630859375 9.261962890625
-60.45263671875 -23.33740234375 24.1527099609375
19.477294921875 -29.164306640625 23.8565673828125
7.72021484375 -16.4166259765625 20.212890625
23.053466796875 35.1807861328125 41.6248779296875
49.91015625 55.880859375 48.401123046875
-14.246826171875 -22.94091796875 24.8260498046875
-15.770751953125 40.227294921875 53.48583984375
-4.9921875 -2.1331787109375 1.7918701171875
-9.27392578125 -27.459716796875 29.46875
1.7490234375 -6.5762939453125 20.494873046875
-12.204833984375 -3.2750244140625 4.3043212890625
-16.319091796875 -2.3779296875 6.0430908203125
-16.3671875 -22.2564697265625 17.8199462890625
-42.78955078125 -35.4508056640625 34.1688232421875
-21.88916015625 -19.609130859375 21.091552734375
-21.766357421875 -16.07421875 12.4404296875
-9.763916015625 -14.394287109375 7.235595703125
-40.6201171875 -15.0562744140625 5.1568603515625
-64.988525390625 10.403076171875 10.0523681640625
6.08056640625 -14.9249267578125 22.0587158203125
1.9248046875 -8.5596923828125 8.0919189453125
-6.216796875 24.0067138671875 3.4586181640625
-50.33251953125 -19.9036865234375 21.4266357421875
12.128662109375 -29.123779296875 22.72802734375
25.562255859375 -2.5172119140625 24.5689697265625
-15.09912109375 9.8653564453125 1.015625
-23.25439453125 -28.8753662109375 32.55615234375
5.734130859375 20.8203125 11.0712890625
-55.483154296875 8.9111328125 2.3729248046875
13.660888671875 41.669677734375 -5.7523193359375
-51.4306640625 -12.8231201171875 16.6136474609375
-50.2734375 11.2158203125 5.6697998046875
43.088623046875 59.9703369140625 49.7513427734375
-70.1875 -15.6907958984375 5.12158203125
15.61865234375 -1.283935546875 23.6712646484375
-10.760498046875 -31.98095703125 32.862060546875
-20.9189453125 -4.6217041015625 7.6065673828125
-56.190185546875 27.926513671875 -13.96240234375
23.609130859375 5.54541015625 17.3504638671875
6.92333984375 43.7999267578125 -13.611083984375
-22.610595703125 -19.931884765625 17.0050048828125
-17.46728515625 -14.48681640625 9.2830810546875
-45.331298828125 17.76318359375 3.8782958984375
28.979736328125 -19.769775390625 25.33154296875
-31.01708984375 38.0933837890625 30.209228515625
-79.052490234375 25.984130859375 32.650390625
52.6396484375 44.148193359375 50.144287109375
59.709716796875 55.4368896484375 37.9013671875
-23.16162109375 -34.27587890625 35.6915283203125
-36.82958984375 -44.888671875 40.9659423828125
-67.629150390625 55.7396240234375 52.6497802734375
-81.861328125 64.500732421875 57.7637939453125
-33.658447265625 -21.1876220703125 8.911865234375
-76.524658203125 -28.487548828125 65.7684326171875
-50.9130859375 27.65087890625 -12.750244140625
17.375244140625 -31.4586181640625 31.1658935546875
0.577880859375 2.47314453125 4.55322265625
18.611572265625 -11.240478515625 25.014892578125
-76.8212890625 -2.3348388671875 -4.107666015625
-15.127685546875 -40.94677734375 39.029052734375
-62.491943359375 26.2442626953125 -11.133056640625
-51.808837890625 -9.081298828125 1.854248046875
52.778076171875 34.388916015625 55.4818115234375
-29.32958984375 -40.956298828125 38.6463623046875
21.084716796875 14.7625732421875 16.2010498046875
-36.900390625 -17.85400390625 6.0528564453125
53.166015625 51.411865234375 50.90478515625
-57.455322265625 18.674560546875 -6.1217041015625
-6.332763671875 18.7724609375 11.443359375
-6.513916015625 0.890625 2.0137939453125
15.010009765625 -2.897216796875 17.67822265625
-19.190185546875 42.2562255859375 54.2347412109375
19.529296875 -41.6722412109375 37.950439453125
62.765625 40.27734375 57.2379150390625
-76.383056640625 67.6328125 45.91845703125
-66.06494140625 9.8572998046875 14.8724365234375
22.89599609375 -36.2392578125 35.4072265625
5.46484375 -36.681884765625 36.8411865234375
9.83544921875 -19.4232177734375 18.864013671875
-36.48681640625 -24.6932373046875 19.07861328125
13.058837890625 27.262939453125 25.9305419921875
-66.08203125 -7.4368896484375 0.968994140625
21.302490234375 -4.4876708984375 24.7901611328125
18.891845703125 3.005615234375 17.3704833984375
46.67919921875 60.5777587890625 37.5147705078125
-51.037353515625 -31.5125732421875 30.7891845703125
-3.40380859375 4.9066162109375 8.76708984375
20.349609375 -30.3697509765625 27.6251220703125
-10.124755859375 22.4591064453125 15.1641845703125
3.517822265625 11.7767333984375 15.2606201171875
-11.81201171875 -43.4969482421875 41.279052734375
23.636962890625 -27.7998046875 26.981201171875
71.70458984375 2.4884033203125 76.5804443359375
-18.961669921875 -30.923095703125 33.4517822265625
-42.318115234375 -39.0531005859375 37.38525390625
-49.718994140625 -5.003173828125 -2.844970703125
-74.7607421875 -11.306884765625 -0.830810546875
-25.76708984375 -32.5054931640625 34.958251953125
-11.509521484375 -39.3067626953125 38.178955078125
-51.127197265625 -45.1265869140625 38.5836181640625
-9.829833984375 24.299072265625 12.2757568359375
9.857421875 35.687744140625 -1.802001953125
55.660400390625 33.1781005859375 54.489990234375
-25.333984375 -2.6859130859375 7.7552490234375
21.59619140625 -1.5303955078125 22.1318359375
-72.219482421875 -27.1456298828125 71.5909423828125
-70.37841796875 -10.02685546875 0.518798828125
-31.1630859375 -18.3841552734375 7.01708984375
-79.6708984375 2.42529296875 -4.37353515625
-11.434326171875 41.3101806640625 -3.3829345703125
64.646728515625 38.3572998046875 59.2403564453125
-10.3798828125 -7.7484130859375 3.634765625
60.3662109375 55.7091064453125 46.40087890625
-64.584716796875 30.1046142578125 -11.771484375
-18.291748046875 -21.2913818359375 20.6541748046875
65.64794921875 35.19921875 55.285888671875
-43.804931640625 -18.9993896484375 16.0997314453125
63.282470703125 1.6368408203125 71.812744140625
-45.619873046875 -31.7652587890625 31.634765625
50.8076171875 6.7447509765625 74.5198974609375
-1.832275390625 -42.724853515625 40.742431640625
27.166748046875 -25.052734375 25.5694580078125
-5.539794921875 32.79345703125 -7.8721923828125
-6.392822265625 -10.981201171875 5.5933837890625
4.951416015625 -25.133544921875 21.7520751953125
-44.8828125 -25.3709716796875 25.4471435546875
-43.3046875 16.5733642578125 6.68310546875
-44.67578125 -30.7081298828125 29.6368408203125
-10.310302734375 1.1739501953125 1.265625
8.047119140625 -1.990966796875 7.236328125
-8.17578125 -34.7801513671875 35.6419677734375
-9.4033203125 56.1783447265625 53.2930908203125
-58.526611328125 -10.1650390625 14.7225341796875
15.887939453125 36.494873046875 0.69287109375
42.27880859375 57.07421875 54.115966796875
-42.18115234375 24.0079345703125 0.7552490234375
53.37841796875 24.1953125 57.5843505859375
-67.865234375 28.5028076171875 4.9388427734375
-12.44921875 7.04248046875 -1.8037109375
61.50830078125 65.661376953125 42.349853515625
57.90283203125 32.5836181640625 52.7918701171875
4.908203125 27.7113037109375 -0.8162841796875
50.7275390625 37.6146240234375 57.56884765625
-69.43505859375 15.1575927734375 10.5897216796875
63.678955078125 58.365234375 46.2645263671875
-4.78271484375 -38.911376953125 38.29541015625
69.5166015625 1.6397705078125 77.243408203125
64.695556640625 23.718994140625 65.0343017578125
2.494384765625 -5.2308349609375 6.614013671875
9.224853515625 -6.42236328125 11.0897216796875
-29.351318359375 2.0096435546875 -1.7191162109375
8.5517578125 29.0238037109375 4.13037109375
65.391845703125 42.935302734375 59.43505859375
-50.17138671875 18.196533203125 0.888916015625
-10.676025390625 26.7542724609375 29.5625
55.99462890625 3.79833984375 73.57666015625
50.677734375 49.4818115234375 55.5748291015625
-43.189453125 -17.5670166015625 12.037109375
59.0361328125 47.7630615234375 52.693115234375
-68.904296875 31.4674072265625 -0.5458984375
-68.309814453125 -4.1033935546875 -4.6680908203125
-16.626220703125 34.5828857421875 29.3798828125
-12.31787109375 -19.03125 11.0775146484375
3.595947265625 33.750732421875 -10.9447021484375
19.22900390625 -1.2332763671875 21.0552978515625
-40.06982421875 -7.380615234375 1.0177001953125
-19.901611328125 -7.5909423828125 4.477294921875
65.976806640625 14.714599609375 62.98974609375
-16.699462890625 44.5595703125 55.6632080078125
-78.868896484375 27.19091796875 30.3017578125
-59.181640625 20.20654296875 -7.1695556640625
-8.72998046875 18.0125732421875 14.08837890625
65.712646484375 48.044189453125 56.495361328125
-68.023681640625 -14.67626953125 7.2681884765625
-51.268798828125 16.1484375 -1.4345703125
-79.471923828125 -6.28173828125 -0.153564453125
-39.99072265625 -37.5244140625 36.4490966796875
-11.639892578125 49.83447265625 53.6761474609375
-50.970703125 12.3094482421875 0.5518798828125
-35.173828125 -9.265380859375 1.8441162109375
-5.790283203125 -8.8526611328125 4.399169921875
-59.06591796875 26.973876953125 -11.9500732421875
-36.003173828125 26.2137451171875 -34.7421875
48.81103515625 55.6707763671875 41.0894775390625
3.91552734375 15.69482421875 10.940673828125
61.40283203125 57.9310302734375 41.713623046875
-47.300537109375 -5.5146484375 -2.4429931640625
-27.51318359375 -15.51806640625 7.2252197265625
-64.043701171875 -27.3228759765625 31.322509765625
20.66162109375 6.6468505859375 17.2476806640625
-42.297607421875 -21.3509521484375 15.3165283203125
60.195068359375 69.506591796875 40.3587646484375
64.256591796875 50.151611328125 52.759521484375
-36.879150390625 -24.8321533203125 16.5174560546875
61.9443359375 29.757568359375 54.5523681640625
-8.827880859375 30.2412109375 27.80517578125
-60.036865234375 5.0330810546875 13.934814453125
13.631591796875 -18.281494140625 18.9757080078125
-31.50390625 -16.2744140625 4.9130859375
-17.02490234375 33.4468994140625 31.98095703125
16.698486328125 -40.7926025390625 38.416259765625
-54.131103515625 -8.65625 2.2198486328125
-8.422119140625 42.467529296875 -6.8565673828125
-7.32470703125 -42.6287841796875 40.57666015625
49.674072265625 22.2835693359375 62.802978515625
59.218505859375 70.4183349609375 38.425048828125
-68.985595703125 28.05517578125 -5.6064453125
-55.811767578125 -10.8896484375 1.20166015625
-52.0087890625 -27.0343017578125 26.7193603515625
24.634033203125 16.8294677734375 18.2581787109375
-76.543701171875 -6.0537109375 -2.0406494140625
15.163818359375 15.7978515625 21.517578125
11.908203125 -0.6163330078125 25.880615234375
-26.591064453125 -18.0606689453125 10.3431396484375
-55.1357421875 4.0096435546875 7.85400390625
0.61669921875 13.40234375 11.3277587890625
-77.39599609375 28.7967529296875 28.625244140625
51.6943359375 65.8489990234375 38.4111328125
10.303955078125 11.424560546875 17.4757080078125
-76.163330078125 60.1864013671875 51.246337890625
45.169677734375 68.189208984375 45.9918212890625
-0.837890625 21.8511962890625 3.7174072265625
-77.1640625 60.479736328125 54.87890625
48.243896484375 75.4398193359375 39.299560546875
32.162353515625 -17.613525390625 25.87255859375
-76.994873046875 2.4224853515625 -4.8004150390625
57.5283203125 74.77978515625 31.877197265625
-66.047119140625 -15.417724609375 14.5877685546875
13.337646484375 -31.20458984375 30.0504150390625
29.663818359375 -23.96826171875 26.93896484375
27.267333984375 -18.221923828125 25.0341796875
-73.34130859375 -8.12890625 -1.49072265625
-68.37841796875 15.4786376953125 5.4263916015625
-16.797607421875 7.45263671875 0.766845703125
55.16455078125 51.0003662109375 46.6278076171875
23.107666015625 18.7015380859375 13.5826416015625
4.03955078125 19.3995361328125 9.224609375
-58.358154296875 22.887939453125 -9.8023681640625
56.31298828125 53.00390625 45.510498046875
-14.4677734375 22.3687744140625 34.7760009765625
-2.97900390625 21.990966796875 5.3046875
19.799072265625 -0.476318359375 16.3502197265625
59.017333984375 52.264892578125 48.6717529296875
-68.053466796875 31.5321044921875 -10.989501953125
56.0888671875 25.918212890625 55.5416259765625
-66.33203125 13.983154296875 5.651123046875
-44.94384765625 13.681396484375 9.2860107421875
-69.331298828125 26.18359375 5.870849609375
9.80322265625 -8.130126953125 28.6505126953125
-64.221923828125 5.9429931640625 12.6815185546875
-45.255859375 -44.0257568359375 39.6900634765625
64.5556640625 66.40576171875 46.316650390625
-37.9228515625 -15.5357666015625 4.5975341796875
22.1005859375 23.1474609375 17.5255126953125
-45.699462890625 -18.9400634765625 19.8538818359375
-33.4794921875 -24.0125732421875 12.5528564453125
-29.792724609375 -3.0548095703125 0.5269775390625
41.461181640625 67.019775390625 44.271484375
-48.26171875 -39.45947265625 35.871337890625
-42.724853515625 -29.51904296875 29.0477294921875
10.13818359375 43.522705078125 -8.612548828125
2.7265625 61.9290771484375 57.06103515625
-44.949462890625 38.476806640625 -12.2227783203125
13.231201171875 -10.2705078125 27.200439453125
-72.824462890625 55.5872802734375 53.1605224609375
-43.35302734375 -26.636962890625 27.60009765625
-27.5146484375 -0.2362060546875 -0.2633056640625
-44.111083984375 -7.4527587890625 0.4765625
44.496826171875 55.2247314453125 54.0465087890625
8.216796875 -33.0419921875 35.562744140625
65.503662109375 2.451171875 76.16943359375
42.970703125 52.739990234375 57.398193359375
-42.74658203125 13.9241943359375 10.4442138671875
-75.72314453125 6.2476806640625 -6.8592529296875
13.691162109375 -11.9801025390625 23.89892578125
52.833251953125 55.2200927734375 42.537109375
9.7861328125 -3.505615234375 9.601806640625
-51.45263671875 22.4141845703125 -8.3095703125
41.634765625 61.46923828125 51.01025390625
67.488037109375 10.32275390625 62.59912109375
-45.7861328125 -11.0225830078125 13.7869873046875
-15.859619140625 30.033935546875 31.4642333984375
1.201904296875 39.9134521484375 -15.0267333984375
54.193115234375 67.0081787109375 37.39111328125
46.051025390625 70.6141357421875 43.777099609375
-71.5859375 57.46240234375 52.834716796875
-72.75341796875 1.7196044921875 -1.343505859375
-13.8056640625 48.4378662109375 54.1534423828125
21.952880859375 -10.8826904296875 26.53857421875
24.549072265625 -76.0384521484375 -66.5062255859375
16.357666015625 -38.7650146484375 36.7099609375
13.618896484375 37.3134765625 -3.6522216796875
-68.63330078125 68.9320068359375 45.318359375
-48.06494140625 -1.59521484375 -2.1112060546875
-43.190673828125 -10.4505615234375 1.2843017578125
46.730224609375 38.95458984375 57.9110107421875
61.62255859375 16.6072998046875 63.579345703125
-57.802734375 -7.1478271484375 1.34375
-29.40576171875 -23.98681640625 15.3243408203125
-74.804443359375 -1.775634765625 -3.1566162109375
68.167724609375 28.16259765625 63.4398193359375
-56.393310546875 -6.682861328125 3.218017578125
-28.4560546875 -7.99462890625 3.8277587890625
61.692138671875 44.5709228515625 56.0240478515625
-65.60498046875 15.667236328125 1.65234375
66.85498046875 43.7940673828125 61.1007080078125
52.81884765625 46.9849853515625 52.00390625
66.357177734375 6.9755859375 64.01513671875
-62.18115234375 -9.909912109375 0.5087890625
-47.671875 -12.121337890625 3.0716552734375
-52.5322265625 -7.595947265625 -0.5380859375
-70.1611328125 20.73779296875 8.488037109375
0.7314453125 23.9013671875 -0.669189453125
-77.416015625 69.4400634765625 49.5350341796875
6.717529296875 -20.9442138671875 19.9237060546875
-78.47607421875 4.8304443359375 -7.6661376953125
54.784423828125 63.0177001953125 40.1202392578125
-40.1689453125 -29.1063232421875 29.7821044921875
46.549072265625 8.4686279296875 72.166015625
-2.740234375 -10.41259765625 7.466796875
38.40966796875 49.8602294921875 56.2059326171875
-46.820556640625 22.48681640625 -0.7623291015625
-18.05126953125 54.2410888671875 52.6905517578125
15.908447265625 19.6334228515625 18.7886962890625
27.543212890625 -7.0662841796875 29.689697265625
-65.6884765625 27.0897216796875 -8.062744140625
-71.40576171875 60.3414306640625 50.8037109375
44.191650390625 70.7904052734375 45.3851318359375
-11.3271484375 11.7056884765625 3.5260009765625
-6.2900390625 -21.62890625 19.0208740234375
-42.430419921875 0.7166748046875 1.30908203125
-71.860595703125 39.648193359375 -0.5860595703125
-58.557373046875 8.496826171875 16.5819091796875
-42.4638671875 -21.3624267578125 19.754638671875
49.8017578125 74.3936767578125 35.1751708984375
-26.654052734375 -22.8746337890625 26.9482421875
11.66650390625 -38.4564208984375 38.358642578125
-32.760986328125 -26.1214599609375 27.3341064453125
59.5625 7.6175537109375 64.2764892578125
-68.12548828125 31.7276611328125 -8.015380859375
-25.946533203125 -21.1630859375 16.565185546875
-7.798095703125 30.5860595703125 -4.7994384765625
-0.92138671875 20.401123046875 5.4000244140625
-12.515380859375 56.51708984375 53.47216796875
3.30615234375 24.7159423828125 3.456787109375
53.09765625 70.402587890625 34.5841064453125
-18.951416015625 0.388671875 4.8145751953125
-10.088623046875 -36.270751953125 36.66455078125
20.21337890625 19.479248046875 13.75830078125
-55.05810546875 24.8968505859375 -11.5233154296875
9.520751953125 31.970458984375 0.762451171875
-37.42138671875 -8.6171875 2.7275390625
-63.149658203125 10.909423828125 15.781982421875
-78.240234375 -25.2847900390625 12.968017578125
6.30810546875 37.4500732421875 -10.2213134765625
-3.138671875 -34.914794921875 35.720947265625
9.723388671875 -30.5623779296875 25.11279296875
-30.358154296875 -24.8231201171875 26.95751953125
-78.688720703125 -4.26806640625 0.468017578125
49.080322265625 62.2060546875 39.4031982421875
-16.955322265625 -43.9827880859375 40.6082763671875
-30.777099609375 26.0640869140625 -33.3966064453125
-63.906494140625 38.0489501953125 -18.4061279296875
-80.405029296875 56.53515625 62.197265625
18.210205078125 18.5826416015625 16.094482421875
-72.364990234375 22.8135986328125 15.1212158203125
-23.454833984375 -31.022705078125 33.8760986328125
-3.84716796875 25.9503173828125 -3.08544921875
-77.050048828125 54.5118408203125 59.5343017578125
-67.0205078125 -7.87255859375 3.0849609375
53.1337890625 66.842041015625 40.1351318359375
-3.56298828125 -19.8453369140625 22.138671875
-4.342529296875 0.057861328125 2.758056640625
-26.6884765625 -7.064453125 4.7476806640625
-64.56005859375 12.1951904296875 3.38525390625
62.322021484375 35.503173828125 56.494384765625
52.090087890625 28.330322265625 53.9322509765625
-76.417236328125 64.687744140625 49.6258544921875
50.73779296875 33.9439697265625 54.799072265625
-37.413818359375 3.7689208984375 -2.302734375
53.239013671875 74.107421875 31.282470703125
-14.55859375 29.9197998046875 0.355712890625
14.91357421875 -28.7452392578125 22.14306640625
-7.945556640625 26.98486328125 -1.21923828125
43.49755859375 58.653564453125 48.0111083984375
48.176025390625 72.6671142578125 37.809326171875
-5.2568359375 -24.0028076171875 26.3988037109375
4.552490234375 -29.2149658203125 -71.848876953125
-77.399169921875 57.2691650390625 56.290771484375
-59.565673828125 33.5792236328125 -18.4913330078125
58.76025390625 19.205078125 64.4632568359375
11.952880859375 1.099853515625 7.716796875
-7.97216796875 43.2025146484375 -10.6934814453125
-44.17041015625 26.166259765625 -1.7628173828125
8.33447265625 -6.4185791015625 27.575927734375
-10.93994140625 27.1983642578125 4.3311767578125
-14.546630859375 -23.083740234375 21.0386962890625
-63.809814453125 23.97412109375 -5.8441162109375
-64.02001953125 -14.961181640625 18.62744140625
-48.012451171875 -28.9097900390625 29.183837890625
44.803466796875 47.27490234375 58.12451171875
1.125 -33.7335205078125 35.943115234375
-63.296875 4.3734130859375 9.96337890625
-1.000244140625 -1.64404296875 3.3232421875
-8.382080078125 37.836181640625 -6.2696533203125
22.0439453125 37.1456298828125 40.8753662109375
-13.895263671875 41.831787109375 51.4560546875
-50.8544921875 10.7119140625 13.4072265625
-10.171142578125 48.1097412109375 -7.859619140625
2.84521484375 0.1773681640625 3.9287109375
15.54638671875 -16.52978515625 19.8226318359375
-20.659912109375 -2.313720703125 8.9224853515625
-25.123291015625 -27.7076416015625 31.270751953125
-81.5078125 60.1043701171875 60.671875
19.26513671875 31.3262939453125 41.06005859375
-50.468505859375 -7.57763671875 0.178955078125
-58.99853515625 -9.951416015625 0.9144287109375
-3.010009765625 -12.403564453125 12.2080078125
-48.24365234375 36.632080078125 -18.59521484375
-44.3505859375 -12.7403564453125 4.136474609375
-57.30615234375 -37.0323486328125 35.6090087890625
-69.068603515625 22.6815185546875 7.754638671875
18.992431640625 -22.211669921875 19.242919921875
-36.6279296875 22.836181640625 -33.8193359375
-7.59912109375 70.490478515625 50.0538330078125
-7.933349609375 -22.482666015625 17.03369140625
64.336181640625 3.7408447265625 67.1046142578125
-76.99951171875 62.05810546875 52.1925048828125
3.9228515625 63.5263671875 56.0823974609375
-42.1376953125 -15.139404296875 8.343505859375
-56.450927734375 -24.0947265625 23.79248046875
23.123779296875 16.894287109375 15.5943603515625
-67.64501953125 39.142822265625 -13.2587890625
-5.865478515625 -16.2476806640625 10.5927734375
-29.42333984375 -27.4647216796875 30.2281494140625
-6.65283203125 -28.787109375 30.1995849609375
11.70947265625 -7.66259765625 29.532958984375
13.72998046875 12.5 19.3934326171875
-45.7578125 5.18017578125 6.0789794921875
-24.803466796875 -43.3994140625 40.981201171875
-72.268310546875 -29.3602294921875 70.42529296875
-63.791259765625 15.97607421875 0.1688232421875
3.463134765625 -37.47216796875 -83.0418701171875
9.3056640625 -11.4180908203125 24.8934326171875
-40.44580078125 -5.89697265625 -1.4398193359375
-3.64892578125 -8.0882568359375 4.8692626953125
-7.501708984375 27.2449951171875 2.9541015625
-17.75927734375 4.2315673828125 4.4638671875
-3.53857421875 24.5198974609375 -1.4927978515625
2.626220703125 -18.705078125 21.8717041015625
-30.295166015625 29.2847900390625 32.1156005859375
-21.330322265625 7.4095458984375 9.26416015625
-74.657470703125 -7.1123046875 -2.838134765625
-46.249267578125 26.65673828125 -2.2364501953125
2.0146484375 36.65087890625 -12.8592529296875
-19.9375 6.3944091796875 5.751708984375
-47.159423828125 7.935791015625 13.5198974609375
65.763671875 12.623291015625 62.61474609375
-77.403076171875 -8.779541015625 0.586181640625
4.60205078125 -28.714111328125 26.2327880859375
-0.136962890625 -27.4298095703125 29.3184814453125
-67.818359375 37.4014892578125 -11.527587890625
26.210693359375 -23.17919921875 24.8646240234375
19.881103515625 -3.1103515625 24.001708984375
-26.166259765625 -3.346435546875 5.312744140625
-5.531982421875 -37.382568359375 36.51318359375
-30.6591796875 -31.792724609375 32.842041015625
-48.4267578125 21.0718994140625 2.0511474609375
21.966064453125 -30.6187744140625 29.1207275390625
-33.391357421875 -5.2010498046875 -1.916748046875
62.587158203125 22.793212890625 64.3157958984375
-18.06396484375 -9.9212646484375 5.8206787109375
-11.742919921875 29.474609375 6.389404296875
48.151611328125 56.1900634765625 50.3369140625
-68.899169921875 -14.5035400390625 2.6800537109375
-54.844482421875 20.0828857421875 -7.210693359375
-9.3232421875 21.9244384765625 12.9052734375
26.777587890625 9.3973388671875 22.707275390625
59.588134765625 72.585693359375 37.7606201171875
-63.107421875 -7.6552734375 2.9830322265625
-33.772705078125 8.4697265625 -2.01416015625
53.665283203125 52.6092529296875 49.2041015625
-34.689208984375 -7.4971923828125 -0.1033935546875
-20.6533203125 -43.64208984375 40.9071044921875
-66.2802734375 25.630615234375 -6.5174560546875
-6.43994140625 21.5067138671875 8.6456298828125
17.021240234375 -28.590576171875 22.2381591796875
-10.777587890625 27.7958984375 9.3182373046875
14.825927734375 -41.806640625 39.5972900390625
4.527099609375 -30.35791015625 33.818115234375
63.15625 44.065673828125 61.1878662109375
-16.28564453125 -20.3663330078125 13.778564453125
-60.771240234375 -10.6328125 16.038818359375
15.195556640625 -20.844482421875 18.8568115234375
-74.0595703125 4.601806640625 -6.0738525390625
-48.105712890625 -9.560302734375 14.5626220703125
-9.360595703125 -1.8167724609375 0.19580078125
17.96875 -17.35302734375 19.5751953125
-51.099609375 -11.4642333984375 1.111572265625
-27.613525390625 -35.577880859375 36.38720703125
6.16943359375 -5.126708984375 8.374267578125
-78.203857421875 65.001953125 54.32470703125
10.403076171875 -31.35791015625 30.0777587890625
-19.579833984375 -37.4381103515625 37.281005859375
12.072265625 -14.603515625 20.8175048828125
52.4111328125 65.5897216796875 42.6583251953125
6.555419921875 -4.8553466796875 25.090087890625
-75.554931640625 35.3961181640625 27.764892578125
0.427001953125 26.1923828125 -4.1756591796875
-8.08203125 -21.02099609375 14.1319580078125
-2.0263671875 -14.3095703125 17.0899658203125
0.012939453125 -40.50048828125 39.2901611328125
62.33447265625 52.8802490234375 50.4749755859375
-14.87109375 51.972412109375 50.5306396484375
-73.990966796875 -15.448486328125 2.204345703125
6.49072265625 34.051513671875 -7.250732421875
48.254638671875 7.18603515625 73.56396484375
10.85302734375 9.552001953125 18.24658203125
45.569580078125 5.786376953125 74.110107421875
3.7587890625 39.9453125 -14.51025390625
14.0390625 9.42333984375 17.4493408203125
-11.044921875 52.9124755859375 51.86865234375
-9.602294921875 -38.25146484375 37.1510009765625
-50.27880859375 29.3565673828125 -13.782470703125
-41.858642578125 -32.222900390625 32.17724609375
26.07275390625 -16.5064697265625 25.0943603515625
-44.837646484375 41.0322265625 -14.10302734375
6.1435546875 24.3135986328125 6.910400390625
-76.990478515625 -12.86474609375 -0.19482421875
18.25146484375 -13.32421875 22.0020751953125
21.95166015625 -6.64453125 25.990478515625
5.39892578125 2.108154296875 5.9873046875
-34.531005859375 -34.468017578125 34.4483642578125
5.6220703125 -13.039794921875 23.58447265625
-64.00244140625 7.5203857421875 11.2740478515625
-80.194580078125 -0.03076171875 -2.196044921875
-80.5380859375 4.24462890625 -4.9063720703125
-18.82275390625 -12.3524169921875 8.399169921875
9.814453125 37.734619140625 -4.0087890625
-15.39111328125 -7.1453857421875 4.836181640625
27.77001953125 55.987548828125 11.7540283203125
6.48779296875 -22.74169921875 20.9490966796875
-46.73095703125 -40.7769775390625 38.071533203125
-15.77783203125 50.1981201171875 53.0513916015625
-8.8173828125 -31.7021484375 32.117431640625
-6.455322265625 35.0455322265625 -8.556884765625
-71.135498046875 29.8780517578125 4.637939453125
-64.938232421875 33.0567626953125 -14.45703125
-24.4248046875 -18.80419921875 13.5579833984375
-53.976806640625 -23.780517578125 24.2357177734375
-18.939208984375 -20.9722900390625 23.8734130859375
62.41455078125 37.6729736328125 58.0562744140625
-2.7900390625 18.5694580078125 8.4918212890625
-65.456298828125 -26.1524658203125 33.5469970703125
-70.95556640625 35.8714599609375 -0.2791748046875
-40.284912109375 -39.4378662109375 37.2022705078125
48.09228515625 65.8470458984375 41.890869140625
0.4853515625 -30.1588134765625 32.5517578125
-47.556884765625 17.325439453125 2.35400390625
-26.876953125 -43.495361328125 41.015380859375
-6.103515625 38.2540283203125 -11.0557861328125
52.26123046875 67.5904541015625 36.9075927734375
2.1982421875 -24.767578125 24.341064453125
17.165283203125 20.2086181640625 16.84619140625
15.09228515625 37.406005859375 -0.9913330078125
40.37646484375 50.6766357421875 56.582275390625
3.387451171875 -28.4658203125 28.310791015625
-29.509521484375 27.5985107421875 34.3690185546875
-24.385498046875 -40.762939453125 38.44677734375
60.844970703125 27.8165283203125 55.8349609375
-8.83447265625 19.6346435546875 17.67333984375
