7.345458984375 -32.533447265625 -31.929931640625
36.4228515625 20.137451171875 10.0966796875
28.371337890625 13.4921875 -5.42919921875
8.95166015625 26.3115234375 11.869384765625
-1.5244140625 -35.0966796875 -32.692626953125
27.866943359375 15.4619140625 2.533203125
-1.107666015625 -46.562744140625 -39.59521484375
-6.554931640625 -53.107177734375 -51.325439453125
19.65966796875 24.94921875 4.014404296875
25.386962890625 16.62744140625 -1.571044921875
11.4609375 26.5107421875 11.737060546875
5.0 -38.490234375 -35.50732421875
9.151611328125 18.818359375 6.431884765625
6.0537109375 -37.366943359375 -34.9853515625
13.21875 11.48779296875 0.198974609375
21.840087890625 21.688720703125 1.46728515625
4.0615234375 -41.089111328125 -36.89404296875
0.982421875 -70.522216796875 -51.084716796875
9.515625 -9.015380859375 -14.75390625
24.18212890625 15.931396484375 -8.547119140625
11.143310546875 9.22998046875 -1.03271484375
32.113525390625 14.366455078125 -0.23095703125
22.921142578125 17.900634765625 -7.42724609375
-9.254150390625 -38.542236328125 -45.113525390625
21.8125 19.99365234375 -1.63525390625
-2.631103515625 22.686767578125 12.17724609375
-6.178466796875 -55.80078125 -50.6552734375
-5.6064453125 -42.7021484375 -48.67626953125
27.341552734375 14.666259765625 -3.0126953125
6.458251953125 -8.953125 -13.62060546875
1.547119140625 -24.632080078125 -25.068603515625
6.109375 -25.06689453125 -25.5166015625
2.910888671875 -18.573486328125 -19.749267578125
15.938232421875 28.35791015625 9.891357421875
3.21728515625 -16.968017578125 -18.79345703125
4.618896484375 -10.2578125 -14.451904296875
4.290771484375 -13.015625 -16.087646484375
6.49169921875 -39.453369140625 -37.23046875
-0.036376953125 27.593017578125 14.667724609375
1.26708984375 -20.09912109375 -21.726318359375
0.958251953125 30.009033203125 13.588134765625
18.504150390625 24.983642578125 -1.447998046875
16.9794921875 24.0849609375 1.145751953125
-1.10888671875 -37.748779296875 -32.19677734375
5.24658203125 1.34228515625 -6.7421875
-3.115478515625 28.820068359375 13.246826171875
10.00390625 -17.704345703125 -21.400146484375
7.6875 4.726318359375 -3.808349609375
3.956787109375 22.54931640625 9.9765625
2.5419921875 -23.5947265625 -23.5712890625
19.298828125 23.3974609375 -1.825927734375
13.243896484375 -4.665283203125 -13.27587890625
35.78759765625 16.280517578125 2.592529296875
8.316650390625 -25.42041015625 -26.85498046875
-3.94775390625 26.02197265625 14.9375
22.153076171875 18.974365234375 -7.88671875
-6.61181640625 25.40625 15.4755859375
-1.03857421875 -50.312744140625 -42.6513671875
-7.94677734375 -38.6435546875 -46.708740234375
25.19287109375 19.646240234375 4.2119140625
-2.22021484375 -48.883544921875 -40.656005859375
1.697265625 -16.666015625 -17.815673828125
26.74853515625 20.428955078125 6.46142578125
9.447265625 -15.8125 -19.788818359375
-9.908935546875 27.18603515625 16.06396484375
7.53076171875 -10.000732421875 -14.54345703125
28.71728515625 12.9228515625 -8.405517578125
23.662353515625 22.183349609375 8.93994140625
19.5126953125 26.802734375 9.790771484375
-5.193115234375 22.2880859375 12.515625
8.0126953125 -40.54736328125 -47.765869140625
27.249267578125 17.2646484375 5.823486328125
5.728271484375 3.298583984375 -6.943603515625
6.9580078125 -21.482666015625 -23.2080078125
21.406005859375 21.139892578125 -4.327392578125
11.305908203125 2.78955078125 -5.6796875
11.835205078125 -13.64208984375 -19.98583984375
32.411865234375 17.654541015625 8.654541015625
3.05078125 -12.240478515625 -15.67333984375
10.3447265625 4.03271484375 -4.980712890625
9.593505859375 -21.70556640625 -24.456298828125
15.313232421875 30.13330078125 11.606201171875
24.470458984375 17.992919921875 -0.972412109375
18.220703125 29.74560546875 12.515380859375
34.37451171875 20.80224609375 10.93017578125
13.760498046875 20.776611328125 6.72412109375
11.036865234375 28.040283203125 13.13671875
27.038818359375 15.8779296875 -1.783447265625
21.7978515625 19.5185546875 -6.510009765625
2.5712890625 27.45263671875 14.34521484375
5.70166015625 -29.0498046875 -28.559326171875
12.504638671875 -1.39697265625 -9.82373046875
33.220703125 11.018310546875 -5.850830078125
23.485107421875 17.598388671875 -4.22412109375
18.811279296875 -62.083984375 -59.220947265625
1.07080078125 -29.833251953125 -27.8046875
13.28173828125 -2.373046875 -11.06201171875
33.895263671875 12.670166015625 -3.80126953125
5.565185546875 -42.768310546875 -50.0107421875
8.955322265625 3.446044921875 -5.03173828125
11.265380859375 23.4169921875 9.04931640625
9.13037109375 -27.470703125 -30.6240234375
35.485595703125 18.0703125 6.940673828125
6.29638671875 -14.7734375 -17.73828125
5.3173828125 -30.2197265625 -29.431640625
6.1220703125 -2.8388671875 -8.6630859375
-8.126708984375 -40.057861328125 -47.017822265625
21.63037109375 25.074462890625 11.260009765625
-3.33837890625 -47.923095703125 -40.46728515625
14.911376953125 12.562255859375 0.54736328125
4.298828125 -6.326171875 -11.805419921875
15.26025390625 22.105224609375 7.388671875
7.2138671875 -30.519775390625 -30.23388671875
-6.156982421875 -47.484619140625 -39.620849609375
3.397216796875 -25.543212890625 -24.860595703125
-6.3125 27.022216796875 16.4423828125
6.65283203125 -33.6357421875 -32.25634765625
4.201416015625 -36.4365234375 -33.467529296875
20.805908203125 21.866943359375 -3.386962890625
-5.33251953125 27.6611328125 15.516357421875
21.57568359375 23.90625 9.019287109375
2.998779296875 -38.355224609375 -34.464111328125
19.944580078125 25.2607421875 8.37841796875
24.92822265625 16.4814453125 -3.2509765625
6.85791015625 -23.867431640625 -24.443359375
22.430908203125 20.866455078125 3.7939453125
5.619140625 -19.744140625 -21.885986328125
28.1630859375 19.831298828125 9.781494140625
-6.891357421875 -42.531005859375 -48.958740234375
15.2412109375 10.3037109375 -1.4609375
21.935791015625 27.162841796875 15.417724609375
34.984619140625 16.702392578125 5.422607421875
12.477783203125 8.052490234375 -2.366455078125
4.2099609375 25.730224609375 12.54248046875
12.093505859375 -3.7392578125 -11.38916015625
3.79345703125 -14.3798828125 -16.737548828125
8.71435546875 22.5634765625 9.30810546875
11.712158203125 15.728515625 4.017822265625
11.33154296875 -8.319091796875 -14.627197265625
11.725830078125 11.84423828125 1.04296875
7.136474609375 22.190185546875 9.54150390625
10.281494140625 14.51708984375 3.252197265625
8.7880859375 20.45361328125 7.724853515625
4.883056640625 -26.478271484375 -26.558837890625
33.514404296875 17.1708984375 7.720947265625
9.34912109375 -2.611328125 -9.272216796875
-0.2080078125 -31.32861328125 -29.57958984375
7.523193359375 -15.0185546875 -18.183837890625
7.793701171875 24.406005859375 10.70263671875
-2.018310546875 -49.667724609375 -41.791748046875
12.132568359375 0.21875 -7.680908203125
10.556884765625 17.20751953125 5.019775390625
12.260498046875 5.464111328125 -4.24267578125
10.02294921875 21.907470703125 8.798095703125
2.512451171875 -31.388916015625 -29.35546875
8.228759765625 6.721923828125 -2.442138671875
2.801025390625 -70.79736328125 -48.325439453125
-1.24560546875 -58.222412109375 -42.736572265625
13.0185546875 17.333251953125 4.152587890625
2.874755859375 25.7216796875 13.165283203125
11.1083984375 13.619873046875 2.752685546875
-8.44482421875 26.747314453125 16.8642578125
0.9453125 20.314208984375 9.56201171875
-5.248046875 25.51953125 14.758056640625
5.840576171875 -40.08544921875 -48.25634765625
0.759765625 22.199951171875 11.34423828125
8.07177734375 -8.014404296875 -13.18408203125
14.257080078125 26.079345703125 10.3837890625
2.141845703125 -72.37939453125 -49.44873046875
27.001708984375 15.22705078125 -0.06982421875
9.17138671875 -20.154541015625 -23.041015625
22.400634765625 19.310302734375 -5.018310546875
29.172607421875 16.98876953125 4.345458984375
7.45166015625 -11.246826171875 -15.109130859375
5.5625 -5.972900390625 -10.7001953125
15.120361328125 3.39794921875 -7.2578125
7.62255859375 -41.730712890625 -48.645263671875
9.76171875 -10.8525390625 -15.827392578125
32.77587890625 20.48291015625 11.884521484375
0.265869140625 -36.095458984375 -32.369384765625
24.379638671875 16.216552734375 -6.422607421875
26.992431640625 13.599609375 -10.54736328125
23.202880859375 17.686767578125 -2.947998046875
5.519287109375 17.89599609375 6.09765625
29.773193359375 12.902099609375 -7.67724609375
16.20556640625 9.646240234375 -3.0234375
-7.262451171875 -44.239013671875 -50.66796875
34.4755859375 19.27587890625 8.480224609375
35.04541015625 20.187744140625 9.90283203125
4.138671875 -39.8623046875 -36.341552734375
13.62158203125 8.785888671875 -1.89453125
1.482177734375 -33.040283203125 -30.702392578125
29.33154296875 12.1845703125 -5.28759765625
11.526123046875 19.34716796875 6.4873046875
9.318603515625 1.806884765625 -6.32763671875
23.2568359375 23.2197265625 9.53662109375
-7.2763671875 22.12646484375 12.842041015625
6.259765625 -13.721923828125 -16.94921875
-4.073974609375 28.834228515625 14.06591796875
17.70654296875 28.51708984375 7.792236328125
7.782470703125 3.7734375 -4.70849609375
7.66162109375 26.408447265625 12.390625
1.626220703125 -40.54736328125 -35.96875
26.43798828125 19.383056640625 4.62060546875
10.742919921875 -12.617919921875 -17.349609375
2.3828125 -29.38525390625 -27.66796875
8.547607421875 13.3837890625 2.18017578125
28.9443359375 12.69189453125 -3.070556640625
7.721923828125 28.174560546875 13.775634765625
5.814453125 23.34423828125 10.854248046875
27.833740234375 13.742431640625 -2.138671875
30.440673828125 11.68896484375 -6.248779296875
10.373291015625 24.15283203125 10.47705078125
14.347900390625 -2.30908203125 -12.89208984375
-6.834228515625 -55.17919921875 -48.594970703125
-0.357666015625 -33.782470703125 -30.687744140625
8.288818359375 8.488037109375 -1.05712890625
33.592529296875 13.325927734375 -2.54638671875
4.396728515625 -3.92919921875 -10.560791015625
6.431884765625 -27.32568359375 -27.521240234375
10.044677734375 12.439208984375 2.189453125
19.931640625 26.759765625 13.9072265625
-0.3837890625 -29.9443359375 -29.453857421875
31.5654296875 12.353271484375 -4.0625
30.81884765625 16.24267578125 4.136962890625
26.56884765625 17.909912109375 2.888671875
12.7861328125 -9.323974609375 -16.205078125
14.7353515625 22.92578125 8.19775390625
31.63720703125 13.03662109375 -2.60498046875
15.059814453125 1.619873046875 -8.652099609375
14.901611328125 -0.874755859375 -10.64453125
14.925048828125 5.31689453125 -5.443603515625
29.732421875 16.739990234375 6.638427734375
6.05224609375 28.73828125 14.896240234375
13.52392578125 6.39892578125 -3.992431640625
12.345703125 -7.23388671875 -14.81689453125
26.626220703125 15.8232421875 -5.171630859375
12.34423828125 10.06591796875 -0.669677734375
30.883056640625 16.326171875 7.985595703125
7.13720703125 -40.232421875 -46.195068359375
20.494384765625 23.64453125 -2.175537109375
11.17919921875 6.504638671875 -3.323486328125
-9.39453125 21.36767578125 12.478515625
3.914306640625 -23.046630859375 -23.544189453125
7.786865234375 -19.039306640625 -21.57080078125
15.61865234375 7.01806640625 -5.109375
31.73583984375 20.50537109375 11.171875
6.65478515625 6.444580078125 -3.8583984375
8.127685546875 16.578857421875 5.07421875
9.333740234375 -0.40283203125 -7.80029296875
26.663818359375 14.74560546875 -5.980224609375
7.2041015625 28.98681640625 14.576171875
6.07666015625 -34.5546875 -32.815185546875
3.808349609375 -30.4189453125 -29.255126953125
5.666259765625 -0.251953125 -6.472412109375
5.149169921875 26.707763671875 13.32421875
5.177490234375 -21.01123046875 -22.646240234375
-7.781494140625 -41.72265625 -49.20751953125
22.345703125 17.59033203125 -9.76318359375
10.0654296875 -14.263916015625 -18.512939453125
7.56005859375 -16.071044921875 -18.9736328125
2.8876953125 -21.3779296875 -21.913330078125
23.08642578125 17.033935546875 -8.46484375
14.34375 -7.937255859375 -15.683837890625
10.41455078125 -20.389892578125 -25.210205078125
11.236328125 20.536865234375 7.69189453125
-10.668212890625 -39.162109375 -44.9931640625
-1.456298828125 29.47509765625 11.994140625
0.849365234375 -39.02685546875 -34.757568359375
-7.1083984375 -50.685302734375 -56.190185546875
25.13427734375 14.038330078125 -9.986328125
27.261962890625 20.62744140625 10.3896484375
2.890869140625 -19.7158203125 -20.4228515625
-10.10693359375 -39.918701171875 -45.943115234375
1.455078125 -75.166015625 -52.96142578125
7.630859375 18.55517578125 6.563232421875
13.474853515625 -9.3271484375 -17.395263671875
6.44140625 19.372802734375 7.683349609375
-0.681640625 -39.81884765625 -34.42138671875
35.821533203125 18.60888671875 7.962890625
-1.343017578125 25.384033203125 13.819580078125
25.857177734375 17.38037109375 -0.762451171875
34.612060546875 16.103271484375 3.6669921875
7.3349609375 0.796630859375 -6.13671875
22.71240234375 16.4765625 -11.12109375
-2.818359375 26.264892578125 14.6201171875
26.235107421875 21.259033203125 8.83251953125
26.715576171875 18.091552734375 6.63671875
28.16162109375 14.81298828125 1.292724609375
5.760498046875 -1.203857421875 -7.37109375
6.54150390625 -4.376220703125 -10.06689453125
28.399169921875 16.316650390625 3.228759765625
32.51806640625 15.01416015625 0.68798828125
13.755615234375 28.06494140625 11.880126953125
34.069580078125 15.231689453125 1.392578125
23.92626953125 21.541259765625 6.152099609375
3.76123046875 -8.308837890625 -13.162353515625
12.065673828125 28.63232421875 13.010498046875
5.767578125 3.843994140625 -4.56640625
-5.2939453125 19.942138671875 10.45458984375
17.51123046875 24.15966796875 6.780517578125
15.643798828125 -6.951171875 -18.015380859375
28.35888671875 18.470947265625 7.9541015625
14.409912109375 14.55078125 2.0458984375
26.984130859375 16.310302734375 2.30810546875
19.3837890625 26.708251953125 6.78369140625
7.76806640625 -34.09423828125 -34.213134765625
1.456298828125 -49.67626953125 -43.910400390625
20.490234375 24.4921875 6.73193359375
32.29345703125 15.78369140625 3.3974609375
22.2421875 25.4150390625 14.22607421875
32.668701171875 19.7578125 9.7333984375
14.316162109375 -1.819091796875 -11.2197265625
10.255859375 8.35888671875 -1.919921875
10.56640625 -2.303466796875 -9.7353515625
3.07080078125 -11.094970703125 -14.997802734375
8.82177734375 16.071533203125 3.94580078125
7.36083984375 15.961181640625 3.14453125
9.041259765625 -4.2080078125 -11.08056640625
8.288818359375 -3.7734375 -9.822265625
1.500244140625 -18.06982421875 -19.84130859375
6.501220703125 7.259521484375 -2.01513671875
21.494140625 23.24072265625 7.588134765625
11.489013671875 -5.83447265625 -12.64306640625
-4.65625 -46.18115234375 -39.144775390625
-0.978759765625 28.3828125 13.745361328125
3.425048828125 23.860595703125 11.5791015625
1.611083984375 -22.88134765625 -22.841552734375
19.687255859375 -61.89404296875 -59.9697265625
28.6748046875 14.52294921875 -1.127197265625
6.43603515625 2.1357421875 -5.5498046875
-1.8349609375 -39.4619140625 -34.078857421875
-8.012939453125 21.6787109375 10.0322265625
-1.419677734375 -42.65185546875 -36.11279296875
-2.004638671875 -41.3857421875 -35.216796875
-2.91796875 -42.8486328125 -36.78759765625
27.028564453125 16.403564453125 0.623779296875
21.001953125 21.108154296875 -6.133056640625
31.83251953125 18.981689453125 8.7275390625
8.50830078125 -11.761474609375 -16.0615234375
20.27783203125 26.235107421875 12.582275390625
20.315673828125 24.449951171875 -0.294677734375
9.054931640625 -8.08544921875 -14.050048828125
3.830078125 -15.4287109375 -17.52490234375
-8.818603515625 22.252685546875 13.85888671875
8.774169921875 -14.11474609375 -17.95263671875
-7.34716796875 20.87890625 12.26953125
34.889404296875 12.0048828125 -1.353759765625
7.967529296875 -27.648193359375 -28.520751953125
9.634521484375 -22.755126953125 -26.107177734375
5.6240234375 -16.41162109375 -18.896728515625
26.912353515625 15.698974609375 -4.001220703125
8.068115234375 -23.593505859375 -24.928466796875
-6.923828125 -40.342529296875 -48.377685546875
-6.741943359375 -50.09521484375 -54.25927734375
14.0712890625 29.712890625 12.86328125
1.42138671875 -70.868408203125 -50.0947265625
12.270751953125 13.849609375 2.415771484375
33.5654296875 16.125 2.947265625
11.6103515625 -0.622314453125 -8.3662109375
10.603515625 -3.359619140625 -10.52783203125
10.118896484375 -5.255126953125 -12.004150390625
33.41259765625 15.880615234375 5.574462890625
9.18212890625 14.390380859375 3.47998046875
9.481201171875 5.988037109375 -3.686767578125
8.3701171875 -30.349853515625 -31.4755859375
24.656982421875 18.83203125 1.10205078125
7.972900390625 -22.63427734375 -24.023681640625
11.34619140625 -10.530029296875 -16.1005859375
4.1416015625 -38.19384765625 -34.845947265625
5.289794921875 -36.362548828125 -33.73193359375
25.96875 14.21728515625 -8.0810546875
17.891845703125 26.539306640625 6.807861328125
3.041748046875 22.677978515625 10.697265625
1.38330078125 -37.06787109375 -33.4169921875
-3.2333984375 -49.4111328125 -42.1904296875
-1.38525390625 -50.87353515625 -43.6748046875
18.863037109375 24.955810546875 -0.39404296875
1.91357421875 -24.6083984375 -24.018798828125
-1.283447265625 -33.59912109375 -32.48779296875
7.129638671875 4.90576171875 -2.868408203125
-3.689453125 -44.633056640625 -37.69287109375
33.873046875 12.646240234375 -1.35986328125
4.979736328125 -11.894287109375 -15.745361328125
15.364013671875 28.508544921875 10.822998046875
-0.435302734375 31.288330078125 11.73388671875
20.70068359375 22.21826171875 -1.59423828125
30.06298828125 15.043212890625 0.622314453125
21.044677734375 22.6513671875 2.70751953125
20.71484375 23.746337890625 5.605712890625
8.087158203125 14.3076171875 2.879638671875
20.88916015625 -61.79541015625 -61.298828125
27.3291015625 19.057373046875 8.7783203125
18.468994140625 29.125732421875 9.739013671875
6.688720703125 17.579833984375 5.783203125
9.250244140625 21.193603515625 8.51953125
21.861083984375 22.761962890625 5.412353515625
12.990966796875 0.50390625 -8.343505859375
15.8876953125 13.0322265625 0.513671875
11.497802734375 25.453369140625 10.943603515625
13.120361328125 7.43017578125 -3.398681640625
-1.179443359375 27.40478515625 14.175537109375
6.411865234375 25.4521484375 12.120361328125
12.977294921875 4.394287109375 -5.3642578125
22.50244140625 22.604736328125 7.59423828125
-3.382568359375 -58.81591796875 -39.47509765625
13.2734375 18.86865234375 5.238525390625
29.236572265625 20.42138671875 11.19970703125
0.725341796875 26.60009765625 14.279296875
2.112060546875 25.009033203125 12.885009765625
12.69580078125 12.31201171875 1.010009765625
13.70068359375 22.33984375 8.330322265625
-0.966064453125 -72.463623046875 -51.451904296875
-10.2587890625 25.4677734375 15.201904296875
-8.82666015625 21.365478515625 10.656982421875
21.47900390625 25.36376953125 12.283935546875
18.08251953125 22.586181640625 -3.045166015625
-3.404052734375 24.17236328125 13.361572265625
6.559326171875 21.240966796875 8.96044921875
-10.265380859375 23.83203125 13.73388671875
11.251708984375 -16.25439453125 -22.06005859375
23.483154296875 18.121337890625 -1.80517578125
2.917724609375 27.975830078125 15.343994140625
-5.416015625 23.56396484375 13.59619140625
-6.671142578125 23.6630859375 14.1083984375
11.29443359375 -7.26220703125 -13.834228515625
6.905517578125 -40.6181640625 -47.48291015625
7.21826171875 -40.706298828125 -48.938720703125
5.52978515625 -15.4560546875 -17.995361328125
-7.086181640625 -51.755859375 -54.19287109375
7.211669921875 -18.298583984375 -20.639404296875
14.9482421875 8.15478515625 -3.25390625
12.6904296875 19.58447265625 6.15478515625
7.105224609375 -25.691650390625 -26.366455078125
7.233642578125 -39.502685546875 -44.711181640625
12.7568359375 15.7529296875 3.89794921875
16.939208984375 11.972412109375 -1.97509765625
4.842041015625 -28.762939453125 -27.904541015625
17.779052734375 31.421630859375 10.72119140625
4.0244140625 -26.1943359375 -25.906494140625
4.873779296875 -5.392822265625 -11.23583984375
8.93017578125 25.149658203125 11.18310546875
5.06689453125 -31.72998046875 -30.499755859375
7.980712890625 -5.369384765625 -11.629150390625
9.1298828125 17.65869140625 5.747314453125
27.053955078125 14.759033203125 -1.740966796875
0.462646484375 -23.051513671875 -24.174072265625
20.5107421875 23.5888671875 0.261962890625
0.99755859375 -27.740478515625 -26.234130859375
5.8447265625 -22.716796875 -23.628173828125
6.846435546875 -32.215087890625 -31.071044921875
22.329833984375 21.31689453125 2.313232421875
4.42822265625 -23.882080078125 -24.361083984375
30.050537109375 12.1982421875 -4.026611328125
2.792236328125 -35.919677734375 -32.69580078125
5.01806640625 28.704345703125 15.007080078125
8.85546875 -26.787353515625 -28.5029296875
18.20703125 20.489501953125 -3.919677734375
3.628173828125 -37.3515625 -34.0244140625
4.022216796875 27.61962890625 14.3291015625
2.805908203125 -39.770263671875 -35.644775390625
3.57763671875 -32.44970703125 -30.286376953125
1.28662109375 -18.95654296875 -21.05322265625
4.30859375 -27.39990234375 -27.119873046875
0.674072265625 -42.619873046875 -37.389404296875
6.98486328125 9.19189453125 -1.3720703125
14.353759765625 2.148681640625 -7.501220703125
19.56201171875 21.5673828125 -3.776611328125
-1.084716796875 -43.770751953125 -37.44091796875
0.7109375 -26.537109375 -25.876220703125
4.744384765625 -1.69921875 -8.893310546875
11.5 -14.742431640625 -20.125732421875
34.616455078125 17.244140625 6.76806640625
12.396484375 -12.18408203125 -18.591796875
0.77978515625 -35.27197265625 -31.697509765625
14.460693359375 9.595458984375 -1.732666015625
-0.345703125 -40.936767578125 -35.74951171875
9.51708984375 -7.34521484375 -13.25537109375
-0.6220703125 -38.070068359375 -33.0498046875
11.46142578125 1.93408203125 -6.693359375
11.383056640625 -11.58642578125 -16.893310546875
15.428466796875 26.326171875 10.05517578125
9.854736328125 0.43701171875 -7.1162109375
21.73681640625 19.931640625 -3.965576171875
30.2939453125 13.152587890625 -2.05517578125
-2.026123046875 -37.563232421875 -33.137939453125
-3.53662109375 21.171142578125 11.41552734375
22.165771484375 19.452880859375 -2.998291015625
0.499267578125 -71.781005859375 -50.83203125
10.85498046875 12.09033203125 1.6708984375
15.8271484375 11.25439453125 -0.880615234375
14.19189453125 13.62744140625 1.666015625
7.710693359375 7.545166015625 -1.63330078125
20.422607421875 23.8798828125 4.456787109375
12.407958984375 24.162109375 9.52978515625
14.233154296875 19.900146484375 5.1923828125
21.915283203125 21.745849609375 3.7724609375
6.222412109375 -43.955810546875 -50.16015625
24.645263671875 21.545166015625 7.390869140625
-8.784912109375 24.537841796875 15.2109375
10.685791015625 25.792236328125 11.455810546875
16.24267578125 8.583740234375 -3.821044921875
8.953369140625 27.972900390625 13.361572265625
7.181884765625 10.6962890625 -1.85009765625
26.64111328125 20.2216796875 8.2353515625
26.062744140625 22.669921875 9.830810546875
11.331787109375 17.919189453125 5.2958984375
7.796142578125 12.170654296875 1.096435546875
20.074951171875 25.97509765625 10.530517578125
31.17431640625 13.99462890625 -0.306640625
5.173095703125 5.24755859375 -7.017578125
11.760986328125 7.449951171875 -2.74658203125
5.586669921875 24.6318359375 11.9453125
30.27197265625 15.37353515625 1.869140625
10.6015625 10.561767578125 0.58935546875
27.95068359375 14.482666015625 0.046630859375
13.295166015625 -7.943115234375 -15.548583984375
7.80224609375 13.921142578125 0.929443359375
13.222412109375 -0.79833984375 -9.447021484375
14.795654296875 21.36083984375 6.58935546875
4.3369140625 20.369873046875 8.704345703125
23.874267578125 24.17822265625 11.6728515625
17.98095703125 24.00830078125 1.132080078125
-0.0361328125 22.5380859375 11.851318359375
22.955078125 20.083251953125 0.558837890625
5.64453125 -41.524169921875 -49.456787109375
4.06689453125 -6.672607421875 -13.04296875
19.50927734375 25.24072265625 5.05322265625
3.404296875 -18.876708984375 -20.59375
9.242431640625 -10.019775390625 -15.010986328125
5.831787109375 -4.968994140625 -10.440673828125
10.1611328125 -15.22314453125 -19.41845703125
25.0283203125 20.502197265625 5.231201171875
20.69287109375 24.756103515625 8.798583984375
-8.315673828125 -43.697265625 -50.552490234375
5.22607421875 -13.723388671875 -16.814208984375
-7.2783203125 -52.6142578125 -53.65625
-8.276611328125 25.37109375 15.890380859375
-5.890380859375 -47.619384765625 -54.5419921875
21.3515625 24.6494140625 10.13916015625
4.4677734375 -9.401123046875 -13.4404296875
6.969482421875 -13.133544921875 -16.57861328125
4.93994140625 3.175048828125 -8.0732421875
2.098876953125 27.15576171875 15.166259765625
23.97509765625 17.2294921875 -3.368896484375
22.223876953125 24.86083984375 12.70068359375
5.009765625 -17.953369140625 -20.167236328125
2.477294921875 -49.74658203125 -45.81298828125
12.68505859375 26.864501953125 11.30517578125
4.843017578125 0.703857421875 -7.645263671875
0.997314453125 -21.080810546875 -22.82568359375
28.6279296875 12.774169921875 -7.4326171875
23.045654296875 26.687744140625 16.032958984375
-9.10791015625 23.471923828125 14.234375
7.14208984375 -26.743896484375 -27.156005859375
9.47998046875 -6.290283203125 -12.463623046875
6.369140625 -30.75537109375 -29.541259765625
8.386474609375 -16.9619140625 -20.328369140625
9.120361328125 10.958984375 0.60009765625
12.547119140625 14.875244140625 2.687255859375
8.05908203125 -31.957763671875 -32.4306640625
1.279296875 -28.943359375 -27.4443359375
-7.281982421875 20.4873046875 11.37109375
3.181396484375 -29.763427734375 -28.205810546875
6.279296875 -40.342529296875 -37.58740234375
5.80859375 -7.781982421875 -12.611328125
6.889892578125 24.033203125 10.619873046875
30.1640625 19.6748046875 9.763427734375
36.59423828125 18.145263671875 5.983642578125
-0.520751953125 -31.26806640625 -30.75
23.891357421875 16.05615234375 -9.72802734375
2.3271484375 -41.641357421875 -37.102783203125
5.455078125 -41.094482421875 -37.71142578125
25.46923828125 21.7099609375 9.242919921875
3.58740234375 -10.261962890625 -14.31884765625
4.281494140625 -33.539306640625 -31.418212890625
22.293212890625 20.1845703125 -0.80517578125
9.614013671875 -22.230224609375 -25.28125
24.296142578125 16.0634765625 -5.4541015625
10.490966796875 -19.151123046875 -23.78759765625
8.768798828125 -39.32421875 -45.7958984375
2.3564453125 -33.851806640625 -31.322265625
32.578857421875 13.408447265625 -2.531005859375
5.628173828125 -26.947998046875 -26.982177734375
22.793701171875 18.21142578125 -4.767578125
6.9599609375 -19.814208984375 -21.71142578125
0.3447265625 -33.207763671875 -30.326416015625
4.951171875 21.921875 9.982666015625
18.258544921875 -61.8857421875 -60.00146484375
2.1240234375 -37.541259765625 -33.842529296875
22.307861328125 18.6728515625 -8.950927734375
9.257568359375 -12.22509765625 -16.480712890625
26.335205078125 17.572509765625 0.066162109375
5.923095703125 -21.478271484375 -23.06787109375
6.427734375 -16.781005859375 -19.429443359375
0.00390625 -28.77734375 -27.72998046875
6.464599609375 -17.832763671875 -20.21875
28.97021484375 13.31982421875 -6.39453125
1.771240234375 -30.91845703125 -28.93212890625
20.727294921875 21.706787109375 -2.423095703125
31.8330078125 20.10400390625 10.2509765625
10.27734375 -1.10400390625 -8.523681640625
32.12451171875 11.53564453125 -7.3466796875
30.25634765625 14.22607421875 -1.24951171875
0.859375 -44.536376953125 -39.194091796875
4.605224609375 -20.270263671875 -21.7158203125
10.0625 -2.015380859375 -8.896728515625
5.440185546875 -11.156982421875 -14.95361328125
27.2685546875 14.0126953125 -6.9228515625
19.56689453125 25.46533203125 1.687255859375
1.746337890625 21.6259765625 10.53564453125
7.0234375 -2.4873046875 -8.595458984375
-2.44775390625 20.80615234375 10.400146484375
0.395263671875 -50.24853515625 -43.593994140625
11.61767578125 27.33203125 12.227294921875
-1.2509765625 24.443359375 12.930419921875
7.3603515625 -8.606201171875 -13.556640625
23.449462890625 21.35205078125 5.33056640625
17.533447265625 29.931884765625 8.79345703125
29.740478515625 15.647216796875 2.707275390625
19.0146484375 22.9658203125 -2.971435546875
-2.34326171875 -58.265380859375 -39.780517578125
-0.590576171875 21.097412109375 10.473388671875
10.776611328125 7.533935546875 -2.73095703125
19.913818359375 26.82373046875 11.541748046875
6.652099609375 -42.159912109375 -49.45068359375
12.85302734375 13.130126953125 1.49755859375
24.378173828125 18.39892578125 -0.0361328125
7.7998046875 15.497314453125 4.083251953125
10.833740234375 21.56591796875 8.2841796875
11.2998046875 10.0458984375 -0.54638671875
25.5517578125 14.1279296875 -9.032958984375
21.7119140625 20.960693359375 -0.71826171875
24.481689453125 19.080810546875 2.985595703125
13.380126953125 1.690673828125 -7.459228515625
-4.9052734375 24.399658203125 14.27734375
1.126953125 -75.5908203125 -51.376953125
12.296875 2.735107421875 -6.53662109375
12.560791015625 10.98583984375 -0.29150390625
26.223388671875 16.276123046875 -2.1015625
27.030517578125 17.4951171875 4.568603515625
4.9560546875 -0.7900390625 -8.521484375
18.8447265625 25.3486328125 3.69873046875
1.75244140625 26.632568359375 14.16845703125
9.98193359375 7.340087890625 -2.187255859375
11.304931640625 1.1201171875 -7.178466796875
18.90087890625 27.58251953125 8.324462890625
20.922607421875 20.948486328125 -5.1630859375
19.4833984375 25.747314453125 5.873291015625
-0.8642578125 -50.611572265625 -44.70263671875
6.493896484375 -37.7802734375 -35.730224609375
8.799560546875 2.63330078125 -5.51611328125
3.820556640625 -22.0908203125 -22.64306640625
5.105224609375 22.737060546875 10.469482421875
31.493408203125 11.66845703125 -5.52294921875
26.235107421875 14.106689453125 -10.984619140625
13.003662109375 -6.736572265625 -14.329833984375
24.89990234375 23.597412109375 10.85205078125
27.748291015625 14.207763671875 -6.086669921875
31.404052734375 14.929931640625 0.076904296875
3.441650390625 21.65576171875 10.108642578125
18.307373046875 29.35205078125 11.596435546875
8.02294921875 -1.42431640625 -7.93408203125
-7.069091796875 -47.27099609375 -55.070068359375
-0.199462890625 -45.11572265625 -38.885498046875
25.207275390625 18.5693359375 1.838134765625
20.913330078125 19.812744140625 -6.718017578125
7.465576171875 -29.005859375 -29.16357421875
24.098876953125 15.7783203125 -7.57373046875
19.794677734375 25.55078125 9.407958984375
6.2763671875 -2.02978515625 -8.180908203125
3.84912109375 -41.98828125 -38.115478515625
-6.94091796875 -45.39111328125 -52.912109375
30.96728515625 15.90869140625 5.502685546875
25.501708984375 14.600341796875 -7.33837890625
10.170654296875 -8.52001953125 -14.2685546875
0.21240234375 24.056396484375 12.92626953125
-7.3798828125 26.884521484375 16.653564453125
6.668701171875 4.167724609375 -3.6611328125
1.59375 20.8134765625 10.05029296875
18.953369140625 21.161376953125 -4.38671875
1.807861328125 -31.965576171875 -29.7177734375
8.541748046875 -16.154541015625 -19.847900390625
32.5078125 11.5849609375 -5.5400390625
9.478515625 -23.5625 -26.5869140625
-4.191650390625 27.411865234375 14.4033203125
3.764892578125 -34.36572265625 -32.09228515625
1.40771484375 22.699462890625 11.832763671875
5.53759765625 17.39306640625 5.290771484375
8.91552734375 -28.369873046875 -30.986083984375
13.8583984375 23.161376953125 8.8203125
-9.741455078125 24.611572265625 15.217041015625
28.02392578125 12.922607421875 -4.0166015625
35.688720703125 15.55517578125 1.9873046875
10.448974609375 -18.104248046875 -22.1376953125
34.478759765625 14.186279296875 0.79052734375
23.826416015625 18.66162109375 -0.77490234375
22.98291015625 19.572265625 -0.266357421875
-1.9892578125 24.884521484375 13.331298828125
28.4775390625 13.073974609375 -2.336181640625
33.6328125 13.964111328125 -0.2421875
36.530517578125 16.90869140625 4.556884765625
-7.160888671875 -53.5283203125 -52.800537109375
31.54931640625 16.832275390625 8.48095703125
4.972900390625 -16.902587890625 -19.378662109375
2.9736328125 -15.156494140625 -16.882568359375
-4.04833984375 20.335205078125 10.734375
-3.42236328125 23.023681640625 12.682373046875
-6.6279296875 -48.799560546875 -54.723876953125
4.274658203125 -24.68408203125 -24.838134765625
5.85595703125 -28.247802734375 -28.08251953125
2.957763671875 -26.803466796875 -25.6171875
-5.51708984375 21.218994140625 11.535888671875
23.034912109375 21.269287109375 4.3994140625
32.93994140625 15.688232421875 4.751708984375
31.274169921875 15.851318359375 1.83642578125
7.0009765625 -31.41357421875 -30.594482421875
14.9853515625 -8.015380859375 -17.616943359375
8.80908203125 9.32958984375 -0.37158203125
5.533935546875 -25.98974609375 -26.07861328125
25.834228515625 18.98046875 4.015380859375
18.653076171875 24.068115234375 -1.6279296875
7.072509765625 -35.189453125 -33.672607421875
26.718994140625 18.170166015625 1.828125
25.937744140625 20.826171875 6.147216796875
-7.263916015625 -48.701171875 -56.263427734375
33.6083984375 18.449462890625 8.306396484375
19.1015625 28.27490234375 13.571044921875
19.599609375 20.490234375 -4.5849609375
28.3720703125 17.953125 5.578369140625
-1.880859375 -45.04345703125 -38.3857421875
24.181640625 20.2841796875 4.205810546875
21.068359375 23.719970703125 6.643798828125
22.29443359375 20.7001953125 1.599853515625
25.645751953125 21.467529296875 7.380615234375
18.91552734375 22.238525390625 -3.578369140625
-7.04296875 -43.332763671875 -49.43212890625
2.013427734375 -22.240234375 -21.939208984375
-7.130126953125 -41.235107421875 -48.73046875
0.58544921875 28.70556640625 14.3330078125
31.034912109375 18.262939453125 8.4462890625
5.940673828125 -35.876708984375 -33.25390625
31.78173828125 16.082275390625 7.359130859375
29.728759765625 18.419677734375 8.146240234375
10.76171875 -16.486083984375 -21.175537109375
2.6884765625 -27.78662109375 -26.716796875
17.86572265625 31.028076171875 9.7978515625
24.5341796875 21.893310546875 9.14501953125
30.01123046875 16.615966796875 7.780517578125
4.508544921875 -34.8388671875 -32.51806640625
24.128662109375 22.929931640625 9.74169921875
30.5009765625 20.2099609375 10.779296875
22.958984375 24.41552734375 10.747802734375
5.1796875 -33.212158203125 -31.3681640625
32.677734375 16.39453125 6.714599609375
28.260986328125 20.5498046875 10.380859375
6.189697265625 -39.50732421875 -46.322509765625
7.738037109375 -39.831787109375 -45.5927734375
0.311767578125 -30.5009765625 -28.052734375
21.668212890625 26.182373046875 14.315673828125
26.714111328125 19.814208984375 5.751220703125
11.027099609375 -4.904052734375 -11.938720703125
16.30322265625 10.364013671875 -2.4248046875
10.64990234375 2.291015625 -6.167724609375
5.755126953125 -18.418701171875 -20.58740234375
27.176025390625 20.47119140625 11.322509765625
6.76220703125 -10.68798828125 -14.80322265625
2.031005859375 -36.583740234375 -32.9404296875
1.90625 -15.76904296875 -17.4501953125
20.691650390625 26.3134765625 13.5009765625
0.358642578125 -27.086181640625 -27.748291015625
11.018798828125 16.282958984375 4.31982421875
14.790283203125 7.3359375 -3.74169921875
17.027587890625 31.930908203125 10.30126953125
-1.450927734375 -48.763671875 -41.24169921875
20.334228515625 27.396240234375 14.811279296875
0.0869140625 -41.350341796875 -36.490478515625
13.34130859375 -3.949462890625 -12.678466796875
14.205078125 4.714111328125 -5.822998046875
5.327392578125 -9.668212890625 -14.080322265625
2.711669921875 -24.98291015625 -24.553466796875
10.937255859375 15.018798828125 3.74267578125
-1.133544921875 -35.580810546875 -31.6015625
0.94921875 -36.6572265625 -32.677734375
13.45458984375 24.193115234375 9.414306640625
12.833251953125 22.62841796875 8.126220703125
1.7412109375 -16.535400390625 -20.4677734375
12.505126953125 24.876953125 10.12646484375
12.34619140625 -5.558837890625 -13.3134765625
-1.9853515625 -36.94775390625 -32.43408203125
12.105712890625 -10.976318359375 -17.372314453125
22.385009765625 23.509521484375 9.33154296875
12.190673828125 -3.02490234375 -10.79296875
1.112060546875 -24.23046875 -24.33447265625
-0.60302734375 -36.936767578125 -32.382080078125
11.3916015625 -6.54833984375 -13.238525390625
11.521728515625 3.704833984375 -5.3046875
7.43701171875 17.131591796875 5.375244140625
1.746826171875 -19.89208984375 -20.90625
-1.705810546875 22.01025390625 11.47607421875
9.992919921875 26.343994140625 11.755859375
10.44189453125 4.745849609375 -4.385498046875
33.5986328125 15.61181640625 2.12353515625
26.793212890625 21.556640625 11.09228515625
10.645751953125 -13.330810546875 -17.944580078125
-0.956298828125 -45.77099609375 -39.12451171875
2.78076171875 -16.572021484375 -18.063720703125
7.30029296875 -39.865234375 -39.52001953125
9.421142578125 19.796142578125 7.53076171875
9.0234375 10.24658203125 0.005615234375
8.811279296875 23.27587890625 9.902587890625
9.2314453125 -18.387451171875 -21.6552734375
7.27587890625 11.328125 0.410400390625
8.858642578125 -23.43994140625 -25.500244140625
7.97998046875 20.79541015625 8.238525390625
5.45849609375 2.25341796875 -6.368896484375
7.984130859375 10.2265625 0.1279296875
5.203369140625 -2.651123046875 -8.75537109375
-4.145263671875 -48.66064453125 -40.587158203125
7.263916015625 -37.123046875 -36.35400390625
-9.919189453125 27.677490234375 16.855224609375
6.503662109375 22.7939453125 10.554931640625
7.610595703125 -20.991943359375 -22.72607421875
6.539306640625 -6.040771484375 -11.560302734375
5.7890625 18.87158203125 7.19384765625
4.992431640625 24.2353515625 11.349609375
4.300048828125 -4.639404296875 -11.153564453125
9.037109375 6.369140625 -2.9638671875
6.677978515625 -29.152099609375 -28.587890625
5.697021484375 21.4765625 9.57763671875
6.2060546875 -24.35693359375 -24.92431640625
13.960205078125 14.926513671875 2.767333984375
-10.04150390625 26.32373046875 16.384033203125
5.220703125 -30.92919921875 -30.023681640625
1.604248046875 -17.859375 -21.76513671875
-6.306396484375 -48.272705078125 -40.089599609375
3.59228515625 20.815185546875 9.109375
5.400146484375 -39.5126953125 -36.095947265625
4.111328125 -18.292236328125 -20.225830078125
10.12841796875 27.663818359375 13.0517578125
3.481201171875 -33.15771484375 -30.87744140625
16.359619140625 22.798095703125 7.147216796875
3.00732421875 -17.86572265625 -19.15869140625
8.990234375 26.91748046875 12.569580078125
0.8642578125 -50.0712890625 -44.503662109375
2.452880859375 -33.144287109375 -30.73193359375
0.2607421875 20.862548828125 9.860107421875
-0.287353515625 -29.23681640625 -28.86376953125
12.5703125 17.70654296875 4.871826171875
2.104248046875 -38.677490234375 -34.511474609375
0.593994140625 25.23583984375 13.805908203125
0.168212890625 21.805419921875 10.751220703125
4.564208984375 19.08203125 7.61328125
-1.235595703125 -32.9775390625 -30.9248046875
0.206298828125 -37.846923828125 -33.7431640625
-6.805908203125 -55.1494140625 -50.462890625
0.13720703125 -46.238525390625 -40.218017578125
-0.87109375 -34.605712890625 -31.359619140625
7.572509765625 15.217041015625 2.028076171875
-0.777587890625 -40.52392578125 -35.009521484375
4.24951171875 26.333984375 13.239501953125
-3.321533203125 25.371826171875 14.745361328125
22.9765625 17.395263671875 -6.657470703125
-3.29248046875 -45.6474609375 -38.27685546875
16.522705078125 12.9658203125 -0.5390625
-2.818603515625 -59.54052734375 -39.548828125
-6.408203125 26.319091796875 15.855712890625
-6.262451171875 22.1552734375 12.73095703125
-9.911376953125 23.41845703125 12.331298828125
-10.43994140625 24.769287109375 13.109130859375
-6.70751953125 24.70361328125 14.88916015625
13.2236328125 27.156494140625 12.010986328125
12.914306640625 -5.7529296875 -14.272216796875
-7.86962890625 23.8662109375 14.51611328125
13.306396484375 28.43017578125 12.593994140625
-8.349365234375 27.44873046875 17.44970703125
-8.412109375 20.74755859375 12.484619140625
-9.191162109375 26.041015625 16.583984375
10.819091796875 23.78515625 9.763671875
7.18896484375 18.92578125 7.27685546875
30.395263671875 12.1865234375 -7.01708984375
32.592529296875 11.711181640625 -8.11474609375
-6.400146484375 20.852783203125 11.453369140625
-0.7421875 -58.470703125 -41.016357421875
-7.234130859375 22.724853515625 13.531982421875
1.295654296875 -72.09814453125 -49.64794921875
2.23681640625 -71.681640625 -48.86669921875
20.405029296875 24.04736328125 -1.234375
-9.35205078125 21.96533203125 13.16748046875
-0.223388671875 -72.85888671875 -50.149169921875
20.29638671875 23.775146484375 1.4189453125
-0.641357421875 -73.983642578125 -49.155517578125
6.9521484375 27.456787109375 13.49365234375
5.858642578125 27.317138671875 13.71044921875
-4.152587890625 -58.39208984375 -38.088134765625
27.08837890625 15.3779296875 -1.02587890625
20.1337890625 24.632568359375 2.44384765625
10.4501953125 9.78564453125 -0.7294921875
18.643310546875 28.33447265625 7.89013671875
27.766845703125 14.22412109375 -4.489501953125
18.617919921875 28.8388671875 8.707763671875
23.270263671875 16.212890625 -10.366943359375
-2.180908203125 26.8203125 14.298828125
7.249267578125 6.80615234375 -2.427001953125
6.615234375 -39.377685546875 -45.3564453125
-7.080810546875 -46.73193359375 -54.227294921875
10.364990234375 -7.09423828125 -13.078857421875
18.909912109375 28.07763671875 10.69384765625
25.472412109375 15.11669921875 -6.505126953125
6.936767578125 -36.5205078125 -34.975830078125
35.452392578125 16.88330078125 4.677734375
-0.368408203125 -30.46923828125 -30.275390625
-0.23779296875 -29.146240234375 -29.83544921875
4.929443359375 -6.98095703125 -11.998779296875
8.214599609375 -31.154052734375 -31.953125
-6.2919921875 -56.5048828125 -48.5029296875
23.570556640625 19.926025390625 1.18603515625
5.36376953125 -24.59814453125 -25.093994140625
29.97412109375 17.68017578125 8.5791015625
11.9326171875 -12.927001953125 -19.38916015625
-4.687255859375 21.4814453125 11.722900390625
8.068115234375 13.192626953125 1.3662109375
4.35498046875 -35.637939453125 -32.992919921875
1.884765625 -42.907470703125 -38.717529296875
1.302490234375 -26.142578125 -25.283203125
5.575927734375 4.18505859375 -6.77001953125
14.436767578125 0.058349609375 -9.937744140625
9.830322265625 -19.653564453125 -23.413818359375
32.114013671875 15.499755859375 1.309326171875
33.12451171875 15.41845703125 1.2958984375
-9.795166015625 23.1328125 11.328125
22.39404296875 19.217529296875 -1.721923828125
9.556640625 -20.650390625 -23.66455078125
-3.71240234375 -47.419677734375 -39.843017578125
-8.765869140625 -41.07861328125 -48.3310546875
7.874267578125 -25.015869140625 -26.115478515625
3.165283203125 -41.40966796875 -36.93994140625
28.630126953125 15.5634765625 2.098388671875
4.911376953125 -6.466796875 -11.184326171875
20.105224609375 25.2568359375 -0.003173828125
33.607177734375 20.6953125 11.3544921875
-10.169677734375 24.53369140625 14.3193359375
26.433837890625 18.297119140625 0.670654296875
-0.0419921875 -39.34814453125 -34.804931640625
21.804443359375 21.071533203125 0.7529296875
31.374755859375 15.99560546875 6.431640625
1.072509765625 -43.638427734375 -37.9755859375
21.030029296875 22.7041015625 0.285400390625
0.537109375 -31.795166015625 -29.147705078125
5.51416015625 0.62939453125 -6.29931640625
25.820556640625 18.4130859375 2.463623046875
33.08349609375 12.508544921875 -4.098388671875
14.279052734375 0.918212890625 -8.91845703125
12.89306640625 -1.884765625 -10.442626953125
28.846435546875 18.14404296875 6.3994140625
34.87890625 15.3935546875 1.68994140625
-2.124267578125 -48.1796875 -40.068603515625
21.336181640625 22.51904296875 3.860107421875
35.86572265625 13.573486328125 1.00048828125
32.28271484375 13.503173828125 -1.25830078125
-3.18310546875 -48.77197265625 -40.62158203125
7.687744140625 -7.52587890625 -12.56689453125
9.888916015625 -3.955322265625 -10.903076171875
36.42578125 19.011962890625 8.56884765625
14.55810546875 8.63818359375 -2.637939453125
18.988525390625 27.185791015625 7.399169921875
23.1142578125 22.447021484375 8.2138671875
27.189697265625 18.281982421875 7.45556640625
14.131591796875 11.852783203125 0.274169921875
2.534423828125 -13.072509765625 -16.3515625
28.368896484375 16.827392578125 4.049072265625
13.607421875 11.006591796875 -0.414794921875
16.266845703125 8.071044921875 -4.640869140625
29.626953125 19.37939453125 9.052978515625
19.303955078125 27.60205078125 10.081787109375
12.94287109375 -10.1875 -17.2265625
15.51611328125 23.644775390625 8.4775390625
15.600341796875 24.919677734375 9.06005859375
7.38232421875 -33.58642578125 -32.719970703125
9.269775390625 -17.7705078125 -20.947021484375
11.502685546875 -9.718994140625 -15.617919921875
-0.111572265625 -30.621826171875 -28.989990234375
10.10107421875 -16.991455078125 -20.80517578125
11.355712890625 -3.81982421875 -10.9453125
10.0078125 -12.68896484375 -16.900390625
2.664794921875 26.509033203125 13.453125
6.841552734375 16.734375 4.7783203125
5.9248046875 -33.685302734375 -31.793701171875
4.734619140625 17.689697265625 6.6279296875
14.466064453125 25.283935546875 10.093994140625
7.02392578125 9.8017578125 -0.669189453125
13.51513671875 25.9677734375 10.80615234375
27.744384765625 13.06787109375 -7.640625
19.811279296875 23.6962890625 -2.696044921875
14.30322265625 10.449462890625 -0.71875
7.343994140625 19.74169921875 7.763916015625
2.42041015625 -42.6005859375 -38.00634765625
22.6845703125 16.994384765625 -10.281982421875
3.68115234375 -40.5859375 -36.267578125
23.4326171875 16.40380859375 -6.517578125
-0.337646484375 -49.747314453125 -42.29638671875
24.977294921875 16.013671875 -4.933349609375
10.9521484375 12.803466796875 2.265869140625
12.22265625 29.45458984375 13.50146484375
33.31982421875 11.746337890625 -5.243408203125
26.3076171875 13.622314453125 -8.597900390625
9.281494140625 29.0556640625 14.353515625
26.7236328125 13.7119140625 -7.646728515625
-1.820556640625 -39.9892578125 -34.899169921875
-0.322509765625 -50.28076171875 -43.1220703125
9.455078125 15.413818359375 3.75146484375
24.43701171875 15.183837890625 -8.09033203125
22.1357421875 18.924560546875 -7.026611328125
4.87646484375 -3.729736328125 -9.74365234375
6.331298828125 -3.619873046875 -8.945556640625
25.544189453125 16.325927734375 -2.620361328125
10.88037109375 27.219482421875 12.646484375
-7.639404296875 -43.73046875 -50.030029296875
23.130859375 17.61865234375 -5.282470703125
31.20654296875 11.20556640625 -8.2763671875
24.948486328125 16.528564453125 -4.102783203125
27.00439453125 15.25830078125 -2.499755859375
35.3955078125 12.820556640625 0.19189453125
18.7060546875 26.760498046875 6.26953125
21.373046875 21.0361328125 -2.62109375
1.483642578125 23.957275390625 12.409423828125
26.19384765625 16.78955078125 -1.2744140625
7.327392578125 -4.22265625 -9.7783203125
1.633056640625 -49.9970703125 -46.84765625
-6.545654296875 -51.4453125 -53.47412109375
29.551025390625 13.096435546875 -2.462646484375
32.8564453125 14.422607421875 0.17626953125
24.742919921875 17.296142578125 -1.37353515625
34.313720703125 13.356201171875 0.296142578125
5.658447265625 -19.128662109375 -21.1796875
29.482177734375 14.684326171875 -0.83056640625
27.485595703125 14.8623046875 0.77685546875
21.5048828125 22.277587890625 1.97802734375
-2.89208984375 21.66845703125 11.902099609375
24.18505859375 21.917724609375 8.1123046875
26.90478515625 17.3212890625 2.37939453125
-0.434814453125 23.556884765625 12.43798828125
23.732421875 19.58447265625 2.560791015625
-4.308349609375 22.65576171875 12.598876953125
5.51220703125 -41.018798828125 -38.697509765625
27.53125 16.05029296875 3.04150390625
4.64453125 -19.655517578125 -21.0107421875
20.956787109375 25.125732421875 10.75
5.72900390625 -36.774658203125 -34.475341796875
20.2109375 -61.766357421875 -61.831298828125
24.5166015625 19.696533203125 3.697265625
22.765380859375 20.27880859375 3.285400390625
26.29736328125 18.604248046875 3.288330078125
17.619873046875 29.53662109375 7.867919921875
-6.2578125 -43.18896484375 -49.153076171875
36.32470703125 19.41552734375 9.494384765625
23.306396484375 20.575439453125 3.999755859375
5.0966796875 -37.781005859375 -34.91552734375
-5.042724609375 23.096435546875 12.998779296875
23.478759765625 24.654296875 12.282470703125
29.094970703125 21.32373046875 11.384033203125
17.26220703125 30.62548828125 9.192626953125
24.757080078125 21.195556640625 5.63037109375
8.860107421875 -21.767578125 -24.000244140625
5.349609375 -34.603271484375 -32.352294921875
29.517578125 16.969482421875 5.385009765625
