19.523193359375 -17.715576171875 -18.396728515625
11.939697265625 -21.815673828125 -10.378662109375
21.599609375 24.17919921875 17.02587890625
-2.1865234375 -56.3193359375 -53.771728515625
21.967529296875 1.510498046875 -14.792724609375
-2.724853515625 -52.560546875 -49.25048828125
21.200927734375 -1.556640625 -19.74609375
19.656982421875 -14.402587890625 -17.82861328125
22.330810546875 4.488037109375 -12.93310546875
18.984619140625 -19.375244140625 -20.360107421875
11.826904296875 -18.9091796875 -7.8330078125
4.8173828125 -69.85888671875 -52.510498046875
-3.33837890625 -54.4833984375 -46.319091796875
21.396240234375 28.366943359375 14.005859375
14.90771484375 -0.563720703125 6.216796875
21.446533203125 0.092529296875 -15.81591796875
18.217041015625 -17.437744140625 -27.31591796875
18.52587890625 27.186767578125 6.110107421875
19.58349609375 23.41748046875 1.226318359375
23.6103515625 7.408203125 -7.8076171875
21.632080078125 25.69970703125 13.7880859375
22.0126953125 -3.786376953125 -5.50732421875
22.680419921875 -2.42626953125 -4.5576171875
22.989990234375 6.723388671875 -12.061767578125
24.506103515625 24.892822265625 -2.77392578125
19.5546875 -8.3603515625 -24.00537109375
16.168701171875 23.343017578125 5.302001953125
22.292236328125 31.21630859375 2.7998046875
26.78466796875 16.947509765625 -9.241455078125
18.185302734375 -25.744140625 -20.828369140625
25.062255859375 13.624267578125 -3.609130859375
21.65087890625 33.793701171875 6.733642578125
21.07861328125 25.941650390625 16.586669921875
22.627685546875 23.10791015625 -0.900634765625
22.967041015625 7.685546875 -13.99267578125
22.83203125 -0.597900390625 -2.069580078125
17.80908203125 24.952880859375 11.468505859375
1.081298828125 23.627197265625 14.91162109375
0.3193359375 -59.217529296875 -46.3876953125
17.458251953125 -27.539794921875 -25.582763671875
-6.027099609375 -46.466064453125 -41.08642578125
23.921875 7.2216796875 -6.092529296875
20.4716796875 28.644287109375 7.352294921875
-1.465576171875 17.84326171875 18.300048828125
24.581787109375 10.407470703125 -2.61083984375
-5.665771484375 -50.533203125 -45.389404296875
24.02001953125 6.944091796875 -2.91455078125
19.457275390625 -12.127685546875 -28.845703125
-1.563232421875 20.920166015625 18.84130859375
10.555908203125 -26.801025390625 -13.94384765625
-0.16455078125 23.63671875 19.66748046875
-11.9970703125 -83.98583984375 -62.4892578125
-1.159423828125 -55.16015625 -55.39599609375
19.593994140625 -12.22900390625 -22.7216796875
0.30908203125 -57.15380859375 -44.0458984375
-2.842529296875 17.7568359375 20.13916015625
13.879638671875 -18.4033203125 -8.790771484375
21.9736328125 -3.16943359375 -0.522705078125
21.102294921875 27.462646484375 4.14453125
22.486083984375 35.3173828125 4.46875
4.959228515625 -67.215087890625 -57.344970703125
-7.159423828125 -50.854736328125 -43.12158203125
20.603515625 31.84716796875 8.68896484375
20.248046875 -6.591796875 -21.185546875
13.552001953125 -13.796630859375 -4.95703125
15.302734375 -37.030029296875 -36.826904296875
23.03759765625 35.37060546875 0.709716796875
16.651123046875 -22.593994140625 -33.813720703125
-1.813720703125 22.401611328125 21.734619140625
22.51416015625 0.89404296875 -12.65576171875
2.22119140625 -62.16455078125 -45.66064453125
0.83837890625 -65.630859375 -42.2099609375
-1.238037109375 18.25048828125 16.455810546875
3.539794921875 -59.556396484375 -45.028076171875
-8.7451171875 -84.41455078125 -57.589111328125
27.031982421875 29.285888671875 -3.853759765625
21.9931640625 -3.275390625 -7.39111328125
17.060302734375 -24.741455078125 -32.37744140625
-2.067138671875 -57.025634765625 -48.78955078125
20.927734375 -12.445556640625 -9.235595703125
-0.032470703125 -53.048095703125 -53.121826171875
-1.013916015625 -58.171630859375 -51.760498046875
-0.7119140625 -49.949462890625 -47.50244140625
17.098876953125 -33.251708984375 -26.34912109375
22.518798828125 29.222900390625 1.597900390625
0.25146484375 -66.94580078125 -44.305908203125
4.14697265625 -48.4736328125 -54.12109375
-1.14697265625 -57.78271484375 -54.225341796875
0.622802734375 -64.8583984375 -45.145263671875
24.44921875 23.12060546875 -3.009521484375
-3.1318359375 -64.5537109375 -38.291015625
17.39599609375 -22.193115234375 -35.1728515625
20.55859375 -4.785400390625 -18.680908203125
15.50927734375 -32.393310546875 -43.194580078125
16.038818359375 -31.699951171875 -31.2958984375
6.932373046875 -61.412109375 -43.624755859375
-6.12451171875 -52.515380859375 -42.556396484375
21.04931640625 -8.280029296875 -8.781005859375
21.0712890625 -9.873779296875 -7.7041015625
25.371826171875 14.212646484375 -0.18408203125
19.006591796875 27.576171875 11.125732421875
-3.560302734375 -54.175048828125 -49.2001953125
17.6171875 -22.846435546875 -29.43212890625
21.968017578125 -7.408447265625 -5.57421875
19.095703125 20.52392578125 1.29736328125
16.177001953125 -29.482421875 -37.86962890625
17.03466796875 -32.4296875 -24.94873046875
25.9326171875 21.44677734375 -5.25927734375
15.652587890625 21.41357421875 3.5205078125
-0.92919921875 13.48828125 24.5322265625
18.766845703125 -15.575439453125 -24.40478515625
17.793701171875 -21.826416015625 -26.7275390625
19.83349609375 -15.419677734375 -15.9306640625
18.046875 -21.860107421875 -24.453857421875
23.680908203125 28.696533203125 0.28662109375
17.023193359375 -26.489501953125 -29.796875
17.0771484375 -23.86083984375 -30.53173828125
7.084716796875 -47.21142578125 -52.7314453125
-0.114990234375 11.109130859375 22.36279296875
19.692138671875 -12.21630859375 -20.40576171875
20.154541015625 -5.953125 -22.61474609375
24.412353515625 10.80517578125 -5.30810546875
18.55029296875 -18.977783203125 -25.424560546875
19.380859375 -14.50537109375 -22.8876953125
21.662841796875 28.223876953125 11.301513671875
22.60986328125 1.88525390625 0.942138671875
21.044921875 -6.1728515625 -15.960205078125
21.412353515625 -3.15869140625 -14.088134765625
-3.640380859375 -51.279052734375 -47.375244140625
24.126953125 5.793701171875 0.340576171875
24.416748046875 5.328857421875 -1.5458984375
21.727783203125 -9.889404296875 -28.19677734375
20.465576171875 -4.147705078125 -20.10498046875
16.892578125 -28.060546875 -28.634765625
22.275634765625 -1.61279296875 -7.68310546875
22.083984375 2.677734375 -17.747314453125
22.09521484375 3.045166015625 -15.927978515625
23.292724609375 1.727783203125 -7.544921875
23.6240234375 5.470703125 -8.53125
15.78466796875 25.544189453125 9.598388671875
-2.43896484375 17.8046875 25.04443359375
9.6220703125 -25.634765625 -12.229736328125
13.768798828125 -6.1484375 1.447265625
23.1064453125 -1.0078125 -5.804931640625
18.369873046875 25.068603515625 3.7646484375
15.913818359375 -12.114501953125 -4.318359375
-2.56640625 11.19091796875 17.35791015625
25.416015625 15.32177734375 -3.4853515625
24.1025390625 10.381103515625 -7.86865234375
24.453857421875 12.52490234375 -7.784423828125
14.780029296875 -16.57080078125 -7.5185546875
22.174072265625 27.7236328125 2.347900390625
25.66015625 18.614990234375 -6.657958984375
-12.87109375 -29.253173828125 -27.951416015625
25.565185546875 10.25 0.164794921875
23.302001953125 2.0947265625 -5.751953125
-13.5888671875 -29.04931640625 -26.20849609375
24.321044921875 12.662109375 -5.009521484375
22.0830078125 19.01806640625 -0.232177734375
-3.4443359375 -61.16455078125 -36.911865234375
15.323974609375 -32.46484375 -39.6572265625
-4.522216796875 -53.761474609375 -43.29150390625
4.934814453125 -50.35595703125 -48.8984375
27.34912109375 20.1318359375 -7.989990234375
10.07421875 -29.964599609375 -16.245849609375
24.651123046875 32.884033203125 -1.4619140625
21.6904296875 21.626953125 -0.796875
-2.17138671875 13.572021484375 21.197021484375
20.653076171875 -7.600341796875 -18.924560546875
21.404052734375 -3.983154296875 -15.8662109375
16.229248046875 1.663818359375 8.106201171875
12.015869140625 -14.6142578125 -4.663330078125
23.00830078125 20.59814453125 -2.135009765625
27.49462890625 26.949462890625 -6.501953125
21.833740234375 24.202880859375 1.54150390625
17.35107421875 -2.47314453125 2.707275390625
21.901123046875 -5.380859375 -2.542236328125
20.818603515625 25.119140625 2.7490234375
-2.0849609375 -55.29150390625 -43.94189453125
1.664794921875 10.027587890625 19.63916015625
13.29248046875 -5.48681640625 3.833251953125
22.118408203125 -0.46630859375 1.853759765625
-5.529541015625 -52.008544921875 -45.356689453125
16.095458984375 -27.4833984375 -37.505859375
25.43603515625 26.483642578125 -4.6826171875
18.916748046875 -22.3916015625 -21.47314453125
17.148193359375 25.76220703125 10.332763671875
18.737060546875 -19.794677734375 -22.580078125
14.733154296875 24.71484375 10.55322265625
17.614013671875 26.883056640625 7.831787109375
-0.439208984375 -60.2109375 -49.4189453125
28.130615234375 16.932373046875 -9.81689453125
10.08984375 -24.056884765625 -10.728759765625
20.89208984375 -3.353271484375 -22.252197265625
2.108154296875 -64.474853515625 -43.440185546875
24.529052734375 30.227783203125 -2.01513671875
15.090576171875 -36.5966796875 -35.292236328125
-7.744384765625 -82.849853515625 -57.716552734375
20.54248046875 -10.301025390625 -16.740478515625
6.37158203125 -58.16015625 -45.078125
-1.670654296875 19.476318359375 17.772705078125
15.880126953125 -34.8642578125 -32.893310546875
21.145263671875 32.88134765625 5.7255859375
22.326416015625 26.244873046875 1.559326171875
15.23388671875 -43.581787109375 -32.3369140625
4.2470703125 -61.917724609375 -43.720703125
15.233642578125 -14.12060546875 -6.117431640625
19.09619140625 -13.6982421875 -28.059814453125
0.2919921875 24.057373046875 16.036865234375
19.6220703125 -9.1328125 -25.385986328125
15.05322265625 -34.231689453125 -37.423095703125
-1.830078125 -51.56982421875 -49.78564453125
16.99755859375 -30.083251953125 -27.062744140625
16.161376953125 -24.629150390625 -37.285400390625
11.514892578125 -44.479736328125 -65.3720703125
24.8642578125 15.25146484375 -9.1552734375
3.8388671875 -68.695068359375 -55.12548828125
15.81201171875 -46.43115234375 -61.3896484375
7.24462890625 -50.952880859375 -48.046142578125
21.38671875 28.79541015625 4.763427734375
20.269287109375 28.5283203125 8.762451171875
-2.3583984375 16.4248046875 18.394775390625
19.48388671875 -13.8369140625 -19.6875
-6.562744140625 -84.755615234375 -55.68310546875
17.187744140625 -30.890625 -24.19775390625
23.134033203125 -1.7763671875 -2.987060546875
16.24072265625 -32.3408203125 -33.76513671875
8.55322265625 -47.931396484375 -65.610595703125
22.703369140625 -3.379638671875 -2.6357421875
14.27294921875 24.79541015625 8.112548828125
-2.4111328125 19.004638671875 20.671875
4.203125 -71.49853515625 -52.0771484375
-2.169677734375 16.057861328125 23.031005859375
10.872314453125 -19.96142578125 -7.768798828125
17.67041015625 -18.647705078125 -29.344482421875
16.451416015625 -34.327392578125 -29.814208984375
13.188232421875 -46.08154296875 -63.60400390625
18.183349609375 -28.465576171875 -22.485107421875
22.162353515625 37.61376953125 2.586669921875
3.129638671875 -50.360595703125 -51.4580078125
4.3515625 -63.02587890625 -42.197021484375
16.146484375 -36.27978515625 -30.470947265625
-2.812744140625 20.787109375 22.739013671875
23.502197265625 9.182861328125 -10.234375
8.321533203125 -59.43310546875 -43.4765625
15.220947265625 -30.890380859375 -41.20361328125
19.475341796875 -15.142333984375 -21.451171875
6.27783203125 -49.802978515625 -50.62939453125
-3.267578125 12.12109375 18.821044921875
1.296875 -52.50244140625 -54.861328125
0.263427734375 -62.091796875 -48.1533203125
2.37646484375 -50.862548828125 -54.53564453125
-1.34619140625 -60.17724609375 -52.4541015625
0.840576171875 -63.65576171875 -45.842529296875
15.2685546875 -36.687744140625 -33.41943359375
21.6005859375 -4.875 -11.21630859375
15.544189453125 -29.65478515625 -39.50146484375
-0.25634765625 -54.16357421875 -55.9404296875
20.136474609375 -9.177734375 -27.04443359375
-1.142333984375 -53.342529296875 -52.018310546875
1.966796875 -51.6044921875 -52.265869140625
16.130126953125 -27.30712890625 -34.61962890625
15.586181640625 25.63525390625 5.2900390625
15.243896484375 -39.231689453125 -36.12841796875
14.659912109375 -38.369873046875 -39.3486328125
18.026123046875 -16.159912109375 -30.208984375
15.608642578125 -38.716552734375 -31.46435546875
17.623779296875 -20.596923828125 -27.714111328125
15.264404296875 -38.314697265625 -34.25732421875
16.60888671875 -27.09912109375 -39.251220703125
23.64990234375 32.24169921875 0.80029296875
15.338623046875 -35.273193359375 -39.438720703125
21.344482421875 -9.67626953125 -10.62451171875
-3.22900390625 14.758544921875 19.3603515625
18.124755859375 -24.49658203125 -25.686767578125
2.62939453125 -62.46240234375 -44.3515625
22.593994140625 6.6669921875 -15.114013671875
16.755615234375 -32.380126953125 -29.1591796875
18.732177734375 -23.401611328125 -17.974365234375
21.230224609375 -1.252197265625 -16.05419921875
18.8515625 -14.565185546875 -30.2587890625
19.114501953125 -14.863037109375 -27.010498046875
16.31689453125 -29.2607421875 -32.605224609375
17.180419921875 -19.7421875 -32.861328125
18.09423828125 -23.076171875 -27.7158203125
13.0166015625 -16.307861328125 -6.77001953125
-7.9677734375 -49.977294921875 -40.8134765625
14.832763671875 -33.392333984375 -42.288330078125
19.584228515625 -16.48486328125 -19.012451171875
18.58154296875 -16.32177734375 -28.0634765625
18.763427734375 -17.801513671875 -26.1064453125
18.85986328125 -11.693115234375 -27.6513671875
11.623779296875 -17.1826171875 -6.531005859375
-6.764404296875 -47.979248046875 -40.599609375
19.180419921875 -21.555419921875 -17.40625
19.262939453125 -16.3134765625 -20.772216796875
19.70361328125 -19.187255859375 -16.4521484375
24.37841796875 9.44091796875 -1.0625
8.991943359375 -28.7216796875 -14.457763671875
0.96728515625 -58.075927734375 -44.812744140625
15.529296875 19.931396484375 4.61669921875
-5.787109375 -49.0146484375 -39.560791015625
15.60009765625 -33.19921875 -36.307861328125
19.17333984375 -24.46240234375 -19.972900390625
23.09814453125 0.50341796875 -5.041259765625
25.01220703125 12.170166015625 -2.073486328125
20.417724609375 -12.2978515625 -15.554931640625
-2.201171875 12.169921875 20.517822265625
-1.461669921875 12.009765625 22.793701171875
21.37255859375 -11.079345703125 -8.639404296875
5.264404296875 -49.218017578125 -51.646728515625
20.830322265625 -14.205078125 -13.212646484375
19.58349609375 -10.87255859375 -22.842041015625
20.328369140625 -14.403076171875 -10.6376953125
21.0771484375 -8.02734375 -13.927490234375
20.347900390625 -5.947998046875 -18.0068359375
21.495849609375 -0.14208984375 -19.078369140625
21.93017578125 -5.754150390625 -8.4951171875
22.271484375 -3.5078125 -10.2578125
22.313232421875 -1.149658203125 -11.90087890625
24.78955078125 17.950927734375 -4.406005859375
15.67041015625 -28.71923828125 -35.251220703125
16.396240234375 -34.896728515625 -28.286865234375
21.58056640625 -4.36279296875 -13.114501953125
15.782470703125 -34.227294921875 -34.360107421875
23.9296875 8.193603515625 -3.46337890625
11.55517578125 -23.319091796875 -11.45703125
5.22900390625 -72.10986328125 -51.047119140625
22.271484375 3.281005859375 -12.324951171875
6.911865234375 -50.423828125 -66.10595703125
6.21142578125 -51.66455078125 -66.16259765625
3.541259765625 -49.61669921875 -53.726318359375
23.771240234375 4.703857421875 1.0595703125
21.949951171875 -6.263671875 -6.605712890625
21.307861328125 -9.030029296875 -5.583984375
21.230712890625 -7.3779296875 -4.341064453125
-9.443603515625 -85.651611328125 -57.645751953125
21.440673828125 30.380126953125 4.124267578125
22.48974609375 -0.2744140625 -7.452880859375
17.07177734375 -26.589111328125 -32.22509765625
21.54638671875 -1.43359375 -14.317138671875
13.040283203125 -8.248779296875 1.072998046875
-0.537841796875 -59.176513671875 -47.442138671875
22.33251953125 2.796142578125 -14.616943359375
25.31396484375 14.490966796875 -10.18505859375
21.033447265625 30.1435546875 6.9560546875
11.89306640625 -12.838134765625 -2.960205078125
7.663818359375 -49.731201171875 -50.3486328125
23.710205078125 10.94580078125 -10.04541015625
21.81787109375 -5.636962890625 -3.854736328125
24.435791015625 8.619384765625 -5.088623046875
17.725341796875 -25.324462890625 -27.82421875
-3.13818359375 -56.12646484375 -46.8037109375
23.5732421875 0.819580078125 -0.7099609375
22.739990234375 3.2255859375 -9.7578125
-2.166015625 -54.50048828125 -50.4052734375
1.513427734375 -61.239501953125 -46.8603515625
19.65087890625 -11.649658203125 -24.2216796875
14.831787109375 -40.70263671875 -32.873046875
22.63330078125 -2.001220703125 -0.46923828125
0.292236328125 -63.40673828125 -40.111572265625
14.641357421875 -37.18310546875 -40.417724609375
2.785400390625 -50.306396484375 -49.785400390625
23.741943359375 7.87646484375 -9.74609375
25.56689453125 28.30859375 -4.033447265625
22.85302734375 33.718017578125 3.17626953125
17.114501953125 -29.865966796875 -30.0302734375
23.52392578125 3.7900390625 -3.738037109375
26.389892578125 19.66845703125 -7.07861328125
23.480224609375 17.4384765625 -1.994873046875
20.940673828125 31.19287109375 5.558349609375
-2.099853515625 12.18017578125 16.62890625
20.492431640625 24.81005859375 14.34130859375
24.8251953125 15.693603515625 -2.372314453125
20.349365234375 -11.5234375 -14.196044921875
20.6962890625 -13.10205078125 -10.46337890625
19.3564453125 -19.888427734375 -13.87744140625
0.44482421875 -51.602294921875 -52.46923828125
18.698974609375 -21.5322265625 -20.02880859375
18.00341796875 -24.265625 -22.784912109375
20.44140625 -5.3603515625 -23.744140625
-1.779296875 22.5517578125 20.4365234375
15.25537109375 24.309814453125 6.888916015625
24.802490234375 12.246337890625 0.265625
-2.0478515625 -55.7587890625 -51.3798828125
-4.795654296875 -48.191162109375 -38.664306640625
-2.029052734375 -56.945556640625 -50.310791015625
10.674072265625 -45.417236328125 -64.35205078125
21.747314453125 28.01708984375 12.601318359375
-3.202880859375 13.66552734375 18.1943359375
20.511474609375 -14.03271484375 -14.96044921875
20.45458984375 -2.805908203125 -20.226806640625
4.616943359375 -60.308349609375 -44.52587890625
18.969482421875 -13.040771484375 -25.20361328125
-13.19873046875 -26.0859375 -28.5087890625
18.847900390625 27.306884765625 9.473388671875
-2.8291015625 -63.27783203125 -38.539306640625
26.28759765625 22.537109375 -5.97705078125
15.9130859375 -28.527099609375 -40.262451171875
19.65380859375 -20.6689453125 -14.875
19.704345703125 -10.61669921875 -25.763671875
-6.760986328125 -48.11865234375 -43.031982421875
-3.8330078125 -62.519775390625 -37.1044921875
23.524658203125 6.3671875 -10.87744140625
17.753173828125 -23.109619140625 -24.204833984375
22.455810546875 4.7724609375 -15.793212890625
20.82763671875 -7.52734375 -16.19921875
16.141357421875 22.435302734375 2.764404296875
25.37646484375 25.893310546875 -3.245849609375
15.059814453125 -18.43359375 -9.3095703125
20.456787109375 -10.5654296875 -18.08447265625
16.806884765625 -25.173583984375 -34.63916015625
21.015869140625 -3.156982421875 0.33447265625
24.775634765625 27.524169921875 -2.273193359375
3.064453125 -60.534912109375 -45.71142578125
24.2421875 6.158203125 -4.2919921875
21.166748046875 27.044677734375 11.197509765625
-7.79248046875 -84.861083984375 -56.03466796875
27.546630859375 22.308837890625 -7.847412109375
-0.361328125 -65.9873046875 -41.572265625
23.41552734375 4.3203125 -7.8642578125
15.619384765625 -44.41650390625 -63.467041015625
24.243896484375 8.184326171875 -0.871337890625
23.42529296875 7.88525390625 -12.36865234375
-10.887939453125 -83.53369140625 -61.075927734375
12.910400390625 -5.19140625 2.612548828125
-17.706787109375 -74.1767578125 -71.10205078125
-3.3984375 14.252197265625 20.76123046875
3.425537109375 -68.39501953125 -56.454833984375
21.388671875 -6.670166015625 -11.407958984375
9.90625 -47.466796875 -63.810546875
4.030517578125 -70.70068359375 -53.05712890625
20.533447265625 26.0703125 11.998779296875
15.71240234375 -25.8271484375 -36.968994140625
22.79833984375 3.807861328125 -11.22412109375
-1.34521484375 -63.0673828125 -39.306884765625
23.09033203125 2.632568359375 -3.43212890625
-3.233154296875 17.25390625 23.314453125
-3.522705078125 -52.053466796875 -48.372802734375
0.052490234375 24.870361328125 19.86279296875
27.45068359375 24.14453125 -7.54541015625
24.486083984375 10.078369140625 -6.631103515625
24.218505859375 3.305419921875 -0.791748046875
18.06298828125 -18.49365234375 -28.106201171875
-1.57177734375 -57.800048828125 -52.99560546875
18.292236328125 -19.406982421875 -21.4619140625
-3.271484375 18.569580078125 21.488525390625
0.145263671875 24.923095703125 18.124267578125
-1.976806640625 -60.3125 -35.26416015625
24.51513671875 14.50244140625 -6.64892578125
23.818115234375 9.172119140625 -7.62158203125
18.486328125 -17.072021484375 -23.18896484375
5.785400390625 -48.156005859375 -52.49169921875
23.918701171875 11.48046875 -11.56640625
18.959716796875 -17.303466796875 -21.488525390625
-2.5126953125 20.843505859375 21.34765625
2.546875 -51.650146484375 -53.568603515625
2.2060546875 -50.0751953125 -55.502685546875
0.04541015625 -63.29443359375 -47.4560546875
16.80078125 2.749267578125 7.751708984375
-0.9892578125 -55.94677734375 -54.429931640625
18.848388671875 -20.020751953125 -19.291015625
-1.411865234375 -55.49072265625 -53.233642578125
16.51318359375 -10.18310546875 -2.9423828125
15.264892578125 -40.887451171875 -35.022705078125
15.156005859375 -4.20654296875 2.01025390625
15.334716796875 0.576171875 5.915771484375
25.254150390625 12.440185546875 1.860107421875
15.128173828125 -41.534423828125 -33.923828125
15.4970703125 -31.62744140625 -37.8515625
-6.810791015625 -49.92431640625 -38.97265625
17.80615234375 23.95263671875 10.710205078125
20.398193359375 -5.558837890625 -20.41064453125
14.9775390625 -39.36279296875 -33.055419921875
19.8251953125 -10.0185546875 -20.672119140625
15.24462890625 -40.778564453125 -30.62841796875
12.658447265625 -8.39208984375 -0.10791015625
15.000732421875 -41.484130859375 -31.9130859375
19.75390625 -10.232177734375 -28.19921875
20.318359375 -16.3544921875 -13.2431640625
-2.922119140625 -54.934326171875 -47.494873046875
-2.662841796875 19.67626953125 23.651123046875
27.675048828125 17.689697265625 -8.7861328125
18.591796875 26.0830078125 4.88525390625
-3.078125 -49.767822265625 -46.29052734375
-3.304931640625 16.772216796875 20.86083984375
-0.38037109375 12.447509765625 22.313720703125
17.23974609375 -27.365478515625 -31.271728515625
15.114990234375 26.19384765625 7.61328125
17.44287109375 -26.829833984375 -26.59814453125
19.32080078125 28.01220703125 7.011962890625
21.2587890625 -0.97314453125 -21.233154296875
17.64404296875 -29.483642578125 -23.578369140625
-5.1904296875 -49.109375 -44.752197265625
22.295166015625 -4.464599609375 -8.322509765625
21.139404296875 -1.693115234375 -18.30224609375
20.6484375 -1.86083984375 1.7119140625
13.690185546875 -14.940185546875 -5.821044921875
20.99755859375 25.726806640625 15.3408203125
21.7646484375 26.914794921875 13.594482421875
18.46435546875 24.98291015625 12.511474609375
22.575439453125 32.54541015625 3.419921875
17.384765625 -11.8037109375 -4.98681640625
25.157470703125 16.96923828125 -6.725830078125
16.668212890625 -33.548095703125 -24.197265625
19.219970703125 -18.7060546875 -19.110595703125
19.5517578125 -20.239990234375 -17.2265625
11.728515625 -15.828857421875 -4.415771484375
19.68896484375 -18.48193359375 -17.45556640625
17.7958984375 -0.521728515625 4.11376953125
18.71533203125 -18.1748046875 -23.6689453125
19.772705078125 -16.646728515625 -15.315673828125
15.483154296875 2.002685546875 6.592529296875
22.770751953125 24.077392578125 -0.171142578125
20.105712890625 -13.0263671875 -17.2216796875
20.208984375 -9.42041015625 -19.490966796875
24.02197265625 10.142578125 -9.181884765625
20.453369140625 24.1455078125 1.6748046875
20.4130859375 -7.354736328125 -20.248291015625
17.7568359375 -21.071533203125 -29.653076171875
20.446044921875 -12.607421875 -12.73193359375
13.277099609375 -11.52001953125 -3.237548828125
20.967041015625 -10.72021484375 -11.75
12.71240234375 -25.126708984375 -13.673583984375
20.874267578125 -10.086181640625 -13.16943359375
21.09130859375 -8.730224609375 -12.932861328125
11.010498046875 -25.875 -13.30126953125
21.5224609375 -6.663330078125 -13.326904296875
-1.044921875 -58.324462890625 -46.7412109375
22.29931640625 -0.44775390625 -12.89111328125
23.632080078125 2.0205078125 -1.31787109375
21.48681640625 -7.1123046875 -9.089599609375
-14.648193359375 -25.88330078125 -29.680419921875
22.393310546875 0.175048828125 -9.7587890625
-0.490234375 -51.262451171875 -50.50634765625
14.3837890625 -3.005126953125 4.458251953125
13.339111328125 -7.295166015625 1.750244140625
22.621337890625 0.812744140625 -8.54052734375
20.708251953125 -3.75732421875 -17.910888671875
6.1640625 -50.689697265625 -48.509033203125
-11.25732421875 -27.7373046875 -26.990478515625
14.330078125 -17.486572265625 -8.154296875
22.66943359375 0.15380859375 -2.992919921875
7.71044921875 -46.30908203125 -52.116943359375
9.530517578125 -50.59228515625 -49.242919921875
24.3544921875 3.94873046875 -1.827392578125
23.90771484375 27.11181640625 -0.97265625
23.517333984375 31.597900390625 1.812255859375
0.3408203125 26.00244140625 17.49853515625
-0.97607421875 15.648681640625 24.721435546875
14.80029296875 23.126708984375 4.569580078125
-1.55029296875 -57.475341796875 -46.042724609375
24.1552734375 31.26953125 -1.526123046875
21.810791015625 -5.435546875 -13.575439453125
25.744140625 24.939453125 -5.5498046875
23.586669921875 0.123291015625 0.268798828125
14.455810546875 -1.63525390625 4.729736328125
21.720458984375 -5.194580078125 -6.156005859375
23.783935546875 23.84619140625 -2.359375
-2.6728515625 15.9814453125 21.969970703125
23.054931640625 34.261962890625 1.708740234375
15.34521484375 -34.115966796875 -38.55419921875
22.3310546875 0.8603515625 2.074951171875
-0.0859375 -54.951171875 -54.973388671875
17.691650390625 -22.52685546875 -36.257080078125
0.3291015625 -49.970458984375 -48.03955078125
21.3076171875 -0.074951171875 2.6025390625
-11.77685546875 -82.771484375 -63.193115234375
20.58984375 32.530029296875 7.74267578125
19.55078125 -0.736328125 3.406005859375
21.0322265625 31.138916015625 7.721435546875
20.988037109375 29.296875 9.26171875
15.76953125 26.223876953125 8.65478515625
0.1923828125 22.36865234375 17.970947265625
21.29052734375 30.09375 11.670166015625
20.908203125 30.656005859375 9.576171875
23.715087890625 9.277099609375 -11.714599609375
26.52978515625 27.3359375 -5.6845703125
16.315185546875 -37.05908203125 -29.513916015625
14.576416015625 25.439208984375 9.663330078125
1.059326171875 21.99072265625 17.2392578125
-2.67724609375 17.445556640625 18.833984375
20.88720703125 22.400146484375 -0.097900390625
13.781494140625 -3.1552734375 2.92919921875
15.239990234375 -34.6337890625 -40.91552734375
3.120849609375 -64.112548828125 -42.48779296875
15.13525390625 -42.94677734375 -33.809814453125
22.390380859375 0.418212890625 -19.534423828125
15.6875 19.200439453125 5.514404296875
14.67041015625 20.64208984375 4.89453125
-4.92333984375 -52.99609375 -44.615966796875
16.70703125 23.51513671875 2.412109375
18.87841796875 -24.12890625 -18.920166015625
-1.208740234375 -59.60791015625 -50.05908203125
-7.80126953125 -50.746826171875 -39.868408203125
18.228515625 26.07275390625 11.172607421875
-9.6279296875 -82.884765625 -62.320556640625
0.7919921875 -50.80126953125 -50.708740234375
16.11474609375 -32.77099609375 -31.7255859375
17.786865234375 -26.571533203125 -22.9521484375
23.9541015625 21.05908203125 -3.031005859375
-5.977294921875 -48.613037109375 -43.890380859375
17.871826171875 -18.793212890625 -31.82763671875
18.7919921875 23.7587890625 1.962158203125
23.861572265625 2.83447265625 0.7705078125
-4.606201171875 -85.325927734375 -56.701171875
17.05322265625 -25.4140625 -33.283935546875
-1.07958984375 -64.888916015625 -40.295654296875
-10.175537109375 -83.990478515625 -59.903564453125
-3.033447265625 19.146484375 22.594482421875
16.4873046875 -0.470703125 4.653564453125
-1.814453125 19.943603515625 19.90185546875
15.5751953125 -28.54443359375 -36.6787109375
20.248779296875 -9.98974609375 -15.702392578125
17.09130859375 -30.256103515625 -25.649169921875
-2.748779296875 20.038330078125 25.324951171875
-4.1552734375 -53.266845703125 -46.47509765625
21.4072265625 25.5302734375 12.58740234375
12.7041015625 -18.373046875 -8.273681640625
21.700927734375 -8.125732421875 -11.400146484375
9.9091796875 -48.911376953125 -63.71923828125
12.70703125 -11.09814453125 -2.121826171875
3.62744140625 -58.5166015625 -44.650146484375
17.062744140625 -1.30615234375 3.604248046875
20.539794921875 -14.339111328125 -12.13623046875
25.716796875 27.674072265625 -4.927734375
-1.626953125 15.227783203125 25.870361328125
18.76171875 -16.231689453125 -25.294189453125
4.267822265625 -72.642333984375 -52.54150390625
4.84521484375 -68.094970703125 -55.18701171875
19.308837890625 27.275146484375 5.340576171875
-5.937255859375 -85.306396484375 -54.963623046875
23.9765625 35.427734375 -0.126953125
-15.2734375 -27.281982421875 -28.7919921875
20.74853515625 26.23046875 3.984130859375
-0.216796875 14.21435546875 22.89453125
24.915283203125 19.462646484375 -5.524169921875
7.302734375 -58.35888671875 -44.538330078125
-11.375732421875 -84.534912109375 -61.77490234375
0.663330078125 -66.2822265625 -43.06884765625
22.54248046875 35.905517578125 3.060546875
21.358154296875 0.28564453125 -17.19140625
15.208984375 -37.330322265625 -38.2275390625
22.263916015625 36.29638671875 4.888671875
20.599365234375 -8.62890625 -17.395263671875
-13.0791015625 -81.9931640625 -64.053466796875
14.83935546875 -35.892578125 -36.6943359375
19.7333984375 27.0849609375 11.76416015625
22.43359375 1.89990234375 -12.258056640625
17.14794921875 24.963623046875 3.839111328125
22.225830078125 1.372802734375 -10.72900390625
-14.028076171875 -81.548583984375 -65.602294921875
20.451171875 -3.4423828125 -21.103271484375
-1.654541015625 -50.93505859375 -48.927490234375
15.751220703125 -30.71728515625 -35.61083984375
16.173095703125 -38.862060546875 -29.291015625
26.2275390625 21.18310546875 -6.261474609375
22.60888671875 26.416015625 0.5341796875
11.8701171875 -20.78564453125 -9.9833984375
17.167236328125 26.704833984375 6.27978515625
23.211669921875 2.729248046875 -7.154052734375
19.635986328125 -18.398681640625 -15.085693359375
24.95458984375 23.729248046875 -3.736572265625
24.330322265625 19.993408203125 -3.526123046875
17.319580078125 -19.550537109375 -33.90869140625
-8.251953125 -86.08740234375 -55.710693359375
17.933837890625 -17.551513671875 -32.445068359375
20.861572265625 -11.03125 -7.032958984375
-11.1357421875 -26.666748046875 -28.073974609375
15.1025390625 -41.516357421875 -35.872314453125
15.225341796875 -38.04638671875 -37.1962890625
17.809814453125 -18.45556640625 -30.385986328125
27.920166015625 15.438232421875 -10.94775390625
22.333740234375 3.421875 -13.753173828125
22.45703125 5.396240234375 -14.92822265625
22.078125 33.50732421875 5.7158203125
23.78369140625 8.365966796875 -13.95751953125
1.328125 -58.85498046875 -45.439208984375
20.749755859375 28.816162109375 6.341552734375
-7.37890625 -48.860107421875 -41.196044921875
7.407470703125 -48.071044921875 -51.836181640625
25.889892578125 17.418212890625 -7.9951171875
19.00341796875 22.5947265625 0.66748046875
15.102294921875 -38.93994140625 -35.1044921875
-1.906005859375 -56.701171875 -45.41796875
15.77294921875 -30.285400390625 -33.712646484375
17.812744140625 -20.494384765625 -31.171630859375
25.146240234375 13.423583984375 -2.263916015625
-7.578857421875 -48.783203125 -43.052001953125
27.26416015625 21.107421875 -7.601318359375
19.505615234375 -15.447998046875 -18.602783203125
9.901123046875 -26.4169921875 -13.21533203125
11.126953125 -22.481689453125 -10.415771484375
12.6943359375 -19.468994140625 -9.08740234375
23.63232421875 33.353515625 -0.20166015625
24.34423828125 18.69970703125 -3.394287109375
25.970703125 16.2666015625 -9.27880859375
26.99462890625 25.313720703125 -6.569580078125
16.810302734375 -21.988037109375 -32.975341796875
16.933837890625 -25.1796875 -30.349609375
22.1923828125 -1.865478515625 -9.00341796875
17.18212890625 -25.880126953125 -28.9619140625
-1.67236328125 -57.722900390625 -50.944580078125
16.918212890625 -24.46826171875 -31.36767578125
16.9833984375 -27.773193359375 -27.259765625
20.687744140625 -7.725341796875 -15.183349609375
24.01953125 7.559814453125 -2.071044921875
16.821533203125 -23.82958984375 -32.82421875
18.840087890625 -14.596435546875 -24.052734375
24.322021484375 12.05224609375 -5.85546875
17.839599609375 -25.5400390625 -24.50341796875
-0.268798828125 11.81982421875 21.48974609375
14.19287109375 -6.50341796875 0.3994140625
22.16162109375 18.051025390625 -0.609375
24.530517578125 22.1552734375 -3.39013671875
19.45361328125 -13.5283203125 -22.537353515625
17.817626953125 -29.581787109375 -21.73681640625
22.49267578125 21.279541015625 -1.543212890625
-0.86865234375 -59.19970703125 -51.767333984375
9.56103515625 -45.870849609375 -65.7705078125
18.8564453125 -13.908935546875 -29.36181640625
15.6337890625 -1.268310546875 5.991943359375
19.083251953125 -23.161376953125 -20.52783203125
-1.826416015625 -65.468994140625 -39.873291015625
-8.308837890625 -82.473876953125 -58.96630859375
-4.801513671875 -52.830810546875 -45.676513671875
17.746337890625 -27.85009765625 -20.4326171875
25.062255859375 15.008544921875 -1.04345703125
20.863525390625 33.124267578125 6.689453125
23.624755859375 10.531494140625 -12.261474609375
22.97509765625 25.205322265625 -0.824951171875
-0.197998046875 -56.307373046875 -43.3525390625
4.193603515625 -66.3447265625 -56.996337890625
24.760986328125 20.542236328125 -4.668701171875
0.7802734375 -53.085205078125 -54.04833984375
19.476318359375 -7.333740234375 -23.591064453125
-1.052734375 22.63037109375 19.7138671875
15.990478515625 -31.637451171875 -35.163330078125
-8.814697265625 -82.27001953125 -60.75048828125
-12.98974609375 -27.40966796875 -28.038818359375
19.549072265625 -11.960205078125 -19.422607421875
11.393798828125 -45.38427734375 -63.20703125
12.631103515625 -44.50634765625 -63.921630859375
22.791015625 1.494384765625 -5.01318359375
-13.06787109375 -24.1298828125 -29.664794921875
24.3720703125 13.509521484375 -7.395263671875
15.234619140625 -31.139892578125 -40.209716796875
-13.10546875 -28.032958984375 -26.995361328125
15.5791015625 -36.20068359375 -38.990966796875
4.5732421875 -49.967041015625 -51.736083984375
-1.328125 14.45458984375 24.57666015625
23.455078125 29.69287109375 0.7158203125
5.04345703125 -62.279541015625 -42.10498046875
-3.314453125 -54.71923828125 -45.32568359375
9.821533203125 -27.394287109375 -13.554931640625
1.53076171875 -62.910400390625 -45.751708984375
22.78369140625 -0.804443359375 1.15869140625
16.08056640625 -39.16357421875 -30.6787109375
15.768798828125 -33.979736328125 -35.34912109375
19.806884765625 -8.86181640625 -21.71435546875
8.81396484375 -48.239501953125 -50.546630859375
20.595458984375 -4.7763671875 -22.925537109375
-0.465576171875 -60.932373046875 -50.357177734375
-2.81396484375 11.040771484375 18.33154296875
0.801513671875 -64.26708984375 -40.801513671875
15.7265625 -30.6845703125 -37.552001953125
8.381103515625 -47.61474609375 -66.56103515625
15.155517578125 22.083984375 4.095458984375
16.251953125 -36.227783203125 -28.102783203125
14.809814453125 -44.048828125 -65.109619140625
14.8671875 -47.6884765625 -61.830078125
14.742431640625 -44.861328125 -64.508544921875
15.00244140625 -46.0634765625 -63.031982421875
22.541748046875 -0.5087890625 -10.677490234375
7.8828125 -49.001708984375 -51.01416015625
5.278076171875 -68.629150390625 -52.83544921875
12.297119140625 -10.54345703125 -0.18359375
21.8193359375 28.0771484375 3.782958984375
-2.873779296875 -48.439208984375 -44.519775390625
20.364501953125 -12.028076171875 -29.279541015625
17.009033203125 -31.935791015625 -26.905029296875
23.784423828125 16.475830078125 -2.019287109375
22.262939453125 -4.72900390625 -3.222412109375
15.009033203125 -33.01953125 -40.43896484375
9.53271484375 -49.5771484375 -62.965087890625
21.68212890625 25.6865234375 2.33056640625
3.397216796875 -71.132568359375 -53.71240234375
8.48583984375 -48.740478515625 -65.012451171875
2.74462890625 -70.3564453125 -55.45556640625
5.645263671875 -51.28759765625 -67.416015625
4.405029296875 -69.072021484375 -53.8720703125
6.89306640625 -49.216064453125 -67.194091796875
4.75 -70.667724609375 -51.912109375
10.606689453125 -46.22607421875 -63.753662109375
9.10009765625 -47.1005859375 -65.445556640625
13.380859375 -7.794921875 -0.479248046875
16.578857421875 -26.109619140625 -34.93603515625
20.828369140625 -12.00927734375 -11.56103515625
16.977783203125 -30.513427734375 -28.943359375
17.234619140625 -28.934326171875 -25.833740234375
5.9462890625 -51.41650390625 -47.84619140625
17.737548828125 -25.574462890625 -26.84765625
16.8955078125 -32.611083984375 -23.9072265625
15.177490234375 -37.455322265625 -34.77490234375
-9.03076171875 -82.996337890625 -60.076904296875
16.14111328125 -37.43603515625 -31.34130859375
-8.3759765625 -83.280517578125 -58.36962890625
23.306884765625 37.953125 1.198486328125
-9.37646484375 -84.84521484375 -58.2421875
-8.11376953125 -83.984130859375 -56.93603515625
22.92138671875 5.77880859375 -12.39794921875
0.273681640625 -67.17724609375 -43.302734375
0.298095703125 24.216552734375 18.9921875
24.18212890625 6.194580078125 -1.994140625
23.19873046875 4.67236328125 -6.432861328125
10.712646484375 -20.549560546875 -8.564697265625
23.69189453125 6.413818359375 -8.198486328125
17.0556640625 -22.229248046875 -31.62548828125
12.582763671875 -9.33740234375 -0.430908203125
17.85205078125 -27.380615234375 -24.34326171875
23.427734375 23.19091796875 -1.69140625
17.867919921875 -24.00634765625 -28.00732421875
18.1064453125 -23.3271484375 -26.740234375
15.757080078125 -29.572021484375 -34.736083984375
18.974853515625 -20.697021484375 -22.13134765625
7.779296875 -60.256591796875 -43.64013671875
16.25390625 -30.5126953125 -31.984375
8.644775390625 -59.81787109375 -42.612548828125
-2.510498046875 18.97265625 24.51513671875
6.609130859375 -60.547119140625 -44.52392578125
-6.313720703125 -51.0380859375 -44.52685546875
22.25341796875 -2.361572265625 -11.29052734375
5.544921875 -61.947998046875 -43.879638671875
8.78515625 -51.43115234375 -47.800048828125
8.138916015625 -50.186279296875 -49.5595703125
0.8916015625 24.593994140625 15.30712890625
18.58349609375 -26.50390625 -19.513427734375
-2.273193359375 21.825439453125 22.4052734375
16.787109375 -33.802978515625 -27.1181640625
17.94482421875 -27.554931640625 -22.935791015625
2.8642578125 -63.41015625 -43.90380859375
9.40380859375 -30.69482421875 -16.341796875
18.240234375 -16.554443359375 -31.715087890625
23.7294921875 31.295654296875 0.42724609375
4.77197265625 -48.04736328125 -53.474365234375
18.27197265625 -20.9345703125 -24.165283203125
2.041748046875 -65.273193359375 -42.849609375
0.8896484375 -51.725830078125 -56.205078125
-0.4267578125 -53.376220703125 -56.907470703125
-1.1845703125 -55.39892578125 -56.373291015625
-0.75 -62.93310546875 -49.069580078125
21.639404296875 31.91845703125 3.431396484375
0.32958984375 -61.29345703125 -48.74365234375
-1.024169921875 -60.560302734375 -51.593994140625
-0.239013671875 -65.29541015625 -46.16845703125
-1.686767578125 -58.6025390625 -54.388427734375
0.671875 -52.928466796875 -55.5078125
0.888427734375 -61.66552734375 -47.5068359375
-0.92041015625 -62.145751953125 -50.03662109375
3.86328125 -49.99951171875 -52.865966796875
1.836669921875 -51.6826171875 -54.698486328125
3.00146484375 -50.4365234375 -53.88916015625
-0.494384765625 -64.1142578125 -47.618896484375
17.800537109375 -17.083740234375 -30.501220703125
2.46337890625 -59.76171875 -45.458740234375
24.34521484375 9.869384765625 -5.636962890625
16.805908203125 -27.21142578125 -29.1494140625
25.27978515625 28.134521484375 -2.99755859375
1.447021484375 -62.03759765625 -46.27001953125
22.499267578125 34.6318359375 5.418701171875
18.73681640625 -14.15869140625 -26.421142578125
16.9111328125 -29.2333984375 -27.578125
-1.30810546875 -57.072509765625 -51.679931640625
-0.571044921875 -53.865966796875 -53.2841796875
-1.865478515625 -56.701416015625 -52.913818359375
19.668212890625 -14.655517578125 -16.869140625
17.7470703125 -23.7763671875 -25.096923828125
24.654296875 13.322998046875 -10.238525390625
19.761474609375 -16.394775390625 -16.274658203125
1.589599609375 -57.6513671875 -44.1689453125
19.647216796875 -18.6494140625 -14.127197265625
4.16064453125 -50.235595703125 -49.5048828125
-1.7646484375 -53.7666015625 -52.662109375
-0.60498046875 -52.526123046875 -51.856201171875
25.0478515625 11.302001953125 2.52001953125
18.965087890625 -24.97119140625 -18.40625
14.996826171875 -39.467041015625 -37.4599609375
18.093505859375 -19.91259765625 -26.082275390625
-0.244873046875 -64.222412109375 -40.273681640625
15.15283203125 -33.773193359375 -41.4326171875
23.18017578125 27.504638671875 0.1787109375
20.6064453125 32.41943359375 9.495849609375
22.966064453125 -1.209228515625 -4.806396484375
24.3330078125 28.834228515625 -0.444091796875
24.753173828125 13.815185546875 -5.314208984375
18.635498046875 -12.611328125 -27.941162109375
18.64599609375 -22.56103515625 -18.487548828125
15.311279296875 -42.560791015625 -31.9716796875
22.11669921875 -3.412109375 -1.4697265625
15.258056640625 -33.25732421875 -39.071044921875
21.393798828125 -3.72607421875 -16.81982421875
18.87158203125 -11.94873046875 -26.682373046875
-1.618896484375 18.5517578125 17.429931640625
16.01904296875 -28.487548828125 -37.8740234375
20.8662109375 33.69580078125 7.499267578125
-4.58349609375 -51.175048828125 -46.398681640625
19.912109375 -17.563232421875 -17.172119140625
18.898193359375 -18.5361328125 -20.872314453125
18.953125 -19.076171875 -23.220947265625
-3.626220703125 -54.96630859375 -48.614990234375
15.665771484375 -32.407958984375 -36.89306640625
15.318115234375 -35.182861328125 -35.03125
21.457275390625 -1.191162109375 1.7548828125
16.01171875 -33.283447265625 -34.0625
-1.3310546875 -50.371826171875 -48.142822265625
16.119873046875 -35.78759765625 -32.44384765625
-6.435302734375 -47.09912109375 -42.294921875
11.927001953125 -16.21240234375 -5.841064453125
24.267333984375 11.031982421875 -4.360595703125
15.97802734375 -31.9033203125 -42.480224609375
16.041015625 -34.244384765625 -32.050537109375
22.9814453125 -0.027099609375 -1.281494140625
18.0185546875 -24.9736328125 -21.7744140625
23.759521484375 7.97265625 -7.01513671875
17.87646484375 -26.287109375 -21.588623046875
15.177978515625 -40.025634765625 -35.541259765625
15.948974609375 -32.457763671875 -32.643310546875
22.782958984375 -1.4296875 0.317138671875
-1.897216796875 -49.8583984375 -46.895263671875
12.462158203125 -13.263671875 -4.078369140625
16.13330078125 -33.948974609375 -30.664306640625
19.84521484375 -8.219482421875 -25.098388671875
-4.173828125 -52.089111328125 -47.5361328125
17.10302734375 -23.91357421875 -34.887451171875
23.54638671875 2.21337890625 -2.6689453125
22.504638671875 1.152587890625 -13.603759765625
21.646484375 -2.959716796875 -12.818115234375
16.529296875 -27.610595703125 -33.331298828125
16.0703125 -35.20361328125 -30.0419921875
-1.060791015625 -59.093505859375 -34.837158203125
-2.892822265625 -61.53173828125 -35.691162109375
-2.827392578125 -60.743896484375 -36.27392578125
-2.294677734375 -59.9345703125 -36.113037109375
19.350830078125 -21.661376953125 -15.585693359375
16.42529296875 -35.853759765625 -26.28515625
16.500732421875 -30.750244140625 -30.62939453125
20.259033203125 -7.9404296875 -21.064208984375
16.62890625 -28.711669921875 -31.832763671875
20.25732421875 -16.475830078125 -11.801025390625
20.7705078125 23.975341796875 12.582763671875
24.036865234375 7.0419921875 -0.208984375
19.43701171875 -10.16650390625 -21.8955078125
19.64111328125 -9.193603515625 -23.49560546875
17.189697265625 -28.864501953125 -29.669677734375
16.375 -33.254638671875 -29.386474609375
16.43798828125 -32.002197265625 -30.008056640625
15.030029296875 -32.115478515625 -38.561767578125
22.980712890625 6.984130859375 -13.005615234375
13.353271484375 -4.298583984375 3.2314453125
15.71044921875 -29.969482421875 -38.579345703125
16.716552734375 -21.80859375 -34.39453125
15.587646484375 -37.0673828125 -32.567138671875
15.06494140625 -34.011962890625 -36.46923828125
21.88037109375 -7.2216796875 -6.938720703125
20.43115234375 -8.509765625 -19.20751953125
17.3720703125 -22.60546875 -30.7802734375
26.1259765625 24.042236328125 -5.164306640625
19.537109375 -12.807373046875 -21.223876953125
17.49658203125 -20.118408203125 -32.0166015625
17.552001953125 -23.63037109375 -28.852294921875
17.39306640625 -28.32373046875 -25.0029296875
18.05126953125 -19.819091796875 -29.9013671875
17.684814453125 -26.607666015625 -25.29248046875
14.989013671875 -39.13916015625 -32.10498046875
22.119873046875 23.94580078125 0.56005859375
22.0029296875 -3.531005859375 -6.44873046875
17.432861328125 -31.126953125 -22.85302734375
24.071533203125 12.216796875 -9.87353515625
3.4775390625 -74.952880859375 -52.98876953125
20.1142578125 -15.115234375 -10.007080078125
17.697265625 -25.26708984375 -23.50634765625
16.6259765625 -24.145263671875 -36.57861328125
-1.52783203125 -58.7490234375 -50.950927734375
-7.314208984375 -51.571533203125 -40.545654296875
15.369873046875 -32.57666015625 -42.126220703125
20.713623046875 -13.1572265625 -8.6064453125
18.538330078125 -18.725341796875 -26.39599609375
18.843505859375 -23.3798828125 -21.82421875
-8.0849609375 -50.286865234375 -42.195556640625
18.36181640625 -22.234619140625 -23.612060546875
22.689697265625 -2.681640625 -3.618408203125
16.955078125 -34.579833984375 -26.164306640625
18.828369140625 -17.02099609375 -26.683837890625
18.88330078125 -20.517822265625 -23.532958984375
17.434326171875 -21.361572265625 -31.3984375
-6.236572265625 -47.177734375 -40.440185546875
21.524169921875 -1.550537109375 -17.08837890625
22.990478515625 3.52392578125 -5.76708984375
21.426025390625 -5.580322265625 -14.7880859375
18.75341796875 -22.0791015625 -22.378173828125
20.384765625 -9.34375 -16.76171875
18.7021484375 -16.353759765625 -23.8291015625
20.077880859375 -16.11328125 -14.565185546875
22.206298828125 -2.5654296875 -8.016357421875
19.162109375 -20.39404296875 -18.452880859375
19.494140625 -21.9287109375 -16.56787109375
17.685791015625 -19.357666015625 -28.331298828125
16.4619140625 -34.1083984375 -28.8701171875
0.28173828125 -50.436767578125 -49.969970703125
19.125244140625 -12.447998046875 -24.38037109375
19.78857421875 -15.51513671875 -20.613525390625
-13.41259765625 -25.208251953125 -28.940673828125
-6.011962890625 -48.095703125 -40.000732421875
15.604736328125 22.26611328125 5.652587890625
19.638916015625 -19.964111328125 -15.877685546875
19.630615234375 -14.54833984375 -20.6318359375
23.992431640625 9.566162109375 -3.180908203125
22.03076171875 -4.928466796875 -4.478515625
18.418212890625 -16.007568359375 -28.970947265625
1.490234375 9.937255859375 21.0048828125
-5.85205078125 -49.795654296875 -38.983154296875
18.9580078125 -15.459716796875 -27.838623046875
17.179931640625 -29.07861328125 -30.612548828125
4.937744140625 -62.610107421875 -43.522216796875
19.76708984375 -1.970703125 2.093017578125
15.30517578125 20.76806640625 4.1767578125
19.746337890625 -16.797119140625 -18.11279296875
23.361572265625 4.541259765625 -4.660400390625
20.099609375 -17.722412109375 -13.48095703125
23.31591796875 5.2158203125 -10.2099609375
20.082763671875 -6.920166015625 -22.9638671875
19.8330078125 -11.267578125 -28.62060546875
18.609375 -20.236083984375 -20.58251953125
18.5927734375 -23.588623046875 -16.94775390625
19.988037109375 -14.82763671875 -15.118408203125
-1.902099609375 15.765869140625 17.858154296875
18.25048828125 27.016845703125 7.11962890625
21.2529296875 -7.314453125 -10.3564453125
19.4951171875 -14.09033203125 -18.726318359375
15.07861328125 24.296630859375 4.32666015625
20.57080078125 -10.6142578125 -13.916015625
-0.58251953125 -52.7646484375 -50.853759765625
1.39794921875 -64.50732421875 -44.570556640625
19.006103515625 -15.364013671875 -23.1103515625
20.475341796875 -15.111572265625 -11.56494140625
