4.482177734375 15.681396484375 3.889892578125
8.960205078125 -10.86669921875 -15.101318359375
4.177734375 -34.419677734375 -31.416015625
-8.566162109375 -81.078369140625 -58.03466796875
15.1787109375 10.684814453125 -1.034912109375
9.97802734375 -7.78369140625 -13.067138671875
11.718994140625 -3.588623046875 -10.39794921875
6.40478515625 -8.82763671875 -12.72802734375
15.924072265625 -43.2109375 -63.071533203125
13.854248046875 -53.300048828125 -52.61865234375
0.041748046875 29.1650390625 10.764404296875
-2.856689453125 26.359619140625 9.306396484375
-4.455322265625 -55.0830078125 -44.21142578125
11.6689453125 15.147216796875 3.5703125
8.30419921875 -32.606689453125 -31.89501953125
-10.421142578125 -83.07080078125 -61.395751953125
3.323486328125 7.832275390625 5.155517578125
14.043701171875 -49.422119140625 -56.450927734375
9.432861328125 -5.830078125 -11.29833984375
7.697265625 28.05859375 14.5400390625
-4.522705078125 -52.507568359375 -42.630615234375
-6.22607421875 -65.382080078125 -37.86767578125
10.655517578125 18.427001953125 6.3896484375
0.298828125 -39.615234375 -34.1845703125
-3.907958984375 17.8896484375 9.5693359375
8.74365234375 -27.25341796875 -27.433349609375
4.9599609375 -26.244140625 -25.413330078125
6.922607421875 -24.715576171875 -24.809814453125
11.3837890625 -49.467041015625 -58.74658203125
17.013427734375 25.21630859375 16.170166015625
5.327392578125 -32.419921875 -30.386474609375
21.902587890625 30.9990234375 4.491943359375
4.322021484375 27.016845703125 14.695068359375
4.881103515625 -57.1728515625 -59.187255859375
7.87109375 -19.925048828125 -21.49267578125
12.30712890625 -58.419189453125 -54.9658203125
14.9013671875 3.575439453125 -6.360107421875
12.77294921875 21.64794921875 8.22216796875
-8.24755859375 -61.096435546875 -45.003173828125
-0.533935546875 18.921142578125 9.531494140625
-7.156494140625 -49.031494140625 -52.4736328125
2.656494140625 -28.5830078125 -26.779052734375
-5.635009765625 -47.31103515625 -50.515625
-6.68701171875 24.727294921875 13.822998046875
9.74658203125 -56.850341796875 -57.623779296875
5.71923828125 -45.530029296875 -41.11474609375
5.506591796875 8.94873046875 2.907958984375
13.559814453125 -6.3486328125 -13.283203125
-7.77294921875 -55.28564453125 -43.599609375
8.89306640625 -64.2802734375 -52.485107421875
4.40966796875 -62.3525390625 -56.472412109375
-10.86865234375 -59.92236328125 -42.46875
16.255859375 23.448486328125 7.90478515625
-10.459228515625 -47.17431640625 -51.594970703125
2.7001953125 -38.079345703125 -33.6396484375
26.458984375 37.373779296875 3.38671875
6.811767578125 -42.19580078125 -39.04638671875
-8.062255859375 -45.962890625 -50.40087890625
2.97412109375 -66.49169921875 -48.436279296875
8.4736328125 -2.7265625 -8.97802734375
6.52587890625 -39.158447265625 -35.726806640625
-5.935302734375 -70.78369140625 -42.791259765625
-1.362548828125 -38.288330078125 -33.20849609375
12.016845703125 -7.851806640625 -13.797119140625
12.022216796875 -19.71728515625 -23.0224609375
-2.67431640625 -44.978759765625 -38.303466796875
-4.301513671875 -57.755859375 -46.71533203125
-2.453369140625 -41.988525390625 -35.51318359375
-10.514404296875 -58.20556640625 -45.85791015625
1.8359375 -46.46044921875 -39.36474609375
11.17578125 27.695556640625 13.318359375
9.34765625 20.235107421875 8.27392578125
-5.96435546875 21.469482421875 12.834716796875
-5.206298828125 -80.31640625 -53.728759765625
22.830078125 36.7802734375 2.056884765625
11.970947265625 -12.161376953125 -17.58935546875
15.9501953125 26.05322265625 8.00341796875
11.00390625 -10.94091796875 -15.837646484375
-6.58935546875 -83.955810546875 -53.528076171875
-15.235107421875 -45.449951171875 -47.414306640625
-8.241455078125 -62.359619140625 -41.108154296875
6.764892578125 -1.153076171875 -7.17236328125
3.532470703125 -45.3408203125 -39.69775390625
4.081787109375 -40.68310546875 -35.979736328125
8.1279296875 2.59814453125 -4.750244140625
-1.779541015625 -48.392333984375 -40.280517578125
11.2119140625 -60.73828125 -53.46923828125
8.544677734375 -43.1533203125 -40.211181640625
-10.0 -80.894287109375 -60.58642578125
5.842529296875 20.99169921875 9.636962890625
1.36328125 -65.957275390625 -56.42333984375
0.062255859375 -43.80517578125 -37.072998046875
-1.499267578125 -66.749755859375 -45.048583984375
-9.287109375 19.3701171875 12.28662109375
6.398193359375 24.18310546875 12.0419921875
2.060302734375 -25.69384765625 -24.09912109375
1.251953125 -61.496826171875 -57.916015625
4.620849609375 15.606689453125 5.875
-4.2998046875 24.051025390625 11.788818359375
9.8740234375 0.284423828125 -7.04833984375
-1.357177734375 23.625 11.732421875
-5.316162109375 -73.195068359375 -45.829833984375
-3.369384765625 -47.56640625 -52.763916015625
16.61328125 -49.756591796875 -53.68310546875
8.468994140625 -9.288818359375 -13.853759765625
13.95166015625 -51.92138671875 -56.369384765625
7.197509765625 -40.141357421875 -38.29150390625
8.836669921875 22.758544921875 10.007568359375
11.191650390625 4.029541015625 -4.3603515625
1.154541015625 25.70849609375 13.01171875
23.183837890625 -42.7978515625 -51.1015625
-5.92138671875 -81.298583984375 -55.267578125
2.22265625 -16.15087890625 -19.14111328125
13.658203125 -11.443603515625 -18.2939453125
13.52685546875 -0.574951171875 -8.65380859375
5.135009765625 -14.64892578125 -16.805908203125
15.405029296875 -46.781494140625 -59.891357421875
12.58447265625 -9.04443359375 -15.47119140625
6.358642578125 18.467529296875 7.77587890625
1.19189453125 -55.627685546875 -47.63232421875
11.509765625 -17.302001953125 -21.481201171875
10.248046875 24.15771484375 10.989013671875
11.756591796875 1.752197265625 -6.3388671875
-3.70947265625 14.417724609375 2.906494140625
-3.93212890625 -59.8515625 -47.0302734375
15.41259765625 7.32470703125 -3.553466796875
2.57373046875 23.846923828125 12.976318359375
8.30029296875 -37.2587890625 -36.52392578125
15.00146484375 -7.55322265625 -12.681396484375
2.864501953125 19.23046875 9.14111328125
7.99365234375 -55.728271484375 -60.28857421875
22.013427734375 -47.201416015625 -61.9228515625
17.4716796875 -48.7607421875 -56.80224609375
-12.359619140625 -45.18212890625 -47.654296875
0.857177734375 21.40185546875 11.099365234375
13.2412109375 -57.814453125 -52.235595703125
0.788330078125 -48.602783203125 -41.62255859375
4.068603515625 -65.46826171875 -54.3173828125
-3.641845703125 -81.15234375 -53.0791015625
3.072265625 -9.506103515625 -14.310791015625
6.8701171875 4.134521484375 -3.429443359375
13.56884765625 4.73193359375 -4.750732421875
-2.7548828125 -55.224365234375 -44.966796875
0.440185546875 -34.203125 -30.061279296875
1.786865234375 27.08740234375 14.33642578125
-7.570556640625 -43.937255859375 -50.544921875
6.314453125 -6.889404296875 -11.4326171875
-0.867431640625 -28.0625 -27.03125
-0.643798828125 -30.170166015625 -29.8369140625
9.6396484375 -61.162841796875 -54.395263671875
2.91015625 -56.31689453125 -60.085205078125
14.90576171875 -55.767578125 -51.6796875
16.246826171875 1.293701171875 -11.11962890625
24.118408203125 36.276611328125 3.515380859375
5.87646484375 1.1484375 -5.527099609375
25.05615234375 33.209716796875 4.211669921875
24.126953125 -44.149658203125 -52.1552734375
-0.553955078125 -57.991943359375 -47.400390625
14.850830078125 -40.25537109375 -63.890625
-11.928955078125 -42.283447265625 -46.756591796875
-2.563720703125 -57.930419921875 -47.78466796875
5.70654296875 -17.44287109375 -19.1396484375
5.042724609375 -42.45166015625 -37.84814453125
-7.1767578125 -52.057373046875 -48.893310546875
12.62353515625 -48.22802734375 -58.2333984375
0.1279296875 -36.258544921875 -31.518798828125
21.542724609375 30.485595703125 6.806640625
-11.150634765625 -78.334716796875 -60.743408203125
6.91552734375 -66.89599609375 -50.522216796875
5.917236328125 -65.783203125 -52.350830078125
15.0888671875 21.619873046875 7.755615234375
5.40869140625 -11.91357421875 -15.031982421875
11.840087890625 -55.803955078125 -53.8671875
24.274169921875 30.993896484375 3.88623046875
2.6494140625 -51.9462890625 -52.40185546875
12.872314453125 -15.3447265625 -19.2890625
5.965087890625 -50.531982421875 -59.4072265625
-9.177734375 -48.9697265625 -52.860107421875
0.704345703125 -31.330322265625 -27.9189453125
2.45751953125 -41.42822265625 -36.10791015625
6.32861328125 -27.95556640625 -27.423828125
6.62548828125 -58.702880859375 -56.51953125
7.856689453125 7.099853515625 -1.346435546875
3.597900390625 -23.3525390625 -23.032958984375
9.818603515625 -29.80029296875 -30.378662109375
-7.544921875 23.24609375 14.593505859375
-7.7265625 -57.4365234375 -44.894287109375
-8.747314453125 16.89599609375 9.580078125
8.613525390625 -25.607177734375 -25.911376953125
-0.89501953125 -68.6787109375 -43.615966796875
1.686279296875 -16.96533203125 -21.636474609375
2.279296875 -20.49609375 -20.95458984375
2.61669921875 -36.4052734375 -32.3779296875
-6.624755859375 -52.763916015625 -41.94580078125
6.3837890625 -52.265869140625 -59.91259765625
-2.197021484375 -43.618408203125 -54.92919921875
19.494140625 -48.587158203125 -53.020751953125
1.54541015625 -22.46044921875 -22.019287109375
2.04541015625 -12.207275390625 -16.36181640625
7.826416015625 -12.391357421875 -15.819580078125
-10.453125 26.88427734375 15.76220703125
-0.78515625 22.454345703125 12.898193359375
2.825927734375 -62.780029296875 -57.404052734375
5.39453125 -19.02294921875 -20.278076171875
9.478515625 12.2431640625 2.214111328125
7.285400390625 -16.713134765625 -19.010986328125
12.512939453125 25.945556640625 11.220458984375
19.782470703125 -52.53125 -49.921630859375
10.360595703125 -33.518310546875 -32.5146484375
-9.40087890625 -49.97216796875 -55.406982421875
14.96875 -42.26123046875 -61.9658203125
9.53515625 5.57177734375 -2.97998046875
-4.747802734375 -50.36376953125 -52.2802734375
9.8359375 -52.482421875 -60.7236328125
14.994384765625 -50.989013671875 -54.42626953125
-0.95703125 -55.44580078125 -46.639404296875
-8.189697265625 -51.711181640625 -55.747314453125
25.018798828125 -42.1005859375 -52.06689453125
7.461181640625 19.904052734375 8.31591796875
10.822509765625 -54.062744140625 -58.834716796875
-1.154296875 -66.663330078125 -60.611328125
11.454345703125 -4.7353515625 -11.65234375
0.103515625 -52.00439453125 -43.931396484375
-0.063232421875 -26.495849609375 -26.64892578125
12.51904296875 -53.721435546875 -58.85302734375
-7.72607421875 -82.45263671875 -58.63037109375
19.904052734375 -49.22705078125 -50.029052734375
12.88330078125 -61.247802734375 -53.614501953125
-10.20263671875 -55.1728515625 -43.604248046875
-8.817138671875 27.099609375 17.7939453125
16.5263671875 -42.032470703125 -64.16748046875
-2.699462890625 -66.29248046875 -41.12451171875
7.30419921875 -64.691650390625 -53.251708984375
11.806396484375 12.94482421875 1.96728515625
-0.89453125 -49.73388671875 -41.436767578125
6.975341796875 -32.50439453125 -30.811767578125
0.51318359375 -64.606689453125 -55.83154296875
17.250244140625 -54.508544921875 -50.16455078125
-3.32666015625 -51.2919921875 -41.99072265625
-0.051025390625 -64.404541015625 -58.373291015625
3.9892578125 -31.099609375 -28.772705078125
6.5615234375 -58.115234375 -59.48388671875
8.04150390625 -23.144775390625 -23.7880859375
-4.0 -56.408447265625 -45.156494140625
10.791015625 -45.308837890625 -59.677978515625
12.529052734375 19.4892578125 6.703369140625
14.1591796875 18.7529296875 5.606689453125
12.3076171875 16.584228515625 4.81689453125
2.68896484375 -60.002197265625 -59.16552734375
10.77294921875 -26.538330078125 -27.517333984375
-15.980712890625 -76.7744140625 -67.638427734375
-12.265869140625 -46.106201171875 -49.157470703125
1.059326171875 -29.31884765625 -26.9072265625
3.68359375 -25.3701171875 -24.3828125
9.400634765625 25.22509765625 12.062255859375
-0.848876953125 -42.466796875 -35.640380859375
6.72998046875 13.400634765625 3.3583984375
6.431640625 -54.88134765625 -61.111328125
15.093017578125 24.561767578125 8.418212890625
7.271484375 22.762451171875 10.606689453125
17.3525390625 -44.223388671875 -57.983642578125
6.903564453125 -43.4892578125 -40.20263671875
-0.78515625 16.7783203125 7.7744140625
9.490478515625 -31.43115234375 -31.41796875
1.6240234375 -33.032958984375 -29.587646484375
3.807373046875 23.1494140625 11.7177734375
-6.052978515625 15.4150390625 7.982421875
-7.17626953125 26.103271484375 15.546875
-8.5 -54.7919921875 -58.093505859375
13.0263671875 1.344482421875 -7.312744140625
7.47607421875 25.59765625 12.69873046875
-11.0048828125 21.984619140625 11.982666015625
-6.9345703125 17.568115234375 10.15185546875
8.007080078125 -34.261474609375 -33.231689453125
11.698974609375 -59.107177734375 -53.60205078125
-10.993408203125 -56.41796875 -44.320556640625
-6.0419921875 -50.85009765625 -43.138671875
-13.520263671875 -79.728759765625 -62.934326171875
19.0576171875 -44.305908203125 -58.147216796875
-7.793701171875 -53.587158203125 -42.74853515625
16.321044921875 -44.293212890625 -59.815673828125
17.453369140625 -47.694091796875 -59.630615234375
9.9931640625 -20.824951171875 -22.9296875
5.98779296875 -37.02734375 -33.955810546875
1.703857421875 -43.482177734375 -37.227783203125
3.415283203125 -44.025390625 -38.2470703125
15.056640625 -4.072021484375 -12.249267578125
1.335693359375 -26.884521484375 -25.05908203125
-2.56298828125 21.435791015625 11.969482421875
-2.0 18.231689453125 9.152587890625
-1.890625 25.9052734375 10.526123046875
5.797607421875 -4.56298828125 -9.68896484375
4.97607421875 -3.388427734375 -8.92919921875
11.751708984375 -51.1630859375 -58.77294921875
12.40576171875 -1.6904296875 -9.236328125
9.66943359375 21.676025390625 9.0517578125
28.589111328125 32.07763671875 3.3369140625
0.7705078125 -40.902587890625 -35.244140625
-6.71435546875 -50.350341796875 -53.289306640625
2.211181640625 -17.719970703125 -19.5078125
-1.427734375 -47.126220703125 -39.348876953125
12.65771484375 23.076171875 9.435302734375
9.129638671875 17.716552734375 6.387939453125
16.573974609375 -43.572021484375 -61.60888671875
12.7099609375 -16.16064453125 -21.29833984375
17.2333984375 -49.046142578125 -55.048583984375
13.506103515625 -56.874267578125 -50.7822265625
25.394775390625 35.947265625 2.5771484375
-8.889404296875 -41.712890625 -48.689697265625
-4.333251953125 19.331298828125 10.576171875
1.283935546875 -54.0166015625 -47.992431640625
9.94677734375 10.010498046875 0.9345703125
10.11181640625 15.171630859375 3.930908203125
-9.8515625 -44.9228515625 -48.277587890625
-5.91845703125 -62.78515625 -48.699951171875
1.47314453125 16.366943359375 7.447265625
11.738525390625 -61.700927734375 -54.620849609375
-6.444580078125 -48.5517578125 -51.09326171875
28.987060546875 36.69970703125 1.763916015625
12.09814453125 -18.147216796875 -23.215087890625
8.4892578125 -29.704345703125 -29.301025390625
20.122314453125 28.922607421875 8.4228515625
-0.8212890625 -31.296875 -28.50341796875
-7.290771484375 -84.097412109375 -54.935546875
19.808349609375 -46.8515625 -58.067626953125
14.99609375 -1.755859375 -11.236572265625
-0.228271484375 20.345458984375 10.55322265625
21.47314453125 -43.316162109375 -53.984130859375
29.384521484375 34.675048828125 3.651123046875
16.2275390625 -52.48291015625 -51.3984375
-0.3603515625 27.347900390625 10.505615234375
-3.410888671875 -48.3095703125 -40.135986328125
8.122802734375 -4.25 -9.6728515625
11.263427734375 -55.52685546875 -55.92626953125
8.667724609375 13.36669921875 2.93896484375
-10.07373046875 22.239013671875 13.9033203125
21.5556640625 -41.663330078125 -54.195556640625
6.081787109375 6.415771484375 -2.593994140625
5.07666015625 -63.100341796875 -55.185546875
2.90673828125 -33.931396484375 -30.63818359375
-14.5673828125 -77.775146484375 -64.6875
18.758056640625 -50.076416015625 -51.012939453125
27.1357421875 33.98974609375 3.2509765625
-10.198974609375 24.67822265625 16.1455078125
21.9716796875 32.875 4.430908203125
22.395751953125 34.364501953125 4.452392578125
13.4580078125 -44.2158203125 -60.527099609375
-12.658935546875 -77.60498046875 -62.364013671875
-11.673828125 -47.980712890625 -52.109130859375
4.205078125 -27.427490234375 -26.0927734375
0.941162109375 -51.944580078125 -47.982666015625
15.362060546875 -48.662353515625 -56.71826171875
-8.036865234375 26.047607421875 16.873291015625
-11.432373046875 20.1640625 11.973388671875
6.147705078125 15.57861328125 5.64599609375
4.854248046875 18.13134765625 7.76171875
-0.46923828125 -65.31787109375 -46.625
13.650634765625 15.123779296875 2.892822265625
-5.756103515625 -71.85498046875 -45.033935546875
10.66845703125 -51.2255859375 -60.286865234375
-12.781982421875 -80.94775390625 -62.255126953125
23.688720703125 -44.733642578125 -55.129150390625
10.984130859375 -24.093017578125 -25.374755859375
14.19140625 17.28076171875 5.01611328125
1.3212890625 -67.275634765625 -44.80322265625
4.946044921875 -60.331298828125 -56.936279296875
-8.928466796875 -58.240478515625 -45.400390625
5.062255859375 -35.3046875 -32.404052734375
4.7666015625 -22.201171875 -22.568359375
11.610595703125 -24.9765625 -27.419921875
26.12451171875 30.719970703125 1.723876953125
12.78076171875 -46.61474609375 -59.084716796875
13.588623046875 29.18115234375 12.31884765625
15.57373046875 29.560791015625 11.531005859375
4.7763671875 25.96533203125 13.689697265625
2.602294921875 -65.148193359375 -56.05859375
-5.768310546875 24.44384765625 11.872802734375
-11.1474609375 -80.102294921875 -61.488037109375
0.845947265625 -19.292724609375 -21.84716796875
0.4951171875 -22.061767578125 -23.09716796875
-6.6376953125 -43.21435546875 -51.498779296875
18.15869140625 -41.45166015625 -60.237060546875
5.456298828125 -55.597900390625 -60.12060546875
10.72705078125 -56.137939453125 -58.607421875
-7.364990234375 19.002685546875 11.27978515625
7.0576171875 8.61572265625 -0.62353515625
-5.335205078125 -64.26123046875 -38.34912109375
17.1845703125 -46.05029296875 -60.40478515625
3.5458984375 -14.5908203125 -16.545654296875
-0.3037109375 -64.117919921875 -59.8974609375
10.13916015625 -16.435302734375 -19.76513671875
18.732666015625 -47.9638671875 -56.59423828125
4.18212890625 -53.378173828125 -59.30712890625
13.0400390625 12.56298828125 1.1552734375
3.833740234375 -59.53466796875 -57.990234375
9.206298828125 -14.8095703125 -18.15185546875
-8.804443359375 -52.73046875 -58.555419921875
8.452392578125 9.67919921875 0.66357421875
-4.470947265625 22.16943359375 12.83935546875
6.868408203125 11.19873046875 1.62744140625
14.047607421875 -59.10986328125 -52.35205078125
10.966796875 -57.86669921875 -54.112548828125
-0.1484375 24.370361328125 11.044921875
4.175048828125 16.699951171875 6.78466796875
8.634033203125 -18.76123046875 -20.962646484375
10.161865234375 -63.505859375 -52.43505859375
1.32373046875 26.509033203125 11.74755859375
-4.564453125 -44.58203125 -52.157470703125
2.736083984375 8.62158203125 3.96826171875
-5.576416015625 14.7080078125 6.68896484375
-8.1396484375 -86.205322265625 -55.494873046875
23.826171875 -41.2333984375 -52.327880859375
3.93701171875 -29.8701171875 -27.94921875
23.00537109375 -43.739501953125 -53.02978515625
13.8271484375 24.16796875 9.3564453125
-4.754638671875 -46.127685546875 -50.71044921875
2.385498046875 -31.837890625 -28.901123046875
7.203125 17.74462890625 6.80029296875
-9.300537109375 -46.745361328125 -50.605224609375
5.5576171875 -29.54150390625 -28.09521484375
-7.98779296875 -60.10791015625 -47.478515625
-5.603271484375 -57.6220703125 -45.878662109375
-4.48193359375 -53.7998046875 -43.495361328125
-3.7412109375 14.656005859375 6.910888671875
12.628662109375 6.626708984375 -2.97314453125
5.184814453125 -8.0126953125 -12.018798828125
13.732177734375 2.46337890625 -6.538330078125
5.064453125 -5.693359375 -10.334716796875
9.57470703125 -50.4248046875 -61.5126953125
-3.857421875 16.44873046875 8.614501953125
10.22412109375 -34.84130859375 -35.0439453125
13.26611328125 8.851806640625 -1.459716796875
12.482177734375 -49.420166015625 -57.398193359375
10.030029296875 12.27001953125 0.86083984375
-6.80029296875 -46.465087890625 -50.927978515625
0.885009765625 -24.85595703125 -23.922119140625
0.929443359375 -49.124267578125 -43.115234375
20.558349609375 -47.0478515625 -60.54931640625
-11.33251953125 -54.783447265625 -44.44970703125
14.08984375 27.4072265625 10.949951171875
5.29541015625 -39.916259765625 -35.779541015625
10.328857421875 -1.252685546875 -7.996826171875
-1.562255859375 -45.374755859375 -37.470703125
-8.672607421875 14.7373046875 8.023193359375
2.5986328125 -19.30712890625 -19.941162109375
3.884033203125 28.0712890625 15.57373046875
8.114990234375 -35.1259765625 -34.37841796875
-12.001220703125 -43.89990234375 -46.551513671875
1.803955078125 18.543212890625 8.453369140625
1.476318359375 -38.833740234375 -33.692626953125
21.34326171875 29.671142578125 7.974853515625
15.4970703125 6.198486328125 -4.4423828125
12.07666015625 -57.258056640625 -56.189697265625
9.603271484375 -22.798583984375 -23.505126953125
5.683837890625 -9.97021484375 -13.51708984375
6.828369140625 -30.0205078125 -28.86572265625
9.660888671875 -53.646728515625 -59.562744140625
-5.91796875 20.044921875 11.892333984375
-9.933349609375 17.977783203125 10.83251953125
13.19677734375 -55.93701171875 -54.7333984375
0.4091796875 22.466796875 12.11376953125
8.539306640625 -17.1630859375 -19.754150390625
10.610595703125 -31.0400390625 -30.625
8.70947265625 -66.2509765625 -51.482177734375
4.458251953125 -16.600830078125 -18.272705078125
15.19677734375 1.3017578125 -9.100830078125
-0.65380859375 -37.454345703125 -32.065185546875
9.793701171875 -37.26416015625 -35.483154296875
7.628662109375 -15.5390625 -18.280517578125
-5.07421875 -79.1943359375 -54.70849609375
25.470947265625 31.735595703125 3.68701171875
5.380126953125 -66.92822265625 -51.60888671875
9.072021484375 -56.937255859375 -59.0537109375
14.231689453125 -2.889404296875 -11.615478515625
-8.969482421875 20.421875 13.18408203125
7.72998046875 -59.0693359375 -55.324951171875
6.197021484375 27.35546875 14.53466796875
8.851318359375 -39.814208984375 -38.44775390625
11.4873046875 -18.87890625 -21.71142578125
1.663818359375 -62.804443359375 -58.273193359375
9.530029296875 -13.63623046875 -17.28466796875
-10.7109375 24.4521484375 13.694580078125
-1.030517578125 -65.056396484375 -61.30615234375
3.823974609375 -11.858154296875 -14.7744140625
14.7578125 -50.659912109375 -55.779296875
13.217529296875 20.55859375 7.44189453125
15.6650390625 2.409423828125 -6.57958984375
9.785888671875 19.144775390625 7.49462890625
7.142333984375 -21.49658203125 -22.43310546875
-17.783203125 -75.3681640625 -71.0361328125
-1.170654296875 -52.742919921875 -43.68017578125
11.7587890625 -21.7236328125 -24.591796875
10.66162109375 6.670654296875 -2.540283203125
3.858642578125 -8.369140625 -14.066650390625
11.1943359375 21.653564453125 8.82666015625
12.059326171875 -52.390625 -58.176025390625
11.178466796875 -28.564208984375 -28.096923828125
12.703857421875 -5.546630859375 -12.498046875
2.37841796875 21.384765625 10.752685546875
9.238037109375 27.69580078125 13.963623046875
14.46484375 -0.977294921875 -9.979736328125
7.85546875 -6.166259765625 -11.16845703125
-7.47216796875 -51.223388671875 -54.35302734375
-3.860595703125 -60.77099609375 -48.0751953125
12.2568359375 -24.16015625 -26.008056640625
10.937744140625 8.15283203125 -1.338134765625
-6.76806640625 -59.314208984375 -47.122314453125
7.634033203125 -1.93798828125 -8.207275390625
-7.661865234375 -62.160888671875 -47.33544921875
4.665771484375 -20.984130859375 -21.341552734375
7.010498046875 1.8740234375 -5.204833984375
-9.783935546875 -77.693115234375 -61.814453125
14.386962890625 -43.015380859375 -60.891845703125
8.65234375 -52.05126953125 -61.29443359375
21.120361328125 29.002197265625 6.78515625
11.947998046875 10.354736328125 0.236572265625
14.60302734375 -54.553955078125 -52.266357421875
16.081298828125 -55.350830078125 -50.99267578125
21.435546875 -45.1591796875 -63.444580078125
15.50146484375 27.13330078125 8.7822265625
4.270263671875 -67.46435546875 -49.257080078125
17.292724609375 -43.1142578125 -60.50048828125
3.615478515625 -56.676025390625 -58.958251953125
27.665283203125 36.64208984375 2.847900390625
4.2783203125 22.089599609375 10.57568359375
7.467041015625 -38.85302734375 -36.770751953125
11.26904296875 2.8974609375 -5.250732421875
8.9658203125 1.442138671875 -5.630859375
11.825927734375 -53.35693359375 -59.982666015625
6.710693359375 -0.01123046875 -6.40966796875
14.8115234375 -52.146240234375 -53.286376953125
17.5283203125 -50.87841796875 -51.375
-1.4794921875 -54.906494140625 -45.358154296875
22.171875 -47.71630859375 -63.203369140625
-5.525390625 -60.6630859375 -47.76953125
-6.094482421875 -54.99462890625 -44.06298828125
4.5615234375 -41.56591796875 -36.912353515625
15.051513671875 -52.897705078125 -52.086181640625
9.23974609375 15.900390625 5.046630859375
13.776123046875 7.3515625 -2.783935546875
0.5986328125 -45.977294921875 -39.009521484375
9.4267578125 -57.8876953125 -55.2109375
6.614501953125 -19.46923828125 -20.744384765625
14.41064453125 9.57470703125 -1.27099609375
1.011962890625 -65.664306640625 -45.237060546875
10.05859375 3.304443359375 -4.682373046875
13.855712890625 -53.990966796875 -56.143310546875
-5.43505859375 17.906005859375 10.042236328125
10.4970703125 -15.261962890625 -19.171630859375
-6.3837890625 22.5341796875 13.717041015625
15.0791015625 -45.534423828125 -60.33154296875
18.90625 -48.894775390625 -51.833251953125
8.41162109375 -57.159423828125 -57.05224609375
25.064453125 29.135986328125 3.31494140625
8.37255859375 4.845703125 -3.037353515625
12.34130859375 4.755859375 -4.170654296875
11.3984375 24.8759765625 10.92333984375
4.8212890625 -45.026123046875 -40.230712890625
12.05615234375 27.011474609375 12.113525390625
7.360107421875 15.205078125 4.84765625
-9.93212890625 -77.91650390625 -60.203125
-2.486328125 13.56591796875 5.25439453125
17.65576171875 -45.456298828125 -57.38720703125
12.97705078125 -3.625 -11.12890625
3.552734375 -38.956787109375 -34.342041015625
29.140380859375 35.851806640625 3.0263671875
-1.58154296875 13.48046875 7.23876953125
-2.885009765625 20.3759765625 11.190673828125
2.189208984375 -14.967529296875 -18.48486328125
1.491943359375 23.1572265625 12.545166015625
-3.932373046875 13.3603515625 1.07177734375
3.00537109375 -35.196533203125 -31.9052734375
-10.495361328125 -82.071533203125 -60.145751953125
19.5634765625 -45.220947265625 -58.998779296875
-3.62548828125 -66.544921875 -40.065673828125
-1.744873046875 -56.700927734375 -47.364501953125
-0.775390625 -33.73974609375 -29.720703125
6.802001953125 -61.090576171875 -55.098388671875
5.96923828125 25.2548828125 12.806396484375
-4.619384765625 -50.75439453125 -41.0322265625
12.060546875 9.247802734375 -0.900390625
-2.03369140625 -45.154052734375 -52.92333984375
7.0107421875 -63.06982421875 -53.853515625
-1.540771484375 15.693115234375 7.545166015625
-11.09765625 -45.69140625 -48.327880859375
-4.156494140625 24.479736328125 10.532958984375
6.994140625 -11.579345703125 -15.16552734375
-5.8837890625 -64.497802734375 -36.930419921875
9.935791015625 -6.6201171875 -12.42333984375
-7.83154296875 -80.982666015625 -56.93017578125
21.7646484375 -48.14208984375 -51.159423828125
7.98486328125 -8.49267578125 -12.859375
-16.823486328125 -72.91162109375 -71.453857421875
4.57421875 8.194091796875 4.20361328125
5.59716796875 -61.498291015625 -55.634033203125
-3.3525390625 25.581298828125 10.26123046875
3.499267578125 -66.583984375 -53.258544921875
16.93017578125 -53.283203125 -50.59326171875
11.72900390625 14.045654296875 2.83447265625
6.887451171875 -53.205810546875 -60.9267578125
8.2919921875 -0.05419921875 -6.7890625
15.5478515625 -41.0732421875 -62.89599609375
5.853515625 -27.110107421875 -26.522216796875
7.51806640625 -56.95703125 -60.16650390625
-10.963623046875 -60.255859375 -46.171875
-0.667724609375 -62.853271484375 -60.0166015625
-4.2802734375 -47.039306640625 -51.689697265625
6.208740234375 -68.298095703125 -48.381591796875
20.237060546875 -48.7890625 -55.4619140625
9.722412109375 8.171630859375 -0.76708984375
6.725341796875 -14.31591796875 -16.94091796875
9.9072265625 -61.9140625 -53.348876953125
0.520263671875 -45.0966796875 -37.9951171875
12.93701171875 -58.72998046875 -53.3818359375
23.079345703125 30.2529296875 4.085205078125
-0.486328125 -40.819091796875 -34.735595703125
-8.4873046875 -84.9716796875 -55.770263671875
-2.2939453125 -46.219482421875 -38.4853515625
9.58349609375 -32.280029296875 -32.411865234375
19.72021484375 34.400634765625 4.60107421875
13.712890625 -56.59912109375 -52.3544921875
3.2158203125 -24.5341796875 -23.491943359375
-9.006103515625 -54.791259765625 -43.23828125
-4.4033203125 -43.431396484375 -53.441650390625
18.54931640625 -52.906982421875 -50.140869140625
-10.3212890625 -43.17626953125 -46.880859375
8.900390625 -59.063232421875 -54.618896484375
11.114501953125 29.117431640625 14.13720703125
-11.062255859375 -78.908935546875 -62.009033203125
6.9521484375 -31.28125 -30.27099609375
-8.53662109375 -43.78759765625 -48.85302734375
14.83544921875 -46.677734375 -58.69189453125
-0.235107421875 -67.699951171875 -45.705322265625
26.771240234375 31.40478515625 2.619140625
0.62646484375 18.547607421875 8.999267578125
-0.491455078125 17.84130859375 8.814697265625
7.7685546875 26.644287109375 13.599609375
13.7646484375 25.242919921875 10.074951171875
-2.802978515625 23.66943359375 11.4560546875
6.9404296875 -3.83056640625 -9.363037109375
-0.93994140625 -39.542724609375 -33.82470703125
-7.322998046875 -56.189208984375 -44.403564453125
-1.234619140625 -67.462890625 -43.883544921875
12.046630859375 -45.787109375 -59.748046875
-3.470947265625 -58.653076171875 -47.146240234375
7.205810546875 -57.997314453125 -57.735595703125
0.517333984375 -35.052734375 -31.0478515625
-9.375732421875 -45.83837890625 -49.400634765625
7.508056640625 -27.193603515625 -27.083251953125
-1.718505859375 20.3740234375 10.650634765625
-1.029541015625 26.673095703125 9.64111328125
-13.5576171875 -44.7275390625 -47.74462890625
1.6728515625 -34.27001953125 -30.415283203125
-12.174560546875 -55.975830078125 -44.5625
8.745849609375 -20.37060546875 -22.3173828125
-4.85986328125 -66.88037109375 -39.9814453125
14.323486328125 0.552978515625 -8.547119140625
3.926025390625 -37.73291015625 -33.719970703125
-2.71484375 -67.5390625 -41.385009765625
2.659423828125 -61.26904296875 -59.283935546875
11.6953125 -14.518798828125 -19.1162109375
5.082275390625 -13.468505859375 -16.0166015625
-1.675048828125 -50.554931640625 -42.01318359375
13.5498046875 -50.634521484375 -56.171875
4.91796875 -0.71337890625 -7.677001953125
18.229736328125 -48.526123046875 -52.941162109375
3.99755859375 -58.3857421875 -59.14404296875
-8.12548828125 -60.806884765625 -46.231689453125
14.326904296875 -5.2099609375 -12.90234375
-0.52783203125 -48.474609375 -40.651123046875
4.48779296875 -64.206298828125 -53.966552734375
13.4013671875 -54.530029296875 -52.656005859375
-11.728759765625 -58.57568359375 -46.073974609375
5.963134765625 10.070556640625 2.5556640625
-13.022705078125 -46.54541015625 -50.0654296875
-3.2841796875 -52.58154296875 -42.85400390625
5.713134765625 -25.063232421875 -24.735107421875
-5.6767578125 -74.08837890625 -46.642333984375
24.836181640625 35.134765625 3.564453125
6.078369140625 -23.87255859375 -24.13232421875
6.060302734375 -38.2900390625 -34.944580078125
1.973388671875 -61.86181640625 -56.95458984375
8.84423828125 -54.484619140625 -60.01220703125
6.85888671875 16.656982421875 6.258544921875
13.213623046875 -52.376953125 -57.304931640625
11.27587890625 -20.8916015625 -23.6982421875
10.991455078125 -56.470947265625 -57.40234375
3.747802734375 -18.9482421875 -19.594482421875
28.177001953125 33.18603515625 3.74609375
10.569091796875 -50.302001953125 -59.1953125
-11.66552734375 -83.01220703125 -61.47119140625
25.95703125 33.25390625 3.321533203125
8.19140625 -36.386962890625 -35.368896484375
-10.080810546875 -54.03466796875 -44.5498046875
13.2197265625 -54.248779296875 -54.472900390625
7.957275390625 -61.497802734375 -54.37939453125
8.099365234375 -24.35693359375 -24.6005859375
21.750732421875 -41.575927734375 -52.54736328125
6.2890625 19.91162109375 8.737060546875
8.62109375 -5.0341796875 -10.790771484375
8.163818359375 -63.474609375 -53.13671875
4.782958984375 -65.826416015625 -53.364990234375
1.39404296875 -36.34423828125 -32.166015625
10.068115234375 -3.15673828125 -9.484619140625
7.4140625 14.107666015625 4.116455078125
9.632080078125 -1.99462890625 -8.786865234375
2.826171875 -13.403564453125 -16.7294921875
11.52685546875 -1.2861328125 -8.3173828125
9.758544921875 -25.236572265625 -25.416259765625
-5.9814453125 -82.5205078125 -55.070068359375
27.412353515625 38.189208984375 2.339599609375
6.6884765625 -41.301025390625 -37.733154296875
9.430419921875 -26.4443359375 -26.30810546875
15.454345703125 28.212890625 9.37646484375
10.630615234375 -48.63037109375 -59.249755859375
11.306396484375 -29.0126953125 -29.2373046875
-7.157958984375 -45.22216796875 -51.045166015625
-18.140869140625 -74.105712890625 -71.321533203125
5.2216796875 -9.175537109375 -12.66064453125
13.74365234375 -8.691162109375 -15.264892578125
5.8056640625 -57.28271484375 -59.987548828125
11.68115234375 -9.0087890625 -14.517333984375
13.76171875 -48.6357421875 -57.348876953125
4.34521484375 20.290771484375 9.508544921875
-2.567138671875 14.279052734375 6.24609375
22.45703125 30.165283203125 5.682861328125
16.002197265625 24.60205078125 7.291015625
26.279296875 28.9951171875 5.270751953125
13.123291015625 11.08154296875 0.164306640625
15.586669921875 -47.515869140625 -58.188720703125
2.188720703125 -27.73828125 -25.880615234375
13.1953125 -12.59814453125 -18.051025390625
9.664794921875 9.2880859375 -0.021728515625
10.3369140625 4.799072265625 -3.47119140625
-2.71435546875 15.701416015625 8.092529296875
8.589599609375 -41.9384765625 -40.250732421875
-7.1064453125 21.475341796875 13.24560546875
13.7216796875 -41.36279296875 -61.907958984375
-9.97998046875 -47.6767578125 -52.589111328125
2.4541015625 20.3203125 9.7880859375
13.73486328125 13.651611328125 1.908203125
13.952392578125 22.009033203125 7.91357421875
-7.30029296875 16.487548828125 9.744140625
11.031982421875 0.6328125 -6.978759765625
6.20068359375 22.073486328125 10.046630859375
10.292236328125 -18.439697265625 -21.5234375
8.653564453125 6.331787109375 -1.833984375
9.712158203125 -65.164306640625 -52.615234375
8.8349609375 -28.08935546875 -28.413330078125
26.471435546875 35.527587890625 2.93115234375
-10.400390625 19.749267578125 12.562744140625
2.297607421875 -21.687255859375 -21.476806640625
6.111572265625 -44.295166015625 -40.628173828125
4.10888671875 -33.171875 -30.43994140625
5.63232421875 8.597412109375 1.759765625
-1.031005859375 -35.82470703125 -31.756103515625
0.711669921875 27.66943359375 10.95068359375
2.3271484375 -52.848388671875 -53.544677734375
8.0556640625 3.728515625 -3.8623046875
-1.9697265625 -54.395751953125 -44.38525390625
-15.335205078125 -78.28662109375 -65.8017578125
11.478515625 17.691650390625 5.662353515625
0.181884765625 -52.906005859375 -44.96630859375
12.77099609375 15.484130859375 3.89794921875
-0.388427734375 -51.49951171875 -42.963134765625
2.68115234375 -63.933837890625 -56.414794921875
4.5 -55.89453125 -59.14697265625
6.170166015625 -25.896728515625 -25.48828125
-8.71484375 23.590576171875 15.478271484375
16.2177734375 -47.65625 -59.86669921875
24.605224609375 32.077880859375 4.43505859375
-10.080078125 -59.102294921875 -46.51513671875
10.6669921875 12.59912109375 1.896728515625
-9.018798828125 22.55419921875 14.465576171875
10.358642578125 11.12890625 0.968505859375
-6.46435546875 -64.316162109375 -47.803466796875
1.849853515625 17.459716796875 7.733154296875
-7.248779296875 -47.683349609375 -50.965087890625
-0.155517578125 -38.75 -33.408447265625
18.574462890625 -51.6552734375 -50.02587890625
-5.945068359375 -49.49169921875 -52.3837890625
21.41162109375 35.38037109375 6.195556640625
0.6669921875 29.09228515625 11.77392578125
8.825927734375 -50.88134765625 -62.461181640625
11.193359375 15.8740234375 4.502197265625
2.87109375 -54.13525390625 -59.037353515625
23.022705078125 31.34033203125 4.691162109375
28.26025390625 34.332275390625 3.450927734375
10.098388671875 26.64453125 12.7744140625
-5.748779296875 -65.906494140625 -38.818115234375
-1.207275390625 24.778076171875 10.70068359375
-8.767578125 24.99169921875 16.52880859375
10.18115234375 -4.69677734375 -10.784912109375
8.013916015625 -65.05078125 -52.30126953125
18.204833984375 -43.412841796875 -57.853759765625
5.05810546875 9.689453125 3.712646484375
21.2216796875 -48.8984375 -50.431396484375
1.46044921875 24.590087890625 13.240234375
20.664794921875 -50.06591796875 -49.691650390625
1.899658203125 -59.142822265625 -59.349609375
-3.552001953125 -79.972900390625 -53.588134765625
-9.1494140625 -80.085205078125 -60.456787109375
-2.90380859375 -45.931396484375 -52.740234375
11.424072265625 23.791015625 10.458251953125
1.248291015625 28.63818359375 13.039794921875
5.973876953125 -68.0244140625 -49.86181640625
3.424560546875 -10.678466796875 -14.33740234375
16.293212890625 -51.254638671875 -51.5947265625
4.8515625 -31.5625 -29.475341796875
5.79443359375 -59.524169921875 -56.806884765625
14.061767578125 28.48876953125 11.4140625
2.8095703125 -55.80322265625 -58.983154296875
2.721435546875 -29.412109375 -27.611572265625
15.88134765625 -50.207763671875 -54.61181640625
9.96728515625 -27.7099609375 -27.771240234375
8.279541015625 -13.1943359375 -16.548583984375
-8.573486328125 -56.098876953125 -44.027587890625
24.050048828125 -42.0048828125 -51.12890625
4.59716796875 -54.682861328125 -59.666015625
12.74365234375 -23.000244140625 -26.4013671875
16.68115234375 -42.342529296875 -62.133544921875
16.443115234375 -50.500732421875 -52.55908203125
-8.52001953125 -52.790771484375 -43.37890625
12.35546875 28.4267578125 13.005615234375
13.702392578125 26.31494140625 10.791259765625
-1.595947265625 19.328857421875 9.185791015625
10.176513671875 1.031982421875 -6.201416015625
-4.973876953125 16.108154296875 8.543701171875
-10.2451171875 26.787109375 17.411865234375
0.88232421875 -23.264892578125 -23.408203125
-8.739990234375 15.807861328125 9.115966796875
10.7236328125 -12.8955078125 -17.22900390625
-5.8466796875 -44.070556640625 -51.472412109375
5.658203125 -1.881591796875 -7.763427734375
-0.20849609375 -46.7705078125 -39.28369140625
1.769287109375 28.51708984375 14.90380859375
-1.881103515625 22.120361328125 12.703125
10.15185546875 -10.517822265625 -15.170166015625
-4.0439453125 23.27001953125 12.625
-7.155517578125 25.04150390625 14.970458984375
9.507080078125 -37.71484375 -36.580078125
-2.019287109375 -66.608642578125 -43.91162109375
3.22802734375 26.68359375 14.50048828125
17.2138671875 25.1484375 17.34375
-9.7509765625 -60.30712890625 -46.0947265625
3.635986328125 -39.82177734375 -35.344482421875
-6.7333984375 -52.03564453125 -53.703125
9.329345703125 -34.769287109375 -34.312255859375
9.92529296875 23.08935546875 10.32958984375
1.94921875 -17.34326171875 -20.5703125
-4.771240234375 20.03759765625 11.478759765625
7.50927734375 -33.795654296875 -32.297607421875
11.166015625 -7.4345703125 -13.134765625
2.913330078125 -16.943115234375 -18.552734375
8.802978515625 -33.070556640625 -32.828125
-9.51806640625 -49.43994140625 -53.85791015625
15.04638671875 25.644775390625 9.01318359375
12.36962890625 -6.698486328125 -13.215087890625
-8.063720703125 -58.75634765625 -46.14599609375
3.561767578125 -63.158935546875 -56.6015625
5.541015625 -36.173095703125 -33.324951171875
-10.850830078125 25.8037109375 15.7294921875
4.943115234375 -18.20703125 -19.539306640625
-9.809814453125 16.938232421875 9.122314453125
10.671142578125 -5.869384765625 -11.8955078125
21.10546875 32.4736328125 5.072021484375
7.246826171875 -9.24609375 -13.388427734375
13.208251953125 -7.501953125 -13.865234375
-3.8095703125 -49.958740234375 -40.757080078125
7.529541015625 24.530517578125 11.98876953125
-5.875732421875 -80.056396484375 -55.30810546875
-4.864501953125 -51.112548828125 -51.3232421875
4.973876953125 -33.639404296875 -31.14697265625
3.335693359375 -65.093017578125 -55.115234375
1.83447265625 -37.196044921875 -32.79345703125
1.966796875 -60.066162109375 -60.279541015625
4.32373046875 -44.5361328125 -39.273681640625
5.98779296875 -42.9794921875 -39.171875
-5.363037109375 -53.28076171875 -42.60595703125
8.008544921875 11.171142578125 1.58056640625
4.2373046875 -43.243408203125 -38.1220703125
-9.559326171875 15.79638671875 9.97705078125
2.626220703125 -45.241943359375 -38.8056640625
-4.573486328125 -65.090576171875 -38.171630859375
6.644775390625 -66.15625 -51.558837890625
3.682861328125 24.90966796875 13.271240234375
-0.727294921875 -44.605712890625 -37.493896484375
7.280517578125 -35.895263671875 -34.35595703125
14.755126953125 -6.38623046875 -13.47509765625
-0.046630859375 -41.6796875 -35.36865234375
1.1865234375 -32.191162109375 -28.9677734375
-1.302490234375 -41.59521484375 -34.860107421875
-0.5869140625 -54.589111328125 -45.979248046875
8.69775390625 -6.579833984375 -11.824951171875
-8.484375 19.02099609375 11.4453125
-6.380615234375 23.61376953125 14.050537109375
11.07958984375 -11.730712890625 -16.640625
23.84326171875 33.56884765625 4.759033203125
3.06201171875 7.4892578125 4.074951171875
-0.35791015625 -67.99267578125 -44.627197265625
-6.88525390625 14.4326171875 4.773193359375
9.54833984375 -57.126953125 -56.026611328125
6.491455078125 5.278076171875 -3.142822265625
-8.8681640625 -51.81201171875 -57.476318359375
10.432373046875 -8.576416015625 -13.7890625
-0.71728515625 23.92822265625 12.7265625
2.6103515625 16.71337890625 7.3916015625
15.9677734375 -46.023681640625 -60.8017578125
-0.12060546875 -28.87548828125 -26.857177734375
-6.476806640625 16.135498046875 8.76806640625
12.747802734375 -11.4033203125 -17.32958984375
3.74951171875 -26.19140625 -25.208740234375
8.822021484375 28.76611328125 14.599609375
23.63818359375 37.52978515625 1.914794921875
7.5830078125 -22.317138671875 -23.0390625
14.4833984375 29.59423828125 11.322509765625
5.2041015625 -23.022216796875 -23.174072265625
-0.80322265625 -43.318603515625 -36.350830078125
7.767578125 -10.825927734375 -14.90771484375
7.4111328125 -38.004150390625 -36.0576171875
14.3916015625 11.451416015625 -0.678466796875
19.03759765625 -46.0009765625 -58.41162109375
6.149658203125 -11.156494140625 -14.50048828125
-3.15673828125 17.147705078125 9.231201171875
4.78173828125 -30.32373046875 -28.505615234375
0.8486328125 -53.13427734375 -47.482666015625
5.095703125 15.256103515625 4.937744140625
23.96240234375 29.915283203125 3.20751953125
9.20703125 -8.53466796875 -13.32373046875
5.252685546875 23.829833984375 12.21923828125
9.0751953125 -19.57666015625 -21.5654296875
2.683349609375 -66.16552734375 -49.45166015625
11.8134765625 -10.189453125 -15.854736328125
11.615234375 -13.328857421875 -18.179931640625
1.4951171875 -30.154052734375 -27.5224609375
-1.282470703125 26.738037109375 8.568603515625
10.352783203125 -51.7080078125 -61.314208984375
0.46728515625 -65.851318359375 -55.791015625
12.482666015625 -2.4580078125 -10.020751953125
2.861328125 -14.97314453125 -17.507568359375
6.246337890625 -6.114990234375 -10.645751953125
7.716552734375 8.9541015625 0.286865234375
14.8037109375 4.328125 -5.45263671875
2.26904296875 -10.253662109375 -14.294189453125
6.711669921875 -34.578125 -32.567626953125
-1.610107421875 23.68408203125 10.66748046875
15.460693359375 22.71435546875 8.04248046875
-0.246337890625 -56.57421875 -49.913818359375
-2.015625 -40.79931640625 -35.47705078125
-12.083251953125 20.57861328125 11.204345703125
12.029052734375 3.635009765625 -4.999755859375
6.741943359375 -55.6767578125 -60.364501953125
9.431396484375 -11.668701171875 -15.96630859375
5.477783203125 -52.60693359375 -59.417724609375
-6.574462890625 25.143310546875 12.824951171875
-1.322998046875 -44.109619140625 -55.544677734375
14.7021484375 5.45751953125 -4.42822265625
13.099609375 5.491943359375 -3.920166015625
9.947021484375 17.34912109375 5.7763671875
9.037353515625 0.684814453125 -6.404052734375
13.715087890625 19.481201171875 6.27734375
23.1943359375 35.476318359375 4.428466796875
11.802490234375 18.77587890625 6.3330078125
-6.388916015625 -62.27294921875 -47.869873046875
5.996337890625 -58.4052734375 -58.274658203125
15.24853515625 9.18994140625 -1.903076171875
2.21142578125 -59.068115234375 -58.31689453125
6.7421875 7.134033203125 -1.559326171875
0.262939453125 -64.32177734375 -57.343994140625
12.23486328125 -25.059814453125 -29.21728515625
6.794921875 -15.111083984375 -17.745849609375
-5.111572265625 -71.6884765625 -43.215576171875
10.47021484375 20.9443359375 8.458984375
7.952880859375 -28.028076171875 -27.699951171875
15.55078125 -4.472900390625 -13.119140625
14.974609375 27.447021484375 9.960205078125
12.90576171875 -8.27294921875 -14.73583984375
-0.076904296875 -55.537353515625 -47.250244140625
5.047607421875 -27.876708984375 -26.64501953125
4.118896484375 -9.91845703125 -13.39794921875
-8.971923828125 -50.859619140625 -55.9296875
8.886962890625 3.33447265625 -4.499755859375
-3.055908203125 -59.948486328125 -47.6416015625
15.33251953125 8.070068359375 -2.78662109375
0.574462890625 25.072021484375 11.408447265625
-0.681884765625 28.464599609375 10.400390625
-11.389892578125 -46.616943359375 -50.065673828125
9.11474609375 23.44580078125 10.9296875
-2.030517578125 -42.84130859375 -36.00048828125
19.637451171875 -48.872314453125 -51.0537109375
6.745361328125 -7.676513671875 -12.013427734375
9.29931640625 -9.707275390625 -14.380126953125
10.925048828125 -23.27783203125 -24.688720703125
-8.227294921875 -50.822998046875 -54.99072265625
-5.9638671875 -58.49462890625 -46.690185546875
3.657958984375 -61.95751953125 -57.116455078125
-4.572021484375 -73.148681640625 -45.068359375
6.140869140625 8.983154296875 0.78271484375
9.148681640625 -7.36865234375 -12.543212890625
7.692138671875 -42.26953125 -39.64111328125
-9.37353515625 -42.47705078125 -48.127685546875
0.587890625 -24.079345703125 -24.58740234375
1.72998046875 19.248779296875 9.30908203125
-7.641357421875 -48.526123046875 -51.479248046875
20.1416015625 33.306640625 4.066162109375
-10.24755859375 -56.388427734375 -43.564697265625
-1.433349609375 -58.74267578125 -47.068359375
11.265625 -2.8076171875 -9.684814453125
-10.44580078125 24.033935546875 14.63427734375
12.598876953125 -15.74609375 -20.328857421875
-10.39013671875 -79.5908203125 -60.386474609375
13.08984375 0.20068359375 -8.079345703125
12.04833984375 20.9375 7.853515625
-1.73486328125 -49.258056640625 -41.00244140625
12.3662109375 -18.92626953125 -22.4091796875
8.2021484375 20.61865234375 8.55712890625
11.313232421875 -25.39453125 -28.34423828125
-0.703857421875 -29.337646484375 -28.998779296875
11.9345703125 22.367919921875 9.068115234375
4.08447265625 8.555908203125 5.271240234375
-9.347412109375 21.503173828125 13.6953125
3.47900390625 -20.54443359375 -21.154296875
3.111083984375 -12.230712890625 -15.4560546875
-6.56640625 -51.562744140625 -42.13525390625
-8.123291015625 -52.200439453125 -56.6767578125
-3.1953125 18.5908203125 10.05908203125
7.666748046875 -54.919189453125 -60.875244140625
18.881591796875 -45.065673828125 -57.006591796875
3.115966796875 22.0947265625 10.9921875
1.453857421875 -51.621826171875 -48.841064453125
11.70703125 -50.278076171875 -58.163330078125
17.10009765625 -41.073974609375 -61.773193359375
4.046875 18.861572265625 8.481201171875
7.013916015625 20.6201171875 9.10400390625
-1.8349609375 -55.776123046875 -46.169189453125
-9.528564453125 17.25927734375 10.1787109375
5.4462890625 -19.8251953125 -20.9521484375
-6.857421875 -51.994873046875 -47.89697265625
20.89208984375 -45.080078125 -62.552001953125
-2.646484375 -47.896484375 -39.550048828125
-5.181884765625 20.751708984375 12.13037109375
-7.8408203125 20.7705078125 13.008544921875
7.78564453125 -43.564697265625 -40.800048828125
-4.660400390625 17.174072265625 9.454833984375
-1.34814453125 -66.0625 -46.293701171875
0.2138671875 -53.77197265625 -45.5478515625
5.053955078125 27.720703125 14.931884765625
1.16943359375 -47.77099609375 -41.12255859375
1.132080078125 -40.076171875 -34.607666015625
0.271728515625 -65.279296875 -45.86083984375
16.33935546875 27.152099609375 8.16357421875
2.807861328125 27.386474609375 15.145751953125
-1.479736328125 23.21044921875 12.736328125
