-31.46484375 -4.970703125 -3.0557861328125
-40.19677734375 -36.875732421875 6.1082763671875
-37.238037109375 -38.099609375 7.761962890625
-38.1513671875 -62.7509765625 35.6895751953125
-33.50048828125 -51.294189453125 27.7056884765625
29.35498046875 11.05810546875 -8.9727783203125
-28.785888671875 -29.897705078125 23.5797119140625
-11.65478515625 -23.825927734375 17.270263671875
-14.592041015625 -29.903564453125 0.308837890625
-18.822998046875 -25.974853515625 -4.6031494140625
-26.607666015625 -33.1240234375 15.225830078125
-25.838623046875 -25.559326171875 21.473388671875
-6.788330078125 -35.779541015625 4.943359375
-42.490234375 -27.243896484375 -3.0662841796875
-39.7060546875 -49.452392578125 20.1151123046875
-23.757080078125 -41.885498046875 7.31103515625
-38.929931640625 -53.112060546875 22.508544921875
29.854248046875 18.50439453125 -7.2283935546875
11.17626953125 2.474365234375 -1.05419921875
27.240234375 11.059814453125 -7.41845703125
-9.814697265625 -34.76806640625 9.989990234375
11.359130859375 -0.236083984375 -2.571044921875
-16.77587890625 -27.07080078125 -3.7447509765625
-43.314697265625 -40.048583984375 -12.743896484375
4.19970703125 3.372802734375 2.11181640625
-16.010009765625 -19.102783203125 19.088623046875
17.065185546875 16.53515625 -6.6195068359375
-27.74755859375 -38.0302734375 11.234619140625
-40.025634765625 -28.03466796875 4.8922119140625
-13.277099609375 -31.53857421875 1.6015625
9.96484375 -40.115234375 10.4476318359375
10.210205078125 -33.9287109375 1.210693359375
4.459716796875 6.2216796875 4.015869140625
18.9375 8.816162109375 -3.079345703125
28.075439453125 16.1865234375 -22.765380859375
30.999267578125 20.18896484375 -9.1038818359375
4.953125 -2.34228515625 -1.8846435546875
-17.594482421875 -6.92626953125 -5.582763671875
-41.1259765625 -34.197509765625 5.4482421875
1.565673828125 -39.504150390625 9.6318359375
-25.122314453125 -25.5810546875 -5.5748291015625
-38.025390625 -58.248046875 35.0582275390625
-21.161865234375 -3.212890625 -2.5452880859375
-27.899658203125 -32.078857421875 18.225341796875
-28.715087890625 -9.917236328125 -7.612548828125
-6.6044921875 -0.723388671875 -0.617919921875
0.479736328125 -40.365966796875 10.9376220703125
-45.451904296875 -55.920166015625 13.1181640625
-40.134521484375 -57.8173828125 31.7232666015625
-42.88525390625 -38.708984375 -4.3253173828125
8.060546875 -43.0703125 12.8048095703125
-35.251708984375 -38.81298828125 9.1890869140625
-41.765869140625 -53.38330078125 25.447509765625
4.98974609375 -27.831787109375 -0.970947265625
-11.843505859375 -53.216064453125 -3.2880859375
-13.220947265625 -36.7421875 6.3426513671875
0.79833984375 -1.151611328125 -1.13330078125
-22.9033203125 -33.6455078125 16.51220703125
-29.510498046875 -40.23681640625 11.8704833984375
-40.06640625 -30.40185546875 4.8221435546875
12.213134765625 -48.47119140625 22.354736328125
9.727783203125 -52.914306640625 25.0244140625
16.236083984375 11.27783203125 -0.469970703125
-32.4296875 -48.094970703125 19.6304931640625
-34.6640625 -48.377197265625 30.5699462890625
0.977294921875 -26.692626953125 -3.427001953125
0.2685546875 -26.930419921875 6.0418701171875
-42.71044921875 -9.579345703125 -6.3040771484375
-19.271240234375 -32.830078125 1.08544921875
-36.86962890625 -46.510986328125 17.238525390625
-23.65283203125 -28.70263671875 19.324951171875
1.094970703125 -25.230712890625 4.0731201171875
6.04638671875 -7.798828125 -6.3555908203125
-45.4931640625 -63.4404296875 20.8050537109375
-4.107421875 -33.744140625 4.62939453125
23.708251953125 16.814208984375 -1.332763671875
-25.130859375 -37.929931640625 10.9764404296875
-40.018798828125 -72.527587890625 -2.48876953125
-29.502197265625 -54.374267578125 26.3179931640625
30.021240234375 5.239990234375 -12.2191162109375
-38.90283203125 -38.375 8.332275390625
-41.015869140625 -53.691162109375 23.0626220703125
3.07177734375 -44.70654296875 14.8299560546875
16.166015625 7.675048828125 -3.8912353515625
-1.732421875 -33.743408203125 6.631103515625
-26.40380859375 -30.49755859375 18.8201904296875
-2.06005859375 -1.9365234375 -1.4210205078125
-2.48876953125 -6.58251953125 -5.076904296875
-21.692626953125 -25.44580078125 -6.3873291015625
-3.705810546875 -39.575439453125 11.9879150390625
-35.509765625 -27.373046875 8.953125
-26.632080078125 -27.97802734375 -2.380126953125
-0.49658203125 -32.7197265625 8.5145263671875
-38.493896484375 -6.470458984375 -4.75
5.5419921875 -26.397705078125 6.4786376953125
-38.740234375 -71.381103515625 -1.440673828125
-16.6474609375 -22.853515625 17.5430908203125
-43.439453125 -23.728271484375 -7.889892578125
-34.08349609375 -51.46630859375 25.4820556640625
-40.076416015625 -26.615966796875 -4.0869140625
30.05224609375 20.692626953125 -7.5794677734375
13.143798828125 10.0458984375 0.03076171875
10.633056640625 4.883056640625 0.4267578125
-40.47265625 -51.826904296875 22.4500732421875
-28.794677734375 -52.1357421875 23.0291748046875
-42.59521484375 -66.866943359375 28.13720703125
-25.979736328125 -5.048828125 -3.7169189453125
-33.781982421875 -49.881591796875 21.2353515625
-33.03076171875 -49.337158203125 32.482421875
10.111328125 -2.353271484375 -3.3551025390625
-35.851318359375 -48.544189453125 20.3443603515625
4.018798828125 -28.7236328125 9.3009033203125
-31.74853515625 -52.4697265625 24.618896484375
-43.48583984375 -10.643798828125 -7.7760009765625
17.7041015625 8.148193359375 -5.2589111328125
25.18408203125 2.17431640625 -11.5113525390625
9.085693359375 -45.009033203125 14.6119384765625
-43.7666015625 -39.362060546875 -5.729248046875
-3.78955078125 2.501708984375 1.529052734375
-34.7998046875 -26.912841796875 -3.87548828125
-44.700439453125 -49.97607421875 6.069580078125
-19.2763671875 -22.34423828125 18.7933349609375
-6.6044921875 -32.993408203125 3.2552490234375
7.107177734375 -41.565673828125 10.4591064453125
-22.393310546875 -2.940185546875 -1.0411376953125
-2.95849609375 -26.34033203125 6.5167236328125
3.159423828125 0.03076171875 -0.2628173828125
-2.7021484375 1.31884765625 0.70263671875
-3.7470703125 -2.190673828125 -1.7205810546875
-28.995849609375 -26.523681640625 -7.134033203125
-41.810546875 -24.72607421875 -5.6600341796875
15.950927734375 7.181640625 -2.2496337890625
-5.4345703125 -37.051025390625 7.7005615234375
28.16064453125 19.319091796875 -1.263427734375
-28.8359375 -35.915283203125 19.79443359375
-33.9560546875 -9.13818359375 -7.2371826171875
-31.56201171875 -7.94873046875 -6.3614501953125
-43.311279296875 -19.701171875 -8.697998046875
-37.0458984375 -5.26513671875 -5.0621337890625
-32.434326171875 -25.719482421875 -4.31640625
-12.114013671875 1.63037109375 1.850341796875
-40.23974609375 -9.2978515625 -6.5291748046875
-11.263427734375 -37.511962890625 6.422119140625
-8.476318359375 -37.775634765625 6.971923828125
-1.138671875 -40.840087890625 12.3760986328125
-19.395751953125 -53.29833984375 -0.1527099609375
-22.466552734375 -8.844970703125 -7.2181396484375
-40.281494140625 -59.393310546875 32.373779296875
29.357177734375 19.15478515625 -4.4373779296875
10.2802734375 -32.72314453125 -0.3594970703125
-39.365966796875 -53.56396484375 27.429443359375
-28.46533203125 -8.568359375 -6.442138671875
4.73193359375 -39.769287109375 8.33251953125
-3.243408203125 -4.861328125 -3.709228515625
27.562255859375 16.352783203125 -4.8941650390625
28.327392578125 23.319091796875 -9.2978515625
-10.22412109375 -34.775390625 3.722412109375
-9.563720703125 -31.96533203125 2.4488525390625
0.36474609375 -26.74365234375 8.30859375
-25.2548828125 -38.129638671875 8.703369140625
-5.7783203125 -5.211669921875 -3.9345703125
-43.7529296875 -60.935546875 19.2686767578125
-41.833984375 -10.897216796875 -8.9073486328125
-35.54638671875 -5.813720703125 -3.2103271484375
-14.373779296875 -8.080078125 -6.236328125
-23.55126953125 -36.89990234375 11.018310546875
13.662109375 7.439697265625 -3.22265625
0.422119140625 -36.908935546875 8.009521484375
6.6025390625 -54.92529296875 26.8165283203125
-17.460693359375 -25.59228515625 16.647216796875
-29.633056640625 -28.728759765625 2.6951904296875
6.431396484375 -9.674072265625 -7.7279052734375
-34.093017578125 -27.09130859375 5.32421875
-3.04345703125 -35.8984375 6.77685546875
8.2080078125 -46.60693359375 16.6875
-33.906494140625 -6.337646484375 -5.26025390625
-6.158447265625 -28.42822265625 -2.109130859375
20.552001953125 14.283447265625 -1.1290283203125
-21.200439453125 -30.44921875 18.2906494140625
-12.186767578125 -2.964599609375 -1.7952880859375
-38.436279296875 -7.431640625 -6.2890625
13.6865234375 9.953125 1.6661376953125
-41.388671875 -49.47265625 21.181884765625
-42.41259765625 -54.289794921875 26.6995849609375
12.2822265625 9.091552734375 3.3477783203125
-28.98291015625 -36.184326171875 17.091552734375
-9.177734375 -24.03759765625 20.933349609375
4.89453125 -26.805908203125 1.51904296875
-23.529052734375 -35.95166015625 13.892333984375
-23.228759765625 -27.680419921875 -3.1474609375
14.484130859375 22.740234375 -40.5020751953125
-37.03662109375 -52.13232421875 26.104736328125
-37.7529296875 -25.65576171875 6.0418701171875
5.1396484375 -48.777099609375 18.4244384765625
3.761962890625 -26.0390625 8.0892333984375
-30.423828125 -42.116455078125 12.9359130859375
2.916259765625 -5.219970703125 -4.0679931640625
-41.50537109375 -62.0263671875 34.3118896484375
-34.942138671875 -8.078369140625 -6.4271240234375
8.079345703125 -10.981689453125 -7.785400390625
3.220458984375 -40.765380859375 9.658935546875
28.6533203125 13.78125 -6.9315185546875
5.150634765625 12.118408203125 -10.579345703125
13.1533203125 24.836669921875 -38.38671875
-42.851806640625 -37.196044921875 4.9903564453125
-18.625732421875 -28.26611328125 -2.012451171875
-29.09765625 -37.930419921875 17.2073974609375
-11.7998046875 -55.880615234375 -3.8743896484375
-21.510498046875 -34.965576171875 13.8770751953125
-40.5380859375 -69.603515625 -3.21044921875
-30.341796875 -39.426025390625 8.5323486328125
-11.76611328125 -32.18310546875 2.1944580078125
-39.740478515625 -55.389892578125 30.2979736328125
-27.715087890625 -37.07958984375 14.107421875
-28.6474609375 -41.1572265625 21.4508056640625
30.224853515625 1.023681640625 -15.0487060546875
25.724609375 23.975341796875 -14.8092041015625
-20.140869140625 -34.185546875 10.3140869140625
-43.51220703125 -30.162109375 -0.065185546875
26.02978515625 22.598388671875 -16.921142578125
-6.06640625 -30.07080078125 0.6712646484375
5.93994140625 3.262451171875 1.8892822265625
8.82373046875 1.691162109375 -0.095947265625
-38.75390625 -23.165771484375 -7.4200439453125
-42.3212890625 -39.219970703125 7.630615234375
-30.67431640625 -26.0986328125 -5.053466796875
-19.33642578125 -6.58544921875 -4.8609619140625
-27.03125 -28.996826171875 20.0570068359375
11.94287109375 6.264404296875 -0.7030029296875
-45.033935546875 -52.150146484375 8.832763671875
-19.6259765625 -55.112548828125 -1.909423828125
7.740966796875 -5.396484375 -4.6671142578125
-33.141845703125 -24.812255859375 -5.8021240234375
0.873291015625 -22.8037109375 2.3846435546875
2.72705078125 -25.985595703125 5.9739990234375
-30.308349609375 -49.27734375 21.4482421875
11.59765625 -46.95166015625 18.112548828125
-18.280517578125 -28.353271484375 15.7442626953125
9.50341796875 -38.908935546875 7.544189453125
-32.246337890625 -9.26220703125 -7.4705810546875
17.778076171875 11.86474609375 -0.94140625
-40.8798828125 -29.8427734375 1.0418701171875
-10.526123046875 -28.7236328125 -1.6832275390625
26.09375 8.89892578125 -7.8023681640625
-19.798583984375 -9.5673828125 -8.146728515625
-22.710693359375 -42.259033203125 8.4786376953125
-28.676513671875 -28.7333984375 22.03369140625
-33.2099609375 -26.34912109375 1.4034423828125
-19.81396484375 -30.359375 0.343505859375
-36.70068359375 -45.3984375 16.089111328125
13.446044921875 -47.361572265625 16.4736328125
-42.074462890625 -57.08349609375 31.1329345703125
12.61962890625 -0.352783203125 -4.0548095703125
-32.1123046875 -40.825927734375 11.1292724609375
28.559326171875 0.794677734375 -14.0191650390625
36.017578125 13.17236328125 -12.7353515625
-43.578125 -54.25634765625 11.8878173828125
1.081787109375 3.80908203125 2.1336669921875
-8.74365234375 -23.470703125 22.753173828125
-13.52880859375 -35.6005859375 5.26220703125
6.769775390625 5.48388671875 3.589599609375
-29.05712890625 -39.148681640625 14.7301025390625
-30.54296875 -51.96630859375 29.999267578125
-43.490966796875 -51.330810546875 7.4727783203125
-2.306640625 -41.0302734375 14.728759765625
-44.805419921875 -66.947021484375 22.8424072265625
3.514404296875 4.79296875 3.802001953125
-15.868408203125 -25.288330078125 15.218017578125
7.205810546875 12.81640625 -8.931396484375
-14.414794921875 -31.242431640625 12.091552734375
-43.945068359375 -52.884033203125 9.929931640625
-35.53662109375 -54.424560546875 23.284423828125
-1.28466796875 -27.19140625 8.8402099609375
15.869140625 11.384765625 1.314453125
-39.624267578125 -25.46240234375 4.5296630859375
-15.310302734375 -27.5390625 -3.1212158203125
-23.201416015625 -26.246826171875 -5.0574951171875
-25.568359375 -34.8330078125 12.9932861328125
-1.02880859375 -23.59716796875 4.6558837890625
-42.11328125 -64.92822265625 26.60009765625
-8.927978515625 -25.41845703125 20.2041015625
-41.720947265625 -28.646728515625 -1.70166015625
25.07568359375 16.222900390625 -3.3450927734375
-39.998291015625 -56.010009765625 25.70263671875
-35.416259765625 -53.1953125 21.6878662109375
-6.20166015625 -31.16357421875 1.800537109375
-30.40771484375 -6.763427734375 -4.9080810546875
-26.51416015625 -31.546142578125 2.174072265625
-43.404052734375 -27.544921875 -4.3629150390625
-8.322265625 -27.06005859375 -3.3572998046875
-41.978759765625 -51.677001953125 9.0576171875
-27.404541015625 -32.9990234375 16.6650390625
-15.054931640625 -33.133544921875 9.986328125
-43.327392578125 -25.8212890625 -5.298583984375
4.273193359375 -1.167236328125 -1.1002197265625
-3.20654296875 -28.060791015625 3.489990234375
-20.283935546875 -28.783447265625 -1.94140625
-36.59814453125 -26.52587890625 7.9300537109375
-42.76708984375 -31.407958984375 1.3485107421875
1.136962890625 -23.515869140625 3.989013671875
10.08056640625 -51.235107421875 22.0716552734375
-14.51025390625 -23.303955078125 15.4718017578125
26.541259765625 18.71923828125 -21.02880859375
-7.152099609375 2.20751953125 1.4151611328125
-11.1142578125 -21.7353515625 18.9412841796875
-31.20947265625 -28.21337890625 0.31591796875
-34.554931640625 -24.611328125 5.033447265625
-28.544921875 -26.965576171875 22.35693359375
-22.36474609375 -30.8017578125 0.53125
-29.522216796875 -46.751953125 20.0386962890625
-2.2685546875 -10.18896484375 -8.160400390625
-13.522216796875 -20.657470703125 18.9630126953125
-28.202392578125 -27.156005859375 -3.7987060546875
-1.022216796875 -26.846923828125 -0.0831298828125
-15.224365234375 -5.516845703125 -4.2164306640625
-32.662109375 -28.0537109375 -1.2647705078125
-40.629150390625 -56.0693359375 28.91455078125
-15.93798828125 -6.516845703125 -5.24267578125
3.29443359375 -9.582275390625 -8.2254638671875
-7.137451171875 -2.482177734375 -1.83203125
10.509765625 6.056884765625 3.7266845703125
24.051025390625 13.595458984375 -4.27685546875
-32.045654296875 -46.208251953125 17.2490234375
-39.82568359375 -27.833251953125 2.2596435546875
-34.892822265625 -53.7412109375 33.2608642578125
-28.597412109375 -32.145263671875 20.4932861328125
-38.776611328125 -56.8427734375 34.0106201171875
-11.291015625 -8.4541015625 -6.6873779296875
-41.9736328125 -55.376953125 18.7718505859375
-39.882080078125 -26.80322265625 3.8214111328125
-43.180908203125 -41.599853515625 8.567138671875
8.809814453125 -0.249267578125 -1.4090576171875
-27.756103515625 -28.484375 -1.02734375
-20.07080078125 -4.505615234375 -2.9774169921875
-37.1513671875 -50.663818359375 33.5457763671875
9.658203125 -4.292724609375 -4.63134765625
36.671142578125 10.6728515625 -15.186767578125
-13.4404296875 -29.322509765625 -0.58984375
7.79541015625 -48.252197265625 18.712646484375
-5.715087890625 -3.2509765625 -2.6104736328125
30.243408203125 15.0302734375 -21.15966796875
7.657470703125 -2.89208984375 -2.759521484375
1.957763671875 4.14501953125 3.8323974609375
-38.2802734375 -34.978515625 6.75048828125
-37.077880859375 -25.118408203125 4.7620849609375
-15.568359375 -0.09423828125 1.8502197265625
22.09619140625 14.92578125 -1.157958984375
-8.037109375 -36.8564453125 9.826171875
-7.641845703125 -34.330810546875 3.53466796875
-20.25146484375 -27.49267578125 21.4080810546875
30.829345703125 21.523193359375 -4.0460205078125
2.076416015625 -26.771484375 -0.4122314453125
-17.249755859375 -24.24951171875 17.33056640625
29.551025390625 15.139892578125 -7.1429443359375
-10.48828125 -0.7412109375 -1.0404052734375
-38.39111328125 -51.24853515625 21.89697265625
2.654541015625 -27.92578125 4.6741943359375
19.24560546875 0.056640625 -9.5592041015625
-18.353759765625 -20.05078125 20.018798828125
-27.605224609375 -26.1181640625 -4.966552734375
-5.0244140625 -0.009765625 -0.20166015625
-45.653564453125 -47.778076171875 3.9188232421875
24.37646484375 8.97021484375 -6.713134765625
-31.2705078125 -10.392578125 -8.736572265625
-37.510498046875 -47.40966796875 18.4803466796875
-42.712890625 -55.517578125 14.7320556640625
19.06494140625 13.172607421875 -2.504638671875
-32.933837890625 -39.450439453125 9.2554931640625
14.904052734375 5.300537109375 -6.9129638671875
26.77880859375 14.44140625 -5.6888427734375
-40.79052734375 -7.617431640625 -4.32275390625
30.805908203125 3.857421875 -13.53369140625
16.414306640625 2.856201171875 -7.2384033203125
-9.46142578125 1.21875 1.8834228515625
-36.08447265625 -24.497314453125 2.1414794921875
-29.121337890625 -29.571044921875 1.560791015625
-45.629150390625 -65.75634765625 20.389892578125
-38.82421875 -55.676025390625 24.28955078125
-33.17431640625 -52.063232421875 24.3824462890625
-12.028076171875 -32.656982421875 10.20849609375
-33.6279296875 -52.862548828125 22.4744873046875
8.205078125 -7.573486328125 -6.11181640625
9.462646484375 10.443359375 -2.460205078125
14.81689453125 10.739013671875 2.574462890625
10.560791015625 10.997314453125 -3.3172607421875
19.193359375 13.90234375 -4.4970703125
-3.510009765625 -30.4541015625 4.360107421875
-17.92626953125 -36.594482421875 3.2742919921875
16.332275390625 5.153564453125 -5.3740234375
-45.360107421875 -61.926513671875 19.702392578125
10.802734375 -46.0615234375 16.068603515625
-16.623291015625 -30.648193359375 0.820556640625
-10.953369140625 -30.3017578125 0.26416015625
-0.9052734375 -41.0029296875 15.4959716796875
10.602783203125 -4.79296875 -5.73779296875
-32.68359375 -50.02001953125 29.6453857421875
29.252685546875 19.870361328125 -2.11572265625
-20.50537109375 -7.619873046875 -6.2801513671875
-33.359375 -52.669189453125 32.3970947265625
3.543701171875 -8.531982421875 -7.12060546875
-2.180419921875 -24.92529296875 2.708984375
-29.780517578125 -45.76708984375 18.9014892578125
-1.408203125 -38.62158203125 8.7625732421875
-45.59765625 -42.2294921875 -1.204833984375
-10.025390625 -32.8095703125 13.099365234375
-4.77685546875 -33.07568359375 3.489013671875
-28.294189453125 -38.92333984375 7.516845703125
-39.5830078125 -46.409423828125 16.6402587890625
-0.28125 2.852783203125 4.2257080078125
-12.96484375 -26.475341796875 -4.49267578125
7.10400390625 -39.997314453125 8.9473876953125
-30.427490234375 -43.19091796875 16.318359375
-42.547607421875 -50.81591796875 20.5970458984375
-4.70947265625 -34.880126953125 5.3594970703125
6.423828125 -28.351806640625 -1.697998046875
-36.91455078125 -9.07763671875 -6.8707275390625
-29.924072265625 -41.685546875 14.76611328125
3.0712890625 -46.697265625 14.90576171875
-27.17626953125 -11.938232421875 -9.6036376953125
-26.04736328125 -10.5771484375 -8.08935546875
-2.307373046875 -7.653564453125 -6.229736328125
26.79248046875 21.40966796875 -17.324951171875
5.6162109375 -47.15185546875 17.3056640625
-21.9609375 -25.5556640625 21.07568359375
-37.021240234375 -27.189697265625 6.5103759765625
7.973876953125 -30.528076171875 0.3714599609375
-3.625244140625 -38.762939453125 8.969482421875
-42.44091796875 -47.59375 17.155029296875
28.3828125 18.1064453125 -4.1436767578125
-1.430419921875 -25.46533203125 5.6414794921875
-7.151611328125 -37.404541015625 7.811767578125
12.381591796875 8.14013671875 0.540771484375
-30.17236328125 -50.898193359375 31.49462890625
-43.7919921875 -64.274658203125 23.6829833984375
-39.7138671875 -10.392578125 -7.7293701171875
-10.6298828125 -26.8505859375 -3.946533203125
-11.34619140625 1.4853515625 0.00732421875
-7.050537109375 -7.849609375 -6.1617431640625
-32.18994140625 -27.216796875 7.298583984375
8.437744140625 3.49365234375 1.2255859375
-20.0576171875 -45.05126953125 6.708984375
-25.78173828125 -29.083251953125 19.0308837890625
11.31884765625 -49.054443359375 20.505615234375
-38.793212890625 -69.33251953125 -3.81494140625
-25.259765625 -29.7880859375 -0.261474609375
12.59521484375 -49.914794921875 22.9766845703125
-10.982177734375 -22.685302734375 17.864013671875
9.0166015625 -53.480224609375 26.37255859375
29.474609375 7.35205078125 -10.76025390625
-43.024658203125 -38.77490234375 5.1162109375
-7.841796875 -5.748046875 -4.258056640625
-13.91357421875 -21.31201171875 17.5616455078125
16.47021484375 2.365966796875 -8.675537109375
-18.558349609375 -46.460693359375 4.8851318359375
-8.146484375 -29.270751953125 -1.1724853515625
-42.215576171875 -23.114990234375 -7.4437255859375
-39.16455078125 -52.347900390625 32.55908203125
-14.704345703125 -33.16748046875 1.855224609375
3.303955078125 -44.588134765625 11.630615234375
-18.009521484375 -30.463134765625 13.5201416015625
10.92822265625 -52.233154296875 24.5672607421875
-25.36279296875 -9.4755859375 -7.4654541015625
-37.375244140625 -23.62841796875 4.24267578125
-41.91162109375 -55.6708984375 13.2523193359375
-43.470703125 -40.288818359375 7.5296630859375
-2.8232421875 -33.20556640625 5.5067138671875
-10.264404296875 -36.389404296875 4.7401123046875
-28.433349609375 -25.276123046875 22.23095703125
-33.43505859375 -45.984130859375 16.985595703125
-38.73828125 -27.166015625 0.9576416015625
-38.29736328125 -49.601806640625 20.8438720703125
-10.984619140625 -52.606689453125 -2.3211669921875
22.102294921875 9.520263671875 -5.4473876953125
1.67724609375 -43.081298828125 13.0081787109375
6.369873046875 -45.10400390625 14.8721923828125
12.791748046875 -46.275634765625 17.6595458984375
24.650390625 11.237548828125 -5.770751953125
-43.092041015625 -65.0810546875 25.2979736328125
7.42822265625 -53.287841796875 23.805419921875
-9.8369140625 -34.209716796875 11.45361328125
-14.693115234375 -52.24462890625 -1.832763671875
25.916015625 18.14111328125 -1.278564453125
9.3857421875 -38.864013671875 5.7391357421875
-36.135009765625 -28.240234375 10.1612548828125
13.620361328125 -48.60302734375 22.1925048828125
-17.833740234375 -29.52001953125 -0.58935546875
-15.62939453125 -26.798828125 -5.608642578125
-42.56787109375 -57.7138671875 29.267822265625
-38.214111328125 -26.733154296875 8.943603515625
-36.206787109375 -51.11767578125 21.7010498046875
8.98046875 -47.654296875 17.7877197265625
-38.513427734375 -25.193115234375 2.700927734375
-22.62744140625 -29.846435546875 -0.571044921875
-9.171142578125 -30.213623046875 0.5350341796875
-40.56201171875 -56.622314453125 22.931640625
5.8564453125 -0.44921875 -0.6812744140625
0.702880859375 -9.710205078125 -7.952392578125
-20.399169921875 -26.752197265625 -4.153564453125
-34.94091796875 -45.6435546875 15.4080810546875
-6.845947265625 -37.911865234375 10.8411865234375
-15.43212890625 -9.5302734375 -7.33642578125
-0.591552734375 3.5556640625 1.835693359375
5.090576171875 -43.92333984375 13.4033203125
-29.603515625 -53.33056640625 27.41650390625
-13.733154296875 -27.48046875 14.11181640625
-16.9248046875 -29.244384765625 13.6507568359375
-36.1142578125 -49.7109375 31.8209228515625
-43.115966796875 -38.379638671875 -12.36328125
-17.44677734375 -2.4296875 -1.9273681640625
-12.810546875 -22.518798828125 17.2083740234375
-43.387939453125 -57.02880859375 14.5062255859375
-44.041015625 -57.685546875 16.2689208984375
-42.47802734375 -10.4794921875 -5.2471923828125
-3.038330078125 -28.212158203125 -1.510498046875
-1.58984375 -36.2861328125 6.9932861328125
22.464111328125 11.48095703125 -4.592041015625
-21.4091796875 -32.05322265625 17.11328125
-15.279052734375 -29.07666015625 -0.7777099609375
-16.985107421875 -32.0673828125 10.8582763671875
-0.795166015625 -25.57666015625 1.069091796875
-31.92724609375 -27.84228515625 -2.6373291015625
-37.640625 -54.23583984375 25.336181640625
-45.516845703125 -41.17822265625 -3.6871337890625
1.54443359375 -27.463134765625 10.270263671875
-33.072265625 -51.171630859375 21.82666015625
-17.96630859375 -4.561767578125 -3.6702880859375
28.009521484375 18.541259765625 -18.65576171875
-41.59521484375 -51.184326171875 15.0123291015625
-39.791015625 -71.1640625 -2.6907958984375
3.768310546875 -2.9375 -2.32275390625
-37.708984375 -9.76708984375 -7.8153076171875
-34.34375 -47.555419921875 19.027587890625
2.157958984375 2.84228515625 1.791748046875
-3.342529296875 -27.01416015625 5.0738525390625
-36.548828125 -51.765625 27.4715576171875
-42.563232421875 -55.8525390625 27.3377685546875
1.779541015625 -26.87939453125 9.0230712890625
-0.48681640625 -5.730712890625 -4.6705322265625
-5.6162109375 -39.142822265625 11.8216552734375
-8.0 -36.26953125 5.42431640625
-41.804931640625 -47.7724609375 19.30078125
-10.2626953125 -37.466064453125 8.13232421875
-9.310546875 -9.970703125 -8.163330078125
17.58203125 1.78271484375 -7.193603515625
-29.093017578125 -39.239990234375 20.07470703125
31.016845703125 6.326416015625 -12.5111083984375
-35.676513671875 -28.166748046875 4.82275390625
-8.260986328125 -8.514404296875 -7.0572509765625
3.479736328125 -24.33154296875 2.6602783203125
8.569580078125 10.622314453125 -10.0689697265625
-41.06982421875 -54.936279296875 25.549560546875
-18.3466796875 -32.648681640625 8.6495361328125
-34.25048828125 -27.387939453125 8.3712158203125
-17.052734375 -35.8681640625 5.1385498046875
6.754638671875 1.432861328125 0.51513671875
26.69140625 18.220703125 -2.633544921875
-12.64111328125 -31.46630859375 11.411376953125
-45.830078125 -40.42919921875 -6.191162109375
-29.626953125 -44.405029296875 18.246826171875
-42.32861328125 -43.073486328125 10.8616943359375
1.02490234375 -26.4091796875 -1.565673828125
-26.55517578125 -37.30078125 11.2564697265625
8.8017578125 -51.557373046875 22.59912109375
-33.048583984375 -27.058837890625 -4.1112060546875
-36.221435546875 -23.22119140625 3.3232421875
-5.30029296875 -26.9599609375 -4.57861328125
-31.486572265625 -38.37548828125 7.528076171875
-5.410888671875 -29.353515625 -0.59619140625
-33.439697265625 -28.955322265625 9.7188720703125
-36.040771484375 -52.657470703125 32.20703125
12.33447265625 7.1640625 2.9080810546875
-42.546630859375 -48.658203125 7.927001953125
-18.522216796875 -25.72509765625 -5.923583984375
-39.462158203125 -38.21728515625 7.083984375
-35.76953125 -50.64697265625 28.4908447265625
-24.4794921875 -31.042724609375 1.16259765625
7.098388671875 4.51123046875 5.057373046875
-11.846923828125 -30.41845703125 13.3236083984375
-25.488525390625 -27.401123046875 -3.2725830078125
-12.88525390625 -6.66650390625 -5.19873046875
-29.606201171875 -28.38232421875 -2.13330078125
-5.596923828125 1.512939453125 3.2333984375
-1.25 3.03173828125 3.083740234375
-41.921875 -45.83203125 16.098388671875
-41.171875 -32.3291015625 3.1898193359375
12.0546875 8.33935546875 -4.5528564453125
7.22900390625 -50.787841796875 22.432373046875
0.001953125 -8.2822265625 -6.6480712890625
-24.555908203125 -5.912353515625 -4.0892333984375
26.138427734375 6.98291015625 -9.1416015625
25.719970703125 12.00341796875 -6.146728515625
-0.62109375 -39.4189453125 11.241943359375
27.74072265625 2.407958984375 -12.199462890625
-39.077392578125 -25.38525390625 6.2474365234375
10.390869140625 6.06298828125 1.5869140625
-40.037109375 -32.808837890625 5.6282958984375
36.5908203125 12.579345703125 -13.8250732421875
11.032470703125 -43.8720703125 13.257080078125
12.8515625 6.683837890625 -5.906494140625
9.912109375 -43.31640625 12.107666015625
-41.60205078125 -62.09228515625 32.9515380859375
-41.1181640625 -50.635498046875 22.285888671875
30.42431640625 8.584228515625 -11.0103759765625
-15.967041015625 -27.06201171875 14.873779296875
-2.292724609375 -23.75 5.207763671875
-5.00341796875 -38.319580078125 10.11181640625
-2.775390625 2.230712890625 3.0758056640625
8.82568359375 -33.810546875 1.3878173828125
-32.0234375 -52.050537109375 27.8779296875
-34.1513671875 -27.258544921875 -1.8043212890625
-2.9345703125 -27.642822265625 2.202880859375
-12.14111328125 -20.787353515625 19.669677734375
-39.2548828125 -28.113037109375 -2.305908203125
-31.951416015625 -24.56640625 -6.77294921875
11.176513671875 8.09423828125 1.9588623046875
-29.014404296875 -37.078125 20.4783935546875
7.859619140625 -1.70947265625 -1.6357421875
-20.037109375 -29.4951171875 18.797607421875
3.90771484375 -27.22900390625 -1.6199951171875
12.279052734375 6.362548828125 -2.016357421875
-22.9375 -30.46533203125 18.4674072265625
-25.6748046875 -33.84765625 14.0938720703125
29.6591796875 16.359130859375 -6.430908203125
19.352783203125 -0.006591796875 -7.8270263671875
-8.05712890625 -4.594482421875 -3.5252685546875
-44.078857421875 -67.942138671875 24.4273681640625
-20.93017578125 -26.143310546875 21.734619140625
-21.552734375 -28.15673828125 19.6541748046875
-27.713134765625 -30.621826171875 18.490478515625
-37.805908203125 -25.47021484375 -5.8590087890625
10.54736328125 -42.328125 11.320068359375
-36.915771484375 -7.70263671875 -3.5006103515625
-10.454833984375 -22.010986328125 21.4501953125
23.146484375 13.907958984375 -3.2362060546875
30.13330078125 12.935546875 -8.6102294921875
-34.418701171875 -23.3876953125 3.9652099609375
-36.712890625 -27.838623046875 -2.5340576171875
-27.498779296875 -35.767333984375 14.3470458984375
-29.129638671875 -38.321044921875 15.79541015625
-31.676513671875 -39.304931640625 8.701416015625
-44.619873046875 -53.6171875 11.2169189453125
-23.466064453125 -36.848876953125 12.3636474609375
29.813720703125 20.5712890625 -4.153564453125
-29.15625 -41.907958984375 18.6776123046875
-10.097412109375 -42.90673828125 6.9937744140625
14.517333984375 9.61083984375 -0.65771484375
-41.28369140625 -26.929931640625 -3.576416015625
-16.2021484375 -20.653564453125 17.930419921875
-39.2802734375 -54.33251953125 32.68212890625
29.634765625 3.383544921875 -13.06884765625
-34.072998046875 -38.4013671875 8.25146484375
-43.111572265625 -34.046142578125 2.5821533203125
-39.279296875 -52.739990234375 30.2618408203125
30.6318359375 11.756591796875 -24.267822265625
-32.4453125 -26.043212890625 6.695068359375
-12.22705078125 -33.91650390625 3.2232666015625
-33.71337890625 -49.061767578125 29.911865234375
-34.223388671875 -10.265869140625 -7.9166259765625
0.94921875 2.408447265625 1.3988037109375
-29.208740234375 -29.61767578125 0.2215576171875
-42.7236328125 -51.9384765625 21.75537109375
-12.343505859375 -52.650146484375 -2.180419921875
-9.465087890625 -1.56640625 -1.350341796875
-43.756103515625 -31.68896484375 -0.82861328125
-15.620849609375 -2.9462890625 -1.8271484375
-22.3369140625 -4.018798828125 -3.4649658203125
-25.934326171875 -31.79296875 15.863525390625
27.79931640625 5.55810546875 -10.5592041015625
-34.51611328125 -47.091064453125 17.7835693359375
-39.03662109375 -27.371337890625 -3.49365234375
-40.28173828125 -61.26904296875 34.3214111328125
32.55224609375 17.732177734375 -10.324951171875
2.302734375 -26.63623046875 -3.5640869140625
-25.076171875 -28.873291015625 -1.418701171875
-30.460205078125 -25.3564453125 -6.241943359375
-1.902099609375 -35.06640625 6.3741455078125
-10.956787109375 -43.57470703125 5.5799560546875
-29.937744140625 -52.9033203125 23.9085693359375
4.530517578125 -40.5419921875 9.5655517578125
-20.728271484375 -51.22412109375 -0.48291015625
-10.89794921875 -33.916015625 9.8302001953125
6.349365234375 -4.9287109375 -3.9578857421875
3.544189453125 -25.419189453125 6.899658203125
-42.366943359375 -54.0830078125 16.338623046875
-10.16259765625 -35.55517578125 8.9659423828125
25.754150390625 13.530517578125 -5.354248046875
-20.433837890625 -53.090087890625 -1.381591796875
-26.029052734375 -27.2978515625 20.2818603515625
-31.17822265625 -4.724609375 -4.3277587890625
-19.24462890625 -36.6455078125 3.408203125
-0.936279296875 -3.358642578125 -2.751708984375
-9.12744140625 -35.99755859375 9.666015625
-35.347412109375 -51.860595703125 25.5362548828125
-22.801025390625 -25.345703125 22.077880859375
-31.154296875 -25.4296875 -3.95166015625
23.53857421875 12.302978515625 -4.52294921875
-9.210693359375 -28.668701171875 -1.819091796875
-35.200927734375 -6.31005859375 -5.53369140625
-8.12890625 0.434326171875 -0.1749267578125
-2.928955078125 -28.333251953125 -0.1976318359375
-37.156982421875 -24.5341796875 -6.6019287109375
6.4169921875 -43.622802734375 13.78125
-28.816650390625 -39.123291015625 12.0225830078125
-36.8671875 -48.09033203125 19.6337890625
-8.82080078125 -2.73583984375 -2.1312255859375
11.736572265625 8.35791015625 -2.3521728515625
-0.75146484375 -2.02392578125 -1.5916748046875
31.812744140625 1.6884765625 -15.0748291015625
21.307861328125 12.577880859375 -4.1973876953125
-40.19970703125 -47.48046875 17.84423828125
-14.00146484375 -27.4833984375 -3.2574462890625
-35.200927734375 -49.47900390625 21.0032958984375
-22.73193359375 -10.041748046875 -8.3526611328125
18.949951171875 12.557373046875 0.37255859375
20.5361328125 13.05224609375 0.3045654296875
12.5400390625 -51.578125 23.1470947265625
3.35498046875 -23.52978515625 3.7421875
-44.263671875 -40.787353515625 -3.7408447265625
-44.08837890625 -63.418701171875 21.58251953125
2.52880859375 3.84228515625 4.990966796875
-8.89208984375 -31.175048828125 1.64501953125
-20.55908203125 -35.50244140625 6.947021484375
-39.322509765625 -53.1513671875 28.84716796875
-17.5205078125 -25.918701171875 -4.73974609375
23.9775390625 7.143310546875 -7.53857421875
-29.967529296875 -27.55078125 -5.0269775390625
23.810302734375 16.744140625 0.3504638671875
18.295654296875 16.813720703125 -6.2689208984375
7.99072265625 5.646240234375 3.0576171875
-14.3662109375 -35.544677734375 6.266845703125
-4.197265625 -31.702392578125 3.2677001953125
-21.928466796875 -27.625 -3.283203125
-41.293701171875 -33.74462890625 4.2288818359375
-12.163330078125 -0.994140625 -1.33837890625
-6.856201171875 -27.600830078125 -3.19580078125
-11.5859375 -28.123046875 -2.328125
24.97705078125 6.51318359375 -8.6806640625
-12.4462890625 -51.772705078125 -1.0518798828125
-44.740478515625 -69.412841796875 24.68994140625
-26.311767578125 -26.06201171875 -5.102783203125
2.978515625 -7.739501953125 -5.98486328125
-13.3134765625 -28.30810546875 -2.1744384765625
17.764404296875 8.173828125 -3.959716796875
-7.75732421875 -26.73876953125 20.2734375
-14.512939453125 0.826171875 1.5103759765625
-37.1884765625 -26.74267578125 5.30126953125
-39.190185546875 -74.39111328125 -1.5633544921875
-21.1064453125 -25.767822265625 -5.187744140625
-36.72265625 -55.6103515625 22.7330322265625
-4.00146484375 -10.220947265625 -7.9647216796875
2.406494140625 -25.999267578125 0.62060546875
-34.065673828125 -5.195068359375 -4.532958984375
30.1728515625 6.34765625 -11.52685546875
-25.265380859375 -25.295654296875 -6.831787109375
-15.8486328125 -30.62744140625 12.3682861328125
-15.318115234375 -49.529296875 -3.0218505859375
-39.602783203125 -27.5615234375 0.079833984375
6.4462890625 12.04296875 -10.754638671875
-41.671630859375 -55.429931640625 28.2266845703125
5.326416015625 -49.250732421875 19.6925048828125
2.26513671875 -38.947265625 8.305908203125
-14.702392578125 -32.3544921875 11.0029296875
-35.457763671875 -26.0986328125 -4.9451904296875
-40.7392578125 -8.36328125 -5.375
-42.906005859375 -62.55810546875 21.1651611328125
-32.8740234375 -24.19580078125 5.37841796875
-3.302978515625 -25.364501953125 4.52685546875
24.826416015625 23.6953125 -17.3450927734375
-5.647705078125 -8.479248046875 -6.9154052734375
-5.5712890625 -6.43212890625 -5.121337890625
-32.977294921875 -24.5400390625 3.1077880859375
1.077880859375 -23.864013671875 1.6837158203125
-30.663818359375 -27.621826171875 -2.7313232421875
-14.51025390625 -30.4306640625 13.1568603515625
7.5244140625 -38.301513671875 7.42236328125
-14.556884765625 -19.78173828125 19.2413330078125
-32.2900390625 -50.303955078125 22.3597412109375
-15.716796875 -35.42626953125 6.43798828125
-3.6484375 -7.339599609375 -5.5595703125
0.142333984375 0.0771484375 0.0927734375
-2.30810546875 -0.58056640625 -0.2113037109375
11.676513671875 -51.34765625 25.1075439453125
-23.0625 -32.56884765625 17.18408203125
-17.8330078125 -8.0537109375 -6.261474609375
0.125732421875 -39.359130859375 8.904296875
-13.169677734375 -53.439453125 -3.189697265625
13.796142578125 -49.12158203125 15.1873779296875
-38.6279296875 -50.4951171875 31.9287109375
-35.45703125 -52.48486328125 34.4215087890625
-44.5244140625 -65.717041015625 23.0372314453125
5.563720703125 -3.211181640625 -2.592529296875
-33.064453125 -49.249755859375 20.3790283203125
7.24658203125 -53.91796875 26.00927734375
3.826416015625 -26.135009765625 1.3328857421875
-37.59326171875 -27.2958984375 -1.419921875
-10.062255859375 -8.011474609375 -6.286865234375
-8.2998046875 1.743408203125 1.8707275390625
-14.5595703125 -4.427490234375 -3.60107421875
-29.280517578125 -43.433349609375 19.294921875
8.907470703125 -2.66943359375 -2.851806640625
12.462646484375 10.17041015625 3.99853515625
5.90087890625 -27.072509765625 2.2510986328125
28.57177734375 16.18359375 -21.51953125
8.728759765625 -52.8046875 24.222412109375
-32.216552734375 -47.073974609375 18.9017333984375
-15.495361328125 -37.254638671875 4.2225341796875
-0.267333984375 -4.54052734375 -3.541259765625
-4.454345703125 -5.239013671875 -3.6573486328125
-27.717041015625 -37.63916015625 12.6541748046875
-24.85498046875 -10.263671875 -8.5931396484375
-18.956787109375 -9.18701171875 -7.2772216796875
-42.844970703125 -65.574462890625 27.471923828125
6.345947265625 -48.022216796875 18.44287109375
-30.141357421875 -40.056396484375 9.7286376953125
-19.56494140625 -26.34619140625 21.9952392578125
-42.727783203125 -35.52880859375 4.4449462890625
12.35888671875 -46.977783203125 15.2784423828125
8.291259765625 -45.296142578125 15.5535888671875
-10.212646484375 -4.6630859375 -3.72705078125
-18.63818359375 -33.8818359375 0.783935546875
9.286865234375 5.89453125 4.258544921875
3.82470703125 -44.24462890625 13.928466796875
30.769287109375 21.395263671875 -6.2083740234375
4.241455078125 1.142333984375 0.7353515625
-3.6484375 -27.95751953125 -3.1884765625
-3.522216796875 -29.074462890625 1.9573974609375
-40.785888671875 -62.481689453125 36.8843994140625
-12.046630859375 -29.531005859375 -0.343017578125
-42.17822265625 -58.46337890625 21.3929443359375
-45.10107421875 -65.55419921875 21.7498779296875
1.93603515625 -43.899658203125 14.18994140625
-25.7900390625 -36.459228515625 11.7940673828125
-41.51123046875 -9.205078125 -6.35546875
16.01025390625 8.72314453125 -1.4661865234375
0.81591796875 1.001220703125 0.6605224609375
-25.215087890625 -7.439208984375 -5.6820068359375
-1.631103515625 0.344482421875 0.3568115234375
-39.6572265625 -54.833251953125 26.7822265625
18.60791015625 -0.69482421875 -8.783935546875
0.8330078125 3.46923828125 3.8077392578125
-34.509765625 -54.02294921875 31.828369140625
-2.463134765625 -9.17236328125 -7.4534912109375
-39.689208984375 -6.843505859375 -4.69873046875
-27.029541015625 -29.63818359375 -0.028564453125
-36.258544921875 -38.371337890625 8.4942626953125
27.75341796875 0.66455078125 -13.0693359375
-32.7841796875 -4.7900390625 -3.2900390625
-40.4638671875 -11.397705078125 -8.7587890625
27.685546875 4.29541015625 -11.2921142578125
27.930908203125 17.064453125 -20.3359375
-40.28125 -31.6201171875 5.0242919921875
7.9912109375 -6.5615234375 -5.4085693359375
-5.45556640625 2.580810546875 2.59814453125
-13.70947265625 -33.249267578125 9.818603515625
-18.02587890625 -28.757568359375 18.2908935546875
11.024658203125 -41.123291015625 8.76416015625
31.094482421875 20.0615234375 -7.8570556640625
-2.92431640625 -39.2900390625 11.0562744140625
-31.324951171875 -49.07373046875 20.235595703125
26.175048828125 17.427490234375 -0.191162109375
3.369873046875 -35.5947265625 9.3228759765625
1.84423828125 -45.203125 15.3172607421875
-40.7646484375 -64.84765625 20.9866943359375
-12.0263671875 -31.1484375 1.5479736328125
-40.611328125 -29.429931640625 -0.228759765625
8.64892578125 -30.11962890625 -1.8831787109375
19.1064453125 -1.284912109375 -10.7484130859375
14.228271484375 -48.413330078125 17.5772705078125
-43.167236328125 -28.017578125 -2.279541015625
28.50341796875 7.77001953125 -10.10546875
-16.425537109375 -8.83837890625 -7.05322265625
7.808837890625 11.990966796875 -9.6385498046875
-11.888671875 -7.353759765625 -5.4783935546875
18.17431640625 16.14404296875 -3.8441162109375
-29.9033203125 -28.630859375 -0.817138671875
-12.5947265625 -35.5322265625 6.0772705078125
-14.335693359375 -30.933837890625 0.9520263671875
-2.84423828125 -28.59033203125 7.375
10.287109375 -44.2578125 14.6324462890625
-12.5205078125 -8.897216796875 -7.0880126953125
12.5888671875 -2.09423828125 -4.8961181640625
-40.952880859375 -66.90234375 -3.0450439453125
-40.052001953125 -23.291015625 -7.7408447265625
31.885009765625 22.327880859375 -3.97802734375
1.232421875 -27.029541015625 6.8126220703125
1.723876953125 -27.99365234375 3.8621826171875
-19.964111328125 -52.45703125 0.552490234375
-37.3193359375 -52.046875 28.3961181640625
-42.0244140625 -46.96337890625 18.1324462890625
-42.909423828125 -54.869384765625 13.515380859375
-1.997802734375 -26.43896484375 7.2857666015625
-19.25 -35.767333984375 5.849609375
-1.2294921875 2.487060546875 1.2335205078125
-29.061279296875 -39.205810546875 8.4400634765625
20.26123046875 13.60107421875 -2.11328125
-19.283203125 -32.1640625 9.2979736328125
22.642578125 16.00244140625 -1.39892578125
-13.922607421875 -26.376708984375 -5.25830078125
-20.01123046875 -31.3505859375 1.0439453125
8.928955078125 -39.91259765625 9.22802734375
27.6650390625 12.660400390625 -7.084228515625
25.01806640625 22.861328125 -18.4476318359375
-32.2763671875 -49.385009765625 30.612060546875
23.942626953125 23.5771484375 -18.554931640625
27.13720703125 8.120849609375 -8.98486328125
-40.317626953125 -15.95947265625 -5.9490966796875
7.6484375 -0.718994140625 -0.947998046875
11.9619140625 2.603515625 -1.98388671875
36.763671875 11.85888671875 -14.90087890625
24.095947265625 10.085693359375 -5.9801025390625
-37.28173828125 -32.369384765625 8.530517578125
-31.13232421875 -50.208251953125 32.1524658203125
-41.811279296875 -51.441162109375 23.1060791015625
15.591552734375 4.477294921875 -6.3189697265625
-37.774658203125 -53.098388671875 26.004638671875
-16.81787109375 -33.77490234375 8.25048828125
-21.564697265625 -34.314697265625 14.9046630859375
10.055908203125 1.852783203125 -0.634033203125
-16.532470703125 -26.0625 16.015869140625
-34.2314453125 -24.19873046875 -7.3092041015625
-35.502685546875 -26.2822265625 -0.095947265625
-35.959716796875 -27.557373046875 -3.446044921875
-35.996337890625 -28.2490234375 6.1683349609375
-34.1513671875 -26.251708984375 0.644775390625
-38.39013671875 -59.25537109375 34.0240478515625
-37.142578125 -26.7939453125 -0.025634765625
-10.69384765625 -21.241455078125 20.30810546875
27.51123046875 18.48876953125 -20.343017578125
24.5263671875 15.08837890625 -3.548828125
-25.554443359375 -24.549072265625 22.07470703125
-34.019775390625 -49.057373046875 31.731201171875
18.669189453125 9.927978515625 -2.3563232421875
-14.420166015625 -10.447509765625 -8.1160888671875
9.59130859375 3.960205078125 0.7677001953125
10.84814453125 3.91015625 -0.2532958984375
10.797607421875 -40.47998046875 7.544921875
15.7060546875 6.001708984375 -4.665771484375
21.1611328125 13.28857421875 -3.151123046875
-13.604248046875 -50.770263671875 -1.63330078125
-38.54443359375 -24.566162109375 3.7255859375
-29.674560546875 -40.5283203125 14.968994140625
-40.947265625 -72.149169921875 -1.833984375
-24.049560546875 -6.689208984375 -5.203857421875
1.47412109375 -6.8583984375 -5.6026611328125
-41.189697265625 -48.529541015625 19.99169921875
-29.887939453125 -51.069091796875 22.8812255859375
-23.76171875 -8.751953125 -7.0426025390625
5.386474609375 5.8076171875 3.388427734375
30.622314453125 13.623046875 -22.01513671875
-23.264404296875 -28.1044921875 20.28076171875
-1.850830078125 -41.47265625 13.2342529296875
-40.057861328125 -60.2236328125 33.5692138671875
-12.569580078125 -3.584716796875 -3.19921875
-24.326904296875 -26.81201171875 21.0777587890625
-41.46875 -59.205322265625 17.537109375
-38.834716796875 -61.34521484375 35.52978515625
6.07421875 -28.435791015625 -0.3204345703125
-45.44677734375 -59.32373046875 17.9215087890625
-10.246337890625 -24.191162109375 17.4925537109375
-13.95654296875 -5.45166015625 -4.3489990234375
-20.776611328125 -5.717529296875 -4.485595703125
26.57373046875 0.127197265625 -13.0601806640625
-40.80712890625 -57.44921875 12.32763671875
4.203369140625 -5.154052734375 -4.201416015625
-2.4443359375 -38.098876953125 8.5255126953125
11.54345703125 -2.971923828125 -4.102294921875
6.848388671875 -46.653564453125 16.816650390625
-35.90283203125 -10.51806640625 -8.2147216796875
-6.14404296875 -37.678955078125 8.552734375
-39.216552734375 -57.570556640625 32.5792236328125
30.048583984375 10.067626953125 -9.7308349609375
-28.679931640625 -6.82177734375 -4.691162109375
-37.789306640625 -6.0380859375 -5.59375
-26.282958984375 -35.766357421875 12.8804931640625
-9.979736328125 1.1572265625 0.205078125
24.333251953125 24.222412109375 -15.430908203125
4.21826171875 5.224853515625 2.959228515625
4.402099609375 4.857666015625 4.5765380859375
-31.60205078125 -52.761962890625 25.9068603515625
26.64697265625 10.056396484375 -7.589599609375
4.17138671875 -46.923095703125 17.0377197265625
12.984375 9.522216796875 2.5069580078125
-41.604248046875 -30.761962890625 0.9173583984375
9.14208984375 11.08349609375 -5.2811279296875
-31.110595703125 -51.80615234375 28.732177734375
-40.99072265625 -55.981201171875 24.4495849609375
-42.50244140625 -39.370361328125 -12.2215576171875
10.7392578125 -51.75634765625 23.2919921875
-16.07421875 -26.455322265625 -4.580810546875
-40.546875 -28.747802734375 2.1368408203125
-17.861572265625 -27.982666015625 -2.931884765625
26.43408203125 4.13134765625 -10.7437744140625
-29.03271484375 -39.883056640625 13.2373046875
8.85693359375 -41.13330078125 10.8182373046875
29.115966796875 20.14306640625 -3.3182373046875
9.036376953125 0.70849609375 -0.7796630859375
1.430908203125 -42.18798828125 12.2974853515625
-39.00634765625 -35.9091796875 6.6312255859375
-40.1181640625 -28.080078125 3.565673828125
27.23828125 22.76953125 -8.4478759765625
-3.311767578125 0.090576171875 0.0579833984375
30.20166015625 -0.574462890625 -15.8863525390625
28.35498046875 1.697021484375 -12.88818359375
0.073486328125 -41.50830078125 14.843994140625
6.525146484375 0.47900390625 -0.1104736328125
9.675048828125 -30.777587890625 -2.5975341796875
26.376953125 16.0380859375 -4.400146484375
-35.6484375 -53.461181640625 23.92333984375
2.557373046875 0.88818359375 0.4359130859375
-0.093505859375 -27.15869140625 -0.7056884765625
2.15869140625 -24.013671875 4.217041015625
4.194091796875 -24.706787109375 5.63671875
25.917724609375 23.142822265625 -15.9061279296875
-42.3681640625 -56.718505859375 16.7384033203125
8.320556640625 -28.911376953125 -2.4871826171875
14.08544921875 7.740966796875 -1.9041748046875
-27.301513671875 -33.979736328125 15.572509765625
-34.2861328125 -39.40380859375 8.9620361328125
-19.016357421875 -33.123046875 10.4119873046875
2.65283203125 -43.6689453125 11.879150390625
11.78369140625 -4.255859375 -5.748779296875
5.46630859375 -7.07177734375 -5.6761474609375
-15.1728515625 -24.376953125 15.3270263671875
-19.46240234375 -35.333984375 10.4539794921875
-30.37890625 -40.892822265625 10.4814453125
7.01513671875 -54.448974609375 27.7760009765625
-28.20166015625 -51.129150390625 21.3443603515625
-2.14013671875 -27.595947265625 0.776611328125
-31.8330078125 -45.190673828125 16.52392578125
-25.09228515625 -30.91796875 17.7186279296875
