-40.239501953125 -23.51513671875 8.3760986328125
-30.95263671875 -20.718017578125 -6.2701416015625
-43.239013671875 -45.2685546875 18.7877197265625
-7.473388671875 -4.99951171875 -10.5391845703125
-36.58447265625 -48.41552734375 24.4718017578125
-7.470703125 -18.370849609375 0.0751953125
-10.0712890625 -19.693603515625 2.302734375
-12.815185546875 -28.93603515625 1.713623046875
15.7275390625 -39.15380859375 10.14892578125
-24.18408203125 -27.370361328125 -0.4351806640625
-38.395751953125 -22.797607421875 2.1534423828125
-24.171875 -1.994873046875 -6.109619140625
-42.50634765625 -46.037109375 20.767822265625
-6.19677734375 -23.353515625 4.00830078125
-1.295166015625 -37.870361328125 8.4793701171875
-6.778564453125 -40.198486328125 12.256591796875
-43.262451171875 -21.1650390625 6.7164306640625
-6.400634765625 -33.728759765625 4.672607421875
2.400146484375 -29.22509765625 -1.69482421875
-38.326416015625 -37.2265625 13.2874755859375
-22.260009765625 -28.275390625 -0.022216796875
-47.298583984375 -50.69091796875 27.9659423828125
1.602294921875 -36.950439453125 7.87353515625
-16.884765625 -3.86328125 -8.492431640625
-14.903076171875 -30.764404296875 4.22900390625
-51.3544921875 -24.778076171875 -2.36962890625
-49.489013671875 -53.430908203125 29.0093994140625
-40.705810546875 -3.285400390625 -6.3489990234375
0.2841796875 -51.308349609375 23.551513671875
-8.4775390625 -3.189697265625 -8.1529541015625
-48.931640625 -42.84130859375 16.9033203125
-15.144287109375 -24.983642578125 -1.919677734375
-7.42138671875 5.43212890625 -0.7906494140625
20.695556640625 17.88671875 -10.7232666015625
-0.42333984375 -23.17333984375 -5.2047119140625
3.13916015625 -46.941650390625 19.1036376953125
-40.41552734375 -40.011474609375 14.6961669921875
-35.96240234375 -34.35009765625 10.5399169921875
-38.336669921875 -1.0927734375 -4.3487548828125
-51.871826171875 -22.066162109375 -4.232666015625
7.46435546875 7.199462890625 -10.990234375
12.943603515625 -47.583251953125 3.989501953125
-21.367431640625 -32.65625 1.9114990234375
-10.880859375 -29.46240234375 2.6793212890625
-33.95068359375 -23.3818359375 16.360107421875
-14.6064453125 -30.6396484375 7.802490234375
17.418212890625 -44.585693359375 5.0400390625
2.43994140625 -49.1123046875 21.922119140625
-12.934326171875 -5.4140625 -10.3385009765625
-46.52978515625 -42.108154296875 15.877197265625
-34.153564453125 -48.08154296875 22.903564453125
-4.84912109375 -1.595703125 -6.90771484375
-13.366455078125 -31.7958984375 4.6796875
18.107177734375 14.824462890625 -9.92236328125
-1.7099609375 -41.015625 12.3499755859375
3.872802734375 12.93017578125 -2.9033203125
-4.078857421875 -42.0419921875 13.774658203125
1.718994140625 12.29150390625 -16.11279296875
21.689453125 26.884765625 -12.5997314453125
-10.64990234375 -3.2275390625 -8.73974609375
-36.82470703125 -45.807373046875 29.9459228515625
-42.413330078125 -18.718017578125 1.5277099609375
-23.588134765625 -26.97119140625 6.7119140625
-18.202880859375 -21.780029296875 -5.6005859375
-40.194091796875 -46.70166015625 21.238037109375
2.889892578125 9.8359375 -18.7293701171875
-2.381103515625 -1.2373046875 -7.148193359375
-46.696044921875 -45.96875 18.163818359375
-11.1767578125 -25.802490234375 1.8248291015625
-2.536865234375 -19.912109375 3.484619140625
-31.594970703125 -26.5849609375 0.2960205078125
8.391357421875 15.4267578125 -2.4241943359375
-0.61767578125 -46.504638671875 18.28466796875
15.5615234375 -44.896240234375 3.818603515625
-32.760498046875 -4.934814453125 -8.773193359375
4.506103515625 -39.575439453125 9.6312255859375
-11.50341796875 7.55078125 0.3170166015625
-17.9921875 -19.66357421875 15.208251953125
-50.579345703125 -49.652587890625 10.1605224609375
2.319091796875 -43.75 16.6998291015625
-36.4833984375 -24.75439453125 1.4053955078125
-50.74755859375 -50.92138671875 23.8570556640625
-19.162841796875 -21.697021484375 12.6954345703125
11.54150390625 5.3642578125 -13.3751220703125
-35.091064453125 -33.033935546875 8.06884765625
-56.07568359375 -58.18994140625 27.924072265625
-49.538330078125 -36.949951171875 9.43115234375
-49.681884765625 -45.122802734375 19.6121826171875
-50.972412109375 -56.791748046875 32.0963134765625
-21.806884765625 -30.554443359375 5.6177978515625
3.022705078125 14.943359375 -8.2279052734375
4.962158203125 14.845947265625 -5.100341796875
-0.30224609375 10.46240234375 1.2806396484375
-18.62646484375 -31.957763671875 4.4208984375
-5.946533203125 -20.220947265625 -1.4820556640625
-51.01806640625 -33.364990234375 3.3743896484375
-50.99658203125 -50.994873046875 13.06982421875
-41.693115234375 -44.0234375 18.4241943359375
-0.964599609375 -35.740966796875 6.667724609375
-12.52734375 2.599365234375 -3.0020751953125
23.80322265625 26.774169921875 -6.56103515625
1.239013671875 -0.044921875 -6.885009765625
-2.404541015625 9.490966796875 3.868896484375
-50.123046875 -40.484130859375 12.238525390625
17.798583984375 29.3330078125 -17.7117919921875
4.7138671875 -43.653564453125 13.2447509765625
21.30712890625 10.728271484375 -14.9798583984375
2.52783203125 5.0478515625 -3.9615478515625
23.762939453125 25.241455078125 -12.934814453125
10.0546875 14.030029296875 -6.87841796875
9.706787109375 31.089111328125 -31.7689208984375
-45.98486328125 -52.083251953125 30.656494140625
-27.339111328125 -24.806640625 -2.0413818359375
-8.669921875 6.703369140625 2.2796630859375
3.692138671875 -41.03662109375 12.584228515625
17.61572265625 21.3955078125 -6.333984375
-44.4208984375 -45.010009765625 28.787109375
-17.866943359375 -16.8701171875 17.1383056640625
-27.873046875 -2.773193359375 -6.6805419921875
-37.63916015625 -48.21728515625 27.3243408203125
-25.466552734375 -30.005615234375 -0.03466796875
-2.406005859375 -46.45263671875 18.511962890625
-47.654541015625 -28.759521484375 4.0828857421875
-36.207275390625 -42.642578125 18.5001220703125
1.1240234375 -2.2763671875 -8.7835693359375
-0.89404296875 -48.791259765625 20.566162109375
-7.700927734375 -31.576171875 4.4532470703125
-38.47021484375 -47.80224609375 23.9307861328125
-43.71826171875 -46.161865234375 25.79833984375
-3.719970703125 5.8642578125 -0.74609375
-31.088623046875 -22.38818359375 16.6649169921875
25.332763671875 22.2314453125 -13.584716796875
-26.079345703125 -16.36376953125 16.54833984375
-44.388916015625 -21.014404296875 -0.1180419921875
-0.404541015625 -42.59130859375 13.65380859375
7.950927734375 10.2861328125 -6.748046875
-20.9384765625 -17.6455078125 14.7354736328125
-47.81201171875 -57.247314453125 32.5355224609375
-42.777099609375 -46.79248046875 30.00537109375
-51.115234375 -44.9716796875 18.4832763671875
-24.537109375 -25.36669921875 -0.7738037109375
5.10791015625 -44.193603515625 16.7198486328125
-41.43798828125 -21.2880859375 -4.999755859375
-47.834228515625 -54.84326171875 30.770263671875
-43.501708984375 -3.549560546875 -5.603271484375
-0.137939453125 -25.403564453125 -1.761962890625
-17.439453125 -29.86181640625 2.087890625
-52.2548828125 -55.090087890625 25.8575439453125
-35.67626953125 -26.9267578125 19.705322265625
3.253662109375 0.308349609375 -7.50146484375
-50.562744140625 -60.008056640625 20.09375
15.151123046875 17.569580078125 -6.613525390625
-21.640625 2.39208984375 -2.24951171875
-16.345947265625 -24.0234375 -3.750732421875
-19.51123046875 -25.0908203125 -2.26220703125
3.9267578125 8.51318359375 -3.6605224609375
-17.7724609375 -26.534912109375 -0.1756591796875
-50.573486328125 -25.784423828125 -0.08349609375
-45.193115234375 -21.49853515625 -4.5465087890625
-30.970947265625 0.302978515625 -3.2586669921875
-39.653564453125 -35.70361328125 10.691162109375
-37.224365234375 -39.753173828125 16.587646484375
-23.0751953125 -24.430419921875 -2.06640625
3.328369140625 -42.322021484375 15.9774169921875
-16.6884765625 -28.524169921875 8.1229248046875
-47.574951171875 -20.3623046875 -5.6854248046875
-38.59912109375 -20.716552734375 -5.675537109375
-41.183837890625 -43.652099609375 28.237060546875
-53.40576171875 -56.94287109375 33.694091796875
-40.466552734375 -18.9052734375 3.850341796875
22.137451171875 18.669677734375 -11.565185546875
-13.666748046875 5.19140625 -0.869140625
-32.09912109375 -2.056640625 -5.90234375
-10.60400390625 -21.255126953125 2.8726806640625
-7.140380859375 -38.912353515625 10.7841796875
15.23681640625 -42.557861328125 0.2562255859375
-35.760986328125 -21.90576171875 -4.6025390625
-16.752685546875 -0.786376953125 -5.49755859375
20.419921875 23.450927734375 -7.0076904296875
-39.0634765625 -21.6904296875 5.5989990234375
-9.738037109375 -32.481689453125 4.497802734375
-47.506591796875 -50.4267578125 26.257080078125
-11.97265625 -2.39697265625 -7.4583740234375
-3.534912109375 1.104248046875 -5.0560302734375
2.845458984375 -32.545166015625 1.0540771484375
-6.4560546875 -18.4130859375 1.7047119140625
-21.154541015625 -26.9541015625 0.1640625
-36.033447265625 -5.909912109375 -9.4605712890625
-46.14013671875 -49.31884765625 28.1092529296875
-21.0380859375 0.074951171875 -4.6788330078125
-50.38720703125 -56.41796875 33.893310546875
-38.433837890625 -24.72607421875 -0.9873046875
17.08642578125 -42.55224609375 6.467041015625
-14.333740234375 -4.318115234375 -9.4058837890625
15.182373046875 -44.353515625 6.2947998046875
10.617919921875 17.203857421875 -6.516845703125
16.61181640625 9.632080078125 -12.45458984375
-28.982421875 -23.264892578125 -3.2047119140625
21.219482421875 26.6220703125 -14.3114013671875
2.735107421875 -37.724853515625 8.9127197265625
-25.521484375 -23.65185546875 -3.7684326171875
10.452880859375 5.26171875 -11.0692138671875
-33.752685546875 -22.78955078125 -2.88623046875
18.70703125 19.9599609375 -7.7310791015625
-46.66455078125 -21.369384765625 6.235595703125
11.694580078125 19.70166015625 -6.83349609375
-38.74169921875 -41.552978515625 16.3729248046875
-9.216552734375 -21.072265625 -0.820068359375
1.61083984375 16.51708984375 -5.89013671875
-7.95068359375 -21.703369140625 2.416015625
-8.520263671875 -21.873779296875 5.556396484375
-36.171875 -45.2255859375 19.72216796875
11.04296875 18.3603515625 -2.8524169921875
0.292236328125 24.897705078125 -37.098388671875
-6.460693359375 -36.391357421875 8.5673828125
1.294189453125 15.22705078125 -13.4827880859375
-39.395263671875 -5.418212890625 -8.8558349609375
9.83447265625 13.84423828125 -4.7545166015625
-12.079345703125 5.818115234375 -0.489501953125
5.89501953125 -50.914794921875 21.140625
8.5966796875 16.769775390625 -1.2435302734375
-50.59130859375 -59.93505859375 28.2733154296875
-56.401123046875 -41.123046875 21.31787109375
-18.36083984375 -30.244873046875 5.6954345703125
-2.006591796875 8.45751953125 0.9874267578125
-5.955078125 -3.136962890625 -8.4847412109375
-1.64697265625 -3.76123046875 -9.684326171875
-49.685302734375 -48.926025390625 23.7041015625
16.242431640625 11.639404296875 -10.9775390625
6.962890625 14.272216796875 -2.537841796875
-0.88232421875 10.215087890625 3.8519287109375
-35.29296875 -28.75927734375 16.6142578125
18.589599609375 10.136474609375 -13.0242919921875
-18.321044921875 -1.923828125 -6.459228515625
-4.480224609375 -4.942626953125 -10.4964599609375
2.24072265625 12.00634765625 0.48876953125
-16.839599609375 -17.069091796875 18.7032470703125
-23.166259765625 -37.480712890625 7.2769775390625
-34.251708984375 -29.6787109375 12.746337890625
19.33837890625 8.374267578125 -14.4940185546875
-12.748291015625 -27.568603515625 0.2496337890625
-27.2080078125 -27.186279296875 0.01025390625
-44.9921875 -53.640380859375 34.254150390625
-22.314208984375 -30.411376953125 0.3463134765625
-50.31298828125 -47.82080078125 10.5535888671875
9.843017578125 21.879150390625 -8.101318359375
-25.915771484375 -1.377197265625 -5.701904296875
11.67724609375 18.69677734375 -4.5501708984375
22.85498046875 26.427978515625 -9.4930419921875
-45.209228515625 -47.516845703125 26.5860595703125
-19.186279296875 2.79296875 -2.046142578125
-36.2744140625 -32.361328125 14.591552734375
4.875 -33.19091796875 2.449951171875
-35.1025390625 -28.220703125 14.95458984375
28.740478515625 17.925048828125 -17.4539794921875
15.4140625 -42.1337890625 9.5205078125
-41.843017578125 -23.109375 5.6103515625
-2.267333984375 7.23046875 -0.1544189453125
-27.304931640625 -4.77978515625 -8.6148681640625
-49.730712890625 -50.6123046875 25.59033203125
-3.80078125 3.193603515625 -3.163818359375
-24.168701171875 -14.4609375 17.6104736328125
-2.778564453125 -43.619873046875 15.08154296875
0.76416015625 8.8349609375 -0.1422119140625
19.998291015625 21.94970703125 -24.53564453125
-0.953857421875 -38.9873046875 9.9932861328125
-9.190673828125 2.772216796875 -2.977294921875
-21.07861328125 -22.356201171875 -4.9185791015625
-38.089111328125 -22.952392578125 -3.6768798828125
-40.946533203125 -48.02685546875 25.0762939453125
-47.270263671875 -48.190185546875 22.6739501953125
-6.747802734375 3.32421875 -2.7301025390625
21.53173828125 9.4521484375 -16.245361328125
-27.216064453125 -24.364013671875 18.3544921875
-0.2294921875 -36.796875 7.6871337890625
22.3095703125 19.443115234375 -24.7646484375
13.157470703125 18.962890625 -6.3853759765625
7.84033203125 -49.869873046875 25.227294921875
-19.15869140625 -37.080078125 3.7020263671875
-27.396484375 -21.75830078125 20.703125
-48.42041015625 -52.004638671875 28.2777099609375
-43.691162109375 -18.054931640625 2.3055419921875
2.468994140625 10.4619140625 -0.8013916015625
5.836669921875 -51.636474609375 24.197998046875
18.082763671875 -44.61328125 1.7176513671875
-51.13720703125 -36.868896484375 6.5369873046875
1.421630859375 -39.707275390625 9.986572265625
-46.64404296875 -22.423095703125 -3.2694091796875
7.362548828125 -52.403564453125 18.8250732421875
-19.294677734375 -27.367919921875 0.7100830078125
4.38916015625 13.251953125 -0.7529296875
2.873291015625 2.862060546875 -5.4578857421875
8.17041015625 -52.103759765625 23.8294677734375
-2.026123046875 17.496826171875 -12.36376953125
7.23974609375 12.400634765625 -4.3599853515625
17.363525390625 7.240478515625 -15.84912109375
4.06982421875 7.5478515625 -20.8785400390625
-1.94677734375 -24.008544921875 -4.317138671875
-12.962890625 -23.602294921875 -4.09326171875
-22.653076171875 -29.187744140625 8.2828369140625
25.380859375 24.166259765625 -11.75927734375
-11.281982421875 -23.310302734375 -4.2421875
-10.616943359375 -23.572509765625 -2.1605224609375
-1.490966796875 4.6865234375 -2.2176513671875
5.509033203125 -50.425537109375 23.1123046875
-3.631591796875 -35.819580078125 6.535400390625
-11.095458984375 1.03857421875 -4.4783935546875
-39.74365234375 -22.866943359375 -2.9886474609375
-46.981201171875 -21.264892578125 3.237548828125
-17.811767578125 -25.38330078125 11.2236328125
-9.7490234375 7.14697265625 0.402099609375
-45.901611328125 -45.959716796875 30.099365234375
-48.442626953125 -46.792724609375 21.328857421875
-48.093994140625 -44.78662109375 18.5977783203125
-9.505126953125 -37.345458984375 12.3367919921875
-47.57958984375 -22.54345703125 -0.087158203125
-34.576416015625 -24.829345703125 16.5440673828125
-9.13671875 -19.468505859375 3.5650634765625
-40.849853515625 -21.078125 5.54638671875
-17.2138671875 -25.551513671875 -1.7899169921875
-34.4208984375 -4.566162109375 -8.0059814453125
8.957275390625 29.2109375 -30.973876953125
-19.436279296875 0.70849609375 -4.294677734375
1.828369140625 -27.249267578125 -3.8369140625
-5.033203125 9.16455078125 1.5772705078125
-1.893310546875 -23.463134765625 -2.3900146484375
0.837158203125 -24.95751953125 -4.9288330078125
-51.950927734375 -55.45849609375 32.4736328125
-6.072998046875 -38.068115234375 9.4871826171875
-4.586181640625 -38.84619140625 9.5745849609375
-50.5478515625 -62.45263671875 21.84912109375
-47.009033203125 -51.814208984375 29.49072265625
-9.11181640625 -34.97021484375 6.5289306640625
-6.515625 -35.008056640625 5.73779296875
-33.911376953125 -31.814208984375 8.6539306640625
11.495849609375 6.534423828125 -10.42724609375
-10.111083984375 -23.078857421875 -0.31591796875
-9.060546875 5.10009765625 -1.08642578125
-13.966064453125 -32.01220703125 7.3963623046875
-45.678466796875 -48.49853515625 25.098876953125
-13.515625 -32.8994140625 5.781982421875
-50.4912109375 -47.30419921875 21.9149169921875
-19.76171875 -24.544921875 10.3426513671875
-15.9609375 -28.696533203125 1.2862548828125
-45.81591796875 -19.5615234375 4.3905029296875
-5.872802734375 -21.780029296875 -4.121826171875
-23.22998046875 -16.316650390625 15.3323974609375
-6.83642578125 -41.373046875 14.2628173828125
-10.078857421875 -0.492431640625 -5.896240234375
-50.807373046875 -55.889892578125 30.4622802734375
-14.669921875 -26.826416015625 -0.2091064453125
19.2255859375 5.804443359375 -18.7144775390625
-14.312255859375 -29.716796875 3.0621337890625
-26.524658203125 1.442138671875 -2.6988525390625
6.103759765625 14.906005859375 -0.9739990234375
-13.468994140625 -24.90966796875 -2.5701904296875
-36.579833984375 -31.537109375 17.0257568359375
-8.35546875 -22.461181640625 -3.9661865234375
-0.603515625 15.968994140625 -14.2896728515625
15.340576171875 -42.848876953125 6.6181640625
-21.053955078125 -25.75927734375 -1.33447265625
0.14501953125 -1.1826171875 -7.478515625
-53.765380859375 -58.2900390625 28.9805908203125
-50.859130859375 -51.62451171875 17.877197265625
-4.70654296875 -21.715576171875 4.6583251953125
-50.953857421875 -48.7216796875 11.7794189453125
-45.548583984375 -21.084228515625 0.8983154296875
-32.519287109375 -21.346923828125 16.647216796875
-4.928955078125 -21.717041015625 2.0185546875
-33.63916015625 -25.15185546875 -0.8470458984375
19.608642578125 27.30712890625 -10.9124755859375
-9.41455078125 -19.14794921875 1.0228271484375
-30.796875 -23.01953125 -3.786865234375
-38.444580078125 -42.66064453125 17.8775634765625
8.62646484375 8.685302734375 -8.1405029296875
-38.718994140625 -46.633056640625 27.331298828125
-41.56982421875 -42.79931640625 16.89208984375
-32.59326171875 -22.56005859375 -3.8697509765625
-49.81494140625 -29.10888671875 3.393798828125
-41.5673828125 -23.3720703125 3.7490234375
-24.6435546875 -18.54150390625 14.56005859375
-35.286376953125 -29.900146484375 15.0321044921875
-21.778564453125 -18.49755859375 13.3353271484375
-12.150146484375 -31.732666015625 3.639404296875
10.66015625 27.0078125 -31.937744140625
-21.5302734375 -15.355224609375 17.0748291015625
6.250732421875 -51.229736328125 19.20263671875
-37.841064453125 -24.7177734375 0.7086181640625
-43.777587890625 -22.171875 -4.032470703125
-29.572998046875 -20.91357421875 -5.62060546875
-19.678955078125 -16.26806640625 17.06787109375
-43.349853515625 -41.037841796875 14.3831787109375
-22.2412109375 -4.935546875 -8.9212646484375
-47.846435546875 -24.09228515625 -0.4522705078125
-47.582763671875 -26.550537109375 3.3009033203125
2.51171875 15.78564453125 -7.0689697265625
-5.5322265625 8.28955078125 3.5506591796875
-50.873046875 -49.24267578125 16.1566162109375
-41.085693359375 -41.35498046875 14.9215087890625
-40.767822265625 -1.64208984375 -4.5948486328125
-46.015380859375 -48.729248046875 29.99658203125
16.411376953125 8.00634765625 -14.6251220703125
2.010986328125 15.287841796875 -4.1492919921875
-3.488525390625 -39.45263671875 10.657470703125
-44.964111328125 -21.179443359375 -1.8453369140625
-51.06494140625 -35.00244140625 5.2012939453125
14.23095703125 -46.4501953125 5.9356689453125
-39.72607421875 -45.977783203125 31.1417236328125
-16.263671875 -30.890625 3.477294921875
26.4765625 22.474609375 -14.534912109375
-7.114990234375 -3.97607421875 -8.9918212890625
-51.326904296875 -47.794677734375 13.3912353515625
-23.965576171875 0.55615234375 -3.717041015625
-16.298095703125 -27.225830078125 0.3524169921875
-13.101806640625 0.0966796875 -5.3245849609375
-16.65869140625 2.013671875 -3.45947265625
-49.863037109375 -31.658447265625 4.093017578125
-4.7216796875 7.212890625 0.599365234375
-15.26513671875 -23.14453125 -4.5625
4.836181640625 14.039306640625 -3.5919189453125
-31.57958984375 -3.20166015625 -6.720703125
-22.10302734375 -20.03369140625 11.7042236328125
-36.472900390625 -5.010498046875 -8.2791748046875
-19.419189453125 -3.963134765625 -8.6070556640625
-36.971923828125 -36.320068359375 15.10498046875
8.596435546875 6.407470703125 -9.6268310546875
-11.02783203125 -35.1943359375 9.421142578125
-7.54541015625 -21.210205078125 -1.96728515625
-39.5068359375 -23.452392578125 -1.401611328125
1.927490234375 6.36669921875 -2.667236328125
17.617919921875 -45.09423828125 0.275146484375
-43.6025390625 -46.220947265625 31.10546875
21.44580078125 22.08642578125 -9.230712890625
-31.26318359375 -24.423095703125 -1.865234375
-37.248046875 -36.561279296875 11.96826171875
11.005859375 3.987060546875 -13.247314453125
-42.655029296875 -5.33544921875 -7.9454345703125
-36.67919921875 -1.256591796875 -4.6214599609375
-3.55517578125 -22.886962890625 -5.1632080078125
-32.774658203125 -20.666748046875 19.4422607421875
-49.3916015625 -27.0576171875 1.6436767578125
1.977294921875 -47.75048828125 19.5286865234375
-46.422607421875 -57.70849609375 32.73291015625
20.8505859375 19.1884765625 -9.9532470703125
-34.09912109375 -1.559326171875 -4.196044921875
4.603759765625 -51.860595703125 25.2103271484375
21.061767578125 27.936767578125 -11.7862548828125
-23.954833984375 -30.424560546875 1.45458984375
-25.649658203125 -30.93701171875 1.1009521484375
-0.9921875 -5.23681640625 -10.6165771484375
19.319580078125 23.0673828125 -6.1112060546875
-39.327392578125 -44.792724609375 19.306884765625
-12.27490234375 -32.759033203125 10.1424560546875
-24.825927734375 -27.909912109375 5.755859375
19.096923828125 28.535400390625 -13.882568359375
1.812744140625 11.09130859375 -18.2088623046875
-11.953857421875 -25.3251953125 -1.0849609375
13.6904296875 19.1328125 -4.2821044921875
8.19189453125 -48.927490234375 26.28271484375
-12.15380859375 7.36474609375 2.0635986328125
-45.60205078125 -48.13427734375 22.035888671875
15.266845703125 -46.01123046875 8.67041015625
-2.149169921875 -20.924560546875 0.5152587890625
-50.63037109375 -41.7548828125 14.2396240234375
-40.40869140625 -47.48486328125 22.4404296875
-50.634521484375 -17.76513671875 -7.6468505859375
-46.416259765625 -46.51220703125 20.2479248046875
-5.37353515625 -40.470703125 12.473388671875
15.25341796875 -41.730712890625 2.7523193359375
1.21044921875 11.9404296875 3.1650390625
20.685791015625 20.765625 -24.99560546875
-36.027099609375 -24.32080078125 -2.0914306640625
13.813720703125 -45.968505859375 1.942138671875
-53.855224609375 -56.010009765625 26.307861328125
-36.461181640625 -33.38134765625 6.8243408203125
-38.2490234375 -2.885009765625 -6.14599609375
-23.330322265625 -29.7509765625 4.66943359375
-20.353759765625 -2.520263671875 -6.777099609375
-35.356201171875 -2.67626953125 -6.0556640625
-47.378662109375 -19.45849609375 -6.7923583984375
-8.2236328125 -1.765869140625 -6.9285888671875
-2.315185546875 -34.3076171875 4.4635009765625
-29.21875 -1.696533203125 -5.767822265625
-0.827880859375 -34.625 5.55517578125
-51.27734375 -35.890625 -6.1951904296875
4.40771484375 -48.430908203125 20.0059814453125
-10.20751953125 -25.7353515625 3.0552978515625
-24.107421875 -20.53955078125 12.2781982421875
-50.41845703125 -52.9091796875 20.6971435546875
-28.3671875 -22.3974609375 -4.3955078125
-31.293701171875 -1.293212890625 -4.9404296875
-38.4091796875 -39.165283203125 14.19140625
17.224365234375 21.693359375 -4.92333984375
-51.66552734375 -54.951171875 14.9766845703125
-5.189697265625 0.966064453125 -4.867919921875
-35.359130859375 -24.95703125 -0.568603515625
-18.544189453125 -23.025390625 12.3076171875
0.586181640625 -48.94677734375 21.721923828125
-21.911865234375 -31.5546875 2.7021484375
2.68798828125 -39.128662109375 10.4132080078125
21.018798828125 7.6494140625 -17.5616455078125
-47.2529296875 -23.17822265625 2.347900390625
-10.487060546875 -37.416748046875 11.092529296875
-34.70361328125 -48.2119140625 21.5946044921875
-1.106689453125 2.006591796875 -4.277099609375
14.92919921875 20.947509765625 -4.3861083984375
-49.417724609375 -56.936279296875 30.089599609375
-0.30029296875 -47.703369140625 19.357421875
-11.523193359375 -33.76513671875 6.67041015625
-11.35009765625 3.46533203125 -2.0694580078125
2.79736328125 -42.68310546875 14.148193359375
-27.05126953125 -26.239990234375 17.0347900390625
-4.626953125 -22.846923828125 3.03759765625
-43.399658203125 -48.180908203125 22.2064208984375
-41.09521484375 -22.457275390625 -3.1422119140625
-42.143310546875 -47.9150390625 30.59375
-13.51220703125 -3.494873046875 -7.9820556640625
8.54833984375 -51.08984375 25.3570556640625
-41.9306640625 -18.135498046875 2.9261474609375
-18.231201171875 -26.526611328125 9.2371826171875
-23.269287109375 2.254638671875 -2.064697265625
-41.9921875 -21.13916015625 -1.793212890625
-39.669921875 -47.449462890625 25.49072265625
2.51171875 -46.552734375 17.89599609375
-13.96826171875 -30.957763671875 9.4339599609375
2.148193359375 -52.788330078125 26.2255859375
3.941650390625 -52.125 27.51318359375
-3.69677734375 -4.16259765625 -9.5120849609375
-50.8486328125 -60.10302734375 21.4722900390625
7.059326171875 -50.932861328125 24.1951904296875
0.366943359375 -51.116455078125 24.9462890625
4.400390625 -40.644287109375 11.22119140625
-51.157470703125 -52.47705078125 14.110595703125
-4.107177734375 -21.7568359375 -3.9031982421875
-42.55908203125 -24.666259765625 4.8770751953125
3.28125 -50.726318359375 22.859130859375
1.90087890625 9.07275390625 -1.090087890625
4.47900390625 14.19384765625 -7.780029296875
2.414306640625 8.21044921875 -2.2454833984375
2.92138671875 -35.66064453125 5.2872314453125
20.0849609375 7.5927734375 -18.7628173828125
-43.42333984375 -20.0390625 -6.164794921875
-19.29833984375 -28.607177734375 7.99169921875
-50.521728515625 -20.561767578125 -5.778076171875
-26.54150390625 -3.703857421875 -7.553466796875
-33.82373046875 -21.13134765625 -5.5469970703125
-21.61376953125 -23.494873046875 -3.3583984375
0.4501953125 -43.884765625 15.5364990234375
-38.4111328125 -36.141845703125 9.5379638671875
-37.044677734375 -36.82666015625 13.66357421875
-23.545654296875 -18.20654296875 13.1912841796875
-52.466552734375 -33.6416015625 -6.7879638671875
1.34326171875 -40.94580078125 11.533203125
29.87744140625 17.8974609375 -19.7943115234375
-51.046142578125 -58.743408203125 33.5174560546875
-50.84130859375 -55.250732421875 22.5013427734375
-0.4521484375 -45.302978515625 17.6116943359375
-15.46533203125 -1.259033203125 -6.23583984375
-5.408447265625 -0.5966796875 -6.1265869140625
0.956298828125 -42.756591796875 13.4498291015625
-42.31640625 -3.920166015625 -6.7337646484375
-37.27490234375 -48.802001953125 25.818359375
-5.3193359375 -42.3291015625 14.317138671875
0.55078125 -34.95068359375 5.3028564453125
-21.721923828125 -1.44140625 -5.8616943359375
-34.98193359375 -49.536376953125 25.8414306640625
-2.5927734375 -3.015625 -8.9129638671875
-48.447265625 -18.416748046875 -7.6856689453125
-49.796875 -23.530029296875 -2.251953125
-11.1337890625 -24.0654296875 0.9102783203125
-37.19189453125 -48.031982421875 23.2802734375
-3.686767578125 -37.21533203125 8.026611328125
-49.735595703125 -52.24072265625 27.9383544921875
-51.952880859375 -36.834228515625 -5.451171875
-30.3232421875 -23.8154296875 17.9908447265625
-35.111083984375 -22.75341796875 -3.5819091796875
7.240234375 -52.7744140625 21.973388671875
-7.9658203125 -34.406982421875 5.6138916015625
-29.524169921875 -3.107666015625 -6.978515625
-28.901611328125 -0.09619140625 -4.0804443359375
2.1435546875 -28.4013671875 -2.812255859375
-47.27197265625 -49.8134765625 25.014892578125
-6.920166015625 1.279296875 -4.548828125
-48.44189453125 -24.10009765625 -2.1417236328125
-22.137939453125 -27.878173828125 6.7509765625
-32.90966796875 -26.275390625 0.548095703125
-7.91455078125 -36.0146484375 7.936279296875
21.853515625 26.798828125 -10.5224609375
-3.0361328125 29.09423828125 -36.056396484375
-25.982421875 -24.402587890625 17.7547607421875
18.63232421875 24.301513671875 -23.622314453125
-42.343505859375 -44.747802734375 19.6865234375
16.8759765625 14.83203125 -9.3189697265625
22.405029296875 25.58544921875 -13.07177734375
-6.849853515625 -23.037353515625 7.280029296875
-43.16796875 -46.03369140625 27.0946044921875
-26.477294921875 -30.5576171875 2.198974609375
16.123779296875 -40.451904296875 11.6337890625
-50.329833984375 -35.921630859375 7.1083984375
17.691162109375 27.1767578125 -20.8994140625
-35.455078125 -25.58544921875 19.5408935546875
-43.8916015625 -42.3720703125 15.9354248046875
-3.482666015625 9.743408203125 1.5198974609375
-38.827880859375 -44.4169921875 29.131591796875
-50.849365234375 -44.057861328125 13.7386474609375
-2.142578125 -0.018310546875 -6.4166259765625
-8.869873046875 -37.3017578125 9.5634765625
-15.587890625 3.8173828125 -1.8319091796875
19.34912109375 23.328369140625 -4.7708740234375
-40.499267578125 -21.705078125 -0.37548828125
-45.351318359375 -47.692626953125 20.7568359375
-37.38134765625 -3.618896484375 -6.90087890625
3.073974609375 -33.208251953125 2.2239990234375
-4.357666015625 4.17431640625 -2.39697265625
-42.66015625 -21.687255859375 7.8221435546875
-2.6044921875 3.716796875 -2.7550048828125
-15.43017578125 -29.59814453125 10.38232421875
25.067626953125 27.847412109375 -8.556640625
-21.32177734375 -21.766845703125 -6.515625
-30.599853515625 -25.65576171875 -1.3800048828125
-34.823974609375 -32.76220703125 6.7628173828125
-14.390869140625 0.566650390625 -4.5889892578125
-6.64208984375 -23.955078125 2.58203125
-50.724365234375 -37.39794921875 9.9215087890625
-9.955322265625 -23.022705078125 -3.449951171875
-18.447509765625 -25.674072265625 -1.210693359375
-23.967529296875 -4.81396484375 -9.0859375
-2.078857421875 6.00390625 -0.9305419921875
-40.214111328125 -48.634765625 31.55859375
-23.572509765625 -22.872802734375 -4.718505859375
-37.30029296875 -21.01806640625 -5.932373046875
-36.249755859375 -29.249267578125 19.2579345703125
-19.3515625 -30.75634765625 3.461669921875
-35.771728515625 -33.4189453125 9.4000244140625
-13.110107421875 7.07373046875 -0.0191650390625
3.90087890625 15.700439453125 -5.5760498046875
-7.58837890625 7.425048828125 1.8946533203125
-39.2607421875 -43.56787109375 30.241455078125
-23.857177734375 -27.243408203125 8.012451171875
-11.0341796875 -22.8740234375 -5.5059814453125
25.685791015625 26.756103515625 -9.7960205078125
-49.592041015625 -41.791259765625 15.885009765625
-26.0673828125 -21.401123046875 -5.7784423828125
20.005615234375 6.854248046875 -16.3289794921875
-3.5244140625 -21.054443359375 4.666015625
-7.09521484375 -22.232177734375 6.1734619140625
-26.0048828125 -24.8984375 -1.796875
-16.5693359375 -24.621826171875 -2.532958984375
-37.4287109375 -39.09423828125 15.4234619140625
0.250244140625 6.760498046875 -1.4757080078125
-52.22412109375 -36.763916015625 -12.1728515625
-48.56787109375 -41.01708984375 14.1497802734375
-47.73876953125 -42.390625 16.4102783203125
-19.9638671875 -32.24951171875 3.6256103515625
-33.005859375 -24.068115234375 -1.54150390625
-50.1396484375 -43.12353515625 17.43603515625
-21.037841796875 -31.047607421875 3.6092529296875
-18.9443359375 -23.893310546875 -3.370849609375
-34.1435546875 -25.62744140625 15.4307861328125
-13.61767578125 -22.9072265625 -5.168701171875
-23.72119140625 -31.24267578125 2.56591796875
-19.407470703125 -22.065185546875 -5.0670166015625
1.76220703125 -45.237548828125 17.357177734375
-37.368408203125 -24.06884765625 -2.29052734375
-42.758544921875 -20.1982421875 0.31494140625
-0.617919921875 28.961181640625 -37.333740234375
-3.035888671875 10.1279296875 2.8387451171875
16.232421875 -42.483642578125 1.530029296875
-48.44580078125 -48.410888671875 23.66357421875
-48.923828125 -25.496826171875 -0.2294921875
-0.710205078125 -44.454833984375 16.462890625
16.58349609375 -44.99462890625 -0.958984375
21.096435546875 11.806640625 -14.2110595703125
-51.334228515625 -54.14697265625 27.28955078125
-40.8779296875 -22.300048828125 7.8782958984375
-31.001953125 -21.11767578125 19.5543212890625
-41.481201171875 -19.79736328125 -7.69189453125
-34.86279296875 -3.671142578125 -6.8299560546875
-40.340087890625 -20.580810546875 -5.8453369140625
-24.790771484375 -28.6298828125 0.2218017578125
17.750244140625 12.326904296875 -11.4290771484375
-41.406982421875 -23.956298828125 8.8587646484375
-50.96728515625 -34.615478515625 -5.9007568359375
-11.4638671875 -3.85009765625 -9.6734619140625
-22.45849609375 -29.247314453125 5.5712890625
-41.64599609375 -47.59716796875 23.0140380859375
-31.72705078125 -21.636474609375 -6.85400390625
20.336181640625 9.35986328125 -15.22998046875
-39.874267578125 -21.172119140625 6.71044921875
-2.9228515625 -41.4736328125 12.8514404296875
-23.903564453125 -21.64013671875 -6.1336669921875
28.1689453125 16.645751953125 -18.17578125
-40.4541015625 -47.626708984375 30.4527587890625
-26.35400390625 -30.552001953125 3.52587890625
-26.2705078125 -22.1552734375 -4.614013671875
-46.3359375 -21.995849609375 0.32861328125
-8.361083984375 -30.422607421875 4.3658447265625
6.469970703125 10.431640625 -9.0927734375
-8.737548828125 -21.231201171875 4.410400390625
-41.934326171875 -20.773193359375 3.5723876953125
-24.9013671875 -21.505859375 11.27490234375
-44.5361328125 -19.859375 4.146484375
16.99267578125 -43.866455078125 1.5692138671875
-44.12109375 -48.224853515625 23.6275634765625
2.1484375 -48.0830078125 20.80419921875
-49.640625 -18.540771484375 -7.11474609375
-14.559814453125 -29.119873046875 1.4471435546875
-30.37353515625 -21.7978515625 20.6278076171875
-52.09033203125 -57.6513671875 28.91162109375
-36.780517578125 -35.38671875 13.9608154296875
-45.335693359375 -19.42822265625 -7.5057373046875
-48.601318359375 -21.33203125 -4.481201171875
-48.30078125 -43.556884765625 18.00341796875
-19.747314453125 -5.0859375 -9.7447509765625
3.38525390625 -34.74609375 7.7056884765625
14.8408203125 -45.292724609375 5.20166015625
-14.153564453125 1.92138671875 -3.8253173828125
4.775634765625 -52.194580078125 26.491455078125
-45.797607421875 -45.447509765625 19.0631103515625
-3.144287109375 -45.37451171875 17.46923828125
0.652587890625 13.345458984375 -16.0882568359375
-11.492919921875 4.550537109375 -1.3326416015625
-2.09814453125 -44.349853515625 16.2010498046875
24.16796875 26.6240234375 -7.9239501953125
-55.146484375 -57.828125 28.787353515625
-8.118896484375 7.286376953125 0.2191162109375
-35.41552734375 -1.529541015625 -4.869873046875
-8.442626953125 -22.624267578125 -5.3399658203125
4.021240234375 3.2958984375 -5.9324951171875
-16.722412109375 -27.759033203125 9.197998046875
20.670166015625 15.998046875 -11.6771240234375
29.914794921875 18.21044921875 -17.971923828125
-46.346435546875 -42.600830078125 17.082275390625
17.8095703125 16.319091796875 -9.0380859375
-24.186767578125 -23.742919921875 -3.5247802734375
-17.3046875 -32.111572265625 4.2130126953125
-0.80712890625 14.66162109375 -15.0684814453125
19.79248046875 27.423095703125 -13.8778076171875
-19.331298828125 -19.99853515625 13.98779296875
16.033203125 12.900146484375 -9.735107421875
-51.09716796875 -58.579833984375 29.0574951171875
20.843505859375 25.615478515625 -5.2008056640625
-35.775634765625 -46.79296875 21.5782470703125
0.65673828125 -33.66796875 4.2354736328125
-50.767333984375 -25.144775390625 -1.2178955078125
-37.0166015625 -46.90576171875 22.15283203125
8.957763671875 13.26806640625 -6.9354248046875
-6.62939453125 -36.063720703125 7.310546875
-35.36083984375 -48.1318359375 23.935791015625
-48.876953125 -54.399169921875 29.637451171875
-38.78955078125 -21.625732421875 -4.5625
-37.536865234375 -34.43310546875 7.6019287109375
-15.531005859375 -31.038330078125 6.484130859375
-35.014892578125 -22.917724609375 19.2138671875
-37.466552734375 -45.230224609375 19.87939453125
1.980224609375 -33.883056640625 3.5621337890625
-36.566650390625 -35.7861328125 11.1710205078125
-32.93310546875 -20.719482421875 17.7127685546875
-51.873046875 -49.655029296875 10.32373046875
-35.577392578125 -32.141357421875 13.2265625
-23.9951171875 -17.426513671875 14.3018798828125
-4.428466796875 8.672607421875 2.6490478515625
-50.65869140625 -46.978515625 20.665771484375
-8.04541015625 0.301513671875 -5.09130859375
-42.772216796875 -19.498046875 -7.4339599609375
5.727783203125 13.06884765625 -5.687744140625
16.092041015625 18.857666015625 -6.8184814453125
-17.79736328125 -3.122314453125 -7.7279052734375
25.457763671875 23.47900390625 -13.2476806640625
21.853759765625 25.623046875 -8.729248046875
-52.1279296875 -56.7705078125 33.5792236328125
-44.888671875 -18.545166015625 2.3392333984375
-0.5654296875 10.19287109375 2.525634765625
-38.0615234375 -46.4677734375 21.02880859375
0.823486328125 11.26708984375 1.765380859375
23.561279296875 24.6875 -11.7838134765625
-45.6484375 -40.781005859375 13.390625
-15.6875 -28.400390625 9.8048095703125
-22.36328125 -3.8203125 -8.1617431640625
13.559814453125 -47.201171875 1.2220458984375
-39.5224609375 -22.544677734375 -0.28076171875
-6.490966796875 -19.317626953125 -0.73681640625
3.665771484375 15.286376953125 -4.376220703125
13.656494140625 -46.947509765625 3.1214599609375
-14.429443359375 7.820068359375 0.7823486328125
-27.472900390625 -21.044677734375 -6.384033203125
-8.189453125 -22.783935546875 -2.7286376953125
-19.730712890625 -0.34814453125 -4.971923828125
-51.463623046875 -58.468505859375 17.352783203125
-25.277099609375 -3.829833984375 -7.762451171875
-46.042236328125 -20.14599609375 5.5848388671875
-0.7705078125 17.57421875 -12.09130859375
-4.87109375 -22.418701171875 6.286376953125
-50.0703125 -27.818115234375 2.4251708984375
10.929931640625 4.680419921875 -12.169189453125
-31.07763671875 -23.13232421875 15.619384765625
-23.8798828125 -0.58642578125 -4.901123046875
-45.42333984375 -56.216064453125 35.59619140625
1.296875 2.46875 -4.914306640625
-50.893798828125 -56.3740234375 24.9775390625
-35.529052734375 -26.0361328125 0.5107421875
-17.09228515625 5.7548828125 -0.684814453125
-47.765869140625 -23.343994140625 -2.9185791015625
-39.797607421875 -40.952392578125 15.2989501953125
-20.326416015625 -3.222412109375 -7.8428955078125
-22.314453125 -22.695068359375 -4.841064453125
-0.928955078125 9.368896484375 1.0802001953125
-29.068115234375 -22.469482421875 19.8814697265625
-50.7724609375 -57.468994140625 33.2852783203125
-22.908447265625 -2.119384765625 -6.3170166015625
-50.58203125 -21.99609375 -3.9478759765625
-47.13818359375 -41.166748046875 15.2742919921875
-47.191162109375 -25.364990234375 4.4290771484375
-30.185791015625 -5.293212890625 -8.793701171875
-47.9892578125 -24.2001953125 2.185302734375
-17.44189453125 -23.92333984375 13.281005859375
-2.7548828125 -40.516357421875 11.6849365234375
2.884033203125 -43.79248046875 17.9833984375
-37.203125 -47.064208984375 28.846435546875
-48.79541015625 -20.697265625 -5.60888671875
1.98583984375 -35.1591796875 5.9769287109375
-6.718505859375 -0.519775390625 -6.362548828125
-6.210205078125 -17.980224609375 0.450927734375
-30.7275390625 -21.517578125 -5.1798095703125
-17.392333984375 1.151123046875 -4.0225830078125
-7.150390625 6.472412109375 -0.124755859375
-18.651611328125 -28.287841796875 1.2913818359375
-36.64111328125 -39.96337890625 17.8060302734375
-4.4677734375 1.83349609375 -4.30078125
-38.33642578125 -20.4453125 -6.9677734375
-8.595458984375 1.291748046875 -4.3177490234375
8.6806640625 5.329833984375 -11.67724609375
-14.49609375 -25.899658203125 -1.3421630859375
-9.522216796875 -23.665283203125 5.2523193359375
13.786865234375 19.113037109375 -3.0244140625
-45.13623046875 -46.42236328125 28.5828857421875
-50.302490234375 -48.373046875 22.5557861328125
-3.388671875 -22.559814453125 -2.4122314453125
-21.934814453125 0.80224609375 -3.9281005859375
-19.249755859375 -15.53369140625 18.4818115234375
-50.639892578125 -30.25830078125 2.3265380859375
1.471435546875 -28.735595703125 -1.0001220703125
-22.871337890625 -15.321533203125 16.384521484375
2.0654296875 -38.7451171875 9.2171630859375
5.78857421875 11.599609375 -9.1072998046875
-3.55419921875 -21.15771484375 -1.1424560546875
-35.021484375 -29.6298828125 13.7379150390625
-37.74365234375 -4.73193359375 -8.0257568359375
-32.95654296875 -1.47607421875 -5.1934814453125
-41.215576171875 -46.03271484375 20.6112060546875
-6.872802734375 4.457763671875 -1.55126953125
-17.278076171875 -4.528076171875 -9.494873046875
-8.195068359375 -37.56396484375 11.6734619140625
0.261474609375 -27.26220703125 -1.3782958984375
-11.1259765625 -32.218505859375 4.28955078125
-20.151123046875 -24.178466796875 -2.8369140625
-3.642333984375 -1.2646484375 -6.9832763671875
-25.659912109375 0.867919921875 -3.4017333984375
-42.8740234375 -46.90478515625 24.6494140625
-9.879150390625 -21.8349609375 -0.0341796875
-39.443359375 -3.561279296875 -6.5997314453125
-43.4892578125 -45.709228515625 20.064453125
-49.185791015625 -11.29736328125 -6.076904296875
-7.476806640625 8.7646484375 1.3741455078125
22.1884765625 14.215576171875 -14.5531005859375
-40.587890625 -43.124755859375 17.59228515625
-1.063720703125 -40.052490234375 11.5789794921875
-23.789306640625 -33.6298828125 11.840087890625
-42.89453125 -42.865478515625 16.594482421875
1.27587890625 -49.923583984375 22.3494873046875
2.5732421875 -43.30224609375 15.4034423828125
11.2099609375 14.500244140625 -6.908935546875
3.720947265625 -48.7607421875 21.841796875
16.796142578125 -42.830322265625 7.8172607421875
-44.536376953125 -20.5859375 -5.276123046875
-9.787353515625 -2.910888671875 -7.897705078125
-26.188232421875 -31.056640625 -0.20361328125
-36.577392578125 -32.30419921875 15.9688720703125
-20.406982421875 2.4208984375 -2.40966796875
-9.0634765625 -31.4794921875 4.201904296875
-21.702392578125 -33.658935546875 1.258056640625
4.570068359375 2.457763671875 -6.6669921875
-3.22412109375 -19.70361328125 0.9600830078125
-28.35693359375 -24.172119140625 -2.633056640625
-3.4921875 -34.9306640625 4.918212890625
2.603759765625 -51.77392578125 23.1827392578125
-51.190185546875 -54.35791015625 15.9569091796875
3.515869140625 -36.926025390625 9.4503173828125
-2.31298828125 -35.58251953125 6.875732421875
-32.0087890625 -4.96337890625 -9.7567138671875
18.68212890625 26.98486328125 -19.3897705078125
14.654541015625 -45.25732421875 2.926025390625
-50.079345703125 -30.302978515625 3.572265625
-15.4423828125 2.191650390625 -3.577392578125
-25.16259765625 -5.498291015625 -9.5462646484375
10.7978515625 13.5537109375 -9.691650390625
-31.099365234375 -21.646484375 17.707275390625
-30.5712890625 -23.82275390625 -2.69189453125
-3.482177734375 7.052001953125 -0.0377197265625
-19.509765625 1.6982421875 -3.1556396484375
-45.32763671875 -49.082763671875 23.5916748046875
-26.415283203125 -0.19091796875 -4.44677734375
-35.347412109375 -31.927001953125 11.4747314453125
-17.996826171875 3.119140625 -2.1207275390625
7.99462890625 12.1533203125 -6.2471923828125
-41.93212890625 -47.697509765625 24.3695068359375
-37.333740234375 -34.69873046875 9.296142578125
23.110595703125 19.2470703125 -26.2459716796875
20.508056640625 22.804443359375 -8.0489501953125
-41.53662109375 -19.494873046875 0.7725830078125
-37.413818359375 -24.014892578125 1.715576171875
-18.58544921875 -18.509033203125 15.5478515625
-36.89697265625 -22.669189453125 -4.2066650390625
-18.827392578125 -1.07958984375 -5.7266845703125
-35.3564453125 -27.14013671875 18.304931640625
-29.468017578125 -24.874267578125 16.3311767578125
-46.48046875 -22.7412109375 -2.0499267578125
5.06494140625 -41.6650390625 11.3653564453125
19.28515625 16.95849609375 -9.9254150390625
-39.409423828125 -42.504150390625 17.1373291015625
10.869873046875 21.363525390625 -7.1121826171875
-1.251708984375 -24.6533203125 -2.775146484375
-46.19775390625 -20.715087890625 -5.084716796875
-13.60400390625 -30.751953125 4.0643310546875
11.519775390625 19.002685546875 -5.722900390625
-41.827880859375 -43.9755859375 30.0196533203125
-43.490234375 -44.431640625 30.123779296875
-0.32373046875 5.162841796875 -2.2496337890625
22.60205078125 26.593505859375 -6.44482421875
-41.0302734375 -20.60302734375 4.37353515625
14.59228515625 13.74267578125 -9.303466796875
-17.107666015625 -29.682373046875 6.1163330078125
-31.981201171875 -23.3037109375 14.819091796875
18.8642578125 28.12548828125 -12.69482421875
0.250244140625 -43.3818359375 14.307861328125
-0.0302734375 -3.11572265625 -9.2916259765625
-6.7685546875 -22.28125 4.78759765625
-4.267333984375 -18.86083984375 0.862548828125
3.451904296875 1.67529296875 -6.7247314453125
-33.6884765625 -2.84228515625 -6.331298828125
-9.12939453125 -22.958740234375 6.2603759765625
-26.23486328125 -24.092041015625 -2.8956298828125
-3.470703125 -19.923828125 2.7152099609375
-7.242919921875 -3.0107421875 -8.2738037109375
-39.84326171875 -43.357666015625 29.0242919921875
-6.652099609375 -19.591796875 1.8807373046875
2.14892578125 11.87451171875 -17.1610107421875
-4.72705078125 -41.255615234375 13.123291015625
-44.163818359375 -22.60693359375 4.28271484375
-46.724609375 -28.747802734375 4.84912109375
-45.185546875 -20.128173828125 1.5347900390625
-36.0029296875 -29.197021484375 17.482666015625
-48.109130859375 -26.827392578125 1.9747314453125
18.8583984375 14.95703125 -10.852294921875
-0.71630859375 27.671630859375 -36.8868408203125
-43.99853515625 -21.28173828125 7.6585693359375
-51.5673828125 -55.9921875 31.4276123046875
-43.228515625 -44.559326171875 28.2940673828125
-17.06884765625 -19.65185546875 15.9691162109375
-49.5771484375 -26.039794921875 1.0440673828125
-51.1669921875 -21.63134765625 -5.094970703125
-40.5478515625 -20.48583984375 0.82568359375
-49.645263671875 -57.141845703125 31.8721923828125
4.181396484375 -45.6767578125 18.3348388671875
-50.232421875 -55.928955078125 31.7320556640625
-44.1826171875 -21.1767578125 5.9583740234375
-35.541748046875 -46.582763671875 19.7996826171875
15.2958984375 9.703369140625 -12.6864013671875
0.57275390625 -45.870849609375 17.82080078125
-9.7822265625 -35.527099609375 7.835693359375
-21.22412109375 -19.70458984375 12.5455322265625
0.010986328125 2.7861328125 -4.221435546875
-7.038330078125 -32.73388671875 4.5411376953125
-43.74755859375 -21.21533203125 -2.4593505859375
3.1298828125 -28.999755859375 -3.0916748046875
8.52734375 31.1220703125 -30.7235107421875
-36.134033203125 -30.985595703125 17.9757080078125
18.8955078125 6.072265625 -16.3944091796875
8.826171875 15.01708984375 -3.4462890625
21.816650390625 7.63037109375 -18.5576171875
-34.298583984375 -21.90185546875 19.3536376953125
-50.28369140625 -19.60595703125 -6.434326171875
2.671875 4.10693359375 -4.6644287109375
15.3466796875 16.518310546875 -7.3558349609375
16.410888671875 10.71142578125 -11.69189453125
5.244384765625 12.4111328125 -8.37744140625
-14.29931640625 6.5576171875 -0.4224853515625
11.991943359375 18.085205078125 -2.20458984375
-6.62060546875 2.381591796875 -3.4296875
-16.121337890625 -3.137939453125 -7.9627685546875
-46.33447265625 -48.986083984375 22.3905029296875
4.416015625 -43.22900390625 16.102783203125
17.8154296875 20.357177734375 -7.0721435546875
-53.600341796875 -56.796875 27.91455078125
-26.683837890625 -2.095458984375 -6.225341796875
-9.680419921875 -28.569580078125 3.18994140625
-10.0595703125 -35.801513671875 9.158203125
-39.261474609375 -20.685302734375 4.9976806640625
-12.93701171875 -1.15771484375 -6.1197509765625
-45.75244140625 -43.376953125 17.72802734375
-18.738037109375 -21.1591796875 13.6441650390625
-22.312744140625 -32.66845703125 1.132568359375
-43.51220703125 -18.527587890625 3.473388671875
-46.96044921875 -56.60205078125 33.0113525390625
-43.88427734375 -5.3603515625 -7.781494140625
-15.99365234375 -0.068359375 -4.97412109375
-48.684814453125 -55.48583984375 30.2935791015625
21.65283203125 15.111572265625 -12.92626953125
-13.389892578125 3.0234375 -2.341064453125
-0.08056640625 0.42822265625 -6.14208984375
19.226806640625 11.094970703125 -12.8453369140625
11.030517578125 15.97216796875 -4.77197265625
17.829833984375 7.486083984375 -14.53271484375
-28.949462890625 -4.9150390625 -8.4246826171875
-12.28076171875 -3.316162109375 -8.1026611328125
-35.6630859375 -33.247314453125 10.760986328125
3.940185546875 8.91552734375 -18.712158203125
-16.136474609375 -27.7490234375 10.9024658203125
-33.937744140625 -22.797119140625 17.36474609375
-9.590576171875 6.839111328125 1.5831298828125
16.109130859375 -41.27197265625 9.1700439453125
-32.368896484375 -4.121826171875 -7.73291015625
7.089111328125 13.31689453125 -3.665283203125
