-2.697021484375 -40.176025390625 10.656982421875
-43.80126953125 -62.129638671875 23.155029296875
8.289794921875 -50.9609375 21.6312255859375
-22.789306640625 -34.71533203125 17.895751953125
0.082275390625 -26.216796875 6.12451171875
29.14404296875 7.412841796875 -6.973388671875
2.616943359375 -5.68701171875 -1.0089111328125
7.205078125 8.37939453125 -10.7470703125
22.47802734375 9.8046875 -1.697021484375
-29.3486328125 -37.51953125 17.537109375
-43.67333984375 -32.559814453125 1.3248291015625
2.12158203125 -28.94970703125 -1.951416015625
-28.994140625 -41.990478515625 9.8065185546875
3.37548828125 0.7734375 3.498291015625
-41.89501953125 -58.61962890625 32.734375
-2.366943359375 -11.538330078125 -6.2919921875
-23.6728515625 -33.9580078125 20.3690185546875
-29.642333984375 -53.739013671875 27.4813232421875
-25.107421875 -30.6845703125 1.0745849609375
-29.57666015625 -46.43359375 22.0723876953125
-38.6123046875 -53.60693359375 27.9052734375
-8.18994140625 -37.96435546875 10.777587890625
-8.75 -38.55810546875 6.61474609375
-9.025390625 -32.348388671875 2.56591796875
-37.95263671875 -28.149169921875 7.0667724609375
-10.664306640625 -7.05078125 -2.0484619140625
-23.870361328125 -27.34716796875 -3.67626953125
-5.817138671875 -29.6015625 -1.2342529296875
-14.805908203125 -32.580322265625 2.6824951171875
-43.740478515625 -51.3388671875 23.8585205078125
1.476318359375 -43.72802734375 13.1544189453125
-39.632080078125 -32.6552734375 8.91162109375
-14.455810546875 -30.708740234375 0.3585205078125
-24.627197265625 -28.1396484375 23.836669921875
-17.2783203125 -36.2802734375 8.0052490234375
-38.252197265625 -50.465087890625 21.68359375
0.119140625 -42.18505859375 11.77783203125
-30.76953125 -30.783447265625 2.11865234375
8.755126953125 -1.885498046875 0.9696044921875
-51.7861328125 -55.90869140625 7.3570556640625
-10.146484375 -26.412841796875 21.863037109375
-2.9912109375 -30.103271484375 -1.2052001953125
14.315673828125 6.515380859375 0.1651611328125
-41.205810546875 -45.7451171875 16.60009765625
-4.222900390625 -39.2880859375 11.4554443359375
-35.880615234375 -28.759521484375 10.2625732421875
-43.19873046875 -64.338134765625 32.7513427734375
-21.87744140625 -4.390625 1.1624755859375
-30.009521484375 -40.59228515625 12.019287109375
-4.752197265625 -31.388916015625 2.3232421875
-43.709716796875 -48.05126953125 19.5400390625
-14.00341796875 -3.326416015625 0.10107421875
19.872802734375 9.977783203125 -0.060302734375
-29.19921875 -54.90869140625 30.857177734375
-20.799560546875 -32.005615234375 1.65380859375
-35.5126953125 -53.78857421875 33.452880859375
-40.3173828125 -28.81201171875 8.946533203125
-43.6904296875 -70.5693359375 30.776123046875
-2.5712890625 0.09130859375 2.689208984375
-11.756103515625 -12.8486328125 -6.43505859375
11.583984375 6.84033203125 -9.9091796875
-27.31298828125 -30.960693359375 0.3516845703125
25.9013671875 5.078125 -5.8623046875
-11.866943359375 -28.80029296875 -1.7425537109375
8.360595703125 5.30322265625 -12.995361328125
-30.30712890625 -35.095703125 23.4693603515625
-2.54345703125 -26.557373046875 5.8779296875
-42.65869140625 -38.655029296875 -5.6463623046875
-17.181640625 -27.44775390625 -3.5450439453125
12.4443359375 5.60693359375 1.4608154296875
-20.625 -33.923095703125 12.464599609375
-42.4140625 -30.321044921875 -0.078857421875
26.73974609375 14.860107421875 0.3433837890625
-33.059326171875 -53.95654296875 29.5782470703125
1.132568359375 -46.861328125 18.5196533203125
12.909423828125 0.34375 -0.716796875
-20.3427734375 -28.583251953125 20.6724853515625
-32.74853515625 -27.80859375 7.47509765625
-11.90576171875 -33.288330078125 3.56982421875
-46.599365234375 -68.3603515625 26.8446044921875
-24.432861328125 -37.41845703125 18.40673828125
-9.069580078125 -35.522705078125 5.0386962890625
16.591796875 5.850830078125 -1.9920654296875
23.673828125 12.2314453125 2.218017578125
31.66796875 1.463134765625 -11.406005859375
-35.953857421875 -43.727783203125 14.2275390625
-11.5126953125 -0.53662109375 2.229736328125
25.797607421875 8.641357421875 -4.0987548828125
-11.677001953125 -30.974609375 0.89990234375
-40.29833984375 -17.324951171875 -4.726806640625
-38.392333984375 -12.119140625 -6.72607421875
-25.656982421875 -35.103759765625 20.3370361328125
-30.6083984375 -39.864501953125 18.5308837890625
-18.239501953125 -27.687255859375 14.8753662109375
-36.778076171875 -29.809814453125 7.0125732421875
-40.18017578125 -28.8525390625 4.4794921875
-4.04248046875 -29.0712890625 8.634521484375
-6.490966796875 0.4111328125 3.632080078125
-31.978271484375 -43.52197265625 14.316162109375
-44.010986328125 -53.3828125 15.3157958984375
-13.89208984375 -1.16455078125 3.212158203125
-38.2734375 -29.277099609375 -0.738037109375
-27.84375 -39.35107421875 14.761962890625
-43.051513671875 -68.564453125 31.5328369140625
-40.911376953125 -31.61865234375 5.7113037109375
-22.8447265625 -6.87939453125 -2.3837890625
-37.83984375 -27.753662109375 9.8045654296875
-15.93701171875 -2.28173828125 0.5694580078125
-34.274169921875 -28.72216796875 1.6351318359375
-43.76953125 -39.3427734375 8.3223876953125
-43.75390625 -60.3251953125 21.666259765625
6.962890625 -53.9443359375 26.7357177734375
-31.78173828125 -7.060791015625 -1.8502197265625
-30.35302734375 -37.48095703125 22.5594482421875
-45.437255859375 -45.303466796875 1.736083984375
1.087158203125 -27.42724609375 2.58984375
8.646484375 -49.258056640625 18.6956787109375
-42.39501953125 -44.567138671875 15.161376953125
-15.393798828125 -39.981201171875 3.8116455078125
-44.994140625 -38.5595703125 -7.176513671875
28.75146484375 10.379638671875 -5.3177490234375
30.0107421875 20.356201171875 -6.8748779296875
5.07275390625 -6.787109375 -1.5452880859375
1.8798828125 -27.163818359375 10.2266845703125
-14.7802734375 -29.63671875 -1.1656494140625
-38.870849609375 -55.37841796875 26.23974609375
-43.03515625 -54.5087890625 26.349365234375
3.972412109375 -47.3779296875 17.6800537109375
-41.756591796875 -63.055419921875 36.940185546875
3.761474609375 -29.366455078125 1.4107666015625
-23.4794921875 -35.6689453125 3.8223876953125
-1.33837890625 -28.630126953125 10.69677734375
-43.763916015625 -42.45263671875 0.8448486328125
6.263671875 -50.3935546875 21.0126953125
-31.72412109375 -53.44921875 24.10009765625
-44.07177734375 -58.126220703125 28.492919921875
-41.708740234375 -57.979248046875 30.5655517578125
-41.790283203125 -52.3212890625 23.93115234375
-38.32421875 -45.052978515625 15.0966796875
-4.475341796875 -41.4716796875 14.217041015625
-44.603759765625 -52.237548828125 9.687255859375
-42.337158203125 -60.720947265625 34.218017578125
17.9755859375 2.12939453125 -4.366943359375
-2.11279296875 -29.133544921875 2.5487060546875
-16.79541015625 -35.455078125 4.060546875
-20.76513671875 -22.24169921875 21.11376953125
-19.4794921875 -25.439697265625 16.8026123046875
0.91015625 -10.12158203125 -4.538818359375
-43.026611328125 -27.810302734375 -2.539794921875
-1.78857421875 -5.591552734375 -0.9344482421875
-5.12841796875 -4.283447265625 -0.2481689453125
6.341796875 3.43994140625 7.26220703125
-45.75634765625 -66.24365234375 24.398681640625
-10.822998046875 -32.42822265625 2.2880859375
-36.72900390625 -55.228515625 25.154052734375
13.4677734375 6.957275390625 3.4014892578125
-1.810546875 -36.56103515625 9.052978515625
-31.492919921875 -48.376953125 21.428466796875
-43.812255859375 -43.14404296875 4.7742919921875
2.09375 -28.2080078125 0.9462890625
-5.372802734375 -9.569091796875 -4.1385498046875
0.199951171875 -28.526611328125 -2.09716796875
-45.839599609375 -40.404296875 -4.8023681640625
-2.0703125 0.461181640625 5.759765625
-19.163818359375 -3.06103515625 1.177978515625
12.891845703125 6.230224609375 5.460205078125
-43.87744140625 -56.151123046875 17.01904296875
-34.971435546875 -8.972900390625 -4.1405029296875
-43.450927734375 -60.604736328125 25.240234375
-6.760009765625 -6.9609375 -2.026123046875
-43.912841796875 -39.04296875 0.7432861328125
-43.16455078125 -34.426025390625 3.974609375
18.787841796875 7.189697265625 -3.2230224609375
-38.296875 -28.05224609375 2.231689453125
-6.256103515625 -40.21630859375 11.9246826171875
-34.407470703125 -44.503173828125 15.263916015625
-9.1025390625 -10.666748046875 -4.8697509765625
-40.568359375 -30.439697265625 1.0313720703125
20.803955078125 10.924072265625 -2.5391845703125
-17.60107421875 -32.075439453125 2.646240234375
19.2705078125 -2.80859375 -6.6063232421875
5.8359375 -39.904052734375 8.9219970703125
19.359130859375 9.42724609375 4.6290283203125
-11.9560546875 -35.327392578125 10.3681640625
34.22802734375 16.60400390625 -7.4442138671875
24.115966796875 13.296875 -0.6031494140625
-38.4951171875 -36.58447265625 8.820556640625
-44.829833984375 -42.695556640625 -2.2764892578125
-12.6435546875 -5.773193359375 -1.078369140625
-18.46728515625 -33.921142578125 11.3433837890625
15.352783203125 8.0830078125 3.8905029296875
-23.088134765625 -30.67138671875 19.19482421875
-43.792236328125 -41.23974609375 3.3912353515625
-44.08740234375 -60.3515625 29.4493408203125
11.052978515625 9.177001953125 -7.5069580078125
-26.8857421875 -32.8779296875 21.7940673828125
-29.4912109375 -8.544677734375 -4.224609375
-26.886474609375 -53.61083984375 28.6063232421875
-43.690185546875 -58.94091796875 31.9373779296875
0.765869140625 -45.89404296875 15.99658203125
7.381591796875 -46.5400390625 16.129638671875
-14.70068359375 -6.57470703125 -2.35546875
1.898681640625 -8.44970703125 -2.9156494140625
-14.5654296875 -36.593505859375 7.19921875
-36.506103515625 -55.115966796875 35.115234375
-43.98974609375 -57.07275390625 19.5848388671875
-0.880615234375 -29.38623046875 -0.815673828125
-43.714111328125 -47.0146484375 15.6903076171875
-41.277587890625 -26.1875 -4.5755615234375
-43.72998046875 -45.48779296875 12.849609375
-42.36474609375 -50.036865234375 21.268310546875
-35.0322265625 -47.2607421875 18.381103515625
-44.929443359375 -54.703369140625 11.93994140625
-20.267822265625 -30.60791015625 0.5640869140625
-1.534912109375 -8.94677734375 -3.53515625
-7.624267578125 -4.721435546875 -0.0743408203125
-29.85009765625 -29.7021484375 -0.87353515625
-14.5458984375 -30.8486328125 13.3846435546875
-18.259765625 -11.07861328125 -6.1396484375
-41.6689453125 -36.816650390625 6.8623046875
-37.7001953125 -8.064453125 -4.0372314453125
28.666259765625 -0.311767578125 -10.1712646484375
-41.1220703125 -62.2021484375 35.2113037109375
33.4794921875 14.636962890625 -8.7252197265625
-42.6591796875 -32.700927734375 2.9720458984375
6.477783203125 -5.28076171875 -0.9013671875
-14.721435546875 -8.6396484375 -3.2960205078125
-17.60107421875 -9.69775390625 -4.549560546875
-44.414306640625 -72.028564453125 30.1221923828125
-22.520263671875 -3.821533203125 -0.36669921875
-38.515625 -53.5947265625 22.9136962890625
27.842041015625 15.26220703125 -1.8438720703125
20.701171875 10.71240234375 3.917236328125
-15.372802734375 -10.016845703125 -4.8817138671875
9.68603515625 2.115478515625 6.1630859375
-35.281982421875 -50.169189453125 33.175048828125
-1.328857421875 -26.4365234375 3.974609375
18.560791015625 8.42822265625 -0.2855224609375
-44.153564453125 -47.484130859375 8.3885498046875
-0.281494140625 1.617919921875 4.09814453125
-15.11474609375 -34.935791015625 3.9970703125
-21.4892578125 -9.783447265625 -4.5679931640625
11.22998046875 6.708251953125 0.555908203125
-25.2099609375 -36.062255859375 17.4173583984375
-15.378173828125 -34.23681640625 9.603759765625
-12.3759765625 -25.144287109375 18.7987060546875
-29.07470703125 -29.800537109375 24.3887939453125
-33.24267578125 -52.75537109375 23.470947265625
27.46728515625 4.111328125 -7.160400390625
20.342529296875 11.47802734375 0.6800537109375
-35.4169921875 -25.586181640625 6.4852294921875
-32.181640625 -45.582763671875 18.8857421875
-29.54931640625 -10.828125 -5.6639404296875
-4.103271484375 -31.388916015625 5.8780517578125
-26.175537109375 -10.396728515625 -5.50390625
-26.458984375 -8.490966796875 -3.6820068359375
-32.3115234375 -45.525390625 17.1026611328125
-8.86962890625 -0.86669921875 1.8570556640625
-46.2783203125 -69.42822265625 28.9200439453125
-17.127685546875 -28.98974609375 14.0418701171875
-11.8359375 -10.21533203125 -4.89111328125
10.527587890625 8.40869140625 -4.594970703125
-46.89013671875 -61.70263671875 37.182373046875
-36.536376953125 -9.07568359375 -2.2408447265625
-23.919677734375 -11.092529296875 -6.3768310546875
-33.846923828125 -27.99853515625 3.5418701171875
5.776123046875 -8.04443359375 -2.8096923828125
-35.454833984375 -11.378662109375 -5.561767578125
11.8564453125 16.65087890625 -30.4759521484375
7.358154296875 -31.093994140625 1.08837890625
-17.033203125 -34.99267578125 9.162353515625
-17.624267578125 -23.52978515625 17.893310546875
6.035888671875 -48.041748046875 18.7265625
17.201171875 3.44580078125 -3.5194091796875
-10.92236328125 -22.87255859375 22.2025146484375
-22.208251953125 -36.043701171875 15.7728271484375
2.427001953125 -13.091552734375 -6.7711181640625
-27.257568359375 -11.62158203125 -6.12548828125
-33.29296875 -50.70751953125 21.6025390625
-19.15234375 -22.154541015625 19.2122802734375
-26.726318359375 -6.8134765625 -2.36376953125
11.998046875 8.2041015625 -2.206787109375
30.2333984375 18.53955078125 -4.3345947265625
7.494140625 -52.877197265625 24.1151123046875
-30.930908203125 -43.593505859375 16.453857421875
-5.765625 -12.134033203125 -6.496826171875
-41.41552734375 -29.996826171875 2.567626953125
-7.453857421875 -33.1767578125 3.1181640625
-45.316650390625 -58.46337890625 16.6962890625
-43.318359375 -13.143798828125 -6.41455078125
-44.203125 -66.28076171875 27.0010986328125
-2.674560546875 -3.35888671875 1.011962890625
-18.045166015625 -7.16455078125 -2.5594482421875
11.318359375 1.73876953125 1.541259765625
-33.95361328125 -11.02392578125 -7.8424072265625
-39.786376953125 -39.232421875 8.8255615234375
10.475830078125 7.914794921875 -8.6319580078125
-27.187744140625 -32.96240234375 3.0289306640625
-43.853271484375 -51.490478515625 15.6883544921875
-40.372314453125 -9.92724609375 -4.6322021484375
-20.752685546875 -6.509033203125 -2.0928955078125
22.77294921875 11.907470703125 -0.7877197265625
13.248046875 7.4921875 1.8189697265625
-32.7607421875 -54.352294921875 26.3016357421875
17.091064453125 9.384765625 2.2740478515625
9.503662109375 6.093017578125 -12.0474853515625
-43.8173828125 -40.27734375 -0.912353515625
-12.681396484375 -36.4072265625 9.3076171875
-25.503662109375 -5.83642578125 -0.084228515625
-43.1640625 -46.695556640625 17.9559326171875
14.50732421875 6.890380859375 6.7337646484375
-44.18359375 -38.92236328125 -2.8184814453125
-28.656982421875 -5.604248046875 -1.847412109375
-34.37109375 -7.420166015625 -3.38671875
-26.5361328125 -35.56689453125 18.9930419921875
-34.9287109375 -8.5791015625 -2.3016357421875
-45.256103515625 -63.31005859375 37.6668701171875
-40.40771484375 -30.92236328125 8.487060546875
-3.935546875 0.59912109375 3.8280029296875
-40.3828125 -55.262939453125 24.1368408203125
25.26708984375 12.61767578125 1.26806640625
-43.704345703125 -39.373779296875 2.9029541015625
27.844482421875 7.454345703125 -5.936767578125
6.966552734375 -29.842041015625 -0.4080810546875
-33.293701171875 -51.646240234375 32.2763671875
-38.1484375 -52.7509765625 30.2772216796875
4.209716796875 -8.927490234375 -3.289794921875
-13.8935546875 -35.103759765625 8.8101806640625
-1.418212890625 -27.26611328125 6.9521484375
-11.8896484375 -36.806884765625 5.962890625
31.34326171875 11.84033203125 -6.5621337890625
-12.1220703125 -23.77392578125 20.8189697265625
-7.8408203125 -5.89990234375 -1.2095947265625
10.6826171875 -49.748779296875 19.786376953125
-45.50927734375 -62.91796875 22.7113037109375
-14.321044921875 -24.47216796875 18.2476806640625
-24.34033203125 -32.142333984375 22.575439453125
2.058837890625 -7.098388671875 -1.7249755859375
-6.23779296875 -31.20654296875 0.7103271484375
12.59814453125 1.69140625 0.514404296875
-8.0263671875 -31.218994140625 0.9012451171875
-28.812255859375 -53.87939453125 26.0128173828125
-3.498046875 -28.279296875 5.5977783203125
3.686279296875 -25.91845703125 7.6092529296875
-9.18603515625 -30.333984375 -0.1292724609375
-11.050537109375 -30.078369140625 -0.3197021484375
-24.653076171875 -42.7333984375 12.3731689453125
-27.00634765625 -28.771484375 -1.867431640625
-8.412841796875 -28.638427734375 -3.4437255859375
-43.59423828125 -45.544921875 14.6292724609375
25.5986328125 1.345947265625 -7.6317138671875
-11.803466796875 -30.878173828125 14.4405517578125
33.369873046875 19.720703125 -3.96875
2.70263671875 -47.626953125 18.674560546875
-29.882080078125 -32.73583984375 23.44873046875
-16.12939453125 -32.305419921875 11.44580078125
19.802001953125 11.5341796875 -1.41015625
10.623779296875 4.658447265625 3.609619140625
9.188720703125 -48.0458984375 17.03515625
5.904541015625 -52.09716796875 23.9500732421875
-25.71923828125 -33.75439453125 2.6898193359375
5.46630859375 -50.612060546875 22.428955078125
-19.510986328125 -3.8212890625 -0.2706298828125
-45.419921875 -59.90185546875 18.250244140625
-29.119873046875 -35.526611328125 20.1519775390625
-22.724365234375 -27.274658203125 22.0562744140625
-19.6953125 -31.1845703125 15.1832275390625
-12.546142578125 -8.581787109375 -3.0877685546875
-46.72021484375 -51.02099609375 7.8885498046875
4.98095703125 -49.02880859375 20.4776611328125
-29.22021484375 -34.48193359375 21.706298828125
32.53466796875 18.64208984375 -0.2581787109375
-28.041015625 -40.19677734375 9.18798828125
-5.603515625 -34.68310546875 5.7655029296875
-41.90380859375 -55.6884765625 26.9254150390625
-34.671142578125 -52.484130859375 29.5469970703125
24.47314453125 5.58154296875 -4.697998046875
-21.5107421875 -26.36865234375 23.438232421875
-30.133544921875 -41.56787109375 14.0833740234375
-45.182373046875 -57.46240234375 14.5966796875
3.67822265625 -41.9013671875 11.0159912109375
-29.127197265625 -39.2578125 15.8115234375
-43.92333984375 -56.800048828125 27.3638916015625
-39.518310546875 -27.866943359375 10.400146484375
-42.39501953125 -41.1474609375 10.932861328125
-21.124267578125 -27.606689453125 -3.1441650390625
-39.59130859375 -28.633056640625 0.900146484375
5.067138671875 -44.895263671875 14.8504638671875
11.77392578125 7.10498046875 -4.1903076171875
-34.53466796875 -55.179931640625 24.4970703125
2.693359375 -28.6396484375 10.2767333984375
-21.474609375 -32.658447265625 17.2906494140625
-8.573974609375 -33.869140625 4.4444580078125
-36.7333984375 -53.6005859375 22.7388916015625
2.170166015625 -29.140625 6.61376953125
8.476318359375 -45.73095703125 14.341552734375
-8.18896484375 -29.207763671875 -1.789306640625
-46.882568359375 -45.781494140625 -0.9501953125
5.615478515625 0.473876953125 3.1817626953125
9.6904296875 3.709716796875 6.0943603515625
-14.712890625 -11.218017578125 -5.695068359375
-7.305419921875 -38.25830078125 9.2603759765625
3.9697265625 -29.036376953125 -1.7183837890625
-29.249755859375 -28.648193359375 -2.0386962890625
-24.69580078125 -29.228515625 -1.7813720703125
-45.69970703125 -44.62548828125 -0.3555908203125
27.19677734375 11.3212890625 -4.0364990234375
-44.916259765625 -70.991943359375 31.7357177734375
-0.014892578125 -29.08154296875 8.21044921875
-27.807861328125 -36.045166015625 4.653564453125
-20.733642578125 -11.67431640625 -6.00439453125
-43.50830078125 -50.804443359375 22.133544921875
3.491943359375 -48.539306640625 20.716064453125
-40.896484375 -50.54736328125 21.92724609375
14.2822265625 6.126953125 -2.97265625
-19.821044921875 -35.783447265625 4.76318359375
-9.804443359375 -25.5947265625 23.3179931640625
-40.1083984375 -27.314697265625 -3.194580078125
-52.117431640625 -55.956298828125 2.7891845703125
-46.099365234375 -63.080322265625 20.4429931640625
-38.61083984375 -33.03076171875 10.05908203125
-0.853271484375 -43.04736328125 15.357177734375
13.012451171875 13.942138671875 -31.418212890625
30.898681640625 18.038818359375 -2.375732421875
4.443115234375 -3.944091796875 0.5218505859375
-20.44140625 -34.017578125 15.116455078125
3.52197265625 -25.8173828125 4.947021484375
30.12451171875 2.2890625 -10.13134765625
-22.397705078125 -34.50244140625 3.5169677734375
29.13037109375 16.790771484375 -1.6170654296875
-43.876220703125 -48.635498046875 15.8243408203125
-7.99072265625 -37.640380859375 7.6448974609375
-37.0 -39.609619140625 9.801025390625
29.575439453125 16.97509765625 0.1029052734375
-39.27734375 -26.268798828125 5.4169921875
2.631103515625 2.405517578125 5.6961669921875
-32.796142578125 -9.564208984375 -5.413330078125
-28.46826171875 -31.5458984375 1.2423095703125
18.418212890625 8.31787109375 5.77197265625
-45.368896484375 -49.289306640625 5.8448486328125
4.277587890625 -11.308349609375 -5.206787109375
-30.82373046875 -26.189697265625 -5.310791015625
-32.1015625 -29.3447265625 -0.540771484375
-32.66357421875 -7.330810546875 -3.123779296875
-12.45947265625 -11.479736328125 -5.57373046875
-3.65380859375 -32.975830078125 7.294189453125
-24.89599609375 -4.990234375 -1.2530517578125
-35.463623046875 -30.223876953125 5.8868408203125
-0.682373046875 -2.521728515625 1.4266357421875
-20.90966796875 -27.14599609375 -5.310546875
-28.03515625 -26.479736328125 -3.900390625
11.935791015625 -2.583251953125 -0.86669921875
-20.324951171875 -25.17041015625 18.270263671875
-39.238525390625 -41.298095703125 11.47216796875
-21.517822265625 -34.45556640625 10.646728515625
30.0 9.0048828125 -6.6759033203125
-15.899658203125 -25.965087890625 15.8846435546875
-30.900146484375 -55.43408203125 30.92138671875
-34.69921875 -28.576416015625 8.8455810546875
-39.3671875 -61.777099609375 35.579345703125
-33.71240234375 -26.786865234375 -4.2335205078125
-4.159912109375 -34.76611328125 6.9578857421875
-33.184326171875 -42.345703125 12.8787841796875
-38.636474609375 -26.6337890625 7.4810791015625
-44.14306640625 -53.581298828125 13.0081787109375
-6.83447265625 -8.77978515625 -3.339599609375
13.622802734375 -4.31884765625 -3.235595703125
-41.778076171875 -38.498779296875 7.3985595703125
28.000732421875 18.65771484375 -16.182861328125
1.07861328125 -25.03173828125 4.9320068359375
-23.608642578125 -9.937255859375 -4.3642578125
17.210205078125 6.795166015625 8.14892578125
35.18310546875 19.735595703125 -2.014892578125
4.69873046875 -29.816650390625 -0.1566162109375
-3.012939453125 -37.3662109375 8.5504150390625
-44.5078125 -50.570068359375 8.6668701171875
-43.80517578125 -48.93505859375 9.856689453125
-8.502197265625 -2.617919921875 0.9635009765625
24.31787109375 7.74365234375 -3.7137451171875
-25.064453125 -30.308349609375 23.89404296875
-43.869140625 -37.091064453125 6.1383056640625
30.629150390625 15.650390625 -5.9654541015625
-11.11865234375 -32.159912109375 13.6541748046875
7.944091796875 3.4462890625 4.4891357421875
-16.88525390625 -36.979736328125 4.637451171875
9.644287109375 -50.513916015625 22.9677734375
-20.1962890625 -4.145263671875 1.468017578125
3.642578125 -43.31640625 12.561279296875
25.081787109375 12.840087890625 -1.6884765625
-44.0498046875 -53.4970703125 20.752197265625
9.595458984375 -53.323974609375 26.6014404296875
-17.490234375 -3.14306640625 0.1011962890625
-0.633056640625 -28.28076171875 0.318603515625
-43.489990234375 -43.615966796875 1.91064453125
19.275390625 10.766845703125 1.4942626953125
-43.027099609375 -62.0625 34.0465087890625
-39.064697265625 -9.471923828125 -2.9227294921875
6.02294921875 -1.337890625 1.838623046875
-5.449462890625 -0.08837890625 4.7012939453125
-46.29296875 -45.333740234375 -4.1058349609375
-13.193115234375 -0.782470703125 1.924560546875
-45.00537109375 -56.310302734375 13.442626953125
-29.72265625 -31.091796875 3.72900390625
-41.12353515625 -11.19873046875 -6.615478515625
-7.96923828125 -0.428955078125 4.465087890625
-36.935302734375 -27.77490234375 -2.7667236328125
-32.165771484375 -13.529052734375 -7.8028564453125
-43.83935546875 -56.49658203125 29.224365234375
-44.583251953125 -43.687744140625 -1.1705322265625
-42.69775390625 -38.001708984375 -10.9398193359375
-38.448486328125 -55.829345703125 24.7510986328125
26.952880859375 1.19970703125 -8.265625
-20.35400390625 -8.876220703125 -4.0338134765625
-46.39208984375 -52.809814453125 8.379638671875
-40.875244140625 -56.372314453125 33.4910888671875
31.57373046875 4.9296875 -9.63525390625
11.935546875 4.462158203125 2.5504150390625
9.722900390625 9.1484375 -8.230224609375
-38.143310546875 -47.375732421875 18.217041015625
-34.808349609375 -51.281982421875 30.6815185546875
-16.76513671875 -2.04931640625 2.0205078125
-8.577880859375 -27.449951171875 21.9454345703125
-39.779296875 -54.453857421875 28.3114013671875
-40.188720703125 -25.28076171875 -5.369873046875
25.206298828125 2.797607421875 -6.7860107421875
-45.60302734375 -53.820068359375 10.82421875
15.881591796875 5.465087890625 -0.6971435546875
-4.5869140625 -6.96142578125 -2.2703857421875
-27.73095703125 -8.827880859375 -4.4964599609375
-22.972900390625 -28.021484375 -5.7413330078125
-1.96728515625 -41.4326171875 10.318115234375
5.8349609375 -46.025390625 15.4659423828125
-9.6806640625 -38.162353515625 7.708740234375
-33.959228515625 -47.82568359375 19.518310546875
15.289306640625 5.874267578125 8.147216796875
16.1591796875 4.284912109375 -1.8853759765625
-43.294921875 -62.1650390625 36.3238525390625
-37.677978515625 -45.744140625 16.243408203125
-27.60888671875 -26.880859375 -5.392822265625
-43.627197265625 -51.49755859375 18.840576171875
6.666259765625 -42.64013671875 11.935302734375
-37.351806640625 -52.9638671875 28.3568115234375
-23.77880859375 -30.868408203125 0.4366455078125
-38.493408203125 -42.42626953125 12.9571533203125
-41.217529296875 -59.50830078125 33.874267578125
-44.05224609375 -47.139892578125 4.3592529296875
-0.94189453125 -11.895751953125 -6.09619140625
-34.862060546875 -49.66943359375 21.053466796875
27.52490234375 20.379638671875 -14.79638671875
-26.90966796875 -36.7158203125 16.5595703125
22.983154296875 7.881103515625 -3.092529296875
-32.802490234375 -29.66552734375 1.25439453125
-40.555419921875 -28.0888671875 7.359619140625
6.007080078125 -30.63427734375 3.6119384765625
-30.200439453125 -36.685302734375 20.472900390625
-36.031005859375 -54.98876953125 22.857666015625
30.453125 14.994873046875 -4.3719482421875
2.774658203125 -4.34814453125 0.1719970703125
-42.221435546875 -34.300537109375 5.2452392578125
-37.078125 -56.22265625 24.0889892578125
-13.328857421875 -33.137451171875 2.850341796875
-34.606689453125 -28.326904296875 -2.2633056640625
-10.017578125 -1.27734375 2.7559814453125
-20.08056640625 -30.2080078125 19.4310302734375
32.398193359375 0.438232421875 -12.1951904296875
22.12451171875 11.6962890625 3.127197265625
-7.868896484375 -36.868408203125 12.7882080078125
-6.758056640625 -35.585693359375 5.689208984375
-34.68798828125 -53.025634765625 34.412841796875
-10.98193359375 -5.370849609375 -0.72998046875
-3.01416015625 -10.427001953125 -5.0577392578125
-44.0478515625 -46.327392578125 6.3592529296875
-40.785400390625 -29.899169921875 5.641845703125
8.532958984375 -6.566650390625 -1.87841796875
-26.66455078125 -6.57763671875 -0.5687255859375
-34.85595703125 -28.346435546875 7.1351318359375
-29.6103515625 -40.846435546875 10.568603515625
7.490478515625 -7.855712890625 -2.9561767578125
-3.372314453125 -29.961181640625 0.6844482421875
-16.063720703125 -38.593017578125 5.1016845703125
-36.869873046875 -25.18115234375 5.4046630859375
-22.95166015625 -36.1943359375 17.6104736328125
-41.786376953125 -29.205322265625 -0.7784423828125
10.616455078125 -0.69775390625 0.605712890625
-26.72607421875 -38.0419921875 15.36962890625
-12.021240234375 -34.6376953125 4.18701171875
-15.896484375 -4.625244140625 -0.4356689453125
-37.57275390625 -26.843017578125 3.3233642578125
-45.02685546875 -68.052978515625 30.4295654296875
-43.94091796875 -42.277099609375 11.301025390625
-43.08447265625 -22.192626953125 -7.8365478515625
-37.180419921875 -28.580322265625 10.8824462890625
-40.79931640625 -55.0263671875 31.466796875
-34.82568359375 -30.891845703125 7.0074462890625
-17.811767578125 -32.842529296875 3.8504638671875
-21.922119140625 -36.12255859375 5.8162841796875
-29.83740234375 -39.744873046875 23.8504638671875
10.599365234375 3.29541015625 -14.2249755859375
-35.49658203125 -26.70361328125 -4.460205078125
-14.664794921875 -31.475341796875 1.561767578125
-47.11962890625 -63.375244140625 18.1871337890625
-46.208740234375 -64.271240234375 22.51953125
-2.902587890625 -40.958984375 11.88330078125
-24.525390625 -37.836181640625 15.6378173828125
-3.313720703125 -29.5546875 3.487548828125
7.841064453125 -40.451171875 9.517578125
-13.631103515625 -27.350341796875 -3.46533203125
-16.21142578125 -32.36181640625 2.4312744140625
34.890380859375 17.400634765625 -6.451904296875
0.96240234375 -40.410888671875 9.774658203125
-46.09814453125 -67.451416015625 23.2822265625
-35.253662109375 -41.2607421875 11.517333984375
-34.09033203125 -40.67138671875 10.620361328125
29.13916015625 5.85498046875 -7.800048828125
-10.02978515625 -8.083740234375 -2.810302734375
-36.06640625 -52.60546875 21.958251953125
-8.183837890625 0.108154296875 2.880615234375
-36.40576171875 -49.13134765625 19.5010986328125
-47.09033203125 -67.599609375 27.9501953125
-32.5625 -41.511962890625 11.1846923828125
-23.197509765625 -32.911865234375 3.0601806640625
2.0078125 -26.5009765625 7.2086181640625
-24.0078125 -7.6240234375 -2.871826171875
8.02001953125 -50.115234375 20.435302734375
-47.65966796875 -62.761474609375 36.6177978515625
-16.584716796875 -24.484375 17.1483154296875
-39.47021484375 -62.96142578125 37.65869140625
-44.216552734375 -47.703125 6.9833984375
-32.611083984375 -53.423828125 30.9903564453125
-44.44921875 -63.58349609375 23.3988037109375
-39.992431640625 -58.170654296875 35.3541259765625
-37.601318359375 -11.433837890625 -5.7669677734375
-45.645263671875 -72.979736328125 4.883544921875
-4.188720703125 -36.4658203125 7.5013427734375
-40.54150390625 -56.08056640625 26.267822265625
-4.84619140625 -40.586669921875 11.247314453125
-42.6357421875 -40.40576171875 9.3189697265625
-39.573974609375 -43.531005859375 13.737060546875
0.482421875 -46.33349609375 17.3126220703125
18.27978515625 -0.6298828125 -5.0753173828125
3.139404296875 -44.691650390625 14.1666259765625
-23.463134765625 -32.58984375 21.0672607421875
-16.108642578125 -22.01611328125 19.3729248046875
28.67529296875 13.738037109375 -3.6109619140625
-29.38134765625 -40.481689453125 15.134033203125
-44.008544921875 -44.080078125 12.2742919921875
-4.4375 -29.64990234375 -0.9425048828125
21.339599609375 -2.687255859375 -9.4779052734375
19.454345703125 6.3955078125 6.950439453125
-31.5810546875 -8.91455078125 -4.514892578125
26.290771484375 13.53076171875 0.9393310546875
-17.55126953125 -30.77294921875 0.680908203125
3.696533203125 -6.53515625 -1.3316650390625
-45.10009765625 -50.220947265625 7.4365234375
-1.207763671875 -42.014892578125 13.3192138671875
-43.19482421875 -70.192626953125 32.1781005859375
-46.597412109375 -41.419677734375 -5.4163818359375
-44.77490234375 -39.372314453125 -6.0361328125
-32.1318359375 -30.501220703125 2.3321533203125
-42.19775390625 -12.576171875 -7.2786865234375
-5.78173828125 -32.725830078125 2.58642578125
-43.2802734375 -56.46044921875 24.642822265625
12.50537109375 4.984375 -10.491943359375
-39.15673828125 -54.767822265625 23.6585693359375
-30.5703125 -44.4716796875 19.3990478515625
33.810791015625 19.953857421875 -1.80615234375
26.591064453125 13.525634765625 -2.5589599609375
-21.089111328125 -35.971435546875 12.5281982421875
25.6884765625 22.2041015625 -14.08984375
-21.683837890625 -36.9345703125 6.9688720703125
9.412841796875 -4.65478515625 -0.6380615234375
-43.98828125 -58.170166015625 17.0804443359375
-9.323486328125 -9.43701171875 -3.6600341796875
30.8037109375 -1.707275390625 -12.1065673828125
8.253662109375 -52.4794921875 22.7327880859375
-30.37109375 -53.334228515625 24.4461669921875
-46.525634765625 -45.868896484375 -2.3790283203125
-9.680419921875 -34.773193359375 12.959716796875
-1.529541015625 -27.634033203125 3.2760009765625
-28.642578125 -40.646484375 12.3182373046875
-19.531005859375 -11.078125 -5.552490234375
-45.188232421875 -48.403564453125 4.197998046875
3.552001953125 -1.990234375 1.5206298828125
32.247314453125 7.149169921875 -9.1556396484375
-5.3505859375 -28.10107421875 -2.7490234375
-43.97705078125 -52.697021484375 23.6192626953125
-6.45849609375 -36.503173828125 7.2760009765625
-9.180908203125 -36.880859375 5.66064453125
-40.31005859375 -34.216796875 7.744384765625
-19.401123046875 -28.335205078125 15.30322265625
-44.116455078125 -55.64111328125 14.86279296875
-29.956298828125 -38.8955078125 17.7652587890625
-27.111083984375 -41.0791015625 7.0858154296875
-16.67041015625 -7.571533203125 -2.814453125
-41.830322265625 -27.560546875 -3.5072021484375
-37.84716796875 -25.99072265625 -4.9158935546875
-43.942138671875 -55.28857421875 18.111572265625
1.39990234375 -30.3984375 11.839599609375
-5.82958984375 -34.10888671875 4.09912109375
-32.231689453125 -51.35205078125 22.2808837890625
-4.371826171875 -3.60595703125 0.70458984375
30.673583984375 19.75390625 -5.8087158203125
-36.61083984375 -51.10302734375 30.88330078125
31.666259765625 3.04638671875 -10.5623779296875
-17.8330078125 -8.31982421875 -3.3048095703125
6.34521484375 -12.6259765625 -6.2069091796875
-36.991943359375 -43.3408203125 13.0606689453125
0.71923828125 -28.09326171875 1.1209716796875
-40.012939453125 -46.927001953125 18.0435791015625
-46.159912109375 -43.05615234375 -3.1246337890625
-44.16650390625 -38.85205078125 -8.7060546875
-46.297607421875 -38.84716796875 -7.553466796875
20.414794921875 -2.0576171875 -6.1087646484375
3.983642578125 -26.885498046875 8.718017578125
-38.33203125 -50.62939453125 32.927490234375
-24.823486328125 -10.5908203125 -5.26708984375
-30.8505859375 -47.463623046875 20.187255859375
-12.628173828125 -35.7802734375 4.9051513671875
-18.35009765625 -34.623779296875 3.50732421875
9.12841796875 -43.454833984375 11.0577392578125
-10.6416015625 -34.688720703125 4.4822998046875
1.13427734375 1.015380859375 3.366943359375
-13.119140625 -30.58935546875 0.692626953125
-0.81298828125 -27.537353515625 8.6287841796875
-10.853515625 -1.046142578125 4.2044677734375
-29.217529296875 -27.1943359375 -3.93994140625
-0.2861328125 -24.920166015625 5.1024169921875
-23.01611328125 -31.97802734375 1.900634765625
-43.0087890625 -11.8935546875 -4.8211669921875
-11.326171875 -36.979736328125 7.2283935546875
-32.0791015625 -54.655029296875 28.9049072265625
-42.468994140625 -47.734375 19.0289306640625
-18.1953125 -3.255615234375 2.3262939453125
-19.31591796875 -27.691162109375 -2.914794921875
-29.83251953125 -54.7080078125 28.683349609375
-36.55810546875 -41.548828125 11.1400146484375
-41.23681640625 -42.144775390625 12.3992919921875
-25.35009765625 -34.8447265625 19.020263671875
19.51904296875 7.90673828125 -1.8236083984375
9.457275390625 -50.02587890625 21.69580078125
8.396728515625 1.49853515625 3.115478515625
-0.438232421875 0.746826171875 5.2138671875
-36.5732421875 -28.865234375 -0.381591796875
-44.270751953125 -39.203369140625 -11.0592041015625
-27.586181640625 -39.613525390625 11.0738525390625
-24.9501953125 -26.575927734375 -4.26953125
-43.899658203125 -57.022216796875 20.9541015625
-41.24169921875 -56.065673828125 29.0579833984375
-30.51025390625 -39.754150390625 20.336181640625
-23.242919921875 -26.46044921875 -4.8829345703125
-31.6689453125 -27.829345703125 -2.9205322265625
-17.404541015625 -5.861572265625 -1.43896484375
-39.71484375 -28.799560546875 -1.359375
2.5556640625 -45.717529296875 15.8538818359375
-24.0830078125 -28.1064453125 -2.48388671875
16.017822265625 8.61767578125 2.64453125
-43.431640625 -37.913818359375 -2.2100830078125
-27.768310546875 -35.883544921875 19.498779296875
-3.521484375 -7.81103515625 -2.59521484375
-26.45458984375 -27.618896484375 -3.45263671875
-43.87744140625 -43.10498046875 10.214599609375
-43.751953125 -41.888671875 8.6619873046875
-38.796630859375 -61.9521484375 36.860595703125
-10.499267578125 -10.251953125 -4.6097412109375
-38.431640625 -26.9697265625 -3.299560546875
-33.02197265625 -28.232177734375 8.7437744140625
10.828369140625 10.187255859375 -6.3565673828125
-30.374267578125 -37.858154296875 21.1483154296875
10.07470703125 1.575439453125 2.07666015625
-41.154541015625 -49.29736328125 21.2947998046875
27.573974609375 13.54931640625 0.3681640625
-25.233154296875 -8.057373046875 -3.2767333984375
23.72607421875 13.386962890625 1.19091796875
-30.255859375 -47.81103515625 21.417724609375
-43.467041015625 -59.038818359375 22.3443603515625
-38.092041015625 -25.7900390625 4.95458984375
20.909423828125 -4.299072265625 -9.38525390625
-29.661865234375 -7.3349609375 -3.0311279296875
-30.434814453125 -30.690185546875 0.7567138671875
-34.8515625 -29.36279296875 10.9100341796875
27.776123046875 2.9736328125 -7.9193115234375
-12.9326171875 -4.315673828125 -0.2572021484375
32.13525390625 17.73974609375 -6.9163818359375
-10.492431640625 -3.452392578125 0.5499267578125
-21.669921875 -31.353515625 18.4686279296875
-16.656982421875 -21.2041015625 20.4727783203125
15.58154296875 7.65869140625 6.3612060546875
-3.184326171875 -41.3955078125 13.1903076171875
-25.01123046875 -43.526123046875 11.3353271484375
-19.195068359375 -34.310791015625 12.68408203125
-39.864501953125 -36.601806640625 8.064453125
35.202392578125 17.558837890625 -8.619873046875
-43.857421875 -39.3828125 6.9736328125
7.703369140625 -44.60009765625 13.7271728515625
-45.3916015625 -67.148193359375 27.413330078125
9.24560546875 -46.939697265625 14.4827880859375
-15.780517578125 -37.084228515625 7.6732177734375
-38.595947265625 -10.584716796875 -5.4390869140625
-24.510498046875 -37.457275390625 17.061279296875
-45.41748046875 -62.06689453125 19.6561279296875
25.184814453125 14.113037109375 -0.526123046875
30.585205078125 13.025634765625 -5.3087158203125
-10.4248046875 -12.94873046875 -6.611572265625
5.050048828125 3.2607421875 6.4957275390625
-27.158447265625 -31.079345703125 23.064453125
-2.900146484375 -28.829345703125 -2.28173828125
17.872314453125 7.275390625 6.456787109375
-0.46044921875 -5.684814453125 -1.1051025390625
-18.5068359375 -26.071533203125 16.12890625
13.8193359375 6.5283203125 -1.080810546875
-44.100830078125 -59.094970703125 19.6531982421875
-36.6806640625 -9.061767578125 -4.4034423828125
8.95654296875 -53.19580078125 23.917236328125
-30.80908203125 -11.106201171875 -6.0283203125
-39.703125 -12.081787109375 -7.00390625
1.803955078125 -29.21337890625 -0.6138916015625
-43.19677734375 -31.44287109375 -1.60107421875
-3.65625 -29.581787109375 5.3258056640625
-38.3349609375 -9.462158203125 -4.750244140625
7.67919921875 10.1435546875 -9.0419921875
19.112060546875 -3.937255859375 -7.3099365234375
-29.686767578125 -32.09912109375 1.2474365234375
-44.359375 -67.374755859375 28.65283203125
-36.74072265625 -27.34521484375 1.333984375
3.228271484375 -0.484375 2.7843017578125
-35.298828125 -27.8203125 1.9571533203125
-47.213134765625 -68.13916015625 6.553466796875
-43.06884765625 -26.17041015625 -5.2611083984375
-45.3212890625 -53.38330078125 9.5164794921875
-5.525146484375 -41.39892578125 12.059326171875
21.41162109375 12.242431640625 0.311279296875
-20.982177734375 -7.62890625 -2.7784423828125
31.958251953125 18.7451171875 -3.1856689453125
17.626220703125 6.720458984375 -2.7698974609375
10.518310546875 -50.097412109375 23.8826904296875
28.611572265625 16.478271484375 -17.714599609375
-35.58154296875 -25.650390625 3.8260498046875
-14.5078125 -42.029052734375 3.719970703125
-2.019775390625 -39.364501953125 9.845703125
-21.01171875 -34.791748046875 3.302734375
5.30859375 3.616455078125 4.8175048828125
-41.60302734375 -31.15185546875 3.2139892578125
-44.106201171875 -51.3076171875 12.56884765625
-35.71533203125 -55.080322265625 33.694580078125
28.35595703125 11.78955078125 -4.48876953125
-11.76904296875 -1.542236328125 1.14990234375
23.63623046875 10.2724609375 -2.14892578125
-20.51025390625 -5.3349609375 -0.9608154296875
-20.410400390625 -36.47607421875 7.3873291015625
-14.471923828125 -33.9658203125 3.239501953125
31.56396484375 17.4853515625 -0.8597412109375
30.25390625 -2.967529296875 -12.808837890625
-7.26806640625 -27.033203125 23.2288818359375
-34.268310546875 -48.085205078125 20.8543701171875
-35.48876953125 -45.613525390625 16.0487060546875
-40.637939453125 -47.763671875 19.7427978515625
8.259765625 0.240478515625 2.3997802734375
-45.185546875 -70.289794921875 29.5831298828125
-14.86962890625 -27.670166015625 -2.9521484375
-37.135986328125 -50.212158203125 31.9930419921875
21.55029296875 10.971435546875 5.1795654296875
-39.86376953125 -45.87451171875 16.437744140625
22.34716796875 12.255859375 1.93896484375
-47.122314453125 -69.34912109375 29.9329833984375
-43.72412109375 -50.225341796875 20.4617919921875
-18.449951171875 -21.18994140625 19.7783203125
-26.46630859375 -40.5830078125 11.6553955078125
-31.1962890625 -41.566650390625 11.4833984375
-30.01318359375 -43.767822265625 23.0850830078125
-33.04248046875 -26.30029296875 -5.983642578125
-21.162109375 -4.220947265625 -0.616943359375
4.645263671875 -46.6279296875 16.38330078125
16.685302734375 2.176513671875 -3.3311767578125
12.831787109375 -0.962646484375 -0.5806884765625
29.47998046875 20.51904296875 -8.066650390625
28.864501953125 19.893310546875 -6.4276123046875
25.352294921875 3.905517578125 -6.088623046875
1.8603515625 -2.1796875 1.6630859375
4.348388671875 -9.6845703125 -4.3759765625
-43.800048828125 -42.57763671875 12.5723876953125
-17.951904296875 -29.434814453125 -1.2215576171875
4.978515625 -25.697998046875 7.521484375
-20.561279296875 -32.811279296875 2.798583984375
-11.171875 -28.241455078125 -3.0447998046875
-30.1689453125 -40.695556640625 22.8028564453125
-24.613037109375 -39.911865234375 14.766845703125
-29.16650390625 -41.515869140625 8.5672607421875
-28.918701171875 -56.1796875 31.511474609375
-19.40087890625 -32.223388671875 1.90380859375
2.366943359375 -10.697509765625 -4.8428955078125
-40.11083984375 -53.9580078125 31.1441650390625
-3.439453125 -27.877197265625 8.3807373046875
-37.6865234375 -40.40966796875 10.6007080078125
-46.726806640625 -45.5205078125 1.826171875
-37.1669921875 -44.2177734375 14.70068359375
-12.15380859375 -34.240234375 11.07177734375
-34.47314453125 -42.562744140625 12.965576171875
-22.4267578125 -29.28564453125 -1.144775390625
-23.7890625 -6.29150390625 -1.6961669921875
-17.5400390625 -31.481689453125 13.111572265625
-4.963134765625 -31.784912109375 4.9764404296875
-18.33740234375 -35.280517578125 8.78515625
1.388427734375 -41.862548828125 11.2576904296875
6.82177734375 -8.803466796875 -3.552734375
-35.276611328125 -28.813232421875 -0.5126953125
-12.46875 0.03759765625 2.906005859375
-11.350341796875 -7.988525390625 -2.63818359375
-32.7333984375 -41.03857421875 9.948486328125
-43.09521484375 -31.106689453125 0.7060546875
-46.335693359375 -47.0673828125 3.7091064453125
-47.12939453125 -60.429931640625 18.3148193359375
-40.597412109375 -51.65283203125 23.49169921875
-41.9013671875 -54.063720703125 24.5130615234375
-26.55322265625 -35.94189453125 17.57763671875
-22.51416015625 -27.393798828125 -3.3887939453125
-0.885498046875 -7.7841796875 -2.443115234375
-13.685302734375 -22.815673828125 20.287109375
1.184326171875 -42.6494140625 12.4891357421875
-44.826171875 -66.00146484375 25.2745361328125
7.7509765625 -32.349609375 2.5888671875
26.818603515625 8.021240234375 -5.2418212890625
-20.3984375 -22.3076171875 19.746337890625
11.265380859375 -5.27099609375 -2.31591796875
6.678955078125 -10.10498046875 -4.2950439453125
-8.864501953125 -36.895751953125 11.072998046875
-34.5927734375 -50.92431640625 21.6876220703125
-26.656982421875 -34.284423828125 21.0462646484375
28.61279296875 9.292724609375 -6.0079345703125
-43.696044921875 -54.13232421875 24.2208251953125
-31.671142578125 -53.223876953125 25.5008544921875
5.8251953125 -30.162109375 2.373046875
-12.434814453125 -9.332275390625 -4.1650390625
-13.69873046875 -36.194091796875 8.101318359375
-41.74658203125 -24.22119140625 -6.269287109375
-38.487060546875 -49.38818359375 21.013671875
5.932373046875 -41.765869140625 10.814208984375
-18.823974609375 -5.089111328125 -0.655029296875
-5.7255859375 -37.22119140625 9.3179931640625
-43.1162109375 -38.13330078125 -4.56201171875
-28.9296875 -32.905029296875 3.68017578125
13.052978515625 7.7109375 -1.143310546875
-9.184814453125 -12.507568359375 -6.1995849609375
-0.73095703125 -45.089111328125 17.2215576171875
-27.850830078125 -32.0517578125 2.408447265625
-43.57763671875 -62.603271484375 37.635498046875
28.115966796875 -1.505615234375 -10.406982421875
-27.372314453125 -53.06103515625 29.6597900390625
-40.141357421875 -52.9560546875 33.1290283203125
-5.629150390625 -1.7861328125 1.7135009765625
-40.726318359375 -54.474365234375 33.8134765625
-40.298828125 -59.270751953125 34.7379150390625
-11.260498046875 -28.61767578125 17.0869140625
-6.59716796875 -9.947265625 -4.0924072265625
38.684326171875 10.361083984375 -12.614990234375
-40.509033203125 -35.688232421875 7.4384765625
-15.48974609375 -28.244873046875 14.47607421875
-37.423828125 -46.739990234375 17.3697509765625
31.95703125 18.43408203125 -5.8553466796875
9.548828125 -3.375244140625 0.0904541015625
-39.894775390625 -26.850341796875 7.5673828125
17.281005859375 6.666259765625 -1.000732421875
-41.58642578125 -22.919677734375 -6.85546875
18.080810546875 10.450927734375 1.984375
-10.825927734375 -33.814697265625 12.376953125
-42.4453125 -46.06201171875 17.1112060546875
-50.975830078125 -56.560546875 4.832763671875
-34.197021484375 -53.031005859375 28.4974365234375
-19.226806640625 -36.125732421875 5.982177734375
1.738525390625 -3.663330078125 0.4495849609375
13.107666015625 7.133056640625 -3.46435546875
-13.256591796875 -33.078369140625 11.8829345703125
30.543701171875 16.26318359375 -3.2030029296875
-20.49658203125 -32.58544921875 11.8388671875
-6.376708984375 -4.502685546875 -0.1612548828125
-39.9814453125 -40.172607421875 9.9912109375
-12.2998046875 -30.3701171875 15.49169921875
17.857177734375 9.890380859375 3.173583984375
7.86376953125 -43.632568359375 12.5289306640625
-12.930419921875 -45.11181640625 3.78955078125
5.826904296875 -44.42578125 13.9508056640625
8.75634765625 7.390625 -11.1854248046875
4.114013671875 3.30126953125 5.3082275390625
16.723876953125 7.96044921875 4.5767822265625
5.093017578125 -43.54833984375 12.825927734375
-41.352294921875 -33.907958984375 6.1356201171875
-27.277099609375 -39.353271484375 9.742431640625
-15.927001953125 -30.156494140625 0.194580078125
-30.5966796875 -53.076904296875 21.786865234375
0.718505859375 -44.1962890625 14.0517578125
-22.14599609375 -33.754150390625 17.1336669921875
-44.01025390625 -64.76953125 26.8033447265625
20.06689453125 11.94482421875 -2.6397705078125
-37.859375 -9.099609375 -2.96826171875
-0.3330078125 -28.906982421875 11.43310546875
-45.146484375 -38.8095703125 -9.9493408203125
-43.910400390625 -45.59130859375 3.7811279296875
-2.04248046875 -29.255859375 11.5355224609375
-13.86767578125 -6.206787109375 -1.4835205078125
-11.17041015625 -26.700439453125 18.3597412109375
-0.982666015625 -41.547607421875 11.1077880859375
-22.671142578125 -29.880615234375 0.09423828125
-42.463134765625 -58.4453125 31.458740234375
35.3623046875 19.302978515625 -0.84716796875
31.708251953125 6.03466796875 -8.9320068359375
-4.50732421875 -30.34765625 2.9847412109375
19.738037109375 10.265380859375 -1.277099609375
7.578369140625 -48.63427734375 18.9208984375
15.52783203125 7.644775390625 5.06689453125
-30.86279296875 -31.91064453125 4.114501953125
6.568115234375 -31.3876953125 2.0185546875
-1.796875 -34.4814453125 9.94873046875
-27.29052734375 -5.94775390625 -1.6513671875
-40.595947265625 -42.83056640625 13.538818359375
-14.510498046875 -23.42626953125 18.9229736328125
-15.26904296875 -31.911865234375 12.338134765625
-31.125732421875 -6.310302734375 -2.6112060546875
-28.1142578125 -37.202392578125 17.029541015625
-32.855224609375 -48.56591796875 20.6201171875
8.973388671875 10.37646484375 -7.830322265625
-44.4013671875 -49.406005859375 6.6290283203125
-34.312744140625 -46.62451171875 17.5328369140625
-9.129150390625 -38.022705078125 9.9539794921875
-45.634033203125 -46.50341796875 2.394775390625
7.71533203125 -29.37939453125 -1.294677734375
1.7490234375 -12.094970703125 -6.4501953125
