13.717529296875 13.779541015625 -8.7958984375
-14.256103515625 -41.376953125 -0.8106689453125
-34.2490234375 -17.225341796875 1.6124267578125
-25.443603515625 -57.909912109375 9.0521240234375
-31.985595703125 -52.06103515625 24.447509765625
-26.9921875 -63.145751953125 -0.9298095703125
19.72216796875 24.3935546875 -4.8656005859375
-42.0615234375 -40.708740234375 16.793701171875
1.907470703125 -14.88330078125 4.7078857421875
-19.126708984375 -23.630126953125 -3.5135498046875
-21.763671875 4.419677734375 2.850341796875
-37.787109375 -52.34033203125 25.9866943359375
-42.40478515625 -32.804443359375 5.9515380859375
-42.082763671875 -44.756591796875 21.148193359375
5.384765625 -24.665283203125 -2.328857421875
-40.140625 -18.200439453125 9.097412109375
-41.05517578125 -40.46923828125 27.6124267578125
-25.84716796875 -51.377685546875 8.335205078125
-14.884765625 -28.9208984375 2.4820556640625
-17.43505859375 0.50390625 0.7041015625
-37.4619140625 -56.47802734375 31.01025390625
19.24951171875 7.804443359375 2.0848388671875
-9.43603515625 -23.285888671875 -3.0748291015625
-2.7744140625 7.01171875 5.1004638671875
22.905517578125 7.5771484375 -0.3087158203125
-13.5263671875 3.55517578125 2.3851318359375
-39.64404296875 -11.177001953125 8.36279296875
-14.42236328125 -19.91650390625 -2.75537109375
-37.221435546875 -34.826416015625 8.849853515625
-9.9970703125 -27.365478515625 0.9664306640625
2.165283203125 -21.607666015625 -4.4835205078125
-28.02880859375 -57.1904296875 6.5084228515625
-11.266845703125 -53.14013671875 -7.854736328125
-42.22314453125 -24.220458984375 6.48291015625
26.156982421875 18.6328125 1.2620849609375
-42.015869140625 -39.367431640625 22.76513671875
-26.090576171875 -47.7294921875 3.68798828125
-9.66552734375 -30.97509765625 5.6851806640625
-26.8408203125 9.189453125 6.233154296875
-20.643798828125 -46.277099609375 -4.341552734375
-1.997802734375 -15.625 4.943603515625
-5.7216796875 -23.77734375 -1.3321533203125
-2.380859375 -33.751220703125 10.3228759765625
-22.05517578125 -38.07177734375 3.412109375
-12.170166015625 -12.2373046875 5.21875
5.341552734375 -34.436767578125 -5.4306640625
-5.47607421875 -17.319091796875 1.88671875
-19.57763671875 -34.1875 3.8597412109375
-41.41015625 -46.27880859375 30.423583984375
-31.89794921875 -10.347412109375 3.057861328125
-17.5546875 -44.89013671875 -4.6978759765625
-39.97705078125 -24.409423828125 -3.1055908203125
-42.20556640625 -36.15869140625 18.738037109375
-33.52099609375 -14.584228515625 3.864501953125
-36.497802734375 -55.175048828125 25.3848876953125
8.549560546875 -9.257080078125 2.7794189453125
-5.82080078125 -27.43017578125 2.701416015625
33.760498046875 15.946533203125 -4.1639404296875
-35.43505859375 5.54541015625 3.7689208984375
-40.01416015625 -20.420166015625 5.087158203125
0.7451171875 -33.731201171875 2.068115234375
-30.35107421875 -19.9208984375 -1.6767578125
1.478271484375 -27.94482421875 -3.80517578125
17.966064453125 12.72998046875 5.17626953125
-11.2666015625 -16.9677734375 1.5545654296875
-41.4853515625 -7.97119140625 2.51123046875
-27.071044921875 -60.32080078125 -2.2750244140625
18.722412109375 17.281494140625 5.846923828125
-11.90625 -29.1279296875 2.45068359375
-41.988037109375 -51.699951171875 33.747802734375
-35.561279296875 0.74072265625 0.6893310546875
-15.611572265625 -47.6572265625 -7.2236328125
-38.586181640625 -13.690185546875 5.8671875
-8.12939453125 -2.41796875 0.064453125
-18.77099609375 -26.796142578125 -0.2503662109375
-25.981689453125 -54.231201171875 -3.697021484375
-30.468017578125 -1.266357421875 0.1241455078125
-15.2958984375 -22.151123046875 -5.0450439453125
-30.4853515625 -41.642333984375 18.466796875
-33.789306640625 3.530517578125 2.30224609375
-36.40234375 -34.265869140625 -3.76025390625
-39.536376953125 -4.662353515625 -0.1583251953125
-37.157470703125 -32.439453125 6.075439453125
-34.057861328125 -35.14404296875 3.8203125
-25.21044921875 -48.1162109375 -0.3206787109375
4.99853515625 -2.835205078125 0.468994140625
-42.25 -28.09423828125 0.479736328125
23.359619140625 11.53466796875 -0.8651123046875
-27.054443359375 -57.12060546875 1.141357421875
-42.151123046875 -34.166015625 15.824462890625
-2.116455078125 -10.58154296875 3.7098388671875
-18.19140625 -52.250244140625 -10.1044921875
-33.800537109375 -23.95556640625 -3.7958984375
-7.5859375 -46.3779296875 -1.711181640625
-25.326171875 -10.183837890625 2.703369140625
-17.36083984375 7.61474609375 5.3692626953125
-8.8408203125 6.805908203125 5.19580078125
-37.4619140625 -9.68505859375 1.8927001953125
-41.991943359375 -41.873779296875 20.847412109375
0.1591796875 -34.094970703125 6.45361328125
-13.108642578125 -38.799072265625 1.1937255859375
-14.908935546875 -15.948974609375 2.960205078125
-14.364013671875 -35.94921875 2.5882568359375
30.31982421875 10.1103515625 -0.3812255859375
25.742919921875 7.002685546875 -0.169189453125
-27.509033203125 -41.45361328125 19.3978271484375
23.357421875 18.19482421875 -10.5997314453125
-11.37109375 -25.46630859375 -1.6815185546875
-27.943359375 -16.687255859375 1.7310791015625
-0.15087890625 5.015869140625 3.4639892578125
15.351806640625 6.819091796875 6.2889404296875
-3.7626953125 -5.770263671875 0.95556640625
-22.4697265625 -53.25830078125 -7.86767578125
-15.973876953125 -26.98974609375 0.2392578125
-0.577880859375 -22.224609375 -4.0701904296875
-41.3271484375 -36.623046875 13.7000732421875
-40.8876953125 -51.2431640625 29.0274658203125
-20.98486328125 -0.70947265625 0.46533203125
-34.142578125 -37.0322265625 11.3306884765625
-35.350830078125 -60.51416015625 27.5203857421875
-7.01708984375 -12.20361328125 5.378173828125
-37.051513671875 -17.458251953125 1.6905517578125
-29.049560546875 -14.14453125 4.89013671875
-26.34912109375 -60.66064453125 -5.69921875
-26.600341796875 -62.765625 2.027587890625
11.13427734375 9.960205078125 7.3585205078125
-28.2919921875 -42.4052734375 14.0087890625
-30.429443359375 -18.9736328125 1.3795166015625
-29.072021484375 -6.0986328125 0.2879638671875
-13.1591796875 9.503662109375 7.3751220703125
-4.928466796875 -32.276123046875 8.1544189453125
10.275634765625 -10.7490234375 4.377197265625
-28.73486328125 -20.69775390625 -3.7803955078125
-42.050537109375 -37.84423828125 16.354736328125
16.73291015625 30.834228515625 -2.5775146484375
32.56494140625 9.7490234375 -2.535888671875
-1.88525390625 -25.532470703125 0.433837890625
-28.92431640625 -45.69384765625 19.7860107421875
5.616943359375 9.339599609375 6.94921875
-34.150634765625 -11.744873046875 3.9378662109375
-2.338134765625 -19.7568359375 -1.95947265625
11.6220703125 -21.7197265625 -4.2779541015625
8.322265625 -20.59423828125 -1.4840087890625
7.846435546875 -33.01416015625 -5.4072265625
-33.386962890625 -48.3828125 25.7889404296875
-32.93798828125 -57.89599609375 22.1348876953125
-29.580810546875 -62.34033203125 25.647216796875
-38.173095703125 -21.57421875 3.2882080078125
-41.8603515625 -48.82958984375 25.14013671875
-32.16064453125 -42.544189453125 20.406494140625
-27.991455078125 1.98193359375 1.310302734375
-9.256103515625 -5.471435546875 0.3642578125
26.628173828125 16.714111328125 -1.1971435546875
-1.684814453125 2.593017578125 1.751220703125
-41.664794921875 -30.628662109375 9.0445556640625
-10.927490234375 -21.367919921875 -4.379638671875
-21.6484375 8.026611328125 5.7236328125
-38.54638671875 -21.4140625 -1.9730224609375
-6.82080078125 -20.018798828125 0.385009765625
-2.97119140625 -12.708984375 5.28564453125
15.381591796875 12.573486328125 6.803466796875
-12.48828125 -55.2177734375 -10.611328125
-30.62890625 7.451416015625 5.4737548828125
-43.827880859375 -24.880126953125 14.093994140625
20.348388671875 22.955322265625 -7.05029296875
10.968017578125 -25.46533203125 -0.345703125
-26.28564453125 -59.5341796875 3.6475830078125
-41.902099609375 -23.067626953125 3.9964599609375
20.643798828125 13.117431640625 0.7098388671875
-26.408447265625 -48.94140625 9.257080078125
7.559326171875 0.00439453125 0.6448974609375
-23.18359375 -5.530517578125 0.3900146484375
-40.12939453125 -15.33447265625 8.6571044921875
-1.24755859375 -29.742431640625 -1.2506103515625
-7.277099609375 -9.805419921875 2.9261474609375
34.96630859375 18.383544921875 -3.131591796875
-14.2900390625 -50.440185546875 -8.4525146484375
-42.253662109375 -27.502197265625 6.043212890625
-26.1396484375 -52.62451171875 0.0194091796875
3.873046875 -7.560546875 2.185791015625
-4.737060546875 -42.021240234375 2.9615478515625
-11.314208984375 -9.743896484375 2.9364013671875
10.026611328125 6.59423828125 4.7310791015625
-25.06591796875 -54.214599609375 12.4189453125
-20.380859375 -4.012451171875 0.303466796875
-26.818115234375 -40.305419921875 10.3270263671875
-33.22314453125 -30.017822265625 -4.288330078125
-0.193115234375 -32.61279296875 -1.4517822265625
-24.439697265625 -39.38720703125 7.2197265625
-24.407958984375 -59.924072265625 10.5037841796875
-10.461669921875 -39.452880859375 2.1328125
0.630126953125 -6.621826171875 1.306640625
-25.761474609375 -55.869140625 6.4300537109375
-40.446533203125 -54.5400390625 33.572998046875
-1.5546875 8.958251953125 6.3206787109375
-39.419677734375 2.88916015625 1.6663818359375
-41.966552734375 -28.43408203125 14.4134521484375
-36.042236328125 -61.4130859375 32.0223388671875
-20.623046875 -29.736572265625 2.6815185546875
1.860595703125 -35.869384765625 -3.1993408203125
4.004150390625 2.739990234375 1.7647705078125
-23.807861328125 -22.7998046875 -4.622802734375
14.893310546875 20.879150390625 1.524169921875
-27.197998046875 -57.516357421875 -1.4197998046875
-21.125 -19.61376953125 -2.41259765625
1.839111328125 -18.903076171875 0.4866943359375
-38.48974609375 -32.24755859375 1.549560546875
10.235107421875 -1.464111328125 0.6019287109375
1.91552734375 0.748779296875 0.819091796875
9.947509765625 -15.555908203125 3.500732421875
-14.16845703125 -43.8681640625 -3.1746826171875
-25.812744140625 -58.22705078125 -6.8553466796875
-24.159912109375 -15.048583984375 3.263427734375
30.709228515625 15.74853515625 -2.3907470703125
-19.210205078125 4.27294921875 2.9462890625
-21.916748046875 -54.834228515625 -10.88232421875
-24.839599609375 -49.64697265625 18.0496826171875
-32.14306640625 -40.524658203125 16.6422119140625
-41.257568359375 -11.927734375 4.7943115234375
-24.496337890625 -58.15576171875 -9.2711181640625
-33.441162109375 -60.8056640625 22.55712890625
-40.542236328125 -24.25244140625 2.1962890625
16.97265625 14.128662109375 -3.5408935546875
-10.76708984375 -35.66796875 5.0767822265625
24.03515625 19.100830078125 -5.9927978515625
-35.34130859375 -38.3056640625 13.1689453125
-21.978271484375 -51.2177734375 -6.154541015625
-23.60302734375 -40.240966796875 2.2802734375
-41.1123046875 -22.2861328125 11.7750244140625
-18.802734375 -7.9765625 1.5821533203125
1.67822265625 9.3212890625 6.5335693359375
-27.068359375 -47.7080078125 14.6219482421875
-7.525390625 -26.76806640625 0.96484375
4.203369140625 -13.708740234375 7.4212646484375
-28.036376953125 -29.147705078125 -1.2734375
22.887451171875 21.489990234375 -2.23681640625
-10.268310546875 -51.4619140625 -6.20263671875
2.385986328125 6.19775390625 4.2479248046875
-26.074462890625 -36.520263671875 11.160400390625
-4.066162109375 -31.857177734375 5.675537109375
-20.190673828125 -49.51416015625 -6.95947265625
-1.1904296875 -16.559814453125 1.5137939453125
-17.895263671875 -5.0361328125 0.21484375
-27.143798828125 -45.67236328125 11.564697265625
-19.21240234375 -15.004150390625 4.0789794921875
-29.27783203125 -9.714599609375 2.6685791015625
-20.774658203125 -16.892333984375 2.2220458984375
19.91748046875 25.6728515625 -0.8089599609375
-23.978515625 -49.2880859375 -3.8133544921875
-25.958251953125 -62.80224609375 6.90966796875
-39.29150390625 -37.34228515625 12.2474365234375
-25.85400390625 -50.130859375 13.1671142578125
-42.41650390625 -50.89697265625 31.40673828125
-40.20703125 -26.739013671875 0.1251220703125
2.46923828125 -30.000732421875 -4.7662353515625
-12.598876953125 5.466064453125 3.9810791015625
-14.697998046875 -12.4609375 5.162841796875
6.8544921875 5.7705078125 3.880615234375
-27.029541015625 -46.534912109375 6.1800537109375
-16.908935546875 -36.544677734375 1.65283203125
-41.657958984375 -28.346923828125 3.7862548828125
15.241943359375 32.509033203125 -1.5426025390625
-14.984375 7.916015625 5.9666748046875
-31.65283203125 -54.5361328125 23.8973388671875
-35.40087890625 -20.352294921875 -2.1435546875
-38.88623046875 -55.722412109375 35.3306884765625
-30.456787109375 -61.522216796875 23.4534912109375
-25.65869140625 -2.045654296875 -0.0560302734375
-7.0068359375 -50.482666015625 -4.9473876953125
-32.162841796875 -20.570068359375 -3.8695068359375
11.121826171875 2.669677734375 2.9547119140625
-22.5654296875 2.55078125 1.4100341796875
-11.87939453125 -32.794189453125 5.9505615234375
10.371826171875 -18.265625 -0.59619140625
-29.0576171875 -3.22021484375 -0.1561279296875
-13.04296875 -2.037109375 0.2935791015625
0.083740234375 -25.0419921875 -1.866943359375
0.810546875 -10.724609375 4.225830078125
27.059814453125 16.39111328125 -5.767578125
-16.6953125 -53.38818359375 -11.62646484375
-36.462158203125 -26.132080078125 -2.18994140625
18.578857421875 17.50537109375 3.4107666015625
27.3125 13.64013671875 -1.9693603515625
-39.517822265625 -8.283447265625 1.022705078125
-16.728759765625 -11.4130859375 4.443603515625
-14.131591796875 -5.919921875 0.548828125
8.359130859375 -5.52099609375 0.576416015625
9.46044921875 8.39501953125 6.341552734375
-18.435546875 -32.02685546875 4.32763671875
-3.615966796875 -23.164794921875 -0.406494140625
-26.66259765625 -20.0439453125 -1.9688720703125
18.85546875 15.02685546875 5.1007080078125
-35.41796875 -7.498779296875 0.7908935546875
-8.234375 -42.664794921875 0.664306640625
1.19189453125 -33.400634765625 -3.21484375
-34.776611328125 -35.4658203125 9.668212890625
-26.647705078125 -50.203369140625 4.0733642578125
-25.71826171875 5.326416015625 3.7069091796875
-38.897705078125 -29.901611328125 -0.4088134765625
-21.66943359375 -23.831787109375 -3.6781005859375
-35.868408203125 -29.362060546875 -3.121337890625
-17.20751953125 5.394775390625 3.8397216796875
-42.347412109375 -29.207275390625 16.91015625
-19.103271484375 -21.61376953125 -4.786376953125
21.17822265625 13.885009765625 -1.4583740234375
-35.560791015625 -40.732177734375 16.524169921875
-38.74560546875 -18.985595703125 7.3626708984375
25.0400390625 15.771240234375 0.26806640625
-35.50146484375 -61.782470703125 29.5845947265625
-38.544677734375 -52.786865234375 29.591552734375
-25.448974609375 -45.24609375 3.435791015625
-5.599853515625 -21.37890625 -4.6673583984375
-37.043701171875 -48.1455078125 27.7958984375
19.894775390625 7.158935546875 4.42578125
8.38720703125 -14.32275390625 5.1217041015625
-20.6708984375 -38.8408203125 1.673828125
-14.626953125 -24.47412109375 -1.997802734375
-16.849853515625 -18.277099609375 1.2755126953125
23.758056640625 21.4482421875 1.1690673828125
-3.353515625 -3.21826171875 0.2818603515625
16.1357421875 8.088623046875 4.487060546875
3.683837890625 -20.58740234375 -2.9464111328125
19.21435546875 13.892822265625 -4.152587890625
-20.26904296875 -41.731689453125 -1.037841796875
-3.448486328125 -27.2666015625 2.47705078125
-40.888916015625 -29.7314453125 23.452880859375
-31.97412109375 9.37158203125 5.086181640625
-21.962158203125 -11.8623046875 4.733642578125
-41.075439453125 0.137939453125 0.198974609375
-20.5048828125 -53.1650390625 -10.0303955078125
-42.110107421875 -25.63623046875 0.997314453125
-4.950439453125 5.846923828125 4.049560546875
-38.9677734375 -1.74853515625 -0.4580078125
-25.1142578125 -41.9189453125 5.8704833984375
-11.865478515625 -18.773193359375 -0.282470703125
9.02392578125 -17.410888671875 2.020263671875
5.406494140625 -29.381591796875 -4.91162109375
-14.954833984375 -8.8564453125 2.0572509765625
-41.2470703125 -33.09033203125 23.2381591796875
-16.190673828125 -23.820068359375 -3.5614013671875
21.35546875 25.658447265625 1.913818359375
-0.28125 -34.8740234375 11.068603515625
-40.02294921875 -30.818115234375 12.593994140625
-1.9443359375 -30.459716796875 5.177978515625
-14.239990234375 -32.56689453125 4.6412353515625
-41.0087890625 -37.2099609375 23.9588623046875
-41.240234375 -39.69580078125 24.89697265625
-25.533935546875 -6.584228515625 0.4388427734375
-36.60009765625 -9.69189453125 15.2218017578125
-2.023681640625 -30.10595703125 2.8231201171875
-8.894775390625 -47.692138671875 -3.048828125
17.604248046875 28.700439453125 -3.0206298828125
-39.97265625 -49.54541015625 27.513916015625
-10.358154296875 -13.793701171875 4.761962890625
-15.552734375 -1.013916015625 0.382568359375
-34.1728515625 -63.756591796875 25.851806640625
-27.925537109375 -41.094970703125 17.1490478515625
-26.4560546875 -13.0673828125 5.2591552734375
-22.11572265625 -33.097412109375 4.604736328125
-29.468017578125 -43.662109375 18.314453125
-41.79443359375 -34.43994140625 20.4788818359375
-17.007568359375 -19.652099609375 -1.382568359375
2.5322265625 -32.513671875 -4.89111328125
-41.851806640625 -18.671630859375 10.9583740234375
-29.846435546875 5.760986328125 4.1986083984375
-26.699951171875 -45.574951171875 19.4580078125
-32.836669921875 -40.117919921875 18.7506103515625
-4.33984375 8.6337890625 5.9815673828125
-29.8564453125 -37.1572265625 12.0374755859375
-31.5693359375 4.220947265625 2.8319091796875
-13.055908203125 -52.41064453125 -8.99462890625
-25.452392578125 -48.413818359375 21.1903076171875
-41.558837890625 -34.32080078125 7.98779296875
-8.77783203125 3.16015625 1.8902587890625
-33.93310546875 -50.49560546875 24.6026611328125
-35.375244140625 -13.45703125 4.882080078125
-24.828857421875 -60.73681640625 8.1776123046875
-37.63818359375 4.852294921875 3.2376708984375
29.327392578125 13.787353515625 -2.91552734375
-41.90576171875 -49.217041015625 30.0084228515625
7.1015625 -31.349853515625 -4.1260986328125
13.367919921875 -25.72802734375 -0.670166015625
-41.79150390625 -37.91650390625 11.949462890625
23.372802734375 20.08251953125 -3.8887939453125
-42.5205078125 -53.8056640625 34.2158203125
-25.56787109375 -28.89697265625 1.130615234375
6.2392578125 -4.858154296875 0.5845947265625
-37.240234375 -33.81591796875 0.3177490234375
-26.933349609375 -46.029052734375 16.6229248046875
20.356201171875 25.16162109375 -6.8756103515625
-37.466064453125 -55.23486328125 32.835693359375
-8.889404296875 -21.176025390625 -3.5594482421875
18.543701171875 28.201904296875 -0.279541015625
30.9296875 11.795166015625 -2.3778076171875
22.4208984375 21.521728515625 3.81103515625
-41.81103515625 -4.51416015625 -0.761474609375
2.197021484375 4.36767578125 3.0540771484375
-39.065185546875 -23.37548828125 0.83349609375
20.845947265625 7.8642578125 0.5830078125
-7.222900390625 -39.23974609375 3.2684326171875
-18.552490234375 -42.466796875 -2.234375
-13.30712890625 -21.13232421875 -4.190185546875
-36.672119140625 -56.8505859375 29.006103515625
0.28076171875 -34.5556640625 4.3204345703125
-38.392333984375 -61.12353515625 35.4996337890625
7.96923828125 -10.965576171875 4.0538330078125
-42.150146484375 -44.320556640625 23.5548095703125
10.0302734375 -9.20947265625 1.1591796875
-24.968505859375 7.6806640625 5.9173583984375
-40.048095703125 -20.635498046875 9.7626953125
27.430419921875 7.964111328125 -1.49072265625
-29.53076171875 -38.754638671875 13.97802734375
-23.402587890625 -46.392822265625 -0.337158203125
-18.193115234375 -38.2880859375 1.012939453125
-6.566650390625 -33.25341796875 7.114013671875
20.8779296875 20.81640625 -7.2198486328125
3.32177734375 -10.50830078125 4.140869140625
-6.464599609375 -29.96630859375 3.7708740234375
-42.317138671875 -46.765869140625 27.9290771484375
5.5126953125 -12.390380859375 5.656005859375
-8.761474609375 -16.30322265625 2.3631591796875
-26.669921875 -56.275634765625 -3.4854736328125
5.9033203125 -16.70947265625 4.3358154296875
-41.7255859375 -37.315673828125 21.0589599609375
-43.544189453125 -26.935302734375 13.518310546875
-29.763671875 0.92333984375 0.7054443359375
-9.1904296875 8.5712890625 6.37353515625
-36.951171875 -58.975341796875 34.9388427734375
-40.37451171875 -31.8623046875 5.51806640625
-11.319091796875 -6.4755859375 0.9571533203125
6.37890625 -26.7373046875 -3.29736328125
6.911865234375 -23.303955078125 -2.9849853515625
-10.1943359375 -3.04931640625 -0.0589599609375
-24.070556640625 -20.74462890625 -4.066650390625
-26.991455078125 -43.651611328125 7.3333740234375
-35.63720703125 -59.676025390625 24.6644287109375
-10.073974609375 -29.80126953125 3.6517333984375
-41.44140625 -33.465576171875 25.335205078125
-25.09375 -55.444580078125 10.6690673828125
-0.55126953125 0.944091796875 1.00244140625
3.535888671875 -35.369384765625 -4.42578125
3.412109375 -16.081787109375 3.78125
-4.528076171875 3.18701171875 2.151123046875
-40.590087890625 -40.234130859375 15.322509765625
1.65625 -25.81689453125 -3.3626708984375
-24.961181640625 -52.166015625 -3.3868408203125
-7.342041015625 5.612060546875 4.2728271484375
-16.5244140625 -40.693115234375 -1.1998291015625
-42.095458984375 -23.958740234375 13.1241455078125
-3.871826171875 -9.51123046875 2.7213134765625
-32.20654296875 -17.8701171875 1.739501953125
8.698974609375 2.781005859375 1.75927734375
4.075927734375 -23.107177734375 -3.3377685546875
-35.557373046875 -19.04443359375 0.06396484375
-41.97021484375 -31.34716796875 13.2459716796875
15.043701171875 13.640380859375 -6.9765625
-22.383544921875 -30.659423828125 3.6658935546875
0.4970703125 -22.902587890625 -1.8209228515625
-12.88818359375 -42.950439453125 -1.13818359375
-20.9755859375 -8.5732421875 1.9869384765625
21.23388671875 11.74853515625 -0.80615234375
-8.421142578125 -54.229248046875 -8.8648681640625
-41.306640625 -22.1279296875 5.890869140625
-14.111083984375 -14.557373046875 4.3214111328125
-7.288330078125 -6.524169921875 0.939208984375
-37.1689453125 -4.844970703125 -0.2044677734375
-29.13427734375 -28.462158203125 -2.9423828125
-15.07177734375 2.05810546875 1.4150390625
-32.5390625 -26.698486328125 -3.5992431640625
-41.800048828125 -29.63671875 1.8302001953125
-33.899169921875 -53.811279296875 23.4404296875
-23.69482421875 -25.560546875 -1.6932373046875
-37.732666015625 -19.55224609375 1.89794921875
-41.5322265625 -19.794677734375 12.9715576171875
-33.350830078125 -7.70361328125 1.0040283203125
-26.110595703125 -53.845458984375 6.8641357421875
-18.19970703125 -35.3623046875 2.8232421875
35.6708984375 15.2373046875 -4.603515625
-26.338134765625 -23.38671875 -4.088623046875
-6.2060546875 -25.443359375 0.0467529296875
-27.33740234375 -51.8681640625 2.7884521484375
-37.908447265625 -15.72412109375 5.1781005859375
-26.7724609375 -54.6865234375 4.1607666015625
-21.88525390625 -45.09912109375 -1.6239013671875
-37.777587890625 -13.180419921875 14.45166015625
9.931640625 -24.30908203125 -1.7227783203125
6.83984375 -17.99169921875 2.5732421875
-0.56982421875 -34.0830078125 9.1778564453125
-23.093017578125 -17.1123046875 1.6463623046875
-42.225341796875 -27.7216796875 11.6439208984375
-27.1708984375 -38.253173828125 10.767822265625
-6.567626953125 -53.331298828125 -7.508056640625
16.52099609375 11.261474609375 5.2861328125
-33.93310546875 -32.513671875 -4.933837890625
-40.38525390625 -12.846435546875 9.318115234375
-26.277587890625 0.870849609375 0.812255859375
-26.576904296875 -61.572021484375 3.7303466796875
-34.940185546875 -57.58203125 24.4764404296875
-41.734130859375 -15.410400390625 9.9443359375
-32.283935546875 -5.97412109375 0.582275390625
-36.540771484375 -22.18701171875 -4.9534912109375
9.610107421875 -12.874267578125 6.2550048828125
-38.162353515625 -24.213623046875 -1.6593017578125
-26.134521484375 -25.745361328125 -1.7303466796875
-16.107421875 -46.042724609375 -5.589111328125
-30.26171875 -11.390625 4.0205078125
26.72021484375 11.41162109375 -1.462646484375
-0.352294921875 -9.19970703125 2.6531982421875
-25.56689453125 -57.8994140625 6.522705078125
-35.689453125 -10.690185546875 3.1126708984375
-34.769775390625 -3.36181640625 -0.03466796875
-5.12353515625 -12.9033203125 5.10205078125
-9.344970703125 -53.051513671875 -7.1873779296875
-27.45556640625 -47.359130859375 8.5189208984375
-34.663818359375 -25.184814453125 -2.25146484375
6.111083984375 -19.466552734375 -0.842529296875
-31.861572265625 -39.710693359375 14.8026123046875
-30.87255859375 -14.749755859375 4.230224609375
19.55810546875 10.074951171875 2.6920166015625
-19.205810546875 -25.243408203125 -2.28369140625
-29.248046875 -25.19873046875 -2.7784423828125
-36.84130859375 -0.677001953125 0.0125732421875
-15.556884765625 -44.3701171875 -4.588134765625
-42.176025390625 -41.090576171875 18.9912109375
-39.7119140625 -38.978271484375 13.7457275390625
-36.8837890625 -21.327392578125 -3.112548828125
0.94873046875 -4.075439453125 0.492431640625
33.990478515625 13.04833984375 -1.8717041015625
-41.788330078125 -24.51708984375 -2.2305908203125
-21.84130859375 9.814453125 7.1641845703125
5.70849609375 -36.068115234375 -4.30810546875
-21.037841796875 -36.353759765625 3.6533203125
-24.1083984375 -54.139892578125 -6.767333984375
-37.3779296875 -33.48486328125 -2.1873779296875
24.1455078125 17.55810546875 -8.8651123046875
-23.34423828125 -36.89404296875 4.57958984375
24.023193359375 18.96826171875 -2.3533935546875
21.855712890625 20.22509765625 -10.30126953125
-14.810302734375 -19.0419921875 -0.99560546875
-17.981201171875 -29.935546875 3.7122802734375
-6.930419921875 -15.704345703125 2.8934326171875
-42.4345703125 -43.484375 25.6480712890625
-10.121826171875 -32.2275390625 7.1649169921875
-36.323974609375 -59.349853515625 32.6295166015625
-25.98681640625 -50.185546875 -0.2430419921875
7.700439453125 9.122802734375 6.905029296875
24.07470703125 13.400390625 -0.48681640625
23.654052734375 9.38818359375 -0.6246337890625
31.962890625 10.83837890625 1.141357421875
-23.33837890625 -11.2177734375 3.4107666015625
-41.657958984375 -32.458740234375 16.87890625
-25.6123046875 -49.7138671875 11.244140625
0.6611328125 -15.892578125 3.5430908203125
30.378173828125 8.29345703125 -1.1685791015625
18.418212890625 28.18115234375 -4.8927001953125
-25.989501953125 -48.145751953125 1.498291015625
-30.624267578125 2.579833984375 1.8348388671875
-26.412109375 -52.638427734375 -1.93701171875
-24.121826171875 -18.901611328125 0.614501953125
-6.40869140625 -23.052978515625 -3.0338134765625
-24.094482421875 -55.819091796875 13.029541015625
-2.40478515625 -23.854736328125 1.3214111328125
-19.3251953125 -44.977783203125 -3.6771240234375
-32.770751953125 -62.034912109375 24.362060546875
-37.2275390625 -37.599853515625 13.2908935546875
-8.237060546875 -35.909423828125 5.8536376953125
-9.42529296875 0.46142578125 0.666259765625
3.751708984375 -25.23828125 -3.246826171875
-24.156494140625 -48.882080078125 -1.781005859375
-25.79248046875 -11.398193359375 4.1602783203125
19.5498046875 24.998291015625 -2.8463134765625
-5.98974609375 2.1328125 1.401123046875
8.26806640625 -7.614501953125 1.7652587890625
-28.40576171875 -40.34130859375 14.0550537109375
-28.874267578125 8.104736328125 6.006103515625
-7.621337890625 -56.223876953125 -10.0599365234375
-27.34765625 -9.956298828125 2.6187744140625
6.6640625 -8.586181640625 2.3765869140625
5.236083984375 -18.613037109375 0.9525146484375
5.14453125 6.93994140625 4.535400390625
-36.757080078125 -31.02392578125 -2.44189453125
-0.131103515625 -2.46484375 0.561767578125
6.166259765625 4.32275390625 2.7650146484375
-38.415771484375 -36.091064453125 10.6759033203125
-11.49853515625 3.767822265625 2.4241943359375
19.75341796875 13.7158203125 3.9976806640625
-19.86328125 -10.90283203125 3.48193359375
-22.09033203125 -47.568115234375 -3.7066650390625
-38.94287109375 -11.765380859375 3.9234619140625
4.736328125 -5.8134765625 1.333740234375
-40.214111328125 -6.7666015625 0.0506591796875
-32.743408203125 -16.22802734375 2.6053466796875
-36.988525390625 -56.89013671875 35.141845703125
-9.739990234375 -37.736328125 2.6356201171875
-17.134033203125 -22.701904296875 -4.890380859375
-27.968505859375 -22.3232421875 -5.0216064453125
-23.7802734375 3.77783203125 2.721435546875
-7.287841796875 -19.1474609375 2.034912109375
-21.234619140625 -54.807861328125 -9.0902099609375
-8.914306640625 -50.16748046875 -5.5386962890625
-1.68115234375 -6.4287109375 0.9481201171875
-23.621337890625 -50.8916015625 -4.926025390625
-3.513671875 -0.67822265625 0.27490234375
-4.01904296875 -16.320068359375 2.6348876953125
-15.2197265625 4.266357421875 2.9361572265625
-16.796142578125 -15.68017578125 3.1458740234375
-38.34326171875 -54.8544921875 30.5140380859375
-41.28662109375 -41.751708984375 26.2135009765625
-31.132080078125 -57.822265625 22.756591796875
3.75537109375 -14.708251953125 5.1593017578125
-26.307861328125 -39.486083984375 8.1085205078125
-11.8408203125 0.655029296875 0.8477783203125
-42.669921875 -36.26123046875 15.4876708984375
-9.373046875 -9.574462890625 2.8394775390625
-26.301513671875 -57.9619140625 11.56982421875
-6.554931640625 -41.296630859375 2.56689453125
-19.536376953125 -17.6767578125 1.0040283203125
-29.093994140625 -15.89453125 3.074951171875
-35.982666015625 -58.889892578125 28.2857666015625
10.179931640625 -20.9443359375 -3.3074951171875
-30.17236328125 -35.548583984375 10.91064453125
-24.478759765625 -4.007080078125 0.0556640625
-21.86962890625 6.211181640625 4.414794921875
-4.72021484375 -20.41845703125 -3.2841796875
13.682373046875 6.5849609375 5.4129638671875
-38.332275390625 -27.03271484375 -0.706787109375
-13.403564453125 6.74755859375 5.1859130859375
-1.879638671875 5.736328125 4.022216796875
-25.678466796875 10.620849609375 6.6656494140625
-33.86181640625 -59.576171875 21.179931640625
-42.53662109375 -23.10009765625 14.9010009765625
18.713134765625 16.464111328125 1.274169921875
-18.96533203125 8.343505859375 6.05615234375
-20.121826171875 -47.88037109375 -5.196044921875
-26.082275390625 -19.063720703125 0.580078125
-42.209228515625 -29.005859375 9.91455078125
-28.366943359375 -12.396240234375 5.3939208984375
26.07763671875 16.470703125 -3.4287109375
-6.67236328125 -13.92822265625 4.20751953125
-35.689697265625 -35.457763671875 -5.0318603515625
0.279541015625 -28.8359375 -2.659423828125
14.181640625 8.395751953125 5.5162353515625
-2.003173828125 -21.458251953125 -3.111083984375
-33.1240234375 -21.907470703125 -4.7835693359375
-8.20947265625 -32.121337890625 6.2603759765625
-16.502197265625 -51.361083984375 -9.6689453125
-17.71533203125 -48.580322265625 -7.5418701171875
-11.355712890625 -23.428955078125 -2.9683837890625
-10.156494140625 -15.10693359375 3.4141845703125
-27.207275390625 -43.64013671875 9.3299560546875
5.34326171875 10.71240234375 8.1973876953125
-22.684814453125 -26.6708984375 -0.2281494140625
-29.3271484375 -7.724853515625 1.2537841796875
7.81787109375 -21.54052734375 -3.0223388671875
-19.2236328125 -0.131591796875 0.18408203125
-18.604248046875 -50.65283203125 -8.358642578125
-23.326904296875 -44.7314453125 2.246337890625
-35.169921875 7.290283203125 4.393798828125
-14.865966796875 -39.7529296875 -0.0740966796875
21.1630859375 22.978759765625 -3.0035400390625
-10.168701171875 -26.5966796875 -0.7291259765625
-39.343017578125 -51.1630859375 30.073486328125
-22.814453125 -13.608642578125 4.7603759765625
-36.37255859375 -53.100830078125 25.03466796875
-18.68798828125 -19.83251953125 -2.4644775390625
-37.141357421875 -56.44775390625 26.5888671875
-21.860595703125 0.90234375 0.8028564453125
-37.9873046875 -59.8701171875 37.224853515625
-18.35009765625 2.5927734375 1.8009033203125
11.857177734375 19.136962890625 -4.350341796875
6.39599609375 -1.4189453125 0.353759765625
-33.897216796875 1.774658203125 1.1572265625
-31.01806640625 -30.27587890625 -4.6038818359375
-27.09912109375 4.285888671875 2.96630859375
-19.638916015625 -28.051025390625 1.3260498046875
-3.533447265625 -14.47216796875 5.04638671875
-13.1044921875 -16.232177734375 2.637939453125
-31.80322265625 -23.79443359375 -3.64013671875
18.150634765625 7.352294921875 3.5048828125
-25.74169921875 -52.187255859375 13.1214599609375
-37.114013671875 -50.645263671875 27.36181640625
-14.42822265625 -30.099853515625 3.830810546875
-9.646728515625 -41.498291015625 0.9044189453125
-13.431884765625 -53.642578125 -10.409912109375
-36.3486328125 -33.578857421875 7.283203125
-22.765869140625 -42.247314453125 1.858642578125
12.845458984375 9.6591796875 6.7451171875
-24.7216796875 -41.519775390625 3.4481201171875
-40.21044921875 -25.574462890625 -1.3009033203125
-23.16943359375 -9.592529296875 2.3013916015625
-30.073974609375 -26.892822265625 -2.7427978515625
-33.19482421875 0.14599609375 0.5572509765625
-26.55322265625 -27.39404296875 -1.0350341796875
22.237060546875 20.193359375 -6.1529541015625
-10.08740234375 -18.61083984375 0.1480712890625
-39.185791015625 -30.656494140625 2.1422119140625
-39.0615234375 -34.946533203125 8.9334716796875
-10.729736328125 -55.95166015625 -10.2535400390625
-32.755126953125 -3.152099609375 0.1312255859375
-37.814208984375 -11.044677734375 15.4495849609375
-0.600341796875 -32.547119140625 2.4471435546875
-27.91845703125 -43.9794921875 19.236083984375
11.24072265625 -23.3955078125 -2.745361328125
33.760498046875 14.223388671875 -3.5548095703125
26.155029296875 16.910400390625 1.8726806640625
-27.582275390625 -41.1494140625 12.1427001953125
-34.88037109375 -34.337646484375 5.6888427734375
-17.875 9.392822265625 7.078857421875
5.909912109375 -32.716796875 -5.207275390625
32.54150390625 16.360107421875 -2.8323974609375
-38.744384765625 6.388427734375 3.169677734375
-37.73291015625 1.79052734375 1.1739501953125
-42.2763671875 -29.090087890625 7.4014892578125
-21.656982421875 -43.039306640625 -1.057373046875
6.700927734375 -14.006103515625 5.7288818359375
-37.79931640625 -23.496826171875 -4.8365478515625
-38.229248046875 -21.302001953125 0.10791015625
9.380126953125 -4.17333984375 -0.0928955078125
-19.980224609375 -20.403564453125 -3.7523193359375
-40.353271484375 -12.59326171875 6.222412109375
-6.810791015625 -37.08203125 5.615234375
-7.628173828125 -8.20263671875 1.790283203125
0.436279296875 -0.684326171875 0.7955322265625
26.685546875 14.56494140625 -0.540771484375
-33.620849609375 -19.80517578125 -2.291259765625
-41.906982421875 -25.34912109375 8.4696044921875
-10.035400390625 -28.581787109375 2.307373046875
24.99560546875 20.337890625 2.0341796875
-31.7099609375 -36.87548828125 11.4013671875
-1.345947265625 -32.09130859375 5.9183349609375
-24.63037109375 2.324951171875 1.239013671875
-42.129150390625 -39.05517578125 17.6947021484375
-33.3251953125 7.12158203125 5.0118408203125
37.312255859375 15.47509765625 -3.8861083984375
-35.618408203125 -62.171875 26.853515625
-25.59619140625 -56.277099609375 8.205322265625
-22.659912109375 -56.46923828125 -10.7093505859375
-36.1650390625 -51.02099609375 24.8255615234375
-16.431396484375 -28.22314453125 1.69580078125
-12.45849609375 2.337890625 1.5975341796875
-9.241943359375 -12.4130859375 5.05712890625
19.049560546875 26.061279296875 -4.924560546875
18.863525390625 11.422607421875 4.0748291015625
-12.109619140625 -53.989501953125 -9.1961669921875
-32.178955078125 -49.9892578125 25.1871337890625
-28.60595703125 -20.202880859375 -1.9979248046875
-25.563720703125 -8.59423828125 1.7225341796875
-33.561279296875 -38.1982421875 12.9552001953125
-34.48828125 -15.950439453125 2.9215087890625
-35.3271484375 -48.06298828125 26.6275634765625
-15.677978515625 -10.126708984375 3.1190185546875
-11.24169921875 -8.116455078125 1.6781005859375
-42.072509765625 -32.96240234375 14.4881591796875
-42.089599609375 -45.960205078125 24.2783203125
8.498046875 -30.396728515625 -3.5286865234375
18.029296875 31.326171875 -3.71240234375
-1.970458984375 -27.25439453125 -0.595947265625
-25.564453125 -48.4296875 19.39794921875
9.24267578125 -32.066162109375 -4.813720703125
-7.960205078125 -30.448974609375 5.27197265625
33.684814453125 19.233642578125 -1.8441162109375
-12.128662109375 -11.034912109375 3.865966796875
-2.77587890625 -32.53369140625 9.0762939453125
-14.889892578125 -34.302978515625 3.4671630859375
-42.158447265625 -52.132080078125 30.022216796875
3.5927734375 -33.7177734375 -5.6744384765625
-23.174560546875 -28.3125 1.1295166015625
-17.801513671875 -12.742431640625 4.9595947265625
-35.594970703125 -62.243408203125 33.532470703125
35.1962890625 16.9755859375 -4.3819580078125
-5.29443359375 9.958740234375 7.75048828125
-41.783447265625 -31.554443359375 20.037841796875
-11.0068359375 6.502685546875 4.195068359375
-32.418212890625 -56.225830078125 23.215087890625
22.068603515625 7.38720703125 4.4705810546875
23.99560546875 21.635498046875 2.9976806640625
-17.017578125 -8.62939453125 1.97314453125
-16.472900390625 -32.310302734375 4.2803955078125
-27.1201171875 -46.89599609375 13.044921875
-12.75390625 -17.9326171875 1.483642578125
24.890625 18.591796875 2.502685546875
-34.076416015625 -36.15234375 -4.7962646484375
1.0166015625 -13.625732421875 5.7855224609375
-11.05810546875 -34.40625 6.284912109375
22.295166015625 21.95654296875 -11.0313720703125
-3.772216796875 -7.439208984375 1.5447998046875
10.36669921875 -14.596923828125 4.93408203125
-14.569091796875 -37.2294921875 1.3868408203125
-11.539306640625 8.77001953125 6.683837890625
-27.401611328125 -43.608154296875 12.952880859375
-18.875732421875 -6.34814453125 0.8665771484375
-12.747802734375 -35.825927734375 3.556640625
-40.2412109375 -20.9111328125 13.411865234375
-41.1337890625 -41.701171875 28.986328125
-38.324951171875 -53.19287109375 27.428955078125
2.969482421875 -3.456787109375 0.480712890625
-27.131103515625 -59.129638671875 -0.723388671875
-7.958984375 -23.9853515625 -2.4322509765625
-18.972900390625 -46.59765625 -4.7967529296875
6.898681640625 -34.771728515625 -6.16845703125
22.626953125 22.5791015625 0.4486083984375
1.6396484375 -11.880859375 5.341064453125
-42.2353515625 -25.30419921875 -0.7315673828125
-35.89794921875 -57.657470703125 31.079345703125
-21.1025390625 -2.419921875 0.111083984375
11.742431640625 5.908935546875 4.8604736328125
-20.4453125 -13.82958984375 4.588623046875
-27.405517578125 -46.93310546875 10.2135009765625
-42.406005859375 -43.556640625 19.9200439453125
-5.589599609375 -0.031005859375 0.283447265625
-40.907958984375 -34.972412109375 13.0040283203125
-23.31884765625 -24.354248046875 -3.2628173828125
-2.137451171875 -30.17919921875 0.392333984375
-41.42919921875 -17.05615234375 9.462890625
-40.558837890625 -36.313232421875 25.6796875
20.006591796875 23.6181640625 -8.9227294921875
-41.806640625 -26.072509765625 10.948486328125
16.597412109375 32.572998046875 -2.6298828125
-25.77392578125 -48.4560546875 16.6553955078125
-33.624755859375 4.8857421875 3.49755859375
-27.3837890625 -6.332763671875 0.626220703125
7.321044921875 -24.503173828125 -1.760986328125
-25.12646484375 -54.189208984375 -5.3634033203125
-9.861083984375 -24.960693359375 -2.36865234375
-5.121337890625 -33.970947265625 8.4677734375
-23.546630859375 -0.9775390625 0.2880859375
1.98583984375 -20.3056640625 -3.1492919921875
21.403564453125 24.195556640625 0.378662109375
-24.60498046875 -56.567626953125 -7.7886962890625
-41.239990234375 -8.0634765625 0.555908203125
-25.945556640625 -16.06103515625 2.652099609375
-20.5517578125 -22.553955078125 -4.8447265625
6.438232421875 -11.059326171875 4.848388671875
13.388916015625 15.44384765625 -9.1207275390625
-41.2197265625 -30.9384765625 11.3572998046875
-26.882080078125 -24.609375 -2.78955078125
-22.379638671875 -7.1044921875 0.7164306640625
-35.144775390625 -54.2841796875 24.5308837890625
-42.477294921875 -42.37451171875 16.684326171875
-16.077392578125 -5.25439453125 0.692138671875
-27.069580078125 -58.74169921875 1.7091064453125
-36.32958984375 -35.965576171875 10.2021484375
-42.309326171875 -35.381103515625 17.0264892578125
-2.61865234375 0.7353515625 0.9661865234375
-42.2490234375 -47.196533203125 25.4979248046875
2.739990234375 -14.292724609375 6.7423095703125
-35.253173828125 -33.429443359375 -5.6312255859375
-25.05810546875 -43.16796875 4.280029296875
-10.314208984375 -54.315185546875 -8.7496337890625
-32.638671875 -9.233642578125 1.9852294921875
-35.458740234375 3.802490234375 2.75390625
-7.623291015625 7.8798828125 6.3641357421875
-13.464111328125 -28.427734375 1.662353515625
-41.396728515625 -10.343505859375 3.957763671875
-34.399169921875 -63.81298828125 29.5775146484375
-32.990478515625 -25.0703125 -2.6160888671875
-26.885009765625 -47.248046875 19.7650146484375
-19.962890625 -40.052490234375 0.3677978515625
-37.00732421875 -13.99267578125 5.286376953125
-37.129638671875 -33.296142578125 4.4537353515625
-34.150634765625 -40.220703125 17.342529296875
-40.23583984375 -22.949951171875 3.63916015625
-35.50244140625 -23.290283203125 -4.16455078125
-41.1826171875 -9.611083984375 2.038818359375
-26.722900390625 -60.691650390625 -4.032958984375
3.296142578125 -1.28759765625 0.391845703125
-28.761474609375 -18.025390625 1.0577392578125
-39.890380859375 1.53466796875 0.7412109375
-8.19091796875 -22.8134765625 -4.1646728515625
-27.102294921875 -3.025634765625 -0.1231689453125
-25.946044921875 -53.020751953125 8.776123046875
-20.719482421875 -19.0732421875 -0.208251953125
-12.895263671875 -37.119140625 1.683837890625
-26.82373046875 -61.462158203125 -7.2796630859375
-41.6298828125 -44.64697265625 28.573974609375
-36.142578125 -27.364501953125 -3.3453369140625
-41.88232421875 -55.4375 33.444091796875
31.268798828125 8.7060546875 -2.8759765625
-34.337646484375 -28.863037109375 -3.660888671875
-42.513427734375 -29.741455078125 13.3216552734375
-4.78515625 -30.66650390625 4.7088623046875
5.55322265625 7.95556640625 5.9749755859375
-27.082763671875 -51.03564453125 5.6048583984375
12.840087890625 -22.4453125 -3.3585205078125
-28.060302734375 -37.047607421875 11.821044921875
-43.987548828125 -26.084228515625 15.2928466796875
-25.95166015625 -57.038818359375 -5.4495849609375
-6.4853515625 -3.10009765625 0.1832275390625
-16.42138671875 -29.84423828125 3.0760498046875
-26.984619140625 -54.68896484375 0.74755859375
-7.991455078125 -4.0966796875 0.114501953125
-13.43994140625 -4.1875 0.24560546875
-1.744384765625 10.340576171875 7.6990966796875
-12.804931640625 -19.360107421875 -2.5128173828125
-43.03662109375 -26.98046875 -0.6988525390625
32.121337890625 9.373779296875 -0.9580078125
-29.544189453125 -22.01611328125 -4.4366455078125
-33.438232421875 -13.283935546875 4.9251708984375
-22.51611328125 -49.628173828125 -6.0797119140625
-5.335205078125 -6.348388671875 0.8385009765625
-35.887939453125 -36.216552734375 -2.3741455078125
-6.11083984375 -18.5869140625 3.0926513671875
9.135009765625 -18.3154296875 0.6107177734375
-37.614501953125 -10.867919921875 3.0733642578125
-32.126708984375 -41.743896484375 18.134521484375
0.18505859375 -33.381591796875 0.527099609375
-32.047607421875 -34.0068359375 -5.1209716796875
22.104248046875 13.203857421875 -0.23974609375
-15.6767578125 -20.8974609375 -4.00146484375
-26.973876953125 -58.705810546875 -2.7083740234375
-42.478271484375 -25.866943359375 6.6517333984375
-21.975830078125 -45.934326171875 -3.3626708984375
-5.105224609375 -28.61279296875 3.6624755859375
3.531982421875 -9.259765625 3.047607421875
-30.82763671875 -53.252197265625 24.628662109375
9.62353515625 -19.224365234375 -1.7388916015625
-40.588623046875 -30.325439453125 2.9830322265625
21.103271484375 11.0625 1.9287109375
-27.364990234375 -61.555419921875 -0.5928955078125
-34.986083984375 -60.873046875 23.177734375
-38.427734375 -3.344482421875 -0.533203125
-26.036376953125 -63.16943359375 3.6551513671875
-42.681640625 -24.375732421875 3.3271484375
10.05615234375 -9.9931640625 2.6258544921875
-33.631103515625 -18.8486328125 0.882568359375
-32.871337890625 -35.448486328125 4.943115234375
-38.888427734375 -12.085205078125 5.5517578125
5.33056640625 -20.45263671875 -2.789306640625
25.3544921875 17.513671875 -5.789794921875
20.06884765625 13.60888671875 2.185546875
-41.9111328125 -43.08251953125 22.478515625
-7.243896484375 -17.057373046875 1.5389404296875
3.31396484375 9.068603515625 6.6175537109375
-7.190673828125 -1.052734375 0.0780029296875
-7.493408203125 -11.040771484375 4.007568359375
-42.156494140625 -22.94775390625 7.5396728515625
-40.558837890625 -52.46826171875 30.282958984375
-1.63330078125 3.9501953125 2.7056884765625
-40.33154296875 -56.623779296875 36.0416259765625
-28.02880859375 -43.618408203125 15.0980224609375
1.897705078125 -31.684814453125 -3.52197265625
25.109619140625 10.8525390625 -0.7437744140625
10.506591796875 4.3974609375 3.7252197265625
-8.605712890625 -28.086181640625 1.4837646484375
-37.71142578125 -29.8515625 -1.554443359375
-0.84619140625 -24.185302734375 0.5843505859375
-33.220458984375 -34.965087890625 9.1331787109375
-26.845458984375 -41.96142578125 10.1007080078125
-20.701171875 3.211181640625 2.0682373046875
3.803466796875 -21.475341796875 -4.3299560546875
-35.392822265625 -1.77587890625 -0.0916748046875
-23.352783203125 5.144287109375 3.5328369140625
-22.751953125 -19.724365234375 -1.910400390625
-13.211181640625 -9.10009765625 2.404541015625
-25.366455078125 8.98828125 6.9881591796875
-42.062255859375 -39.5048828125 15.3201904296875
-40.13134765625 -14.210693359375 6.4036865234375
-26.609619140625 -62.272705078125 -5.5260009765625
-23.44580078125 8.27880859375 6.0426025390625
-42.135986328125 -40.23486328125 20.8035888671875
-5.0185546875 -3.81787109375 0.0294189453125
-4.996826171875 -38.65625 5.1593017578125
0.3232421875 -26.747802734375 -3.1549072265625
16.099609375 9.845703125 4.578369140625
-15.909912109375 -16.909912109375 2.0928955078125
-19.639892578125 -9.68310546875 2.41455078125
-4.38720703125 7.265625 5.0194091796875
-20.735107421875 -26.552001953125 -0.9873046875
-26.05029296875 -46.085205078125 4.7008056640625
-8.0537109375 -20.641357421875 -2.2640380859375
17.802734375 13.259765625 -4.6710205078125
-16.978515625 -3.687744140625 0.2283935546875
-41.97265625 -27.21826171875 1.8243408203125
5.274658203125 1.54052734375 1.24169921875
-12.0 -39.9619140625 2.0152587890625
-12.167236328125 -22.3134765625 -4.8319091796875
-22.98193359375 -54.8896484375 -8.07958984375
5.3837890625 -28.498779296875 -3.3953857421875
-22.01025390625 -3.7646484375 0.09765625
2.396484375 -7.300537109375 1.5665283203125
-19.4599609375 -52.310302734375 -9.087158203125
-2.489990234375 -28.4462890625 3.0380859375
-17.560546875 -27.5029296875 0.7877197265625
29.02734375 9.066162109375 -0.7254638671875
-8.111083984375 -48.891845703125 -4.2205810546875
-30.2236328125 -24.072509765625 -3.4449462890625
-41.797607421875 -31.984619140625 4.6995849609375
-36.46240234375 -32.654296875 -3.6795654296875
25.9736328125 18.021728515625 -0.512451171875
-5.08837890625 4.468994140625 2.9559326171875
-16.667724609375 1.8837890625 1.2518310546875
-38.029052734375 -33.68359375 7.6378173828125
11.109375 11.336669921875 8.1995849609375
-25.3994140625 -14.263671875 4.4814453125
-34.31982421875 -57.960205078125 23.0369873046875
-37.448486328125 -17.413330078125 3.38818359375
-36.201416015625 -5.944580078125 0.4686279296875
-32.642333984375 -28.3427734375 -3.9410400390625
-41.463623046875 -26.879150390625 -1.189453125
-26.93359375 -61.922607421875 -2.226318359375
-22.355224609375 -16.1611328125 2.9010009765625
-15.389892578125 -41.86865234375 -1.8385009765625
-1.544189453125 -13.41455078125 5.8194580078125
-40.14208984375 -47.093505859375 24.2183837890625
-37.479736328125 -53.980712890625 26.3123779296875
24.220947265625 18.1376953125 -7.269775390625
27.076171875 15.362548828125 -2.162353515625
20.49560546875 22.74951171875 -4.6678466796875
11.289794921875 -26.68701171875 0.75244140625
31.03515625 11.482666015625 -0.7926025390625
33.765869140625 17.34375 -3.3309326171875
-9.227783203125 -1.25537109375 0.0438232421875
9.927734375 21.6240234375 -3.15185546875
-41.849365234375 -38.85986328125 27.26318359375
-28.8662109375 -1.507568359375 0.328369140625
8.295654296875 1.3984375 1.06689453125
-38.807861328125 -27.01513671875 0.8431396484375
-5.515869140625 -26.176513671875 1.76220703125
1.640869140625 10.682861328125 7.3648681640625
0.8720703125 -22.51220703125 -3.47119140625
-0.041259765625 9.175048828125 7.0472412109375
-41.391845703125 -31.43896484375 23.1947021484375
20.393310546875 9.201416015625 1.5467529296875
8.652099609375 -1.6181640625 0.5750732421875
-12.62158203125 -13.58349609375 4.3975830078125
