-4.74365234375 -16.765380859375 6.8388671875
-35.309814453125 -55.814208984375 29.6524658203125
-29.814453125 -68.073486328125 -3.677001953125
3.168701171875 -7.35498046875 3.0537109375
-39.250244140625 -60.860595703125 33.15966796875
-29.671142578125 -63.718994140625 4.187744140625
-35.40087890625 -69.447021484375 32.5828857421875
-18.848388671875 -40.65380859375 7.88134765625
-10.5556640625 -64.84814453125 -5.922607421875
-20.485107421875 -23.017578125 5.5576171875
-28.39990234375 -45.06005859375 14.0850830078125
2.550048828125 -24.3759765625 5.163818359375
-22.631591796875 -16.43359375 6.391845703125
-43.80322265625 -34.3818359375 12.2689208984375
21.015869140625 4.748046875 0.33984375
29.8466796875 6.06298828125 -0.9061279296875
-1.771484375 -1.97119140625 5.8380126953125
-41.97216796875 -23.543212890625 12.10546875
-37.1572265625 -68.053955078125 38.649658203125
-28.06884765625 -43.595458984375 29.5806884765625
-13.171875 -15.57470703125 5.6849365234375
-13.694580078125 -36.46826171875 8.3734130859375
9.230712890625 -31.67724609375 3.296630859375
-4.142578125 -28.7890625 10.1575927734375
-2.289794921875 -29.885986328125 5.3697509765625
14.1884765625 23.720703125 -2.446044921875
-17.197021484375 -62.990234375 -2.578857421875
-13.139892578125 -43.105224609375 8.8759765625
-28.711669921875 -72.928955078125 5.9139404296875
-30.012939453125 -50.776123046875 24.3800048828125
35.7431640625 18.135986328125 -5.8182373046875
-31.3642578125 -45.797607421875 18.5897216796875
7.904541015625 -14.654296875 2.8228759765625
-27.500244140625 -29.143798828125 -0.24169921875
7.9833984375 -3.0078125 6.3194580078125
-29.0693359375 -52.9775390625 28.9437255859375
-19.5986328125 -49.484375 7.0299072265625
-19.647705078125 -31.2509765625 1.1871337890625
-6.030517578125 -36.662109375 9.269287109375
-44.47314453125 -47.95458984375 24.4144287109375
29.66943359375 14.472900390625 -0.9000244140625
-32.1845703125 -30.353271484375 -0.0963134765625
-30.16845703125 -69.52734375 0.8526611328125
-29.8828125 -54.65771484375 14.2344970703125
17.1806640625 15.938232421875 -4.4417724609375
-32.969482421875 -64.1552734375 7.2371826171875
-40.317138671875 -48.257568359375 21.82568359375
28.30615234375 26.6650390625 -1.617431640625
-25.474365234375 -58.39208984375 0.56396484375
-33.884765625 -20.09375 9.9326171875
-43.74755859375 -32.954345703125 4.7476806640625
-20.73095703125 -11.845458984375 4.260009765625
2.13134765625 0.430908203125 7.8153076171875
-17.08642578125 -55.788818359375 2.3323974609375
-27.1533203125 -16.477294921875 6.2291259765625
33.8720703125 11.9033203125 -4.1080322265625
-41.7568359375 -38.847412109375 10.6890869140625
-21.05517578125 -53.38720703125 5.3536376953125
-10.59912109375 -2.980224609375 5.6065673828125
-34.860107421875 -73.564453125 33.204345703125
17.900146484375 19.188232421875 2.43017578125
-21.36083984375 -43.65771484375 9.152099609375
-4.230712890625 -24.92041015625 5.737060546875
-26.092041015625 -51.75439453125 10.456787109375
29.226318359375 22.659423828125 3.8221435546875
-27.91748046875 -10.12451171875 3.8851318359375
-21.724853515625 -5.09130859375 5.3546142578125
-6.19580078125 0.86572265625 8.505126953125
2.6298828125 -26.486328125 10.37353515625
-42.85595703125 -27.695068359375 8.0704345703125
-23.103515625 -1.12890625 7.99609375
7.352783203125 -18.467529296875 8.519775390625
-12.54296875 2.964111328125 10.53369140625
-28.898681640625 -5.93994140625 4.8619384765625
-30.42822265625 -45.903564453125 22.4403076171875
-34.349609375 -12.00048828125 4.330810546875
-41.796875 -7.35498046875 4.9324951171875
-15.10693359375 -39.824462890625 9.8341064453125
-21.96533203125 -38.70166015625 9.24462890625
7.682373046875 -9.076904296875 2.7247314453125
-7.759033203125 -25.001953125 3.55859375
-33.17431640625 -25.0849609375 4.6656494140625
1.39111328125 -14.245361328125 4.6678466796875
-36.18505859375 -64.498046875 2.861328125
-43.194580078125 -61.267822265625 37.810546875
-40.901611328125 -13.494384765625 4.46484375
-42.514892578125 -31.157958984375 0.781005859375
-36.40380859375 -33.096923828125 0.6170654296875
-39.82373046875 -38.8056640625 3.878662109375
-36.427001953125 -51.51171875 25.690185546875
-35.585205078125 -43.604248046875 0.5474853515625
-41.443115234375 -19.009765625 15.61474609375
-29.280517578125 -51.994140625 16.8961181640625
-1.515869140625 -37.410888671875 0.2974853515625
-33.427001953125 -38.27783203125 -0.9859619140625
-14.93115234375 -7.952392578125 3.4371337890625
32.330810546875 23.309326171875 -0.7855224609375
-34.090087890625 -65.47412109375 26.2412109375
-35.271484375 -7.07958984375 4.6822509765625
33.4248046875 8.66650390625 -1.199951171875
21.388916015625 0.4423828125 0.7022705078125
15.642578125 8.127685546875 7.778564453125
-43.446044921875 -54.61376953125 29.7056884765625
-14.77294921875 -24.491943359375 2.1353759765625
-14.002197265625 -49.337646484375 3.5640869140625
-16.8037109375 -22.719970703125 5.140869140625
-23.3232421875 -31.941162109375 1.5301513671875
-40.685546875 -2.33056640625 7.807861328125
-4.132568359375 -34.861083984375 3.2301025390625
-29.826171875 -59.9091796875 16.3175048828125
-38.555908203125 -63.83642578125 30.888916015625
-4.38623046875 3.9189453125 10.5377197265625
-20.82177734375 -26.371337890625 1.147216796875
-5.482421875 -5.59326171875 4.03369140625
-29.44091796875 -57.093994140625 6.4249267578125
-28.0517578125 -65.6748046875 14.1875
-40.43310546875 -57.894775390625 35.43017578125
0.781005859375 -10.164306640625 3.23095703125
-5.344970703125 -32.696533203125 10.460205078125
-9.69970703125 -10.3515625 3.6083984375
-16.088623046875 -17.3955078125 7.22998046875
-32.53515625 -53.8994140625 31.1800537109375
1.54052734375 -20.386962890625 7.5830078125
-38.583251953125 -64.791015625 38.0909423828125
20.26416015625 13.322021484375 -3.9974365234375
23.420166015625 9.146728515625 1.5206298828125
15.96728515625 0.95751953125 6.493408203125
-19.447021484375 1.131103515625 9.140869140625
-16.067626953125 -0.31005859375 8.1158447265625
-33.7470703125 -59.1083984375 28.8243408203125
-33.11669921875 -16.257568359375 6.026611328125
-11.69287109375 -46.5634765625 5.649169921875
-27.65087890625 -20.572509765625 7.502685546875
-5.48486328125 -38.526123046875 12.2318115234375
-34.2919921875 -26.726318359375 1.3072509765625
-29.7724609375 -48.326904296875 16.33203125
-39.60400390625 -17.62255859375 7.0631103515625
-26.548828125 -62.017578125 2.4219970703125
-17.092041015625 -11.098388671875 3.79052734375
-42.724853515625 -26.891357421875 16.901123046875
27.014892578125 25.489501953125 -8.3365478515625
17.335205078125 10.185791015625 5.01611328125
-10.80322265625 -20.754638671875 6.709228515625
3.769287109375 -29.336669921875 0.836181640625
-24.85888671875 -64.609130859375 -3.2322998046875
2.853271484375 -41.812744140625 -0.9425048828125
-2.798095703125 -41.611572265625 7.818115234375
-27.356201171875 -26.078369140625 1.6339111328125
-42.44775390625 -56.04736328125 32.93212890625
-3.074951171875 -35.483154296875 10.66650390625
-29.496826171875 -66.01611328125 7.331787109375
-29.342529296875 -53.4521484375 20.5911865234375
-25.684326171875 -47.874755859375 6.0230712890625
-31.191162109375 -0.646240234375 9.199951171875
-43.294677734375 -35.818359375 9.1387939453125
-28.0224609375 -68.71728515625 9.4931640625
35.684814453125 14.6416015625 -5.2698974609375
-3.905517578125 -36.713623046875 6.4267578125
-38.3828125 -58.011962890625 30.78466796875
-36.226806640625 -53.635498046875 32.2943115234375
-38.989990234375 -39.7978515625 0.625
33.716064453125 18.949951171875 -1.264892578125
-28.914306640625 -62.4814453125 13.0091552734375
-42.45068359375 -18.99072265625 8.519287109375
-32.460693359375 -48.93115234375 22.881103515625
-41.019287109375 -26.17138671875 5.0164794921875
5.181396484375 -39.079833984375 -0.461181640625
-12.290283203125 -57.85205078125 -3.0882568359375
-9.736083984375 -43.25048828125 9.458984375
-36.191162109375 2.442138671875 8.378662109375
-28.123046875 -44.849609375 10.70947265625
-8.707275390625 -36.712890625 11.3026123046875
-21.874755859375 -59.85009765625 0.0701904296875
-21.750244140625 -65.6328125 -2.2347412109375
-21.752685546875 -35.369140625 8.9947509765625
-43.9228515625 -32.91259765625 15.2926025390625
4.545166015625 -26.487060546875 3.5008544921875
-12.231201171875 -30.574951171875 1.912109375
15.76220703125 21.846435546875 -4.7169189453125
4.49169921875 -43.658935546875 1.2894287109375
27.441162109375 4.681884765625 0.9332275390625
1.071533203125 -31.700439453125 0.571044921875
-37.580810546875 -23.486083984375 8.42138671875
17.780029296875 5.07958984375 2.52197265625
6.86865234375 17.0205078125 0.380615234375
13.741455078125 24.65966796875 1.345458984375
-43.362060546875 -13.1025390625 6.640869140625
-32.0068359375 -21.892333984375 6.6875
-9.52978515625 0.958740234375 8.86962890625
-14.22265625 -63.02978515625 -6.870361328125
-29.950927734375 -32.943603515625 0.9884033203125
-39.82373046875 0.493896484375 6.292236328125
25.057373046875 20.566162109375 -13.1171875
-34.17138671875 -51.111083984375 30.259765625
-24.675537109375 -46.370361328125 9.17578125
-39.956787109375 -29.2080078125 1.98046875
-29.806396484375 -66.634765625 2.3206787109375
-26.1162109375 -22.730712890625 5.2247314453125
-25.08935546875 -58.602783203125 4.1126708984375
0.784912109375 -34.781005859375 -0.6851806640625
-28.35986328125 -43.96337890625 24.3292236328125
-37.19091796875 -69.0126953125 35.2589111328125
-29.646240234375 -51.1630859375 10.2286376953125
-0.114013671875 4.006591796875 10.7274169921875
-14.2041015625 -27.506591796875 0.619140625
-14.929931640625 -59.954833984375 -1.256591796875
-36.39697265625 -2.77294921875 6.9697265625
31.46630859375 17.058837890625 0.0780029296875
-30.072265625 -57.7685546875 9.929931640625
-14.546875 -25.013671875 5.419189453125
21.620361328125 13.473388671875 5.8082275390625
-1.3271484375 -41.393798828125 3.3204345703125
-2.9375 -31.837890625 2.88037109375
-29.3662109375 -3.278076171875 6.56005859375
-40.7529296875 -21.117919921875 10.3751220703125
-23.5 -67.436767578125 -4.963623046875
-4.8330078125 -14.010986328125 4.6043701171875
-26.658447265625 -41.965576171875 27.1978759765625
-34.89111328125 -68.7041015625 29.4730224609375
8.18017578125 -16.46337890625 6.072265625
24.997314453125 4.534423828125 -1.5782470703125
27.200927734375 10.114501953125 -1.38427734375
13.95458984375 3.397705078125 6.7547607421875
6.892822265625 -20.87841796875 6.29833984375
-40.76953125 -35.26513671875 3.3343505859375
-19.961181640625 -61.5205078125 -2.989990234375
-32.599609375 -5.47705078125 5.18115234375
-6.916259765625 -18.9892578125 8.03759765625
-42.6552734375 -1.44775390625 10.0853271484375
-2.28515625 -18.978515625 8.0770263671875
9.661376953125 2.72607421875 8.8961181640625
-36.0625 -63.427734375 27.8804931640625
15.153076171875 22.04638671875 0.2587890625
-13.956787109375 -52.61376953125 4.2120361328125
-2.0546875 -15.34619140625 5.59716796875
-34.46923828125 -0.676513671875 8.6246337890625
-31.5537109375 -75.69384765625 -2.3824462890625
5.394775390625 -4.409423828125 4.102783203125
3.895751953125 -18.401611328125 8.064453125
1.106689453125 -27.791259765625 6.6490478515625
-17.23828125 -29.44921875 0.4471435546875
-26.9111328125 -74.806640625 8.624267578125
-43.208251953125 -21.39990234375 14.113525390625
6.760009765625 -31.179931640625 1.3238525390625
-14.0810546875 -2.41455078125 6.4664306640625
-14.240478515625 -45.387939453125 7.11328125
-0.231201171875 -40.295654296875 -0.1728515625
26.389892578125 26.47216796875 -4.1309814453125
-27.947265625 -65.57763671875 -3.6044921875
4.212646484375 -36.17529296875 -0.25927734375
5.281005859375 -1.571044921875 6.2686767578125
-11.204833984375 -13.410888671875 4.226318359375
-24.307861328125 -26.687744140625 1.049072265625
-3.44580078125 -31.032470703125 8.090087890625
-0.095703125 -4.10302734375 4.444580078125
2.855712890625 -24.045166015625 8.5699462890625
-38.354248046875 -62.803955078125 35.3558349609375
-2.890869140625 -9.694091796875 3.158447265625
-26.11767578125 -54.322509765625 8.7578125
-17.398681640625 -21.236572265625 8.070068359375
-35.467041015625 -17.994140625 7.5389404296875
-43.8134765625 -30.738037109375 11.7158203125
-36.420166015625 -37.711669921875 -1.1728515625
-19.88623046875 -54.702392578125 2.60400390625
-27.15283203125 -61.785400390625 -0.7147216796875
31.057373046875 23.140869140625 -3.87548828125
-28.754638671875 -47.7119140625 11.8370361328125
18.6083984375 -0.165283203125 5.661376953125
-43.911865234375 -31.684814453125 20.1275634765625
-16.1123046875 -42.104248046875 8.200927734375
-8.7529296875 -5.041015625 4.4942626953125
-31.509033203125 -66.56103515625 27.247802734375
-41.79443359375 -26.13330078125 10.6766357421875
19.647216796875 12.84521484375 -6.9766845703125
13.7197265625 -0.720458984375 5.5447998046875
-14.237060546875 -54.807373046875 2.2137451171875
-30.331298828125 -71.053466796875 3.486328125
-16.638671875 -49.757080078125 6.2723388671875
-30.056884765625 -72.384033203125 -0.6119384765625
-17.900634765625 -65.542724609375 -4.4722900390625
-12.9140625 -17.91455078125 7.4521484375
-19.990966796875 -46.125732421875 8.107421875
-32.109375 -47.097900390625 25.1514892578125
-28.58056640625 -57.412841796875 15.3729248046875
31.718505859375 13.17236328125 -2.5728759765625
10.170654296875 -8.246337890625 4.0233154296875
-23.920654296875 -53.96484375 5.4151611328125
-25.412841796875 2.662109375 9.9794921875
5.613525390625 3.26025390625 9.9090576171875
-28.739501953125 -53.146728515625 25.50634765625
20.26953125 13.3662109375 -0.3853759765625
-21.208740234375 -20.79638671875 7.58154296875
23.574951171875 5.99658203125 0.9044189453125
9.684814453125 -0.875732421875 8.04736328125
-18.851318359375 -4.791259765625 5.20703125
-14.703369140625 -63.335693359375 -3.9857177734375
9.328369140625 -2.715576171875 3.7928466796875
31.90625 22.7919921875 2.2586669921875
-42.365234375 -25.426025390625 14.455322265625
-19.44287109375 -43.2646484375 6.842041015625
-10.934814453125 -36.59423828125 9.4945068359375
-29.825927734375 -55.22705078125 11.229736328125
8.050537109375 -25.47021484375 1.88720703125
22.85888671875 29.8251953125 -5.08544921875
-45.219970703125 -36.4306640625 13.6815185546875
-4.0537109375 -0.7890625 7.0604248046875
-42.48974609375 -38.29150390625 7.9866943359375
-0.433349609375 -40.13525390625 8.3446044921875
24.181640625 25.5205078125 -8.47119140625
-25.92529296875 -1.001953125 8.22119140625
-41.1884765625 -4.671142578125 6.08056640625
9.1826171875 -21.714111328125 4.3372802734375
-27.9560546875 -13.41064453125 4.3994140625
-4.279296875 -20.5869140625 6.6002197265625
-44.281982421875 -30.013427734375 6.3607177734375
6.295654296875 -34.849365234375 -1.633056640625
-38.0029296875 -7.771728515625 4.8758544921875
-15.28466796875 -13.83251953125 4.11767578125
9.799072265625 10.10546875 -5.2672119140625
-7.738525390625 -16.264404296875 6.211181640625
-10.48291015625 -58.2841796875 -5.5286865234375
-25.5927734375 -18.258056640625 7.7890625
-29.132568359375 -67.14111328125 -1.10498046875
-17.0732421875 -38.3955078125 8.43798828125
-44.459228515625 -34.018310546875 7.3472900390625
-25.000244140625 -30.575439453125 -0.2080078125
-26.15380859375 -5.669677734375 4.5823974609375
-37.860595703125 -13.560791015625 4.7547607421875
-33.57763671875 -50.967529296875 24.8712158203125
-38.271484375 -53.213134765625 34.5538330078125
-36.7119140625 -65.80419921875 31.4400634765625
20.51953125 15.166259765625 2.9154052734375
-21.80712890625 -48.3115234375 8.217041015625
-11.07666015625 -60.2724609375 -3.59619140625
-23.57470703125 -10.9384765625 3.7366943359375
-38.15771484375 -50.073974609375 23.7093505859375
4.71728515625 -22.814208984375 6.0946044921875
-36.10107421875 -21.945556640625 10.1221923828125
-2.61181640625 -28.422119140625 7.930908203125
8.424560546875 -11.647705078125 2.2001953125
-23.84375 -35.66650390625 7.2723388671875
-3.81884765625 -3.5810546875 5.044677734375
-19.1875 -57.191162109375 1.3175048828125
-35.001708984375 -35.850341796875 0.418212890625
-29.91552734375 -15.967041015625 5.74951171875
-8.08544921875 -0.8017578125 7.1595458984375
-30.501220703125 -70.04150390625 -1.907958984375
-22.207763671875 -14.027099609375 4.9068603515625
-37.9931640625 -42.615966796875 -0.208251953125
16.505615234375 2.5205078125 4.3505859375
32.225830078125 19.876220703125 -6.018310546875
-44.291748046875 -55.22607421875 34.7220458984375
-21.54052734375 -9.02392578125 3.927978515625
-43.251220703125 -50.334716796875 24.714111328125
-12.687255859375 -4.596923828125 4.687744140625
-34.84033203125 -30.206298828125 -0.500732421875
0.943603515625 -1.2119140625 6.0499267578125
-29.92236328125 -45.435546875 16.2674560546875
-29.5908203125 -61.234130859375 5.2030029296875
-30.1435546875 -52.71435546875 12.402099609375
-14.311767578125 1.321044921875 9.3203125
-8.697998046875 -7.68212890625 3.7115478515625
-40.672119140625 -9.780517578125 4.2987060546875
-13.19677734375 -21.9501953125 5.3411865234375
-38.81982421875 2.1787109375 8.779541015625
-11.250244140625 -25.439208984375 2.118896484375
-2.051513671875 -30.26318359375 10.9002685546875
-23.2568359375 -22.40576171875 5.8719482421875
-20.541259765625 -64.02734375 -3.9814453125
-16.338623046875 -57.488525390625 0.42529296875
-16.6279296875 -47.580078125 7.8927001953125
-19.548583984375 -16.533935546875 6.5615234375
-44.11279296875 -52.128662109375 30.3670654296875
16.767333984375 18.5478515625 -4.1934814453125
-19.503173828125 -51.260986328125 4.8438720703125
0.081787109375 -24.083984375 6.07568359375
13.5947265625 8.531494140625 9.406494140625
-35.572998046875 -9.673583984375 4.0535888671875
-30.76904296875 -76.370849609375 1.014892578125
4.763671875 -14.38232421875 4.2904052734375
10.46240234375 6.490966796875 10.1661376953125
-23.5302734375 -56.45751953125 4.388427734375
-30.7529296875 -60.887939453125 14.00830078125
-29.083251953125 -63.144775390625 7.3927001953125
21.5205078125 9.150390625 3.3377685546875
-30.685546875 -10.81201171875 4.08203125
-2.4287109375 -39.10302734375 6.9840087890625
-27.7001953125 -25.05126953125 4.156982421875
-34.9931640625 -4.81201171875 6.017822265625
-26.421142578125 -50.28466796875 7.7568359375
17.461181640625 16.94580078125 -6.9013671875
-31.991455078125 -47.79296875 20.5753173828125
-34.22216796875 -41.175048828125 -0.9033203125
-7.73779296875 -39.61962890625 11.1005859375
-21.424072265625 -24.91455078125 4.033935546875
5.755126953125 -7.084228515625 3.0352783203125
-45.09326171875 -32.77978515625 18.0723876953125
22.622802734375 11.5732421875 0.5328369140625
-28.338134765625 -67.686767578125 -5.7734375
-5.385986328125 -11.5791015625 3.909912109375
34.8564453125 17.908935546875 -3.401123046875
-40.927001953125 -33.4755859375 5.4725341796875
-10.1650390625 -15.2802734375 5.67138671875
24.912353515625 12.669189453125 -0.00537109375
-22.929931640625 -18.389892578125 8.097412109375
-12.34375 -9.3681640625 3.4801025390625
-26.9365234375 -63.10546875 -3.391845703125
22.61474609375 3.4296875 -1.17529296875
17.73779296875 18.384521484375 -0.001220703125
1.009765625 2.217041015625 9.2698974609375
-39.04443359375 -34.043701171875 1.635986328125
27.71728515625 7.508544921875 -1.5
-11.758544921875 -44.3818359375 7.1429443359375
5.9951171875 -40.839111328125 -2.2762451171875
0.595947265625 -7.624267578125 3.0721435546875
-3.488525390625 -37.022216796875 1.8656005859375
-16.624267578125 -2.279052734375 6.4273681640625
-34.858642578125 1.18017578125 10.42724609375
17.11767578125 7.4638671875 4.6253662109375
-29.78271484375 -62.653076171875 10.1011962890625
21.15625 7.087158203125 1.3272705078125
-34.223388671875 -61.67626953125 27.8636474609375
23.606201171875 7.16455078125 3.159423828125
-30.66943359375 -70.535888671875 -4.3963623046875
-42.93310546875 -30.40380859375 14.75146484375
-43.85595703125 -8.770263671875 5.3447265625
19.053466796875 15.103271484375 -2.6805419921875
-41.316162109375 -62.815185546875 38.4720458984375
-37.571044921875 -27.69677734375 2.8519287109375
-41.556396484375 -31.69482421875 3.0469970703125
-36.090087890625 -58.353759765625 29.781494140625
-21.2294921875 -41.18212890625 8.7320556640625
-42.5498046875 -29.4921875 20.17578125
-29.154052734375 -1.005126953125 7.7801513671875
-23.059814453125 -61.9990234375 -1.1005859375
-27.82861328125 -67.003173828125 11.412841796875
-0.73828125 0.05859375 7.4112548828125
-44.9599609375 -36.210693359375 11.0128173828125
-24.748046875 -15.4814453125 5.461181640625
2.051513671875 -5.240234375 3.7646484375
-28.819091796875 -63.375 1.8070068359375
-13.03857421875 -38.343994140625 10.766845703125
-8.866943359375 -23.2802734375 4.977783203125
-40.547607421875 -15.801513671875 5.6563720703125
-40.2646484375 -40.66845703125 12.238525390625
-30.220458984375 -20.76318359375 8.038330078125
-3.585693359375 -40.056396484375 12.70458984375
-43.452880859375 -13.380126953125 4.174072265625
30.888671875 7.775146484375 -2.3665771484375
-30.16748046875 -28.9306640625 0.1278076171875
-19.918701171875 -28.80712890625 0.9019775390625
-38.013671875 -47.283203125 21.760498046875
-33.132568359375 -18.534423828125 8.1552734375
4.761474609375 -9.346923828125 3.0179443359375
20.05517578125 2.5400390625 1.1512451171875
-0.909423828125 -30.4599609375 2.182373046875
-4.279296875 -7.667724609375 3.4620361328125
-37.421875 -31.425537109375 2.1121826171875
-30.396484375 -51.914306640625 26.84619140625
-29.63330078125 -66.121337890625 4.8590087890625
-26.958984375 -53.77001953125 27.5592041015625
-34.70849609375 -14.437255859375 5.1409912109375
-37.3583984375 -55.438720703125 31.0758056640625
-2.249755859375 -39.492919921875 1.3470458984375
6.41796875 -34.23388671875 0.7291259765625
-40.86376953125 -38.315185546875 6.034912109375
2.384033203125 -16.521240234375 6.72802734375
-42.468505859375 -51.406005859375 26.7633056640625
-24.09814453125 -4.489990234375 5.5357666015625
-41.16552734375 -59.97216796875 36.4776611328125
10.1728515625 -1.52587890625 5.7484130859375
18.58837890625 18.279541015625 4.7978515625
-32.877197265625 -22.156494140625 9.11083984375
-12.01416015625 -50.504638671875 2.7698974609375
37.63037109375 13.1435546875 -4.9559326171875
-26.921142578125 -7.9111328125 4.0345458984375
-29.214111328125 -51.298828125 21.7122802734375
-32.349853515625 -40.76953125 14.214111328125
-30.132080078125 1.2880859375 10.2093505859375
-33.77734375 -32.4990234375 0.2857666015625
-43.8974609375 -31.076171875 3.099365234375
-18.8447265625 -24.246826171875 4.2344970703125
-29.3427734375 -8.17138671875 4.0498046875
2.13525390625 -12.1337890625 3.6033935546875
-13.984619140625 -47.16064453125 5.1767578125
33.2080078125 21.34033203125 0.2991943359375
-21.813720703125 -2.8134765625 6.84765625
-36.05224609375 -24.79150390625 6.200439453125
-16.980224609375 -6.395751953125 4.1898193359375
-3.2607421875 -25.4990234375 7.8616943359375
-34.251220703125 -47.35986328125 23.2108154296875
-39.689697265625 -22.513427734375 12.01611328125
1.416748046875 -40.318359375 -2.183837890625
-19.642333984375 -38.1240234375 9.0611572265625
-29.3525390625 -53.998291015625 18.2080078125
-23.256103515625 -42.48095703125 10.0745849609375
32.350341796875 9.6064453125 -3.2796630859375
-17.35986328125 -60.89990234375 -1.2623291015625
-3.8134765625 -31.712890625 5.302734375
24.47900390625 9.877685546875 -0.6640625
-43.099853515625 -28.713134765625 10.695068359375
-37.647705078125 -66.909912109375 36.261962890625
-28.382080078125 -31.20947265625 0.52392578125
3.69921875 2.011962890625 8.627197265625
12.013671875 3.828125 8.51513671875
5.364013671875 -25.391845703125 5.433837890625
17.17724609375 20.2587890625 4.414306640625
10.207275390625 -20.18896484375 5.8245849609375
-31.2890625 -61.837646484375 30.3079833984375
-28.1552734375 -18.10546875 7.6148681640625
-39.570068359375 -57.97607421875 32.8231201171875
-14.475830078125 -50.898681640625 5.744140625
-26.8076171875 -57.78662109375 5.9859619140625
14.499755859375 6.1142578125 6.868896484375
-37.615966796875 -61.28955078125 31.040283203125
29.15576171875 12.185791015625 -0.91748046875
-32.993896484375 -56.111083984375 29.47216796875
-33.87548828125 -70.103271484375 35.906982421875
-14.107421875 -30.001953125 0.64404296875
-29.765869140625 -43.4267578125 15.0927734375
-41.215576171875 -27.58935546875 3.090576171875
-25.269287109375 -28.148681640625 -0.4910888671875
13.234375 -0.94873046875 7.8123779296875
-44.647705078125 -49.079833984375 26.44384765625
-33.59912109375 -67.467529296875 27.7139892578125
-27.157470703125 -55.704833984375 7.060546875
-6.295654296875 2.757568359375 9.949462890625
-16.21533203125 -53.64208984375 3.005126953125
-43.115966796875 -27.143310546875 5.38037109375
-1.17529296875 -27.583984375 6.3370361328125
0.913330078125 -26.2451171875 4.9620361328125
18.241455078125 14.556640625 -5.935791015625
-22.029052734375 -54.762939453125 3.7965087890625
8.72705078125 1.1416015625 7.5238037109375
-13.728515625 -56.24658203125 -2.2216796875
-5.564697265625 -23.441650390625 4.6058349609375
-40.241455078125 -18.722900390625 9.04052734375
-32.703857421875 -28.27978515625 0.70556640625
-26.609130859375 -67.28515625 13.318359375
-7.63818359375 -11.4150390625 3.6068115234375
-18.71142578125 -12.900146484375 4.259765625
37.353271484375 16.639892578125 -5.2232666015625
18.302978515625 4.868408203125 0.3160400390625
-26.46435546875 -38.95263671875 27.6986083984375
-4.652099609375 -42.64501953125 13.2672119140625
-4.150146484375 1.625244140625 9.27392578125
-28.767333984375 -44.619140625 27.583740234375
-23.862060546875 1.053955078125 9.231201171875
-21.417236328125 -50.83056640625 7.1787109375
-28.21923828125 -60.33447265625 14.2379150390625
-29.08642578125 -61.309814453125 2.99462890625
25.023193359375 1.524169921875 2.6951904296875
-12.709716796875 -40.872314453125 10.3824462890625
-16.057861328125 -36.57763671875 9.315185546875
7.709716796875 -0.808837890625 6.7601318359375
-36.1748046875 -52.274169921875 34.0966796875
15.0908203125 25.796875 -1.15380859375
-38.300048828125 -62.90234375 33.0035400390625
-30.6015625 -55.053466796875 31.0880126953125
-36.092041015625 -67.343505859375 33.990478515625
17.441650390625 -0.9365234375 7.713623046875
-29.719970703125 -60.185302734375 10.3448486328125
18.952392578125 16.654296875 2.3094482421875
33.4033203125 14.0888671875 -3.9420166015625
-15.663330078125 -15.818603515625 5.6962890625
-22.757568359375 -45.46240234375 8.4151611328125
-3.491455078125 -36.100341796875 8.5400390625
-42.186279296875 -29.04345703125 1.439697265625
-29.394775390625 -47.209716796875 13.91748046875
-30.984130859375 -25.3330078125 4.30810546875
32.12841796875 18.80859375 2.4365234375
10.41650390625 7.309814453125 -7.3922119140625
-36.66015625 -67.911376953125 30.576416015625
-24.07861328125 -57.427978515625 2.010986328125
34.91162109375 10.4189453125 -2.8101806640625
-37.1875 -64.375244140625 36.410400390625
-8.609619140625 -20.5263671875 6.9713134765625
-43.57080078125 -6.192138671875 5.971435546875
-33.72314453125 -70.279541015625 30.510009765625
8.36474609375 -19.023681640625 6.231689453125
-31.087158203125 -74.412109375 -0.11083984375
-35.858642578125 -25.924072265625 2.64990234375
-19.967529296875 -60.60400390625 -0.76171875
-40.51611328125 -38.890625 8.8583984375
6.79638671875 -14.982421875 4.9232177734375
-21.672607421875 -30.242431640625 0.40869140625
23.030517578125 2.040283203125 1.5018310546875
-17.230224609375 1.000244140625 9.457763671875
-2.378662109375 -16.921875 7.2877197265625
-35.339111328125 -50.73583984375 23.5731201171875
1.29833984375 -22.23291015625 6.41796875
7.484619140625 -4.53564453125 4.8238525390625
34.204345703125 19.101318359375 -7.0489501953125
-20.5927734375 -0.407470703125 8.0765380859375
-39.014892578125 -21.885498046875 9.285400390625
-38.540283203125 -2.969482421875 7.37109375
28.829345703125 25.17529296875 -3.1328125
8.197021484375 -16.67626953125 3.8853759765625
-23.826904296875 -59.17529296875 -0.649658203125
-23.984619140625 -39.332275390625 8.36474609375
-43.0673828125 -34.86083984375 15.797119140625
-4.047119140625 -40.241943359375 10.5213623046875
-31.607666015625 -43.804931640625 17.5430908203125
17.345703125 17.613525390625 -2.0040283203125
2.9462890625 -28.40380859375 2.6282958984375
-8.351318359375 -3.122314453125 5.915283203125
-31.555419921875 -52.66455078125 29.67529296875
15.138427734375 10.38818359375 8.6451416015625
16.14111328125 20.599853515625 1.5521240234375
-1.599609375 -40.0166015625 5.190185546875
-33.38134765625 -43.162353515625 -1.1900634765625
-1.96435546875 -23.90283203125 5.3587646484375
2.445556640625 -43.423095703125 0.590576171875
-19.20458984375 -10.06884765625 3.6595458984375
-26.91748046875 -41.79443359375 29.9703369140625
-28.63916015625 -58.54931640625 17.5245361328125
-25.605712890625 -52.7236328125 7.381103515625
-14.2421875 -61.61376953125 -2.5018310546875
-42.08154296875 -21.076904296875 12.086669921875
26.40576171875 28.03369140625 -2.6287841796875
22.249267578125 14.166015625 3.7503662109375
-24.847412109375 -33.19677734375 2.863037109375
-42.239013671875 -47.607666015625 21.037109375
-12.545654296875 -25.325927734375 4.6566162109375
-40.644287109375 -23.582275390625 10.394775390625
-30.2080078125 -49.921630859375 17.861572265625
-23.303955078125 -6.2177734375 4.3970947265625
-9.10693359375 -41.45166015625 10.48046875
-41.835693359375 -54.4150390625 31.65869140625
-0.048583984375 -36.9931640625 -1.2296142578125
6.406982421875 -10.897705078125 3.068115234375
-35.822998046875 -19.52294921875 9.1778564453125
-38.539794921875 -24.549072265625 6.8160400390625
-20.15234375 -14.6513671875 4.9921875
-41.90673828125 -11.53857421875 4.494873046875
-37.92138671875 -62.68017578125 37.73583984375
-16.8251953125 -8.987060546875 3.546875
6.54443359375 -13.028076171875 3.1785888671875
-39.511962890625 -0.4716796875 8.2738037109375
-13.539306640625 -6.458740234375 4.0836181640625
-26.6357421875 -66.37548828125 15.6231689453125
-5.529296875 -40.664794921875 12.06591796875
-4.2353515625 -30.886474609375 10.67431640625
-2.137451171875 3.342041015625 10.775390625
-33.17626953125 -10.253173828125 4.0025634765625
-18.80615234375 -52.939697265625 3.5845947265625
-25.841064453125 -11.14501953125 4.015380859375
1.7802734375 -18.173583984375 8.01953125
-29.96337890625 -51.9208984375 18.90869140625
-11.97216796875 1.55810546875 9.0467529296875
-20.8447265625 -6.797607421875 4.3460693359375
-38.831298828125 -66.853271484375 39.156982421875
3.360595703125 -39.715087890625 -1.59228515625
-18.38525390625 -0.5419921875 8.3897705078125
-26.3515625 -60.292724609375 4.3096923828125
-43.396484375 -2.939697265625 8.7796630859375
-30.8193359375 -47.841552734375 18.5618896484375
-18.810302734375 -21.922119140625 6.6517333984375
-29.401123046875 -59.170166015625 5.6171875
-28.966796875 -53.310302734375 22.76904296875
-0.186767578125 -19.20751953125 8.121826171875
-0.904052734375 -28.633544921875 3.73291015625
-29.589111328125 -55.361572265625 16.2003173828125
-40.6689453125 -55.873046875 34.357666015625
16.185302734375 23.416748046875 -3.3765869140625
5.606689453125 18.336669921875 1.60546875
-37.581787109375 -62.607421875 29.3978271484375
-39.665283203125 -39.074951171875 11.0
0.1279296875 -12.758056640625 3.665771484375
-16.51953125 -24.83251953125 4.71533203125
-4.37451171875 -18.750732421875 8.0323486328125
-39.242919921875 -27.263916015625 4.7587890625
-32.39990234375 -36.494873046875 -0.0294189453125
-30.287109375 -68.650634765625 2.9461669921875
-16.00341796875 -19.423583984375 8.008056640625
-31.518310546875 -59.768310546875 30.0665283203125
-34.739013671875 -28.13134765625 -0.223388671875
-29.60986328125 -56.765869140625 13.0091552734375
-30.825439453125 -34.7109375 0.2808837890625
-44.301513671875 -55.357421875 32.243896484375
-29.724609375 -56.196044921875 8.2950439453125
-18.17822265625 -67.2236328125 -5.6871337890625
-10.30029296875 -0.563720703125 7.6593017578125
4.39501953125 0.19140625 7.3094482421875
-39.581787109375 -61.173583984375 35.8289794921875
-30.647705078125 -71.536376953125 1.4766845703125
-23.9287109375 -48.971435546875 6.4215087890625
-43.262939453125 -28.682861328125 15.8880615234375
-20.94921875 -17.850341796875 7.3775634765625
12.48046875 26.5517578125 0.418701171875
0.544921875 -42.00048828125 -1.31494140625
-10.469970703125 2.78173828125 10.5836181640625
-32.339111328125 -26.064453125 2.1497802734375
20.423828125 15.187255859375 6.449951171875
-29.28369140625 -21.663818359375 6.4140625
-39.010009765625 -40.280029296875 5.0950927734375
31.810546875 24.804443359375 0.742431640625
-32.848876953125 0.48779296875 9.7236328125
-14.9677734375 -10.088134765625 3.280029296875
-19.527099609375 2.58447265625 10.6171875
-13.362060546875 -25.707275390625 1.2099609375
-33.50341796875 -62.15283203125 7.2642822265625
-30.551025390625 -4.806884765625 5.3865966796875
-26.548583984375 -43.794189453125 12.4794921875
35.9560546875 12.136474609375 -4.275634765625
-27.6416015625 -52.727294921875 9.493408203125
-9.811279296875 -24.764404296875 3.5238037109375
-13.18505859375 -54.03271484375 0.1409912109375
-26.685546875 -60.475341796875 0.812255859375
-26.076171875 -45.1640625 10.094482421875
-42.57958984375 -57.654541015625 34.21923828125
-30.04833984375 -50.450439453125 15.76318359375
-43.440185546875 -38.481689453125 11.8193359375
-13.635009765625 -31.878173828125 2.730224609375
-44.448974609375 -32.033447265625 6.7247314453125
-43.475341796875 -10.732421875 5.8382568359375
3.155029296875 -1.377685546875 6.227294921875
13.304931640625 9.4189453125 -0.50830078125
-42.549072265625 -34.330322265625 6.6099853515625
-20.906005859375 -58.4990234375 1.60595703125
-42.589599609375 -23.400634765625 14.218994140625
-12.924560546875 -62.064697265625 -4.929931640625
-33.59423828125 -23.726806640625 6.35791015625
-30.52294921875 -49.69189453125 22.0498046875
-32.45068359375 -52.15478515625 32.2413330078125
-17.39013671875 -43.112548828125 6.968017578125
8.504150390625 -30.160888671875 1.614990234375
-37.5810546875 -17.818603515625 7.2349853515625
-23.557861328125 -44.9833984375 10.2276611328125
-28.16259765625 -50.331298828125 8.81396484375
-14.62060546875 -23.4775390625 3.89453125
-29.9033203125 -52.177001953125 14.350341796875
-39.742919921875 -36.86572265625 2.6131591796875
-31.8583984375 -23.666748046875 5.30126953125
-11.181884765625 -18.995361328125 7.72802734375
-25.58349609375 -69.2939453125 13.29248046875
-2.193359375 -4.769775390625 4.370361328125
6.612548828125 -25.451171875 3.5240478515625
-41.088623046875 -37.25244140625 4.2152099609375
-13.731201171875 -58.266845703125 -1.5921630859375
-41.612060546875 -17.346435546875 7.67529296875
-28.356689453125 -63.5146484375 -1.9212646484375
-29.38720703125 -25.790283203125 2.2554931640625
-3.765625 -36.853515625 4.408935546875
-22.525634765625 -64.002685546875 -1.127685546875
-41.61767578125 -25.890380859375 8.66357421875
-4.09326171875 -37.74853515625 9.8212890625
-42.253173828125 -14.7822265625 5.26318359375
7.652587890625 2.513427734375 9.037109375
-23.827392578125 -2.622802734375 6.8062744140625
-23.064208984375 -25.6396484375 2.2513427734375
-4.27294921875 -34.716796875 5.2425537109375
-9.74609375 -46.0205078125 5.592041015625
-37.4873046875 -34.83837890625 0.3026123046875
-22.877685546875 -52.247314453125 5.6138916015625
2.69677734375 -9.558349609375 3.03271484375
-0.0537109375 -15.589599609375 5.50146484375
-17.645263671875 -31.498291015625 1.2166748046875
-6.916748046875 -4.35791015625 4.9744873046875
-3.39697265625 -34.94873046875 1.3548583984375
-3.815673828125 -22.332275390625 5.7120361328125
-11.81396484375 -48.30126953125 4.64599609375
26.930419921875 5.69287109375 -1.150390625
-18.29443359375 -28.165771484375 1.89013671875
-34.7802734375 -71.86376953125 34.26416015625
26.286865234375 26.899169921875 -7.1112060546875
-38.160400390625 -38.177734375 -0.2109375
-43.728515625 -17.515625 8.0721435546875
-28.580322265625 -27.11962890625 0.43994140625
-21.965087890625 -66.52490234375 -4.0604248046875
13.979248046875 1.5517578125 5.9849853515625
-29.504638671875 -53.203369140625 10.3331298828125
-34.2861328125 -49.5029296875 22.2257080078125
-43.494384765625 -36.39208984375 7.236083984375
-36.29052734375 -42.56640625 -1.2493896484375
-35.626953125 -31.352294921875 1.193603515625
-29.691162109375 -65.06396484375 1.101806640625
-27.643798828125 -4.484130859375 5.372314453125
5.359375 -37.457275390625 -1.5943603515625
-20.192626953125 -63.518798828125 -1.9766845703125
2.130126953125 -33.36865234375 -0.179443359375
-30.953125 -6.60791015625 4.65771484375
25.53857421875 23.33642578125 -9.6011962890625
-34.46630859375 -2.45703125 7.7559814453125
-32.427490234375 -12.63525390625 4.2833251953125
-39.93701171875 -59.582275390625 34.522216796875
-9.288818359375 -12.3798828125 4.1173095703125
-10.7236328125 -4.818603515625 4.5911865234375
33.369384765625 21.085693359375 -1.656005859375
-1.10302734375 -35.333251953125 -0.4827880859375
-31.605712890625 -32.75830078125 -0.07666015625
0.97802734375 -26.768310546875 8.7308349609375
-1.1279296875 -10.767822265625 3.4283447265625
-16.413818359375 -64.249755859375 -4.3804931640625
34.928466796875 16.3935546875 -4.772216796875
-39.424072265625 -40.471923828125 2.904052734375
-39.757080078125 -6.26904296875 5.2181396484375
17.8701171875 1.219482421875 6.904052734375
33.480712890625 19.3740234375 -4.4178466796875
-36.301513671875 -11.794677734375 4.2952880859375
1.81787109375 -29.48583984375 0.988525390625
30.615234375 21.338623046875 2.702392578125
-32.434814453125 -14.644775390625 4.9144287109375
-27.745849609375 -2.21826171875 6.8564453125
-38.575927734375 -15.589599609375 5.777587890625
-43.757080078125 -52.626953125 28.510986328125
-25.462890625 -60.49658203125 -1.0042724609375
-6.72412109375 -7.05224609375 3.649658203125
28.1171875 28.1640625 -0.3787841796875
-11.675048828125 -16.63134765625 6.3612060546875
-19.2490234375 -44.382080078125 8.57958984375
-21.75341796875 0.896728515625 9.412353515625
-45.000244140625 -34.609130859375 15.7384033203125
-36.560302734375 -63.638427734375 4.56982421875
5.640869140625 -19.947265625 8.258544921875
10.15966796875 4.634033203125 9.669189453125
-29.6396484375 -58.681884765625 7.5296630859375
17.47998046875 11.309326171875 6.7239990234375
-14.47119140625 2.755126953125 10.6688232421875
-1.147216796875 -41.0927734375 1.3988037109375
31.64990234375 15.576416015625 -1.16259765625
-39.97705078125 -11.74267578125 4.5306396484375
-6.401611328125 -14.952880859375 5.2496337890625
16.7802734375 8.974609375 6.420654296875
-13.4365234375 -13.592041015625 4.640625
18.53271484375 3.349853515625 2.02783203125
6.92919921875 -39.08740234375 -2.3509521484375
-31.0048828125 -2.04638671875 7.8802490234375
19.296630859375 6.384033203125 0.9805908203125
3.265625 -15.309814453125 5.07763671875
-9.521484375 -26.16845703125 1.6700439453125
6.885009765625 -23.473876953125 6.1846923828125
-42.052001953125 -26.396240234375 12.5665283203125
-11.70361328125 -11.40966796875 3.585205078125
-34.09228515625 -63.7783203125 27.144287109375
-21.4892578125 -41.90576171875 10.560791015625
-15.29052734375 -56.1513671875 1.3172607421875
-38.674560546875 -59.64453125 31.7916259765625
-29.15966796875 -49.43408203125 11.0975341796875
-1.496826171875 -24.524169921875 7.48779296875
11.63037109375 -1.653564453125 7.0350341796875
-31.757080078125 -52.003173828125 34.2093505859375
7.75537109375 -36.340087890625 -0.3814697265625
-29.103759765625 -11.88134765625 4.2152099609375
-43.9443359375 -59.693603515625 36.629638671875
-25.404296875 -25.834716796875 2.4013671875
-10.747314453125 -22.51318359375 5.9627685546875
-31.82763671875 -50.4111328125 25.398193359375
-17.98583984375 -17.56494140625 7.369384765625
2.788818359375 -25.97802734375 6.174560546875
28.886962890625 8.901123046875 -2.0802001953125
25.45849609375 7.3291015625 2.7291259765625
-39.539794921875 -64.769287109375 39.740234375
-44.719482421875 -34.294921875 9.2135009765625
4.752197265625 -44.18310546875 -0.53662109375
-44.1162109375 -56.95556640625 33.259765625
2.765380859375 -21.47509765625 8.5484619140625
-43.03369140625 -37.344970703125 10.239501953125
-26.86962890625 -14.880615234375 5.2437744140625
-37.040771484375 -69.358154296875 37.1180419921875
3.112060546875 -31.537109375 0.55126953125
-41.8076171875 -0.723388671875 8.4095458984375
-33.394287109375 -7.30029296875 4.5880126953125
-35.83056640625 -70.18603515625 35.853515625
30.85400390625 24.118896484375 3.09619140625
13.3525390625 25.0859375 -1.357421875
0.148681640625 -42.564697265625 3.1883544921875
-14.884521484375 -43.7216796875 7.7230224609375
-11.983642578125 -2.164306640625 6.593505859375
-37.271728515625 -64.651123046875 29.776123046875
-27.5703125 -43.771728515625 26.4052734375
-2.88916015625 0.323974609375 8.051025390625
-44.2646484375 -49.2607421875 23.0770263671875
-32.697509765625 -1.347900390625 8.319091796875
-22.939208984375 -23.80078125 4.0316162109375
-32.562744140625 -39.3359375 0.3028564453125
-42.271484375 -19.61767578125 10.3177490234375
-40.05908203125 -8.025390625 4.6265869140625
21.5908203125 1.109619140625 2.4437255859375
3.973876953125 -5.491455078125 3.52978515625
-34.357421875 -53.531005859375 32.1998291015625
14.410400390625 21.923828125 -2.9295654296875
-0.775390625 -31.82666015625 0.85595703125
-18.94384765625 -47.763671875 7.3668212890625
-39.850341796875 -49.376220703125 23.3206787109375
-24.0751953125 -63.3046875 -1.9752197265625
-27.478759765625 -46.498291015625 10.1043701171875
-43.348876953125 -24.959228515625 15.99609375
-35.080322265625 -25.25634765625 4.676513671875
-24.429443359375 -46.523681640625 6.532958984375
-7.142822265625 -37.8662109375 11.314453125
-6.54541015625 -17.3330078125 7.1641845703125
-26.039306640625 -21.310791015625 6.93115234375
-6.0810546875 -20.292724609375 6.9632568359375
-24.15625 -17.357421875 7.0247802734375
-35.499755859375 -67.1357421875 27.7679443359375
-33.322509765625 -52.37841796875 29.177734375
-20.389404296875 -36.172607421875 8.0230712890625
-35.38427734375 -39.250244140625 -1.125
-31.824462890625 -20.02734375 8.607421875
-14.872314453125 -47.06884765625 7.573974609375
18.449462890625 -0.024169921875 3.2579345703125
-21.772216796875 -27.767578125 0.3839111328125
-43.879150390625 -29.718505859375 9.3497314453125
31.821533203125 18.8623046875 -0.129638671875
29.44140625 23.06591796875 -5.9693603515625
-3.5859375 -5.84326171875 3.8009033203125
19.560546875 1.777587890625 6.2908935546875
22.2763671875 10.42333984375 2.2095947265625
-34.37646484375 -54.462158203125 30.495361328125
-44.1806640625 -32.338623046875 12.559326171875
33.253662109375 17.113037109375 -1.1944580078125
-34.81982421875 -57.501708984375 28.751708984375
32.03466796875 11.388427734375 -2.926513671875
-10.249755859375 -58.4892578125 -1.586181640625
7.7490234375 -3.409423828125 3.033203125
-29.13427734375 -67.57861328125 8.565673828125
-11.420654296875 -42.5419921875 9.2288818359375
-33.4111328125 -3.85888671875 5.5208740234375
-26.926513671875 -40.629150390625 28.43603515625
-36.5234375 -46.71142578125 22.678466796875
-12.5849609375 -20.462158203125 7.06982421875
-8.010498046875 1.657470703125 9.6376953125
-1.35986328125 -8.675537109375 3.184326171875
15.918701171875 20.240234375 -3.8382568359375
-39.105712890625 -38.4853515625 2.024169921875
-16.3359375 -21.69482421875 6.6429443359375
-36.74462890625 -5.905029296875 5.464599609375
-16.708740234375 -59.215087890625 -0.941650390625
24.003173828125 8.15185546875 0.0950927734375
-44.40625 -53.750244140625 31.368896484375
-25.42626953125 -32.134765625 1.2882080078125
5.59326171875 -29.15283203125 1.2227783203125
-27.234375 -73.544189453125 10.45361328125
-0.988037109375 -14.09619140625 4.2259521484375
-31.17138671875 -16.81884765625 6.7723388671875
-26.78173828125 -27.393798828125 0.2093505859375
-30.81884765625 -73.654541015625 -1.864013671875
-25.658203125 0.877685546875 9.5008544921875
15.905517578125 20.31396484375 -0.2342529296875
-3.493896484375 -29.02099609375 11.84619140625
7.74853515625 -26.883544921875 0.68701171875
32.4365234375 22.584228515625 -2.8221435546875
-36.397216796875 0.882568359375 9.4969482421875
17.380859375 4.353759765625 4.1446533203125
-22.653564453125 -58.206787109375 1.184326171875
-26.2314453125 -47.361083984375 8.215087890625
-39.302734375 -30.69873046875 2.9361572265625
-5.819580078125 -0.938720703125 7.4739990234375
8.112060546875 -7.309814453125 2.6593017578125
-4.002197265625 -15.521484375 5.7413330078125
-20.268798828125 -3.570556640625 6.13671875
19.9765625 13.524658203125 -2.2169189453125
-26.162353515625 -64.724853515625 -4.4886474609375
-22.1044921875 -68.587646484375 -5.0987548828125
-29.029541015625 -60.88427734375 12.1572265625
0.3662109375 -5.875732421875 3.5537109375
11.71337890625 -0.137939453125 8.6873779296875
-28.935546875 -43.6962890625 22.6314697265625
2.91796875 -34.974365234375 0.1419677734375
-1.031005859375 -20.2626953125 6.8603515625
25.34326171875 6.047119140625 -0.3558349609375
-25.6533203125 -59.12158203125 2.4730224609375
4.60986328125 -41.7177734375 -1.3621826171875
-3.631103515625 -11.444091796875 3.494384765625
-36.232177734375 -27.3837890625 0.47021484375
-26.609619140625 -50.1787109375 9.737060546875
-3.674072265625 -33.078125 3.969970703125
-24.2958984375 -65.849609375 -4.6304931640625
-28.69091796875 -65.539306640625 -1.8095703125
-35.628662109375 -69.942138671875 30.55908203125
-27.9931640625 -45.55712890625 12.3994140625
-28.38818359375 -67.177001953125 -2.9010009765625
-9.521484375 -37.713134765625 10.04443359375
-2.983154296875 -13.856201171875 4.3238525390625
6.2080078125 -17.357421875 7.686279296875
-29.49853515625 -53.316650390625 15.696533203125
7.67578125 -20.201416015625 8.166748046875
-34.9130859375 -33.84619140625 -0.075439453125
-32.123291015625 -58.16943359375 29.1751708984375
-34.4560546875 2.2861328125 8.8214111328125
0.14306640625 -33.094970703125 -0.07421875
-43.40380859375 -32.25244140625 17.7733154296875
5.59814453125 -2.964111328125 5.1826171875
6.70068359375 -28.01123046875 3.548095703125
-17.10791015625 -40.49951171875 8.2777099609375
19.96826171875 14.798095703125 0.7061767578125
-31.741943359375 -37.765625 -1.309814453125
0.4091796875 -39.073974609375 -1.389404296875
15.330078125 2.987060546875 5.6904296875
21.4296875 2.129638671875 0.0877685546875
3.12060546875 -13.692626953125 4.201416015625
-35.235107421875 -60.44384765625 28.661865234375
7.002685546875 17.477783203125 3.5225830078125
-28.82861328125 -64.27685546875 9.2376708984375
3.85107421875 -20.072509765625 8.673095703125
25.553955078125 25.11083984375 -9.532958984375
-27.16748046875 -48.706298828125 7.4373779296875
-14.326416015625 -41.895263671875 9.4033203125
-14.518310546875 -37.719482421875 9.3243408203125
-13.830810546875 -19.192626953125 8.272705078125
7.223876953125 -29.497314453125 0.5836181640625
-14.2421875 -0.13427734375 7.841796875
-2.195556640625 -40.23291015625 8.7545166015625
-42.614501953125 -27.4931640625 14.689208984375
-14.086669921875 -16.85107421875 6.5045166015625
-10.341796875 -8.305419921875 3.5030517578125
-35.24365234375 -65.0615234375 27.53759765625
2.12060546875 -36.392822265625 -1.037353515625
-29.479736328125 -45.690185546875 24.776611328125
-22.81884765625 -12.502197265625 4.05615234375
-22.853271484375 -36.724365234375 8.7403564453125
-28.186279296875 -59.430908203125 15.87939453125
8.5498046875 -23.14697265625 3.4000244140625
-26.978759765625 -62.915283203125 0.96923828125
25.251220703125 25.433837890625 -7.07763671875
-0.730224609375 2.5126953125 9.772216796875
-4.874755859375 -35.027099609375 7.314453125
-40.4541015625 1.421875 7.643798828125
-44.239013671875 -15.334716796875 5.8392333984375
23.76953125 4.545654296875 -0.3258056640625
-37.467529296875 1.3818359375 7.815673828125
14.7646484375 23.68798828125 -0.2130126953125
-4.648193359375 -9.831298828125 3.57470703125
-30.738525390625 -46.67529296875 17.20947265625
21.763916015625 15.20458984375 5.32568359375
-29.1376953125 -19.38525390625 8.2904052734375
-37.724853515625 -64.57177734375 32.23974609375
16.283447265625 6.705810546875 6.3956298828125
26.9482421875 3.92138671875 2.427734375
14.0048828125 7.1337890625 8.43994140625
