-23.267822265625 -74.87548828125 -2.388427734375
-20.277587890625 -65.098876953125 0.4888916015625
1.782470703125 -33.1064453125 15.15185546875
-6.275390625 -23.958251953125 5.240234375
12.174560546875 -8.37353515625 9.56591796875
-11.138916015625 -32.7568359375 14.2564697265625
-29.297119140625 -20.83154296875 11.4534912109375
-18.943115234375 -50.6943359375 22.404052734375
11.40380859375 -22.029296875 7.2735595703125
12.233642578125 -12.57763671875 11.7244873046875
13.672607421875 -10.37744140625 10.1397705078125
-8.775146484375 -38.614013671875 11.9246826171875
0.04833984375 -42.31787109375 11.5125732421875
0.759521484375 -0.25634765625 10.6700439453125
37.894287109375 10.19189453125 5.3057861328125
-9.541748046875 -19.281494140625 9.998046875
-1.796630859375 -57.775146484375 0.0057373046875
-23.6201171875 -16.49609375 12.697998046875
-25.915283203125 -28.783447265625 5.7757568359375
-1.918701171875 -16.31201171875 13.051025390625
18.064453125 -21.458251953125 8.1036376953125
7.700927734375 -36.41650390625 19.55517578125
2.268798828125 -36.885986328125 16.4261474609375
-6.149658203125 -50.85595703125 3.8406982421875
-19.3623046875 -60.947265625 5.6922607421875
9.54833984375 -21.203369140625 9.214599609375
-32.3935546875 -24.192626953125 8.0908203125
-8.713623046875 -0.7841796875 10.6300048828125
-12.7880859375 -41.37841796875 12.28173828125
8.039306640625 -18.18896484375 11.0899658203125
-29.712158203125 -34.2685546875 9.285400390625
6.423583984375 -31.1572265625 13.0721435546875
-7.42578125 -34.21875 13.772705078125
-15.0888671875 -56.712890625 1.26171875
25.6337890625 12.06591796875 6.242919921875
-17.12158203125 -58.017822265625 2.5234375
15.863525390625 -30.9375 3.22314453125
-13.318603515625 -1.278564453125 10.2880859375
-7.2099609375 -45.815185546875 7.3641357421875
-17.1435546875 -13.825927734375 12.5050048828125
-28.299072265625 -58.935302734375 34.8421630859375
31.24072265625 3.13671875 9.2054443359375
5.690185546875 -15.165771484375 14.068115234375
-19.529541015625 -47.885009765625 18.29052734375
-1.826171875 -19.0380859375 10.517822265625
-0.932861328125 -12.060791015625 10.962646484375
-5.11669921875 -57.093994140625 0.212158203125
-1.84375 -4.07861328125 9.3726806640625
-23.73046875 -24.086181640625 5.1138916015625
1.590576171875 -25.0126953125 5.859375
7.387939453125 -28.689208984375 9.18701171875
-30.162841796875 -12.530029296875 11.6397705078125
-5.798828125 -26.42822265625 5.79931640625
-12.4853515625 -12.204833984375 11.475341796875
12.713134765625 -45.06689453125 9.0589599609375
-12.6572265625 -48.2158203125 6.953125
-23.486083984375 -45.72265625 28.5408935546875
-18.420166015625 -44.1015625 16.4271240234375
-30.932373046875 -35.855712890625 12.796630859375
-32.570068359375 -31.327880859375 14.5648193359375
-32.122802734375 -30.627197265625 11.2286376953125
6.746826171875 -32.1875 8.6795654296875
-26.05810546875 -44.23779296875 26.6455078125
-23.44580078125 -63.8115234375 32.68603515625
28.3095703125 4.21435546875 9.6668701171875
-9.041259765625 -3.95458984375 8.97802734375
-5.43310546875 0.462646484375 11.24609375
18.7763671875 -24.04638671875 7.416015625
-20.967529296875 -43.09765625 26.447509765625
-29.572265625 -54.761474609375 35.614501953125
10.1025390625 -38.072998046875 5.539794921875
17.010009765625 -16.8330078125 14.011474609375
-30.61376953125 -2.189453125 10.259765625
5.4990234375 -18.83447265625 11.0235595703125
-3.434326171875 -32.623291015625 14.8111572265625
-7.003173828125 -16.759521484375 12.8155517578125
-19.92431640625 -67.12255859375 -3.8909912109375
-6.567626953125 -18.5517578125 10.91796875
6.12109375 -34.517578125 15.54052734375
-18.7802734375 -43.19482421875 19.2464599609375
-16.876953125 -0.301513671875 10.9688720703125
15.456298828125 -2.3818359375 9.5384521484375
-29.399169921875 -27.642822265625 8.8782958984375
32.41162109375 10.627197265625 6.7340087890625
8.72705078125 -14.906005859375 14.068359375
-4.116943359375 -39.974853515625 13.0108642578125
-10.796142578125 -44.304443359375 8.8218994140625
0.528564453125 -13.124267578125 12.427978515625
10.9599609375 -27.247802734375 6.9571533203125
-32.256591796875 -23.4072265625 14.3087158203125
-30.723388671875 -12.286865234375 15.737060546875
-19.406005859375 -60.076904296875 10.6085205078125
35.624755859375 13.60888671875 6.144775390625
-32.7431640625 -23.6455078125 10.87451171875
-31.98486328125 -24.520263671875 16.3758544921875
-18.26953125 -50.11279296875 27.923583984375
-16.353515625 -21.171630859375 9.0086669921875
-13.107666015625 -47.738037109375 10.3077392578125
11.107177734375 -33.787109375 4.2947998046875
19.484375 1.3671875 12.828369140625
-10.415283203125 -25.150634765625 4.760009765625
-10.14111328125 -21.6201171875 7.1571044921875
35.90576171875 9.620849609375 6.286865234375
15.3427734375 -22.9482421875 8.552978515625
28.693603515625 10.89453125 9.1328125
10.128662109375 -23.4931640625 5.9600830078125
1.632568359375 -5.04833984375 9.234130859375
12.725341796875 -19.974853515625 11.095947265625
-18.89111328125 -49.062744140625 20.1295166015625
-18.64697265625 -49.6396484375 12.976806640625
-10.134033203125 -34.812255859375 14.1065673828125
-13.2861328125 -15.0888671875 13.9765625
-25.712890625 -39.535888671875 5.0283203125
-1.493896484375 -39.802978515625 13.2724609375
-33.175048828125 -39.80029296875 21.9183349609375
-33.717529296875 -45.481689453125 28.08447265625
-20.07568359375 -46.918212890625 24.20166015625
-26.874267578125 -62.652587890625 37.0579833984375
7.859619140625 -25.03515625 12.650390625
-24.78369140625 -47.439208984375 30.340576171875
-18.297119140625 -60.947265625 1.0523681640625
-2.5361328125 -46.781982421875 8.5140380859375
-30.01708984375 -19.8681640625 14.4847412109375
-21.755859375 -8.134521484375 9.2943115234375
-31.17138671875 -18.0830078125 17.7042236328125
-16.91943359375 -26.849853515625 5.865966796875
-17.188232421875 -4.73779296875 9.1837158203125
-0.120361328125 -62.2744140625 -1.6082763671875
-26.08203125 -21.61767578125 7.8702392578125
-26.625732421875 -19.36279296875 11.3089599609375
-8.090087890625 -31.830810546875 11.2496337890625
-26.11279296875 -67.27197265625 35.2821044921875
-18.661376953125 -52.17626953125 11.044677734375
-8.608642578125 -55.616943359375 -0.614501953125
-20.68798828125 -21.577392578125 8.140380859375
-21.00390625 -29.694091796875 5.1549072265625
29.141845703125 21.47802734375 -1.187255859375
-21.57568359375 -48.501708984375 31.6856689453125
-5.00048828125 -3.544189453125 9.1492919921875
-29.03662109375 -34.31591796875 7.15478515625
-16.469482421875 -41.088623046875 15.10888671875
19.479248046875 -13.314453125 10.89501953125
18.486572265625 -4.366455078125 8.4698486328125
-19.49609375 -42.871337890625 30.827880859375
-19.027099609375 -54.609375 15.1319580078125
-2.589111328125 -7.153564453125 9.5142822265625
-20.06494140625 -10.433837890625 10.3187255859375
-19.741943359375 -1.519287109375 10.099609375
-2.400146484375 -43.3369140625 10.65771484375
-28.0205078125 -32.6552734375 5.812744140625
15.930908203125 -19.125244140625 13.7587890625
-14.32421875 -35.5400390625 13.533935546875
-26.046142578125 -30.924072265625 4.50830078125
-28.5341796875 -23.229736328125 5.0653076171875
10.185302734375 -5.10693359375 9.1199951171875
-19.671142578125 -53.859619140625 35.4105224609375
6.358642578125 -28.61083984375 12.37646484375
16.835693359375 -46.082763671875 10.6346435546875
-6.744140625 -43.216552734375 9.1807861328125
19.7705078125 -18.4951171875 11.74072265625
-6.4912109375 -12.139404296875 10.812744140625
-21.2294921875 -69.587158203125 -1.573486328125
29.263671875 18.83203125 -1.1871337890625
14.7763671875 -16.5458984375 14.57861328125
21.571533203125 12.432861328125 0.99951171875
-9.377685546875 -48.081787109375 5.177734375
9.198486328125 -28.6884765625 6.4644775390625
-19.8037109375 -40.273681640625 20.2855224609375
-16.75048828125 -48.326171875 11.423583984375
-7.20458984375 -5.021484375 9.4677734375
14.23779296875 -4.285400390625 9.1015625
8.77490234375 -35.97705078125 6.793701171875
1.935791015625 -60.09326171875 1.0711669921875
-0.620849609375 1.437744140625 11.8388671875
-29.825439453125 -16.335693359375 16.908447265625
4.85546875 -37.084228515625 18.1649169921875
-19.091064453125 -52.09375 16.111328125
7.164306640625 -6.265625 9.0843505859375
4.5205078125 -58.746337890625 -0.1962890625
-30.82177734375 -22.47900390625 6.9052734375
-11.932861328125 -28.94677734375 6.7373046875
-30.560302734375 -14.853759765625 14.901611328125
-6.91943359375 -21.75732421875 7.60791015625
-13.970458984375 -51.557861328125 9.294189453125
-16.838623046875 -16.271728515625 13.6163330078125
-9.2783203125 -27.5439453125 5.615234375
-20.0283203125 -62.1875 7.680908203125
2.8681640625 -55.880126953125 1.3382568359375
13.27978515625 -28.859619140625 5.68994140625
-32.1845703125 -42.970947265625 25.112060546875
0.3271484375 -3.4091796875 9.7005615234375
-20.09619140625 -65.047119140625 10.553466796875
-14.512451171875 -18.3251953125 11.5849609375
-10.978515625 -62.74609375 -6.698486328125
-12.87353515625 -39.250244140625 13.16552734375
-32.29248046875 -9.026611328125 10.7423095703125
-30.35546875 -6.852294921875 9.3851318359375
-21.45947265625 -5.149658203125 9.2747802734375
28.84326171875 10.93408203125 4.6451416015625
-25.302001953125 -64.30029296875 33.6038818359375
-21.06298828125 -13.757568359375 12.417236328125
-20.306640625 -63.400634765625 12.0040283203125
-0.817138671875 -33.721435546875 14.929931640625
-17.906982421875 -63.400390625 -2.512939453125
-15.428466796875 -1.94580078125 9.96240234375
-2.641845703125 -52.3603515625 3.0579833984375
-17.46044921875 -52.60498046875 7.3297119140625
-31.41162109375 -41.732177734375 23.210693359375
-6.4609375 -32.4833984375 13.0826416015625
-18.014404296875 -45.3916015625 14.5006103515625
-21.243896484375 -70.006591796875 7.2396240234375
-32.130126953125 -21.021240234375 19.0654296875
-23.627197265625 -34.1025390625 3.4713134765625
40.4755859375 15.431884765625 5.4632568359375
30.487548828125 9.621826171875 7.7591552734375
18.786865234375 -25.512451171875 4.1793212890625
-4.130615234375 -14.364501953125 12.8663330078125
-6.004638671875 -49.15380859375 5.030517578125
-21.912841796875 -12.23681640625 11.0997314453125
-22.580810546875 -72.855712890625 -1.0096435546875
0.3857421875 -58.5048828125 0.3009033203125
-31.51318359375 -12.9462890625 13.400634765625
-34.486328125 -45.016845703125 31.101806640625
-14.139892578125 -5.7060546875 9.3089599609375
-20.909912109375 -67.95703125 3.957763671875
-33.78076171875 -41.3701171875 25.82421875
-24.8603515625 -14.460693359375 13.2486572265625
-33.00244140625 -26.333984375 7.6070556640625
-30.03857421875 -33.789794921875 11.2615966796875
-5.963134765625 -15.3173828125 13.8531494140625
-15.631591796875 -54.216796875 4.6033935546875
27.6435546875 23.890869140625 2.21484375
8.109375 -1.30224609375 10.180419921875
17.99853515625 -14.549560546875 14.1168212890625
-24.855224609375 -37.896484375 3.414306640625
-21.037353515625 -33.415771484375 5.5457763671875
20.301513671875 -28.2138671875 8.6390380859375
-1.682373046875 -0.05859375 10.799560546875
-19.35791015625 -58.441650390625 9.2139892578125
43.73095703125 11.258544921875 5.1837158203125
-6.22412109375 -41.01806640625 11.05615234375
-31.315185546875 -45.760986328125 28.139892578125
10.333251953125 1.212890625 11.4700927734375
-27.309326171875 -64.76904296875 39.5552978515625
30.1005859375 18.2890625 -3.0865478515625
11.04443359375 -16.046142578125 13.59912109375
-19.28466796875 -62.18603515625 4.0816650390625
-12.46728515625 -48.991943359375 8.822509765625
-20.541259765625 -44.453369140625 22.7857666015625
-18.73681640625 -56.2802734375 13.8052978515625
-23.67138671875 -1.93310546875 9.926513671875
-19.60009765625 -49.430419921875 23.92578125
-10.78271484375 -50.275390625 3.44677734375
-18.116943359375 -7.387451171875 8.994873046875
-8.076171875 -61.80712890625 -5.787841796875
-0.04443359375 -10.317138671875 10.121337890625
-20.002685546875 -25.847412109375 5.6131591796875
-7.603759765625 -65.05322265625 -6.084228515625
31.862060546875 5.251220703125 7.126220703125
-20.576904296875 -50.53857421875 33.265380859375
10.721923828125 -2.8583984375 9.340087890625
-13.72314453125 -11.12255859375 10.3165283203125
-0.056396484375 -54.319580078125 3.099853515625
6.68017578125 -2.8115234375 9.407470703125
-10.4677734375 -59.43994140625 -4.003173828125
-31.361083984375 -38.49560546875 20.2252197265625
-4.28759765625 -60.796630859375 -1.9136962890625
35.369140625 10.23095703125 8.67578125
-19.808349609375 -46.419677734375 26.4403076171875
-27.846923828125 -17.593017578125 14.3743896484375
-27.009765625 -0.92431640625 10.8826904296875
-13.6298828125 -52.427734375 6.53564453125
-9.000244140625 -51.451171875 2.2926025390625
1.31982421875 -21.492431640625 8.128662109375
14.012451171875 -18.877197265625 13.196533203125
-4.1171875 -44.74267578125 9.3310546875
2.3662109375 -15.916748046875 13.5322265625
-31.3427734375 -33.34228515625 14.019775390625
-27.998046875 -42.328125 24.1983642578125
-7.125244140625 -59.286376953125 -3.2421875
15.158447265625 -21.5830078125 9.964599609375
-4.50927734375 -10.291259765625 10.1630859375
28.699462890625 21.410888671875 2.814208984375
-0.349609375 -23.019775390625 6.114013671875
9.9140625 -25.4365234375 10.2440185546875
-0.99072265625 -8.290283203125 9.5767822265625
-31.279541015625 -21.590576171875 15.420654296875
-20.61474609375 -71.987060546875 -1.55810546875
-22.046875 -52.284912109375 34.7801513671875
29.85595703125 18.7890625 1.993896484375
-10.86865234375 -8.353271484375 9.62109375
17.31640625 -1.27734375 10.095458984375
-0.790283203125 -36.68994140625 15.5244140625
17.89208984375 -35.042724609375 4.4459228515625
-13.00439453125 -33.341796875 13.5157470703125
-27.641357421875 -45.55517578125 27.949462890625
-19.101806640625 -46.74755859375 28.522216796875
11.944580078125 -35.88427734375 3.85693359375
11.333251953125 -20.6025390625 9.6671142578125
-9.263671875 -13.544677734375 12.6358642578125
-2.5498046875 -17.7275390625 11.8917236328125
-5.68212890625 -58.793701171875 -1.641845703125
-19.895263671875 -49.599365234375 17.4722900390625
39.995849609375 11.314453125 5.2894287109375
-26.116455078125 -56.329345703125 33.01611328125
-22.011962890625 -31.441162109375 4.8851318359375
3.640380859375 -4.419189453125 9.2738037109375
-15.500732421875 -14.885009765625 13.5479736328125
-5.2861328125 -20.230712890625 9.620849609375
14.280517578125 -34.853759765625 4.4075927734375
14.314697265625 -24.891357421875 6.02197265625
-12.4638671875 -21.845458984375 6.5147705078125
-3.703125 -36.052001953125 14.8720703125
1.738525390625 -61.786376953125 -1.7293701171875
-19.116455078125 -53.28564453125 19.2952880859375
-6.9130859375 -37.196044921875 12.71142578125
16.920166015625 -37.25537109375 4.357666015625
-18.005615234375 -49.5419921875 33.643798828125
-17.548583984375 -57.1923828125 4.2969970703125
-9.829833984375 -40.40576171875 10.807861328125
-2.65966796875 -25.747314453125 6.15283203125
-9.472900390625 -10.75048828125 10.08642578125
-10.598876953125 -12.471923828125 11.326416015625
-26.87939453125 -18.039794921875 12.67529296875
-14.529052734375 -33.911865234375 12.51806640625
19.44970703125 -22.7587890625 6.1778564453125
-3.931396484375 -54.93408203125 2.326904296875
-18.72412109375 -48.3525390625 14.6326904296875
-21.164306640625 -40.717529296875 22.0775146484375
43.33154296875 13.27978515625 3.201171875
-28.4755859375 -6.246337890625 9.4239501953125
4.824462890625 -2.534912109375 9.7066650390625
16.156005859375 -27.761962890625 6.2696533203125
3.550537109375 -11.227294921875 10.974609375
-28.06298828125 -56.8173828125 34.6439208984375
-29.126708984375 -21.3720703125 9.189697265625
16.933837890625 0.982666015625 11.2796630859375
-20.37109375 -65.895263671875 5.903076171875
-7.478271484375 -27.803955078125 6.1409912109375
-31.894775390625 -4.91015625 9.3729248046875
2.09912109375 -39.91748046875 15.8804931640625
6.581298828125 0.8076171875 11.162841796875
-26.978515625 -7.7841796875 9.3905029296875
27.2197265625 4.23486328125 11.2083740234375
-6.162109375 -53.816650390625 1.1715087890625
-19.508056640625 -16.9580078125 13.1173095703125
-23.63134765625 -8.308837890625 9.35009765625
-17.1845703125 -55.51904296875 5.0784912109375
-28.612548828125 -26.018798828125 7.1160888671875
-24.08740234375 -27.817138671875 5.761474609375
-26.974609375 -9.83642578125 10.0186767578125
-20.98876953125 -46.402099609375 29.501220703125
-26.97998046875 -14.6181640625 13.6986083984375
-12.498046875 -56.611572265625 0.013916015625
-18.982666015625 -46.965087890625 20.1868896484375
-17.8583984375 -11.473876953125 10.6864013671875
-21.5927734375 -75.635009765625 -1.988525390625
-30.4189453125 -47.326416015625 30.4949951171875
-16.794921875 -30.49072265625 8.173828125
-34.216552734375 -46.30224609375 29.6903076171875
-15.435302734375 -39.361572265625 14.568359375
-27.209716796875 -47.176025390625 29.4266357421875
-22.69384765625 -18.64599609375 10.7581787109375
-26.10498046875 -35.04052734375 4.80517578125
-27.314697265625 -53.41650390625 33.7783203125
-21.803466796875 -71.63525390625 2.0533447265625
15.928955078125 -13.509521484375 12.595947265625
-20.85498046875 -66.33349609375 1.7913818359375
-29.23681640625 -10.035888671875 10.1912841796875
-9.096435546875 -21.006591796875 8.9482421875
7.176025390625 -12.14501953125 11.8350830078125
-27.38720703125 -66.47314453125 36.5423583984375
7.66015625 -35.43896484375 11.46142578125
-33.569580078125 -26.1572265625 11.638671875
-16.181396484375 -42.820556640625 12.94580078125
-27.063720703125 -36.905029296875 11.198974609375
29.86767578125 6.9931640625 9.0208740234375
4.68798828125 -39.23681640625 18.5223388671875
-24.173828125 -51.974365234375 34.443359375
-12.807861328125 -53.298095703125 2.1982421875
-16.393798828125 -61.3046875 -2.1553955078125
-20.909912109375 -69.9921875 5.3758544921875
12.12841796875 -25.460693359375 6.542724609375
-14.72021484375 -55.02734375 2.8414306640625
-20.926513671875 -69.57958984375 0.5450439453125
-22.39013671875 -44.4287109375 27.2000732421875
6.623046875 -32.4951171875 11.66455078125
-23.002197265625 -55.327392578125 33.5748291015625
14.087890625 -1.17041015625 9.9130859375
17.859375 -27.5869140625 7.3201904296875
31.804931640625 17.0654296875 4.7215576171875
-6.377197265625 -31.265380859375 11.69921875
-16.486083984375 -24.34130859375 5.2120361328125
41.27783203125 13.14306640625 4.1383056640625
-17.841064453125 -52.173095703125 9.1715087890625
-16.360595703125 -10.10888671875 10.068359375
9.227294921875 -37.17626953125 8.2017822265625
-15.0234375 -63.305908203125 -5.582763671875
5.32568359375 -20.645751953125 9.7894287109375
16.412109375 -33.87744140625 3.837890625
10.0029296875 -9.462890625 9.2825927734375
15.990234375 -6.295166015625 9.2601318359375
-6.7763671875 -0.5927734375 10.5755615234375
5.091796875 -6.4677734375 8.9976806640625
-9.87060546875 -23.409912109375 5.013916015625
16.591064453125 -20.030029296875 12.3076171875
-21.7236328125 -72.453857421875 4.53466796875
6.099853515625 -22.900634765625 6.8287353515625
-19.063720703125 -63.83935546875 -0.526611328125
-3.179931640625 -2.886962890625 9.740966796875
2.443115234375 -18.6572265625 10.985107421875
-6.630615234375 -35.849365234375 14.1268310546875
-26.27392578125 -36.78662109375 2.6978759765625
-26.85546875 -63.099365234375 33.5103759765625
-9.42529296875 -42.547119140625 8.8414306640625
-19.001953125 -59.282470703125 6.4754638671875
-25.465087890625 -2.0986328125 10.1219482421875
9.469970703125 -30.40625 5.958251953125
3.816650390625 -22.6748046875 6.4156494140625
-18.79833984375 -59.162841796875 15.896728515625
-20.164794921875 -68.340576171875 -5.205078125
-19.8857421875 -63.84619140625 3.6973876953125
13.819091796875 -22.240234375 7.8369140625
38.617919921875 8.56103515625 6.24072265625
2.4462890625 -12.52978515625 12.3292236328125
11.38134765625 -30.744873046875 4.9622802734375
37.8828125 11.9931640625 5.4066162109375
17.33251953125 -11.748046875 10.9053955078125
-6.760009765625 -61.7421875 -4.4290771484375
-17.668701171875 -28.1064453125 6.9200439453125
18.4794921875 -25.87353515625 6.036865234375
-18.981201171875 -57.05712890625 18.3017578125
-25.29541015625 -6.80322265625 9.10302734375
-2.494384765625 -51.898193359375 4.9271240234375
-5.879150390625 -44.85791015625 8.842529296875
-0.445068359375 -44.072509765625 10.553955078125
-29.30126953125 -39.545166015625 22.1405029296875
-16.39892578125 -8.4697265625 9.3385009765625
-15.973876953125 -49.98046875 10.1263427734375
-19.1044921875 -41.909912109375 20.4981689453125
12.350830078125 -18.634765625 12.221435546875
-23.89990234375 -48.624267578125 31.8165283203125
15.171630859375 -37.37939453125 4.015380859375
9.754638671875 -34.23095703125 6.095458984375
-11.89990234375 -58.245849609375 -1.5244140625
-32.347412109375 -27.7646484375 18.77392578125
-25.19384765625 -58.40185546875 32.7220458984375
-2.584716796875 -31.324462890625 13.8756103515625
8.421630859375 -23.5986328125 6.4521484375
-19.015625 -55.937744140625 10.055908203125
-5.072998046875 -64.13134765625 -4.25048828125
33.486572265625 7.21923828125 7.2913818359375
-29.837890625 -25.772705078125 5.81103515625
-28.196044921875 -37.16357421875 6.6844482421875
-29.677490234375 -41.214111328125 22.9896240234375
-27.9580078125 -4.493408203125 9.68212890625
31.551513671875 16.76025390625 1.9989013671875
16.3828125 -24.649658203125 7.6483154296875
-5.899658203125 -47.008056640625 7.0010986328125
-26.612548828125 -59.720703125 33.469482421875
17.63671875 -6.189208984375 8.6177978515625
-16.35205078125 -17.617919921875 11.82861328125
-13.43798828125 -60.37841796875 -3.473876953125
34.396484375 15.4716796875 3.711181640625
-19.89990234375 -62.133544921875 13.67041015625
-22.59716796875 -74.89111328125 1.9722900390625
-3.001220703125 -50.21337890625 6.647216796875
1.415283203125 -6.7734375 9.5447998046875
-12.802001953125 0.143310546875 11.2908935546875
-12.64990234375 -8.92822265625 9.865478515625
-32.93310546875 -25.90380859375 15.35693359375
-25.983154296875 -61.386962890625 32.68359375
30.778564453125 9.923095703125 5.85693359375
-24.085205078125 -9.983642578125 10.05322265625
-7.35888671875 -29.748046875 9.3980712890625
-8.029296875 -24.1220703125 4.76220703125
-22.60498046875 -25.27978515625 4.4786376953125
-33.77392578125 -30.145263671875 15.0601806640625
-2.830322265625 -63.6357421875 -4.49658203125
-24.843994140625 -61.773193359375 31.2335205078125
-21.963623046875 -56.9755859375 33.5318603515625
28.1533203125 22.0703125 1.281494140625
8.67041015625 -32.13037109375 6.9427490234375
-20.484619140625 -68.34765625 7.9058837890625
-26.064453125 -47.904541015625 31.441650390625
-9.546142578125 -45.10498046875 7.591796875
-12.783203125 -17.24169921875 12.965576171875
-29.189453125 -31.0615234375 6.3992919921875
-30.225830078125 -44.4775390625 26.8099365234375
6.809326171875 -30.458984375 8.9222412109375
-24.804443359375 -12.86865234375 11.8369140625
-7.62744140625 -39.8310546875 11.2769775390625
18.145263671875 -19.950927734375 11.5205078125
-9.749755859375 -61.470947265625 -6.1400146484375
-10.57275390625 -6.63037109375 9.45654296875
-10.43896484375 -28.79296875 7.6204833984375
7.2412109375 -15.955078125 13.2362060546875
-32.422607421875 -23.46240234375 20.8382568359375
16.05859375 -8.863525390625 9.9625244140625
34.365966796875 14.794677734375 5.95751953125
-26.254638671875 -26.7138671875 6.2193603515625
14.043701171875 -38.71533203125 4.526611328125
-11.20654296875 -19.39013671875 10.4794921875
-31.792724609375 -23.0498046875 12.64599609375
-10.236083984375 -38.25341796875 12.78466796875
-23.000732421875 -4.038818359375 9.2138671875
-4.18212890625 -41.710205078125 11.9305419921875
11.504638671875 -38.0478515625 3.788818359375
-13.09375 -36.7099609375 13.86279296875
-25.374267578125 -24.6103515625 5.4976806640625
-30.3193359375 -30.125244140625 10.3170166015625
7.379638671875 -33.853515625 8.745361328125
-27.64208984375 -61.005615234375 35.822021484375
3.72265625 -21.26220703125 8.7862548828125
-18.67578125 -21.873779296875 7.4490966796875
-14.940673828125 -44.8818359375 11.5684814453125
-20.18212890625 -8.818359375 9.4501953125
-14.70068359375 -48.229248046875 10.829833984375
-19.015380859375 -51.32275390625 12.9959716796875
-12.127197265625 -43.486572265625 10.73779296875
-20.70556640625 -43.148681640625 24.3382568359375
4.465087890625 -16.216064453125 12.8251953125
0.887451171875 -64.722412109375 -3.323974609375
-16.759765625 -46.21435546875 12.4415283203125
4.89306640625 0.175048828125 10.8507080078125
-12.759765625 -51.623779296875 3.2359619140625
-30.55810546875 -8.523681640625 9.6861572265625
35.16796875 7.7158203125 5.86962890625
-18.1123046875 -31.87451171875 7.4317626953125
4.157470703125 -34.24755859375 14.8343505859375
-34.66845703125 -48.8037109375 31.191162109375
2.133544921875 -9.66357421875 10.45166015625
-8.635986328125 -53.953369140625 0.2811279296875
10.91748046875 -6.76416015625 9.331787109375
9.08056640625 -19.888427734375 10.186279296875
-24.650146484375 -21.9677734375 7.023681640625
-19.018798828125 -52.79150390625 22.8983154296875
-21.25146484375 -53.956787109375 34.2869873046875
0.20751953125 -32.75390625 15.8787841796875
2.06396484375 -52.955322265625 3.45263671875
-10.392578125 -15.2705078125 13.879150390625
-25.302001953125 -17.518310546875 12.156005859375
8.8310546875 -13.241943359375 12.7542724609375
-33.084716796875 -28.8369140625 7.18994140625
-19.590576171875 -52.08544921875 17.748779296875
2.151123046875 -20.917236328125 9.5142822265625
-18.568603515625 -5.718994140625 9.21240234375
3.671875 -37.63330078125 17.0108642578125
-32.110107421875 -23.131103515625 18.8662109375
-20.450927734375 -39.77978515625 23.440185546875
-7.470458984375 -48.834228515625 4.250732421875
-11.197509765625 -0.60791015625 10.6153564453125
-18.203125 -19.57080078125 10.1273193359375
-9.406982421875 -16.529052734375 12.9393310546875
17.563720703125 -9.61181640625 9.832763671875
-18.885986328125 -49.21875 31.2332763671875
-25.860107421875 -20.213134765625 10.063232421875
-20.31201171875 -63.838134765625 7.8421630859375
-11.850830078125 -54.51806640625 0.4853515625
-13.1650390625 -49.513427734375 5.9766845703125
-28.727294921875 -53.46923828125 34.683837890625
7.20263671875 -21.419677734375 8.695556640625
-25.187255859375 -65.976806640625 34.5008544921875
-32.167724609375 -7.374755859375 10.3018798828125
-4.737060546875 -51.635986328125 2.8944091796875
-13.501708984375 -59.139404296875 -1.8858642578125
5.45849609375 -13.517822265625 13.02587890625
3.47119140625 1.4287109375 11.92626953125
-15.96923828125 -3.725341796875 9.700439453125
-21.46435546875 -22.6103515625 5.8837890625
17.303466796875 -3.11181640625 9.1376953125
-19.31689453125 -47.687744140625 25.465576171875
-27.21240234375 -63.099853515625 35.492431640625
-12.74560546875 -62.81005859375 -5.6953125
-24.568603515625 -44.96826171875 27.5330810546875
-3.522705078125 -22.8623046875 5.807861328125
-7.553955078125 -8.487060546875 9.391357421875
-15.26318359375 -57.966796875 0.0528564453125
18.68017578125 -17.2216796875 12.556884765625
33.860107421875 10.91064453125 8.0882568359375
-34.028076171875 -29.52392578125 11.2833251953125
35.48486328125 6.510986328125 7.0294189453125
-24.3681640625 -30.779052734375 4.9761962890625
-19.452880859375 -14.01953125 12.674560546875
-27.691650390625 -20.677001953125 11.801025390625
-18.317626953125 -58.866455078125 4.4415283203125
2.928955078125 -24.066162109375 5.68310546875
-20.178466796875 -64.68017578125 2.3070068359375
-21.050537109375 -27.987548828125 6.06103515625
-32.549560546875 -26.115478515625 18.5904541015625
-18.864501953125 -49.33984375 26.0924072265625
-23.26171875 -14.723388671875 13.5067138671875
-2.286865234375 -48.50439453125 6.3614501953125
-16.4951171875 -60.47998046875 -0.656982421875
24.67333984375 11.2998046875 3.974853515625
-14.063232421875 -22.41259765625 6.221435546875
11.8349609375 -4.056884765625 9.3812255859375
10.80322265625 -11.871337890625 11.1448974609375
-7.26806640625 -51.352294921875 2.7596435546875
-23.850341796875 -76.113525390625 -0.3135986328125
8.43798828125 -5.300537109375 8.76513671875
-27.97119140625 -13.136474609375 12.102294921875
7.80322265625 -17.26171875 12.404052734375
6.919189453125 -28.643310546875 10.8516845703125
-19.360107421875 -23.728515625 5.2841796875
-1.12353515625 -14.912353515625 13.65869140625
-23.514404296875 -36.985595703125 3.37744140625
38.05029296875 6.9013671875 8.431640625
-19.830810546875 -55.993408203125 35.7611083984375
8.459228515625 -38.06201171875 20.636962890625
10.80517578125 -17.452392578125 12.3006591796875
-34.119384765625 -43.091552734375 24.99462890625
-27.77880859375 -43.538818359375 25.324951171875
-22.311279296875 -73.261962890625 1.0174560546875
-19.156005859375 -44.874267578125 20.0997314453125
-20.361083984375 -66.322265625 -0.5738525390625
7.945556640625 -28.721435546875 7.6707763671875
4.249267578125 -35.864013671875 17.2877197265625
32.078125 9.3427734375 7.724365234375
-16.972900390625 -63.78369140625 -4.938232421875
26.67724609375 10.838134765625 6.135498046875
-23.6865234375 -59.178955078125 32.76806640625
-12.54638671875 -4.24365234375 9.660400390625
-28.57373046875 -1.53271484375 10.5814208984375
29.8955078125 3.92822265625 9.6346435546875
-19.57275390625 -51.611572265625 20.35302734375
-30.5478515625 -43.7001953125 25.4378662109375
15.10595703125 -33.488037109375 4.9993896484375
-30.376708984375 -11.372802734375 10.54345703125
11.92041015625 -23.763671875 6.35400390625
-10.60205078125 -17.993408203125 11.623291015625
-9.40869140625 -30.637451171875 11.613037109375
4.562255859375 -17.987548828125 12.020263671875
-14.51611328125 -7.4423828125 9.331298828125
-27.446044921875 -28.866943359375 6.38818359375
33.947021484375 12.737060546875 8.3392333984375
-10.969482421875 -30.41064453125 9.83935546875
-9.0703125 -2.167724609375 9.911376953125
-14.06640625 -12.362060546875 11.2652587890625
-5.177490234375 -17.9638671875 11.6334228515625
-10.848388671875 -46.01025390625 7.7628173828125
-7.6982421875 -13.82666015625 12.752685546875
-33.987060546875 -28.179931640625 13.1953125
19.26220703125 -20.52001953125 7.636474609375
9.12451171875 -37.09912109375 10.4393310546875
-11.3984375 -47.758544921875 5.87109375
-11.93603515625 -40.967529296875 10.48291015625
14.893798828125 -18.283935546875 14.622314453125
13.427978515625 -11.63134765625 11.259765625
-23.234375 -11.55419921875 10.540283203125
-18.555419921875 -54.498779296875 20.1539306640625
-13.394775390625 -26.609619140625 5.3232421875
9.730712890625 -24.207763671875 9.25634765625
-28.33740234375 -36.529541015625 12.3236083984375
-15.59130859375 -27.5576171875 6.4149169921875
-8.659423828125 -46.33837890625 6.5289306640625
-5.054931640625 -32.78173828125 13.751953125
8.03564453125 -8.3251953125 9.4876708984375
0.143798828125 -18.82763671875 11.3048095703125
-5.343017578125 -48.254150390625 6.197021484375
-3.545654296875 -57.019775390625 0.39892578125
14.647216796875 -27.90869140625 5.51171875
-23.10302734375 -21.30810546875 8.9493408203125
13.314697265625 -6.997314453125 9.0526123046875
-0.404052734375 -20.220458984375 10.294189453125
-4.67724609375 -55.819580078125 1.03759765625
11.45703125 -1.43896484375 9.8016357421875
-2.194580078125 -20.395263671875 9.7979736328125
-27.30712890625 -63.93212890625 37.8770751953125
-19.272705078125 -41.24755859375 27.9454345703125
8.839599609375 0.1181640625 10.642822265625
35.388671875 13.777099609375 8.15869140625
-9.1103515625 0.5595703125 11.73681640625
-34.351806640625 -43.00537109375 28.068603515625
-26.604248046875 -12.232177734375 11.2552490234375
10.06689453125 -25.96875 8.0465087890625
-32.4677734375 -31.849853515625 12.1572265625
-18.095703125 -1.322509765625 10.44873046875
-6.57421875 -56.758056640625 -0.5509033203125
-18.9267578125 -48.85888671875 28.6080322265625
12.96533203125 1.48876953125 11.586181640625
14.282470703125 0.707275390625 11.1640625
-25.3916015625 -34.21630859375 3.67333984375
-9.33447265625 -29.50830078125 8.5799560546875
3.971923828125 -57.509765625 0.6019287109375
-29.247802734375 -3.330810546875 10.041259765625
14.094970703125 -13.645263671875 12.941650390625
29.85595703125 18.626708984375 0.4327392578125
-19.045166015625 -57.62841796875 7.3798828125
-18.060546875 -56.357177734375 6.7493896484375
-22.317626953125 -33.56787109375 4.1484375
-0.5595703125 -21.67919921875 7.4959716796875
-20.957763671875 -68.771484375 2.179443359375
1.501220703125 -1.527099609375 10.13330078125
-2.629638671875 -62.386962890625 -3.2908935546875
-1.1611328125 -38.02294921875 14.7947998046875
2.27880859375 -56.304931640625 2.723388671875
-8.631103515625 -56.866943359375 -1.5528564453125
30.603271484375 17.166015625 -1.6658935546875
-15.823974609375 -31.605712890625 9.7164306640625
-6.920166015625 -22.70263671875 5.90625
9.23193359375 -2.12109375 9.4698486328125
-1.020263671875 -41.08203125 12.3084716796875
-25.387939453125 -52.8955078125 33.8692626953125
-2.078369140625 -23.605224609375 5.6771240234375
0.923828125 -57.220947265625 1.2694091796875
-30.526611328125 -18.541015625 16.259033203125
-17.533935546875 -59.274169921875 1.704345703125
6.476806640625 -9.723876953125 10.120849609375
-1.14794921875 -65.2138671875 -4.27294921875
2.599365234375 -7.944580078125 9.72998046875
12.573486328125 -31.939208984375 5.1422119140625
-33.30810546875 -38.59423828125 20.94873046875
-18.438232421875 -26.553466796875 5.76220703125
-21.97314453125 -65.01611328125 33.4898681640625
-14.37548828125 -21.0048828125 9.09326171875
12.073974609375 -28.060546875 6.251953125
7.996826171875 -11.275390625 10.79052734375
-14.060302734375 -24.61474609375 4.3973388671875
9.445556640625 -18.034912109375 11.7177734375
1.723876953125 -35.201171875 16.504150390625
0.462646484375 -45.298095703125 10.3094482421875
-2.83349609375 -15.08349609375 13.296875
-27.6162109375 -61.41015625 37.5965576171875
-21.489013671875 -0.815185546875 10.4862060546875
4.572998046875 -7.76513671875 9.6734619140625
-31.9638671875 -20.24853515625 17.740234375
0.483154296875 -53.021484375 4.078125
-19.81298828125 -61.345947265625 8.9554443359375
-33.75439453125 -44.27880859375 26.4066162109375
-32.60400390625 -10.363525390625 10.0411376953125
-9.72900390625 -60.238037109375 -5.21630859375
-17.707763671875 -12.662841796875 11.6544189453125
-4.760498046875 -6.9501953125 9.237548828125
-31.64794921875 -28.265869140625 8.1492919921875
-18.845458984375 -46.690185546875 14.5908203125
-18.894775390625 -61.36767578125 2.40625
-0.248046875 -39.25439453125 14.5498046875
-11.98828125 -60.32421875 -4.2239990234375
-5.987548828125 -8.7607421875 9.5028076171875
-5.58251953125 -1.380126953125 10.01806640625
-4.4833984375 -38.286865234375 13.3753662109375
-30.6259765625 -33.764892578125 12.73193359375
-4.857421875 -12.78173828125 11.8134765625
-16.900390625 -53.846435546875 5.7244873046875
-20.92578125 -44.79248046875 26.3399658203125
-13.935546875 -45.68408203125 10.7388916015625
-5.756103515625 -5.749755859375 9.3402099609375
8.206298828125 -35.097900390625 8.3548583984375
14.447998046875 -6.0 9.2923583984375
-0.7265625 -46.244140625 9.0985107421875
-10.62841796875 -31.479736328125 13.59130859375
-7.741455078125 -10.991455078125 10.48486328125
-18.67138671875 -66.27001953125 -4.07177734375
-33.4326171875 -27.058349609375 10.103759765625
-30.625 -0.845458984375 11.223388671875
18.57568359375 -18.654296875 10.68994140625
-27.22998046875 -23.968505859375 4.7996826171875
28.81396484375 19.64794921875 2.8614501953125
-15.312744140625 -52.0732421875 7.7818603515625
-19.95166015625 -20.1728515625 9.5452880859375
-2.9443359375 -13.0517578125 11.663818359375
-10.109619140625 -48.985107421875 3.881103515625
0.046142578125 -25.52099609375 6.53564453125
-17.388671875 -42.378662109375 15.8880615234375
-27.806396484375 -17.418701171875 17.004638671875
-15.46728515625 -20.20849609375 9.7843017578125
-27.563232421875 -34.317626953125 4.796142578125
-9.4541015625 -33.510986328125 13.7279052734375
12.671630859375 -34.536865234375 4.303466796875
-1.230224609375 -55.228759765625 1.9234619140625
-4.981689453125 -23.40234375 5.7955322265625
-20.733642578125 -68.35986328125 -2.999755859375
3.0810546875 -59.21630859375 0.6141357421875
-19.103759765625 -51.29443359375 14.5048828125
-31.064697265625 -14.302001953125 17.458740234375
-3.14697265625 -53.623779296875 3.716064453125
-11.93115234375 -45.193359375 9.2728271484375
-32.4130859375 -17.32275390625 18.1063232421875
8.110595703125 -27.324951171875 9.643798828125
-19.667236328125 -55.45068359375 16.429443359375
15.315673828125 -30.907958984375 4.73583984375
-12.9716796875 -50.25341796875 9.4796142578125
-15.788330078125 -22.5791015625 5.7440185546875
-5.619384765625 -52.495361328125 3.7647705078125
-16.169921875 -12.94091796875 11.7685546875
-23.560546875 -19.607177734375 9.9847412109375
-9.59716796875 -52.744873046875 1.1915283203125
-1.076416015625 -58.992919921875 -0.51220703125
7.199462890625 -14.60009765625 14.093994140625
-12.82861328125 -13.447998046875 12.427001953125
-12.75439453125 -19.1015625 10.3671875
-28.3740234375 -63.541259765625 39.490966796875
0.24951171875 -47.480712890625 8.16552734375
-5.45166015625 -21.1650390625 8.453857421875
-30.431640625 -13.735107421875 12.716064453125
-19.163818359375 -53.4326171875 11.698974609375
-2.34814453125 -33.828369140625 14.8560791015625
-2.54443359375 -59.48779296875 -2.1260986328125
-14.373046875 -31.885986328125 10.5113525390625
-20.0048828125 -46.111328125 22.7091064453125
-19.090087890625 -45.38671875 16.80126953125
-18.056396484375 0.478271484375 11.52099609375
-23.588134765625 -26.56787109375 5.11083984375
11.689208984375 -14.662353515625 13.9212646484375
-30.096923828125 -31.044677734375 8.11279296875
32.162841796875 16.33837890625 5.9761962890625
-18.928466796875 -2.74365234375 9.715576171875
32.6513671875 16.151611328125 3.5565185546875
34.811279296875 4.311279296875 8.24609375
-28.914306640625 -35.469482421875 8.9085693359375
-8.197021484375 -58.50439453125 -2.5635986328125
31.7001953125 16.194091796875 0.629150390625
-13.552001953125 -52.45361328125 5.0484619140625
11.460693359375 0.390380859375 10.75634765625
-14.549072265625 -59.168701171875 -0.458251953125
-18.297119140625 -55.109619140625 8.0980224609375
-26.89501953125 -22.18896484375 6.3909912109375
-24.5439453125 -46.6123046875 29.129150390625
-27.186767578125 -36.744873046875 5.204345703125
15.814453125 -38.646484375 3.3402099609375
-18.599365234375 -41.9619140625 18.0084228515625
35.135498046875 12.20849609375 6.1221923828125
-14.45361328125 -28.6796875 7.411865234375
-27.150390625 -31.80810546875 4.954833984375
-31.332763671875 -3.571533203125 9.6759033203125
-22.586181640625 -28.113525390625 5.864501953125
-17.490478515625 -65.425048828125 -5.9561767578125
1.768310546875 -13.803955078125 13.5631103515625
18.363525390625 -16.298583984375 13.741455078125
14.953125 -26.565185546875 6.0875244140625
-11.50830078125 -53.253173828125 1.169677734375
-33.267822265625 -29.568115234375 9.2880859375
-29.742919921875 -28.864501953125 9.80615234375
4.919677734375 -35.473876953125 15.1466064453125
-6.38720703125 -41.909912109375 9.8917236328125
-19.771728515625 -61.740966796875 10.62939453125
-28.481201171875 -28.451904296875 7.921630859375
-14.5458984375 -61.235595703125 -3.023681640625
-26.06689453125 -3.880615234375 9.7216796875
-19.22412109375 -61.681640625 14.8955078125
-32.05029296875 -23.246337890625 9.6416015625
-8.091552734375 -42.44775390625 9.448486328125
-19.63037109375 -29.556640625 5.885498046875
-32.713623046875 -40.99755859375 22.63037109375
-17.865234375 -49.99658203125 32.108154296875
-2.37353515625 -5.435302734375 9.204833984375
3.86083984375 -18.981689453125 10.81103515625
28.791259765625 5.6025390625 9.6923828125
-16.47412109375 -58.006103515625 1.2109375
30.4033203125 18.65087890625 4.341552734375
-31.703369140625 -23.79443359375 6.8638916015625
-14.668212890625 -42.33203125 12.28271484375
-22.9208984375 -22.7314453125 5.825927734375
33.30029296875 5.37939453125 6.894287109375
-9.766845703125 -41.69140625 9.97705078125
31.875 3.977294921875 7.8411865234375
-32.44970703125 -34.22998046875 14.4619140625
-3.21630859375 -0.219482421875 10.7320556640625
-17.2294921875 -50.474853515625 9.5687255859375
1.544189453125 -17.372802734375 12.0765380859375
-23.19091796875 -35.697998046875 4.06396484375
18.083740234375 -20.928466796875 9.759033203125
-18.898193359375 -62.60498046875 0.673828125
-2.563720703125 -1.506103515625 10.0533447265625
6.217529296875 -37.408447265625 18.7081298828125
-32.185546875 -10.62548828125 11.6029052734375
-5.10986328125 -11.59521484375 10.689453125
8.887451171875 -25.86572265625 11.796630859375
-25.259521484375 -32.0859375 4.9373779296875
0.83984375 -23.80908203125 5.5579833984375
7.9775390625 -26.751953125 12.6942138671875
-20.571533203125 -11.70068359375 10.9786376953125
31.370361328125 18.835205078125 -3.5184326171875
-18.862060546875 -59.215576171875 11.6370849609375
-27.669677734375 -21.29736328125 8.4381103515625
-32.031982421875 -1.911865234375 10.289306640625
-24.81494140625 -42.904296875 26.4510498046875
1.732421875 -38.213623046875 16.25
-1.388916015625 -42.401123046875 11.5877685546875
3.62939453125 -60.4501953125 -0.18310546875
-0.134521484375 -16.181884765625 12.7108154296875
6.562255859375 -31.712646484375 10.02685546875
-25.3388671875 -5.115234375 9.2000732421875
5.425537109375 -32.053955078125 13.822021484375
-19.63330078125 -66.301025390625 -2.5260009765625
-9.986083984375 -36.100341796875 13.41015625
11.10888671875 -39.293212890625 5.4349365234375
-19.436279296875 -57.957275390625 14.9078369140625
-33.2060546875 -40.548583984375 24.3726806640625
-25.864501953125 -65.997314453125 35.8896484375
-4.0859375 -25.851806640625 6.2347412109375
-28.819091796875 -58.9375 36.52978515625
0.1298828125 -4.758544921875 9.2659912109375
-27.065185546875 -38.380859375 5.248046875
40.4541015625 8.47216796875 8.0963134765625
-21.958740234375 -6.479248046875 9.1102294921875
-28.857421875 -14.72509765625 14.572265625
7.34814453125 -22.349853515625 7.251953125
-30.58642578125 -31.33642578125 11.385498046875
-31.859619140625 -22.86279296875 15.93408203125
-12.499755859375 -2.510986328125 9.9013671875
-3.373046875 -4.232666015625 9.3077392578125
14.857666015625 -23.938232421875 6.9344482421875
30.103271484375 8.25390625 7.8831787109375
4.043701171875 -15.320556640625 13.8489990234375
-16.068115234375 0.69140625 11.6114501953125
-15.4990234375 -0.602294921875 10.797119140625
-27.5634765625 -15.89697265625 14.2144775390625
-4.00146484375 -64.912841796875 -4.9285888671875
-10.123291015625 -55.26513671875 0.09521484375
9.325927734375 -10.74072265625 10.5201416015625
0.014892578125 -63.512939453125 -2.2769775390625
27.202392578125 6.025146484375 11.3118896484375
-3.00830078125 -21.872802734375 7.5352783203125
7.528564453125 -35.392333984375 12.864990234375
-5.0869140625 -30.76123046875 11.4345703125
-20.446044921875 -64.66845703125 6.7108154296875
31.009521484375 15.33349609375 -2.7352294921875
-28.756103515625 -29.3720703125 6.512939453125
-1.249755859375 -62.73974609375 -2.6712646484375
-20.995849609375 -42.785888671875 23.008056640625
-20.878173828125 -3.797607421875 9.5806884765625
-13.058349609375 -23.220458984375 5.3931884765625
-1.521240234375 -56.51025390625 0.5572509765625
-28.970947265625 -20.295654296875 12.9306640625
-21.0234375 0.16015625 11.3861083984375
4.509765625 -1.228759765625 10.1219482421875
18.884521484375 -13.709716796875 12.3446044921875
-16.988037109375 -25.644287109375 5.052490234375
-17.73193359375 -23.579833984375 5.619384765625
17.225341796875 -32.044677734375 5.2222900390625
-21.336669921875 -18.962646484375 10.5880126953125
2.79833984375 -21.85205078125 7.259033203125
37.156982421875 8.80615234375 5.706787109375
-1.6640625 -47.181396484375 7.4910888671875
14.4609375 -32.215087890625 5.6771240234375
34.869384765625 8.685791015625 7.061279296875
-24.4482421875 -63.014892578125 31.8172607421875
18.87109375 -5.54931640625 9.761962890625
30.44921875 3.224365234375 11.196533203125
29.215576171875 7.94873046875 10.48974609375
7.13671875 -4.5234375 9.184326171875
5.52783203125 -12.3056640625 11.6202392578125
-2.269775390625 -37.214111328125 15.49658203125
29.58935546875 10.2978515625 6.482177734375
-19.056884765625 -56.31640625 12.4183349609375
-19.709716796875 -63.85693359375 0.7760009765625
19.042236328125 -21.8662109375 7.1990966796875
13.768798828125 -15.7998046875 13.8680419921875
42.088134765625 16.06494140625 5.4757080078125
35.506591796875 10.5703125 7.3326416015625
-22.023681640625 -70.42578125 0.9901123046875
9.729248046875 -27.74755859375 7.3729248046875
28.859619140625 20.142822265625 -0.91552734375
16.441650390625 -29.9580078125 4.9664306640625
-19.889404296875 -43.638427734375 20.629150390625
11.98779296875 -13.83349609375 12.8458251953125
28.623779296875 24.360107421875 1.348876953125
-14.146240234375 -39.741943359375 13.426513671875
-19.33447265625 -48.768310546875 16.028076171875
-30.057861328125 -35.00439453125 11.934326171875
9.72900390625 -21.697021484375 7.8624267578125
-19.328369140625 -50.841796875 16.6611328125
-26.2587890625 -11.0078125 10.3179931640625
10.896728515625 -13.1123046875 11.9947509765625
-17.899169921875 -48.35546875 12.743896484375
10.551513671875 -8.095703125 9.452392578125
40.78076171875 14.073974609375 5.036865234375
-28.192138671875 -36.19677734375 10.1102294921875
-4.446533203125 -49.46728515625 5.9541015625
8.1591796875 -24.204345703125 11.5843505859375
-8.831787109375 -35.1611328125 13.7943115234375
17.674560546875 -24.965576171875 8.027587890625
3.091796875 -33.495849609375 13.988037109375
-29.671630859375 -56.024658203125 36.16748046875
43.454345703125 12.025390625 4.067626953125
-29.95556640625 -22.881591796875 5.9068603515625
-10.345703125 -3.62939453125 9.2945556640625
-19.39794921875 -17.894775390625 11.5513916015625
3.424072265625 -13.261962890625 13.029052734375
-30.029052734375 -33.52392578125 7.969970703125
-13.674560546875 -44.397705078125 11.306884765625
-2.56787109375 -11.3583984375 10.80126953125
18.788818359375 -12.0703125 10.7283935546875
-5.087158203125 -40.4873046875 12.1741943359375
-15.5859375 -43.67041015625 11.408203125
-24.381591796875 -54.967041015625 33.7237548828125
-18.857666015625 -54.625 13.7633056640625
-5.017333984375 -35.7001953125 15.185302734375
-11.284912109375 -35.751220703125 13.7220458984375
-17.27294921875 -29.303955078125 7.4764404296875
16.4541015625 -16.783935546875 15.565673828125
-15.650390625 -5.003173828125 9.2939453125
-31.92529296875 -6.6064453125 9.1370849609375
-20.44091796875 -65.476806640625 9.0904541015625
-9.766357421875 -26.3544921875 4.9171142578125
-27.4326171875 -64.7880859375 36.6553955078125
-11.6494140625 -38.34130859375 12.8577880859375
-29.263671875 -24.515869140625 5.301025390625
-24.373046875 -22.852294921875 5.768310546875
-21.6953125 -70.80517578125 -4.0771484375
-23.671875 -0.579833984375 10.8958740234375
9.79345703125 -36.79736328125 5.9490966796875
12.435791015625 -15.94287109375 13.3779296875
0.6162109375 -21.04443359375 9.4490966796875
-21.495361328125 -71.630615234375 3.391845703125
-12.77099609375 -20.432861328125 9.3935546875
12.426513671875 -10.89599609375 10.557373046875
-22.89990234375 -57.454345703125 32.64892578125
13.85546875 -9.08056640625 9.7275390625
-10.377197265625 -9.53515625 10.330810546875
-32.7412109375 -46.239501953125 28.9385986328125
16.266357421875 -12.231689453125 11.61767578125
-21.28564453125 -16.669677734375 13.404541015625
10.177734375 -37.694091796875 4.1109619140625
17.71923828125 -20.206298828125 7.6707763671875
-32.10400390625 -9.1123046875 9.389404296875
-19.512451171875 -57.2021484375 9.8922119140625
-28.49560546875 -46.818115234375 29.72607421875
15.111328125 -11.082275390625 10.718505859375
17.524658203125 -22.287841796875 9.588134765625
-7.23486328125 -15.458740234375 13.3720703125
-19.46044921875 -53.779541015625 16.1280517578125
-21.156494140625 -71.218994140625 4.827392578125
-2.770751953125 -39.898681640625 12.7938232421875
-33.67529296875 -47.50634765625 30.5623779296875
