-44.045166015625 -31.2080078125 16.54248046875
-29.247802734375 -26.319091796875 3.9869384765625
-1.786865234375 -34.884765625 4.6165771484375
-41.004150390625 5.85009765625 7.6588134765625
7.518310546875 9.362548828125 8.8973388671875
-11.096435546875 -49.441650390625 -0.0478515625
-24.103759765625 -0.933349609375 3.9520263671875
-36.148681640625 -33.79248046875 14.7757568359375
-40.42138671875 -31.09912109375 0.889404296875
-27.819580078125 -38.03125 22.0797119140625
4.872802734375 -26.463134765625 -0.190185546875
-3.81201171875 5.57861328125 6.4517822265625
17.20947265625 16.406494140625 5.7147216796875
-40.591064453125 -6.984619140625 5.4622802734375
-21.855712890625 -27.833251953125 6.527587890625
-27.36669921875 -8.011474609375 6.1478271484375
-20.563720703125 -7.5810546875 5.462158203125
-30.934326171875 -35.9521484375 16.2633056640625
-0.704345703125 -24.612060546875 0.57470703125
-12.143310546875 5.67529296875 5.9869384765625
28.61474609375 14.58837890625 -0.626953125
-46.469482421875 -25.8720703125 6.394287109375
-36.59033203125 2.730712890625 5.50634765625
-11.648681640625 -38.503173828125 6.8721923828125
-42.759033203125 -31.05615234375 10.864013671875
-35.4521484375 -57.07568359375 26.7774658203125
-17.898681640625 -13.556884765625 6.3682861328125
-5.62353515625 -26.682861328125 5.09521484375
-18.297607421875 -18.776123046875 3.3201904296875
-5.802490234375 -2.920166015625 3.2615966796875
23.756103515625 16.202392578125 2.2679443359375
-15.193115234375 -54.05517578125 -1.221435546875
-29.373779296875 -48.6708984375 14.3994140625
32.792236328125 16.266845703125 -0.806396484375
-31.26953125 -42.404541015625 19.3570556640625
-34.3759765625 -2.946044921875 4.2694091796875
-45.374267578125 -21.6328125 14.7293701171875
17.522216796875 12.755615234375 3.86669921875
-28.8056640625 -1.291015625 4.1099853515625
-23.650146484375 -30.209228515625 9.69873046875
-28.871337890625 -45.255126953125 6.9039306640625
-36.435791015625 -14.63037109375 8.1241455078125
3.303955078125 -9.16455078125 6.805908203125
-31.766357421875 -49.005126953125 31.8046875
-29.322509765625 -13.87060546875 6.6241455078125
-3.98291015625 -13.0107421875 7.1778564453125
-24.256103515625 -35.15185546875 10.08203125
-20.674560546875 -3.15625 3.9285888671875
-43.593994140625 -5.40283203125 7.5078125
-43.974609375 -14.712158203125 13.491455078125
-39.0810546875 -47.1484375 31.5550537109375
9.0908203125 -34.8037109375 -3.081298828125
-41.38720703125 0.71142578125 9.9144287109375
-17.83447265625 -35.394287109375 8.0003662109375
-41.697021484375 -34.114013671875 13.297607421875
7.992919921875 -11.46337890625 6.105224609375
17.52490234375 20.893798828125 -4.7216796875
-35.86376953125 -61.143310546875 29.10107421875
-42.824462890625 -0.34619140625 4.36376953125
-26.263671875 -19.386474609375 1.417724609375
-44.57958984375 -21.6357421875 20.0791015625
-5.55859375 8.609619140625 8.4517822265625
-25.13134765625 -14.495361328125 5.64404296875
-28.365478515625 -52.362548828125 12.7987060546875
3.39599609375 9.00537109375 8.8994140625
-26.86083984375 -41.768310546875 11.0299072265625
-23.486572265625 3.86572265625 5.848876953125
-36.982421875 -31.845947265625 -1.0982666015625
-35.16845703125 -28.45654296875 0.4588623046875
-25.105712890625 -38.979736328125 7.8275146484375
-32.93701171875 -21.873291015625 0.52783203125
-3.163330078125 -19.569091796875 2.9986572265625
-40.832763671875 -24.5908203125 2.7733154296875
-18.645751953125 -51.60205078125 2.450439453125
-39.2236328125 -54.631103515625 29.3057861328125
-28.81591796875 -60.11279296875 11.75830078125
-20.53076171875 -31.07568359375 13.8421630859375
-15.18212890625 -58.630859375 -7.1741943359375
11.40625 10.529296875 8.528564453125
-15.4736328125 -33.0732421875 10.9864501953125
29.655029296875 22.749755859375 0.8902587890625
-4.8427734375 -30.981689453125 9.8804931640625
-33.40625 -40.304443359375 22.218017578125
-28.681640625 -51.49755859375 0.9366455078125
-7.317138671875 -15.478759765625 5.1231689453125
23.576171875 18.975830078125 -0.11572265625
-23.277099609375 -9.28564453125 7.233154296875
-34.837158203125 -11.21533203125 8.5675048828125
-37.178955078125 -38.530029296875 19.1368408203125
4.071533203125 3.4853515625 4.51708984375
-36.32763671875 -24.0517578125 1.0283203125
-41.21630859375 -52.49365234375 34.1158447265625
21.61279296875 12.587646484375 2.92236328125
-40.2119140625 2.858154296875 5.73876953125
-10.49951171875 -43.06689453125 5.4854736328125
-45.380859375 -44.9111328125 30.470703125
-30.169189453125 -59.541748046875 0.516845703125
-14.410400390625 -43.286376953125 3.260986328125
-46.34375 -41.10888671875 24.0877685546875
-3.3486328125 2.4140625 4.0596923828125
-29.387451171875 -44.966064453125 26.3326416015625
-24.516357421875 -55.09619140625 -2.3133544921875
-44.097900390625 -19.8388671875 4.4681396484375
8.5625 -27.656982421875 -2.231201171875
-19.086181640625 -44.95654296875 6.4825439453125
-27.093994140625 -47.2900390625 29.2490234375
-11.13330078125 -32.4306640625 11.6243896484375
-33.74072265625 4.7041015625 6.3712158203125
-2.187744140625 -34.031494140625 13.77685546875
3.545654296875 -15.458251953125 7.74365234375
-24.974853515625 -22.651611328125 0.3221435546875
-14.207763671875 -47.805419921875 2.6846923828125
-8.98876953125 -1.43505859375 3.773681640625
-9.91455078125 3.21337890625 4.7669677734375
-22.54736328125 -12.94580078125 7.4881591796875
-30.44580078125 3.24462890625 5.4808349609375
-40.395751953125 -21.900146484375 0.55615234375
-21.4033203125 -39.734130859375 6.0623779296875
-42.1875 -43.732666015625 26.338623046875
26.752197265625 14.802978515625 7.0728759765625
5.293212890625 -19.938720703125 2.7620849609375
-27.01611328125 -59.251953125 -7.80712890625
-43.3251953125 -26.9208984375 19.576416015625
-44.077880859375 -24.833251953125 14.416748046875
-36.23095703125 -43.193115234375 24.50390625
6.1923828125 -22.953857421875 1.04931640625
-2.4296875 -35.993408203125 17.1551513671875
-30.923828125 -63.98388671875 -3.0791015625
26.141845703125 12.21044921875 -0.3743896484375
-40.581298828125 -63.212158203125 32.2122802734375
-42.3623046875 -29.6015625 7.707763671875
-28.63232421875 -55.597900390625 -2.856201171875
-32.945556640625 -55.335205078125 28.7027587890625
-30.663818359375 -39.0390625 20.503662109375
-23.56689453125 -18.208984375 4.1849365234375
-38.680908203125 -44.012451171875 26.7166748046875
-29.709228515625 -50.164794921875 19.2442626953125
-15.9619140625 -25.593994140625 4.4388427734375
-29.82470703125 -57.361083984375 8.7047119140625
15.498046875 19.196533203125 4.8525390625
-15.1435546875 -19.08251953125 2.1566162109375
-13.717529296875 -13.72998046875 5.99853515625
-10.520263671875 -28.836181640625 8.1390380859375
-39.129150390625 -15.900146484375 9.82373046875
-28.9951171875 -44.6611328125 23.021728515625
-36.97021484375 -50.46240234375 29.3389892578125
-21.21826171875 -23.993408203125 1.6314697265625
-27.053955078125 5.35546875 7.1431884765625
-35.844970703125 -34.947265625 -0.1351318359375
0.9189453125 -33.08349609375 13.1536865234375
16.27880859375 9.7265625 5.015869140625
-38.82861328125 -4.074462890625 4.6380615234375
1.76123046875 6.045166015625 6.4349365234375
0.119384765625 -33.8515625 -1.3839111328125
-15.5341796875 -38.616943359375 7.6788330078125
1.725830078125 -11.71630859375 8.1644287109375
-31.235595703125 -70.3203125 -4.5443115234375
-35.839599609375 -44.20947265625 29.9581298828125
-32.70361328125 -52.401123046875 30.0560302734375
-17.266357421875 -9.3232421875 6.72998046875
-35.721435546875 -36.528076171875 16.936279296875
5.306884765625 -29.80712890625 -0.37451171875
-9.90625 -29.463623046875 11.3214111328125
-27.119873046875 -4.01953125 4.402099609375
-30.678466796875 -16.941162109375 5.095947265625
-15.797607421875 0.986328125 4.0390625
-16.287353515625 -43.993408203125 7.84423828125
-46.86962890625 -36.909423828125 18.56103515625
-31.950927734375 -67.5224609375 0.35791015625
26.16064453125 16.584228515625 -0.280029296875
-30.181640625 -51.744384765625 7.5880126953125
-14.032470703125 -54.115966796875 -4.5921630859375
33.0830078125 19.25634765625 -1.8221435546875
-0.445068359375 -7.8037109375 5.8265380859375
-18.802490234375 -37.978515625 6.408447265625
-43.567138671875 -19.579345703125 7.690673828125
-38.55224609375 -61.152587890625 30.9544677734375
-29.665283203125 -11.27978515625 8.473876953125
-1.07080078125 -22.010498046875 2.31298828125
21.046142578125 20.58154296875 0.82470703125
8.06298828125 6.667724609375 7.3763427734375
-33.0625 -6.83740234375 5.4732666015625
18.572021484375 12.973388671875 0.9306640625
-27.43017578125 -51.767333984375 33.32275390625
-41.09033203125 -28.610107421875 2.94091796875
-12.707763671875 -45.216064453125 5.0496826171875
-40.216552734375 -31.85400390625 8.8665771484375
6.211181640625 -14.16552734375 5.697998046875
-43.29736328125 -17.916015625 13.70166015625
-39.505859375 -56.629150390625 31.9720458984375
-31.031494140625 -62.448974609375 -6.143798828125
-16.3349609375 -30.272705078125 9.7445068359375
0.599853515625 0.589111328125 3.8546142578125
-45.919189453125 -34.549072265625 16.338134765625
-34.910888671875 -18.592529296875 2.78125
2.962646484375 -37.0087890625 -0.2667236328125
-46.23486328125 -27.611083984375 10.6099853515625
-9.34130859375 -21.297607421875 1.1842041015625
-0.740478515625 -4.59033203125 3.9891357421875
-29.9638671875 -49.396484375 4.9915771484375
-7.716796875 -34.267822265625 13.751708984375
-30.240234375 -47.5703125 11.489013671875
-3.603515625 -33.389892578125 2.7169189453125
-9.523193359375 -10.36767578125 7.9593505859375
-24.962646484375 -37.54150390625 21.2576904296875
-40.2333984375 -13.644287109375 13.5550537109375
-5.756591796875 -23.72412109375 5.7259521484375
14.340576171875 16.482421875 0.970458984375
-15.098388671875 -41.815673828125 9.75634765625
-28.34326171875 -42.734619140625 8.61083984375
-32.89599609375 -45.801025390625 29.230712890625
-1.78759765625 -29.311279296875 -0.3912353515625
-43.868896484375 -39.1748046875 19.6405029296875
-26.976318359375 -44.873291015625 4.638427734375
-6.107666015625 3.995849609375 5.24267578125
-43.263671875 -2.199951171875 6.648681640625
6.68798828125 -17.32861328125 2.6209716796875
-21.605224609375 -32.62158203125 9.028564453125
1.571533203125 -37.043212890625 18.5679931640625
-28.73193359375 -71.044677734375 6.8897705078125
-20.061767578125 -41.553466796875 10.3759765625
-12.19873046875 7.585693359375 8.2322998046875
5.593505859375 -5.8056640625 4.267578125
-4.89794921875 -32.513427734375 12.7708740234375
-18.935302734375 3.7802734375 5.3436279296875
-3.6240234375 -8.830078125 6.3310546875
-8.299560546875 -26.746826171875 6.3092041015625
-35.930419921875 -8.9736328125 6.8726806640625
-18.505615234375 -15.802490234375 4.6005859375
-18.465576171875 -5.037353515625 4.2655029296875
5.962158203125 -26.573974609375 -2.9970703125
-42.718505859375 -46.453125 30.9737548828125
6.1787109375 -9.35986328125 7.25244140625
-38.91064453125 -16.1494140625 6.302490234375
-29.989013671875 -42.05322265625 16.778076171875
-7.43212890625 -12.8056640625 7.2763671875
-13.22509765625 -28.615234375 7.0316162109375
-34.3544921875 -63.56494140625 30.7576904296875
-38.7294921875 -29.513671875 -0.8236083984375
-30.435546875 -55.08642578125 3.261962890625
2.3798828125 -25.28369140625 0.6348876953125
-35.836669921875 0.218994140625 4.3260498046875
-30.182861328125 -36.61181640625 19.0386962890625
-32.692626953125 -69.917724609375 -1.666015625
25.022216796875 13.798583984375 3.224609375
-19.0048828125 -28.10791015625 6.4298095703125
1.523193359375 -17.3330078125 6.9737548828125
-30.653076171875 -54.602783203125 6.7147216796875
-19.555908203125 -47.3759765625 7.9295654296875
-28.75927734375 -18.624267578125 2.7806396484375
-40.706787109375 -33.861083984375 1.82421875
-28.742919921875 -58.43994140625 -5.3443603515625
-29.10302734375 -47.314697265625 18.01123046875
-31.207763671875 -54.016845703125 14.2803955078125
-30.513916015625 -24.068603515625 2.0526123046875
-38.858154296875 -34.351806640625 14.142578125
-40.879638671875 -10.33203125 9.4903564453125
-13.0732421875 -50.764892578125 -1.5899658203125
-29.80322265625 -57.98828125 -1.824462890625
-5.284423828125 -28.855224609375 3.3109130859375
-41.079345703125 -49.639404296875 32.859619140625
-26.31298828125 -26.930419921875 4.8397216796875
-39.0205078125 -18.832763671875 2.93896484375
-29.776123046875 -44.822021484375 19.3603515625
-37.45068359375 -59.560791015625 27.26611328125
-8.783935546875 -8.362548828125 6.1253662109375
-22.100341796875 -25.9462890625 3.9459228515625
-19.225830078125 -20.221435546875 1.0955810546875
-27.3642578125 -24.681396484375 2.5032958984375
-1.730712890625 -33.47314453125 7.7100830078125
-5.197509765625 -29.47119140625 7.1434326171875
-9.169677734375 -38.755615234375 8.3802490234375
-31.77880859375 -1.955810546875 3.9085693359375
-27.695068359375 -59.64013671875 14.3648681640625
-6.092041015625 -21.406005859375 3.0601806640625
-27.41455078125 -39.198974609375 14.0911865234375
-13.16943359375 -6.269287109375 4.81103515625
-30.349365234375 -45.86669921875 13.6976318359375
-17.603759765625 -32.845458984375 9.20361328125
-32.373779296875 -12.331298828125 7.9046630859375
17.263671875 26.017578125 -4.989990234375
14.60205078125 29.5625 -2.064697265625
-15.172607421875 -4.39208984375 4.0714111328125
-4.07763671875 -0.22021484375 3.65673828125
-30.4326171875 -58.695556640625 3.1282958984375
-45.1884765625 -21.029541015625 17.46142578125
-28.463134765625 -53.55078125 -1.03125
-30.44482421875 -61.958740234375 -0.7579345703125
-35.79736328125 -15.211669921875 5.2962646484375
-40.438720703125 -18.351318359375 5.2252197265625
-1.103515625 5.832275390625 6.7152099609375
-14.4501953125 -8.724609375 6.544921875
-41.7060546875 -35.6220703125 15.5718994140625
-44.859130859375 -22.322265625 10.063720703125
-34.296142578125 -49.987060546875 29.0792236328125
6.795166015625 4.659423828125 5.5048828125
-3.81298828125 -30.53759765625 1.7471923828125
-24.29638671875 -29.148681640625 7.1905517578125
-0.94677734375 -17.156494140625 5.585205078125
-14.018798828125 -22.415771484375 0.785400390625
-6.188720703125 -7.808349609375 5.5347900390625
-35.156005859375 -13.56298828125 10.2703857421875
-30.34619140625 -62.648193359375 6.134521484375
12.5810546875 6.22998046875 7.8712158203125
6.4892578125 -34.081298828125 -3.136474609375
-43.906494140625 -25.583984375 21.848388671875
-10.25048828125 -18.794189453125 2.11962890625
-40.869140625 -2.2158203125 4.4361572265625
0.221923828125 -30.923828125 -1.163330078125
-18.191650390625 -47.876708984375 4.0206298828125
-33.588623046875 -17.131591796875 4.9791259765625
5.546142578125 -1.247802734375 2.829833984375
-45.99169921875 -23.529541015625 4.98486328125
15.486328125 26.678955078125 -1.62255859375
-44.64306640625 -7.606201171875 6.4259033203125
-12.102783203125 -11.395263671875 7.7822265625
-33.34423828125 -34.8232421875 16.2510986328125
-11.437255859375 -58.567626953125 -7.366943359375
-12.31787109375 -34.624267578125 10.4935302734375
-19.345458984375 -56.548095703125 -0.2728271484375
-13.960693359375 -1.403076171875 3.759033203125
-44.1533203125 -27.71435546875 7.113037109375
2.52978515625 -20.068603515625 3.1839599609375
-36.81787109375 -55.02783203125 27.7630615234375
-33.755126953125 -42.27490234375 24.7303466796875
-11.38427734375 -36.744140625 8.8338623046875
-4.141845703125 -25.905029296875 2.8634033203125
-20.848388671875 -18.0634765625 3.9068603515625
-21.652099609375 -31.265380859375 11.2938232421875
-30.29931640625 -20.468994140625 1.020263671875
-44.50537109375 -40.7373046875 21.6656494140625
15.7421875 14.341796875 -0.043701171875
-15.9326171875 -24.074951171875 2.2884521484375
-31.37109375 -44.14306640625 27.854736328125
17.20849609375 13.8662109375 6.4017333984375
-40.37890625 -58.205810546875 36.1126708984375
-13.15087890625 3.4033203125 5.1392822265625
-30.019287109375 -51.260498046875 10.1624755859375
-29.905029296875 -7.38818359375 5.939453125
-3.42041015625 -3.9609375 3.781494140625
-43.9794921875 -26.710205078125 16.87158203125
-40.159423828125 -53.766845703125 31.796630859375
-13.6416015625 -26.683837890625 4.954833984375
-8.158935546875 8.369384765625 8.3187255859375
-5.630615234375 -5.353271484375 4.1944580078125
-28.912109375 -56.483642578125 10.9801025390625
-46.525634765625 -32.11083984375 17.0029296875
-40.1298828125 -40.56201171875 21.9918212890625
-44.683837890625 -43.072998046875 24.459228515625
-43.677490234375 -11.154541015625 11.7978515625
-23.341552734375 1.665771484375 4.478759765625
3.689208984375 -3.857421875 3.7847900390625
-38.290771484375 4.34130859375 6.64697265625
-18.644287109375 -23.83740234375 1.872314453125
-42.829345703125 -18.170654296875 9.7728271484375
18.27587890625 20.82373046875 -2.2457275390625
4.84912109375 -38.9736328125 20.356689453125
7.691162109375 -29.0693359375 -4.2130126953125
-33.627685546875 6.549072265625 8.1722412109375
-35.759765625 -40.04736328125 20.6629638671875
-30.389892578125 -50.27001953125 30.0308837890625
-38.307373046875 -7.984375 6.100341796875
-46.589111328125 -24.53369140625 8.588623046875
13.630615234375 11.02490234375 7.235595703125
17.772216796875 22.176513671875 -8.6728515625
-2.04345703125 -35.058349609375 1.28564453125
-14.88671875 -56.571533203125 -5.22021484375
25.3154296875 15.78125 5.12451171875
-12.4697265625 -41.0703125 5.5416259765625
-16.94287109375 6.207275390625 6.9853515625
31.178466796875 20.597412109375 -0.003173828125
-41.16943359375 -37.109130859375 17.9954833984375
-45.03515625 -3.286865234375 5.1873779296875
-39.303955078125 -13.76611328125 11.1856689453125
-17.2138671875 -59.4443359375 -5.9068603515625
-26.731201171875 -41.659912109375 13.5521240234375
3.166259765625 -13.652587890625 9.4774169921875
7.759033203125 -36.936767578125 -2.84326171875
-20.24658203125 -34.67041015625 8.050048828125
30.193115234375 16.402099609375 -1.3775634765625
-18.8701171875 -0.533935546875 3.789794921875
-38.90869140625 -23.769287109375 1.3929443359375
-13.063232421875 -18.062255859375 3.1109619140625
-30.161376953125 -43.394775390625 14.1060791015625
-29.34521484375 -63.510986328125 0.9324951171875
-38.865966796875 -11.8125 9.6607666015625
20.910888671875 10.24658203125 1.914794921875
-25.20166015625 -49.203369140625 33.12060546875
-43.59130859375 -30.7900390625 23.7464599609375
-11.176025390625 -14.870361328125 5.319580078125
-33.693359375 -33.58154296875 1.125
3.1923828125 1.226318359375 3.9307861328125
-11.5419921875 -22.689697265625 0.8067626953125
-3.103759765625 7.528076171875 8.3099365234375
-40.794677734375 -8.8720703125 7.363525390625
-29.463134765625 -47.720458984375 30.899658203125
32.106201171875 24.36279296875 1.2882080078125
-38.71630859375 -63.5771484375 33.8114013671875
-2.317138671875 -14.690185546875 5.864990234375
-30.753662109375 -63.896728515625 3.166259765625
-22.309814453125 5.748046875 6.9989013671875
-11.98046875 -47.7763671875 1.6190185546875
17.2626953125 23.506591796875 -4.31298828125
15.95751953125 8.6474609375 7.5015869140625
-43.784912109375 -25.076416015625 3.9879150390625
-29.358154296875 -46.40673828125 9.1265869140625
-44.025146484375 -34.948486328125 14.814697265625
3.01513671875 -27.758544921875 0.760498046875
-36.83740234375 -2.743896484375 4.1104736328125
-44.36767578125 -22.539794921875 12.4559326171875
-28.842529296875 -47.104736328125 23.9613037109375
-19.0185546875 -51.949462890625 4.8480224609375
-31.422119140625 -59.471435546875 5.2821044921875
0.63427734375 -2.44873046875 3.0860595703125
-28.864990234375 -49.3994140625 16.7537841796875
16.767578125 15.264404296875 3.599609375
-15.532470703125 -60.666748046875 -8.4801025390625
-29.0107421875 1.21728515625 4.6392822265625
24.667724609375 13.919677734375 0.5577392578125
-42.61572265625 -21.915283203125 2.2352294921875
-33.56005859375 -61.934326171875 28.961181640625
-17.422119140625 -11.739990234375 7.924560546875
-25.0166015625 -39.27783203125 10.245849609375
-11.58984375 -54.4658203125 -4.5845947265625
-26.82568359375 -53.962890625 -2.922119140625
-5.6240234375 -17.560302734375 3.863037109375
-37.467529296875 -52.95068359375 29.1734619140625
-42.7841796875 -5.973876953125 4.956787109375
-9.757080078125 -3.98974609375 4.041259765625
4.592529296875 -24.6865234375 1.6419677734375
-38.95458984375 -42.077392578125 23.9276123046875
-23.06005859375 -36.253662109375 20.4708251953125
-13.415771484375 -31.6826171875 11.93603515625
-0.6318359375 -36.569091796875 3.31494140625
-34.90869140625 -59.5126953125 27.5870361328125
-28.922119140625 -54.7841796875 14.1121826171875
-3.859130859375 -10.81298828125 8.174560546875
-24.65576171875 -7.83984375 5.8746337890625
5.090576171875 -7.851806640625 5.7147216796875
-7.5048828125 -29.818115234375 10.4229736328125
-10.615966796875 -6.07373046875 4.9324951171875
-20.17333984375 -13.211669921875 7.393798828125
-23.171875 -3.35791015625 3.811279296875
-26.30859375 -36.963623046875 8.2728271484375
-0.93359375 -27.1533203125 0.17626953125
-38.903564453125 -49.253173828125 30.1268310546875
-28.912841796875 -66.605224609375 9.812255859375
-40.990966796875 -32.560302734375 11.427978515625
5.247314453125 -32.406005859375 -1.9716796875
-18.056396484375 1.669677734375 4.3623046875
-38.525146484375 -58.65234375 32.75732421875
-44.213623046875 -11.392578125 9.3140869140625
2.784423828125 -16.541015625 5.1204833984375
-23.788818359375 -11.2802734375 8.6441650390625
-21.736572265625 -5.67822265625 4.458251953125
-27.5673828125 -15.06982421875 5.5654296875
-46.259033203125 -27.353515625 8.2366943359375
-39.36474609375 -32.723388671875 -0.479248046875
2.879638671875 -29.913330078125 -0.217041015625
-28.98876953125 -9.264892578125 7.3349609375
-28.514404296875 -51.081787109375 14.92626953125
-15.8330078125 -43.6552734375 5.5504150390625
3.422119140625 -34.559326171875 -1.7301025390625
-23.999755859375 -27.594970703125 5.4393310546875
-10.3486328125 -25.32568359375 4.0113525390625
-35.3046875 -26.05517578125 0.3338623046875
-25.684326171875 -9.45361328125 7.2386474609375
-15.56103515625 -55.3291015625 -3.2835693359375
-32.9091796875 -28.30517578125 1.079833984375
-29.66455078125 -60.4521484375 -6.1260986328125
-26.3271484375 -0.2529296875 4.2724609375
-9.9384765625 1.02587890625 3.91650390625
-28.123291015625 -6.101806640625 5.015869140625
-21.66748046875 -29.369384765625 8.2860107421875
8.980712890625 -13.487548828125 6.7349853515625
-21.777587890625 -0.7626953125 3.806884765625
-29.1826171875 -50.64013671875 3.173828125
-31.91064453125 -64.0576171875 -7.587646484375
8.25732421875 -33.49658203125 -1.3408203125
-34.8115234375 -30.148681640625 -1.2921142578125
-37.04296875 -45.863525390625 31.0631103515625
9.9970703125 8.6923828125 8.7095947265625
-29.5869140625 -53.504638671875 1.6705322265625
-24.957275390625 -13.1044921875 7.4930419921875
-27.1416015625 -38.9267578125 20.003662109375
-28.86767578125 -42.1923828125 12.3916015625
-23.468017578125 -19.175048828125 2.0460205078125
-40.267578125 0.7177734375 4.783203125
7.178466796875 -10.892578125 8.6611328125
-12.853515625 -16.669189453125 4.96875
-15.901123046875 -45.796142578125 3.1358642578125
12.447998046875 8.445556640625 8.4759521484375
-45.35498046875 -26.20947265625 12.9630126953125
-1.5576171875 -12.864501953125 7.036865234375
-44.1142578125 -22.20947265625 5.1065673828125
-44.3955078125 -19.526611328125 14.9189453125
1.075927734375 -9.704833984375 7.2635498046875
-10.568359375 -40.52880859375 6.95361328125
-44.43896484375 -24.0771484375 20.2012939453125
-31.759033203125 -43.826171875 25.6156005859375
-13.92333984375 6.12939453125 7.82763671875
-21.61279296875 7.599609375 8.1566162109375
-45.058837890625 -29.5478515625 10.9521484375
-28.96044921875 -47.34375 5.1636962890625
-30.58935546875 -40.371826171875 18.2098388671875
-34.042724609375 -19.875 1.0970458984375
-2.944580078125 -25.541748046875 0.9482421875
-26.986572265625 -40.275146484375 7.82763671875
-42.3212890625 -29.37158203125 4.699951171875
-16.89453125 -42.99365234375 2.447998046875
-32.861572265625 -4.87158203125 4.3448486328125
-21.234130859375 4.02783203125 5.5750732421875
-8.19482421875 -17.7236328125 3.7445068359375
23.61279296875 18.163330078125 4.302734375
-37.745849609375 -57.10009765625 27.68505859375
-33.166015625 -46.988037109375 31.143310546875
5.8779296875 -30.39306640625 -3.923095703125
34.62841796875 17.708984375 -1.2401123046875
-44.180419921875 -15.80126953125 15.46337890625
-35.190673828125 -21.9931640625 0.677490234375
1.702392578125 7.898681640625 7.894287109375
-43.156494140625 -32.60400390625 12.46826171875
-18.134765625 -7.40771484375 5.4521484375
-6.718017578125 -0.867431640625 3.44873046875
-45.7626953125 -45.00927734375 28.155029296875
-15.7763671875 -14.708251953125 5.8270263671875
-28.378662109375 7.0078125 8.1654052734375
-11.550048828125 -1.64404296875 3.6553955078125
-13.3505859375 -49.494384765625 0.2349853515625
-9.5947265625 -45.1083984375 5.3009033203125
26.5048828125 11.13330078125 1.5506591796875
-17.79248046875 -46.974365234375 6.1666259765625
-13.48046875 -37.702392578125 7.854736328125
-2.049560546875 3.9091796875 5.26953125
-18.560302734375 7.46435546875 8.330322265625
-35.94140625 4.542236328125 6.64013671875
-23.647216796875 -16.10498046875 4.8892822265625
-20.94189453125 -9.133544921875 7.0950927734375
-3.3876953125 -32.3369140625 6.77392578125
-31.01953125 -59.994384765625 -1.5987548828125
-16.358642578125 -34.84228515625 9.553466796875
-9.81298828125 6.926025390625 8.0469970703125
5.15869140625 -36.909912109375 -0.0220947265625
15.529541015625 11.521240234375 6.218017578125
-40.809814453125 -26.648681640625 1.960205078125
-15.703857421875 -48.619873046875 4.0928955078125
-5.85986328125 6.328125 7.18115234375
18.705810546875 20.34716796875 -6.7176513671875
-39.61767578125 -38.66845703125 18.1793212890625
-45.48291015625 -42.8974609375 29.5771484375
-35.79931640625 -4.69921875 4.18798828125
12.24365234375 15.3681640625 -3.4345703125
-37.65380859375 -33.898681640625 -1.5147705078125
-13.573974609375 -52.832275390625 -2.4052734375
-42.3232421875 -40.6669921875 21.42724609375
-34.440185546875 2.465087890625 5.1480712890625
-20.744140625 -37.269775390625 5.6702880859375
13.517822265625 18.77294921875 2.8017578125
16.400146484375 21.890380859375 -2.630615234375
5.5634765625 -16.029296875 3.9805908203125
-42.75 -18.43701171875 6.0096435546875
-4.20361328125 -33.657470703125 14.5439453125
-35.072509765625 -41.140625 23.361328125
-30.445068359375 -61.523193359375 1.498779296875
-2.88818359375 -32.885498046875 12.0037841796875
-38.556884765625 -39.739990234375 20.720703125
19.183349609375 11.455810546875 2.4786376953125
-34.634765625 -13.761962890625 7.250732421875
-37.43798828125 -14.525634765625 10.3533935546875
34.690185546875 20.728271484375 -1.8397216796875
28.39599609375 16.805419921875 -0.1636962890625
23.1328125 18.31884765625 2.1829833984375
-29.166259765625 -42.574462890625 23.6209716796875
-25.397705078125 -2.6728515625 4.132080078125
5.516357421875 7.826904296875 8.2076416015625
-24.1103515625 -37.26318359375 8.7091064453125
-24.350830078125 -20.55419921875 0.6204833984375
-1.54931640625 0.828125 3.6878662109375
-0.22900390625 -36.7421875 17.3992919921875
7.126953125 -13.099853515625 7.788330078125
3.10986328125 -18.6591796875 4.7998046875
-1.882080078125 -21.099609375 4.1038818359375
-32.770751953125 -57.40771484375 28.0985107421875
6.9267578125 -28.964111328125 -1.6796875
-42.528076171875 -7.88720703125 6.0728759765625
-8.341064453125 -25.171875 4.799072265625
-16.81005859375 -20.081298828125 1.0745849609375
7.589111328125 -5.73193359375 3.4425048828125
23.8310546875 12.20849609375 1.5731201171875
-9.35693359375 -33.5859375 12.030029296875
-43.152587890625 3.7177734375 8.658203125
-25.10595703125 -41.056884765625 6.990478515625
-18.046875 -42.302978515625 10.4644775390625
-39.754150390625 -29.039794921875 1.310302734375
-30.7626953125 -58.6201171875 7.139404296875
-4.861572265625 -14.43212890625 5.8302001953125
-23.181884765625 -38.563720703125 6.333740234375
-29.369140625 -67.11328125 -0.7293701171875
-2.28369140625 -23.773681640625 1.96435546875
-41.030029296875 -31.013427734375 2.9375
-30.16845703125 -42.706298828125 21.1650390625
3.7822265625 -10.7255859375 8.2093505859375
-23.647705078125 -23.718994140625 1.6082763671875
-42.1552734375 1.861572265625 5.5718994140625
-43.15380859375 -13.31982421875 14.951171875
-32.1171875 -40.746826171875 20.387939453125
-17.436767578125 -29.590576171875 8.058349609375
-21.0703125 -19.03271484375 2.0274658203125
-33.81591796875 -8.856201171875 6.4742431640625
-39.7431640625 -57.41357421875 33.9747314453125
-41.870361328125 4.0615234375 6.91796875
-39.934326171875 -62.340576171875 35.029296875
-36.85693359375 -62.3662109375 30.5733642578125
-43.783935546875 -29.181396484375 9.221923828125
-19.77734375 -22.318603515625 0.924560546875
-41.30810546875 -4.28759765625 4.3922119140625
-25.849609375 4.092041015625 5.9466552734375
1.774169921875 -34.98388671875 -0.474853515625
-24.41357421875 5.541259765625 6.7388916015625
-7.166015625 -22.63134765625 4.3974609375
-18.943359375 -53.267333984375 1.1937255859375
-16.0341796875 -36.57080078125 7.7288818359375
-28.165283203125 3.910400390625 6.0869140625
-45.0390625 -46.962646484375 30.14501953125
-30.572265625 -0.170654296875 4.3834228515625
-34.006591796875 -0.8759765625 4.183837890625
-26.010498046875 -6.3330078125 5.312255859375
-13.67138671875 -39.825439453125 6.7420654296875
-26.182373046875 -40.056640625 12.185791015625
-16.986083984375 -17.362548828125 4.63427734375
-31.601318359375 4.9267578125 6.759033203125
-14.8603515625 -29.0390625 8.2781982421875
6.191162109375 -20.842529296875 1.095947265625
-29.66552734375 -49.584228515625 11.571533203125
-22.5615234375 -14.309814453125 5.8978271484375
-18.82763671875 -49.942138671875 3.7158203125
-36.951904296875 -11.32861328125 8.9625244140625
25.71142578125 13.677001953125 5.6297607421875
31.31689453125 18.269287109375 -1.2967529296875
-28.286376953125 -19.92919921875 1.218505859375
-7.415771484375 -4.255859375 3.8046875
-28.597412109375 -46.1142578125 28.3992919921875
-31.079345703125 -14.8486328125 6.06005859375
-9.076416015625 -14.66845703125 6.24755859375
-31.370361328125 -47.38525390625 30.1231689453125
-10.17333984375 4.992919921875 5.9334716796875
29.106689453125 20.493408203125 0.8468017578125
-45.2734375 -23.60302734375 15.599609375
-38.28173828125 1.310302734375 4.99072265625
-20.35791015625 -27.017822265625 5.1175537109375
-44.76708984375 -31.932373046875 11.3355712890625
-40.381591796875 -32.76904296875 7.005859375
-40.19921875 -33.3115234375 4.211181640625
-14.255615234375 5.053955078125 5.770751953125
-5.195556640625 -19.74072265625 2.2130126953125
-47.257568359375 -35.214599609375 20.375732421875
-15.955810546875 -12.956298828125 7.1181640625
-41.7626953125 -14.932861328125 14.071533203125
-37.374755859375 -35.8359375 15.7757568359375
8.08740234375 -9.306884765625 6.2913818359375
0.624267578125 -21.429931640625 3.3284912109375
-30.86572265625 -52.38232421875 29.133056640625
-32.433349609375 -36.76806640625 17.6744384765625
-38.49169921875 -6.045166015625 5.108642578125
-36.693359375 -29.79736328125 -0.5487060546875
-17.599365234375 -26.845703125 5.6337890625
-39.039306640625 -20.56201171875 1.3116455078125
-29.262451171875 -3.3896484375 4.0657958984375
26.58251953125 14.420166015625 -0.468994140625
0.784912109375 -22.810791015625 1.3182373046875
-44.3271484375 -33.2822265625 15.9598388671875
-37.24658203125 -32.30322265625 13.0147705078125
-19.978515625 -32.373046875 12.363525390625
-14.4404296875 -51.97412109375 -0.0166015625
-27.431396484375 -50.22021484375 2.215087890625
-28.95068359375 -39.607666015625 15.4595947265625
19.349853515625 21.70703125 0.703369140625
-3.201171875 -31.39599609375 8.572265625
-30.728759765625 -62.01806640625 -4.1771240234375
-37.762939453125 -60.351806640625 29.1124267578125
-43.4970703125 -13.1640625 12.0101318359375
-42.013671875 -17.555419921875 11.9554443359375
-46.923583984375 -37.208251953125 20.8558349609375
-42.74365234375 -23.898193359375 2.70263671875
-37.690673828125 -37.3974609375 17.537353515625
-44.826904296875 -26.25537109375 5.2738037109375
-1.48388671875 -35.18359375 15.55908203125
-10.92822265625 -24.20947265625 2.427001953125
-19.52001953125 -53.224853515625 3.280029296875
-37.18603515625 -47.974853515625 29.900390625
-35.33203125 -32.951171875 -0.73486328125
-14.62109375 -39.728271484375 9.8070068359375
1.912353515625 4.22021484375 5.116943359375
-36.823974609375 -27.357177734375 0.092041015625
-43.911376953125 -2.089599609375 4.0234375
-27.6767578125 -43.6044921875 6.599365234375
7.015869140625 -19.073486328125 1.5836181640625
-27.740966796875 -46.81884765625 31.407958984375
-25.646484375 -16.23974609375 4.767578125
-33.798583984375 -23.486083984375 1.34912109375
-28.055419921875 -12.449951171875 7.9407958984375
-29.79296875 -59.36376953125 9.440185546875
24.27490234375 16.00927734375 0.05859375
2.03369140625 -8.063232421875 5.7261962890625
-45.291015625 -38.085693359375 18.04150390625
1.657958984375 -4.00634765625 3.79638671875
-20.114501953125 -45.3193359375 8.640625
-38.05322265625 -22.165283203125 0.576171875
-6.291015625 -27.437255859375 7.0611572265625
-34.98291015625 -45.87646484375 28.9124755859375
-22.534912109375 -7.311279296875 5.427001953125
-34.52001953125 -33.2509765625 15.93896484375
6.225830078125 -25.857666015625 1.761962890625
13.797607421875 30.5751953125 -0.2408447265625
-13.2509765625 -46.907470703125 4.1697998046875
-43.822998046875 0.52685546875 5.8353271484375
-30.802490234375 -57.5458984375 1.07861328125
-28.158203125 -66.61669921875 7.9830322265625
-40.398193359375 -54.545166015625 33.7984619140625
-1.792724609375 -34.306396484375 -0.5263671875
-28.01953125 -39.333984375 11.5648193359375
-29.208251953125 -57.224609375 -3.82080078125
9.179443359375 -31.363037109375 -1.4390869140625
-18.564453125 -2.971923828125 4.1810302734375
-8.105224609375 3.83154296875 5.251220703125
-44.000732421875 -20.7099609375 9.2451171875
-45.8154296875 -36.564208984375 16.417724609375
-26.818115234375 -21.52392578125 0.4700927734375
-30.830322265625 -22.541259765625 0.8511962890625
-39.0546875 6.033935546875 7.7862548828125
-14.1162109375 -20.3623046875 0.700439453125
-9.440185546875 -16.045166015625 4.9093017578125
17.81201171875 10.647705078125 4.22900390625
6.78564453125 -38.480712890625 20.19384765625
-36.85498046875 -18.7197265625 2.6661376953125
6.80078125 2.870849609375 4.72900390625
-32.4697265625 2.6416015625 5.2701416015625
4.787841796875 -28.4912109375 1.100830078125
-28.92529296875 -69.048828125 5.9005126953125
-17.3369140625 -25.337158203125 3.0855712890625
-44.550048828125 -20.481201171875 13.0302734375
16.481689453125 25.726318359375 -3.1739501953125
-13.238525390625 -9.8095703125 7.609375
8.510009765625 -25.6044921875 -2.9849853515625
-28.37109375 -57.997314453125 15.652587890625
17.28076171875 13.84619140625 2.0836181640625
-19.923095703125 -57.4345703125 -3.3963623046875
-5.478515625 -28.962890625 8.9853515625
-2.869140625 -34.0263671875 6.007568359375
-19.538818359375 -14.516357421875 6.0625
-15.6923828125 -38.049072265625 11.2384033203125
-0.7392578125 -33.2041015625 12.1903076171875
5.2509765625 -13.682861328125 7.2901611328125
3.413330078125 5.26904296875 5.8375244140625
0.188720703125 -6.168212890625 4.5657958984375
4.506103515625 -15.9384765625 6.153564453125
-45.8388671875 -30.291748046875 12.7288818359375
-33.03515625 -49.49755859375 30.437744140625
-17.2529296875 -59.88818359375 -8.153076171875
-15.578125 -49.0908203125 2.0386962890625
-29.2080078125 -47.69140625 7.0299072265625
-7.77685546875 -11.064208984375 8.314453125
-26.2412109375 -58.022216796875 -6.5631103515625
-30.36328125 -68.732421875 -3.84375
15.103515625 31.2568359375 -2.7945556640625
9.41943359375 6.034912109375 8.5653076171875
4.9345703125 0.468017578125 3.4678955078125
-15.14013671875 -30.947998046875 11.5755615234375
-5.971435546875 -11.812255859375 7.9949951171875
-29.133544921875 -44.351318359375 9.56982421875
-39.2080078125 -52.96337890625 30.228515625
-41.686767578125 -26.19287109375 3.5888671875
6.1123046875 -18.539794921875 3.9735107421875
3.451171875 7.143798828125 7.433349609375
-21.853759765625 -11.149169921875 8.6427001953125
-14.140869140625 1.986328125 4.3416748046875
-13.3193359375 -59.002197265625 -7.291259765625
-1.973388671875 -18.53759765625 4.77978515625
-39.38037109375 -61.5458984375 32.7579345703125
-25.517333984375 -24.22607421875 1.6666259765625
-29.227783203125 -58.090087890625 11.939697265625
-38.528076171875 -63.20458984375 30.8934326171875
-26.69775390625 -18.4814453125 3.0269775390625
22.4638671875 19.880126953125 4.95947265625
0.90234375 -26.239013671875 -0.062255859375
-5.52685546875 -28.76123046875 5.18017578125
-27.021728515625 -50.109375 32.46435546875
6.43994140625 -36.208740234375 -3.973876953125
-30.30810546875 -43.667724609375 17.749755859375
-45.628662109375 -31.751708984375 15.3876953125
-33.57861328125 -39.567138671875 20.3773193359375
-19.40185546875 -32.953369140625 8.6722412109375
-26.418701171875 6.76708984375 8.2061767578125
-40.671630859375 -30.97802734375 10.4755859375
27.814453125 12.44384765625 0.4364013671875
-9.686279296875 -31.49072265625 12.35205078125
-30.653076171875 -41.418701171875 22.791015625
4.515869140625 -21.746337890625 1.6009521484375
-3.833251953125 -21.253173828125 3.446044921875
0.097900390625 -34.7626953125 14.14990234375
-31.685791015625 -7.912841796875 6.119873046875
-31.22607421875 -64.409423828125 -5.0504150390625
-34.7099609375 -55.385986328125 28.1199951171875
-5.04443359375 -25.016357421875 4.5159912109375
-40.85986328125 -52.123046875 32.295654296875
-12.123291015625 -13.55615234375 6.9287109375
-25.183349609375 1.528564453125 4.6199951171875
-26.26611328125 -47.585205078125 32.2244873046875
-39.88671875 -48.81787109375 31.7056884765625
-35.63037109375 -51.28125 28.3585205078125
-5.174560546875 2.292724609375 4.3385009765625
-4.2822265625 4.119873046875 4.9652099609375
-19.13134765625 -9.441650390625 6.8681640625
-37.5380859375 -25.358154296875 0.5263671875
-32.563232421875 -41.454345703125 23.5771484375
1.41552734375 -32.56103515625 -1.6624755859375
-29.6953125 5.089599609375 6.753662109375
-46.064697265625 -34.649169921875 14.4986572265625
-11.494873046875 -30.385009765625 11.1357421875
-31.8251953125 -37.896484375 19.4189453125
-3.3134765625 -31.711669921875 10.6473388671875
-41.18603515625 -59.882080078125 35.4302978515625
-15.9111328125 -42.489501953125 3.9722900390625
-19.328369140625 -17.49560546875 4.77783203125
0.233154296875 -12.718017578125 7.4395751953125
30.360107421875 24.2548828125 1.8585205078125
-30.0126953125 -51.394775390625 5.593505859375
-19.577880859375 -36.349853515625 6.766357421875
30.42529296875 14.781005859375 -0.368896484375
-5.088623046875 -22.5087890625 4.5203857421875
-2.2314453125 -7.96142578125 5.42822265625
-39.298095703125 -16.86474609375 7.94921875
7.12646484375 -12.46923828125 4.836669921875
-12.36328125 -25.8505859375 3.93359375
-38.285888671875 -56.255859375 29.22265625
-26.727294921875 -13.261962890625 6.9688720703125
-43.254150390625 -27.63525390625 21.2650146484375
15.2021484375 15.93994140625 -0.7630615234375
5.576171875 -27.756591796875 -1.3978271484375
1.831787109375 2.421875 4.2109375
-36.791748046875 -42.45849609375 22.78857421875
-46.087646484375 -35.262939453125 18.4002685546875
-10.02783203125 -27.646484375 6.6690673828125
-46.194091796875 -23.813232421875 6.955322265625
-27.73583984375 -51.918701171875 -0.5692138671875
-29.382568359375 -50.11181640625 7.416259765625
-22.178466796875 -17.25048828125 4.880126953125
22.4404296875 21.546630859375 4.221923828125
-29.631591796875 -43.357177734375 25.199462890625
-15.38623046875 -27.16796875 5.27099609375
-30.80859375 -13.0927734375 7.3304443359375
-45.530029296875 -42.345458984375 23.0220947265625
-35.364990234375 -38.46435546875 19.0218505859375
-14.06298828125 -34.26513671875 10.8505859375
-31.75634765625 -51.109619140625 30.9134521484375
-1.305419921875 -32.660400390625 -1.2354736328125
-31.45947265625 -25.69970703125 2.747802734375
-46.4501953125 -26.07666015625 9.5333251953125
-28.186767578125 -46.577880859375 26.6632080078125
15.92431640625 14.978271484375 1.6844482421875
-33.180419921875 -10.30859375 8.217529296875
-29.48388671875 -37.73486328125 20.93017578125
-43.198974609375 -37.98291015625 18.458740234375
-40.976806640625 -23.052490234375 1.8375244140625
-42.665771484375 -16.2763671875 13.271728515625
-45.4267578125 -40.026123046875 20.1055908203125
-29.625 -51.43603515625 17.763671875
5.3173828125 -3.36279296875 3.189208984375
-41.603271484375 -31.19580078125 7.357421875
19.394775390625 20.175048828125 -5.0638427734375
-27.13623046875 -55.19970703125 -4.18896484375
-22.306396484375 -22.88330078125 0.729736328125
5.250732421875 2.246826171875 3.9658203125
6.526611328125 -14.27587890625 3.9327392578125
-15.918701171875 -38.142822265625 9.3663330078125
-28.011474609375 -60.4716796875 -8.664794921875
-7.1875 -32.55908203125 13.851318359375
-6.03564453125 -34.640869140625 13.25830078125
1.28564453125 -17.899169921875 5.124755859375
-8.14453125 0.297119140625 3.593017578125
-32.2841796875 -20.137451171875 1.6402587890625
32.818359375 20.675537109375 -0.7117919921875
-29.06396484375 -49.35791015625 31.49609375
-46.48486328125 -40.378173828125 22.263671875
17.441650390625 22.4306640625 -6.2501220703125
-42.513916015625 -11.23291015625 9.836181640625
-42.652587890625 -42.991455078125 24.7615966796875
0.265869140625 4.995361328125 5.71337890625
-18.045654296875 5.17626953125 6.0079345703125
-6.60302734375 -25.43115234375 5.9044189453125
-35.088134765625 -34.92529296875 15.706298828125
-16.50439453125 -44.156494140625 3.7542724609375
-22.8623046875 -35.994384765625 8.447021484375
-13.943603515625 -12.399658203125 7.203369140625
-29.13037109375 -48.498779296875 19.48291015625
-29.170654296875 -27.894775390625 4.80859375
7.14111328125 -15.609375 2.5750732421875
-3.455078125 -34.838623046875 15.6397705078125
-16.649169921875 -18.29541015625 2.870849609375
-25.724609375 -37.680419921875 9.94140625
-35.285888671875 -45.817626953125 30.8284912109375
-42.334716796875 -19.7421875 4.3302001953125
-12.75537109375 -42.748291015625 5.054443359375
-44.68115234375 -25.757568359375 19.7010498046875
-46.4375 -42.685791015625 25.4622802734375
-19.85498046875 -38.368408203125 7.7757568359375
4.0009765625 -6.71728515625 4.9068603515625
-13.864990234375 -56.9853515625 -6.6021728515625
-34.353759765625 -5.748779296875 4.9593505859375
4.44677734375 -31.51220703125 -0.189208984375
-29.05419921875 -53.140869140625 14.737548828125
-33.322509765625 -29.2177734375 -0.37109375
-35.083251953125 -18.051025390625 4.8116455078125
-27.318115234375 -9.944580078125 7.6815185546875
-28.976806640625 -45.430419921875 24.60546875
-18.943115234375 -44.065673828125 8.2454833984375
-15.203125 -42.300537109375 8.06787109375
-6.447265625 -30.98291015625 11.232666015625
-14.60400390625 -40.619384765625 8.29296875
-29.203369140625 -15.610595703125 5.2222900390625
-35.239013671875 -62.774658203125 29.2841796875
-45.833740234375 -27.831787109375 6.602294921875
-6.44873046875 -14.0654296875 6.4638671875
-40.041748046875 4.62353515625 6.8704833984375
-11.669677734375 -29.238037109375 9.3905029296875
2.9306640625 -36.60986328125 17.5640869140625
-31.44921875 -6.346435546875 5.03125
-28.677001953125 -56.0283203125 12.916748046875
-44.377685546875 -20.937744140625 6.2685546875
31.744873046875 22.503173828125 0.779541015625
-19.642333984375 -6.336181640625 4.6663818359375
-30.99853515625 -3.4990234375 4.3367919921875
5.879638671875 -30.693359375 -1.757080078125
-28.6279296875 -54.009521484375 12.3072509765625
-29.40576171875 -60.962158203125 10.0030517578125
-28.822021484375 -43.067626953125 10.890625
-27.22021484375 -1.9716796875 4.3184814453125
-27.47021484375 -25.8291015625 3.8035888671875
-3.98095703125 -2.3173828125 3.7425537109375
17.00390625 11.994873046875 5.338623046875
-8.69873046875 -29.09521484375 9.3905029296875
-27.258544921875 -23.53662109375 1.206298828125
-21.283935546875 -30.51416015625 9.6097412109375
-9.142578125 -12.0419921875 7.7303466796875
-33.59912109375 -26.743408203125 0.7874755859375
-32.746337890625 -68.332275390625 -0.947265625
-1.59130859375 -30.992431640625 -0.8792724609375
17.768798828125 8.898193359375 4.134521484375
-28.533447265625 -50.312255859375 13.3795166015625
-44.476806640625 -26.4287109375 15.241455078125
-35.10595703125 -7.76416015625 5.95849609375
-44.500732421875 -30.50341796875 15.0052490234375
-31.038818359375 -61.058837890625 5.8380126953125
-15.5869140625 -21.274658203125 0.66943359375
-29.46728515625 -56.374267578125 -1.2337646484375
-36.0234375 -58.731689453125 26.5294189453125
-16.847412109375 -4.127197265625 3.772216796875
-30.055908203125 -55.185546875 15.3433837890625
-30.868408203125 1.486572265625 4.7366943359375
14.963623046875 9.7255859375 6.124267578125
14.982666015625 28.183837890625 -3.019287109375
-30.3212890625 -45.610107421875 20.787353515625
-39.68896484375 -25.408935546875 1.568603515625
-10.2529296875 -9.242919921875 6.888427734375
-25.428955078125 -35.892822265625 21.3516845703125
-2.899169921875 -30.58203125 0.1483154296875
-38.851806640625 -17.8798828125 4.78759765625
-23.005126953125 -25.260498046875 2.5576171875
16.489013671875 7.9697265625 8.979736328125
-43.816650390625 -4.776611328125 5.609619140625
-16.50439453125 -31.916015625 10.185302734375
22.02001953125 18.750732421875 -0.786376953125
-33.328857421875 -53.68603515625 28.9351806640625
-46.41943359375 -38.4794921875 19.2630615234375
-7.7421875 -2.637451171875 3.363525390625
-7.827880859375 -21.15966796875 1.9658203125
-11.530029296875 -51.150390625 -2.2139892578125
-4.58837890625 -31.150146484375 6.5113525390625
-1.48193359375 -9.091552734375 6.5037841796875
-33.827880859375 -58.271484375 27.071533203125
-14.478759765625 -25.146240234375 3.7266845703125
-37.578857421875 -15.198486328125 6.9940185546875
-30.5126953125 -18.2509765625 3.789794921875
-30.720458984375 -55.0478515625 5.0714111328125
-38.52001953125 -50.89794921875 29.8948974609375
-13.980712890625 -55.361572265625 -6.004150390625
-40.038818359375 -5.365234375 4.9012451171875
-1.243408203125 2.59619140625 4.1829833984375
-30.2666015625 -53.346435546875 8.149658203125
-3.436279296875 -32.1962890625 1.521240234375
-31.007080078125 -63.12890625 1.2886962890625
-25.10498046875 -17.84716796875 4.805908203125
-30.56787109375 -53.00439453125 6.1549072265625
-30.15478515625 -45.960693359375 10.9234619140625
-29.203125 -46.555908203125 16.3184814453125
-30.2099609375 -45.34130859375 28.1436767578125
15.8564453125 25.566650390625 -0.40087890625
-43.281494140625 -33.7548828125 13.773193359375
-30.636474609375 -62.8623046875 -7.737060546875
-45.38134765625 -24.384033203125 3.657470703125
-33.267822265625 -18.46484375 3.1580810546875
-41.863037109375 -29.843994140625 10.0867919921875
-19.901611328125 -29.298828125 8.0186767578125
-27.963134765625 -40.4912109375 13.1524658203125
7.0615234375 -1.989990234375 2.7733154296875
-34.990966796875 -43.513671875 25.7890625
-11.67724609375 2.185546875 4.3287353515625
-45.4306640625 -41.725830078125 28.094970703125
-17.455078125 -45.33203125 5.9930419921875
-13.927490234375 -41.565185546875 4.7977294921875
-13.986083984375 -3.08544921875 3.6680908203125
-9.536376953125 -26.458984375 5.2021484375
-27.65234375 -27.763916015625 5.7161865234375
-25.628173828125 -28.060791015625 5.8824462890625
-34.102783203125 -36.85595703125 17.2589111328125
-40.379638671875 -34.796142578125 14.7042236328125
-16.83642578125 -0.361572265625 3.910400390625
-30.966064453125 -67.52685546875 -1.05126953125
-6.5419921875 7.247314453125 8.449462890625
-15.915283203125 -50.72509765625 2.2137451171875
-14.984619140625 -44.569091796875 2.3447265625
-27.880859375 -46.088134765625 5.4212646484375
4.97314453125 -34.527099609375 -2.410888671875
-3.343994140625 -33.283447265625 4.58251953125
-20.800048828125 -25.527099609375 2.9775390625
-29.646240234375 -55.73388671875 9.0576171875
-25.67919921875 -29.578857421875 8.0269775390625
