-56.816650390625 -69.431884765625 2.60400390625
18.527099609375 -71.49365234375 -34.316650390625
-64.61083984375 -73.192138671875 -117.921142578125
4.380615234375 -20.77880859375 -94.01904296875
15.83056640625 36.418212890625 -65.238037109375
43.29150390625 43.96044921875 21.338623046875
51.469970703125 3.84228515625 64.128662109375
-1.719482421875 41.93017578125 -55.1240234375
40.826904296875 22.4501953125 17.37255859375
3.26708984375 -9.953369140625 -92.969482421875
-2.694580078125 -20.997802734375 -98.31689453125
-5.6884765625 -62.089599609375 -69.332763671875
-56.756591796875 -2.45849609375 -56.188232421875
-68.71826171875 -76.84716796875 -120.1943359375
30.9404296875 8.4365234375 43.1865234375
44.97607421875 -15.865966796875 -34.89990234375
-63.28857421875 4.73779296875 -52.67138671875
48.287841796875 -34.85888671875 -25.482421875
-27.988525390625 -109.845703125 -53.1416015625
-50.909423828125 -0.016845703125 -65.4501953125
-32.078125 -75.831298828125 -78.82470703125
13.1865234375 2.127685546875 30.039306640625
-53.033203125 -53.051025390625 -14.984375
-44.88134765625 -113.9580078125 -62.474365234375
-30.509765625 -29.294921875 -115.954833984375
13.080322265625 -92.04833984375 -32.088623046875
-33.7099609375 -59.16357421875 -97.725830078125
8.836181640625 -4.868408203125 -84.571044921875
15.707275390625 -20.13818359375 -76.178466796875
-3.82470703125 -76.2939453125 -49.638671875
-35.003173828125 -99.399169921875 -73.038330078125
-12.0498046875 -41.69677734375 -48.06884765625
-15.87744140625 -69.655029296875 -82.9296875
-10.916015625 42.374267578125 -53.229736328125
24.282958984375 65.6083984375 -55.892822265625
52.546142578125 -22.787841796875 -2.397705078125
51.868896484375 2.304931640625 56.66162109375
46.2578125 -37.9296875 -32.970458984375
0.932373046875 1.331787109375 -116.256103515625
35.526123046875 -2.09619140625 -67.06787109375
-17.010986328125 -27.869873046875 -109.10546875
68.170654296875 -21.97412109375 -14.71044921875
26.083251953125 33.28759765625 36.2705078125
10.005859375 17.297119140625 -76.10498046875
26.1767578125 -23.932373046875 -66.7255859375
-44.5478515625 27.511474609375 -49.222412109375
51.3837890625 -52.012939453125 -14.079345703125
-19.15576171875 40.524658203125 -48.98974609375
50.52783203125 26.2529296875 8.338623046875
-3.236083984375 -54.89990234375 1.129638671875
-17.472412109375 -63.33984375 -82.413330078125
21.31298828125 43.98828125 21.046142578125
19.56591796875 24.205322265625 9.940673828125
0.3564453125 -36.35009765625 -81.42919921875
-48.49853515625 4.4677734375 -61.965087890625
-9.112548828125 -14.941162109375 -112.505859375
16.45263671875 23.708251953125 -68.811767578125
-0.119384765625 37.50537109375 -58.1357421875
15.0166015625 -15.287353515625 -78.6845703125
41.869384765625 -23.21435546875 -33.798828125
52.5078125 14.343505859375 57.155517578125
48.32421875 -52.531494140625 -18.379638671875
32.7216796875 26.7060546875 -82.544921875
-56.01953125 -38.720703125 -37.9169921875
-52.795654296875 -18.79150390625 -52.15869140625
-3.448486328125 -15.123046875 -103.891845703125
5.680908203125 47.061767578125 -62.228271484375
11.961669921875 -42.35888671875 -65.416015625
-25.89453125 -23.07958984375 -117.82666015625
-34.0068359375 -88.7548828125 -78.00830078125
0.5947265625 -79.68505859375 -51.259521484375
-45.040283203125 -108.0126953125 -71.285888671875
40.357421875 52.154541015625 -1.4306640625
52.458740234375 -49.775146484375 10.422119140625
-14.37255859375 -110.2119140625 -8.69189453125
-18.88818359375 -20.12548828125 -117.297607421875
-49.447265625 -13.573486328125 -59.642822265625
12.607421875 13.15966796875 -84.126953125
-66.94091796875 -109.08642578125 -97.40625
56.98046875 -38.401123046875 -1.172607421875
-22.960693359375 -108.52880859375 -61.738037109375
-51.608642578125 -31.6533203125 -38.82275390625
-1.68359375 -88.853759765625 -47.552734375
10.9677734375 -100.404052734375 -33.630859375
0.082763671875 -17.017333984375 -94.6708984375
-48.611083984375 9.25341796875 -53.67431640625
-43.057861328125 -117.607177734375 -52.973876953125
-4.237060546875 -6.70166015625 -131.35791015625
13.538330078125 -72.26123046875 -45.56103515625
-27.743408203125 -52.877685546875 -92.821533203125
-9.532958984375 -88.7548828125 -54.330078125
-40.210693359375 23.67333984375 -48.818115234375
-67.46044921875 -9.954345703125 -54.876953125
14.191650390625 -67.11474609375 -39.243408203125
20.99853515625 24.503662109375 -7.514892578125
46.666015625 -45.96337890625 -11.18505859375
-42.623291015625 -120.146728515625 -70.317626953125
56.466064453125 -28.10400390625 -2.4130859375
-72.81884765625 -85.079833984375 -117.780029296875
-64.45947265625 -82.208740234375 -111.906982421875
-35.361572265625 19.81103515625 -56.89013671875
6.427001953125 -39.833251953125 -73.370361328125
-8.90771484375 -21.300537109375 -105.939453125
53.053955078125 -23.886474609375 4.4208984375
53.0400390625 38.571533203125 8.096435546875
5.51220703125 13.76220703125 -118.41796875
-16.763427734375 -42.483642578125 -98.094482421875
53.004638671875 36.921142578125 13.71923828125
-23.1005859375 -71.098876953125 -78.9462890625
61.11181640625 -30.45556640625 -8.815185546875
5.0673828125 -8.194580078125 -97.981201171875
15.79248046875 -115.93505859375 -15.423828125
-40.502685546875 -61.39794921875 -102.433837890625
10.259033203125 -46.5283203125 22.81103515625
-3.235595703125 -45.90966796875 -56.3798828125
16.26904296875 -76.78271484375 -34.575927734375
-62.570556640625 -100.512939453125 -97.951416015625
-56.0537109375 -64.361572265625 -3.684326171875
-66.184814453125 -116.05712890625 -93.119140625
24.419921875 15.517822265625 -74.867919921875
65.9267578125 -17.42919921875 -16.58544921875
-53.83642578125 -45.3447265625 -24.4365234375
-28.58837890625 -93.356201171875 -63.314453125
5.245361328125 -100.456787109375 -36.725830078125
17.494384765625 9.468017578125 45.244384765625
28.392333984375 -29.218505859375 -65.5341796875
-21.037353515625 46.451171875 -45.5986328125
20.330810546875 -19.40478515625 -72.197265625
10.905517578125 5.30908203125 -121.666259765625
-10.18505859375 -96.062744140625 -52.007080078125
10.571533203125 9.11376953125 -94.095458984375
49.281982421875 4.0205078125 15.742919921875
-30.1220703125 -103.974365234375 -54.471435546875
14.413330078125 -122.16796875 -23.7373046875
7.936279296875 -55.4248046875 -62.94873046875
-33.329345703125 -77.57568359375 -83.85595703125
-57.69677734375 -62.671142578125 -119.46240234375
-34.259521484375 -29.230712890625 -119.70751953125
52.25634765625 -33.580078125 -5.72705078125
-58.9326171875 -25.9658203125 -51.220947265625
-49.064208984375 -43.388427734375 -27.97802734375
8.913330078125 -91.5087890625 -36.47900390625
11.38134765625 34.62451171875 -62.800048828125
45.70166015625 -3.741943359375 7.385498046875
31.462158203125 13.04541015625 44.705322265625
26.89111328125 37.658935546875 -96.99755859375
46.39697265625 9.8466796875 15.47119140625
19.91943359375 32.71630859375 -68.9765625
6.679443359375 -1.57666015625 -120.63134765625
-30.576416015625 -99.404296875 2.917724609375
-14.472900390625 55.880859375 -54.1572265625
-33.62158203125 -54.432861328125 -100.909423828125
-10.88037109375 -63.63525390625 -76.0068359375
-54.71728515625 -30.07177734375 -44.49951171875
52.312744140625 1.920654296875 32.319091796875
2.453125 -40.315673828125 -78.845458984375
-38.72705078125 -47.92578125 -110.263671875
-48.0859375 -107.33447265625 -79.828369140625
10.89111328125 2.477783203125 -79.31494140625
-59.6220703125 -74.771240234375 -112.165283203125
-61.76171875 -9.75390625 -60.026611328125
26.77197265625 -5.201904296875 -72.679443359375
51.339111328125 16.4794921875 2.64404296875
16.5517578125 -91.09521484375 -16.534423828125
-4.633544921875 -117.276611328125 -20.17919921875
-10.18408203125 -83.540283203125 22.909423828125
58.154296875 -70.06005859375 -12.138671875
-1.521728515625 -28.53466796875 -90.2333984375
7.737060546875 -67.908203125 -52.594482421875
50.960693359375 -15.60498046875 -3.1494140625
-9.152099609375 17.421875 -96.58740234375
-37.651123046875 -115.408935546875 -62.961669921875
49.376220703125 -66.96533203125 -14.830322265625
-48.8671875 28.155517578125 -51.251708984375
-23.56005859375 -110.846435546875 -54.851806640625
14.89990234375 -44.87939453125 -69.827880859375
23.21142578125 -14.70458984375 -72.32470703125
24.229736328125 44.620361328125 -98.585205078125
-54.218505859375 2.81494140625 -54.094482421875
-52.11376953125 -65.970458984375 -110.962158203125
-31.34521484375 -43.48046875 -105.251953125
-15.780517578125 -40.825927734375 -51.16455078125
-7.85986328125 -59.59228515625 -7.298828125
-29.296142578125 11.031982421875 -87.7333984375
22.172119140625 -25.11376953125 -69.099365234375
-64.26025390625 -90.20458984375 -106.202880859375
-14.667236328125 -42.37548828125 -93.522216796875
15.887451171875 -100.9921875 -21.012939453125
-34.150146484375 -101.087890625 -66.03955078125
3.451904296875 21.6806640625 -72.994873046875
14.7841796875 12.991943359375 48.022705078125
33.7138671875 17.062744140625 -76.093994140625
6.154541015625 28.159423828125 -66.734375
21.38916015625 16.617919921875 50.072509765625
-23.685546875 12.12744140625 -86.25927734375
-27.080078125 33.016357421875 -51.460205078125
-21.197265625 -49.242431640625 -93.850830078125
-47.16259765625 -31.170166015625 -42.745849609375
13.422607421875 3.5078125 -70.94580078125
13.200439453125 -0.22607421875 36.416259765625
-11.1201171875 -35.054443359375 -97.41162109375
23.913330078125 9.30517578125 44.635986328125
-32.254150390625 27.369873046875 -51.981689453125
-14.890380859375 -56.457763671875 -83.05712890625
-20.276123046875 -28.26953125 -112.508056640625
51.566650390625 -42.61376953125 -11.970458984375
-21.521484375 18.421875 -90.98486328125
1.843505859375 -120.6328125 -22.678955078125
-26.160888671875 -78.2412109375 -11.635986328125
12.905517578125 -75.546630859375 -40.80517578125
-47.423828125 -26.759521484375 -46.75390625
-38.328369140625 -84.453857421875 -84.978759765625
-30.58740234375 -50.37939453125 -98.36474609375
42.13134765625 -16.070556640625 -7.009033203125
-0.3447265625 19.22802734375 -112.4248046875
-34.81640625 -117.8125 -48.168701171875
-52.80029296875 -57.021728515625 -120.652587890625
19.4716796875 8.263671875 -76.1455078125
2.39404296875 -88.69140625 -44.090087890625
-5.97216796875 -58.367919921875 -72.179443359375
50.010009765625 12.3369140625 25.409912109375
18.1015625 -36.1748046875 -66.323486328125
-21.21240234375 -18.720458984375 -124.481201171875
22.724609375 -96.009521484375 -8.193359375
-66.388916015625 -15.87109375 -63.20361328125
0.613037109375 -53.004638671875 -57.85205078125
3.5078125 -22.917724609375 -89.230224609375
-56.20751953125 -9.54296875 -61.849609375
-0.552734375 -57.268310546875 -64.79736328125
-13.161376953125 -27.4482421875 -103.4794921875
-14.81787109375 -65.556884765625 -12.404052734375
30.659912109375 6.283447265625 -65.740478515625
11.681884765625 -7.37939453125 -117.95068359375
34.663330078125 63.043212890625 -64.138916015625
4.30419921875 -47.044921875 -62.809326171875
42.68212890625 -31.251708984375 -22.85205078125
13.917236328125 -64.915283203125 -48.2578125
52.78759765625 12.49365234375 65.56005859375
69.3427734375 -47.3173828125 -0.7890625
52.22998046875 -3.120849609375 23.93798828125
-16.902587890625 -102.747802734375 -54.46533203125
8.345947265625 -74.731201171875 -48.02490234375
52.884521484375 40.399658203125 17.393310546875
23.265380859375 2.98193359375 40.2197265625
14.143798828125 -1.64892578125 -75.955078125
-42.855712890625 -107.554931640625 -67.236572265625
6.6455078125 27.19775390625 -72.37548828125
30.907958984375 48.099853515625 8.876953125
14.695068359375 16.6826171875 -75.1162109375
-3.595458984375 -101.33447265625 -44.17724609375
-24.28076171875 -119.236572265625 -52.01416015625
15.796630859375 44.700439453125 11.088623046875
-34.898681640625 -113.412353515625 -49.49560546875
-52.719482421875 -47.931640625 -20.449462890625
-3.9208984375 52.836669921875 -54.672119140625
-39.426025390625 -35.822265625 -116.745849609375
-55.41259765625 -59.034423828125 -8.4658203125
-8.90869140625 -44.455078125 -49.93896484375
-60.4072265625 14.14013671875 -53.08154296875
-23.622802734375 -31.80029296875 -112.665771484375
-43.114990234375 -100.99267578125 -79.052001953125
-10.517333984375 -113.257080078125 -10.98046875
52.83251953125 31.312744140625 2.088623046875
43.20849609375 62.0712890625 -45.998046875
20.961669921875 47.450439453125 9.3251953125
-23.918212890625 -36.203857421875 -107.8662109375
-30.51708984375 -86.275634765625 -69.835693359375
-56.029052734375 -39.30419921875 -33.175048828125
52.451171875 -37.993408203125 -27.200927734375
14.3369140625 9.251953125 -74.72216796875
52.82470703125 37.99267578125 -2.945556640625
39.503173828125 25.753173828125 13.845703125
10.4296875 -121.123046875 -26.466064453125
23.103271484375 31.109619140625 -71.98046875
-8.29736328125 11.836669921875 -104.19677734375
3.913330078125 33.49951171875 -62.577880859375
20.701416015625 -62.18017578125 -41.02587890625
-18.432861328125 -65.968017578125 -99.42724609375
51.6015625 2.515869140625 25.455322265625
28.962158203125 69.114013671875 -67.473876953125
-2.756103515625 53.692138671875 -59.138427734375
-7.009765625 50.50927734375 -51.757080078125
9.817626953125 -83.17236328125 -39.519775390625
20.41943359375 22.4384765625 -71.30615234375
-62.535888671875 -69.3056640625 -119.412109375
-20.085205078125 -34.917236328125 -105.1923828125
52.58984375 37.10400390625 -25.501953125
9.782958984375 -42.39208984375 56.19091796875
-3.847412109375 -86.91650390625 28.718505859375
-23.064697265625 38.0927734375 -48.572021484375
-29.8193359375 -67.19775390625 -83.898193359375
21.28857421875 -10.683837890625 -75.397216796875
-37.4296875 -63.486572265625 -98.135498046875
8.3984375 -112.0361328125 -27.08056640625
-24.214111328125 -39.628173828125 -102.784912109375
51.0087890625 -41.83837890625 -22.29150390625
51.94384765625 33.46875 -36.680908203125
20.764404296875 18.20361328125 -73.9267578125
0.937255859375 -51.105224609375 8.8955078125
-24.386962890625 5.903076171875 -82.55908203125
12.3544921875 -6.835205078125 -77.0234375
-74.254638671875 -105.392333984375 -106.34423828125
7.5107421875 -59.613037109375 -61.48876953125
30.762939453125 -7.115478515625 -70.70751953125
3.074951171875 -110.499267578125 -24.97412109375
32.532470703125 -13.307373046875 -65.47705078125
34.3564453125 5.509765625 41.16650390625
-57.6396484375 -52.8564453125 -15.654052734375
46.220703125 48.465087890625 13.935546875
-30.021240234375 -72.132568359375 -80.151123046875
24.404541015625 33.95751953125 -75.767333984375
-27.98974609375 -62.201171875 -86.439453125
26.41943359375 7.3056640625 -66.4765625
17.26708984375 -95.359375 -14.86328125
-52.26904296875 -72.51708984375 1.230224609375
-22.71923828125 -103.85595703125 -58.982666015625
-2.570556640625 -82.662353515625 30.724365234375
10.382568359375 43.380615234375 -65.06982421875
6.735595703125 -117.10986328125 -23.81005859375
-34.996337890625 -119.551025390625 -43.782470703125
-40.37841796875 15.67724609375 -54.49609375
-19.094970703125 -79.34423828125 -14.061767578125
26.38525390625 0.7646484375 37.844970703125
-59.072509765625 8.703125 -51.9580078125
3.85400390625 -74.112548828125 -44.355712890625
2.0224609375 48.443359375 -58.11962890625
-32.937744140625 -84.02783203125 -74.262451171875
-35.4267578125 -123.70751953125 -48.55322265625
-20.865966796875 -61.176025390625 -103.7548828125
64.986328125 -24.65576171875 -12.802001953125
51.171875 -6.262451171875 7.620849609375
-40.998046875 -118.7451171875 -41.701904296875
-10.59912109375 -56.8525390625 -79.082275390625
-33.33642578125 -92.652587890625 -73.834228515625
-30.4091796875 -113.138427734375 -48.419677734375
12.37255859375 -36.171630859375 -73.5419921875
32.36181640625 50.22802734375 3.1083984375
49.966796875 -27.33642578125 -16.40087890625
-23.827392578125 -75.9169921875 -74.817626953125
-42.919921875 10.5498046875 -60.55712890625
12.118896484375 -34.501708984375 53.568603515625
52.4306640625 -23.2626953125 -8.028076171875
52.811279296875 -50.262451171875 -3.927734375
-26.8505859375 -97.507080078125 -61.4345703125
7.939453125 23.029541015625 -68.083251953125
7.017333984375 -107.852783203125 -29.8779296875
24.468994140625 22.89599609375 -73.70556640625
52.779052734375 44.9541015625 21.11279296875
-58.051513671875 -90.7119140625 -99.635986328125
52.7578125 -35.126708984375 -15.370849609375
13.29052734375 -38.58740234375 -67.04345703125
-2.230712890625 -4.51513671875 -121.738525390625
-5.635009765625 10.0390625 -107.261474609375
47.48828125 21.324462890625 14.427734375
-13.9306640625 -65.720458984375 -36.453369140625
16.270751953125 -34.825439453125 58.96484375
50.591552734375 17.64697265625 30.8349609375
7.0615234375 -80.455322265625 -46.90625
-16.35107421875 -17.89306640625 -114.673095703125
21.257080078125 -68.90380859375 -13.567138671875
-24.859375 -88.948974609375 -67.52783203125
52.344482421875 -16.798828125 7.8466796875
12.222900390625 7.95361328125 -117.622314453125
-13.678466796875 -108.513671875 -12.546875
3.410888671875 -55.02880859375 9.420166015625
29.85205078125 27.479248046875 -79.483154296875
-40.11474609375 -57.982666015625 -104.961181640625
4.727783203125 -27.76806640625 -84.158935546875
18.133544921875 -60.81884765625 -47.050048828125
20.701171875 -83.889892578125 -8.046875
-68.15380859375 -80.692138671875 -116.99072265625
-58.097412109375 -50.199951171875 -23.0712890625
-60.116943359375 -85.34765625 -104.970458984375
-23.816162109375 -98.036865234375 24.658935546875
34.1328125 34.4521484375 -92.3212890625
27.558349609375 17.5009765625 -72.322509765625
-0.047607421875 25.47021484375 -69.471923828125
-33.12939453125 -101.644287109375 -60.365966796875
2.140380859375 -2.8388671875 -119.07470703125
8.993896484375 -23.871826171875 -79.408447265625
34.325439453125 -27.623046875 -5.22607421875
21.63427734375 -83.4755859375 -17.757568359375
13.47314453125 -118.42333984375 -28.611572265625
6.6201171875 43.109619140625 -61.02880859375
-57.74267578125 -16.985107421875 -56.6376953125
21.732177734375 -99.79052734375 -4.43017578125
-38.358154296875 -114.7158203125 -56.4130859375
-6.691650390625 42.284912109375 -53.18017578125
53.009521484375 0.03271484375 17.486328125
41.760009765625 53.339599609375 -5.235107421875
-60.255859375 -3.601806640625 -54.12255859375
8.0146484375 2.142333984375 -122.13818359375
2.02294921875 -69.477783203125 -54.720458984375
-7.4921875 -36.812255859375 -91.70068359375
-35.385009765625 -37.6669921875 -112.11474609375
-59.0703125 -98.742919921875 -96.37353515625
0.188232421875 -114.168212890625 -21.28271484375
52.813232421875 -53.791259765625 2.939697265625
-2.3046875 -93.0078125 -47.354248046875
-1.416748046875 -9.773193359375 -94.8828125
23.568115234375 -64.974365234375 -17.77392578125
34.711669921875 27.462158203125 12.79345703125
-40.685791015625 -88.277587890625 -84.953857421875
-75.1337890625 -117.66162109375 -90.5390625
-7.48583984375 -92.853271484375 -52.07666015625
-30.11181640625 46.956787109375 -49.24267578125
4.079345703125 -92.37353515625 -42.45654296875
26.685791015625 29.190673828125 1.912841796875
-52.7666015625 14.239501953125 -50.875732421875
-15.30810546875 -46.1953125 -89.966064453125
52.1181640625 -6.403564453125 15.63232421875
15.804931640625 -110.3447265625 -18.370849609375
-34.162841796875 -48.848876953125 -106.391845703125
27.409912109375 35.39111328125 -90.7060546875
-19.18115234375 -63.593017578125 -110.517578125
-51.0498046875 -6.341552734375 -66.9111328125
17.996826171875 -78.574951171875 -27.0302734375
19.134033203125 2.3876953125 40.255126953125
-8.109375 -27.97607421875 -97.446533203125
55.679931640625 -64.571533203125 -16.089599609375
-20.059814453125 -71.553955078125 -82.0830078125
18.781982421875 28.38818359375 -68.514404296875
14.74462890625 10.521484375 -86.5419921875
-35.939697265625 -53.62353515625 -104.271484375
61.289794921875 -38.74072265625 -4.709228515625
13.639404296875 -52.081787109375 -60.00244140625
-70.02490234375 -16.92822265625 -58.356201171875
0.79345703125 -3.328125 -113.501708984375
3.08251953125 31.18505859375 -65.925048828125
-35.872314453125 -75.634521484375 -88.0869140625
-56.474609375 -35.357666015625 -35.543212890625
-19.17138671875 3.474365234375 -79.426513671875
22.996337890625 -76.179443359375 -20.8212890625
28.504638671875 -10.537841796875 -69.073974609375
24.478515625 25.581787109375 16.042724609375
-45.306640625 7.347412109375 -63.41455078125
10.294677734375 -62.782470703125 -55.990966796875
-16.07421875 15.40234375 -85.908935546875
-5.513916015625 -13.231689453125 -108.091064453125
14.35791015625 -14.424072265625 -97.361572265625
53.693115234375 32.107666015625 47.92822265625
31.10986328125 16.752685546875 49.44482421875
-35.5888671875 -109.72265625 -53.058349609375
-38.26025390625 -91.817138671875 -80.188720703125
-13.850830078125 -98.16845703125 -53.680908203125
13.417236328125 -102.153076171875 -27.369873046875
20.19921875 -3.654541015625 -73.01513671875
-71.6826171875 -12.271728515625 -54.375732421875
-38.651123046875 -104.857421875 -73.40185546875
-57.321044921875 -33.21728515625 -44.13037109375
11.707763671875 -29.1904296875 -75.747314453125
-19.08837890625 -84.885986328125 -70.5029296875
51.728515625 -34.5400390625 0.518798828125
49.7939453125 -42.647705078125 -32.38330078125
30.591796875 -50.950927734375 -121.01318359375
7.4638671875 -6.7373046875 -120.882568359375
-51.347900390625 -115.81298828125 -48.4150390625
-13.86279296875 -34.125244140625 -100.295654296875
-37.615478515625 -42.49755859375 -110.052001953125
-32.802001953125 -63.658447265625 -91.40771484375
17.895751953125 27.72314453125 14.605224609375
50.52734375 26.797119140625 17.0283203125
-59.69140625 -66.2197265625 -119.1435546875
-41.997314453125 31.103271484375 -48.519287109375
6.7626953125 -32.578369140625 -78.802978515625
45.24951171875 11.590087890625 19.91845703125
2.6005859375 -108.896484375 -33.273193359375
43.37255859375 -47.92138671875 -13.14697265625
52.59375 31.2958984375 17.278564453125
19.518798828125 -110.20263671875 -10.826416015625
42.486328125 49.633056640625 7.176513671875
-66.5732421875 -6.272216796875 -53.39794921875
-15.91650390625 -21.0966796875 -111.8896484375
-25.4453125 -65.1513671875 -82.89697265625
-11.8212890625 45.36083984375 -49.124267578125
-31.31005859375 3.9814453125 -84.087890625
-46.352783203125 -109.99267578125 -76.36572265625
52.017333984375 -33.625244140625 -20.216064453125
37.2490234375 -19.4921875 -55.893310546875
47.336669921875 -12.30908203125 -1.393310546875
52.66796875 18.088623046875 8.252685546875
-10.169677734375 -24.86865234375 -104.5087890625
51.34912109375 26.840087890625 -0.4921875
-15.280029296875 -53.517822265625 -85.806640625
14.007568359375 18.10302734375 52.265869140625
46.72607421875 -28.464111328125 -18.561767578125
39.4697265625 -8.49072265625 -0.26513671875
-3.967529296875 -35.495361328125 -87.86328125
29.52783203125 -59.63330078125 -76.3505859375
26.0263671875 68.290283203125 -64.03076171875
22.9228515625 48.532958984375 5.974853515625
-26.759033203125 -78.630859375 -73.200927734375
11.853515625 -18.232177734375 -76.683837890625
-4.011962890625 -13.713134765625 -93.756591796875
-18.23193359375 11.883056640625 -84.042724609375
19.27490234375 36.657958984375 -69.4384765625
41.089111328125 41.646728515625 14.510009765625
17.699462890625 -29.47607421875 52.286865234375
29.55810546875 10.22900390625 -66.120361328125
-4.663818359375 -13.773193359375 -130.33544921875
-9.906005859375 -40.726806640625 -91.671630859375
11.3046875 13.60498046875 -94.6875
10.387451171875 -41.1552734375 60.065185546875
-3.9990234375 19.098876953125 -97.291259765625
-26.4169921875 -121.584228515625 -49.395751953125
43.084228515625 -81.163330078125 -7.105712890625
-47.817138671875 -37.734130859375 -34.431640625
-1.587158203125 112.169677734375 -7.266845703125
-7.88916015625 -112.014892578125 -14.314208984375
-15.35791015625 -105.7841796875 -57.055419921875
-30.71875 39.740234375 -46.5341796875
25.820556640625 28.615234375 -74.908203125
52.98046875 41.873779296875 5.841064453125
-29.482421875 -101.273681640625 11.07177734375
-9.549560546875 19.513671875 -93.191162109375
43.509521484375 65.54443359375 -50.416748046875
-27.5703125 -103.781982421875 -57.793212890625
4.091552734375 -117.218017578125 -20.81884765625
15.310302734375 27.0693359375 -66.7236328125
51.752685546875 27.456298828125 12.724365234375
13.73681640625 -115.905029296875 -23.34423828125
-1.959716796875 0.554931640625 -119.037841796875
25.210205078125 -87.451904296875 -8.754638671875
40.2802734375 -18.30810546875 -53.59814453125
6.72802734375 19.06884765625 -74.70361328125
25.048583984375 6.10791015625 42.554931640625
55.864013671875 -3.713134765625 28.822998046875
-29.703125 -56.328369140625 -92.5341796875
48.12109375 16.871826171875 25.771240234375
51.743896484375 -7.239013671875 22.38916015625
51.858154296875 10.00146484375 51.4482421875
17.859130859375 -87.75 -18.216064453125
12.728271484375 30.391357421875 -63.909912109375
-19.905029296875 -77.03955078125 -75.029541015625
50.996826171875 -39.1064453125 -15.57861328125
54.73095703125 -49.55712890625 -10.746826171875
12.5234375 -60.583740234375 -53.58154296875
24.2705078125 -60.99951171875 -39.520751953125
-5.558837890625 -56.4716796875 -63.264404296875
15.77294921875 43.789306640625 16.481689453125
-18.86962890625 37.8486328125 -51.907958984375
31.00927734375 1.127197265625 -68.300048828125
40.97509765625 -76.744384765625 3.12646484375
45.38671875 51.10107421875 3.920654296875
0.212890625 45.303955078125 -55.690185546875
-20.34814453125 -54.9736328125 -91.776123046875
-19.617919921875 -66.54150390625 -90.619384765625
-8.56689453125 36.502197265625 -59.16259765625
-68.84375 -106.274658203125 -100.505859375
-52.336181640625 -21.65869140625 -49.23388671875
15.51123046875 36.881591796875 18.285400390625
48.064208984375 -61.0927734375 -18.565185546875
17.240234375 -0.72900390625 36.64501953125
-51.6376953125 -40.51806640625 -29.0673828125
42.212646484375 -17.82421875 -32.64990234375
32.254150390625 1.286376953125 38.532470703125
52.418212890625 -36.87158203125 -8.250244140625
-3.839111328125 35.57666015625 -59.49951171875
-40.87451171875 -73.29052734375 -94.544921875
10.57080078125 -1.401123046875 -83.428955078125
-3.4677734375 31.74560546875 -65.571533203125
-23.285400390625 -85.5751953125 -8.889404296875
-57.724609375 -67.883056640625 -115.732666015625
-30.650634765625 30.538330078125 -50.322265625
31.503662109375 66.5 -56.988037109375
-20.76220703125 -46.25634765625 -96.315185546875
42.903564453125 -28.334228515625 -19.970458984375
-46.607666015625 -119.61962890625 -68.91357421875
-59.14208984375 -59.35009765625 -10.059326171875
-9.44287109375 39.178466796875 -55.443603515625
45.212890625 -42.76904296875 -13.1201171875
-4.745361328125 -113.376708984375 -18.6923828125
52.481689453125 -55.08984375 -4.845703125
-19.974609375 0.043701171875 -81.0654296875
40.445068359375 -25.756591796875 -18.114501953125
-72.266845703125 -119.8154296875 -88.964599609375
-17.15478515625 53.8837890625 -50.552490234375
55.368408203125 4.201416015625 39.144775390625
52.296875 7.17822265625 20.865478515625
33.890869140625 43.349365234375 21.55126953125
-36.5322265625 -70.6689453125 -92.45703125
-29.089111328125 -31.107421875 -112.835205078125
4.37744140625 10.072998046875 -118.103515625
13.3759765625 -114.389404296875 -19.323974609375
-69.83984375 -96.74462890625 -107.096923828125
26.8935546875 -0.83203125 -72.46484375
22.157958984375 13.49609375 -77.4248046875
-26.749755859375 -85.497802734375 -68.5703125
-33.68505859375 -98.07275390625 -68.989501953125
-16.562255859375 -114.3583984375 -65.874267578125
-32.19384765625 -94.74267578125 -65.88330078125
13.654296875 41.7265625 -66.58740234375
39.40869140625 67.911376953125 -58.8427734375
-15.375 -60.471435546875 -83.911376953125
44.51806640625 47.23046875 18.653076171875
-56.24658203125 -43.698486328125 -32.7470703125
24.263427734375 12.788330078125 46.748779296875
51.138671875 -55.323974609375 -21.427734375
25.00927734375 12.659912109375 -69.449462890625
12.12939453125 21.280029296875 -69.782958984375
-24.406982421875 -53.835693359375 -91.1708984375
55.8671875 35.69287109375 -19.01806640625
44.2900390625 -18.95703125 -9.422119140625
12.873779296875 -69.765625 -41.688232421875
10.6513671875 -12.0234375 -94.0166015625
-23.54931640625 -77.280517578125 -15.79052734375
40.57373046875 46.382080078125 20.152099609375
-22.270751953125 -21.826904296875 -116.731689453125
16.7646484375 5.983154296875 43.05126953125
52.039794921875 0.324462890625 22.290771484375
57.02587890625 -34.12451171875 -3.687255859375
-56.267333984375 -7.426513671875 -65.429443359375
10.7431640625 -51.257080078125 -63.05419921875
44.356201171875 -23.013671875 -13.45751953125
-15.62646484375 -36.677490234375 -98.086181640625
-65.0576171875 -94.818115234375 -103.73095703125
33.555419921875 46.437255859375 17.100341796875
33.266357421875 24.202392578125 16.55908203125
-65.83642578125 1.946533203125 -53.087158203125
-27.180419921875 44.620849609375 -46.79150390625
-6.37548828125 14.81982421875 -100.8466796875
-8.41162109375 -58.538330078125 -76.412109375
10.288330078125 -1.252685546875 -119.493408203125
-19.520263671875 -74.402099609375 -12.591552734375
-8.041748046875 -40.37548828125 -51.735107421875
6.99462890625 -17.743408203125 -95.306640625
52.853515625 30.110595703125 7.683349609375
23.138427734375 6.154296875 -67.988525390625
-38.69140625 -118.4423828125 -51.060302734375
-22.975341796875 -25.4716796875 -115.940185546875
21.52783203125 45.523193359375 16.933349609375
48.221435546875 -42.00146484375 -19.7392578125
-66.013427734375 -85.6513671875 -110.93896484375
35.034423828125 61.349609375 -68.21435546875
-16.197509765625 38.106689453125 -55.9638671875
5.35302734375 -96.6923828125 -36.529052734375
12.139892578125 8.492919921875 -90.169677734375
-54.852783203125 -12.106201171875 -59.168701171875
-54.9091796875 -67.212158203125 -0.740966796875
54.046630859375 -12.997314453125 17.795166015625
56.445556640625 28.652099609375 54.4345703125
13.6220703125 -87.501953125 -31.83642578125
44.28173828125 -6.742919921875 3.238525390625
-31.73974609375 -90.775146484375 -68.353759765625
16.744384765625 -30.56298828125 -69.64892578125
-13.559814453125 -61.096435546875 -34.984375
-42.59375 -117.19580078125 -45.43701171875
-43.685546875 -109.14208984375 -63.9375
-22.015625 53.684814453125 -51.869140625
48.80810546875 19.2060546875 10.77392578125
-71.287109375 -76.5 -122.906982421875
35.130859375 6.640380859375 -67.843994140625
5.662353515625 -46.5166015625 -67.953369140625
-43.543212890625 15.25390625 -52.059326171875
9.52880859375 -5.375732421875 -80.927001953125
29.851806640625 68.16748046875 -63.412353515625
-22.09375 -43.3505859375 -102.7783203125
52.539306640625 -28.56201171875 -12.164306640625
-52.20703125 -63.47998046875 -114.18310546875
54.80908203125 24.700927734375 18.39892578125
7.788818359375 35.91748046875 -61.87451171875
43.271484375 48.75390625 11.670654296875
4.204833984375 -85.43359375 -44.0078125
-21.92333984375 -70.866455078125 -14.24267578125
31.10546875 -25.10986328125 -4.963623046875
47.072265625 -9.5634765625 1.484619140625
52.1875 -31.0439453125 -0.687744140625
41.5400390625 54.17236328125 -9.120361328125
-23.69921875 51.376708984375 -49.218505859375
6.765869140625 -22.124267578125 -86.916015625
-44.316162109375 22.582275390625 -49.461181640625
-12.326171875 -87.81982421875 23.411865234375
54.16357421875 17.497314453125 31.83544921875
-17.89306640625 -30.508056640625 -106.65380859375
69.44921875 -16.354248046875 -21.216064453125
39.777099609375 65.685302734375 -51.18994140625
-16.0791015625 18.151123046875 -88.387451171875
-65.984130859375 6.9189453125 -53.948486328125
-3.808349609375 -81.7939453125 -53.59033203125
9.96044921875 -19.2294921875 -96.928955078125
-15.154296875 22.383056640625 -94.0830078125
-57.603271484375 5.347900390625 -51.525390625
28.3349609375 -19.225341796875 -65.5810546875
52.48388671875 -14.8662109375 1.794189453125
-7.536376953125 -85.4677734375 26.623779296875
15.089111328125 -25.345947265625 -73.941650390625
32.20751953125 12.894287109375 -69.7568359375
53.282470703125 -5.466552734375 26.7744140625
-47.948974609375 -115.560791015625 -71.072021484375
-3.000732421875 -61.61279296875 -66.872802734375
19.804931640625 -31.243408203125 55.37451171875
19.0146484375 4.6630859375 -72.1513671875
33.98388671875 -5.528564453125 -66.719482421875
52.5595703125 33.98828125 -27.434814453125
54.362548828125 -40.328369140625 6.33056640625
-16.2802734375 -24.260986328125 -110.07373046875
3.88330078125 6.39599609375 -118.8720703125
-54.443603515625 -73.808837890625 -108.44287109375
-36.489013671875 40.56640625 -50.146240234375
-43.308349609375 34.96484375 -50.372314453125
-53.376953125 -55.974609375 -12.52392578125
11.904296875 3.4560546875 -84.816162109375
12.294921875 -84.744873046875 -37.3330078125
52.884765625 -59.3427734375 -19.0390625
34.556396484375 8.73291015625 -64.85791015625
-4.517822265625 -52.928955078125 -60.78564453125
-48.675537109375 -20.6298828125 -52.849853515625
0.011962890625 4.6572265625 -118.58935546875
53.241943359375 27.362548828125 48.8740234375
32.16845703125 29.595703125 -85.932861328125
-24.916748046875 9.034423828125 -84.406005859375
25.03955078125 -98.690185546875 -6.28515625
-22.403564453125 -96.90283203125 27.830322265625
8.9482421875 -4.890625 -123.72998046875
44.52685546875 -71.2353515625 1.18798828125
-43.0400390625 -116.16796875 -64.720703125
21.673828125 -89.447265625 -4.26025390625
24.373291015625 -27.783447265625 -67.301025390625
52.3408203125 -1.279296875 57.13525390625
-50.85498046875 -24.90625 -44.218994140625
-30.12646484375 -123.4619140625 -47.3095703125
-61.586181640625 -77.800537109375 -111.6796875
-57.8505859375 -14.116943359375 -64.82861328125
8.56494140625 1.89013671875 -89.339599609375
-32.615966796875 -68.172607421875 -86.794921875
2.384521484375 -55.450927734375 -61.153564453125
11.24462890625 -36.032470703125 -4.427001953125
-2.808837890625 28.1962890625 -70.669677734375
-14.396728515625 -73.04931640625 -11.880859375
48.48291015625 -17.50634765625 -6.38623046875
-18.219482421875 9.175048828125 -81.596435546875
53.443115234375 41.5478515625 -3.248046875
-0.382080078125 13.762451171875 -101.488525390625
52.08154296875 -13.6826171875 12.02783203125
34.775634765625 48.38134765625 9.248046875
-21.769287109375 -93.31494140625 22.328125
19.472900390625 42.01513671875 18.636962890625
25.277099609375 41.344482421875 -97.47265625
-2.989501953125 -17.851806640625 -101.56689453125
-57.39111328125 -45.869384765625 -29.5947265625
19.32861328125 -86.795654296875 -9.69384765625
58.620849609375 -37.5 -6.800048828125
19.5087890625 -7.531005859375 -77.1533203125
52.405029296875 -20.33837890625 4.29296875
-0.5888671875 -7.313720703125 -130.37451171875
-4.8076171875 -10.46044921875 -131.748046875
16.251708984375 -100.12744140625 -47.24462890625
52.045166015625 -37.772705078125 -1.040283203125
-19.599853515625 -60.364990234375 -85.5146484375
14.872802734375 -90.75390625 -24.241943359375
12.9169921875 -107.431640625 -21.835205078125
-28.947021484375 50.394775390625 -50.90380859375
18.84765625 -114.817626953125 -12.2802734375
-64.063720703125 -11.331787109375 -57.509033203125
9.2998046875 -41.022216796875 -67.41845703125
-28.09814453125 -26.6376953125 -115.957763671875
-14.671875 -68.464111328125 -78.56982421875
-50.89404296875 9.652099609375 -50.9501953125
-73.00341796875 -18.883056640625 -58.084228515625
-65.0439453125 -68.510009765625 -122.527099609375
21.5302734375 20.86181640625 7.591796875
17.800537109375 -80.577880859375 -30.45361328125
-25.4736328125 -32.521240234375 -108.912109375
32.160888671875 -22.794677734375 -61.32080078125
-9.930419921875 -106.44287109375 -12.884033203125
-2.3916015625 6.18896484375 -120.966552734375
-30.965576171875 -106.9365234375 -52.05078125
-32.91455078125 35.303466796875 -46.97265625
-53.02880859375 -120.187744140625 -45.55078125
-20.44091796875 -40.15869140625 -100.46142578125
6.5146484375 -12.317626953125 -93.908447265625
34.21533203125 18.3955078125 50.49853515625
15.882568359375 15.70166015625 50.040771484375
-55.209228515625 21.39208984375 -52.61328125
-69.31787109375 -3.696533203125 -53.584228515625
11.401611328125 -43.041015625 64.65380859375
-55.047607421875 -2.4453125 -62.216796875
-29.724609375 -46.953369140625 -100.777099609375
-42.86083984375 -121.7685546875 -40.860107421875
-5.233642578125 -24.03857421875 -97.387939453125
43.938720703125 -12.179931640625 -2.388427734375
-13.745849609375 -61.80712890625 -77.02490234375
-3.1416015625 44.756591796875 -53.5361328125
-40.122314453125 -82.480712890625 -88.14794921875
21.32666015625 21.2587890625 -5.8740234375
-65.978271484375 -112.67041015625 -94.123291015625
22.29296875 40.594482421875 21.248291015625
-33.646484375 -85.50439453125 -80.020263671875
-33.4033203125 45.840087890625 -49.87646484375
27.584716796875 21.62548828125 -76.080078125
0.11767578125 -109.849365234375 -22.22802734375
-15.033935546875 -69.46337890625 -12.005859375
26.4052734375 45.578857421875 19.262939453125
10.1640625 2.785888671875 -72.653076171875
-14.7021484375 42.21044921875 -50.40625
53.093994140625 -1.813720703125 31.845458984375
6.6005859375 -25.575927734375 -81.47509765625
0.120361328125 31.11279296875 -63.779052734375
-36.849365234375 17.8779296875 -59.42724609375
-70.5029296875 -100.14404296875 -105.776123046875
-55.228515625 -68.23779296875 -112.8701171875
52.26953125 -12.118408203125 4.375732421875
26.451416015625 -25.160400390625 -61.880126953125
35.837158203125 -0.23486328125 36.185302734375
27.94580078125 63.181396484375 -57.25048828125
19.30859375 -75.339111328125 -26.729736328125
-34.254638671875 28.04638671875 -48.720458984375
-33.630615234375 6.294189453125 -86.09228515625
-46.36767578125 -116.80908203125 -44.78955078125
2.869873046875 28.31591796875 -67.9375
-69.550537109375 -87.52490234375 -113.326416015625
52.911376953125 34.808837890625 2.255859375
-10.78955078125 48.697265625 -49.5283203125
-62.3857421875 -103.37890625 -95.951904296875
11.009033203125 -35.733642578125 56.647705078125
16.3544921875 -119.375732421875 -18.67041015625
-30.32080078125 -61.381103515625 -88.962158203125
52.308349609375 -10.2158203125 11.660888671875
-29.794921875 -40.40283203125 -105.821044921875
-57.11669921875 -29.48046875 -55.375
13.5517578125 -45.45361328125 -65.143798828125
52.38720703125 -23.125732421875 1.08203125
-55.543701171875 -90.1396484375 -97.27978515625
-41.89404296875 28.107177734375 -46.638427734375
53.0791015625 -2.133544921875 11.365966796875
-0.80078125 -45.823486328125 -60.638916015625
-29.449951171875 -76.972900390625 -75.580078125
-14.6630859375 -69.71484375 -72.81982421875
7.740478515625 -101.5654296875 -34.56884765625
12.615234375 -31.743896484375 -71.51953125
-26.56494140625 -95.758056640625 26.169677734375
-59.6708984375 -5.66748046875 -57.798828125
-40.33984375 13.545654296875 -64.13720703125
-36.639892578125 -106.9375 -68.9072265625
-48.23828125 -112.696044921875 -66.776611328125
52.66943359375 -52.785400390625 12.128662109375
-52.341796875 -43.16748046875 -26.8740234375
13.040283203125 -12.568115234375 -79.560791015625
5.939453125 -19.98193359375 -97.72705078125
41.108642578125 -15.3017578125 -34.746826171875
20.263916015625 23.8310546875 15.51171875
-1.543701171875 -51.32177734375 -60.0654296875
-43.925537109375 -82.434814453125 -89.844970703125
20.475830078125 -98.58056640625 -7.670166015625
9.966064453125 -26.9697265625 -77.999267578125
-24.9560546875 -45.26708984375 -98.536376953125
10.609375 -49.95068359375 22.3603515625
41.837646484375 -21.767822265625 -51.434814453125
-65.054931640625 -106.0732421875 -97.3203125
0.5166015625 -85.956787109375 35.265625
-32.178466796875 -35.9619140625 -111.521240234375
53.231201171875 -66.798095703125 -15.118896484375
45.383544921875 -33.857421875 -23.915283203125
59.06591796875 -33.1923828125 -9.28076171875
-38.771484375 37.658935546875 -49.224609375
-6.087158203125 -48.68603515625 -55.3447265625
17.769775390625 -65.626953125 -19.702880859375
-64.5185546875 -99.001953125 -101.018310546875
-37.530029296875 -60.962890625 -100.513916015625
-17.330322265625 49.447265625 -47.51171875
-19.099853515625 -113.291259765625 -62.984130859375
22.67529296875 63.887939453125 -59.0439453125
14.9140625 -100.9912109375 -24.30126953125
-58.5859375 -77.271728515625 -109.16064453125
9.923828125 -77.772705078125 -47.91455078125
-51.481201171875 -54.56103515625 -124.467529296875
-39.828125 -79.11083984375 -89.679931640625
19.362060546875 30.512939453125 17.203857421875
-71.09716796875 -90.96142578125 -112.355224609375
36.821533203125 24.501220703125 16.468994140625
-20.724365234375 -64.2529296875 -102.260498046875
-1.19775390625 50.84375 -56.195556640625
1.325439453125 23.188232421875 -75.797119140625
-69.589599609375 -110.874755859375 -98.622314453125
-42.801025390625 -98.21630859375 -81.052734375
34.66357421875 31.948486328125 -88.70263671875
6.91650390625 -6.884765625 -100.53271484375
26.281005859375 34.9228515625 2.873291015625
13.900390625 -77.370361328125 -37.611572265625
18.767822265625 -70.151123046875 -15.533203125
-24.4091796875 31.6015625 -49.885498046875
44.149169921875 21.65673828125 16.595947265625
-41.2666015625 -106.94580078125 -74.033935546875
29.814453125 42.751708984375 20.73583984375
21.766357421875 9.43310546875 -73.918212890625
47.528076171875 43.638427734375 20.08349609375
-57.46337890625 -24.71923828125 -48.264892578125
2.666259765625 -31.282958984375 -86.106689453125
3.781005859375 -80.76953125 -47.734375
-37.06005859375 -122.068359375 -44.750732421875
9.75048828125 -87.13818359375 -37.763427734375
-35.764404296875 -82.695556640625 -83.61669921875
0.25439453125 -61.916259765625 -62.89208984375
53.291748046875 -50.884521484375 -7.22705078125
-0.5419921875 -76.588134765625 -46.476318359375
-24.35888671875 -50.44140625 -94.0810546875
56.5966796875 -9.30126953125 21.714599609375
-47.33984375 18.159423828125 -49.911376953125
-21.74755859375 -67.33447265625 -14.489501953125
6.6884765625 25.0654296875 -65.46435546875
-50.337158203125 -60.587646484375 -9.743408203125
-29.406005859375 -37.3330078125 -108.176025390625
-23.18896484375 -59.04736328125 -88.320068359375
55.710205078125 37.490966796875 19.580078125
-55.0732421875 -30.74169921875 -40.497802734375
1.064453125 51.953857421875 -59.295166015625
52.58154296875 31.3896484375 -31.145263671875
-43.241943359375 -117.9189453125 -67.599609375
45.92919921875 53.1494140625 -4.0791015625
29.52783203125 -22.74755859375 -65.552001953125
40.949462890625 -22.38916015625 -36.936767578125
50.26416015625 -71.2646484375 -12.493896484375
-45.9560546875 8.8173828125 -55.7021484375
2.544677734375 39.564453125 -58.17236328125
52.211181640625 0.908935546875 28.55029296875
24.7392578125 1.811767578125 -70.150146484375
52.486572265625 -27.278564453125 -8.758544921875
6.072021484375 -21.25341796875 -90.637939453125
-44.1708984375 -90.406982421875 -86.130615234375
-41.3544921875 -103.75634765625 -76.107421875
-5.9306640625 -80.658935546875 -56.091552734375
-26.5400390625 -91.59619140625 -65.357177734375
-33.17041015625 -106.310791015625 -54.510498046875
-57.683349609375 -86.064697265625 -101.9892578125
-1.088134765625 -118.663818359375 -21.98095703125
47.672119140625 -23.552490234375 -13.51171875
-21.84033203125 42.880126953125 -46.90234375
-17.0869140625 3.026611328125 -82.022216796875
43.578125 26.34423828125 14.934326171875
35.912841796875 50.71240234375 1.703369140625
-32.931884765625 -46.530029296875 -104.310546875
10.45849609375 -79.92041015625 -40.000732421875
52.997314453125 -54.942626953125 -14.245849609375
17.0986328125 -70.224609375 -39.498291015625
-2.23828125 -35.45849609375 -84.55810546875
-2.894287109375 -86.9609375 -50.028564453125
-20.908447265625 -59.07958984375 -106.35888671875
-67.62646484375 -101.244873046875 -102.506591796875
-26.705078125 -100.77783203125 -60.260498046875
-35.0283203125 -31.910888671875 -117.773193359375
8.72998046875 -45.3095703125 65.090087890625
46.21875 -69.58154296875 -14.306884765625
-32.651611328125 -58.11279296875 -94.74365234375
-32.2578125 -120.1279296875 -45.93212890625
-6.13525390625 -30.1962890625 -92.98974609375
8.905517578125 11.837646484375 -119.471435546875
-32.715087890625 -79.240234375 -78.289794921875
50.4306640625 -30.698974609375 -20.189453125
-33.223876953125 -42.17333984375 -108.386474609375
-52.560791015625 -64.621826171875 -4.33203125
14.59912109375 -97.679931640625 -24.184326171875
-1.824951171875 -7.869873046875 -109.701171875
-36.564697265625 17.33447265625 -66.36767578125
17.88427734375 -21.07470703125 -73.7119140625
-4.318115234375 -2.603271484375 -119.804931640625
11.6845703125 11.70458984375 46.958740234375
45.10986328125 7.159423828125 16.948486328125
12.7509765625 0.524169921875 -72.74462890625
6.689453125 -68.85693359375 -44.796142578125
62.57373046875 -27.341064453125 -10.6025390625
17.661865234375 9.108642578125 -73.49560546875
7.35888671875 4.924560546875 -120.3359375
53.616943359375 -45.908935546875 11.073486328125
57.4052734375 32.069580078125 51.732666015625
-17.213134765625 -88.199951171875 20.9951171875
20.046142578125 -75.35107421875 -22.38427734375
21.6435546875 18.958984375 52.396240234375
-11.329833984375 -70.156494140625 -80.70361328125
-59.544677734375 -65.695556640625 -3.6650390625
30.071044921875 38.45947265625 -96.566650390625
-21.88330078125 -82.19140625 -9.4501953125
14.87890625 5.707275390625 -73.578369140625
-8.677978515625 8.363525390625 -108.993408203125
-34.759765625 -72.686279296875 -89.06982421875
48.6728515625 1.046630859375 13.254638671875
10.0751953125 27.48486328125 -64.3427734375
-48.320068359375 5.639404296875 -58.677734375
15.70849609375 -39.282958984375 60.629638671875
-36.305419921875 -106.862060546875 -56.794921875
-52.087890625 -16.77392578125 -54.671875
13.179443359375 38.576171875 -64.653564453125
-1.243408203125 -40.669921875 -80.862548828125
-21.51611328125 -81.747802734375 -70.948974609375
-0.45703125 -20.595947265625 -95.021484375
7.43310546875 -34.25830078125 -75.350341796875
50.2236328125 -33.2216796875 -22.9443359375
-25.98974609375 35.32666015625 -49.38818359375
-5.1640625 -21.8291015625 -100.32275390625
-27.399169921875 -21.671630859375 -120.388916015625
-50.845458984375 1.990966796875 -60.205322265625
39.481201171875 48.61767578125 6.318359375
59.15234375 -62.55419921875 -19.185302734375
-8.644775390625 22.564208984375 -92.37890625
10.940185546875 -72.739013671875 -47.734619140625
-38.51513671875 -66.517822265625 -97.4912109375
-21.31591796875 -91.985107421875 -65.81689453125
-31.50146484375 -117.132080078125 -47.675537109375
-15.77685546875 -43.234375 -48.939208984375
48.86376953125 -48.531005859375 -11.99365234375
-9.3857421875 -27.098876953125 -100.98681640625
16.796630859375 -100.1201171875 -17.346435546875
-37.642333984375 -98.3525390625 -76.2587890625
-37.207763671875 5.958984375 -85.557373046875
17.4775390625 -107.5595703125 -17.982421875
11.34033203125 -57.921875 -65.289794921875
45.841552734375 3.042724609375 13.69873046875
20.809326171875 2.000732421875 -72.7509765625
15.94677734375 -86.020751953125 -28.573974609375
-2.348388671875 19.41357421875 -105.2001953125
-62.052734375 -73.58447265625 -115.62158203125
-4.630859375 31.173095703125 -69.417724609375
-40.422607421875 -94.007568359375 -81.262939453125
28.40625 19.534423828125 51.758544921875
-47.568603515625 -46.275634765625 -28.15625
47.877685546875 11.371826171875 23.1474609375
12.548828125 -78.1572265625 -46.031982421875
71.91845703125 -16.042236328125 -23.729736328125
18.5673828125 -104.97998046875 1.61962890625
-12.449951171875 -84.44921875 20.52685546875
-55.841552734375 -79.27099609375 -104.8955078125
-49.49658203125 -34.09716796875 -36.447998046875
54.895751953125 -43.177734375 -12.02294921875
14.922119140625 9.857421875 -80.2265625
9.539306640625 -77.071044921875 -41.275634765625
-21.7021484375 -19.58984375 -120.70361328125
-10.427490234375 52.162841796875 -51.052978515625
-49.9501953125 -9.349853515625 -66.39990234375
-61.117431640625 -92.51904296875 -101.319091796875
