-128.91845703125 21.9993896484375 -48.4322509765625
-114.9921875 -77.6246337890625 100.6478271484375
-121.369384765625 36.302978515625 -57.8690185546875
10.767578125 -15.7266845703125 -36.0960693359375
8.578369140625 -35.75732421875 2.3548583984375
-32.798583984375 -10.2281494140625 28.5875244140625
-11.033203125 48.6707763671875 -12.3443603515625
14.902587890625 -45.7933349609375 -1.70458984375
-37.749267578125 37.390869140625 -26.49609375
-35.05908203125 19.485107421875 3.0140380859375
-129.295166015625 -36.935302734375 43.96142578125
11.572998046875 21.302734375 -57.8255615234375
-29.070556640625 32.0758056640625 -7.06884765625
-25.625244140625 3.339111328125 23.9947509765625
-41.9345703125 42.96533203125 -30.1561279296875
-138.2421875 -43.35400390625 4.0328369140625
27.6240234375 -11.6951904296875 -58.0040283203125
-22.402099609375 -17.5211181640625 49.4488525390625
-80.50927734375 -40.45751953125 46.6431884765625
-70.023193359375 10.493408203125 10.625732421875
5.164794921875 50.7869873046875 41.76806640625
15.301513671875 34.21826171875 -70.1634521484375
-89.796630859375 -41.5836181640625 48.260498046875
-32.81689453125 -10.251708984375 19.073486328125
12.7763671875 -56.4510498046875 19.9178466796875
-32.992919921875 -9.11376953125 12.7633056640625
-19.09814453125 -41.1400146484375 91.8529052734375
-127.17724609375 -44.5609130859375 3.502685546875
14.293701171875 -23.6490478515625 -18.71533203125
-93.689453125 29.6380615234375 -16.6376953125
28.596923828125 -44.0989990234375 -15.43603515625
-46.804443359375 43.42822265625 -34.630859375
23.603271484375 -71.903076171875 8.393798828125
29.44873046875 -29.966796875 -37.593017578125
-25.056396484375 -13.241455078125 41.97998046875
12.86083984375 -33.3394775390625 -16.787109375
-33.899658203125 -1.019287109375 11.036376953125
-25.7451171875 26.5283203125 0.3681640625
-38.247314453125 28.943603515625 -22.4061279296875
-62.00830078125 -32.3409423828125 53.470703125
-138.28955078125 15.7386474609375 -82.47314453125
-32.988037109375 -18.806640625 42.3321533203125
-93.197509765625 43.8087158203125 -34.7103271484375
1.178466796875 55.2943115234375 -17.5946044921875
-41.41943359375 -26.889892578125 49.654541015625
70.652099609375 106.6585693359375 13.008544921875
-42.411865234375 21.38232421875 -3.4705810546875
-24.568359375 -25.283935546875 55.4794921875
-43.83984375 15.309326171875 4.389404296875
5.78466796875 -15.9029541015625 -19.539794921875
-42.67529296875 6.49267578125 0.5562744140625
42.795654296875 -41.4117431640625 38.1978759765625
-117.093994140625 -4.4259033203125 18.7977294921875
27.552490234375 -47.478271484375 -3.0316162109375
-22.36767578125 -21.2362060546875 54.5736083984375
-116.751708984375 36.04248046875 -62.0518798828125
-34.419189453125 25.91552734375 -3.3798828125
14.8701171875 15.9375 -61.736572265625
-130.6171875 24.614501953125 -52.5086669921875
14.214599609375 38.2965087890625 -84.2615966796875
-0.6513671875 62.7164306640625 50.25537109375
-0.3369140625 -47.70751953125 20.158935546875
-52.740478515625 -28.626220703125 50.961669921875
-28.43896484375 15.636474609375 9.77294921875
13.850830078125 -35.460693359375 24.8311767578125
-118.1787109375 -13.9959716796875 35.3216552734375
-7.695556640625 62.005126953125 -49.255126953125
-32.6337890625 -10.6666259765625 23.95068359375
26.91552734375 -44.475830078125 -23.40869140625
-117.797119140625 -20.520263671875 29.967529296875
14.135986328125 -1.791259765625 -45.2059326171875
27.792236328125 -23.2142333984375 -41.633056640625
10.2080078125 -24.7440185546875 15.302734375
-19.119873046875 -7.9560546875 46.8880615234375
13.16259765625 -52.253662109375 12.0203857421875
-126.1513671875 15.3692626953125 -1.33642578125
25.21728515625 -58.0872802734375 -1.3123779296875
-7.381103515625 -41.7528076171875 26.2039794921875
-35.28076171875 -24.2423095703125 47.865234375
-21.57568359375 -44.35205078125 89.82275390625
-72.554443359375 26.463134765625 -15.72412109375
-19.069580078125 21.3870849609375 17.944091796875
-33.86572265625 8.4521484375 12.7342529296875
-117.365966796875 3.6812744140625 8.0830078125
-134.71142578125 22.5535888671875 -48.0611572265625
-59.701416015625 -39.9248046875 61.1171875
-40.077880859375 1.3382568359375 -1.513427734375
25.711669921875 0.634033203125 -71.307373046875
14.811767578125 24.9041748046875 -70.3436279296875
-27.893310546875 -11.8890380859375 37.682373046875
-19.236083984375 12.3782958984375 24.703857421875
12.139892578125 -60.8485107421875 28.10400390625
12.29150390625 -38.82861328125 6.6168212890625
-81.590576171875 -42.5106201171875 42.8802490234375
9.05419921875 -54.6376953125 26.7698974609375
83.26953125 38.003662109375 -81.646484375
51.77001953125 71.599853515625 -38.9229736328125
-35.679931640625 4.8515625 7.8062744140625
8.16796875 55.7005615234375 -44.71533203125
47.886474609375 -38.4486083984375 31.647705078125
13.856689453125 -38.0589599609375 -1.8399658203125
-33.626953125 -14.6796875 17.4560546875
27.128173828125 -33.5433349609375 -20.5867919921875
27.453125 -43.8336181640625 -7.940673828125
-120.602783203125 -27.3665771484375 32.88232421875
14.350341796875 7.085693359375 -51.37451171875
-29.62939453125 -4.8641357421875 28.77197265625
25.32275390625 -62.3446044921875 2.274658203125
-41.133544921875 34.518310546875 -23.9755859375
-125.009765625 -29.4805908203125 40.74169921875
35.649169921875 71.4320068359375 -42.9124755859375
4.30908203125 38.90478515625 -16.2564697265625
12.3349609375 -11.2257080078125 -29.758544921875
-40.58740234375 12.6829833984375 6.4039306640625
13.4697265625 52.6068115234375 43.8609619140625
15.185302734375 28.6737060546875 -73.5870361328125
14.818603515625 -41.9197998046875 -0.1728515625
14.581298828125 12.9337158203125 -56.727294921875
11.252685546875 0.320556640625 -52.179931640625
-36.829345703125 -23.2991943359375 35.9002685546875
-82.0908203125 57.8421630859375 29.445068359375
0.52685546875 58.6126708984375 -49.19580078125
16.611328125 37.2215576171875 -76.6614990234375
13.021484375 21.0999755859375 -71.299560546875
13.43408203125 29.8026123046875 -65.3997802734375
14.4951171875 -41.9910888671875 5.188232421875
-33.25634765625 32.76806640625 -9.4754638671875
-27.845947265625 20.03759765625 5.2041015625
3.28564453125 56.62841796875 45.0513916015625
11.26416015625 -25.8260498046875 -11.561767578125
-69.816162109375 29.969970703125 -16.9329833984375
-117.388671875 -2.655029296875 13.67431640625
28.870849609375 -51.7537841796875 -5.7672119140625
13.29248046875 -19.8734130859375 -24.32666015625
13.701171875 -11.3350830078125 -34.905029296875
14.380859375 -27.45849609375 -22.0189208984375
-33.14794921875 -4.3746337890625 13.46630859375
24.4296875 -68.5572509765625 5.08251953125
-121.071533203125 41.4383544921875 -61.0242919921875
-38.68359375 7.4334716796875 3.7235107421875
-33.193115234375 -13.9696044921875 26.2274169921875
-23.908203125 -0.1710205078125 28.8409423828125
-6.18603515625 45.95703125 -32.9190673828125
14.013671875 -47.589599609375 8.22607421875
-116.652587890625 -16.39794921875 31.1346435546875
29.459228515625 -55.2557373046875 2.573974609375
-3.13671875 -41.351806640625 26.9718017578125
-117.56494140625 -10.8726806640625 20.95556640625
-29.1279296875 -21.9913330078125 48.09326171875
25.880615234375 -5.533447265625 -63.903076171875
29.77587890625 -32.014404296875 -28.26806640625
10.740478515625 -20.4534912109375 -12.0369873046875
-18.02197265625 -36.921630859375 86.6644287109375
19.527099609375 63.63818359375 -37.7601318359375
10.736572265625 -16.505859375 -22.7935791015625
11.82568359375 -32.7298583984375 -4.2188720703125
13.616943359375 -7.2431640625 -39.0833740234375
23.67138671875 -34.73828125 -40.1890869140625
-39.49609375 24.1429443359375 -73.8641357421875
2.099853515625 60.615966796875 47.857177734375
-23.05029296875 -47.760498046875 94.792236328125
-63.955078125 44.3204345703125 -33.37548828125
15.49755859375 -18.2279052734375 2.6759033203125
-3.9833984375 49.01904296875 -28.6981201171875
25.957275390625 2.931884765625 -74.5496826171875
27.738525390625 -21.612548828125 -48.7855224609375
7.73046875 59.8450927734375 -39.2540283203125
5.867919921875 65.3148193359375 -50.3236083984375
24.15673828125 -42.8973388671875 -25.78076171875
-61.051513671875 -49.825439453125 79.030029296875
-61.76708984375 40.90234375 -33.622314453125
-1.733642578125 46.630615234375 -25.5718994140625
5.020263671875 -39.4686279296875 23.2283935546875
-36.031494140625 30.3670654296875 -14.6470947265625
26.662109375 -73.4434814453125 15.92431640625
23.29296875 -13.0440673828125 -65.8050537109375
-36.029541015625 -30.8013916015625 54.0361328125
14.906494140625 26.1854248046875 -66.667236328125
9.68896484375 -11.705810546875 -25.6468505859375
14.607421875 8.9571533203125 -56.4786376953125
12.39208984375 3.49853515625 -54.3233642578125
-119.8291015625 -48.7987060546875 2.951904296875
20.70458984375 67.59130859375 -42.4359130859375
105.43310546875 -45.6568603515625 1.710205078125
2.988525390625 44.1888427734375 -18.4852294921875
-21.665771484375 20.9930419921875 11.2633056640625
-59.379638671875 -42.8165283203125 66.3470458984375
19.55615234375 64.4139404296875 -45.6805419921875
-81.92138671875 29.58642578125 -17.3564453125
-34.584228515625 -72.5863037109375 90.8944091796875
-22.678466796875 -9.126220703125 40.5130615234375
-124.148193359375 10.941650390625 4.8609619140625
-115.3505859375 42.0472412109375 -60.3511962890625
-32.56005859375 -6.943603515625 20.989990234375
23.14599609375 -37.5380859375 -36.0748291015625
24.086181640625 -56.3111572265625 -10.269775390625
-36.1591796875 34.0328369140625 -16.3223876953125
0.830810546875 43.4708251953125 -22.1988525390625
-115.689453125 -78.6781005859375 96.8431396484375
0.016357421875 64.847900390625 -49.9580078125
-23.5751953125 9.9742431640625 19.44140625
-22.066162109375 6.3477783203125 24.8492431640625
13.10546875 -19.099365234375 -28.2078857421875
29.134521484375 -32.4281005859375 -34.4603271484375
-20.01416015625 3.6051025390625 30.9691162109375
19.332763671875 64.4984130859375 -33.40869140625
12.923095703125 -52.9854736328125 18.41845703125
-10.834716796875 23.0272216796875 -75.21142578125
6.259765625 48.888427734375 44.9124755859375
100.60888671875 -57.5576171875 -5.4593505859375
-55.880615234375 44.081787109375 -34.8682861328125
-71.659423828125 63.73486328125 22.2703857421875
-123.772216796875 -30.258544921875 35.590576171875
28.212646484375 -58.480712890625 13.662841796875
-113.565673828125 -79.8836669921875 103.3348388671875
-96.61865234375 -39.73876953125 48.97802734375
14.729248046875 18.0528564453125 -64.8790283203125
13.708251953125 -22.2264404296875 8.86474609375
-118.551513671875 -23.18701171875 32.4735107421875
-12.84521484375 -42.935546875 27.151611328125
-33.990478515625 -19.177978515625 33.2003173828125
-27.670166015625 -50.95703125 93.740966796875
-76.762451171875 -40.4041748046875 47.13525390625
-36.089599609375 27.78369140625 -6.688720703125
-39.613037109375 22.9876708984375 -1.0986328125
29.8955078125 -63.1724853515625 16.2978515625
29.706787109375 -35.691650390625 -26.5684814453125
-114.420166015625 -8.83935546875 31.27978515625
-76.850830078125 44.3582763671875 -33.9678955078125
-57.064208984375 -37.0731201171875 60.5657958984375
-38.23779296875 25.466796875 -8.9278564453125
14.378173828125 23.2421875 -64.080322265625
12.468994140625 23.9495849609375 -60.2354736328125
-28.044189453125 -6.8656005859375 32.287353515625
-28.70263671875 12.9515380859375 12.288330078125
12.091064453125 -4.31298828125 -35.9937744140625
-132.390869140625 25.1639404296875 -49.3272705078125
-36.2509765625 13.45166015625 8.3671875
15.513916015625 36.481201171875 -80.5745849609375
-114.8271484375 -75.527099609375 109.0992431640625
27.270263671875 -19.4063720703125 -52.2567138671875
8.171875 59.8031005859375 -46.2489013671875
-134.521240234375 -47.3912353515625 -1.150390625
-120.09619140625 -79.0133056640625 94.1988525390625
-85.6083984375 59.025634765625 29.8878173828125
-105.162109375 -46.6514892578125 0.0250244140625
-37.082763671875 27.0604248046875 -17.019287109375
-118.578369140625 -45.3455810546875 55.3140869140625
9.30322265625 -29.4246826171875 -5.88525390625
-71.064453125 40.1365966796875 -33.0572509765625
12.724853515625 -49.401123046875 4.7303466796875
-72.05078125 7.1695556640625 13.6485595703125
-0.287841796875 -36.577880859375 23.7410888671875
-117.49169921875 -14.069091796875 25.1273193359375
-18.32958984375 -4.2462158203125 47.434814453125
22.526611328125 -3.3709716796875 -64.6246337890625
7.76123046875 54.8212890625 -36.885498046875
-38.028564453125 -0.36474609375 1.1844482421875
25.91015625 -71.6678466796875 11.1876220703125
-65.9111328125 29.2921142578125 -15.5198974609375
13.709228515625 -33.3057861328125 -8.13134765625
-23.4072265625 23.068603515625 6.568115234375
-50.115234375 9.448974609375 3.2584228515625
22.411865234375 -52.6571044921875 -12.3853759765625
29.134033203125 -46.0279541015625 -11.7371826171875
13.280029296875 -23.4273681640625 -28.87841796875
-51.8466796875 -8.26318359375 8.6214599609375
-32.39697265625 -12.8209228515625 33.3558349609375
-4.469482421875 57.8848876953125 46.3909912109375
-117.62109375 -18.71484375 22.8642578125
26.4580078125 -20.9169921875 -36.096923828125
16.056884765625 41.38818359375 -84.1363525390625
11.357666015625 -18.9415283203125 -31.6727294921875
-40.6494140625 22.3564453125 -6.7850341796875
25.76220703125 -64.8382568359375 9.4833984375
13.339599609375 -27.2713623046875 -15.0888671875
-33.392333984375 4.4892578125 15.80224609375
-33.608642578125 -17.4609375 39.139892578125
-12.76025390625 45.0718994140625 -7.3638916015625
23.65234375 -41.796875 -29.4530029296875
-46.711669921875 10.300537109375 3.3797607421875
-1.7841796875 61.254638671875 -49.21484375
-71.897705078125 -37.3929443359375 8.0430908203125
-8.8408203125 26.5927734375 -78.796875
-26.805908203125 -25.4296875 52.780029296875
-115.065673828125 33.9417724609375 -54.744384765625
11.41162109375 -5.2958984375 -46.06298828125
-20.950439453125 -10.3709716796875 44.9879150390625
4.306640625 56.7381591796875 -49.464111328125
-43.684326171875 16.0679931640625 -65.1124267578125
-34.155029296875 -23.61865234375 27.6173095703125
105.46240234375 -51.4910888671875 -1.728515625
12.147216796875 13.7828369140625 -52.537353515625
-49.40673828125 41.1171875 -34.3961181640625
29.117919921875 -36.017822265625 -19.1435546875
-114.5732421875 -15.82763671875 33.8631591796875
-115.251708984375 -76.2130126953125 103.873779296875
-112.6767578125 -3.79833984375 24.572021484375
10.69970703125 39.5677490234375 -10.957275390625
22.393798828125 -58.4163818359375 -7.9124755859375
16.943115234375 44.6739501953125 -80.03759765625
-5.346435546875 54.575439453125 -49.0057373046875
-32.97021484375 15.1441650390625 8.4876708984375
26.03759765625 -69.3695068359375 15.906982421875
-93.712890625 26.265869140625 -15.7825927734375
-117.10986328125 -12.6375732421875 17.4317626953125
27.55615234375 -26.4232177734375 -43.7467041015625
-23.46923828125 -4.4642333984375 33.5013427734375
-58.82470703125 -4.6026611328125 5.580810546875
-19.5966796875 -2.3741455078125 40.1495361328125
13.608154296875 4.8544921875 -47.25732421875
14.073486328125 18.658447265625 -58.74755859375
-1.898681640625 55.834716796875 -49.800048828125
-75.938720703125 -43.6978759765625 47.6556396484375
-44.8193359375 19.3905029296875 -0.2957763671875
5.44189453125 56.1488037109375 -17.2967529296875
50.308837890625 -37.460693359375 29.4342041015625
11.16796875 1.167236328125 -40.5325927734375
-61.3505859375 -35.6444091796875 54.0811767578125
-53.474609375 -30.7711181640625 53.5260009765625
-0.673583984375 55.95751953125 44.3018798828125
-38.896484375 18.505615234375 3.196044921875
-18.13427734375 -9.0526123046875 51.869873046875
-41.025146484375 -73.0538330078125 96.095703125
-127.201416015625 -35.422607421875 41.743408203125
-40.66650390625 -24.3035888671875 47.1143798828125
13.419189453125 -51.1806640625 15.2327880859375
-20.095947265625 17.225341796875 17.988525390625
-74.381103515625 -43.9591064453125 44.00830078125
-31.744873046875 -32.0546875 57.5496826171875
-26.4794921875 -19.8038330078125 47.9556884765625
25.830078125 -68.223876953125 9.3900146484375
29.7890625 -56.7191162109375 5.60302734375
-29.7275390625 28.5045166015625 -4.4595947265625
-58.990234375 -33.25244140625 55.3465576171875
-38.3359375 24.324951171875 -12.697998046875
-23.830322265625 17.383544921875 11.4844970703125
9.07177734375 -36.56689453125 6.7613525390625
-33.513427734375 -27.751220703125 51.9107666015625
99.515380859375 26.3321533203125 3.840576171875
-23.51318359375 28.511962890625 2.005615234375
-97.495361328125 -45.80078125 0.4002685546875
-17.166748046875 -35.5341796875 90.4127197265625
25.248046875 -37.1015625 -32.85546875
30.63427734375 -26.2918701171875 -37.710205078125
27.958984375 -65.522216796875 12.3138427734375
27.46728515625 -9.7044677734375 -61.9813232421875
-133.600830078125 -43.503662109375 58.728759765625
-134.78662109375 16.43896484375 -84.5728759765625
29.466796875 -51.8292236328125 -1.079345703125
-29.2724609375 -17.9578857421875 43.5877685546875
114.690185546875 24.4053955078125 -84.6190185546875
-30.52783203125 9.9412841796875 14.2584228515625
-29.369140625 5.9017333984375 18.8861083984375
8.20703125 -36.05810546875 24.6285400390625
9.70556640625 -13.019287109375 -38.942138671875
-9.2109375 58.9014892578125 -49.0714111328125
-44.63916015625 -27.4713134765625 50.1119384765625
46.5478515625 -38.562744140625 42.7125244140625
-71.241943359375 -42.7938232421875 12.1431884765625
25.3984375 -49.80078125 -22.6636962890625
13.29541015625 32.1885986328125 -78.9822998046875
-21.812744140625 -6.3531494140625 38.983642578125
148.570556640625 -22.9263916015625 -48.1651611328125
51.308837890625 74.3223876953125 -40.9998779296875
28.818359375 -26.0672607421875 -34.53271484375
27.159912109375 -2.272705078125 -71.7230224609375
24.791015625 -61.1256103515625 -3.4251708984375
-135.5048828125 -47.793212890625 1.9935302734375
-31.690185546875 -3.3162841796875 24.5433349609375
-117.22119140625 -14.1309814453125 28.7861328125
-37.123779296875 32.833740234375 -20.9825439453125
6.53173828125 -33.8828125 0.3406982421875
5.851318359375 58.9130859375 47.225830078125
-33.470703125 -18.990478515625 28.310791015625
3.441650390625 -39.7955322265625 26.20458984375
-117.701171875 -23.10400390625 27.6444091796875
-2.697998046875 57.0726318359375 -21.6177978515625
-114.528564453125 -81.1192626953125 94.857177734375
13.469970703125 -0.014892578125 -49.068603515625
-32.876708984375 24.1568603515625 -0.9459228515625
11.8115234375 -53.9320068359375 22.52587890625
4.549560546875 53.312744140625 43.6724853515625
31.687744140625 -39.2000732421875 -18.9591064453125
-34.59375 16.981689453125 5.5806884765625
11.0537109375 -7.9837646484375 -31.60400390625
15.350341796875 66.0738525390625 -50.077880859375
10.022216796875 63.7139892578125 -46.6246337890625
101.613037109375 -39.592041015625 1.1002197265625
26.544189453125 -15.2393798828125 -59.662353515625
-67.050537109375 9.6959228515625 11.5128173828125
15.479736328125 34.4788818359375 -77.86767578125
13.907958984375 -22.5472412109375 -7.082763671875
24.12451171875 -49.98828125 -11.9820556640625
-117.44970703125 -3.616943359375 10.4815673828125
-33.76220703125 -11.6693115234375 15.6212158203125
-55.6298828125 -5.23486328125 6.3126220703125
-13.9677734375 45.8753662109375 -0.63818359375
-27.692138671875 -9.531982421875 35.054931640625
-22.010009765625 14.8758544921875 16.167236328125
-115.630859375 42.9617919921875 -63.9644775390625
-35.22998046875 -5.768310546875 5.7916259765625
-116.3486328125 3.212158203125 15.49560546875
10.781005859375 -35.755615234375 0.076171875
-46.80419921875 -29.427001953125 51.9873046875
-35.58984375 31.1943359375 -11.0980224609375
-10.4990234375 60.6417236328125 -54.75244140625
26.832763671875 -38.5511474609375 -29.4002685546875
23.4140625 69.031982421875 -43.4058837890625
12.6025390625 11.1182861328125 -50.333740234375
-32.49267578125 -1.4693603515625 18.0950927734375
12.793701171875 18.711181640625 -69.2587890625
13.185546875 -21.1478271484375 -16.6563720703125
19.73828125 -54.14404296875 -14.0289306640625
-12.1787109375 46.1422119140625 -10.8697509765625
-119.23095703125 -75.1016845703125 94.926025390625
25.85400390625 -20.7572021484375 -41.3592529296875
-7.86962890625 47.518310546875 -35.058349609375
7.42529296875 58.220703125 -36.5911865234375
22.88427734375 -30.9029541015625 -43.9560546875
-121.779541015625 -75.8250732421875 97.1326904296875
-118.52490234375 36.25048828125 -56.592041015625
-38.010986328125 -21.27197265625 40.2840576171875
-4.54736328125 53.66357421875 -22.9384765625
-58.64111328125 41.6527099609375 -34.133056640625
14.082275390625 6.149658203125 -55.067626953125
-117.38427734375 -5.3751220703125 15.167724609375
-124.98974609375 -43.823486328125 56.7247314453125
-37.371826171875 20.9249267578125 1.45361328125
19.74365234375 66.2138671875 -39.46875
-131.649169921875 -70.2510986328125 102.864013671875
-120.2763671875 38.6295166015625 -59.590576171875
12.131103515625 12.329345703125 -63.4549560546875
-84.207763671875 42.9827880859375 -34.953369140625
-25.611328125 0.690185546875 26.41748046875
86.7373046875 -6.6514892578125 -34.6510009765625
22.59423828125 -59.9957275390625 -13.117919921875
-130.807861328125 -46.072509765625 3.047119140625
-116.68994140625 -75.6165771484375 106.6490478515625
14.586669921875 15.279296875 -58.7208251953125
-131.6826171875 22.0625 -49.783447265625
-29.633544921875 0.67578125 22.890625
29.4990234375 -41.6180419921875 -22.61865234375
-36.18505859375 -20.9495849609375 43.80615234375
-28.241943359375 17.8489990234375 7.2987060546875
-22.247314453125 -19.31591796875 51.914306640625
12.033935546875 -59.000244140625 18.419921875
48.56494140625 -38.86328125 27.3682861328125
-43.884033203125 19.767333984375 -64.8389892578125
7.243408203125 59.6461181640625 -49.1419677734375
26.11669921875 -61.4464111328125 5.066650390625
9.33447265625 -19.0377197265625 -18.9193115234375
8.945556640625 -15.9366455078125 -20.4190673828125
-33.947998046875 -1.8311767578125 8.102783203125
-24.55615234375 5.6763916015625 22.40380859375
-34.213623046875 -11.7137451171875 10.4459228515625
-40.35888671875 16.1728515625 4.4278564453125
-44.46435546875 42.779296875 -32.5877685546875
25.675048828125 -9.932861328125 -56.52734375
-33.334228515625 -6.6572265625 11.0545654296875
-115.344482421875 -82.9527587890625 97.1605224609375
27.759765625 -39.80615234375 -13.937255859375
-3.442138671875 48.1771240234375 -22.380615234375
-20.203369140625 8.7974853515625 26.2191162109375
-11.6240234375 48.505615234375 -3.7640380859375
26.64404296875 -17.762939453125 -46.3792724609375
-44.087158203125 17.835693359375 2.1669921875
-19.83544921875 0.1285400390625 35.8023681640625
-76.200927734375 27.008056640625 -15.8551025390625
-73.349853515625 44.530517578125 -33.2122802734375
14.471435546875 1.8687744140625 -46.9591064453125
25.760498046875 -55.1134033203125 -3.9090576171875
-33.7119140625 -1.572021484375 14.3585205078125
25.7841796875 -59.6907958984375 -5.8587646484375
18.6904296875 -19.7821044921875 1.137939453125
-40.302734375 -31.1910400390625 54.1600341796875
105.90234375 -55.733642578125 -2.0484619140625
-18.695556640625 -39.558837890625 89.35205078125
-117.935546875 -71.77197265625 104.4598388671875
13.318359375 -44.6263427734375 9.189697265625
10.751220703125 -28.4759521484375 -23.1441650390625
18.95361328125 66.80126953125 -47.351806640625
10.700927734375 -14.4095458984375 -24.95068359375
-19.74169921875 21.2862548828125 14.9544677734375
9.979736328125 55.7562255859375 42.8974609375
-116.916748046875 -75.4276123046875 100.1007080078125
12.470947265625 -23.6744384765625 -9.9276123046875
28.164794921875 -50.9368896484375 -8.5196533203125
-16.37353515625 -29.55517578125 89.8154296875
-44.123291015625 11.67333984375 4.4376220703125
-36.348876953125 39.920654296875 -27.1041259765625
-35.955322265625 -24.364501953125 33.287841796875
-35.00732421875 -25.646240234375 29.6180419921875
24.385009765625 -24.901123046875 -48.398681640625
13.48046875 -15.475830078125 -29.1929931640625
4.46337890625 -44.326416015625 14.7567138671875
23.861572265625 -43.1015625 -32.25390625
-32.0244140625 1.6380615234375 18.8819580078125
-28.282470703125 -24.0732421875 50.636474609375
13.472900390625 -32.9244384765625 -13.94287109375
-92.922607421875 -41.7657470703125 49.5369873046875
-46.703369140625 4.1248779296875 -2.1871337890625
-48.811279296875 16.1265869140625 2.7540283203125
26.47607421875 -45.193359375 -5.53857421875
-4.54052734375 -41.27197265625 24.4066162109375
-36.042236328125 36.847412109375 -23.2393798828125
12.223388671875 -8.3326416015625 -41.8497314453125
-46.70166015625 -25.3388671875 45.6458740234375
-125.080322265625 14.072509765625 2.287109375
16.508544921875 44.445068359375 -77.0767822265625
27.723388671875 -14.14404296875 -55.65087890625
-117.28076171875 6.9461669921875 9.2237548828125
106.31201171875 -49.2403564453125 1.0631103515625
-31.487060546875 -7.6475830078125 28.84765625
-18.447021484375 -41.039306640625 94.6827392578125
13.975830078125 40.3306884765625 -8.3824462890625
-11.018798828125 62.0987548828125 -51.8974609375
-26.07080078125 -51.1260986328125 97.0361328125
12.8427734375 7.817138671875 -59.412841796875
13.66748046875 -48.0450439453125 2.2872314453125
-35.330078125 -24.880859375 25.2620849609375
-42.431396484375 20.096435546875 -69.377685546875
-119.322509765625 6.40673828125 6.526123046875
2.8994140625 65.067138671875 -50.1142578125
-131.951171875 -67.6573486328125 97.5888671875
-82.88671875 -41.4068603515625 45.30029296875
103.42138671875 -43.7470703125 -0.230224609375
25.187744140625 -53.262451171875 -7.205078125
-43.102294921875 19.9169921875 -8.8978271484375
-33.103271484375 -20.711181640625 26.029296875
-52.6650390625 29.013427734375 -67.656005859375
12.0751953125 -21.8104248046875 -26.82666015625
29.551025390625 -59.16259765625 9.94384765625
-24.601806640625 12.9786376953125 15.7213134765625
-35.0244140625 28.26953125 -76.79443359375
-111.361572265625 -47.283203125 0.9677734375
23.228515625 68.160400390625 -37.513916015625
51.89599609375 72.9691162109375 -45.7652587890625
-113.940185546875 1.8319091796875 18.4697265625
13.93359375 -32.846923828125 22.8729248046875
27.54931640625 -16.3411865234375 -53.132568359375
-34.2939453125 -17.514404296875 35.9754638671875
12.7783203125 -35.421142578125 -2.0618896484375
-45.184814453125 18.1488037109375 -4.00439453125
-41.19677734375 4.460205078125 -0.80322265625
-80.191650390625 27.4654541015625 -15.840087890625
-33.70849609375 1.4434814453125 12.4632568359375
-35.151611328125 7.7021484375 10.0262451171875
-36.69189453125 3.6744384765625 5.419189453125
27.572509765625 -62.96484375 8.3438720703125
-28.06201171875 -29.7802734375 58.8214111328125
26.076171875 -28.7369384765625 -43.022705078125
24.681640625 -14.580078125 -62.0142822265625
7.219970703125 -10.3568115234375 -26.0255126953125
13.54052734375 23.8148193359375 -72.63818359375
-124.80029296875 8.54931640625 3.4976806640625
-39.551513671875 -28.58154296875 51.5960693359375
10.786865234375 -37.442626953125 3.7965087890625
-119.513916015625 38.2554931640625 -62.283203125
-120.487548828125 -25.0946044921875 34.5506591796875
28.2626953125 -49.0843505859375 -10.819091796875
-58.102783203125 -40.6934814453125 65.0020751953125
28.928466796875 -52.48974609375 2.4913330078125
-115.764404296875 -11.9132080078125 29.719482421875
-19.3603515625 6.3154296875 31.601318359375
-35.278564453125 -15.6756591796875 15.4156494140625
-4.845947265625 47.56103515625 -30.930419921875
-78.193603515625 -40.853515625 44.7183837890625
29.5498046875 -44.9881591796875 -20.5047607421875
-49.05517578125 5.5069580078125 -0.87109375
7.10009765625 52.2021484375 43.385498046875
13.773681640625 -4.5908203125 -39.9443359375
1.378662109375 45.7003173828125 -20.21337890625
-33.48974609375 21.4766845703125 1.231689453125
40.62255859375 -54.221923828125 47.6136474609375
-37.555419921875 -23.1044921875 45.681396484375
-28.989990234375 23.9661865234375 0.69580078125
-22.294677734375 1.85791015625 29.8717041015625
-99.2841796875 -40.3912353515625 48.2894287109375
9.67919921875 -39.1282958984375 29.0045166015625
-127.105224609375 -46.7391357421875 1.7684326171875
16.339599609375 -43.8082275390625 1.19384765625
3.111083984375 -36.9012451171875 24.4969482421875
25.804443359375 -46.80908203125 -22.37646484375
13.72314453125 -31.8475341796875 -10.8616943359375
10.670166015625 4.8404541015625 -43.594482421875
-52.48095703125 24.2813720703125 -64.450927734375
8.156494140625 43.4749755859375 -8.9283447265625
-34.05712890625 -20.677978515625 22.07177734375
15.717041015625 31.396240234375 -70.8876953125
20.01171875 -32.31103515625 -44.195556640625
-25.5185546875 21.297607421875 6.302978515625
17.123779296875 -20.0616455078125 3.9608154296875
30.14404296875 -42.66552734375 -17.225830078125
14.809814453125 -26.71142578125 -19.0931396484375
-38.925537109375 26.5771484375 -72.685302734375
-25.43798828125 -6.39404296875 33.6964111328125
28.767822265625 -25.8212890625 -40.9617919921875
29.2568359375 -60.924560546875 14.84423828125
1.274169921875 -46.6817626953125 18.180419921875
6.40185546875 40.3623046875 -14.72216796875
4.98193359375 62.5400390625 46.8720703125
28.57861328125 -28.8785400390625 -29.6885986328125
2.7861328125 56.685302734375 -19.336181640625
-0.364013671875 46.176025390625 -23.2333984375
-27.304931640625 -1.8245849609375 27.9066162109375
-129.729736328125 -35.963134765625 46.4925537109375
-114.515625 -9.4056396484375 28.5953369140625
15.801513671875 -41.0115966796875 2.9853515625
-15.759521484375 42.48095703125 2.642822265625
-16.531494140625 -33.5556640625 93.2322998046875
29.844482421875 -32.5816650390625 -30.947021484375
-27.5986328125 -52.580078125 99.29541015625
-130.391357421875 -75.6634521484375 104.4373779296875
101.262451171875 28.045166015625 5.06494140625
-66.48828125 43.158203125 -35.0438232421875
-20.832275390625 -15.3485107421875 49.9864501953125
16.016357421875 -33.756103515625 24.3922119140625
-51.264892578125 30.65234375 14.4002685546875
26.85205078125 -5.0595703125 -66.41064453125
12.91943359375 49.960205078125 44.2259521484375
-56.853515625 -35.594482421875 58.283447265625
24.849365234375 -11.089599609375 -66.89892578125
4.332275390625 44.982177734375 -13.8642578125
-64.464599609375 41.64599609375 -33.721923828125
-34.44482421875 2.312255859375 8.987548828125
-37.156494140625 1.643310546875 3.674072265625
-132.325927734375 -46.1590576171875 57.9346923828125
-131.310546875 28.0316162109375 -51.06298828125
-33.5712890625 -17.1248779296875 20.8599853515625
-33.1474609375 -8.2999267578125 15.3441162109375
10.77392578125 -25.5870361328125 -24.870849609375
13.866455078125 14.552490234375 -64.1986083984375
-21.2421875 11.6236572265625 21.00634765625
-113.8583984375 0.0421142578125 20.498779296875
25.018310546875 -61.69677734375 -0.78955078125
-15.016357421875 -40.968017578125 25.051025390625
-30.874267578125 -14.6201171875 37.9833984375
-113.233154296875 -80.301513671875 100.6846923828125
49.5439453125 -37.0306396484375 37.130126953125
-65.598876953125 33.5076904296875 -22.2132568359375
-132.248779296875 22.000244140625 -47.099365234375
-118.34326171875 36.781982421875 -59.97021484375
-58.76220703125 -44.8466796875 72.546630859375
-24.35693359375 -14.794189453125 44.068115234375
-126.232666015625 -31.87890625 40.769287109375
12.646484375 -24.554931640625 -20.953369140625
-28.763427734375 9.1922607421875 16.1435546875
25.245849609375 -71.1414794921875 6.408935546875
-32.41357421875 19.629638671875 3.4583740234375
-79.067626953125 5.5186767578125 15.8692626953125
-34.74853515625 -31.806396484375 56.359130859375
-114.44873046875 -5.7802734375 24.898193359375
-117.459716796875 -13.0960693359375 22.4393310546875
28.77392578125 -29.4078369140625 -42.791259765625
-119.921142578125 3.95068359375 5.66845703125
23.767578125 7.5133056640625 -79.7200927734375
14.29052734375 32.8255615234375 -68.1251220703125
-3.028564453125 -36.8973388671875 24.9945068359375
-19.994140625 14.08154296875 21.27685546875
12.974853515625 0.483154296875 -42.37060546875
25.802978515625 -63.4736328125 -5.945068359375
-21.4150390625 -45.5516357421875 93.5767822265625
-56.162353515625 -32.3778076171875 55.197021484375
27.060302734375 -30.52685546875 -24.9066162109375
29.41015625 -30.5869140625 -40.1739501953125
-71.901123046875 9.3212890625 12.110595703125
17.195556640625 42.4132080078125 -81.83740234375
23.174560546875 -45.3543701171875 -25.72998046875
13.00048828125 -31.5155029296875 -19.08740234375
-1.4736328125 60.6524658203125 48.826171875
21.50341796875 -50.2095947265625 -11.7872314453125
-2.74560546875 -50.0245361328125 24.60693359375
25.058349609375 -17.2803955078125 -58.15478515625
-52.008056640625 -32.1016845703125 55.256103515625
14.242431640625 -39.5570068359375 -3.9659423828125
-3.705810546875 52.18896484375 -17.2041015625
-19.984619140625 -10.5518798828125 47.42578125
-37.03515625 38.942138671875 -24.4981689453125
-83.780517578125 60.5247802734375 31.503662109375
-117.295654296875 -16.112060546875 22.7869873046875
7.091064453125 -18.2205810546875 -14.4345703125
-31.168701171875 -28.1824951171875 52.9986572265625
23.889892578125 -22.2113037109375 -53.9696044921875
-58.135498046875 -45.7276611328125 75.4566650390625
13.701416015625 -50.0242919921875 10.7607421875
-27.204345703125 27.3616943359375 -1.63427734375
-38.166748046875 11.8753662109375 6.970703125
7.092041015625 54.6690673828125 -47.1571044921875
-20.042724609375 6.584228515625 29.0501708984375
-75.29443359375 -42.12255859375 45.67724609375
28.133544921875 -54.9012451171875 7.631103515625
-27.615234375 31.24365234375 -5.0711669921875
29.0771484375 -43.25732421875 -13.0006103515625
17.114990234375 41.1046142578125 -78.6998291015625
6.3662109375 55.0303955078125 42.9359130859375
-122.203369140625 -29.476318359375 33.6680908203125
-55.555419921875 -29.6951904296875 52.1751708984375
10.685546875 7.2537841796875 -45.6617431640625
81.98193359375 39.725341796875 -80.1890869140625
-34.33935546875 -8.0030517578125 7.18017578125
9.759521484375 41.8720703125 -11.69482421875
27.781982421875 -23.0013427734375 -39.0462646484375
7.66357421875 57.6807861328125 -43.11572265625
29.68603515625 -28.446044921875 -35.0872802734375
-33.66015625 10.89599609375 11.6983642578125
10.431640625 -56.572265625 27.8076171875
-7.58203125 56.93701171875 -49.519287109375
-24.287353515625 -46.489013671875 89.046875
29.695068359375 -38.6517333984375 -24.4315185546875
15.068115234375 27.43408203125 -71.1634521484375
-50.13818359375 -24.7086181640625 27.460205078125
-31.42041015625 -9.3438720703125 30.7919921875
-117.765380859375 -78.45751953125 95.149169921875
-19.451904296875 2.577392578125 35.095458984375
25.403076171875 -1.069091796875 -69.20361328125
-30.180419921875 -20.4598388671875 45.6834716796875
25.234619140625 -32.153564453125 -43.5386962890625
-83.60009765625 3.6907958984375 17.2288818359375
12.372314453125 -59.197509765625 21.6016845703125
11.935546875 19.182373046875 -56.4193115234375
-120.107177734375 -75.822265625 99.71142578125
13.955078125 28.74365234375 -75.8348388671875
-41.6806640625 17.2430419921875 -66.3553466796875
-25.961181640625 16.61181640625 10.2943115234375
7.222412109375 54.2115478515625 -33.6156005859375
-29.96923828125 -12.701904296875 36.42724609375
29.91845703125 -35.3922119140625 -24.0369873046875
-17.9150390625 18.2857666015625 20.0953369140625
14.04248046875 -37.549560546875 -7.505126953125
-33.862060546875 -25.535888671875 49.5465087890625
-124.376953125 -48.7781982421875 0.8985595703125
12.940185546875 -27.54248046875 -12.584716796875
26.379638671875 -68.1636962890625 6.6746826171875
-118.097412109375 -0.8917236328125 10.912109375
107.100341796875 -51.7462158203125 0.48095703125
-11.34521484375 46.803955078125 -14.047119140625
10.5634765625 -54.0560302734375 24.8055419921875
-40.026123046875 10.2314453125 6.0184326171875
10.137939453125 -27.888427734375 -7.7313232421875
12.052490234375 -38.624755859375 9.13916015625
-5.10791015625 -39.762939453125 26.772216796875
-12.066650390625 48.5028076171875 -9.9482421875
-33.4228515625 -17.2879638671875 31.3599853515625
9.669921875 -23.861572265625 -11.4981689453125
14.33642578125 10.5086669921875 -58.78857421875
51.16259765625 -39.2596435546875 27.8729248046875
24.8203125 -34.567626953125 -42.533447265625
-116.8681640625 0.2811279296875 14.5858154296875
-10.017333984375 48.8955078125 -20.5784912109375
-90.874267578125 43.01123046875 -35.302978515625
-52.165771484375 41.3096923828125 -33.9876708984375
13.19775390625 -11.6082763671875 -32.447021484375
16.03564453125 34.822021484375 -72.4976806640625
16.40380859375 43.561279296875 -85.3609619140625
21.886962890625 -62.4503173828125 -14.582763671875
-45.11572265625 6.40185546875 -0.056640625
-18.413330078125 -3.814453125 44.944091796875
7.01953125 44.0032958984375 -11.3984375
10.88818359375 -21.3857421875 -9.39892578125
24.037353515625 -65.501220703125 2.5609130859375
-24.7685546875 28.9830322265625 -0.1142578125
-115.54345703125 -5.11572265625 22.2642822265625
26.818603515625 -26.921630859375 -30.3851318359375
13.927490234375 36.05029296875 -82.6622314453125
-72.21337890625 28.8795166015625 -16.27978515625
-23.35791015625 7.8760986328125 21.7222900390625
9.6689453125 65.297607421875 -50.140869140625
-33.22802734375 -16.78564453125 33.7947998046875
-24.472412109375 -18.348388671875 48.2152099609375
-19.973876953125 23.989013671875 11.298583984375
26.108642578125 -35.5509033203125 -34.6016845703125
-5.0859375 52.6470947265625 -19.560791015625
14.114501953125 27.5235595703125 -64.59375
29.4677734375 -50.8509521484375 -3.3660888671875
-35.571533203125 11.5997314453125 9.8819580078125
-35.414794921875 -35.075439453125 59.9495849609375
25.982666015625 -14.7730712890625 -50.1573486328125
-118.642578125 40.423828125 -60.1180419921875
29.4013671875 -35.35693359375 -21.5194091796875
-11.067626953125 55.3323974609375 -51.7359619140625
12.139404296875 9.5103759765625 -61.0843505859375
-1.940673828125 44.1636962890625 -25.5399169921875
-111.26025390625 -3.2794189453125 26.5306396484375
99.545166015625 -40.7127685546875 -0.814697265625
13.254150390625 -2.231201171875 -40.453857421875
11.334716796875 -7.3746337890625 -43.9442138671875
13.215576171875 -4.1719970703125 -44.810791015625
12.75390625 -37.2255859375 0.2490234375
27.84521484375 -46.447265625 -15.490234375
52.686279296875 -35.2255859375 32.4520263671875
19.828369140625 66.5723876953125 -44.5023193359375
24.56298828125 -57.9508056640625 -4.61181640625
-127.689453125 -35.091796875 44.836181640625
14.85986328125 30.520751953125 -67.2742919921875
-42.95751953125 40.9063720703125 -29.2752685546875
-19.58740234375 19.2945556640625 16.7552490234375
4.5498046875 42.59375 -16.28857421875
-21.6865234375 -46.7332763671875 96.5604248046875
13.9990234375 -45.5548095703125 6.8492431640625
26.324462890625 -72.899169921875 20.000244140625
13.494384765625 14.538818359375 -54.4468994140625
13.2939453125 -48.8623046875 14.3883056640625
14.957763671875 24.1282958984375 -68.004638671875
25.396728515625 -59.1025390625 1.3499755859375
-40.024658203125 -22.468017578125 41.0023193359375
-121.524169921875 -46.57666015625 4.408447265625
-38.2685546875 28.1361083984375 -20.099853515625
-116.633056640625 -9.2138671875 24.305908203125
-124.589599609375 -45.3656005859375 3.8179931640625
12.531005859375 -58.7332763671875 25.413818359375
29.5478515625 -34.950439453125 -29.9691162109375
105.208984375 -45.7479248046875 -1.12060546875
-46.692626953125 41.1365966796875 -33.4078369140625
27.24609375 -4.96240234375 -69.8538818359375
103.0419921875 -57.0377197265625 -3.37255859375
29.17236328125 -65.9776611328125 14.3626708984375
-13.101318359375 48.1385498046875 -0.611328125
47.294189453125 -39.9290771484375 33.502197265625
-117.031005859375 -7.9456787109375 19.1729736328125
-45.9951171875 16.7518310546875 3.1832275390625
25.91796875 -23.2811279296875 -49.5743408203125
17.20849609375 -30.1827392578125 23.6474609375
-17.431396484375 -30.785400390625 87.3204345703125
-33.200439453125 -4.2962646484375 10.5474853515625
-25.785888671875 -49.69091796875 92.9156494140625
25.00439453125 -26.379638671875 -46.2210693359375
10.72021484375 -50.881103515625 20.8428955078125
-116.092041015625 4.1248779296875 13.27587890625
-26.531494140625 9.0545654296875 17.759033203125
18.3154296875 -32.2086181640625 22.89208984375
-52.379638671875 32.3912353515625 13.093505859375
14.07568359375 -39.115478515625 5.031005859375
-34.482666015625 -3.4468994140625 6.408935546875
21.751708984375 -46.3087158203125 -24.0478515625
-34.89697265625 35.9063720703125 -15.5203857421875
-23.7880859375 11.5450439453125 17.6448974609375
-83.549560546875 -39.3262939453125 46.2860107421875
12.9755859375 21.65966796875 -59.7474365234375
10.339111328125 49.930908203125 43.5791015625
-7.751953125 -38.6053466796875 25.498046875
12.237548828125 -21.414306640625 -18.8310546875
-29.051025390625 -26.5501708984375 52.677001953125
26.96484375 -34.956298828125 -18.293212890625
-69.312744140625 63.3353271484375 21.4576416015625
-1.8173828125 54.3475341796875 -18.1844482421875
-14.586181640625 43.3341064453125 -1.28271484375
-78.0234375 -56.4619140625 87.9700927734375
-132.86572265625 15.6844482421875 -85.7489013671875
-30.039794921875 -16.8736572265625 41.5206298828125
-37.047607421875 26.89404296875 -13.2913818359375
-19.335693359375 -12.602294921875 52.119384765625
13.65625 -29.5150146484375 -15.7845458984375
-33.439208984375 -12.3858642578125 19.891357421875
-33.06103515625 -6.704833984375 23.7935791015625
28.173095703125 -21.97802734375 -46.4874267578125
29.310791015625 -41.884521484375 -14.9141845703125
-59.642822265625 -45.1685791015625 70.3494873046875
-48.507080078125 -26.2913818359375 47.8145751953125
-1.634521484375 -48.6895751953125 22.4395751953125
-50.349365234375 -28.410400390625 51.058837890625
24.3994140625 -58.5433349609375 -10.9652099609375
-25.270263671875 -51.3280029296875 99.2454833984375
-130.9267578125 23.862060546875 -48.0164794921875
-31.723388671875 30.6749267578125 -7.5479736328125
-39.980224609375 6.5096435546875 1.986572265625
13.738525390625 -25.541748046875 -16.6370849609375
6.884033203125 56.5810546875 47.4757080078125
-44.837890625 -2.8267822265625 4.4002685546875
-7.151123046875 26.1441650390625 -80.37109375
-28.632568359375 11.3306884765625 14.158935546875
29.543212890625 -36.2254638671875 -15.824951171875
18.3857421875 63.8319091796875 -35.4530029296875
-41.9091796875 25.587890625 -68.880859375
28.693359375 -32.0433349609375 -36.8037109375
25.726318359375 -71.641845703125 17.523193359375
-49.481689453125 11.7320556640625 3.964599609375
-27.85205078125 22.078369140625 3.344970703125
-129.92578125 -38.2113037109375 47.097900390625
-19.932861328125 -15.110107421875 52.491455078125
14.8671875 20.3416748046875 -64.4381103515625
24.95068359375 4.44677734375 -76.013916015625
-40.7705078125 22.869140625 -70.8057861328125
-31.13818359375 4.7127685546875 17.9345703125
-30.3916015625 -30.42626953125 56.1429443359375
-91.65576171875 -42.4195556640625 47.125
-37.972412109375 -29.8238525390625 53.198974609375
-114.190185546875 -79.1597900390625 98.8968505859375
-25.620361328125 -10.9013671875 38.295166015625
-45.710693359375 8.5147705078125 2.28564453125
-123.980224609375 -28.19140625 37.9937744140625
-20.661376953125 1.23583984375 33.3345947265625
13.62255859375 24.6680908203125 -62.4202880859375
-33.79052734375 -18.05224609375 22.97607421875
28.814697265625 -37.551025390625 -28.7440185546875
12.532470703125 -53.859130859375 10.4775390625
-28.13720703125 3.0118408203125 22.03955078125
-132.621826171875 26.220458984375 -47.207275390625
7.580322265625 -19.31494140625 -12.459228515625
-60.514404296875 34.8653564453125 -23.68994140625
14.733154296875 40.16748046875 -85.579345703125
-34.16064453125 -29.630126953125 53.3597412109375
12.090087890625 -58.5594482421875 27.67138671875
-64.224609375 -37.5081787109375 54.212890625
-117.597900390625 -8.1292724609375 13.572021484375
29.912353515625 -24.561767578125 -39.4068603515625
-115.020751953125 -74.0357666015625 106.7999267578125
14.157958984375 54.80517578125 43.8814697265625
-29.2890625 -2.6717529296875 27.1026611328125
-97.284423828125 -41.8001708984375 48.2042236328125
-117.381591796875 -19.08349609375 28.15771484375
22.540771484375 -39.6693115234375 -36.680908203125
6.6044921875 60.5247802734375 48.675537109375
26.045166015625 -19.8101806640625 -54.1541748046875
-116.66357421875 -2.05078125 17.059326171875
-27.9111328125 -5.1927490234375 30.7242431640625
-33.00732421875 -23.6871337890625 48.49853515625
-41.890869140625 21.0823974609375 -0.8741455078125
20.056640625 -39.2884521484375 -37.058349609375
-79.66357421875 29.5772705078125 -16.9852294921875
-117.070068359375 -77.40234375 98.9566650390625
13.038330078125 2.1566162109375 -52.5875244140625
-2.99072265625 58.810546875 47.8682861328125
-38.044189453125 31.6363525390625 -22.8731689453125
-37.44970703125 5.775146484375 4.93115234375
-44.616455078125 -25.750244140625 48.5413818359375
-23.593505859375 -6.128662109375 35.06298828125
-23.145263671875 -2.28369140625 31.8292236328125
-37.430908203125 -24.9462890625 48.1864013671875
-127.1806640625 -44.4676513671875 56.802490234375
-95.849365234375 29.0908203125 -16.1329345703125
11.122314453125 -23.5062255859375 -28.13232421875
-129.035888671875 -46.578369140625 0.56201171875
26.865234375 -48.742431640625 -21.2545166015625
-133.80322265625 15.8846435546875 -82.591064453125
16.13330078125 46.780029296875 -80.3631591796875
-6.771484375 59.064453125 -49.4013671875
-118.573486328125 -46.8978271484375 2.945556640625
7.772705078125 -38.0618896484375 5.63623046875
-137.307373046875 -48.588623046875 0.6568603515625
-121.027099609375 36.5555419921875 -62.279296875
-10.518310546875 25.0111083984375 -76.90966796875
-35.75439453125 -22.192138671875 34.2305908203125
25.98828125 -63.0377197265625 -2.347900390625
7.9912109375 57.5980224609375 -39.4696044921875
11.201904296875 3.12158203125 -42.210205078125
-68.171630859375 28.831787109375 -15.8607177734375
-115.41650390625 40.0113525390625 -59.0220947265625
14.77685546875 13.0985107421875 -59.3182373046875
-21.90185546875 25.055908203125 7.181396484375
-2.858642578125 47.8248291015625 -27.135009765625
-121.81396484375 -48.172607421875 1.814208984375
15.682861328125 38.3800048828125 -82.5390625
-21.666259765625 -14.7535400390625 47.9666748046875
-35.443359375 32.3912353515625 -13.014404296875
-23.52392578125 -15.3896484375 46.08740234375
9.8330078125 -23.23681640625 13.6563720703125
-22.987548828125 -46.7913818359375 92.5223388671875
16.03076171875 -18.4310302734375 0.4869384765625
-26.521240234375 -26.637451171875 54.67041015625
-53.060791015625 -34.985107421875 58.5755615234375
-72.492919921875 63.3992919921875 20.196044921875
-20.83056640625 -8.6903076171875 43.39990234375
-68.802978515625 41.0699462890625 -33.126708984375
11.053466796875 -19.635498046875 -15.3865966796875
10.33203125 -31.029541015625 -4.67919921875
23.9970703125 -35.4896240234375 -36.481201171875
-126.7265625 13.5787353515625 -0.0928955078125
-70.71826171875 42.1212158203125 -34.0673828125
-43.745361328125 19.9862060546875 -2.3111572265625
-116.823486328125 42.4573974609375 -62.1220703125
10.915283203125 -26.8048095703125 -9.5457763671875
23.856689453125 -60.065185546875 -7.453125
-18.86865234375 -5.8756103515625 45.7265625
-25.064697265625 -24.069091796875 53.2098388671875
29.398681640625 -58.814453125 4.8865966796875
-136.29443359375 16.8414306640625 -86.3858642578125
13.220947265625 -32.6937255859375 -5.9805908203125
23.401611328125 -14.61669921875 -63.8602294921875
25.63623046875 -73.057373046875 9.4439697265625
-17.631103515625 -37.9619140625 92.4110107421875
8.52734375 58.813720703125 -33.7279052734375
1.61083984375 45.7613525390625 -17.6695556640625
-23.24169921875 -7.34912109375 37.3475341796875
-12.0615234375 56.5479736328125 -53.338623046875
24.8232421875 -63.8538818359375 0.6923828125
-19.949951171875 10.990966796875 26.597900390625
-0.9267578125 56.4619140625 -20.3902587890625
-41.0869140625 22.769775390625 -4.6229248046875
