79.57763671875 11.959716796875 18.76025390625
5.876953125 -6.398681640625 25.228271484375
27.1817626953125 -5.14111328125 3.1180419921875
30.579833984375 -71.435546875 -50.11083984375
104.957763671875 -34.3974609375 -23.1319580078125
55.92041015625 -19.188232421875 -8.580322265625
99.73974609375 -53.4306640625 -37.744873046875
79.25634765625 -2.704345703125 5.4462890625
65.271240234375 40.87109375 45.626708984375
-0.922119140625 53.90966796875 -8.077392578125
46.158935546875 53.178466796875 63.6314697265625
0.75830078125 -53.49658203125 -34.0345458984375
23.8468017578125 -40.640869140625 -26.43310546875
1.1351318359375 -20.178466796875 -5.9595947265625
52.7958984375 -40.26123046875 -25.910400390625
88.729736328125 -5.326904296875 2.7293701171875
-15.644287109375 77.204345703125 39.1536865234375
93.646484375 -37.512939453125 -24.7469482421875
117.668212890625 -13.64990234375 -7.365966796875
20.9151611328125 26.29931640625 31.8380126953125
74.064453125 24.69482421875 30.2255859375
95.0274658203125 39.222900390625 42.8359375
-3.31689453125 -58.13134765625 -41.1279296875
1.810302734375 -33.35009765625 -8.8262939453125
110.1234130859375 26.82421875 29.39306640625
56.475830078125 -54.88427734375 -37.43408203125
35.9539794921875 -68.444580078125 -47.856689453125
46.73828125 -10.298828125 -1.032470703125
-30.0843505859375 -10.375732421875 -41.8067626953125
85.1063232421875 -62.12255859375 -43.3284912109375
107.5711669921875 41.219970703125 43.602294921875
125.247802734375 -55.63134765625 -41.7337646484375
91.1322021484375 27.40625 32.3087158203125
3.79833984375 51.377197265625 52.430419921875
92.443359375 2.851318359375 9.539794921875
67.046142578125 -25.13232421875 -13.4124755859375
-25.6708984375 20.076171875 -15.797119140625
1.28369140625 43.082763671875 44.2548828125
-24.728515625 64.62646484375 26.0828857421875
28.4969482421875 27.203857421875 47.7877197265625
61.342529296875 4.379638671875 11.7213134765625
114.809326171875 -73.769775390625 -54.1884765625
26.0572509765625 -48.58642578125 -32.6700439453125
-15.2049560546875 64.966552734375 29.6439208984375
0.6082763671875 -29.907470703125 -14.1907958984375
53.664306640625 44.33056640625 49.15771484375
36.0313720703125 -8.679443359375 -0.0946044921875
-1.3450927734375 6.320556640625 11.258056640625
85.449951171875 24.855224609375 30.2344970703125
76.2322998046875 -11.02685546875 -1.4765625
107.822998046875 -44.16357421875 -31.3009033203125
101.9945068359375 -72.925048828125 -52.640869140625
89.5560302734375 -70.15771484375 -49.435791015625
29.9327392578125 -39.27001953125 -25.396728515625
132.2117919921875 -43.92236328125 -33.1387939453125
-31.0030517578125 -19.311767578125 -48.576171875
48.5650634765625 11.3076171875 17.8638916015625
58.8931884765625 -26.998779296875 -15.35205078125
108.191162109375 21.667236328125 26.0556640625
21.9874267578125 -0.068359375 7.216796875
115.8297119140625 1.173583984375 6.021240234375
61.0640869140625 -11.560791015625 -1.9580078125
121.3875732421875 61.800537109375 63.5057373046875
74.407470703125 19.04443359375 25.1861572265625
70.118896484375 3.3505859375 10.8389892578125
74.5731201171875 -63.396728515625 -43.4564208984375
-22.5484619140625 -16.0166015625 -45.50830078125
122.800048828125 52.2216796875 53.306396484375
37.3482666015625 12.98095703125 19.1556396484375
21.6219482421875 -56.9267578125 -39.078857421875
114.762451171875 -51.57421875 -37.5714111328125
-53.007568359375 -8.5849609375 -10.424072265625
76.8619384765625 -36.762939453125 -22.8519287109375
118.6689453125 -7.389892578125 -1.748291015625
21.26953125 -30.96337890625 -18.8363037109375
-5.5072021484375 45.488525390625 46.19921875
27.809326171875 37.17138671875 50.68603515625
99.5294189453125 58.51220703125 61.722900390625
114.1673583984375 34.666259765625 36.367431640625
-21.446533203125 53.917236328125 16.0894775390625
-53.64794921875 -8.12744140625 66.865234375
-53.046875 -35.49365234375 -41.0101318359375
121.3427734375 -0.706787109375 3.3399658203125
12.9971923828125 -5.643798828125 1.759765625
102.824951171875 -66.091796875 -47.5609130859375
-54.4677734375 -4.323974609375 58.240966796875
109.50927734375 -1.09033203125 4.637451171875
1.83642578125 59.0068359375 60.404541015625
-26.0848388671875 -84.69873046875 66.1204833984375
23.2264404296875 53.3330078125 57.57470703125
114.1724853515625 -42.17578125 -30.2032470703125
-1.48388671875 -42.556884765625 -29.8768310546875
-47.6705322265625 -60.44921875 -40.8975830078125
70.0860595703125 57.192138671875 62.1812744140625
97.2525634765625 25.04638671875 28.978515625
-12.1497802734375 58.572509765625 60.419189453125
128.181884765625 -11.8251953125 -6.8260498046875
128.0078125 -40.566650390625 -30.53515625
1.1136474609375 -74.933837890625 -50.4908447265625
92.8218994140625 45.08544921875 49.161865234375
-17.3226318359375 -23.80908203125 -50.8668212890625
55.0062255859375 -2.8759765625 5.418212890625
109.6365966796875 -61.669189453125 -44.7098388671875
-6.58935546875 36.809326171875 -23.9056396484375
71.5421142578125 39.04296875 44.0548095703125
31.055908203125 30.083984375 35.5543212890625
-15.25732421875 22.267333984375 -10.5548095703125
31.81982421875 21.00634765625 26.8349609375
34.374755859375 27.37158203125 54.07763671875
89.9769287109375 53.908935546875 57.6041259765625
89.6190185546875 -27.75341796875 -16.281494140625
121.2933349609375 15.851806640625 18.39501953125
-3.2359619140625 -32.674560546875 -20.3502197265625
55.3660888671875 -67.178466796875 -46.7413330078125
19.4774169921875 -66.319580078125 -46.20849609375
-0.1978759765625 77.130859375 14.0325927734375
44.165283203125 18.57373046875 24.306640625
116.988037109375 -19.12744140625 -11.6868896484375
13.7744140625 58.526123046875 62.0390625
-22.084228515625 26.358642578125 -9.92529296875
87.2381591796875 57.627685546875 62.16845703125
11.5738525390625 62.9169921875 66.08984375
-1.698974609375 28.838623046875 -31.6588134765625
27.089599609375 17.262451171875 23.4398193359375
-4.624755859375 -25.37060546875 -10.7532958984375
79.3955078125 61.020263671875 66.2943115234375
39.797119140625 -57.339111328125 -39.5760498046875
122.872802734375 46.196044921875 47.1075439453125
63.3038330078125 -71.89306640625 -49.634765625
135.780517578125 -55.8193359375 -42.6973876953125
80.867431640625 18.06298828125 24.343505859375
30.0018310546875 -32.5 -19.8446044921875
47.897216796875 24.38525390625 29.7822265625
80.689453125 -31.379638671875 -18.3419189453125
124.99658203125 37.281982421875 38.7982177734375
-0.8819580078125 66.76416015625 2.839599609375
39.813232421875 35.986328125 41.23486328125
121.172607421875 26.04931640625 27.72802734375
108.9500732421875 7.65283203125 12.2557373046875
50.8681640625 4.731201171875 11.717041015625
47.9456787109375 -29.272705078125 -16.8687744140625
-5.8819580078125 73.651611328125 9.3013916015625
45.2127685546875 -70.374755859375 -49.012939453125
54.2508544921875 23.738525390625 29.373291015625
35.6029052734375 0.093994140625 7.6729736328125
-23.84033203125 72.9052734375 34.2108154296875
105.35498046875 -29.232177734375 -19.1090087890625
43.1356201171875 -6.9140625 1.7491455078125
105.3167724609375 28.393798828125 31.4681396484375
96.1845703125 52.169677734375 55.699462890625
78.2216796875 31.792724609375 37.231201171875
115.37060546875 -28.451904296875 -19.5108642578125
-0.5301513671875 -9.73876953125 -1.05859375
60.7532958984375 50.84228515625 55.3358154296875
-27.6380615234375 -80.016845703125 75.6617431640625
63.1400146484375 33.211181640625 38.014892578125
8.7535400390625 18.05078125 32.37646484375
74.97119140625 -20.12109375 -9.0582275390625
105.533447265625 -22.103271484375 -13.2142333984375
10.5096435546875 -1.511962890625 30.0478515625
6.8499755859375 -55.6806640625 -38.5069580078125
26.257568359375 42.687255859375 47.5670166015625
35.95947265625 -64.216064453125 -44.53857421875
91.115478515625 32.2783203125 36.8154296875
130.070556640625 -48.919677734375 -36.85595703125
74.4969482421875 10.45654296875 17.450927734375
93.6197509765625 -54.259033203125 -37.8216552734375
23.0150146484375 7.297607421875 41.65966796875
62.07080078125 -3.056396484375 5.42041015625
73.0240478515625 61.302001953125 66.6634521484375
-15.7427978515625 31.404052734375 -4.634765625
38.997802734375 25.379150390625 55.8653564453125
79.152587890625 53.446533203125 58.42431640625
12.7347412109375 52.640625 55.5943603515625
30.4697265625 13.481201171875 19.5814208984375
53.78662109375 -24.18701171875 -12.9190673828125
98.6014404296875 6.95361328125 12.6689453125
65.8753662109375 -51.64208984375 -34.29736328125
20.3145751953125 19.55859375 25.1319580078125
-56.686279296875 -0.059326171875 -13.964111328125
111.9158935546875 15.654541015625 12.8148193359375
-30.86767578125 82.380126953125 44.3463134765625
113.056640625 46.483154296875 47.89990234375
64.125 20.34521484375 26.4456787109375
73.4833984375 54.0224609375 59.186767578125
-18.1365966796875 59.076171875 22.13427734375
-5.355712890625 -37.021240234375 -27.602294921875
2.901123046875 4.334716796875 21.25732421875
126.4078369140625 13.051513671875 15.37060546875
102.2135009765625 41.356201171875 44.4129638671875
-20.3475341796875 35.779296875 -1.124267578125
129.27734375 -32.804443359375 -24.38916015625
15.389892578125 12.553955078125 36.7681884765625
72.2216796875 -55.0966796875 -37.4365234375
55.6680908203125 58.07568359375 62.1087646484375
20.5059814453125 56.784912109375 61.3631591796875
19.009521484375 3.37548828125 10.35302734375
68.648681640625 -39.878173828125 -25.4007568359375
34.1904296875 -23.80126953125 -12.9180908203125
98.4263916015625 -49.378662109375 -34.556396484375
102.1434326171875 45.7041015625 48.7364501953125
36.914794921875 28.83544921875 33.910400390625
106.655517578125 -70.549560546875 -51.4124755859375
31.042236328125 -19.181396484375 -8.6043701171875
71.442626953125 47.752197265625 52.27001953125
106.980712890625 -10.2607421875 -3.204833984375
-27.619873046875 -3.620849609375 -36.27392578125
-5.0753173828125 84.327392578125 19.4840087890625
30.964111328125 21.951416015625 48.8492431640625
124.803955078125 -71.3779296875 -53.4364013671875
105.5631103515625 51.3291015625 53.3358154296875
134.4730224609375 -27.29150390625 -19.87890625
23.012451171875 -13.88525390625 -4.325439453125
0.22607421875 3.865478515625 -52.234619140625
38.308837890625 -32.697509765625 -19.8487548828125
104.983642578125 24.23095703125 15.4754638671875
81.8468017578125 49.804443359375 54.604248046875
87.630859375 -37.918701171875 -24.3148193359375
88.79150390625 39.8173828125 44.0440673828125
120.02099609375 -63.95458984375 -47.335205078125
40.7847900390625 -62.961181640625 -43.44970703125
-11.9979248046875 50.84130859375 50.0205078125
-24.93017578125 -32.117919921875 -58.7197265625
120.58984375 -48.72412109375 -36.375244140625
-7.34912109375 63.94775390625 65.20703125
14.9224853515625 -42.1943359375 -28.4267578125
61.353271484375 -44.6123046875 -29.0286865234375
85.053955078125 -68.4580078125 -47.8094482421875
76.8974609375 -70.383544921875 -48.982421875
-20.3135986328125 18.094482421875 -16.7674560546875
-3.3763427734375 8.48388671875 21.69189453125
-8.8350830078125 39.98046875 -18.709228515625
85.674560546875 -30.216552734375 -18.267578125
98.7093505859375 -7.779296875 -0.4476318359375
112.5582275390625 -36.112548828125 -25.5616455078125
-20.438232421875 2.445556640625 -30.017333984375
77.7044677734375 -27.7724609375 -15.3768310546875
-28.516845703125 37.04296875 -1.083984375
-27.7071533203125 76.55859375 37.614013671875
45.085205078125 -20.84326171875 -10.029052734375
120.3931884765625 -28.260498046875 -19.4940185546875
125.702392578125 5.828857421875 8.760986328125
17.668212890625 -28.10693359375 -16.8310546875
130.55078125 -0.531982421875 3.35400390625
11.1622314453125 -68.40185546875 -49.338623046875
54.2967529296875 -63.166015625 -43.938720703125
-0.291259765625 -37.90576171875 -23.9344482421875
104.710693359375 -41.205810546875 -28.734130859375
27.7635498046875 -62.74462890625 -43.442626953125
39.739013671875 49.70654296875 59.0155029296875
14.7406005859375 18.43603515625 23.4261474609375
52.7860107421875 31.180419921875 36.38671875
117.84716796875 -57.70947265625 -42.4095458984375
70.6416015625 -72.1015625 -50.137939453125
36.4930419921875 23.589599609375 28.9351806640625
-30.064208984375 -84.85009765625 63.15869140625
104.3829345703125 57.955078125 60.56884765625
-28.0836181640625 48.514404296875 9.9293212890625
42.104248046875 10.1337890625 16.9849853515625
69.3695068359375 25.644775390625 31.4730224609375
-1.5262451171875 18.01806640625 -41.1700439453125
4.8616943359375 63.23583984375 64.87548828125
26.926025390625 33.390625 37.5599365234375
18.13037109375 -62.316650390625 -43.41259765625
15.3360595703125 46.6025390625 50.2410888671875
0.4654541015625 87.220703125 21.02490234375
55.276611328125 3.015380859375 10.38134765625
83.7686767578125 -4.102294921875 4.087890625
-17.9642333984375 -37.38330078125 -61.203857421875
70.82177734375 -27.578369140625 -15.3726806640625
-4.2799072265625 -50.18212890625 -34.2486572265625
1.4202880859375 96.040771484375 28.5291748046875
36.894775390625 30.852783203125 56.405517578125
-20.067138671875 79.33642578125 41.3961181640625
56.9539794921875 -71.87939453125 -50.129150390625
62.3853759765625 -34.627197265625 -21.3348388671875
-2.7254638671875 -16.54638671875 -8.96630859375
32.0499267578125 -5.322021484375 3.117431640625
68.2686767578125 -31.75390625 -18.8380126953125
48.4779052734375 15.945556640625 22.1783447265625
-29.0592041015625 -27.1484375 -55.3765869140625
108.7510986328125 -48.55126953125 -34.9522705078125
54.3253173828125 35.677001953125 40.843994140625
-6.3743896484375 22.1064453125 -37.783203125
103.3834228515625 -56.705078125 -40.415771484375
111.0126953125 23.140625 19.7025146484375
81.1983642578125 42.209228515625 47.6390380859375
41.269775390625 5.9189453125 13.0328369140625
45.2401123046875 1.82177734375 9.0355224609375
41.8817138671875 33.270751953125 61.6754150390625
-23.979248046875 11.138916015625 -23.2586669921875
63.944580078125 -38.89306640625 -24.8707275390625
-96.1787109375 56.10107421875 36.487060546875
-52.062744140625 -25.188720703125 -2.113525390625
22.73486328125 -26.98876953125 -15.3868408203125
102.797607421875 20.552490234375 24.357421875
91.158203125 22.683837890625 18.4105224609375
-26.1844482421875 54.8095703125 16.0943603515625
-31.222900390625 23.816162109375 -13.03271484375
56.8409423828125 -51.021484375 -34.256103515625
139.1123046875 -68.990966796875 -53.1715087890625
99.55126953125 10.491943359375 15.747802734375
-5.70654296875 60.1279296875 -2.97412109375
-24.2880859375 41.905029296875 4.4522705078125
-45.61865234375 37.841552734375 81.4765625
75.3406982421875 44.02783203125 48.7833251953125
57.107421875 -13.72119140625 -3.8367919921875
-1.69873046875 -14.443359375 -3.922607421875
131.0625 -4.017822265625 0.156982421875
121.8043212890625 -4.1943359375 0.1419677734375
89.669189453125 61.606201171875 65.86474609375
100.151611328125 -22.859130859375 -13.2596435546875
39.631103515625 -17.89599609375 -7.6328125
-15.232421875 73.26318359375 36.5460205078125
103.96337890625 13.68310546875 17.5047607421875
112.8037109375 -22.09423828125 -13.6614990234375
-4.4158935546875 -22.02880859375 -7.4068603515625
104.5411376953125 0.1181640625 5.9835205078125
43.9869384765625 33.5244140625 38.4044189453125
47.8802490234375 -25.306640625 -13.8974609375
15.1328125 -50.38134765625 -34.7200927734375
1.947021484375 -13.48046875 1.951171875
25.145751953125 -20.09619140625 -9.55908203125
-0.6181640625 -70.543701171875 -50.5408935546875
36.4920654296875 42.0 56.61474609375
12.4365234375 -73.77734375 -52.818115234375
-31.025146484375 29.400146484375 -8.0966796875
95.2171630859375 -28.876953125 -17.7186279296875
-4.949951171875 -16.052490234375 -13.9029541015625
57.579345703125 12.6357421875 19.17333984375
54.5809326171875 -37.152099609375 -22.8994140625
-20.263427734375 -31.568359375 -57.2618408203125
92.8065185546875 -1.284912109375 5.496337890625
91.4996337890625 -45.586181640625 -30.955810546875
66.1761474609375 -58.804931640625 -40.15869140625
92.3170166015625 -61.912109375 -43.302001953125
124.7626953125 21.570556640625 23.1029052734375
52.709228515625 17.9140625 23.89013671875
50.4354248046875 -16.441650390625 -6.2044677734375
24.073974609375 -53.640380859375 -36.8837890625
40.8780517578125 61.060302734375 65.0662841796875
-4.2139892578125 -41.244384765625 -26.0350341796875
8.8880615234375 -18.93212890625 -10.8773193359375
85.7708740234375 36.435791015625 41.6787109375
65.0982666015625 44.470703125 49.5704345703125
44.1204833984375 22.292724609375 28.108642578125
0.8314208984375 -61.333251953125 -39.9638671875
132.4290771484375 -35.504150390625 -26.4281005859375
-26.3656005859375 -18.19921875 -48.0006103515625
126.3033447265625 1.54443359375 5.164306640625
90.676513671875 -12.809814453125 -3.76806640625
113.924560546875 -65.641845703125 -48.4764404296875
-18.5386962890625 9.1103515625 -24.700439453125
102.18359375 -15.865478515625 -7.4805908203125
81.6446533203125 -46.01220703125 -30.05517578125
89.8455810546875 -19.1865234375 -8.9998779296875
20.201904296875 -36.922119140625 -23.8482666015625
12.811279296875 -35.747802734375 -23.312255859375
98.0504150390625 -34.7880859375 -23.1646728515625
19.558349609375 37.700439453125 41.9888916015625
135.7288818359375 -62.24267578125 -47.6356201171875
10.6341552734375 -44.148193359375 -30.9251708984375
38.7462158203125 -24.182861328125 -12.93359375
15.9222412109375 2.600341796875 34.808837890625
-33.827392578125 -51.58056640625 -61.0362548828125
35.2493896484375 33.52685546875 38.39599609375
-53.791015625 -2.416015625 45.8331298828125
-6.4423828125 54.87451171875 55.45263671875
112.6619873046875 43.19580078125 44.7659912109375
65.2525634765625 -15.354248046875 -5.243408203125
35.180419921875 16.56787109375 51.6390380859375
-2.1778564453125 -0.1953125 5.4326171875
-53.4862060546875 -0.0732421875 36.9852294921875
-26.5548095703125 79.882568359375 41.371826171875
49.4561767578125 -62.337158203125 -42.900634765625
64.6387939453125 -22.147705078125 -10.9825439453125
-4.4085693359375 60.86083984375 61.8662109375
-26.68115234375 30.806396484375 -6.347412109375
71.2330322265625 -9.416259765625 -0.0855712890625
78.3857421875 -16.821533203125 -6.193603515625
40.281005859375 21.101318359375 56.51806640625
70.0399169921875 50.979736328125 55.740478515625
-0.79248046875 0.911376953125 10.7264404296875
26.0711669921875 7.622314453125 14.3448486328125
65.2510986328125 23.5712890625 29.3856201171875
84.04296875 21.583251953125 16.2744140625
61.1512451171875 -52.23681640625 -35.3016357421875
51.0760498046875 -47.39208984375 -31.6064453125
45.6346435546875 -65.062744140625 -45.0928955078125
10.63623046875 -32.07080078125 -21.222412109375
-12.0087890625 19.993896484375 21.2713623046875
42.64404296875 -54.47607421875 -36.9356689453125
32.143310546875 -56.9296875 -39.0687255859375
-0.83203125 8.12890625 -48.259033203125
86.061279296875 32.89697265625 37.6285400390625
77.4901123046875 4.20068359375 11.7340087890625
53.6099853515625 -75.120361328125 -52.4246826171875
-7.998046875 39.4580078125 40.671875
44.782470703125 -33.665283203125 -20.364990234375
61.0299072265625 53.887451171875 58.781982421875
52.5262451171875 -9.764404296875 -0.561767578125
105.9383544921875 -17.310302734375 -9.3475341796875
39.0545654296875 16.9345703125 23.0245361328125
20.844970703125 -70.15087890625 -49.014892578125
74.425537109375 -3.059814453125 5.4322509765625
126.5926513671875 -6.839111328125 -2.1644287109375
42.5426025390625 -42.22509765625 -27.464111328125
-8.1141357421875 48.741943359375 49.7154541015625
-53.536865234375 -2.650146484375 -17.1981201171875
46.3397216796875 -13.52294921875 -4.2882080078125
85.7235107421875 -50.41259765625 -34.1785888671875
122.74560546875 -39.60205078125 -29.06494140625
93.7880859375 -68.232421875 -48.2657470703125
111.8564453125 -13.854736328125 -6.482666015625
28.1533203125 59.912109375 64.739990234375
36.098388671875 50.068359375 56.566650390625
79.42529296875 -63.81298828125 -43.973876953125
45.918701171875 -49.808837890625 -33.220703125
27.6519775390625 26.29736328125 31.844482421875
12.6864013671875 -2.1298828125 4.5150146484375
-1.2396240234375 42.618408203125 -18.5245361328125
11.3538818359375 8.509765625 13.47509765625
19.899658203125 -49.186767578125 -33.197021484375
109.8624267578125 -54.63232421875 -39.747802734375
34.1588134765625 -31.550048828125 -18.859130859375
-2.9307861328125 2.38330078125 -56.365966796875
-54.664306640625 0.695068359375 48.7833251953125
63.2080078125 1.465087890625 9.0455322265625
96.3087158203125 17.27490234375 22.22509765625
121.7413330078125 -35.327392578125 -25.497802734375
100.3565673828125 -1.97607421875 4.6043701171875
-19.541259765625 73.024169921875 34.990966796875
-1.327392578125 -48.193359375 -31.719970703125
-30.9337158203125 2.656494140625 -31.326904296875
66.9853515625 -66.547607421875 -46.183349609375
62.692138671875 61.59423828125 66.6319580078125
112.9947509765625 -70.539306640625 -51.8939208984375
84.7926025390625 -57.561279296875 -39.551025390625
48.1953125 -74.031005859375 -51.8267822265625
42.1358642578125 53.387451171875 61.2041015625
90.9105224609375 20.379638671875 24.771484375
21.7320556640625 7.62353515625 14.3406982421875
75.8125 -59.638671875 -40.70361328125
-12.3184814453125 31.909912109375 33.3897705078125
-28.5126953125 59.128173828125 20.129150390625
-31.604248046875 16.50439453125 -20.30908203125
-18.4193115234375 -9.8857421875 -39.5101318359375
92.2255859375 -73.16552734375 -51.694580078125
26.176513671875 13.810791015625 20.00830078125
0.0220947265625 -67.630126953125 -45.3798828125
50.744140625 46.866943359375 51.4814453125
19.2833251953125 13.145263671875 19.569091796875
71.210205078125 -35.218994140625 -21.364013671875
118.1170654296875 59.68408203125 61.265869140625
115.73828125 50.75634765625 52.1640625
96.737548828125 46.7421875 49.9056396484375
-0.0347900390625 6.38671875 15.6082763671875
-27.198486328125 -85.901123046875 50.8333740234375
38.341796875 -48.192626953125 -32.1539306640625
-24.5465087890625 35.326416015625 -1.977294921875
112.2947998046875 29.671630859375 31.875
56.594970703125 42.236083984375 46.79541015625
77.28271484375 -6.39306640625 2.242431640625
-51.9940185546875 -64.298583984375 -40.275390625
-2.966552734375 15.570068359375 -44.4302978515625
-0.3118896484375 -55.7021484375 -37.5594482421875
108.7916259765625 -58.138671875 -41.977783203125
26.6044921875 -43.605224609375 -28.5186767578125
97.946044921875 -13.873046875 -5.5989990234375
77.1719970703125 -50.010986328125 -33.6802978515625
-1.2154541015625 49.3681640625 -12.782470703125
-16.321044921875 14.782470703125 -19.119140625
-30.8551025390625 69.62060546875 31.13818359375
62.982666015625 -26.255859375 -14.391357421875
71.328857421875 -46.798583984375 -31.068603515625
93.9263916015625 42.091552734375 46.0174560546875
-1.1224365234375 63.11376953125 -0.4588623046875
21.6834716796875 23.2861328125 28.0782470703125
117.5465087890625 18.303466796875 20.966552734375
69.1748046875 -3.93017578125 4.5205078125
19.1248779296875 -42.608642578125 -27.98388671875
27.298583984375 2.67236328125 10.347900390625
83.4451904296875 12.171142578125 17.042236328125
14.521484375 -54.65283203125 -37.933349609375
21.3148193359375 25.642578125 45.31982421875
17.05419921875 -3.37939453125 4.4849853515625
127.2679443359375 -63.94482421875 -47.811279296875
100.1451416015625 -42.395751953125 -29.295654296875
128.408935546875 -57.89892578125 -43.376220703125
83.660888671875 20.76513671875 22.6392822265625
37.8524169921875 -36.16015625 -22.8504638671875
77.67724609375 -42.63623046875 -27.4591064453125
18.341064453125 -20.459228515625 -10.03662109375
17.953125 52.031982421875 56.0355224609375
19.310791015625 14.3212890625 40.58984375
52.184326171875 -54.883056640625 -37.438232421875
11.7061767578125 -16.20068359375 -8.0345458984375
25.6304931640625 31.200439453125 48.8736572265625
116.9805908203125 25.8876953125 27.725341796875
134.8848876953125 -49.51220703125 -37.8494873046875
41.434326171875 40.732666015625 45.1986083984375
54.013671875 -33.0810546875 -20.3194580078125
83.8541259765625 -24.005126953125 -12.8802490234375
99.87744140625 28.223388671875 31.8848876953125
102.7646484375 -8.30224609375 -1.3521728515625
50.1488037109375 37.064453125 42.038330078125
-31.4215087890625 74.627197265625 37.6614990234375
31.0394287109375 -74.893798828125 -52.4237060546875
88.2344970703125 50.834716796875 55.3623046875
69.7567138671875 -63.5966796875 -43.96337890625
110.587890625 62.486572265625 65.0291748046875
121.7950439453125 -24.8671875 -16.998779296875
82.0150146484375 -10.662841796875 -1.457763671875
60.5123291015625 25.81005859375 31.462158203125
-11.9739990234375 25.760498046875 27.6025390625
-4.502197265625 -2.1083984375 -3.4376220703125
-3.966064453125 -7.70068359375 4.790771484375
123.6116943359375 -42.74658203125 -31.6451416015625
-19.017333984375 66.41552734375 28.8345947265625
107.5135498046875 48.5390625 50.64501953125
-48.154296875 -5.48046875 -11.595947265625
-2.28857421875 38.550048828125 39.4676513671875
90.143310546875 -52.439697265625 -35.765625
18.228271484375 6.714111328125 37.3355712890625
38.71875 -14.617431640625 -4.7890625
134.6444091796875 -68.364501953125 -52.1356201171875
46.09765625 57.306396484375 63.7464599609375
63.5948486328125 -18.82666015625 -8.1036376953125
14.4996337890625 11.668701171875 17.402587890625
41.0064697265625 -21.2080078125 -10.5047607421875
11.5482177734375 2.49072265625 32.186279296875
0.2264404296875 -45.641845703125 -27.75146484375
-15.816650390625 -16.412841796875 -44.6378173828125
82.592041015625 -39.096923828125 -24.8663330078125
59.072998046875 -5.689208984375 3.1329345703125
31.93310546875 36.17626953125 52.8028564453125
65.6248779296875 58.482421875 63.2852783203125
-1.375 52.5546875 53.1715087890625
56.5755615234375 -41.839111328125 -26.9539794921875
47.492431640625 -2.0048828125 6.31494140625
133.4078369140625 -20.02587890625 -13.5302734375
92.5535888671875 11.561279296875 14.02734375
132.076171875 -10.9326171875 -5.8885498046875
-58.207763671875 1.6162109375 -17.3839111328125
10.9306640625 -48.740234375 -34.5906982421875
60.556396484375 35.369873046875 40.4447021484375
54.337890625 20.679443359375 26.4342041015625
77.0191650390625 -24.014404296875 -12.4312744140625
134.8345947265625 -73.288330078125 -56.080322265625
4.510009765625 1.6435546875 23.8800048828125
-20.05517578125 47.449951171875 9.9150390625
79.3511962890625 15.274169921875 21.779296875
86.319091796875 8.4677734375 14.4136962890625
49.9290771484375 7.9501953125 14.8056640625
15.4486083984375 49.701904296875 53.3338623046875
135.7093505859375 -42.1357421875 -32.054443359375
-18.9583740234375 28.255126953125 -7.72021484375
98.464599609375 3.888671875 10.0029296875
84.9324951171875 -13.90234375 -4.265869140625
120.3223876953125 7.0009765625 10.5186767578125
118.204345703125 -10.77880859375 -4.5546875
96.61865234375 55.791748046875 59.10009765625
114.218994140625 10.7119140625 13.605224609375
69.2998046875 -15.355224609375 -5.239501953125
35.11865234375 -17.15966796875 -7.15283203125
54.484619140625 -16.2568359375 -6.192626953125
-54.8897705078125 -31.944091796875 -41.6094970703125
7.529052734375 -50.926513671875 -37.6219482421875
-9.306396484375 43.834716796875 45.034912109375
53.759765625 10.64404296875 17.0006103515625
25.3968505859375 -31.925537109375 -19.35205078125
-19.27099609375 42.801025390625 5.715087890625
82.6346435546875 -0.615966796875 7.2628173828125
118.1329345703125 36.05615234375 37.5821533203125
23.17919921875 33.494873046875 46.28125
-2.2989501953125 57.4326171875 -6.6956787109375
123.051513671875 -13.640380859375 -7.8092041015625
82.0548095703125 -17.72119140625 -7.5836181640625
66.153076171875 -47.000732421875 -31.0892333984375
-20.2730712890625 -5.587890625 -36.88720703125
11.543701171875 2.379638671875 8.13916015625
90.5794677734375 19.64453125 14.132568359375
117.5634765625 4.79833984375 8.295166015625
51.0477294921875 -3.399658203125 4.9591064453125
122.6207275390625 18.6357421875 20.9722900390625
17.39697265625 59.507568359375 63.566650390625
33.8924560546875 9.975341796875 16.54345703125
30.0711669921875 -25.683837890625 -13.9351806640625
24.62109375 -23.98876953125 -12.937255859375
88.1126708984375 2.326171875 9.525146484375
-2.712646484375 32.646240234375 -29.236572265625
-23.0880126953125 61.38720703125 22.925537109375
85.3460693359375 -7.45703125 1.32861328125
7.8538818359375 7.71923828125 31.6710205078125
54.199951171875 -5.677001953125 2.685302734375
39.1405029296875 -6.912841796875 1.7452392578125
-1.4427490234375 39.4453125 -22.4609375
109.947998046875 -29.22216796875 -19.563720703125
-0.567138671875 -26.271728515625 -13.0814208984375
110.4696044921875 -51.36669921875 -37.5579833984375
84.9910888671875 -20.84326171875 -10.4439697265625
139.7071533203125 -63.0712890625 -48.68017578125
127.54833984375 -23.547607421875 -16.460205078125
93.0816650390625 -4.4306640625 2.7606201171875
131.102294921875 -29.376220703125 -21.392333984375
129.4945068359375 6.673583984375 9.652099609375
78.6217041015625 0.248046875 8.1572265625
119.9344482421875 -20.96337890625 -13.59375
2.0079345703125 -57.073974609375 -32.8824462890625
58.0838623046875 46.41845703125 51.1033935546875
5.551513671875 38.527587890625 40.30029296875
76.3079833984375 47.90234375 52.267333984375
-4.291748046875 1.02392578125 13.355712890625
-23.844482421875 16.953857421875 -18.1275634765625
97.3333740234375 -16.968505859375 -7.986083984375
125.1309814453125 -19.107421875 -12.58349609375
-9.9052734375 56.734619140625 57.7432861328125
-2.200439453125 81.73779296875 15.25
71.178955078125 -43.819091796875 -28.490478515625
17.00146484375 -35.181396484375 -22.342529296875
120.0797119140625 30.94384765625 32.281005859375
102.3642578125 -50.987548828125 -36.1085205078125
39.564208984375 -2.169677734375 5.8624267578125
39.2177734375 -28.702392578125 -16.385009765625
17.844482421875 -6.53515625 1.2926025390625
-24.2655029296875 -5.57568359375 -37.33447265625
103.9139404296875 -37.888916015625 -25.6943359375
41.3135986328125 -70.36181640625 -49.5040283203125
13.2532958984375 -10.793701171875 -2.8699951171875
-15.06298828125 62.15625 26.9012451171875
-26.666748046875 -12.004150390625 -42.859130859375
133.9075927734375 -59.536865234375 -45.447021484375
9.3414306640625 57.5712890625 59.3072509765625
46.220458984375 -37.32470703125 -23.8497314453125
31.103271484375 -12.26416015625 -2.90869140625
57.691650390625 -47.801513671875 -31.631591796875
-22.1375732421875 -11.4765625 -41.905517578125
62.0166015625 -63.18017578125 -43.4488525390625
6.291259765625 2.259521484375 27.3775634765625
127.7137451171875 -14.901611328125 -9.2115478515625
11.010498046875 -59.362548828125 -42.66650390625
7.76123046875 -68.353271484375 -51.2857666015625
61.277587890625 17.08544921875 23.4730224609375
113.275390625 -26.202392578125 -17.085205078125
65.3958740234375 11.13232421875 17.87890625
67.1209716796875 -69.7412109375 -48.4404296875
-5.163818359375 8.37744140625 -51.28466796875
-3.7337646484375 29.2412109375 30.9326171875
-16.1065673828125 -3.488525390625 -34.478515625
8.1700439453125 -4.66748046875 27.873779296875
103.4171142578125 18.818359375 20.528076171875
-27.781982421875 11.993896484375 -23.2015380859375
-8.8236083984375 60.291259765625 61.5030517578125
0.9739990234375 8.794921875 22.9949951171875
89.4246826171875 46.58203125 50.3125
11.4658203125 -22.467041015625 -12.8704833984375
42.5704345703125 -45.595703125 -30.062255859375
-46.521484375 -67.113525390625 -39.544189453125
55.4810791015625 51.433349609375 55.70166015625
71.935791015625 32.26318359375 37.6304931640625
118.42333984375 -30.92236328125 -21.50439453125
87.2735595703125 -65.479248046875 -46.0611572265625
125.381591796875 34.67333984375 35.9630126953125
5.3616943359375 57.865478515625 59.28515625
-15.8177490234375 20.696044921875 -14.045654296875
46.1707763671875 26.76953125 32.275634765625
38.507568359375 56.308837890625 62.6099853515625
2.0467529296875 35.00341796875 36.6673583984375
-1.0107421875 11.85400390625 16.9580078125
117.5965576171875 46.034912109375 47.5159912109375
78.5400390625 -33.870361328125 -20.3447265625
0.2508544921875 3.704833984375 25.6162109375
99.3310546875 -28.674072265625 -18.1619873046875
67.4879150390625 -55.917724609375 -37.9891357421875
-6.556640625 69.870849609375 9.2149658203125
76.8265380859375 21.14892578125 27.3016357421875
86.09521484375 -42.42626953125 -27.90478515625
-1.873779296875 57.163330078125 58.12451171875
117.28125 33.118896484375 34.7408447265625
119.0887451171875 52.7998046875 54.07763671875
123.295654296875 48.856689453125 49.835205078125
-23.7952880859375 4.0029296875 -29.0194091796875
16.1680908203125 -17.505126953125 -8.0897216796875
28.9886474609375 32.5078125 47.5731201171875
79.8421630859375 38.27978515625 43.2650146484375
-4.725830078125 45.65625 -16.6864013671875
26.1798095703125 -12.2626953125 -2.9134521484375
33.0986328125 24.668212890625 51.686279296875
-27.4791259765625 23.167724609375 -13.489990234375
-8.2391357421875 24.964111328125 26.76904296875
29.50146484375 40.25390625 52.18896484375
71.5845947265625 8.43994140625 15.6990966796875
-15.6314697265625 46.7900390625 11.944091796875
50.2877197265625 -31.554443359375 -18.843505859375
94.3287353515625 -34.613525390625 -22.2296142578125
0.144775390625 -5.73828125 5.733642578125
6.473876953125 48.435546875 49.7432861328125
73.463134765625 41.313720703125 46.4381103515625
30.57177734375 23.5810546875 29.352294921875
117.10205078125 40.63720703125 41.988525390625
57.1480712890625 -29.843994140625 -17.3529052734375
-25.5498046875 -23.963623046875 -52.2637939453125
113.1009521484375 5.626708984375 10.0506591796875
-6.4481201171875 14.9267578125 -45.794189453125
99.837158203125 -59.80908203125 -42.6195068359375
122.6524658203125 -46.325439453125 -34.2840576171875
103.74853515625 34.94482421875 38.01025390625
89.43701171875 -49.3994140625 -33.6192626953125
89.248291015625 24.854248046875 30.2381591796875
10.439208984375 46.33935546875 48.6217041015625
84.04833984375 -75.337158203125 -52.90869140625
37.7921142578125 4.0478515625 11.256591796875
51.032470703125 -68.881591796875 -47.8843994140625
19.642822265625 -59.611328125 -41.2376708984375
122.0826416015625 13.2119140625 15.79833984375
7.83935546875 -12.019287109375 -5.1607666015625
98.1356201171875 -25.65771484375 -15.6962890625
-21.0518798828125 -19.513671875 -48.1334228515625
-3.4713134765625 7.01611328125 18.217041015625
91.855224609375 59.487060546875 63.638427734375
108.039794921875 -3.707763671875 2.35498046875
-3.3697509765625 34.708984375 35.8389892578125
76.2174072265625 36.900146484375 42.068359375
26.4168701171875 -56.103515625 -38.5240478515625
71.7557373046875 -74.905029296875 -52.384521484375
17.6649169921875 16.458251953125 22.14892578125
-4.207763671875 -4.523193359375 7.5296630859375
125.7926025390625 31.8818359375 33.105712890625
23.31201171875 20.725830078125 45.0771484375
-15.2818603515625 1.168701171875 -28.3565673828125
-29.533203125 53.6513671875 14.8702392578125
12.132080078125 -29.035888671875 -18.26904296875
-55.7520751953125 -10.431640625 64.796630859375
-8.3902587890625 28.61767578125 30.09814453125
7.1478271484375 -7.5947265625 0.3590087890625
48.4171142578125 -57.760986328125 -39.6044921875
-20.8232421875 39.467041015625 2.319580078125
16.408203125 -24.355712890625 -13.4208984375
40.65234375 -39.08544921875 -24.90673828125
23.1822509765625 -50.600830078125 -34.25537109375
104.420654296875 43.619384765625 46.377197265625
-26.3909912109375 70.99658203125 32.2939453125
68.9619140625 41.01513671875 46.03515625
96.37158203125 -31.533203125 -20.1812744140625
63.73681640625 38.440673828125 43.244140625
111.0689697265625 36.1953125 38.3997802734375
28.1107177734375 -35.9716796875 -22.3831787109375
-2.1683349609375 76.6572265625 10.9234619140625
128.5440673828125 -70.0849609375 -52.8084716796875
6.9842529296875 -63.75732421875 -45.4920654296875
25.9586181640625 26.3310546875 50.3416748046875
-20.98779296875 -23.9873046875 -51.34716796875
-54.2803955078125 -6.22607421875 62.76220703125
69.732421875 34.4384765625 39.650634765625
97.676513671875 -10.989013671875 -3.2421875
-59.1829833984375 -9.56494140625 66.5130615234375
-15.537109375 52.42431640625 16.0794677734375
-1.8472900390625 69.9755859375 4.90771484375
0.9345703125 -23.881591796875 -9.30712890625
10.875244140625 -37.86328125 -25.783935546875
-15.2606201171875 36.94775390625 2.656982421875
-23.6326904296875 23.474853515625 -12.620361328125
16.91650390625 6.272705078125 13.014404296875
68.028076171875 -7.63330078125 1.30615234375
65.3057861328125 3.51611328125 11.2740478515625
29.822998046875 -49.998046875 -33.725830078125
115.258544921875 -16.021484375 -8.8265380859375
84.6712646484375 44.9248046875 49.5687255859375
59.5518798828125 -19.55322265625 -9.046630859375
125.68408203125 -33.58544921875 -24.4462890625
99.758544921875 33.390869140625 36.7979736328125
-20.205078125 70.292724609375 32.3118896484375
94.03857421875 36.621337890625 40.4403076171875
-27.4764404296875 -6.624755859375 -38.7686767578125
96.4373779296875 49.689453125 53.0069580078125
30.488525390625 -29.836669921875 -17.3785400390625
44.662841796875 45.231689453125 49.9244384765625
-0.093994140625 40.669677734375 41.875732421875
39.864501953125 -73.589599609375 -51.789794921875
-52.8433837890625 -34.00146484375 -37.62646484375
73.1883544921875 -37.54150390625 -23.372314453125
63.6873779296875 30.235595703125 35.5823974609375
109.148681640625 -21.904052734375 -13.6549072265625
-10.075439453125 33.928466796875 35.43408203125
114.99267578125 14.85302734375 17.9534912109375
81.8271484375 -56.130615234375 -37.9931640625
69.192626953125 28.9775390625 34.3575439453125
71.2708740234375 -1.84423828125 6.7825927734375
84.5006103515625 15.420166015625 15.7852783203125
10.3533935546875 5.307373046875 9.945068359375
96.5733642578125 -39.066650390625 -26.25048828125
107.8970947265625 -35.936767578125 -24.6248779296875
109.2279052734375 57.53369140625 59.8028564453125
-28.808349609375 41.926513671875 3.6260986328125
89.431884765625 -8.501708984375 -0.4818115234375
52.9737548828125 54.48291015625 58.73828125
45.619140625 35.679443359375 40.835693359375
100.620849609375 52.188232421875 54.8974609375
-26.335205078125 67.97119140625 29.203369140625
-5.63720703125 81.98095703125 16.4012451171875
121.6959228515625 -69.877685546875 -52.3052978515625
-1.4879150390625 25.485107421875 -34.490478515625
18.4537353515625 -0.7646484375 6.75732421875
111.5211181640625 55.24609375 57.145751953125
1.702392578125 -1.588623046875 11.564453125
26.2880859375 20.3662109375 25.9842529296875
118.5802001953125 56.41455078125 57.4842529296875
110.6314697265625 19.31689453125 13.7215576171875
109.8759765625 -16.217041015625 -8.3902587890625
106.1351318359375 5.607177734375 10.914306640625
40.634765625 33.8291015625 58.3206787109375
85.7308349609375 -71.23291015625 -50.035888671875
-25.7630615234375 -81.046142578125 72.297119140625
60.512451171875 -8.697265625 0.3739013671875
15.413818359375 -72.49951171875 -51.2125244140625
-2.152587890625 -7.0712890625 1.2559814453125
-1.8154296875 92.59765625 26.682373046875
9.69140625 -0.021728515625 5.4486083984375
42.780029296875 29.296875 34.744873046875
24.5823974609375 -2.16552734375 5.8480224609375
121.8463134765625 58.69140625 60.1402587890625
-5.5467529296875 -32.741943359375 -17.5836181640625
-3.7330322265625 47.5595703125 48.5555419921875
116.7144775390625 -47.940673828125 -34.894287109375
71.6834716796875 -17.916015625 -7.150634765625
48.0404052734375 39.20556640625 44.0267333984375
99.0274658203125 -45.57666015625 -31.4189453125
102.0947265625 6.801025390625 11.801025390625
51.553466796875 -26.241455078125 -14.859375
112.1083984375 59.957275390625 62.0364990234375
51.470947265625 -43.813720703125 -28.5093994140625
19.4327392578125 -13.515380859375 -4.3140869140625
43.3369140625 -27.5595703125 -15.8570556640625
110.87353515625 20.560791015625 23.9403076171875
34.744384765625 6.094482421875 13.029052734375
11.5897216796875 14.34326171875 19.1378173828125
25.366943359375 -7.62158203125 1.2650146484375
106.26416015625 62.198974609375 65.0458984375
61.1612548828125 40.872314453125 45.6226806640625
93.7730712890625 26.15771484375 30.2264404296875
29.5960693359375 13.8330078125 46.6163330078125
61.233154296875 -41.251220703125 -26.4393310546875
32.2879638671875 28.72705078125 51.4964599609375
83.8560791015625 -65.073486328125 -45.05615234375
2.2890625 1.090576171875 17.7457275390625
80.281982421875 -25.135986328125 -13.3997802734375
93.6092529296875 53.759521484375 57.6163330078125
15.706298828125 9.170166015625 35.5478515625
5.788818359375 43.08154296875 44.2591552734375
60.8675537109375 48.048095703125 52.65087890625
-53.1729736328125 -3.272705078125 -13.697509765625
32.6451416015625 -53.04443359375 -35.872314453125
7.8502197265625 51.645751953125 53.6298828125
33.6309814453125 -45.784423828125 -30.556640625
60.2979736328125 31.328125 36.807861328125
66.0142822265625 50.690673828125 55.34912109375
127.570068359375 19.778564453125 21.8309326171875
-31.9136962890625 13.685791015625 -22.6539306640625
106.9029541015625 25.543701171875 28.561279296875
11.0389404296875 41.361083984375 45.146240234375
52.3017578125 -19.187255859375 -8.5838623046875
98.419189453125 38.315185546875 41.6322021484375
106.0928955078125 -64.81787109375 -46.9486083984375
83.0865478515625 5.22314453125 12.6275634765625
-16.941162109375 -30.425048828125 -56.2015380859375
78.2032470703125 49.805419921875 54.6007080078125
60.373291015625 -57.3564453125 -39.077880859375
70.4794921875 -20.850341796875 -10.004638671875
21.7373046875 -74.023681640625 -51.852294921875
14.611083984375 -66.93994140625 -47.244873046875
27.1475830078125 -72.5146484375 -50.71240234375
74.0401611328125 3.513671875 11.282470703125
20.268310546875 -34.223388671875 -21.350341796875
77.00390625 -31.378662109375 -18.345458984375
-52.9735107421875 -21.771240234375 -1.9908447265625
7.666748046875 -47.683349609375 -35.92626953125
21.0496826171875 62.039306640625 66.559326171875
33.396240234375 -1.989990234375 5.8609619140625
-54.1163330078125 -1.765380859375 55.468505859375
63.8861083984375 6.07568359375 13.491943359375
-6.050048828125 66.195068359375 2.8155517578125
113.295654296875 -7.037841796875 -1.2962646484375
90.0606689453125 -16.24462890625 -7.0587158203125
3.32080078125 3.97802734375 28.66943359375
96.7611083984375 -52.016845703125 -36.1998291015625
-26.0875244140625 44.32275390625 6.5692138671875
30.3250732421875 -46.99072265625 -31.1236572265625
4.765380859375 54.27880859375 55.4962158203125
112.988037109375 -0.72607421875 4.2110595703125
65.09033203125 -32.900146484375 -19.8349609375
85.4212646484375 -33.08984375 -20.2891845703125
60.3170166015625 -70.16162109375 -48.976806640625
31.638671875 -60.447509765625 -41.7822265625
42.756591796875 -14.0751953125 -4.3138427734375
90.92724609375 5.2421875 11.7642822265625
124.0916748046875 8.025634765625 10.9752197265625
98.0618896484375 -72.71728515625 -52.133056640625
128.9871826171875 -73.530029296875 -55.130615234375
71.8807373046875 -13.194580078125 -2.904541015625
83.25634765625 20.33984375 26.464111328125
-2.7237548828125 -9.12646484375 -3.71337890625
-48.560546875 -63.88427734375 -39.751953125
72.948486328125 22.119873046875 28.137939453125
46.9476318359375 4.55810546875 11.7103271484375
78.1622314453125 7.262451171875 14.390625
9.2060546875 -56.4580078125 -40.9658203125
110.3846435546875 -41.78515625 -29.7086181640625
106.55810546875 -6.3466796875 0.0535888671875
-99.556396484375 55.34375 37.303955078125
118.8309326171875 -41.965087890625 -30.6513671875
-4.9444580078125 48.34912109375 -14.475341796875
-6.5701904296875 42.7744140625 -18.519287109375
-5.242431640625 -66.33642578125 -45.2633056640625
100.2435302734375 -5.308349609375 1.8551025390625
29.962890625 6.421142578125 13.898681640625
7.972900390625 10.378173828125 14.3619384765625
135.476806640625 -34.153076171875 -25.4022216796875
79.6302490234375 -75.347900390625 -52.4222412109375
35.6700439453125 35.99755859375 40.816650390625
45.111572265625 11.468505859375 18.29296875
11.3548583984375 -13.66455078125 -5.674560546875
122.2235107421875 -7.380126953125 -2.18896484375
104.061767578125 20.884765625 17.5615234375
49.8994140625 29.4560546875 34.74853515625
24.2608642578125 25.1884765625 30.59326171875
-1.3365478515625 6.357666015625 23.8638916015625
96.2384033203125 8.981201171875 14.4296875
13.1717529296875 -0.879150390625 33.116455078125
81.605712890625 31.162109375 36.83203125
-3.345947265625 87.098388671875 20.6407470703125
-27.763916015625 7.948486328125 -26.5347900390625
78.41455078125 28.964599609375 34.7855224609375
-9.539794921875 51.23095703125 52.425048828125
70.7509765625 59.46337890625 64.812255859375
118.971923828125 -2.806884765625 1.951904296875
114.6180419921875 21.232177734375 23.5179443359375
23.7291259765625 57.791748046875 62.0975341796875
-4.9669189453125 -69.8544921875 -51.9403076171875
74.36962890625 -68.683349609375 -47.354736328125
102.55859375 59.940185546875 62.8228759765625
70.6444091796875 17.741943359375 23.9078369140625
18.7393798828125 23.90185546875 29.759765625
135.9295654296875 -37.246826171875 -27.9451904296875
32.098876953125 1.297607421875 9.011962890625
127.829833984375 -9.32275390625 -4.48583984375
33.906494140625 12.98193359375 19.15234375
56.580078125 -58.591796875 -40.1492919921875
64.537353515625 -42.0419921875 -26.960693359375
48.215087890625 -18.26123046875 -8.0928955078125
57.1622314453125 25.1689453125 31.046630859375
-24.8648681640625 77.75537109375 39.1287841796875
61.3612060546875 -31.94677734375 -18.8564453125
35.6387939453125 19.065673828125 24.722900390625
104.4561767578125 39.69775390625 42.417724609375
24.0531005859375 15.552978515625 45.2633056640625
-4.9940185546875 53.3544921875 -9.725341796875
-28.5404052734375 -21.896728515625 -51.1265869140625
105.052001953125 55.67138671875 57.9151611328125
-1.08544921875 -52.37939453125 -37.278564453125
12.4609375 -8.11767578125 -0.5433349609375
88.329345703125 30.71044921875 35.595947265625
34.486572265625 -71.0126953125 -49.5755615234375
-31.43212890625 -14.748046875 -44.035400390625
-4.499755859375 -16.165283203125 -1.740966796875
-23.115234375 28.74169921875 -7.7008056640625
9.0921630859375 -24.869384765625 -15.7388916015625
0.453369140625 -32.766357421875 -16.65478515625
97.7384033203125 60.348388671875 63.98095703125
122.9688720703125 39.888916015625 40.7840576171875
94.385009765625 14.974853515625 20.0784912109375
87.22998046875 24.2255859375 15.8809814453125
93.442626953125 -57.959716796875 -40.537109375
-0.059326171875 90.74169921875 22.544189453125
117.7379150390625 10.19775390625 13.6014404296875
33.64599609375 -42.612548828125 -27.9698486328125
100.0643310546875 22.31884765625 26.4678955078125
120.5899658203125 42.14453125 43.5828857421875
-3.6607666015625 72.0341796875 6.922119140625
111.8560791015625 52.642822265625 54.4813232421875
110.388671875 -8.826904296875 -2.2547607421875
94.645263671875 21.340576171875 26.0445556640625
121.947998046875 23.485107421875 25.6358642578125
25.6488037109375 -17.1572265625 -7.1619873046875
2.67578125 45.914306640625 47.41162109375
27.226318359375 -66.751953125 -46.2421875
33.9180908203125 20.080078125 51.05224609375
45.1339111328125 40.7216796875 45.6131591796875
109.839111328125 -11.875 -4.607666015625
106.2874755859375 30.90673828125 33.9388427734375
30.302001953125 -3.03662109375 4.94873046875
122.00634765625 -56.4541015625 -42.29052734375
38.177978515625 26.45703125 31.8521728515625
113.93017578125 26.6708984375 28.977783203125
54.9681396484375 28.032958984375 33.52294921875
25.509521484375 0.428466796875 8.5487060546875
0.635986328125 -37.986083984375 -20.67822265625
116.5704345703125 -1.248291015625 3.7596435546875
64.1510009765625 55.908935546875 60.661865234375
51.31787109375 22.6201171875 28.1126708984375
70.376708984375 14.78125 21.34130859375
21.467041015625 -63.99853515625 -44.532470703125
104.1163330078125 -12.780517578125 -5.0985107421875
57.1805419921875 37.0625 42.0450439453125
