-9.5518798828125 37.6724853515625 -3.480224609375
3.123291015625 60.0623779296875 31.9356689453125
-5.248779296875 -57.791259765625 58.6383056640625
-7.97021484375 44.6619873046875 41.2469482421875
2.45751953125 65.4090576171875 28.9761962890625
-7.6575927734375 46.0316162109375 46.9708251953125
-9.633544921875 2.4873046875 37.80810546875
56.3428955078125 41.3070068359375 16.953369140625
-5.2320556640625 -52.859130859375 60.6571044921875
-5.3040771484375 -16.28662109375 35.863525390625
-9.4031982421875 34.1788330078125 15.4901123046875
-1.672607421875 81.0582275390625 20.7923583984375
-9.5316162109375 60.3592529296875 -8.9493408203125
-9.6915283203125 38.2796630859375 -10.036376953125
58.782958984375 -3.9437255859375 42.392333984375
-8.1923828125 18.1170654296875 58.2269287109375
-9.2340087890625 78.5115966796875 -12.81396484375
41.076171875 5.1715087890625 -20.1346435546875
9.7044677734375 70.5975341796875 25.487548828125
-9.6473388671875 25.7957763671875 -3.3470458984375
-9.1357421875 77.6949462890625 -4.3436279296875
-9.3665771484375 65.4859619140625 -23.18017578125
-9.6082763671875 -27.8980712890625 49.68603515625
-4.0428466796875 9.6287841796875 60.10009765625
-9.500732421875 23.4935302734375 17.9246826171875
-9.5123291015625 25.8653564453125 23.17578125
3.595458984375 14.4151611328125 56.7020263671875
-8.419189453125 17.6907958984375 4.4754638671875
13.399658203125 3.491455078125 61.853271484375
-4.1644287109375 -53.41943359375 54.9188232421875
-9.5330810546875 -3.78173828125 26.7552490234375
10.938232421875 22.3985595703125 51.3974609375
43.618408203125 -72.3770751953125 22.482666015625
-8.414794921875 51.1190185546875 57.11474609375
-8.4290771484375 29.6199951171875 56.55810546875
-8.45263671875 68.8385009765625 46.3995361328125
-7.0455322265625 -11.4041748046875 10.83349609375
-2.2578125 74.5447998046875 24.429931640625
-8.48486328125 50.8675537109375 60.143310546875
-9.19287109375 -38.2509765625 61.909912109375
-7.100341796875 40.5567626953125 45.3458251953125
39.24560546875 -14.0772705078125 -9.197998046875
-9.517578125 -56.1177978515625 43.4166259765625
3.6419677734375 -39.2271728515625 29.648193359375
1.20458984375 -9.091552734375 10.6085205078125
-9.7169189453125 1.541259765625 23.720458984375
2.408935546875 -53.484375 38.1788330078125
-9.5965576171875 -63.096435546875 47.26123046875
55.972900390625 6.43408203125 36.408935546875
-8.496337890625 -6.8626708984375 45.9781494140625
-8.263671875 25.1964111328125 28.33837890625
54.4676513671875 50.1317138671875 12.6798095703125
4.08837890625 -51.204345703125 36.816162109375
-10.0020751953125 73.2298583984375 28.3695068359375
-9.43994140625 -49.7857666015625 49.8055419921875
7.059814453125 86.6793212890625 17.71630859375
-9.2734375 37.6700439453125 17.450439453125
-9.5289306640625 -31.610107421875 34.139404296875
-7.4776611328125 -23.52197265625 57.6380615234375
-9.595703125 -0.80224609375 31.518798828125
41.41943359375 -20.71728515625 -5.02880859375
-5.180419921875 0.5814208984375 65.406005859375
-7.8443603515625 48.0404052734375 38.329345703125
-7.32421875 34.7525634765625 -14.5821533203125
42.72265625 48.9371337890625 -43.1253662109375
1.9169921875 5.59716796875 62.20556640625
-9.6822509765625 5.3720703125 17.0361328125
55.743896484375 -45.937744140625 68.465087890625
57.9954833984375 -16.4783935546875 49.9571533203125
-9.6102294921875 2.283203125 9.572265625
-6.85498046875 64.6427001953125 -29.041259765625
43.5357666015625 -7.7052001953125 -14.74609375
-9.520263671875 -5.4268798828125 36.4490966796875
9.042724609375 78.4534912109375 21.5048828125
53.306396484375 68.3192138671875 3.0533447265625
-8.14013671875 29.1888427734375 49.6778564453125
-9.0277099609375 -72.989501953125 50.0927734375
-9.2940673828125 47.0831298828125 56.4923095703125
-9.6732177734375 -2.51318359375 22.3472900390625
2.1494140625 33.7540283203125 -13.411865234375
-9.5751953125 17.6226806640625 16.5054931640625
-9.389892578125 68.5445556640625 -17.78125
13.21044921875 -16.91748046875 74.2191162109375
14.040771484375 -7.6748046875 69.0574951171875
-1.7237548828125 -46.6986083984375 33.0400390625
-9.2835693359375 45.4556884765625 2.1632080078125
-1.734375 62.8568115234375 30.7991943359375
-7.5845947265625 37.5474853515625 61.2562255859375
9.6591796875 16.1790771484375 56.2017822265625
1.2591552734375 39.3150634765625 -15.864990234375
0.3680419921875 -55.091796875 57.5452880859375
40.435791015625 48.2088623046875 -38.61376953125
-9.7125244140625 -15.1259765625 15.3375244140625
40.188720703125 35.2984619140625 -34.127197265625
13.8961181640625 6.115966796875 60.6328125
15.153076171875 -103.5382080078125 -53.98193359375
-8.3214111328125 87.9061279296875 39.369140625
3.452392578125 -22.3389892578125 18.788818359375
-9.440185546875 62.4100341796875 -19.9705810546875
-5.1048583984375 26.6326904296875 7.2802734375
-7.985595703125 83.4215087890625 33.59130859375
-9.6708984375 8.0460205078125 8.99609375
43.1527099609375 -27.4967041015625 -3.466552734375
12.9478759765625 73.5562744140625 22.9542236328125
-9.6387939453125 7.2984619140625 2.9598388671875
-7.4466552734375 78.7034912109375 29.9888916015625
-9.18408203125 -61.6605224609375 60.8397216796875
48.1798095703125 -1.060546875 -58.366455078125
-3.2027587890625 57.9764404296875 33.3642578125
13.0950927734375 68.1014404296875 26.60888671875
57.514404296875 -28.9371337890625 57.7247314453125
-7.7646484375 -10.604248046875 28.4208984375
43.495361328125 -42.332763671875 5.244873046875
-9.1590576171875 -19.8990478515625 38.20654296875
-7.666259765625 66.3714599609375 40.3809814453125
4.4183349609375 49.8624267578125 36.3443603515625
-7.89111328125 41.4097900390625 63.108642578125
-7.427978515625 79.6798095703125 37.4788818359375
-9.6572265625 47.2818603515625 -17.050048828125
-9.2099609375 66.5333251953125 -29.4466552734375
-0.259765625 25.2576904296875 9.256103515625
-3.877685546875 -39.106689453125 28.24072265625
8.3934326171875 36.1805419921875 43.545654296875
2.6202392578125 18.1617431640625 -4.9564208984375
-9.6629638671875 11.8311767578125 13.1927490234375
39.0247802734375 -16.53515625 -7.8253173828125
-9.5435791015625 -31.6160888671875 44.815185546875
-5.6339111328125 16.3568115234375 -4.554443359375
-9.9837646484375 80.6951904296875 24.3946533203125
40.159423828125 -17.776611328125 -3.854736328125
-6.7391357421875 69.4637451171875 27.5401611328125
-5.5223388671875 -12.94384765625 28.432373046875
-9.55126953125 57.4495849609375 -10.2978515625
4.2904052734375 -44.579833984375 32.5240478515625
-8.4371337890625 38.2879638671875 53.515869140625
9.2259521484375 -26.617431640625 -36.124755859375
54.7684326171875 73.7574462890625 1.690673828125
-7.4420166015625 21.3245849609375 53.1824951171875
55.5001220703125 -24.243408203125 54.8402099609375
-9.7177734375 -36.68701171875 42.2659912109375
-7.6610107421875 26.2713623046875 54.0450439453125
-8.12744140625 69.7645263671875 57.348876953125
-6.9398193359375 16.8428955078125 34.130615234375
-9.5595703125 41.6580810546875 8.6500244140625
-9.5838623046875 10.4564208984375 30.007080078125
-9.755615234375 -34.231689453125 31.1231689453125
-9.3648681640625 -5.6358642578125 32.664794921875
4.984130859375 61.8179931640625 30.60693359375
4.62109375 -71.7012939453125 50.5113525390625
-9.0272216796875 66.0970458984375 4.86376953125
-9.067138671875 77.8824462890625 -7.1190185546875
40.51318359375 -33.06591796875 1.4918212890625
7.461669921875 29.4976806640625 47.5347900390625
-7.5369873046875 66.7496337890625 -5.5772705078125
6.1888427734375 15.0596923828125 55.908203125
43.7841796875 51.4468994140625 -43.6463623046875
-8.531982421875 24.0296630859375 64.1314697265625
53.8504638671875 44.8712158203125 15.497314453125
-9.227783203125 -53.9627685546875 46.528076171875
-8.848388671875 -32.0328369140625 60.166259765625
-6.3370361328125 -62.6334228515625 42.6600341796875
-9.5782470703125 22.4974365234375 23.6427001953125
-8.6707763671875 89.7593994140625 29.623046875
43.46484375 62.8934326171875 -47.8955078125
-9.40966796875 -25.2974853515625 21.283935546875
-2.8311767578125 -7.8973388671875 9.5841064453125
-9.6348876953125 -1.0155029296875 28.11376953125
57.479736328125 71.9415283203125 1.66162109375
-7.756591796875 62.1585693359375 47.3878173828125
-9.2960205078125 -36.1890869140625 50.395263671875
-9.4178466796875 -50.2626953125 46.3941650390625
56.6737060546875 0.9735107421875 41.58935546875
-9.2247314453125 -38.382080078125 55.3946533203125
4.2034912109375 -34.8997802734375 26.583740234375
-4.2408447265625 -33.890869140625 24.6234130859375
55.9228515625 -8.0064697265625 44.9224853515625
56.525634765625 -5.3419189453125 43.1572265625
-8.0408935546875 11.6475830078125 35.884521484375
-8.3798828125 5.29931640625 1.4180908203125
10.0855712890625 9.4727783203125 58.045654296875
-8.50439453125 55.4949951171875 46.88720703125
-0.072265625 63.5096435546875 -27.6650390625
-8.24169921875 86.7662353515625 52.65771484375
-9.4910888671875 -24.0101318359375 39.4603271484375
-9.490478515625 3.619873046875 11.97705078125
-6.7906494140625 0.048828125 4.2967529296875
-0.6817626953125 13.3946533203125 -2.106201171875
-8.62646484375 45.6351318359375 61.0567626953125
-9.33642578125 -64.4500732421875 62.2159423828125
41.078125 -56.7451171875 15.36767578125
40.1534423828125 -6.558349609375 -10.34423828125
40.6197509765625 13.1436767578125 -26.2293701171875
-9.630126953125 -32.6790771484375 40.85400390625
1.0447998046875 -0.7030029296875 5.6793212890625
-9.01904296875 43.4998779296875 -17.9832763671875
12.03955078125 -40.6141357421875 -59.34765625
4.926025390625 42.1348876953125 41.249267578125
-8.1064453125 83.9403076171875 30.5216064453125
4.8385009765625 2.0213623046875 5.0389404296875
10.84130859375 -1.9210205078125 65.8056640625
-5.162841796875 -61.693603515625 57.697265625
40.930908203125 -22.7618408203125 -3.32373046875
40.00537109375 -37.5865478515625 4.2042236328125
-7.04833984375 -6.4776611328125 7.9622802734375
-9.6053466796875 1.7017822265625 26.6700439453125
-9.5792236328125 -37.4306640625 31.7352294921875
-8.066162109375 56.9268798828125 58.3961181640625
-9.3499755859375 -72.7730712890625 55.7484130859375
39.5628662109375 -52.7091064453125 12.0081787109375
-2.1107177734375 -4.66796875 7.622802734375
2.806396484375 -57.248779296875 40.8973388671875
-8.8740234375 49.3323974609375 12.7867431640625
41.057373046875 73.5968017578125 -47.994140625
-7.54931640625 -32.386962890625 23.46923828125
-9.5162353515625 -8.521484375 21.544921875
12.3099365234375 86.6695556640625 17.9176025390625
5.336669921875 64.3572998046875 29.3096923828125
-8.500244140625 74.6893310546875 26.37255859375
-7.0836181640625 -54.0172119140625 36.8167724609375
55.9835205078125 -19.760498046875 52.9794921875
-6.6077880859375 24.4168701171875 13.5086669921875
-6.875 4.517578125 63.193115234375
-8.7733154296875 73.9385986328125 56.904296875
39.7852783203125 -57.8929443359375 18.560302734375
58.1602783203125 -11.32763671875 46.83740234375
-9.2862548828125 -30.3031005859375 36.7073974609375
6.45361328125 -11.50830078125 71.5555419921875
-9.5234375 -46.15673828125 60.64794921875
5.22998046875 73.4766845703125 24.176513671875
40.90087890625 -45.7393798828125 6.800537109375
-7.7464599609375 -0.2943115234375 43.0107421875
43.299560546875 -13.3621826171875 -11.3895263671875
-9.372314453125 9.6148681640625 -0.621826171875
-8.99951171875 55.1004638671875 9.7781982421875
-9.3944091796875 45.8228759765625 11.5518798828125
3.272216796875 55.3277587890625 34.566650390625
-8.0970458984375 29.1231689453125 64.461669921875
-9.3385009765625 -39.6578369140625 49.8734130859375
-6.957275390625 29.8746337890625 9.4310302734375
-6.7674560546875 -38.6778564453125 27.3466796875
-7.882568359375 47.0260009765625 53.906494140625
0.3328857421875 -14.6107177734375 31.7093505859375
-8.5946044921875 58.3502197265625 34.31298828125
41.4461669921875 66.5545654296875 -48.0263671875
-6.9285888671875 -60.4404296875 41.2890625
-9.2305908203125 46.6612548828125 7.3662109375
-4.23681640625 -17.4432373046875 14.9727783203125
-9.0543212890625 34.7269287109375 21.4635009765625
-9.55859375 53.3326416015625 -2.3328857421875
-9.293701171875 -5.1375732421875 42.4755859375
-8.0323486328125 87.9696044921875 21.64990234375
-7.5704345703125 56.1807861328125 42.483154296875
-8.7135009765625 65.3011474609375 60.537109375
-9.4954833984375 -40.9140625 36.131103515625
-8.01416015625 78.9254150390625 57.4443359375
-9.3685302734375 -17.2841796875 41.474853515625
57.3216552734375 8.4512939453125 35.0911865234375
-6.3465576171875 51.2728271484375 48.3604736328125
-8.915283203125 -23.145751953125 33.53466796875
40.7886962890625 19.8526611328125 -30.55419921875
2.521484375 24.0853271484375 9.5045166015625
-5.9268798828125 -16.2969970703125 24.360107421875
-5.638427734375 -69.7135009765625 48.0120849609375
41.2349853515625 75.0211181640625 -51.6497802734375
-7.0869140625 40.8267822265625 59.0498046875
-9.15087890625 27.2547607421875 20.9859619140625
-7.2396240234375 -4.34912109375 -86.4833984375
-9.7152099609375 29.5565185546875 -3.446533203125
-8.23681640625 42.5111083984375 50.1104736328125
-9.2052001953125 -65.52880859375 56.8486328125
-2.1622314453125 38.1531982421875 -15.432373046875
-6.574462890625 80.3778076171875 28.062255859375
-2.206787109375 -74.8720703125 51.822021484375
-5.67626953125 -19.756103515625 16.0009765625
13.646484375 23.5562744140625 50.6236572265625
-9.4261474609375 -28.4766845703125 22.247314453125
-9.41357421875 37.9520263671875 13.05810546875
5.6678466796875 78.9808349609375 21.9073486328125
2.27880859375 2.03125 63.9951171875
-7.98486328125 68.4544677734375 34.6640625
-9.5245361328125 -44.814208984375 35.1671142578125
-4.40966796875 71.8277587890625 26.051025390625
-5.4532470703125 5.0220947265625 1.759521484375
40.6754150390625 43.4149169921875 -36.483154296875
1.8509521484375 49.1390380859375 -20.81396484375
-7.1063232421875 38.2437744140625 -16.35498046875
-9.4898681640625 -46.0343017578125 43.90087890625
-0.03125 -62.111083984375 43.44873046875
42.3841552734375 -55.0950927734375 12.6600341796875
55.230712890625 90.8348388671875 -7.025146484375
2.2138671875 -31.5 24.3466796875
-6.539306640625 63.7100830078125 10.6964111328125
-0.238525390625 49.7230224609375 37.33544921875
-7.8475341796875 72.1387939453125 36.732666015625
-8.5054931640625 19.7945556640625 60.55517578125
-9.4525146484375 -66.226318359375 51.75634765625
-1.614501953125 -15.595458984375 14.1907958984375
-9.4012451171875 -44.6624755859375 50.3231201171875
-7.269287109375 28.1297607421875 1.73779296875
-9.4268798828125 -10.425048828125 10.7730712890625
-4.3826904296875 66.7672119140625 -10.77001953125
5.2259521484375 -1.3031005859375 65.5321044921875
-9.464111328125 57.2115478515625 -18.5091552734375
-3.024658203125 56.9542236328125 -24.994384765625
-9.2322998046875 -42.520263671875 30.5557861328125
-4.917236328125 72.1258544921875 -9.3074951171875
-9.5328369140625 -36.671630859375 44.8306884765625
7.7159423828125 56.6082763671875 32.8828125
41.5960693359375 -15.3575439453125 -7.458740234375
-7.762939453125 -15.11376953125 36.67724609375
-9.51220703125 -4.8173828125 21.039306640625
-9.376953125 47.5457763671875 -1.6695556640625
-9.5936279296875 12.9320068359375 25.15185546875
-7.681396484375 29.7115478515625 -11.94384765625
-9.167724609375 -43.485107421875 63.9176025390625
-1.257568359375 -28.155517578125 21.6728515625
1.4022216796875 54.7891845703125 -23.4764404296875
4.2890625 42.7479248046875 -17.0458984375
-9.517333984375 13.1719970703125 4.8131103515625
-8.4613037109375 -19.309326171875 53.45751953125
-9.14697265625 41.5125732421875 17.0118408203125
-3.9847412109375 -59.212646484375 55.537353515625
-4.391357421875 18.6500244140625 54.781982421875
40.7137451171875 25.7835693359375 -31.7086181640625
-9.509765625 -10.5296630859375 36.4774169921875
-2.333984375 65.2757568359375 -28.9083251953125
-9.265869140625 -14.6024169921875 39.5797119140625
0.8177490234375 -57.579833984375 57.354736328125
56.51416015625 -41.9017333984375 66.2559814453125
-9.20751953125 56.8861083984375 2.9886474609375
-2.1951904296875 30.4337158203125 48.1744384765625
41.0087890625 22.4412841796875 -26.7874755859375
-8.3758544921875 41.6942138671875 42.4810791015625
-9.6585693359375 14.2310791015625 10.338134765625
-8.90771484375 73.9962158203125 -10.68896484375
-6.9649658203125 13.6319580078125 58.0626220703125
-9.69140625 -4.18701171875 11.0054931640625
47.3017578125 18.2962646484375 -28.7530517578125
8.9913330078125 -6.140380859375 67.633056640625
0.3192138671875 39.8426513671875 42.26513671875
-0.3428955078125 34.1405029296875 -13.4195556640625
3.55322265625 76.4766845703125 22.6082763671875
0.9227294921875 29.9373779296875 -11.244384765625
5.48095703125 10.8680419921875 58.5059814453125
-9.4642333984375 58.6124267578125 -16.2515869140625
-9.433837890625 47.5096435546875 -9.130859375
-7.5438232421875 41.9840087890625 20.4197998046875
-4.05224609375 25.1544189453125 4.628662109375
-8.326171875 65.0946044921875 30.492919921875
41.1214599609375 37.3809814453125 -38.392578125
-9.3970947265625 -22.552978515625 50.8209228515625
-3.5538330078125 -19.3187255859375 30.2237548828125
-9.4141845703125 19.0057373046875 0.137939453125
-9.50244140625 -21.820068359375 19.77587890625
-8.7869873046875 57.2930908203125 53.2872314453125
-9.5013427734375 41.7742919921875 -15.486572265625
-6.0718994140625 9.3416748046875 -0.9921875
-9.589111328125 15.5167236328125 -2.2264404296875
-9.2088623046875 -15.3634033203125 45.014892578125
-2.3714599609375 43.8470458984375 40.470947265625
-9.5338134765625 49.6607666015625 -19.759033203125
-2.56787109375 -14.767822265625 27.9210205078125
-6.1573486328125 29.4808349609375 4.2545166015625
-9.4686279296875 -48.609130859375 61.1785888671875
-9.262939453125 54.7396240234375 -23.796142578125
-8.260009765625 75.7645263671875 59.8507080078125
-11.204833984375 -32.85009765625 -79.4425048828125
13.666015625 18.2940673828125 53.738525390625
-9.37060546875 60.1593017578125 4.263671875
-9.480224609375 -30.3990478515625 49.7744140625
-0.9052734375 59.6605224609375 -26.195556640625
-9.3861083984375 -41.796875 46.895263671875
-6.038330078125 -67.512939453125 46.274658203125
44.6812744140625 -58.2652587890625 14.98046875
4.64208984375 6.6234130859375 61.01171875
-6.0283203125 24.2711181640625 1.594482421875
-9.2093505859375 28.6964111328125 15.667236328125
-9.3555908203125 62.8304443359375 0.9293212890625
-7.9554443359375 49.7542724609375 40.2425537109375
-2.6201171875 67.8804931640625 -30.02978515625
11.806396484375 -0.104248046875 64.3951416015625
-9.5731201171875 -34.352783203125 46.269287109375
11.550048828125 60.2801513671875 30.7474365234375
0.038330078125 7.0216064453125 60.9000244140625
-7.90966796875 71.6370849609375 47.7801513671875
55.91650390625 33.5472412109375 23.5208740234375
-9.3448486328125 47.2459716796875 4.454345703125
-4.1796875 -72.530029296875 49.9852294921875
-9.6434326171875 -18.4434814453125 17.767822265625
10.4337158203125 55.5218505859375 33.6083984375
-9.650634765625 -3.1158447265625 19.0357666015625
39.7613525390625 -2.2979736328125 -13.034912109375
54.6187744140625 1.0555419921875 39.8450927734375
-9.274169921875 -52.009033203125 63.80712890625
-7.8837890625 77.1373291015625 40.7039794921875
-2.799560546875 54.7376708984375 -23.912353515625
-8.65771484375 54.5767822265625 37.26708984375
3.781494140625 70.0560302734375 -30.354248046875
4.20947265625 8.8294677734375 59.1737060546875
-6.886474609375 63.9249267578125 34.4119873046875
-8.4522705078125 75.4700927734375 45.883544921875
-9.0377197265625 19.1934814453125 29.8223876953125
-9.489013671875 20.1990966796875 22.7552490234375
40.4554443359375 -40.49462890625 4.513916015625
-9.4471435546875 -69.852294921875 49.31640625
10.385009765625 12.8052978515625 56.1845703125
-7.940673828125 73.0670166015625 29.704833984375
-9.173095703125 68.8760986328125 0.477783203125
10.8592529296875 50.3084716796875 35.9371337890625
41.3897705078125 10.9144287109375 -22.9678955078125
-9.468505859375 -9.9129638671875 42.3695068359375
-9.5721435546875 78.7115478515625 33.5716552734375
59.1009521484375 1.25244140625 39.369140625
55.80517578125 25.0303955078125 28.243896484375
6.652587890625 -26.0791015625 -36.1153564453125
-9.6005859375 -48.4376220703125 36.09423828125
57.197509765625 -36.251708984375 62.3768310546875
-1.5723876953125 -43.926513671875 31.67236328125
42.375 -18.7454833984375 -7.918701171875
-9.197509765625 42.6219482421875 -1.021484375
-9.2025146484375 12.9930419921875 -2.8828125
-7.158935546875 89.1085205078125 56.5059814453125
55.769775390625 95.2364501953125 -9.3623046875
-6.3446044921875 53.4832763671875 42.3079833984375
-9.2977294921875 -35.8790283203125 60.8399658203125
-9.676025390625 -1.4442138671875 7.7088623046875
-7.99169921875 90.5721435546875 52.83203125
-7.9468994140625 24.8756103515625 -0.47900390625
-8.5543212890625 69.1256103515625 53.45703125
7.456787109375 -18.6339111328125 75.37158203125
-5.5179443359375 76.6304931640625 23.8297119140625
56.919921875 20.2486572265625 28.4525146484375
-7.4464111328125 -14.5697021484375 12.5020751953125
-8.115234375 -65.6033935546875 44.8677978515625
-7.3958740234375 -55.296142578125 61.62646484375
-7.583740234375 73.8428955078125 3.7222900390625
1.1763916015625 54.1326904296875 34.7257080078125
-9.4991455078125 -7.62158203125 40.87060546875
-0.22607421875 46.0555419921875 -19.5806884765625
-9.5361328125 -42.784423828125 40.460693359375
1.7891845703125 4.9193115234375 2.740966796875
59.4052734375 3.4361572265625 37.9498291015625
3.40478515625 -66.4908447265625 46.724609375
40.306884765625 -68.7364501953125 21.4986572265625
1.31103515625 25.5030517578125 -8.6246337890625
57.9019775390625 -24.1654052734375 54.7376708984375
0.6029052734375 -67.0113525390625 46.82470703125
-5.980224609375 31.6798095703125 -101.8712158203125
40.853515625 54.5872802734375 -44.64990234375
3.7818603515625 56.1287841796875 -23.6080322265625
10.882080078125 -12.1304931640625 71.5474853515625
54.8341064453125 -1.01318359375 41.04345703125
-9.5928955078125 26.1466064453125 16.40869140625
-7.9864501953125 83.5806884765625 55.9219970703125
-5.4932861328125 -11.752685546875 32.796875
56.1717529296875 63.8421630859375 5.7020263671875
-4.9305419921875 65.8104248046875 29.71630859375
-7.852783203125 -15.201904296875 51.3878173828125
-8.9197998046875 1.424560546875 3.9364013671875
-1.4508056640625 -1.038818359375 5.6171875
-8.1737060546875 88.7032470703125 44.0186767578125
39.55224609375 -43.7608642578125 7.464599609375
-2.36083984375 43.0589599609375 -17.9371337890625
2.455322265625 75.7523193359375 -33.012451171875
58.9503173828125 37.4959716796875 19.5028076171875
-9.3597412109375 -63.576171875 52.8031005859375
-9.808837890625 -13.669921875 19.0350341796875
-8.1519775390625 55.4901123046875 34.61767578125
39.811279296875 49.7164306640625 -40.8125
-3.0986328125 30.5550537109375 -11.666748046875
-9.3614501953125 58.4937744140625 -0.890869140625
4.8941650390625 -52.9390869140625 38.32275390625
56.1435546875 44.2899169921875 15.7613525390625
1.286865234375 -10.6690673828125 71.518798828125
-9.5770263671875 53.0738525390625 -8.8485107421875
2.4130859375 -7.1771240234375 9.8857421875
-2.8974609375 49.2520751953125 37.598876953125
-9.19775390625 14.3438720703125 31.6932373046875
-9.2681884765625 36.4691162109375 19.86767578125
40.5125732421875 45.1844482421875 -40.329833984375
43.1468505859375 57.8287353515625 -46.0137939453125
-8.54931640625 73.0765380859375 52.9510498046875
-8.6624755859375 67.8128662109375 -15.0609130859375
-9.316162109375 -35.2904052734375 56.330810546875
-9.6007080078125 -39.3211669921875 30.29736328125
-2.9658203125 -56.1737060546875 39.053466796875
4.9102783203125 -6.22900390625 68.4046630859375
-3.96484375 35.5618896484375 -14.5477294921875
2.6973876953125 -4.0135498046875 8.1190185546875
-8.1954345703125 -75.13427734375 51.6424560546875
6.5089111328125 83.5682373046875 18.903076171875
-9.474609375 58.3917236328125 6.1197509765625
1.673583984375 58.2979736328125 32.519775390625
-9.0238037109375 21.0015869140625 -1.0535888671875
13.28369140625 -104.9722900390625 -53.9508056640625
-8.0892333984375 93.3218994140625 51.222412109375
5.74951171875 -1.0936279296875 7.512451171875
-0.603271484375 -25.7078857421875 20.1475830078125
-9.5377197265625 -22.0560302734375 46.2783203125
2.3155517578125 -1.2286376953125 65.5595703125
-6.18896484375 70.4361572265625 34.336181640625
-25.3480224609375 -27.5689697265625 -72.04638671875
5.3818359375 92.3690185546875 16.1319580078125
-3.9642333984375 -15.4871826171875 13.701416015625
-9.6009521484375 56.7598876953125 -13.080078125
40.5361328125 -74.1351318359375 23.19384765625
-2.1817626953125 19.2508544921875 54.2725830078125
-9.718017578125 29.9012451171875 -5.7642822265625
4.634033203125 -13.5479736328125 72.8572998046875
-8.3082275390625 58.3939208984375 -26.0687255859375
-21.922607421875 -55.781982421875 -43.462158203125
55.21435546875 76.3428955078125 -0.1478271484375
3.052001953125 -63.8270263671875 45.0067138671875
-9.51513671875 -5.6812744140625 16.3048095703125
-8.9146728515625 79.7777099609375 -8.465576171875
7.94091796875 74.0404052734375 23.861572265625
-7.464111328125 55.4981689453125 49.114013671875
11.99658203125 27.0208740234375 47.987060546875
41.869384765625 29.6375732421875 -36.39111328125
-8.97705078125 35.9700927734375 60.267822265625
-6.7918701171875 39.7298583984375 43.0496826171875
-8.3994140625 47.7706298828125 62.2537841796875
-9.112060546875 74.8734130859375 -0.046630859375
-9.387451171875 67.4241943359375 -27.3096923828125
0.78857421875 90.6729736328125 17.290771484375
-9.375244140625 48.0838623046875 0.6629638671875
-1.5670166015625 17.2850341796875 -4.5428466796875
-6.392578125 53.7633056640625 35.7813720703125
-0.2801513671875 71.4041748046875 -9.470458984375
14.3621826171875 28.3424072265625 48.5087890625
-9.6737060546875 16.4127197265625 25.5567626953125
-6.246337890625 27.5465087890625 -10.630859375
-4.77685546875 -18.4595947265625 34.759521484375
-5.83740234375 31.8809814453125 -12.7750244140625
10.95947265625 84.9071044921875 18.6163330078125
-7.334228515625 61.1309814453125 34.6300048828125
1.536865234375 77.8331298828125 22.33056640625
-9.2279052734375 7.4429931640625 36.0997314453125
-8.30322265625 86.2208251953125 46.986572265625
-8.4449462890625 62.9119873046875 38.372802734375
4.0924072265625 -8.9814453125 11.3865966796875
0.0185546875 -1.0047607421875 65.489501953125
-7.1229248046875 25.7462158203125 61.5489501953125
4.342041015625 -73.7042236328125 51.8131103515625
43.413818359375 -44.769775390625 6.7052001953125
-6.0736083984375 51.2371826171875 -22.4295654296875
-8.4444580078125 59.6248779296875 9.5848388671875
-8.48046875 -18.982177734375 15.201904296875
7.29345703125 19.4290771484375 53.5753173828125
-9.510498046875 71.9024658203125 -22.9427490234375
-5.12255859375 -61.06640625 52.77392578125
-0.0615234375 61.4046630859375 31.3851318359375
-2.1695556640625 22.0418701171875 7.21044921875
1.488037109375 13.3424072265625 56.79248046875
39.6202392578125 -62.777587890625 21.4892578125
-9.3631591796875 55.1126708984375 -7.834228515625
40.70703125 -60.8758544921875 17.6744384765625
-9.35302734375 25.5460205078125 55.3992919921875
11.4287109375 17.2618408203125 54.3050537109375
5.024658203125 -41.6104736328125 -59.5699462890625
-5.817138671875 -55.3026123046875 49.832763671875
-8.5509033203125 85.0699462890625 35.7115478515625
-9.441650390625 54.3895263671875 -14.323486328125
-7.221923828125 82.5172119140625 0.9599609375
-5.3099365234375 -9.3812255859375 9.9864501953125
56.1085205078125 52.3358154296875 11.50048828125
54.65576171875 88.7762451171875 -4.7685546875
-9.4630126953125 -45.459228515625 47.825927734375
-9.5234375 87.4564208984375 25.6239013671875
56.9124755859375 34.3082275390625 20.9903564453125
-7.574462890625 58.0274658203125 36.9737548828125
-7.572021484375 43.7247314453125 54.62841796875
3.70947265625 61.4486083984375 -26.5230712890625
-9.43212890625 -39.945068359375 53.7598876953125
-9.6016845703125 54.8138427734375 -17.6251220703125
-8.5936279296875 67.8292236328125 44.2835693359375
-8.6092529296875 78.8275146484375 25.2880859375
10.0938720703125 39.5067138671875 41.590576171875
3.8974609375 48.0321044921875 -19.6817626953125
-3.4117431640625 0.68115234375 4.429931640625
55.7623291015625 56.9029541015625 9.181884765625
39.9847412109375 3.159912109375 -17.3284912109375
41.77392578125 8.4322509765625 -22.70361328125
39.61669921875 -0.9364013671875 -15.040771484375
-7.1563720703125 -32.2633056640625 -78.101806640625
2.0833740234375 68.6077880859375 -29.8397216796875
-7.6903076171875 49.1319580078125 50.990478515625
-9.5264892578125 28.5574951171875 -8.3922119140625
-1.2802734375 55.7574462890625 34.12548828125
39.6048583984375 11.9549560546875 -23.887451171875
-8.8900146484375 -10.3702392578125 33.9698486328125
10.196533203125 7.5609130859375 59.6689453125
52.1279296875 -0.2471923828125 -60.293212890625
-6.98779296875 69.0928955078125 -31.4710693359375
11.821533203125 53.0609130859375 34.5072021484375
-9.681396484375 1.0616455078125 7.6737060546875
-9.7303466796875 -53.47412109375 41.8134765625
-8.148193359375 64.8636474609375 55.7845458984375
40.672119140625 31.2576904296875 -35.1591796875
-9.3551025390625 52.3995361328125 4.3782958984375
6.0850830078125 52.5081787109375 35.388916015625
1.2657470703125 -70.0059814453125 48.75048828125
-9.467529296875 23.1497802734375 14.1375732421875
-7.7403564453125 43.9898681640625 47.9249267578125
-8.2398681640625 82.4822998046875 50.095458984375
-7.9544677734375 74.5218505859375 41.168212890625
-8.7725830078125 27.4473876953125 13.09423828125
2.383056640625 70.2796630859375 -6.05615234375
-8.1417236328125 77.2547607421875 32.525634765625
-7.9212646484375 31.6251220703125 48.3172607421875
-9.672607421875 8.3172607421875 21.300537109375
-8.5760498046875 71.1868896484375 43.2794189453125
8.6826171875 90.4937744140625 15.6817626953125
-3.43603515625 -23.3736572265625 18.369873046875
-9.24169921875 -8.9908447265625 27.9395751953125
-1.01171875 -65.424072265625 45.2520751953125
-9.1737060546875 0.80859375 39.590576171875
-8.347412109375 64.5303955078125 64.4208984375
7.37060546875 93.0311279296875 15.3516845703125
-8.0987548828125 60.2777099609375 45.641357421875
41.4466552734375 27.5418701171875 -35.1322021484375
-8.3746337890625 60.8411865234375 60.2479248046875
40.8896484375 60.1212158203125 -42.0489501953125
-9.287353515625 43.1756591796875 14.9901123046875
-8.662353515625 64.3265380859375 44.748291015625
5.9962158203125 -39.02392578125 30.1632080078125
42.9698486328125 -22.32568359375 -6.561767578125
55.5233154296875 68.2471923828125 3.2325439453125
-9.501220703125 41.5887451171875 6.322265625
-8.6119384765625 48.6051025390625 14.8724365234375
-8.3878173828125 59.5006103515625 38.922607421875
40.9833984375 17.9227294921875 -29.467041015625
45.1044921875 19.5885009765625 -32.193359375
3.824462890625 -17.6767578125 15.619873046875
-9.3172607421875 75.0343017578125 -26.086181640625
5.0426025390625 -56.7913818359375 40.88671875
-8.802734375 23.1187744140625 27.5196533203125
-7.5035400390625 91.4964599609375 34.3660888671875
-6.539794921875 -49.4412841796875 56.754150390625
2.257568359375 -55.435791015625 39.55322265625
-3.6241455078125 35.0926513671875 45.1871337890625
40.269775390625 53.8148193359375 -41.1983642578125
-24.5225830078125 -28.41064453125 -69.6368408203125
-3.6558837890625 -36.396484375 26.44677734375
-4.1527099609375 75.4127197265625 -33.2843017578125
39.7647705078125 -50.150390625 14.5003662109375
41.3447265625 -15.1231689453125 -10.927490234375
1.457275390625 -42.8836669921875 31.190673828125
40.15185546875 -62.51171875 19.3421630859375
-8.60009765625 34.3624267578125 49.8638916015625
-6.2822265625 26.5120849609375 12.7320556640625
1.118408203125 -39.0694580078125 29.015625
13.8218994140625 12.5352783203125 56.4354248046875
54.8916015625 28.7340087890625 24.5692138671875
41.2635498046875 -85.640625 31.6829833984375
-8.5252685546875 -62.8890380859375 56.835205078125
-6.048583984375 -51.31640625 51.642333984375
-9.419677734375 -31.1878662109375 47.3526611328125
-8.02978515625 86.2369384765625 27.0855712890625
13.093994140625 -22.286865234375 77.2723388671875
40.777587890625 64.0848388671875 -44.0908203125
6.4102783203125 3.3477783203125 62.23095703125
0.8541259765625 -72.3929443359375 50.447998046875
2.318603515625 50.4720458984375 36.4884033203125
-7.8455810546875 30.5128173828125 26.1385498046875
2.1383056640625 -49.692626953125 35.5491943359375
-7.61865234375 35.2142333984375 46.00830078125
56.7554931640625 15.1453857421875 31.5440673828125
-9.61279296875 -60.96044921875 47.735595703125
-4.9920654296875 55.8170166015625 -24.6676025390625
-9.2713623046875 -44.3876953125 57.837890625
55.02880859375 -29.4903564453125 57.7703857421875
39.575927734375 -70.1224365234375 25.5155029296875
-9.449462890625 -25.9483642578125 40.4683837890625
42.0404052734375 -80.7532958984375 27.6180419921875
-8.443359375 9.4937744140625 64.13818359375
-7.924072265625 33.2191162109375 53.8677978515625
8.4517822265625 1.59521484375 64.1561279296875
0.00390625 -74.4744873046875 51.847412109375
-9.587890625 56.8948974609375 -23.115966796875
40.54296875 25.8345947265625 -28.992919921875
2.46044921875 -20.663818359375 17.6856689453125
-9.62548828125 12.3907470703125 28.9989013671875
-1.752685546875 35.5848388671875 -14.2333984375
42.455810546875 11.5096435546875 -26.212158203125
11.986083984375 -23.6142578125 79.109619140625
3.8304443359375 27.9813232421875 -9.115234375
-9.1016845703125 -53.076904296875 61.923828125
54.4483642578125 -5.7442626953125 44.00537109375
-5.591796875 38.1141357421875 43.859130859375
-0.4053955078125 78.7703857421875 22.0982666015625
-8.5333251953125 84.4141845703125 24.3099365234375
-9.35986328125 40.4014892578125 0.784912109375
-8.031005859375 57.1170654296875 51.2633056640625
2.109130859375 64.3485107421875 -27.897216796875
-9.4580078125 -32.040771484375 31.3043212890625
52.2508544921875 24.7596435546875 25.1849365234375
-3.3291015625 25.8487548828125 8.8314208984375
-9.2711181640625 56.7252197265625 0.5980224609375
3.626220703125 -29.6229248046875 23.285888671875
-3.491455078125 27.7052001953125 -10.4525146484375
1.305419921875 3.8460693359375 63.3179931640625
-9.6107177734375 -35.535400390625 27.881591796875
-7.3096923828125 30.7115478515625 5.90087890625
-2.216064453125 -18.1497802734375 32.5294189453125
-8.6649169921875 -26.4488525390625 57.3023681640625
-9.427734375 -44.285400390625 61.7222900390625
-6.1405029296875 20.3748779296875 -6.761474609375
-8.253662109375 91.5120849609375 44.467041015625
4.4820556640625 56.7354736328125 32.8284912109375
-7.018310546875 79.6522216796875 22.363037109375
-1.3873291015625 -4.24365234375 -85.6395263671875
-9.2601318359375 -41.026611328125 51.9000244140625
-9.1221923828125 69.6165771484375 -13.9716796875
-8.6278076171875 -8.97509765625 46.38671875
-4.0986328125 -53.0245361328125 36.3603515625
-9.2623291015625 -17.9549560546875 47.44775390625
2.5570068359375 50.8909912109375 -21.8489990234375
-9.5869140625 -31.400390625 51.67822265625
-9.6910400390625 10.1544189453125 4.749755859375
-9.6732177734375 37.0992431640625 -5.8577880859375
-9.23291015625 -23.5809326171875 31.402099609375
-9.438720703125 -29.87548828125 55.756103515625
-6.24462890625 59.7635498046875 40.34716796875
-7.0955810546875 53.6566162109375 44.3162841796875
-5.90185546875 -2.3416748046875 5.7933349609375
-7.36865234375 32.7230224609375 63.449951171875
-3.0140380859375 8.7996826171875 -0.125
-9.673095703125 15.0797119140625 23.1605224609375
-9.2445068359375 -47.4127197265625 54.3773193359375
40.115966796875 11.3770751953125 -20.7955322265625
42.1932373046875 1.83740234375 -20.890380859375
41.6741943359375 70.5704345703125 -50.3692626953125
-7.4185791015625 25.6063232421875 -9.8856201171875
6.346435546875 -59.963623046875 43.718017578125
-8.6248779296875 4.0482177734375 39.946044921875
-9.1910400390625 73.1685791015625 -6.6441650390625
-7.5499267578125 51.8917236328125 53.1209716796875
-9.483642578125 31.2003173828125 -7.9537353515625
-9.7296142578125 -8.03955078125 12.9017333984375
-9.24755859375 55.2772216796875 7.2462158203125
3.0374755859375 29.5509033203125 -10.5184326171875
1.1162109375 12.3912353515625 -1.5177001953125
-3.73583984375 62.1263427734375 31.0062255859375
-4.924560546875 22.8626708984375 52.3895263671875
-0.662353515625 21.0291748046875 -6.4124755859375
-9.0672607421875 -57.0863037109375 63.4337158203125
-7.9063720703125 73.1617431640625 39.1939697265625
5.2841796875 23.5968017578125 50.684814453125
4.1903076171875 74.1339111328125 -32.06982421875
5.338134765625 29.2691650390625 47.6524658203125
-9.455322265625 51.5968017578125 -20.663818359375
-9.4591064453125 -65.19384765625 46.870361328125
40.6717529296875 57.0511474609375 -45.2811279296875
40.636962890625 35.3533935546875 -36.70166015625
2.7724609375 36.5755615234375 43.8992919921875
-9.489501953125 6.41064453125 6.787109375
-9.3646240234375 -40.4566650390625 58.7786865234375
-7.6263427734375 -70.4873046875 48.124755859375
-10.5731201171875 -70.4781494140625 -25.6707763671875
-2.6204833984375 76.7786865234375 23.1949462890625
9.374267578125 49.1046142578125 37.016845703125
40.8619384765625 -5.097900390625 -15.7083740234375
-7.7021484375 48.8963623046875 45.928955078125
40.6329345703125 0.6085205078125 -17.8720703125
10.883056640625 2.5721435546875 63.2423095703125
-9.3541259765625 -21.1416015625 36.139404296875
-4.1556396484375 5.6448974609375 62.5653076171875
56.5965576171875 85.3057861328125 -4.6702880859375
40.773193359375 29.5206298828125 -30.8646240234375
-9.43359375 17.8665771484375 13.2677001953125
0.633056640625 45.5887451171875 39.4302978515625
-3.3216552734375 20.9532470703125 -6.5400390625
-2.219970703125 15.2032470703125 56.279296875
-4.6754150390625 28.1099853515625 49.5255126953125
-8.509765625 85.5848388671875 44.8131103515625
2.72802734375 25.7552490234375 49.98095703125
-9.4671630859375 -25.3995361328125 36.0831298828125
-6.767822265625 -62.122802734375 53.6131591796875
-8.3441162109375 58.9393310546875 48.003662109375
-9.3226318359375 52.1209716796875 10.569580078125
-7.2354736328125 35.9312744140625 48.78125
-9.6964111328125 0.0384521484375 15.6610107421875
-9.8072509765625 1.4188232421875 32.3380126953125
55.685791015625 26.7322998046875 25.057861328125
8.5604248046875 25.2718505859375 49.297607421875
-8.356689453125 45.8096923828125 17.46240234375
2.153564453125 40.8660888671875 41.9595947265625
-9.2359619140625 31.9688720703125 18.968017578125
40.0679931640625 -64.5811767578125 20.309326171875
39.984130859375 -66.650634765625 21.2764892578125
41.7139892578125 -62.16015625 16.3177490234375
-3.20068359375 71.9114990234375 -31.7930908203125
8.0682373046875 66.4703369140625 28.0084228515625
-7.1368408203125 39.7381591796875 49.8548583984375
-6.0819091796875 17.4005126953125 55.639404296875
-4.787841796875 -18.87060546875 32.3282470703125
-9.6357421875 -8.143310546875 23.848876953125
-8.1978759765625 78.9302978515625 43.0111083984375
2.00439453125 73.5804443359375 -32.2818603515625
-8.254638671875 53.1888427734375 50.0948486328125
-9.3310546875 30.0003662109375 17.96826171875
-9.5081787109375 -9.0313720703125 16.3433837890625
-9.2159423828125 75.3868408203125 61.7652587890625
6.9107666015625 41.4364013671875 41.0318603515625
-7.427978515625 36.3187255859375 57.2685546875
39.2154541015625 -11.3878173828125 -8.806884765625
-4.70556640625 -51.607666015625 53.55419921875
-9.3114013671875 -40.846435546875 61.81689453125
58.4677734375 48.3577880859375 13.3856201171875
39.179931640625 -41.125244140625 8.169677734375
-8.657470703125 41.9791259765625 46.2969970703125
0.593505859375 16.8472900390625 55.667724609375
55.7493896484375 24.6187744140625 26.1602783203125
-0.14453125 59.3560791015625 32.342529296875
-5.698974609375 28.0325927734375 8.7957763671875
-9.611328125 34.0040283203125 -10.3729248046875
-9.384033203125 -68.807861328125 54.255126953125
-9.47607421875 -11.96484375 42.8603515625
-9.6793212890625 -25.240234375 29.6817626953125
-9.3931884765625 -34.770751953125 54.2886962890625
-2.3138427734375 -52.7042236328125 54.205322265625
-9.6015625 3.0582275390625 33.922119140625
5.185791015625 69.0921630859375 26.6787109375
0.762451171875 52.0218505859375 35.971435546875
-8.2119140625 21.9610595703125 64.351806640625
39.6680908203125 -11.627685546875 -10.93994140625
41.425048828125 6.8018798828125 -21.4190673828125
40.1490478515625 40.4232177734375 -37.100341796875
-9.046142578125 62.6104736328125 -4.049072265625
41.67138671875 74.8043212890625 -49.6026611328125
-9.56591796875 -50.8587646484375 42.402099609375
-9.7408447265625 16.2498779296875 3.7041015625
41.4066162109375 -31.0377197265625 -0.955078125
0.5853271484375 28.4261474609375 49.0408935546875
-8.613037109375 30.7034912109375 24.192626953125
-8.256103515625 76.6307373046875 37.444580078125
-9.3944091796875 -29.13427734375 28.455322265625
-9.4879150390625 -32.19970703125 25.0826416015625
-9.5869140625 10.8416748046875 27.582763671875
-0.78369140625 -41.0889892578125 29.7489013671875
40.0101318359375 20.9573974609375 -28.1693115234375
-9.4559326171875 5.3194580078125 25.2969970703125
-1.4056396484375 53.0172119140625 -22.663818359375
41.9974365234375 44.9244384765625 -41.9375
-8.4324951171875 -10.0211181640625 30.3956298828125
40.5572509765625 42.3167724609375 -39.2869873046875
39.4385986328125 27.6229248046875 -31.453369140625
-7.146240234375 52.6844482421875 -23.500244140625
-7.151611328125 68.5281982421875 31.7303466796875
-5.757080078125 47.2320556640625 39.2176513671875
-5.7529296875 -20.1795654296875 33.64794921875
-8.0233154296875 16.1898193359375 59.3580322265625
-9.0263671875 31.2318115234375 54.6212158203125
43.1201171875 47.0106201171875 -42.41162109375
-8.1112060546875 17.0369873046875 7.0118408203125
-7.2747802734375 -35.3975830078125 25.09326171875
-9.567138671875 16.0264892578125 21.3006591796875
28.1480712890625 -131.6580810546875 -57.1685791015625
-9.5167236328125 32.9112548828125 -1.99169921875
10.6160888671875 45.3187255859375 38.3448486328125
2.4276123046875 -54.2523193359375 57.4591064453125
-9.6641845703125 4.7724609375 36.3115234375
-6.9727783203125 28.0980224609375 57.5731201171875
44.0157470703125 12.7406005859375 -29.231201171875
41.890380859375 31.7508544921875 -36.9146728515625
-9.4647216796875 -6.2838134765625 29.221435546875
57.07470703125 78.2354736328125 -1.2265625
-9.3790283203125 67.4368896484375 -20.4969482421875
-2.364013671875 -38.054443359375 27.280029296875
-8.2501220703125 59.9605712890625 33.0443115234375
-2.7158203125 67.2088623046875 28.155029296875
-9.334228515625 43.4097900390625 -2.978759765625
-9.9957275390625 -24.83349609375 27.56103515625
39.089111328125 -45.159423828125 10.62255859375
0.7772216796875 -8.7430419921875 70.6448974609375
-8.7032470703125 27.5103759765625 25.6123046875
4.4244384765625 -6.8956298828125 10.606201171875
-9.5184326171875 -44.583251953125 42.4189453125
41.7330322265625 61.4727783203125 -47.2530517578125
-9.59814453125 44.2476806640625 -11.9278564453125
-7.6317138671875 46.4234619140625 -20.4559326171875
4.5830078125 83.0863037109375 20.2025146484375
-9.4530029296875 -71.561767578125 52.2430419921875
-9.5224609375 69.5831298828125 -26.9801025390625
-3.0064697265625 59.2984619140625 -25.947998046875
-9.49560546875 -49.1793212890625 57.1729736328125
-6.32275390625 43.6827392578125 56.5169677734375
-8.608154296875 66.8939208984375 42.2608642578125
-9.4593505859375 51.3450927734375 -3.6436767578125
-9.3712158203125 51.8348388671875 0.1412353515625
-9.05517578125 69.2254638671875 -1.813232421875
-9.6500244140625 49.2899169921875 -17.5416259765625
4.55126953125 16.5750732421875 54.794921875
1.2703857421875 71.0181884765625 26.1900634765625
-9.4024658203125 36.9044189453125 10.22509765625
-6.39111328125 18.4722900390625 7.0888671875
-9.5394287109375 -26.5810546875 34.10791015625
-9.5235595703125 -3.878662109375 23.8865966796875
-9.387939453125 -60.22998046875 43.5128173828125
-8.1859130859375 77.4903564453125 53.71826171875
-9.59912109375 57.9703369140625 -20.4219970703125
-5.6473388671875 -51.8406982421875 56.3775634765625
-9.311279296875 -12.5869140625 46.4208984375
12.334228515625 -8.9637451171875 69.436767578125
-9.5609130859375 -67.8741455078125 48.750244140625
-9.40283203125 60.8218994140625 -21.2828369140625
-8.068359375 62.0804443359375 55.323974609375
4.3314208984375 34.6409912109375 44.9371337890625
-7.932861328125 82.6441650390625 28.65771484375
-9.5093994140625 11.8839111328125 21.851806640625
7.4085693359375 -16.5941162109375 74.3004150390625
-7.150390625 91.2779541015625 55.9969482421875
-7.0477294921875 11.5909423828125 59.0166015625
-7.0833740234375 -57.3157958984375 61.841552734375
-1.5146484375 39.3712158203125 43.0633544921875
10.979248046875 79.1680908203125 21.1868896484375
-7.6082763671875 -10.7130126953125 32.3856201171875
-8.666015625 82.2320556640625 24.7340087890625
43.103515625 18.3406982421875 -30.7833251953125
-9.6097412109375 39.8968505859375 -8.6376953125
-2.781005859375 -70.728515625 48.971435546875
-9.5115966796875 6.2440185546875 32.505615234375
-3.848388671875 -47.5811767578125 33.118408203125
-7.435791015625 63.2496337890625 30.5877685546875
2.0137939453125 -15.391357421875 14.494873046875
9.546142578125 82.6590576171875 19.2774658203125
-8.03564453125 85.7474365234375 41.0804443359375
-8.0694580078125 44.5780029296875 59.39306640625
-8.6842041015625 22.4722900390625 54.3433837890625
41.181640625 18.7342529296875 -25.652099609375
-7.734619140625 77.8909912109375 45.3514404296875
48.073974609375 -0.650634765625 -60.659423828125
42.598876953125 -16.6365966796875 -8.809814453125
14.3177490234375 -25.76611328125 -36.6990966796875
-7.3709716796875 63.3475341796875 8.7584228515625
59.1212158203125 7.6456298828125 35.6343994140625
-9.6971435546875 13.9793701171875 7.03125
-9.464111328125 51.1114501953125 -8.2867431640625
-9.5760498046875 -53.5494384765625 38.054931640625
-7.8216552734375 75.7728271484375 3.077392578125
-9.525634765625 -2.8697509765625 36.43505859375
-5.60107421875 62.8931884765625 -27.876953125
57.50390625 76.2095947265625 -0.447021484375
-8.36474609375 89.8831787109375 38.32568359375
-9.294921875 -68.7066650390625 58.2615966796875
59.04248046875 25.9610595703125 25.43359375
-9.8468017578125 64.0516357421875 -16.1143798828125
-9.4044189453125 -47.75048828125 40.5635986328125
-8.72216796875 17.5799560546875 56.333740234375
58.8377685546875 11.8480224609375 33.32275390625
-9.276611328125 56.4703369140625 -4.085205078125
13.3365478515625 -24.6160888671875 -38.1019287109375
-8.08935546875 58.2462158203125 42.6314697265625
-8.56494140625 -18.7305908203125 36.650146484375
-6.3551025390625 45.4866943359375 40.32470703125
-9.4888916015625 12.4010009765625 31.0281982421875
-8.5535888671875 78.7093505859375 28.283203125
-9.247314453125 31.6424560546875 9.43603515625
-9.8277587890625 20.7640380859375 -2.9107666015625
56.6112060546875 18.4461669921875 29.3385009765625
42.3123779296875 73.2366943359375 -51.5576171875
3.652587890625 -26.880615234375 21.833984375
42.7921142578125 -2.774169921875 -18.10009765625
-7.061767578125 -61.9832763671875 58.357177734375
-4.557373046875 84.2296142578125 20.4339599609375
-8.4176025390625 31.0262451171875 50.493896484375
-9.5191650390625 53.6741943359375 -20.7425537109375
-3.4896240234375 16.7078857421875 -4.2476806640625
1.409423828125 42.0662841796875 -17.222412109375
-9.677734375 17.2886962890625 -3.6904296875
-9.544677734375 -7.1070556640625 20.0885009765625
-8.103759765625 70.4688720703125 45.1151123046875
-2.509521484375 4.406005859375 2.5706787109375
41.2982177734375 71.7130126953125 -48.739501953125
-9.6441650390625 60.9080810546875 -11.7989501953125
-9.193115234375 -30.3955078125 22.8846435546875
-7.9908447265625 24.6241455078125 57.3643798828125
-9.5107421875 3.3966064453125 15.2685546875
-9.4278564453125 63.2913818359375 -18.155029296875
-9.6983642578125 17.1009521484375 -0.465087890625
-9.4356689453125 -48.4554443359375 44.428955078125
-7.8245849609375 86.9200439453125 34.678955078125
55.7943115234375 31.5230712890625 22.9771728515625
