19.115478515625 3.045166015625 -45.619873046875
8.646484375 21.7119140625 -29.209228515625
5.626708984375 9.99462890625 -45.180908203125
-3.898681640625 -3.5537109375 55.8720703125
25.39990234375 8.802001953125 -48.212158203125
-0.61767578125 31.35595703125 -13.59033203125
30.7958984375 11.2490234375 -46.345947265625
-14.8017578125 5.40380859375 8.460693359375
35.9404296875 27.740234375 -27.191650390625
-14.21728515625 4.292236328125 -21.28466796875
-3.076904296875 8.30615234375 -30.219970703125
33.436767578125 17.425048828125 -34.085693359375
-3.7548828125 2.495849609375 62.443115234375
23.539306640625 4.19775390625 -49.7138671875
7.40234375 17.17236328125 -32.46826171875
-14.73291015625 -21.657470703125 22.982177734375
15.873291015625 3.44482421875 -44.795654296875
-12.1162109375 9.20654296875 -26.296630859375
-14.358154296875 -10.65234375 28.980224609375
-4.566162109375 -10.231201171875 47.941162109375
11.465576171875 11.301025390625 -30.6005859375
39.159423828125 13.286865234375 -41.723876953125
1.68701171875 12.171142578125 -40.2294921875
-16.034912109375 29.552978515625 -29.344970703125
-2.5146484375 -7.75146484375 51.882080078125
31.75634765625 14.155029296875 -38.653076171875
-14.350341796875 -14.498779296875 22.75830078125
-5.19287109375 29.46826171875 -16.73095703125
22.95703125 14.2470703125 -39.02490234375
25.927490234375 12.170654296875 -31.43701171875
14.572021484375 20.38427734375 -31.8701171875
20.569580078125 7.49267578125 -46.186279296875
-14.51123046875 -11.890625 18.08447265625
-14.359619140625 10.9296875 8.699951171875
22.682373046875 5.61865234375 -32.412353515625
-16.61328125 24.547607421875 -30.237548828125
10.051025390625 30.26806640625 -17.28173828125
-4.906982421875 -5.93701171875 52.7119140625
-4.87109375 32.152587890625 -25.17333984375
22.391845703125 9.99169921875 -47.48486328125
-14.394287109375 -2.149169921875 31.580810546875
-14.092529296875 23.5244140625 -8.489013671875
-14.703369140625 7.99853515625 10.255615234375
22.79638671875 11.7412109375 -43.755126953125
-11.725830078125 15.964599609375 -3.80712890625
0.7041015625 32.58251953125 -23.056884765625
-20.162841796875 29.989501953125 -30.11572265625
-14.260986328125 -6.96337890625 37.028564453125
-14.52783203125 17.579345703125 2.682373046875
21.11279296875 31.746337890625 -12.304443359375
33.0205078125 29.738037109375 -26.715087890625
-14.2431640625 -17.359130859375 18.43603515625
-13.62109375 -6.921630859375 -11.0908203125
-14.42333984375 -3.5859375 22.11962890625
-14.625 5.11572265625 14.444091796875
25.95458984375 28.21337890625 -27.2734375
-14.664306640625 4.228271484375 5.504150390625
-19.244873046875 -42.6533203125 48.8203125
-24.8974609375 -21.376953125 53.11328125
26.668212890625 12.953369140625 -40.745361328125
17.46044921875 35.654296875 -25.068603515625
-14.294677734375 9.4150390625 -2.382568359375
24.73828125 13.191650390625 -35.98583984375
6.385498046875 37.482177734375 -21.984130859375
-33.337890625 -30.52783203125 -2.571044921875
7.86962890625 35.084716796875 -26.945068359375
9.114013671875 10.353759765625 -28.939208984375
-13.634521484375 20.109619140625 -27.6650390625
22.906494140625 8.60546875 -30.96240234375
-14.52587890625 14.4150390625 0.695068359375
-4.41064453125 10.788330078125 -46.390869140625
21.479248046875 9.34765625 -36.3212890625
-2.108154296875 13.722900390625 -40.25341796875
-14.031982421875 -8.73828125 9.6826171875
31.32080078125 12.912841796875 -42.941162109375
-14.630859375 0.40576171875 28.56884765625
-5.421630859375 10.57373046875 -28.52294921875
-13.677734375 34.837158203125 -24.61181640625
11.61181640625 31.985107421875 -12.864501953125
-14.10400390625 13.85205078125 12.919921875
25.431640625 15.216064453125 -32.615478515625
34.54345703125 14.3046875 -37.657470703125
11.161376953125 32.627197265625 -28.7080078125
0.456298828125 9.21044921875 -46.941162109375
-18.163330078125 34.5732421875 -28.78759765625
-23.056640625 -23.92578125 51.904541015625
25.348876953125 6.218017578125 -49.32373046875
-14.20556640625 -15.39013671875 27.83642578125
-8.575439453125 8.12646484375 -49.859375
-8.26806640625 31.330078125 -13.283447265625
28.89599609375 31.28662109375 -25.235595703125
-4.468017578125 32.377685546875 -11.3173828125
-14.41650390625 -0.431640625 6.025146484375
14.26171875 38.493408203125 -22.574462890625
29.37939453125 22.076904296875 -31.15478515625
-6.025146484375 14.2861328125 -25.56103515625
-14.20361328125 3.635498046875 -15.8974609375
18.44580078125 7.43359375 -30.122802734375
7.26416015625 7.879150390625 -30.0390625
28.482666015625 18.832763671875 -26.177490234375
8.072021484375 22.72900390625 -31.958740234375
5.30029296875 32.064208984375 -12.97021484375
19.27197265625 9.26171875 -38.81689453125
-18.849365234375 36.2138671875 -26.685546875
-2.697509765625 -9.259765625 49.60888671875
-14.2060546875 33.830078125 -27.974609375
-22.9794921875 -21.20947265625 56.425537109375
-15.423583984375 -38.221923828125 48.692138671875
4.83935546875 10.730712890625 -38.808349609375
-11.609130859375 30.40673828125 -7.21826171875
7.54345703125 11.3056640625 -40.687744140625
-26.590576171875 -23.17822265625 54.4658203125
29.021240234375 3.897705078125 -50.12548828125
0.727783203125 29.60205078125 -15.179931640625
13.40234375 8.92529296875 -46.02685546875
1.296142578125 26.452880859375 -26.5732421875
-14.3837890625 7.2841796875 1.445068359375
5.872314453125 33.895263671875 -25.593994140625
-20.522705078125 36.801513671875 -21.905517578125
29.420654296875 19.95263671875 -32.70947265625
-11.232177734375 6.072998046875 -51.179931640625
-14.93359375 -5.4931640625 7.26318359375
-0.18701171875 10.776123046875 -28.4814453125
12.916015625 6.769287109375 -30.874267578125
-28.892333984375 -27.27001953125 -3.43994140625
-9.488037109375 12.93603515625 -25.718017578125
1.194091796875 32.75390625 -12.256103515625
-6.11279296875 7.264892578125 -49.537109375
-2.60791015625 28.595703125 -16.615966796875
6.57177734375 12.74951171875 -29.285888671875
26.568115234375 11.415283203125 -46.075927734375
-4.40478515625 -0.7900390625 57.918212890625
-1.234619140625 -3.899658203125 55.115234375
-17.57861328125 26.996337890625 -29.515869140625
-14.63720703125 1.497314453125 -21.92626953125
-11.942626953125 36.69970703125 -25.000244140625
11.926025390625 11.360107421875 -42.48779296875
27.21435546875 31.52197265625 -13.096435546875
-6.94873046875 -9.57275390625 49.16064453125
-14.275390625 11.842529296875 14.6982421875
34.77392578125 31.87744140625 -23.521728515625
5.26708984375 7.201416015625 -46.266357421875
15.270751953125 32.441162109375 -31.61083984375
-13.74072265625 16.748779296875 8.89013671875
-14.484130859375 -7.955322265625 39.895263671875
-14.492431640625 3.785888671875 19.5048828125
15.447021484375 31.05615234375 -16.46630859375
10.846435546875 37.4404296875 -25.961669921875
-5.934814453125 30.67724609375 -14.06494140625
-14.404541015625 23.27880859375 -3.70068359375
-9.380126953125 8.133056640625 -29.7294921875
-14.58056640625 0.080810546875 15.483642578125
25.331787109375 12.556396484375 -44.167724609375
-12.51904296875 30.75244140625 -10.347900390625
-4.435546875 12.758544921875 -26.795166015625
-6.907470703125 30.516357421875 -26.473876953125
-12.97216796875 10.010009765625 -23.130859375
-14.561767578125 -11.66064453125 31.39453125
-15.94287109375 32.472900390625 -29.24755859375
-14.528076171875 1.91845703125 4.51708984375
-6.83642578125 13.07373046875 -37.695068359375
6.10498046875 20.987548828125 -26.4814453125
-22.4833984375 36.172607421875 -19.96826171875
1.636962890625 31.70166015625 -26.14794921875
-7.647216796875 13.41552734375 17.538818359375
30.537353515625 30.67724609375 -14.078369140625
4.42138671875 11.6328125 -27.55078125
-7.33203125 12.073486328125 -46.530517578125
-10.208984375 14.83203125 17.1708984375
26.82666015625 14.975830078125 -34.6728515625
-6.87353515625 -0.06201171875 59.041748046875
27.389892578125 18.642333984375 -33.30322265625
-14.5322265625 9.002685546875 4.64013671875
-14.43310546875 -5.0185546875 12.331298828125
-11.42919921875 14.97802734375 13.82861328125
-16.6748046875 14.3759765625 -35.267578125
-17.784423828125 36.7001953125 -24.224609375
-14.493896484375 2.00439453125 25.559326171875
28.76416015625 14.224365234375 -38.525390625
3.404296875 13.645263671875 -25.855224609375
26.683349609375 19.84814453125 -29.681396484375
-14.481689453125 7.62841796875 19.22119140625
1.587890625 27.77099609375 -18.088134765625
4.28369140625 8.60498046875 -29.709716796875
-14.30517578125 -6.975341796875 17.59326171875
-55.10498046875 -10.455810546875 47.89404296875
-10.71142578125 15.306396484375 -39.8662109375
15.815673828125 38.073974609375 -25.254150390625
11.54638671875 29.9814453125 -14.804931640625
3.923583984375 16.29248046875 -23.934326171875
20.630859375 4.325439453125 -32.60888671875
17.90283203125 9.96728515625 -44.862060546875
-15.51025390625 -43.185791015625 50.687744140625
-15.584228515625 -33.807861328125 49.969482421875
21.332275390625 2.5947265625 -34.935302734375
-14.2724609375 12.025634765625 1.010498046875
9.738525390625 28.36376953125 -28.87060546875
-12.778076171875 8.624267578125 21.992919921875
11.615966796875 17.39208984375 -35.099853515625
-14.325927734375 -9.347412109375 22.12548828125
21.7421875 11.221923828125 -34.636474609375
-13.438720703125 28.5654296875 -11.220458984375
-0.449951171875 -5.803466796875 53.3076171875
17.559326171875 32.50634765625 -27.89697265625
10.140380859375 39.611328125 -22.712646484375
-0.021240234375 11.74169921875 -44.832763671875
6.143310546875 30.6015625 -28.69384765625
-14.53271484375 13.230224609375 10.479736328125
-13.950927734375 -0.925537109375 -17.543212890625
4.451416015625 34.19775390625 -23.66357421875
7.637939453125 30.419921875 -16.34814453125
-14.471923828125 12.191162109375 3.3671875
31.700927734375 18.96044921875 -33.591064453125
-22.476806640625 37.663330078125 -24.5595703125
13.8681640625 27.69873046875 -28.499755859375
-26.477294921875 -30.549072265625 -3.609130859375
-13.5625 15.556396484375 -44.048095703125
-14.669677734375 13.9619140625 5.693603515625
1.469482421875 26.784912109375 -28.970458984375
8.644775390625 26.80322265625 -30.36474609375
1.895751953125 34.51611328125 -22.4287109375
8.482421875 19.262939453125 -33.467529296875
-9.50244140625 10.070556640625 -48.914306640625
-26.007080078125 -25.5849609375 53.67431640625
-14.961181640625 -11.380126953125 35.985107421875
7.168212890625 19.46875 -29.856689453125
13.660400390625 31.41357421875 -28.60498046875
16.515625 26.83837890625 -29.65185546875
-14.703369140625 3.51220703125 16.1435546875
-14.581787109375 9.665283203125 -0.076904296875
-2.62841796875 32.193603515625 -12.75634765625
-14.592041015625 -3.673095703125 9.80078125
-31.691162109375 -29.937744140625 -4.35400390625
-13.779296875 6.84912109375 23.90283203125
15.363525390625 5.51025390625 -45.716064453125
-0.744140625 8.682861328125 -29.739990234375
6.721435546875 38.134521484375 -24.41796875
-14.96826171875 -38.24462890625 51.591064453125
16.53173828125 29.839111328125 -30.72119140625
-14.39990234375 -12.177734375 23.79248046875
-14.01806640625 2.40869140625 -17.967529296875
8.85009765625 33.198486328125 -27.835205078125
19.606201171875 30.486083984375 -14.0205078125
-14.41357421875 14.762451171875 -37.135986328125
-40.190185546875 -0.263427734375 13.945068359375
-14.348388671875 -3.865966796875 -14.900390625
-14.431884765625 0.340087890625 22.23779296875
-14.448486328125 -9.35205078125 26.82958984375
-14.108154296875 -4.17724609375 -12.313232421875
-10.57275390625 29.42431640625 -14.611572265625
3.173583984375 31.388671875 -18.959228515625
-13.18017578125 18.878173828125 6.400146484375
27.131103515625 30.876953125 -21.52880859375
4.15478515625 19.7099609375 -24.67529296875
26.891357421875 10.7548828125 -32.947509765625
24.841064453125 16.8720703125 -26.61474609375
-14.155517578125 27.697998046875 -5.221923828125
21.54443359375 7.182861328125 -35.446044921875
3.618408203125 29.502685546875 -15.1826171875
-14.502197265625 18.651123046875 -1.669677734375
-14.2958984375 -6.05859375 25.464599609375
-6.181640625 14.034423828125 -42.810302734375
-14.363525390625 -3.91015625 32.9990234375
5.60595703125 16.2705078125 -27.51708984375
21.28857421875 10.557861328125 -38.23095703125
6.0068359375 26.16748046875 -29.679931640625
-13.589111328125 36.239990234375 -26.473388671875
30.99462890625 16.447509765625 -35.24853515625
-14.68408203125 3.616455078125 9.830322265625
30.4306640625 9.472412109375 -47.6845703125
22.404052734375 12.64892578125 -40.82373046875
28.271484375 30.066162109375 -14.517578125
-13.71875 6.4560546875 -20.476318359375
13.698486328125 33.926025390625 -26.400634765625
-14.242919921875 26.76513671875 -8.986572265625
-11.45361328125 15.04345703125 -44.610107421875
13.263916015625 22.1044921875 -30.171142578125
-13.75830078125 5.478759765625 -23.447998046875
18.380126953125 7.949462890625 -45.948974609375
-14.477783203125 23.880859375 -5.890869140625
-14.343994140625 -0.779296875 18.34326171875
-15.703857421875 -35.020751953125 52.595703125
-13.643310546875 5.00390625 27.05859375
-13.66943359375 21.493408203125 1.445556640625
27.976318359375 17.060791015625 -34.852294921875
7.46142578125 15.04833984375 -29.987548828125
-14.23583984375 -5.056396484375 28.19921875
20.820556640625 0.912841796875 -46.041015625
15.786376953125 31.8359375 -12.92724609375
-14.38818359375 -8.347900390625 29.5771484375
12.487060546875 20.21533203125 -33.125
-15.834716796875 -34.6201171875 46.9658203125
13.53759765625 37.584716796875 -24.92138671875
-14.265380859375 -1.60693359375 26.7197265625
16.442138671875 34.022216796875 -26.13623046875
-6.396728515625 -2.185791015625 54.987060546875
-14.117431640625 -18.25732421875 23.923828125
-21.3095703125 36.55859375 -26.26806640625
-14.41162109375 11.1591796875 -3.695556640625
-14.411865234375 1.484130859375 19.7822265625
-11.22412109375 -6.901123046875 72.098388671875
-27.82470703125 -27.39501953125 -1.442138671875
-14.124267578125 0.258056640625 -13.82666015625
-14.49658203125 -10.06884765625 13.731201171875
25.34765625 19.42822265625 -33.138916015625
-29.9326171875 -31.361572265625 -3.92529296875
-2.904541015625 31.341552734375 -25.648681640625
-19.892822265625 33.72900390625 -29.793212890625
-18.069091796875 36.473876953125 -21.93505859375
23.931396484375 30.5107421875 -25.873779296875
-13.479248046875 31.658203125 -8.478759765625
-3.624267578125 8.99365234375 -47.7919921875
10.552490234375 8.46533203125 -46.15771484375
13.3984375 4.718017578125 -32.338623046875
-11.66064453125 10.647705078125 -49.505615234375
-15.54248046875 -14.127685546875 32.265625
-7.58251953125 10.57275390625 -28.26123046875
-14.583984375 7.24609375 15.51904296875
30.88525390625 19.782470703125 -28.263916015625
-14.5537109375 -10.572021484375 33.245361328125
-14.530517578125 -17.91650390625 26.74072265625
23.980712890625 30.208984375 -14.847412109375
-15.7587890625 -42.125732421875 47.5263671875
30.457763671875 5.75732421875 -49.37744140625
-14.530517578125 -12.764404296875 28.690673828125
-14.32421875 -4.59765625 36.268310546875
-14.34033203125 -6.765625 32.582763671875
3.2080078125 10.157958984375 -28.71484375
28.87451171875 8.253173828125 -48.578125
-14.44677734375 0.008056640625 12.595458984375
-14.138671875 2.11474609375 29.923095703125
-14.3271484375 14.247802734375 -1.64794921875
8.9990234375 9.931640625 -44.819580078125
-14.781005859375 6.516357421875 6.08154296875
16.344482421875 11.430419921875 -41.12109375
-14.310791015625 -3.352783203125 7.6953125
32.779296875 5.758544921875 -49.30029296875
-2.201416015625 13.802001953125 -37.94287109375
41.019775390625 12.770751953125 -38.3583984375
-2.201171875 -0.699951171875 58.669921875
22.205322265625 11.2197265625 -45.774658203125
-14.43115234375 -16.717529296875 22.512939453125
27.130615234375 31.83203125 -23.775390625
-11.08447265625 13.674560546875 -46.929443359375
20.441650390625 10.777587890625 -42.4765625
35.37158203125 12.481201171875 -40.353759765625
-4.873779296875 0.794677734375 59.46533203125
-14.359375 -9.788330078125 18.812255859375
-55.261962890625 -10.557373046875 52.60595703125
3.326416015625 33.66748046875 -26.9697265625
21.782470703125 30.845703125 -26.87939453125
-33.3701171875 -26.984375 -2.253173828125
-14.775146484375 -41.566650390625 51.796875
-15.447021484375 -15.902099609375 30.212890625
-13.182861328125 8.1162109375 -24.324462890625
7.60546875 31.5029296875 -13.413818359375
-1.345458984375 29.475341796875 -14.906005859375
-15.4033203125 -38.738037109375 46.130126953125
16.25732421875 31.11767578125 -29.091552734375
-14.283935546875 -5.9599609375 21.14892578125
-14.51123046875 9.92138671875 13.9306640625
-11.932373046875 13.28515625 17.090087890625
11.20263671875 9.442626953125 -29.445068359375
18.7880859375 10.745849609375 -40.435546875
-15.08447265625 15.4501953125 -39.37890625
28.525634765625 12.82275390625 -42.32275390625
30.762939453125 14.02783203125 -36.822265625
10.021484375 11.05712890625 -43.244384765625
31.42919921875 31.2099609375 -22.56591796875
-15.609130859375 -36.160400390625 48.4345703125
-14.55908203125 -14.358642578125 25.2490234375
26.742431640625 13.46484375 -36.396728515625
-10.2568359375 11.06640625 -26.265625
-10.299560546875 31.201416015625 -13.0166015625
-14.365234375 -1.145751953125 10.843017578125
10.264892578125 23.302490234375 -29.573486328125
-26.021728515625 -24.47265625 55.998046875
-14.474365234375 4.62353515625 3.3798828125
8.265380859375 15.331298828125 -32.253173828125
6.848876953125 18.2255859375 -27.658935546875
-9.755615234375 15.956298828125 -43.646240234375
-6.400146484375 -6.712890625 51.55322265625
4.630126953125 31.984130859375 -27.42529296875
-12.71533203125 14.1201171875 -36.199951171875
12.648193359375 33.608642578125 -12.186767578125
-14.126708984375 -1.8798828125 -15.735595703125
-3.89306640625 13.905517578125 -44.592041015625
9.572998046875 21.3515625 -32.083740234375
21.70166015625 33.0078125 -23.38720703125
24.555419921875 16.55615234375 -30.27294921875
-2.759765625 13.761962890625 -26.213134765625
-14.520263671875 18.61279296875 4.43896484375
0.6083984375 31.784423828125 -10.56591796875
-13.089111328125 -7.982421875 -12.7392578125
-0.12255859375 13.3798828125 -40.50732421875
5.725830078125 10.940673828125 -43.38671875
-4.30712890625 -4.8427734375 54.357177734375
21.515869140625 12.4345703125 -38.97216796875
31.364013671875 28.608642578125 -27.2666015625
8.706787109375 36.838623046875 -26.359375
28.9599609375 13.046875 -35.806884765625
-12.987548828125 -5.490234375 40.052978515625
2.0458984375 28.385498046875 -16.122802734375
-15.819580078125 35.350830078125 -24.528076171875
-6.119140625 31.366455078125 -11.90869140625
34.191162109375 30.7998046875 -25.45263671875
-14.19677734375 -7.58984375 15.2470703125
31.24658203125 30.271484375 -25.64404296875
-14.23876953125 -3.5810546875 14.09716796875
1.404296875 11.9267578125 -42.204833984375
-14.479248046875 -1.871826171875 23.30517578125
34.521240234375 12.673828125 -42.6044921875
2.13330078125 30.2138671875 -29.20654296875
-14.367431640625 -4.639404296875 16.903564453125
-1.468017578125 -10.481201171875 48.61865234375
4.087646484375 21.3134765625 -26.261474609375
-15.653564453125 -1.54638671875 -10.119873046875
-14.361572265625 16.374755859375 1.023193359375
15.794189453125 32.877197265625 -11.156982421875
-40.5859375 1.214111328125 15.439697265625
-14.322509765625 35.44775390625 -21.837890625
-13.802001953125 27.87939453125 -7.166015625
-14.244140625 -0.5849609375 30.286376953125
-13.69970703125 13.121826171875 -3.609130859375
37.154541015625 14.01123046875 -41.490966796875
26.949462890625 4.746826171875 -49.510498046875
17.226318359375 3.775146484375 -32.869873046875
-13.87890625 -35.30859375 55.598388671875
-56.3916015625 -9.731201171875 50.609619140625
28.859375 11.431396484375 -45.990966796875
-13.020263671875 15.505859375 -40.8349609375
30.129638671875 12.390380859375 -44.703857421875
-13.997314453125 -0.896484375 33.052734375
24.008544921875 10.228515625 -31.87158203125
4.3681640625 15.3505859375 -25.609375
16.10009765625 5.367919921875 -31.84912109375
-14.363037109375 4.70068359375 22.663818359375
2.5947265625 7.583740234375 -30.688720703125
-18.092041015625 19.29541015625 -27.042724609375
25.322509765625 12.158447265625 -34.41943359375
-14.628173828125 -1.84521484375 4.68212890625
-14.322998046875 2.6611328125 11.881103515625
-13.0244140625 13.302001953125 15.07568359375
1.9697265625 32.959228515625 -21.242431640625
-13.765869140625 4.4482421875 -25.19970703125
23.219970703125 12.489990234375 -34.971435546875
33.4150390625 13.239501953125 -36.468994140625
38.715576171875 13.713623046875 -39.871337890625
-0.70654296875 12.3212890625 -27.365234375
4.382568359375 30.31494140625 -16.781982421875
-14.1376953125 -1.964111328125 -11.648193359375
-23.83544921875 -20.80517578125 54.639892578125
-14.311767578125 -13.809814453125 17.835205078125
31.4384765625 20.710693359375 -34.833984375
27.302001953125 29.58740234375 -26.853515625
20.24853515625 4.666015625 -36.83349609375
21.835205078125 3.144775390625 -48.26708984375
2.5341796875 28.3330078125 -29.457275390625
-7.357666015625 13.11328125 -44.046142578125
0.7333984375 9.976806640625 -45.083251953125
22.68603515625 15.6396484375 -30.107666015625
-11.66943359375 32.997802734375 -9.908935546875
-14.659423828125 12.32177734375 7.391845703125
-14.410400390625 -2.982421875 19.81396484375
-8.965087890625 12.639404296875 -47.39599609375
-14.470947265625 24.92822265625 -9.761474609375
-8.44091796875 14.532958984375 -25.43359375
21.476806640625 7.16845703125 -47.924560546875
-14.0478515625 10.491943359375 17.672607421875
24.509765625 31.557861328125 -24.36181640625
-12.700439453125 -5.548828125 -15.2802734375
9.195556640625 6.574951171875 -31.305908203125
24.7939453125 13.6220703125 -39.28759765625
1.30615234375 14.065185546875 -26.0712890625
-0.215087890625 31.420654296875 -21.831298828125
20.14306640625 31.78564453125 -26.29736328125
3.359130859375 10.069580078125 -45.303955078125
-15.039306640625 5.798583984375 0.012939453125
-9.61279296875 6.541748046875 -50.152587890625
8.61376953125 31.650390625 -10.760498046875
26.79931640625 7.5224609375 -48.470947265625
22.237548828125 5.4072265625 -49.019287109375
-14.16552734375 19.86572265625 2.5634765625
-14.425048828125 -16.652099609375 20.3349609375
-2.40087890625 29.86328125 -26.735595703125
7.423828125 21.286376953125 -30.602294921875
-14.08154296875 2.52294921875 -20.424560546875
6.7724609375 18.822998046875 -25.815673828125
4.79443359375 18.079833984375 -23.733154296875
19.70068359375 5.668212890625 -46.411865234375
-13.904052734375 2.22607421875 -14.66162109375
-2.322021484375 9.677734375 -29.151611328125
-0.215087890625 14.986083984375 -24.665771484375
-14.3759765625 -8.241943359375 25.227294921875
5.48388671875 36.759033203125 -24.012451171875
26.470458984375 13.751220703125 -33.277587890625
-25.20556640625 -21.816650390625 57.194091796875
12.8349609375 26.078369140625 -29.17919921875
-4.7783203125 12.702392578125 -46.47802734375
3.2041015625 32.44189453125 -12.830810546875
1.195556640625 22.46875 -24.474365234375
22.7626953125 31.301513671875 -13.3916015625
-13.9013671875 4.09521484375 0.7958984375
0.939453125 24.749267578125 -25.868408203125
8.8046875 10.63916015625 -39.469970703125
-15.291259765625 -40.187255859375 47.986328125
-11.15283203125 8.803955078125 -27.944091796875
-8.9990234375 14.6826171875 -40.88232421875
-8.249755859375 8.622314453125 -31.148193359375
-5.7373046875 8.44970703125 -48.145263671875
3.891845703125 11.118896484375 -43.047119140625
-0.028076171875 32.22900390625 -24.733154296875
-4.284423828125 32.19287109375 -13.605712890625
-14.059814453125 30.189697265625 -29.379638671875
-4.644775390625 9.2998046875 -29.6318359375
25.19921875 10.562744140625 -47.0
11.2626953125 18.7578125 -33.889892578125
-14.154541015625 15.0068359375 10.0869140625
26.7138671875 12.88623046875 -42.73095703125
0.27734375 28.40673828125 -26.50048828125
-14.2763671875 21.572021484375 -0.77978515625
20.7470703125 3.106689453125 -46.486328125
-6.478515625 -10.00830078125 47.22314453125
24.255126953125 14.130859375 -37.50244140625
-14.653076171875 -37.43505859375 53.27001953125
-14.422119140625 3.074951171875 23.9814453125
-14.45751953125 20.206298828125 -4.500244140625
15.658935546875 11.012939453125 -42.780517578125
33.845947265625 13.331298828125 -39.237548828125
-17.64208984375 25.529296875 -28.411865234375
-14.4296875 9.896240234375 10.21533203125
1.764404296875 29.63623046875 -18.8984375
-10.968505859375 35.305419921875 -23.6298828125
-53.51123046875 -11.698974609375 48.03759765625
-14.29541015625 -4.87548828125 23.39599609375
-24.217529296875 36.333984375 -20.48095703125
-21.60595703125 -20.275390625 55.695068359375
19.22998046875 31.865234375 -12.42578125
-14.426513671875 -11.353271484375 16.245849609375
-13.84716796875 -0.0625 -12.046630859375
-4.84814453125 1.888427734375 60.903076171875
-6.525634765625 14.3544921875 -41.016357421875
-14.50439453125 0.1689453125 7.92138671875
-14.413330078125 5.90576171875 19.750732421875
22.524169921875 9.991455078125 -33.3837890625
-7.4326171875 8.855224609375 -29.41748046875
30.485595703125 31.469970703125 -24.0771484375
-9.737060546875 32.205078125 -9.951904296875
-0.842529296875 10.458251953125 -46.31103515625
-14.59765625 16.572265625 4.1669921875
17.5751953125 3.96044921875 -45.730712890625
-14.146240234375 18.216064453125 7.939697265625
19.395751953125 31.2490234375 -10.59619140625
-14.38427734375 -7.289794921875 11.290771484375
37.55224609375 14.765869140625 -38.3046875
-13.76904296875 -2.897216796875 36.35498046875
-14.256591796875 16.844482421875 -3.13818359375
-11.056396484375 6.32080078125 24.926025390625
-11.78662109375 15.308837890625 15.706787109375
-14.624267578125 0.445556640625 26.415283203125
-8.58984375 32.646728515625 -12.127685546875
-14.953857421875 -20.203369140625 21.627197265625
34.887451171875 29.152587890625 -26.94580078125
-14.548828125 15.429931640625 6.962646484375
0.496826171875 7.489501953125 -30.770751953125
5.62841796875 5.20263671875 -31.84765625
-28.42041015625 -30.17041015625 -2.98095703125
-14.7607421875 7.938232421875 17.361083984375
3.41357421875 11.567626953125 -40.101318359375
25.062255859375 17.105224609375 -32.703857421875
12.681884765625 21.5908203125 -31.79052734375
22.700439453125 6.674072265625 -31.001220703125
-6.7451171875 29.90185546875 -15.673095703125
12.14501953125 11.16162109375 -40.413330078125
17.368896484375 6.3095703125 -30.9443359375
-10.698974609375 14.760986328125 -38.19384765625
-14.275390625 -1.885986328125 14.8720703125
-32.7529296875 -31.7138671875 -3.771484375
8.27197265625 39.74951171875 -23.620849609375
-0.8623046875 32.603271484375 -12.379150390625
-13.209228515625 29.87548828125 -6.73388671875
15.750732421875 8.35498046875 -29.74169921875
-14.2958984375 8.50634765625 21.12744140625
25.413330078125 18.39208984375 -29.661865234375
-3.955078125 13.93310546875 -38.771484375
-14.160888671875 -3.591552734375 34.702880859375
-8.6328125 15.439208984375 18.740966796875
33.020751953125 31.883544921875 -22.326904296875
-15.09228515625 -39.269775390625 50.046142578125
-12.620849609375 13.123779296875 -47.542724609375
-16.580322265625 34.072265625 -28.259521484375
31.639892578125 13.19384765625 -40.101318359375
24.93994140625 29.60791015625 -27.0302734375
14.189453125 29.4296875 -28.815673828125
-4.149169921875 -7.24755859375 51.156494140625
9.572021484375 35.07470703125 -26.515380859375
21.264892578125 5.861328125 -33.605224609375
-14.296142578125 3.707763671875 13.26904296875
12.14501953125 36.302978515625 -25.761962890625
25.752685546875 13.8994140625 -31.444580078125
-1.85498046875 14.0068359375 -42.207763671875
27.623046875 19.55859375 -28.17578125
-12.709228515625 7.6845703125 -26.8828125
-14.57861328125 6.763671875 11.4765625
1.148681640625 30.130126953125 -26.686279296875
28.069580078125 21.18603515625 -30.458251953125
14.01953125 7.298095703125 -46.361572265625
23.698486328125 8.78564453125 -48.5673828125
13.134521484375 32.894775390625 -27.88671875
-3.787353515625 13.781982421875 -40.652587890625
-3.472900390625 -2.274658203125 56.945556640625
-14.596435546875 22.446044921875 -7.145263671875
-14.46728515625 -13.751953125 21.211181640625
21.067626953125 9.13037109375 -46.00390625
6.779296875 18.7900390625 -31.388427734375
-14.58837890625 8.947509765625 11.685302734375
8.603759765625 8.723388671875 -29.100341796875
-2.2666015625 -3.46728515625 56.416015625
7.82568359375 20.416748046875 -28.318603515625
12.644775390625 10.683349609375 -44.1708984375
-14.3310546875 -3.311279296875 30.229248046875
-14.386474609375 -6.637451171875 29.493408203125
-14.5859375 -20.091064453125 23.878173828125
-14.14892578125 -6.5498046875 38.686279296875
-14.269287109375 8.228515625 2.8681640625
-14.260498046875 9.783203125 6.568359375
-5.21142578125 -1.68115234375 56.582763671875
-14.685302734375 -15.718017578125 17.836181640625
19.361572265625 1.219970703125 -45.206787109375
-14.394775390625 -12.630859375 19.619140625
13.687744140625 11.281005859375 -42.476806640625
16.112060546875 10.06201171875 -44.475830078125
-15.33203125 -43.295654296875 48.947998046875
-14.864013671875 -37.432373046875 44.992431640625
-30.47119140625 -27.87158203125 -2.885009765625
-14.615234375 8.10205078125 -1.3046875
-14.174560546875 1.046630859375 2.78076171875
-14.589111328125 3.560546875 7.789306640625
-23.54931640625 -22.219482421875 52.517333984375
-14.50537109375 3.831787109375 17.7978515625
-14.39306640625 -3.359130859375 11.45556640625
20.079345703125 5.377197265625 -31.3310546875
-14.37646484375 5.98779296875 13.012451171875
7.623046875 17.9931640625 -34.1845703125
32.524169921875 11.2705078125 -45.983642578125
6.737548828125 35.613525390625 -25.78125
27.4873046875 12.3193359375 -32.73681640625
-6.736083984375 -5.236572265625 52.2958984375
11.74853515625 31.89111328125 -11.1865234375
-14.364501953125 -3.761962890625 26.906982421875
7.68505859375 29.891845703125 -14.59814453125
7.1357421875 31.704833984375 -29.48974609375
-14.411376953125 -11.085693359375 26.059814453125
-14.522216796875 10.98486328125 16.125
-14.3759765625 -2.0185546875 25.0927734375
24.661376953125 17.52685546875 -28.431396484375
6.493408203125 23.6904296875 -28.99462890625
-12.0908203125 10.219970703125 -24.942138671875
-14.334716796875 -8.595703125 36.638916015625
-14.121826171875 22.476318359375 -2.193359375
-14.326904296875 13.667724609375 2.18359375
-12.945556640625 15.3935546875 13.244140625
-14.42333984375 -2.927978515625 18.0927734375
-6.783935546875 14.072509765625 -39.0703125
-1.572509765625 -6.393310546875 52.21240234375
-14.6884765625 -13.35400390625 15.879150390625
-19.3642578125 36.700439453125 -23.107421875
13.565673828125 31.767333984375 -13.096435546875
-15.1015625 -9.35546875 10.80810546875
24.936279296875 2.90234375 -49.9775390625
10.776611328125 39.00341796875 -25.166015625
-14.117431640625 4.15966796875 -19.6240234375
-9.211669921875 14.39892578125 -43.96435546875
-14.18798828125 25.14892578125 -4.544677734375
-14.924072265625 -7.232666015625 9.006103515625
6.409423828125 8.72900390625 -45.931640625
6.297607421875 11.43994140625 -41.78662109375
15.1181640625 10.485107421875 -39.603759765625
5.95263671875 14.901123046875 -28.72021484375
-14.51123046875 10.60693359375 4.20361328125
6.40673828125 6.57958984375 -31.162353515625
-8.98486328125 11.931396484375 -26.94189453125
-26.395751953125 -22.87158203125 56.228515625
-14.6767578125 17.75 0.1484375
4.69873046875 32.02490234375 -19.113037109375
-11.51953125 36.298583984375 -26.7216796875
14.188232421875 7.69580078125 -30.3720703125
-14.3955078125 -7.5546875 21.580322265625
-10.016357421875 15.6787109375 -41.71826171875
25.582763671875 19.76123046875 -31.541259765625
-14.30419921875 -6.46337890625 19.579345703125
21.714599609375 11.703369140625 -41.984619140625
-14.523681640625 -12.89208984375 32.653564453125
8.2587890625 29.69384765625 -29.14453125
30.5859375 30.443603515625 -21.376953125
-14.26953125 -7.36865234375 31.052978515625
-14.335205078125 19.029052734375 -3.342529296875
1.6337890625 10.608642578125 -28.39892578125
29.833984375 19.176513671875 -27.155517578125
-2.897705078125 11.4033203125 -46.569580078125
11.38037109375 28.40380859375 -28.872802734375
-14.361572265625 -8.471435546875 33.099365234375
-3.8408203125 -11.53369140625 47.257080078125
-14.26416015625 9.06298828125 18.445556640625
-14.69384765625 5.812744140625 10.04345703125
4.154052734375 33.943359375 -25.254150390625
-14.49462890625 1.4892578125 23.58056640625
-15.18798828125 -35.042236328125 54.149169921875
-14.25537109375 -9.947265625 20.604248046875
-5.34130859375 13.7041015625 -37.4814453125
28.265380859375 13.09423828125 -39.61474609375
19.017822265625 29.45361328125 -15.141845703125
-14.222412109375 -8.182861328125 38.298828125
10.402099609375 31.287841796875 -29.377197265625
7.62646484375 32.516845703125 -12.0546875
11.2353515625 20.8564453125 -31.97314453125
-4.63623046875 -9.030517578125 49.32470703125
15.447265625 27.30322265625 -28.421875
17.8662109375 31.51611328125 -13.513671875
-13.401123046875 35.579345703125 -23.175048828125
4.459228515625 30.783203125 -14.07666015625
-14.346923828125 -11.05224609375 22.6171875
-1.68701171875 13.33544921875 -43.97705078125
-20.99609375 35.75439453125 -19.45703125
24.43359375 7.58203125 -49.37744140625
-14.339111328125 32.457275390625 -28.83447265625
9.51806640625 31.81689453125 -13.382568359375
21.168212890625 8.570068359375 -37.844482421875
26.582763671875 9.8193359375 -47.760498046875
25.7373046875 30.747314453125 -13.702880859375
28.768798828125 31.193359375 -13.430908203125
14.5654296875 5.746826171875 -31.478759765625
-21.81787109375 -22.8798828125 51.98876953125
11.586181640625 30.927001953125 -17.04150390625
-21.116455078125 37.364013671875 -23.357177734375
-14.605224609375 5.616455078125 15.985107421875
-1.384521484375 -8.286376953125 50.640869140625
-14.872314453125 -18.4814453125 19.860107421875
-16.2001953125 -34.292236328125 48.554443359375
17.1162109375 28.327880859375 -29.842041015625
26.677978515625 10.44091796875 -31.297607421875
-26.040283203125 -22.520263671875 53.09423828125
29.275146484375 20.2109375 -25.88671875
1.520263671875 33.31103515625 -26.165771484375
10.76708984375 6.676025390625 -30.956787109375
-10.48095703125 14.578369140625 15.0693359375
-14.561767578125 4.379638671875 21.001220703125
-14.5263671875 -1.98974609375 6.420654296875
-14.281494140625 -7.472412109375 35.43310546875
5.9609375 11.23583984375 -39.845703125
-13.913818359375 2.92578125 -22.08203125
15.94091796875 1.787841796875 -45.25146484375
21.142578125 5.9599609375 -36.496826171875
23.792724609375 32.208984375 -23.079833984375
23.583740234375 13.10888671875 -43.458984375
23.2099609375 13.527587890625 -36.404296875
17.87060546875 32.70263671875 -29.455078125
12.39990234375 12.523193359375 -31.854736328125
3.9716796875 31.06103515625 -28.553466796875
12.199951171875 7.974609375 -30.0947265625
5.532470703125 35.215576171875 -24.41845703125
-14.5302734375 3.693115234375 26.318359375
-10.60205078125 7.23095703125 -30.21875
-14.68798828125 34.782470703125 -26.78955078125
7.14404296875 37.2421875 -25.67041015625
-16.130615234375 27.627685546875 -29.298095703125
-1.931396484375 14.531494140625 -24.590576171875
-14.41455078125 1.22265625 5.98828125
-13.837646484375 24.28564453125 -2.602783203125
19.456787109375 9.049560546875 -45.537109375
17.811279296875 11.17431640625 -32.706787109375
-14.215576171875 -6.399658203125 13.63134765625
30.71826171875 17.743896484375 -34.369140625
-11.132080078125 29.447509765625 -6.0283203125
-14.632568359375 9.0380859375 8.737060546875
-3.12451171875 -10.54541015625 48.529541015625
22.51416015625 7.3671875 -32.41748046875
9.23583984375 11.27587890625 -41.883056640625
7.56005859375 9.72607421875 -45.488037109375
-14.54638671875 7.32177734375 8.830322265625
36.661376953125 12.367431640625 -41.2685546875
-6.3779296875 32.543701171875 -24.874755859375
13.313232421875 30.425048828125 -15.659423828125
-9.36962890625 30.327880859375 -14.119140625
-7.66357421875 8.779052734375 -48.63427734375
12.022705078125 22.727783203125 -29.414794921875
12.334716796875 7.8330078125 -46.435791015625
3.59228515625 6.1005859375 -32.125732421875
-14.515869140625 11.60400390625 10.119384765625
8.8515625 22.5380859375 -30.53857421875
-14.315185546875 -3.542724609375 15.756591796875
-5.67919921875 -3.466064453125 54.31982421875
5.908935546875 30.4580078125 -16.41357421875
15.603759765625 30.44189453125 -14.65673828125
-5.518798828125 31.23876953125 -26.29150390625
-11.5830078125 30.88623046875 -11.70654296875
4.607421875 32.705078125 -11.715087890625
17.777099609375 31.65771484375 -10.31689453125
-14.052001953125 -0.78466796875 -19.219482421875
-14.4189453125 1.57080078125 15.9482421875
35.99853515625 14.572509765625 -38.202392578125
26.961669921875 18.6201171875 -26.49560546875
3.11328125 11.336181640625 -41.6953125
4.571044921875 8.912353515625 -45.5859375
-14.38916015625 -8.1806640625 23.483154296875
15.03857421875 38.28369140625 -23.9140625
-14.313232421875 -0.064697265625 9.716796875
34.95654296875 12.2626953125 -44.046630859375
31.854736328125 12.41455078125 -44.33837890625
-13.208984375 15.834228515625 -4.59716796875
16.001708984375 38.47216796875 -22.522216796875
-4.0830078125 29.459228515625 -15.6376953125
-14.507080078125 -8.47509765625 17.96240234375
-17.561767578125 34.998779296875 -27.203369140625
-3.06689453125 -6.641845703125 53.13037109375
-14.03759765625 0.795166015625 -17.579833984375
-14.5595703125 1.85498046875 9.107666015625
-55.455322265625 -10.14404296875 49.37646484375
1.700439453125 22.506103515625 -25.94384765625
-2.31298828125 30.88427734375 -13.53125
-12.84619140625 8.807861328125 -22.01513671875
-21.82568359375 -25.2646484375 51.86962890625
21.510009765625 10.89599609375 -36.236572265625
31.870361328125 20.302734375 -36.265625
30.228515625 13.949951171875 -38.950439453125
21.73095703125 9.129150390625 -34.59912109375
-14.22216796875 -2.098388671875 21.744384765625
4.89013671875 12.7646484375 -28.4951171875
22.275634765625 8.527099609375 -48.020263671875
-17.7138671875 -43.158203125 49.48828125
5.94189453125 8.6083984375 -29.713623046875
6.750244140625 38.630615234375 -22.955810546875
-12.66259765625 33.878662109375 -27.97509765625
23.386962890625 13.841064453125 -40.449462890625
-33.1298828125 -29.001953125 -2.492919921875
-13.260986328125 38.41015625 -26.14697265625
12.165771484375 38.277099609375 -25.43115234375
-4.218017578125 14.114990234375 -25.863037109375
23.643310546875 12.51904296875 -44.92529296875
-13.912109375 6.142822265625 -22.04931640625
25.126708984375 13.30322265625 -40.755615234375
-14.29296875 -6.197021484375 -12.26953125
-5.647216796875 11.83837890625 -27.677734375
-12.135986328125 19.691162109375 -27.970703125
-13.46484375 5.963623046875 25.11962890625
-14.281005859375 25.254150390625 -8.19970703125
-14.31689453125 15.766845703125 -42.731201171875
0.90673828125 31.48291015625 -13.609130859375
1.625 31.191650390625 -27.9931640625
1.37744140625 32.9580078125 -24.5478515625
18.98291015625 10.5419921875 -43.946044921875
31.049560546875 20.06494140625 -32.760986328125
9.731689453125 30.06884765625 -15.708984375
25.1962890625 15.448486328125 -31.09814453125
-14.55224609375 12.732177734375 8.96044921875
7.079833984375 16.960693359375 -30.90673828125
-14.053466796875 14.88818359375 11.806884765625
15.03857421875 9.489501953125 -45.388671875
-14.459228515625 -4.9052734375 8.920166015625
14.135009765625 33.30810546875 -12.1162109375
-2.596435546875 -4.846923828125 55.406005859375
32.74365234375 31.00927734375 -25.85205078125
0.7333984375 12.052978515625 -43.556884765625
-22.239501953125 36.93798828125 -21.250244140625
-14.264404296875 -1.091064453125 28.71240234375
-15.35693359375 30.916748046875 -29.11181640625
25.23828125 11.201904296875 -33.0166015625
-10.574462890625 -6.944091796875 70.5234375
-13.760986328125 27.8466796875 -9.931640625
-15.062255859375 28.6279296875 -30.03515625
-2.86767578125 32.425048828125 -11.287353515625
-26.442138671875 -31.716796875 -4.559326171875
-14.46923828125 -15.48046875 21.279052734375
27.5927734375 14.2470703125 -37.5810546875
17.642333984375 37.99072265625 -24.77490234375
-8.59130859375 11.241455078125 -47.796630859375
4.9794921875 37.22998046875 -22.68115234375
-14.27978515625 -0.2568359375 16.940673828125
-14.3017578125 21.619384765625 -4.029296875
-22.728271484375 35.40478515625 -18.682373046875
13.26611328125 35.320068359375 -25.645263671875
-0.881103515625 32.51806640625 -23.450439453125
33.051513671875 12.93798828125 -42.571044921875
14.16748046875 31.161865234375 -17.229248046875
8.12548828125 21.140625 -32.38330078125
-14.612060546875 -9.338623046875 12.218505859375
-5.743408203125 11.564208984375 -46.45849609375
-8.093017578125 12.80419921875 -45.307373046875
6.815185546875 34.030029296875 -26.962890625
-27.071044921875 -29.271240234375 -4.097900390625
-14.841064453125 -11.3984375 13.151123046875
23.773193359375 10.8154296875 -47.3525390625
4.404052734375 10.634765625 -44.40380859375
7.548095703125 9.722900390625 -28.772216796875
-16.015380859375 26.001708984375 -30.04248046875
16.517333984375 32.37451171875 -30.10693359375
-14.510986328125 -0.512451171875 13.987060546875
23.3212890625 8.740966796875 -32.525634765625
-4.192138671875 11.481201171875 -28.031005859375
-14.4951171875 -15.53759765625 23.881591796875
-19.120849609375 35.478515625 -28.106689453125
-14.240478515625 -6.4404296875 16.1826171875
-14.112548828125 -2.57177734375 -10.26318359375
-14.432373046875 20.155517578125 -1.248046875
27.87255859375 20.28759765625 -32.737060546875
-14.70751953125 0.451416015625 4.449951171875
2.153564453125 29.8251953125 -14.854248046875
-14.350830078125 12.487548828125 12.406982421875
-3.58056640625 32.4736328125 -24.527587890625
23.2041015625 12.427490234375 -42.204345703125
29.714599609375 6.962646484375 -48.9580078125
-5.957275390625 -8.827392578125 48.361572265625
-10.671142578125 -4.556640625 72.383056640625
24.831298828125 12.648193359375 -30.57470703125
-7.4248046875 13.552001953125 -26.136962890625
-4.506591796875 8.1162109375 -30.523193359375
-14.7724609375 -39.700927734375 51.662841796875
32.81640625 28.376708984375 -27.270263671875
22.108642578125 13.469482421875 -37.84912109375
-3.232177734375 -8.157470703125 50.41845703125
-12.22412109375 17.39599609375 9.162841796875
18.14453125 33.030517578125 -26.280029296875
20.790283203125 3.637939453125 -34.056396484375
-14.474365234375 15.374755859375 5.35693359375
-14.05615234375 -0.323974609375 -15.287841796875
0.32568359375 6.06103515625 -30.492919921875
-14.611572265625 -10.031005859375 36.556884765625
-14.568359375 -11.536865234375 27.443603515625
-15.009033203125 14.29248046875 -35.623046875
-6.71435546875 -8.678466796875 50.294677734375
-14.42041015625 -12.6826171875 22.208251953125
5.860107421875 27.32421875 -28.796875
-14.61279296875 -15.49658203125 26.435791015625
40.032470703125 13.081298828125 -39.863525390625
16.150634765625 36.29443359375 -25.1494140625
29.59716796875 12.8876953125 -43.3095703125
-2.08349609375 12.591552734375 -26.9697265625
19.20458984375 4.056640625 -32.472900390625
-5.96435546875 0.1904296875 57.931640625
-25.806884765625 -21.629638671875 54.223388671875
23.4482421875 6.38720703125 -49.752685546875
32.997802734375 14.1123046875 -37.556396484375
-26.80126953125 -24.074462890625 52.896728515625
-1.43310546875 32.004638671875 -25.0390625
-25.040771484375 -22.368896484375 52.048583984375
19.166748046875 6.22998046875 -30.505859375
-14.4677734375 -15.165771484375 29.4296875
14.96484375 30.76171875 -28.532470703125
3.074951171875 15.003173828125 -25.048583984375
-14.412841796875 2.870361328125 5.95166015625
-14.39111328125 -16.935302734375 27.80126953125
-14.0654296875 -5.343017578125 32.669189453125
4.32763671875 30.8564453125 -18.127197265625
-1.20556640625 28.322265625 -15.775146484375
7.19287109375 18.91455078125 -32.904296875
30.16845703125 18.762451171875 -33.496337890625
-18.99658203125 36.8486328125 -25.3486328125
14.635009765625 19.28759765625 -32.8115234375
24.546875 27.9208984375 -27.146240234375
-14.206298828125 8.7275390625 1.515869140625
-14.348388671875 -19.138671875 22.80615234375
-14.320556640625 7.78466796875 0.0947265625
-14.337646484375 -10.145263671875 30.571533203125
12.689697265625 31.008056640625 -13.948974609375
25.888671875 18.41650390625 -34.006103515625
-14.15283203125 -8.7412109375 14.310546875
31.087646484375 13.14453125 -41.425048828125
16.758544921875 30.41357421875 -15.966796875
2.020263671875 32.42529296875 -19.912109375
-12.916748046875 7.64990234375 23.08740234375
-14.62744140625 12.861572265625 4.779296875
27.66162109375 13.700927734375 -35.0224609375
-12.288818359375 5.330322265625 25.685302734375
17.22607421875 2.69921875 -45.15576171875
-4.994384765625 13.927734375 -43.681640625
-12.0009765625 6.445556640625 -26.815185546875
19.029296875 32.239990234375 -27.07568359375
29.469970703125 16.239013671875 -35.55126953125
7.78076171875 6.85888671875 -30.897705078125
3.014404296875 34.490478515625 -23.708740234375
-14.265625 0.20556640625 20.62744140625
-14.424072265625 15.89111328125 2.362060546875
-6.490478515625 1.271484375 58.72412109375
9.430908203125 19.9404296875 -32.200927734375
-7.593505859375 31.16162109375 -24.85498046875
25.935791015625 31.333740234375 -24.360107421875
21.176025390625 32.931640625 -24.70458984375
-14.573974609375 -10.036376953125 15.40185546875
-12.044921875 12.0537109375 -48.72705078125
-14.5263671875 -9.31884765625 28.52587890625
-14.9951171875 -33.931396484375 52.02880859375
15.243896484375 11.97412109375 -32.674072265625
4.59912109375 27.96337890625 -29.255126953125
4.5693359375 10.440673828125 -28.4482421875
1.44873046875 25.794921875 -27.958984375
-14.46875 -5.616943359375 37.412353515625
-14.40576171875 -7.306884765625 34.033203125
-14.44921875 2.65478515625 18.5810546875
32.927978515625 16.303955078125 -34.7783203125
-30.712646484375 -32.778564453125 -5.029052734375
-13.56591796875 6.892822265625 -23.734375
-12.325439453125 7.042236328125 24.306396484375
-15.02734375 35.605712890625 -23.224609375
-14.4892578125 -16.902587890625 29.943115234375
-14.397705078125 1.309814453125 27.510986328125
21.802490234375 5.374267578125 -31.338134765625
3.36767578125 12.632080078125 -26.833984375
6.865966796875 11.421875 -28.916259765625
21.318603515625 11.005126953125 -43.928955078125
-14.49560546875 7.864990234375 5.79150390625
-17.284912109375 33.74267578125 -29.510498046875
-1.276123046875 -4.992431640625 54.108642578125
35.182861328125 13.714599609375 -39.0205078125
15.39208984375 34.45947265625 -25.3076171875
-28.754638671875 -28.615966796875 -3.054931640625
27.72021484375 30.26611328125 -25.69482421875
-30.245849609375 -27.011962890625 -1.794921875
-14.545166015625 2.8291015625 14.705322265625
7.3154296875 13.619140625 -30.1025390625
21.269287109375 31.070556640625 -13.727294921875
-0.943359375 -9.292236328125 49.764892578125
28.67529296875 21.138671875 -31.92529296875
-17.310302734375 15.0205078125 -36.33935546875
30.475830078125 3.626953125 -49.7744140625
6.1630859375 31.27587890625 -13.743408203125
5.528564453125 7.41650390625 -30.350830078125
27.865966796875 15.594970703125 -35.3759765625
-14.390380859375 18.51171875 1.650146484375
27.58935546875 8.900634765625 -48.1708984375
34.891357421875 12.974853515625 -36.49072265625
-13.86962890625 -8.317138671875 -11.631103515625
-6.166259765625 32.4287109375 -11.00390625
-14.57080078125 13.40576171875 -0.267822265625
-14.015380859375 26.532470703125 -4.46728515625
7.985595703125 35.0146484375 -24.928955078125
-8.54248046875 9.408447265625 -28.626953125
-14.6396484375 8.405517578125 14.747314453125
-0.9853515625 13.680908203125 -39.20263671875
9.6103515625 26.954345703125 -29.3720703125
-6.06591796875 13.284912109375 -26.528564453125
26.89013671875 12.1787109375 -44.95703125
-14.298828125 10.999267578125 -0.35595703125
9.9541015625 11.14208984375 -29.71875
-14.644775390625 4.72607421875 7.032958984375
12.5185546875 9.755126953125 -45.1982421875
-14.381103515625 -2.203125 33.332275390625
