0.27734375 -5.79541015625 52.974609375
-8.70947265625 -43.092041015625 30.681396484375
2.80810546875 6.149658203125 -31.929931640625
4.198486328125 32.1376953125 -28.49365234375
-14.95458984375 -45.57421875 38.57177734375
32.974365234375 13.851806640625 -34.906982421875
31.15380859375 27.4697265625 -16.695068359375
-21.50146484375 -31.284912109375 -3.81982421875
-47.2958984375 -18.333984375 51.698974609375
13.229736328125 4.343505859375 -46.4072265625
-12.495361328125 21.921630859375 -25.888671875
21.63134765625 20.076171875 -23.75830078125
21.69677734375 5.943603515625 -41.82666015625
-7.964111328125 10.169189453125 -0.994384765625
-10.6279296875 -11.201171875 40.518798828125
-7.86962890625 -5.5078125 65.817626953125
-12.12060546875 -19.043701171875 57.33251953125
-35.075927734375 -19.22021484375 2.401123046875
15.4033203125 24.7861328125 -33.476806640625
-6.083984375 -10.892822265625 49.334716796875
-3.5126953125 1.017333984375 -52.747314453125
-27.38037109375 -20.40576171875 6.70654296875
-19.121337890625 17.553955078125 -21.915771484375
5.5185546875 -28.099365234375 25.671142578125
35.762451171875 26.038818359375 -26.40771484375
-15.73291015625 29.542724609375 -29.5703125
-7.582763671875 -22.51123046875 47.817626953125
17.669921875 27.481689453125 -25.157958984375
-6.140869140625 24.204345703125 -20.71728515625
1.244873046875 -19.381591796875 39.5888671875
30.69677734375 4.426025390625 -50.75537109375
-24.85546875 -47.885986328125 34.070068359375
-19.219970703125 -53.485595703125 39.4951171875
-10.9755859375 16.613525390625 2.96240234375
-17.5712890625 -22.113525390625 51.926513671875
2.462646484375 -37.41845703125 24.537353515625
-11.992919921875 7.35400390625 -40.948974609375
12.55126953125 28.115478515625 -16.605712890625
24.1513671875 17.8955078125 -31.113037109375
0.7333984375 -25.679443359375 34.72119140625
4.15283203125 3.27978515625 -41.78076171875
-12.3828125 20.017578125 -17.128173828125
-38.473388671875 -7.563720703125 9.96240234375
-5.521728515625 -16.67041015625 42.862060546875
38.24755859375 6.14794921875 -38.88623046875
13.407470703125 -2.979736328125 -40.766357421875
2.078857421875 25.812744140625 -24.060791015625
22.830078125 2.600341796875 -33.564453125
8.602294921875 28.03955078125 -33.236328125
14.29541015625 -31.366943359375 19.705078125
1.1982421875 26.205078125 -32.22509765625
-9.681396484375 15.412841796875 -24.9697265625
20.96044921875 -21.597412109375 0.329833984375
36.955810546875 6.29248046875 -46.935302734375
12.371337890625 18.10498046875 -34.5166015625
-1.062255859375 1.876220703125 -37.194580078125
27.279296875 11.80615234375 -38.671630859375
-6.8173828125 -16.841552734375 53.08984375
-14.478759765625 -30.237548828125 41.057861328125
28.8291015625 25.938720703125 -25.92822265625
-51.51953125 -15.0927734375 47.22216796875
-4.868408203125 -3.78369140625 57.088623046875
7.045654296875 14.185791015625 -36.13818359375
-5.3046875 6.044677734375 -48.539306640625
-9.925048828125 2.848388671875 -53.88232421875
26.022705078125 24.325439453125 -19.8671875
-27.683349609375 -32.368408203125 -1.527587890625
15.99609375 -17.72021484375 6.641357421875
6.354736328125 27.056396484375 -18.39013671875
25.446533203125 6.546142578125 -47.1396484375
-11.16259765625 2.305419921875 -36.665283203125
-20.478271484375 -27.793212890625 50.898193359375
10.7626953125 -23.41796875 27.075439453125
-12.17626953125 8.352294921875 14.9462890625
-46.010986328125 -23.130615234375 45.477783203125
32.133056640625 21.914306640625 -31.92138671875
-10.96044921875 26.554443359375 -32.4736328125
-13.667236328125 -40.781494140625 34.66650390625
-23.22900390625 -25.571533203125 1.45458984375
16.660400390625 2.3056640625 -41.532470703125
15.401123046875 24.13525390625 -20.531494140625
9.99267578125 29.561279296875 -26.416748046875
37.971435546875 29.250732421875 -31.000732421875
10.193603515625 2.77880859375 -41.45166015625
-14.41064453125 -34.403564453125 48.791259765625
28.25732421875 13.5009765625 -31.2275390625
-14.558837890625 -39.97705078125 40.65673828125
-13.849609375 23.2080078125 -9.642578125
-6.4013671875 23.0009765625 -26.440673828125
-21.048583984375 30.424560546875 -27.282470703125
-18.674072265625 -47.40771484375 34.45361328125
8.705322265625 2.39013671875 -49.840087890625
-17.106689453125 -44.587890625 48.541748046875
-13.211669921875 -22.856201171875 46.55078125
9.5068359375 -28.644775390625 21.450927734375
-12.25341796875 -10.74560546875 46.299560546875
-12.98828125 -45.98388671875 27.616455078125
-10.7724609375 -9.2841796875 62.427978515625
-43.4306640625 -22.4189453125 50.877685546875
-0.32373046875 -9.9931640625 49.20947265625
4.451904296875 -28.227783203125 31.297607421875
7.666015625 2.373779296875 -34.944580078125
1.1572265625 7.050537109375 -44.73193359375
-6.93603515625 -0.000732421875 65.387939453125
-26.749755859375 -50.1533203125 41.53564453125
19.293701171875 3.80322265625 -46.490478515625
19.620849609375 -13.838623046875 9.062744140625
34.795166015625 9.38134765625 -32.20654296875
33.923583984375 9.758056640625 -38.644775390625
-19.142333984375 -23.7216796875 56.95849609375
32.843994140625 23.685791015625 -20.26416015625
-6.478271484375 24.699951171875 -15.315673828125
26.31103515625 17.387939453125 -24.36181640625
24.9013671875 5.784423828125 -37.44580078125
-6.3974609375 -6.43896484375 52.614990234375
8.88330078125 -6.9599609375 -38.006591796875
-11.557861328125 -23.656005859375 61.769287109375
-2.426513671875 7.046630859375 -31.12548828125
23.826904296875 -17.17822265625 -0.645263671875
17.20458984375 29.244384765625 -30.34716796875
-36.452880859375 -14.8837890625 5.17724609375
9.072265625 32.79638671875 -30.910888671875
-10.687744140625 -2.6572265625 69.294677734375
21.346923828125 1.2890625 -39.123779296875
-18.42578125 27.3916015625 -33.58642578125
-7.21728515625 -16.1435546875 47.840576171875
-8.89453125 19.855712890625 -22.23388671875
0.80078125 21.03857421875 -33.77978515625
-12.459716796875 -6.41748046875 39.185791015625
-10.337158203125 26.53515625 -27.0810546875
22.635986328125 26.07080078125 -25.86962890625
-13.074462890625 -19.41357421875 52.275146484375
2.85888671875 -32.4658203125 26.365234375
-31.327880859375 -16.81103515625 4.99560546875
-11.172607421875 -14.341064453125 59.73583984375
18.24462890625 -22.156982421875 4.666748046875
-1.272216796875 22.7822265625 -21.4111328125
-8.125732421875 7.697265625 -44.601806640625
-2.98095703125 -13.091796875 46.003173828125
-23.352783203125 -49.157958984375 29.426513671875
-16.596435546875 25.03271484375 -24.9482421875
-6.71484375 3.8505859375 -38.433837890625
29.071044921875 25.744384765625 -31.000732421875
-48.18603515625 -18.8515625 46.737060546875
15.902587890625 2.2041015625 -49.970458984375
-14.843017578125 -45.13134765625 32.3203125
-1.063720703125 5.396484375 -50.9775390625
-15.016845703125 -49.358642578125 47.243896484375
-5.181396484375 17.910400390625 -25.629638671875
-2.94580078125 -28.40673828125 33.0244140625
25.509765625 14.78857421875 -35.2626953125
20.53515625 23.521240234375 -20.522705078125
-19.751220703125 22.478515625 -22.36083984375
26.5712890625 7.62939453125 -41.6044921875
-10.315185546875 -8.470947265625 35.408935546875
-6.493408203125 -3.462158203125 61.596435546875
-1.17041015625 26.66162109375 -27.587158203125
7.230224609375 3.623779296875 -45.4609375
2.8310546875 1.828369140625 -34.43310546875
-0.3935546875 -16.33056640625 43.261962890625
25.573486328125 28.132568359375 -16.716796875
33.82861328125 26.23388671875 -30.709228515625
-23.922607421875 -24.552978515625 51.073486328125
-10.928466796875 24.477294921875 -17.5888671875
-4.884033203125 28.2119140625 -18.017333984375
-50.91259765625 -15.295654296875 51.876708984375
10.6513671875 -34.525390625 15.830078125
9.206787109375 -24.9716796875 31.19482421875
-1.5302734375 -22.15771484375 37.0869140625
-16.564453125 -49.881591796875 37.988037109375
-12.083740234375 15.843994140625 -20.65185546875
-13.732666015625 17.13037109375 -1.0556640625
-14.519775390625 -22.906005859375 58.1279296875
-10.575439453125 -19.214111328125 62.522705078125
0.250732421875 5.2626953125 -40.23095703125
-19.707275390625 -28.069091796875 58.302978515625
-16.265625 6.732177734375 -39.255615234375
-9.512451171875 -14.708251953125 43.725341796875
14.959228515625 -5.95751953125 -37.75634765625
-36.8662109375 -11.091796875 7.5673828125
5.115478515625 28.567138671875 -25.888427734375
32.496337890625 5.775634765625 -46.82861328125
-10.62353515625 -15.35302734375 55.2880859375
12.9208984375 28.536376953125 -32.171630859375
5.607177734375 24.0458984375 -21.59912109375
26.334716796875 3.5419921875 -51.437255859375
-13.684326171875 8.3876953125 -44.934814453125
-9.483642578125 -42.961181640625 35.056640625
5.805908203125 -30.966552734375 22.236572265625
-13.076416015625 -2.40283203125 30.576904296875
-3.16748046875 -19.172119140625 39.947021484375
35.984130859375 7.1728515625 -42.538818359375
-25.0810546875 -28.83203125 -1.10693359375
39.1533203125 4.2958984375 -43.6416015625
19.3359375 25.427001953125 -31.629638671875
17.800048828125 -2.173095703125 -40.88623046875
2.247314453125 25.904296875 -19.40576171875
-25.70556640625 -22.41015625 3.18017578125
17.8330078125 -24.33251953125 -1.02783203125
-18.291015625 13.295654296875 -21.5341796875
-13.87646484375 -31.91162109375 45.271728515625
14.2958984375 29.897705078125 -26.882080078125
-4.504150390625 5.2197265625 -34.959716796875
25.17041015625 22.568603515625 -25.593505859375
16.72412109375 27.607177734375 -18.1484375
-7.109375 -20.416748046875 41.430908203125
29.445068359375 15.201904296875 -36.937255859375
28.263916015625 19.084716796875 -31.2587890625
-13.897216796875 -27.11767578125 43.9296875
4.851318359375 28.653564453125 -31.3017578125
27.596923828125 20.943115234375 -21.92578125
4.27783203125 -22.87646484375 34.24755859375
20.43896484375 -0.48974609375 -35.34375
-14.644775390625 -53.360107421875 41.28369140625
31.848876953125 22.364990234375 -25.651611328125
-19.04248046875 -33.298583984375 51.14501953125
-52.637451171875 -16.347412109375 43.273193359375
-9.192626953125 -19.5224609375 50.629150390625
-31.243896484375 -20.86083984375 3.008544921875
-0.6875 3.854248046875 -33.318115234375
32.3564453125 12.67138671875 -30.818603515625
-12.57861328125 14.162109375 6.08251953125
-21.36865234375 -22.311767578125 53.63916015625
-2.03076171875 22.022705078125 -26.018310546875
5.400390625 -36.302490234375 16.52490234375
39.04345703125 4.539794921875 -35.150146484375
-6.82861328125 -8.045654296875 62.626220703125
-6.512939453125 -11.855224609375 53.327880859375
-8.62158203125 5.738525390625 -51.239990234375
8.784423828125 -25.91552734375 24.46826171875
14.01904296875 15.385498046875 -37.11328125
10.318603515625 25.991455078125 -19.489990234375
-17.331787109375 -25.035888671875 49.087158203125
5.250732421875 -35.024169921875 22.426513671875
22.334228515625 -22.231689453125 -3.4296875
-4.810546875 20.98828125 -22.771728515625
-12.5771484375 -42.020263671875 30.9326171875
35.697265625 7.6728515625 -35.720458984375
13.052490234375 26.813232421875 -24.65869140625
41.5 4.144287109375 -40.4326171875
6.1630859375 -25.460205078125 28.686279296875
-10.755615234375 22.6201171875 -7.248779296875
-3.14599609375 25.961181640625 -32.148193359375
-22.8994140625 29.04736328125 -24.080078125
-2.211181640625 -1.119140625 58.20849609375
-55.173828125 -13.699462890625 47.328369140625
10.835205078125 -24.906005859375 17.44873046875
-11.68505859375 -5.501220703125 66.59716796875
34.8974609375 17.80029296875 -24.493408203125
-2.66796875 -7.6455078125 51.229248046875
-21.6533203125 -46.601806640625 32.10205078125
21.885986328125 5.72705078125 -48.6376953125
26.145263671875 27.318603515625 -28.358154296875
-16.5576171875 28.833740234375 -25.666015625
0.728271484375 -29.03564453125 31.85205078125
-1.90234375 26.25341796875 -19.40087890625
-19.388427734375 29.70166015625 -30.6845703125
4.911865234375 25.755859375 -33.791259765625
35.63623046875 22.15869140625 -26.0712890625
-11.431640625 -16.048583984375 51.601806640625
-14.6669921875 20.082275390625 -23.365234375
29.00390625 7.3232421875 -46.04052734375
-14.53466796875 -47.61328125 35.38916015625
-6.75244140625 -19.59326171875 45.54296875
2.354248046875 28.05859375 -28.51904296875
20.2568359375 -19.035400390625 3.834228515625
15.923583984375 -14.560791015625 8.74853515625
-11.401123046875 -32.072998046875 39.247802734375
-2.372314453125 6.279541015625 -45.822509765625
-8.060791015625 6.650146484375 -40.575439453125
-14.40283203125 -37.72900390625 36.758544921875
-16.840576171875 -21.10107421875 55.575439453125
-10.6650390625 -38.59130859375 35.17822265625
11.049560546875 13.323974609375 -36.139404296875
-39.197021484375 -4.218994140625 12.35009765625
30.054443359375 9.77783203125 -40.187255859375
19.630126953125 -25.362060546875 2.077880859375
10.80859375 -31.7998046875 18.469482421875
7.728271484375 32.4951171875 -27.4130859375
9.3623046875 -1.855712890625 -37.521484375
11.676025390625 32.67431640625 -27.474365234375
-12.5185546875 -8.780029296875 42.5576171875
-6.786376953125 0.37109375 61.14306640625
19.783447265625 24.013427734375 -24.09130859375
-2.886474609375 3.347412109375 -40.065185546875
24.1396484375 6.0166015625 -33.82568359375
2.650146484375 -28.574462890625 27.89697265625
-13.0869140625 15.634765625 -16.68212890625
-1.511474609375 -3.8017578125 55.46142578125
1.39599609375 21.766357421875 -23.6904296875
-7.2685546875 26.308837890625 -32.119384765625
-14.68896484375 -21.80078125 49.75244140625
-14.813720703125 28.678466796875 -32.964111328125
12.25732421875 3.04248046875 -49.93701171875
16.249267578125 4.353759765625 -44.455810546875
8.9833984375 17.114990234375 -35.18505859375
31.64208984375 12.50048828125 -38.38525390625
29.537841796875 24.869384765625 -19.560302734375
25.01318359375 10.303466796875 -36.142578125
-10.25830078125 17.808837890625 -0.76025390625
-45.956298828125 -21.015869140625 48.4521484375
-8.0498046875 26.724853515625 -18.61474609375
19.601806640625 26.257080078125 -28.191162109375
-6.072998046875 2.3759765625 -33.53759765625
32.322509765625 26.318603515625 -27.175537109375
3.8291015625 5.047607421875 -45.872314453125
-4.57763671875 26.115234375 -26.7265625
-10.805419921875 -42.353759765625 27.9208984375
-11.512939453125 -21.822021484375 64.808349609375
-13.036376953125 5.6875 -38.050537109375
-7.240234375 -14.966064453125 56.095458984375
-48.359375 -22.537109375 42.803955078125
3.51123046875 28.494384765625 -16.956787109375
23.809326171875 22.293701171875 -21.618896484375
-12.44580078125 23.22607421875 -14.7236328125
-9.610107421875 5.3671875 -37.287109375
-10.975341796875 24.13330078125 -11.325439453125
-8.5439453125 7.253662109375 -48.137451171875
-7.468994140625 -2.19287109375 67.98193359375
13.34521484375 3.233642578125 -42.7373046875
-4.41650390625 4.14697265625 -51.257568359375
-17.13720703125 -28.97119140625 49.869384765625
-12.6865234375 27.37646484375 -29.4345703125
9.269287109375 12.12890625 -38.8076171875
-10.213623046875 21.860595703125 -19.67431640625
23.031982421875 25.838134765625 -19.202392578125
-9.840087890625 -11.397216796875 37.201416015625
2.270751953125 -31.54345703125 29.681884765625
-6.175537109375 -14.08349609375 45.32373046875
22.703125 6.24853515625 -45.07080078125
0.737548828125 6.605224609375 -48.281494140625
19.671142578125 3.188232421875 -42.8427734375
-21.2880859375 -49.427734375 35.228271484375
-53.438232421875 -13.550048828125 50.236328125
10.53515625 -23.146240234375 23.603515625
-20.1044921875 -24.17919921875 51.03515625
-2.51025390625 -25.02734375 35.449951171875
7.827392578125 26.689697265625 -24.59033203125
11.368408203125 26.862060546875 -34.737060546875
-49.4169921875 -16.729248046875 49.246826171875
18.053955078125 -12.700439453125 11.8525390625
-35.56640625 -9.173095703125 10.18310546875
34.506591796875 23.0078125 -34.001953125
9.94873046875 20.373046875 -34.643310546875
-15.5126953125 -43.13916015625 40.78173828125
-13.579345703125 -44.4111328125 35.287841796875
-22.674560546875 -25.1904296875 57.228271484375
-43.922607421875 -24.421630859375 48.29736328125
27.91845703125 5.2900390625 -49.13232421875
25.122314453125 12.84326171875 -31.93310546875
-13.953857421875 21.19189453125 -7.0625
-11.08544921875 9.921875 12.293701171875
-6.727783203125 -14.426513671875 50.893798828125
19.447998046875 -16.273681640625 6.439208984375
10.0224609375 3.82177734375 -47.12451171875
15.906005859375 24.6123046875 -23.7119140625
-14.939697265625 27.38623046875 -35.937744140625
40.66552734375 4.43505859375 -46.505859375
-8.94677734375 27.42822265625 -15.580322265625
-24.740478515625 -32.12451171875 -2.8515625
-11.821533203125 19.09521484375 -20.17578125
28.660888671875 22.1064453125 -25.198974609375
-12.36181640625 -20.98486328125 59.887451171875
-28.648193359375 -19.139892578125 4.03466796875
9.365966796875 27.907470703125 -16.946533203125
1.0 -35.2353515625 26.369873046875
19.31982421875 2.116455078125 -49.6298828125
-12.531494140625 11.80224609375 -21.061279296875
8.428955078125 -22.24462890625 32.87109375
13.468017578125 26.330078125 -19.162353515625
-14.612060546875 -41.89794921875 37.48779296875
-28.548828125 -28.76904296875 -0.6708984375
5.44921875 0.111328125 -35.161376953125
21.23095703125 19.050048828125 -31.557861328125
-17.8466796875 -45.772705078125 31.5361328125
25.139892578125 9.552734375 -39.294677734375
-9.173828125 -45.063232421875 27.91796875
33.712158203125 21.202392578125 -22.012451171875
12.11376953125 32.0869140625 -31.278564453125
-25.517822265625 -47.446044921875 30.907958984375
-3.594482421875 -5.640869140625 53.736083984375
-14.17578125 -33.344970703125 38.593505859375
36.396240234375 26.828125 -32.353271484375
-12.869384765625 -19.16015625 47.962646484375
-11.165771484375 -17.43408203125 59.986083984375
-15.634765625 -45.940185546875 29.366455078125
-3.14599609375 -10.798095703125 48.079345703125
-10.27197265625 -11.385498046875 59.9462890625
25.043701171875 3.2548828125 -35.665771484375
22.189697265625 3.886962890625 -37.68408203125
5.886962890625 3.537841796875 -48.235595703125
-22.14794921875 -28.544189453125 -2.005615234375
-11.916259765625 -13.244873046875 48.064697265625
-10.320068359375 -15.95361328125 47.349853515625
30.038330078125 14.024169921875 -33.68212890625
16.942626953125 27.388427734375 -32.913818359375
36.368896484375 27.28515625 -29.260986328125
-10.427001953125 -11.454833984375 43.931640625
1.788330078125 23.384521484375 -21.108154296875
-30.684326171875 -15.608154296875 7.7470703125
-9.090576171875 27.31201171875 -29.85986328125
-14.990966796875 -43.800537109375 50.617919921875
-14.81396484375 6.96533203125 -42.46484375
1.575927734375 -23.771728515625 36.9658203125
-9.54443359375 18.998291015625 -4.465087890625
18.958740234375 25.79443359375 -19.160400390625
-26.08203125 -26.344970703125 0.7177734375
0.972900390625 23.97607421875 -26.220458984375
21.73291015625 -18.532958984375 1.22265625
-5.100341796875 5.9013671875 -44.56103515625
30.543701171875 21.99609375 -21.26416015625
-5.11376953125 -1.26025390625 59.03466796875
-50.330078125 -17.008056640625 45.09619140625
-12.056884765625 -26.558349609375 62.39794921875
6.16748046875 18.17333984375 -35.218017578125
34.874267578125 7.10791015625 -39.698974609375
-33.21337890625 -14.204345703125 5.906494140625
12.53271484375 25.177490234375 -21.775146484375
10.42236328125 -26.052001953125 20.194580078125
0.21337890625 -12.057373046875 47.095947265625
-19.677978515625 28.707763671875 -25.236083984375
7.14404296875 3.07958984375 -41.81982421875
-10.584716796875 17.341796875 -22.771240234375
-14.6328125 -25.53759765625 47.4912109375
1.8798828125 23.904052734375 -34.00244140625
8.259765625 -30.61083984375 19.590087890625
-7.85107421875 -10.611572265625 61.498779296875
-13.6103515625 15.72216796875 1.8984375
22.86767578125 0.9443359375 -36.288330078125
6.0888671875 -24.83544921875 31.589599609375
28.306640625 27.209228515625 -18.21142578125
25.080078125 19.78369140625 -22.978759765625
16.223388671875 4.018798828125 -47.649658203125
20.60205078125 -1.574951171875 -40.15478515625
-34.24755859375 -17.074462890625 4.623779296875
-14.16015625 -19.796630859375 55.331787109375
-10.987060546875 7.488525390625 -45.728271484375
26.411376953125 6.56201171875 -44.35009765625
-10.14208984375 -6.71875 64.38134765625
11.5419921875 -6.08984375 -38.920166015625
-11.544921875 -29.69873046875 40.9775390625
24.83935546875 5.545166015625 -49.88818359375
-7.31103515625 27.091064453125 -27.163818359375
-15.3388671875 -49.031494140625 40.510009765625
-7.90576171875 17.6728515625 -24.400390625
23.26025390625 -19.624755859375 -2.4658203125
6.970703125 30.77099609375 -30.72412109375
-3.9599609375 1.7529296875 -37.54345703125
10.880615234375 4.1181640625 -44.348876953125
-18.31103515625 29.0908203125 -27.968994140625
23.08544921875 26.716796875 -28.661376953125
-12.246337890625 14.674072265625 -23.300537109375
-1.173583984375 6.8271484375 -42.68994140625
16.13916015625 -16.245361328125 11.09033203125
-8.217041015625 -17.724365234375 43.892333984375
14.41455078125 30.253173828125 -30.39208984375
1.849365234375 2.913330078125 -39.71533203125
34.597412109375 6.066162109375 -44.868896484375
36.66015625 5.00146484375 -36.766357421875
7.075439453125 -27.7412109375 23.0322265625
3.804931640625 -25.5703125 35.1474609375
23.92431640625 6.967529296875 -40.318115234375
0.502197265625 -8.1640625 51.37060546875
28.73193359375 18.7841796875 -23.71923828125
-4.700439453125 4.8779296875 -32.133056640625
-1.006103515625 -0.284912109375 -52.346435546875
-17.04345703125 -24.84765625 58.51220703125
2.36572265625 -16.75048828125 43.789794921875
-14.0341796875 28.225341796875 -26.79541015625
10.69482421875 -28.52197265625 18.845947265625
-1.447265625 2.60888671875 -51.252685546875
4.8720703125 25.868408203125 -24.48486328125
-2.811767578125 -15.357177734375 44.328857421875
37.773681640625 2.44287109375 -33.766357421875
2.353515625 -26.932373046875 32.793701171875
-7.277587890625 -18.89990234375 48.388427734375
-14.8037109375 3.378173828125 -37.07861328125
-12.299560546875 -17.27880859375 53.97265625
-28.91650390625 -50.7314453125 39.8525390625
-3.8232421875 -21.585693359375 38.679931640625
8.4248046875 24.22216796875 -20.86279296875
-15.205322265625 -21.060546875 53.0185546875
-9.35498046875 -13.380859375 57.8525390625
-2.783203125 -17.2216796875 42.137939453125
32.031005859375 25.9755859375 -18.90625
-15.834716796875 -32.600341796875 47.12451171875
-10.854736328125 -41.480712890625 33.0419921875
22.133056640625 23.0478515625 -25.208251953125
-20.343017578125 -48.56005859375 29.77880859375
-39.292236328125 -5.196044921875 14.944580078125
-16.4052734375 -45.718994140625 34.61767578125
5.1357421875 -31.288818359375 25.3154296875
-7.36328125 -2.974365234375 64.819580078125
-1.786376953125 20.4150390625 -22.75146484375
-13.9365234375 -24.718017578125 60.677001953125
0.017578125 5.82666015625 -31.46728515625
-0.59814453125 25.18310546875 -15.8037109375
-17.151123046875 29.95556640625 -32.262939453125
33.4384765625 11.734375 -33.163818359375
21.533935546875 3.62548828125 -44.912353515625
4.326171875 -34.586181640625 24.967529296875
8.089111328125 -24.7822265625 26.862060546875
2.084228515625 28.010498046875 -25.8056640625
-0.85546875 26.580078125 -30.292724609375
17.1318359375 29.7861328125 -27.679931640625
-48.34228515625 -20.40576171875 44.50927734375
21.96630859375 2.8671875 -41.249755859375
-25.1416015625 -22.9287109375 52.87109375
-7.75146484375 -16.94921875 50.5478515625
-11.6435546875 26.9912109375 -16.286865234375
26.19482421875 25.3134765625 -25.843994140625
-53.78857421875 -14.630615234375 45.02099609375
-15.702392578125 -45.79248046875 41.258056640625
6.762939453125 23.78125 -34.450927734375
1.434814453125 4.114990234375 -50.57373046875
8.068603515625 -34.739990234375 16.732177734375
-13.41455078125 -6.381103515625 36.675048828125
-5.380859375 -12.130126953125 47.058837890625
-9.70263671875 -17.37158203125 53.168701171875
-8.01806640625 22.384033203125 -21.3056640625
2.670166015625 5.081298828125 -43.457275390625
-29.3076171875 -17.8935546875 6.381103515625
-6.196533203125 -8.8076171875 51.011474609375
40.39453125 5.147705078125 -37.642333984375
30.530517578125 6.262939453125 -48.824951171875
-33.89599609375 -11.038330078125 8.79052734375
-11.5771484375 -16.27587890625 57.599365234375
8.076416015625 -4.435791015625 -37.744140625
-0.568115234375 -14.013671875 45.3583984375
7.072021484375 24.21533203125 -23.9716796875
26.863037109375 14.206787109375 -37.62646484375
31.441162109375 24.824462890625 -31.74267578125
32.255126953125 8.347900390625 -40.53662109375
-0.052734375 23.88818359375 -32.03271484375
-6.8515625 -20.140869140625 38.8232421875
13.67431640625 -24.989990234375 21.322998046875
-17.546875 28.134033203125 -35.951171875
-13.08740234375 -11.154541015625 43.85107421875
17.692138671875 24.435546875 -21.7578125
25.145263671875 7.686767578125 -35.565673828125
20.443359375 -24.098388671875 -0.216552734375
3.087890625 21.33837890625 -35.00390625
-25.96923828125 -22.598388671875 6.570556640625
-6.252685546875 7.218994140625 -42.625
29.91015625 26.037841796875 -28.29736328125
-3.503662109375 26.173095703125 -29.453125
27.251708984375 13.6591796875 -33.61669921875
2.114990234375 28.426513671875 -31.248291015625
-44.66162109375 -25.301513671875 45.908935546875
0.387451171875 -32.95703125 27.740234375
38.62158203125 5.926025390625 -41.704833984375
1.005859375 0.517822265625 -37.9453125
-13.98486328125 -31.11962890625 48.15478515625
-4.11376953125 -23.783203125 37.364501953125
-12.615478515625 -43.814208984375 29.030029296875
8.05859375 -0.251708984375 -35.985107421875
-3.8203125 23.155029296875 -21.42041015625
7.134765625 33.95703125 -29.4462890625
10.570556640625 29.526611328125 -31.830078125
-1.606689453125 -30.22412109375 31.179931640625
41.759033203125 3.176513671875 -42.8134765625
-13.426513671875 24.1591796875 -12.090087890625
-1.0546875 -20.5 39.35302734375
-15.617431640625 -54.615234375 43.294189453125
2.252685546875 3.837890625 -32.95703125
7.35986328125 -36.62451171875 18.3125
5.954833984375 30.665771484375 -27.23681640625
-35.229736328125 -12.776123046875 6.55078125
-13.93798828125 -35.88720703125 38.614990234375
-9.953369140625 -44.97802734375 31.86962890625
-0.355224609375 -18.15771484375 41.4814453125
-19.28515625 -21.755859375 55.257568359375
16.822265625 22.9521484375 -34.53369140625
4.750244140625 25.627197265625 -19.791748046875
-13.291259765625 20.653564453125 -14.837646484375
-2.01904296875 28.08935546875 -17.64306640625
-7.52490234375 3.22265625 -53.1494140625
-9.668212890625 7.617919921875 -42.5888671875
-45.630859375 -20.220458984375 50.833984375
-5.49658203125 -18.496826171875 41.08251953125
-10.80322265625 4.666748046875 -51.94677734375
19.189453125 1.10009765625 -41.505126953125
-0.572265625 -27.426025390625 33.296875
20.150146484375 26.216552734375 -25.4638671875
-13.404052734375 -36.34228515625 50.052490234375
29.044677734375 6.376708984375 -43.58251953125
3.3994140625 29.922119140625 -27.1435546875
24.932373046875 12.75927734375 -36.705810546875
22.758544921875 -16.302001953125 1.785888671875
-2.904296875 18.6318359375 -24.14794921875
-9.341552734375 24.292236328125 -19.5283203125
37.588134765625 6.052001953125 -44.517578125
9.31640625 14.6259765625 -37.38671875
-6.43212890625 26.984130859375 -16.329833984375
34.45263671875 25.39892578125 -33.00146484375
-21.931640625 -23.176513671875 55.953857421875
-18.56787109375 26.398681640625 -24.275146484375
-12.56005859375 -36.454833984375 35.6728515625
-47.213134765625 -19.05029296875 49.314697265625
19.88916015625 -22.072265625 2.520751953125
-38.2333984375 -6.507568359375 12.27099609375
-25.1767578125 -25.737060546875 56.455078125
21.590087890625 26.1015625 -30.542236328125
-14.510498046875 -51.85498046875 43.248779296875
26.618408203125 25.677490234375 -31.354248046875
10.582763671875 26.917236328125 -24.640869140625
2.51513671875 -34.052978515625 28.358154296875
-22.32177734375 -47.20068359375 34.405029296875
15.34130859375 28.30810546875 -25.205078125
23.407470703125 28.315185546875 -17.888671875
-6.197265625 5.848388671875 -51.689208984375
20.0205078125 -0.81689453125 -37.75390625
10.5234375 -4.140625 -37.80126953125
-3.186279296875 5.720947265625 -49.757080078125
-6.647705078125 -1.2744140625 63.185546875
24.86376953125 12.108154296875 -34.268798828125
-4.607421875 25.85546875 -19.72509765625
29.65771484375 11.140625 -37.8671875
-9.1015625 -3.968505859375 67.537109375
-11.75146484375 -4.948486328125 68.984619140625
-12.29052734375 -39.455810546875 33.133056640625
32.872802734375 5.59619140625 -49.239990234375
-16.97802734375 -48.546142578125 35.981201171875
17.328369140625 -25.205322265625 1.21435546875
9.7080078125 33.557861328125 -28.677978515625
0.923583984375 -21.41259765625 38.25
0.2109375 27.275146484375 -18.74462890625
9.336181640625 -25.710205078125 28.737548828125
28.9873046875 7.923583984375 -41.66162109375
0.08642578125 25.009765625 -20.076904296875
24.24853515625 6.929443359375 -42.728515625
12.392578125 28.48046875 -26.35107421875
-6.0302734375 5.360595703125 -40.931396484375
-8.976318359375 -17.7666015625 46.4453125
6.526123046875 1.428955078125 -49.3544921875
-51.160400390625 -14.460693359375 49.60888671875
7.141845703125 26.224853515625 -34.631591796875
-26.210205078125 -20.244873046875 4.585693359375
-11.796630859375 18.644287109375 -2.439208984375
20.670166015625 21.779052734375 -22.326416015625
27.489990234375 9.902099609375 -40.153564453125
-7.439697265625 -5.839111328125 63.37939453125
-12.401611328125 7.034423828125 -43.302490234375
18.078369140625 -24.472900390625 3.683349609375
10.392578125 -25.628173828125 22.706787109375
-23.826416015625 -26.876220703125 -0.49853515625
-6.603759765625 -13.659423828125 48.621337890625
-14.80908203125 -47.922607421875 38.098876953125
-3.900634765625 -9.45849609375 49.906982421875
11.499267578125 -21.760498046875 25.523193359375
-32.138427734375 -18.82763671875 4.008056640625
14.562255859375 27.190185546875 -33.254638671875
5.0888671875 3.99365234375 -43.84033203125
34.913818359375 5.9443359375 -48.087890625
-15.540283203125 -51.87060546875 39.676025390625
28.189208984375 15.4677734375 -34.951904296875
2.489501953125 -29.2236328125 30.162109375
11.667724609375 16.3759765625 -35.961181640625
-5.612548828125 2.23681640625 61.981689453125
6.389404296875 -33.026611328125 21.253173828125
-6.691162109375 -16.7880859375 45.423583984375
14.83251953125 28.49462890625 -17.05322265625
3.42138671875 24.365234375 -22.7763671875
-12.591552734375 17.88134765625 -18.09033203125
31.862548828125 14.326171875 -36.914794921875
-11.561767578125 12.30126953125 7.538330078125
-11.972900390625 16.90234375 0.5498046875
14.240478515625 3.53076171875 -48.793212890625
-13.1220703125 27.196533203125 -31.723388671875
-12.611083984375 -18.20751953125 50.3291015625
-12.3310546875 -14.582763671875 50.021728515625
28.0087890625 23.32861328125 -20.5771484375
26.0048828125 26.746337890625 -18.5361328125
30.28759765625 25.551513671875 -15.703857421875
-42.493408203125 -24.795166015625 50.0888671875
-10.352783203125 6.204833984375 -39.318603515625
-12.698974609375 8.947265625 -46.954833984375
-36.021240234375 -18.547607421875 4.40380859375
7.9443359375 28.494384765625 -26.30126953125
13.561767578125 24.32275390625 -23.66064453125
-13.931396484375 7.1201171875 -39.713623046875
5.562255859375 -32.957763671875 23.4111328125
17.0849609375 -15.6923828125 6.791015625
-13.573974609375 -51.544189453125 46.324462890625
1.05322265625 6.390625 -42.304931640625
-5.9306640625 19.25048828125 -23.77734375
-46.861572265625 -21.0771484375 46.34130859375
3.296875 27.104736328125 -32.707763671875
4.753173828125 -28.1005859375 28.687744140625
-12.93994140625 -25.609619140625 45.369873046875
-13.650390625 -38.568115234375 39.09521484375
9.99609375 -23.506591796875 29.232421875
0.920654296875 20.48974609375 -25.529541015625
15.19921875 31.775146484375 -27.824951171875
31.0068359375 6.57177734375 -45.234375
-13.501953125 -46.188232421875 36.918212890625
-12.7421875 14.126953125 -19.2998046875
-16.371337890625 -23.536865234375 50.51318359375
12.404052734375 -25.44189453125 19.244384765625
-24.906982421875 -24.05029296875 1.697509765625
-0.56103515625 -24.086181640625 36.15185546875
-23.4873046875 -30.238525390625 -3.075439453125
31.920166015625 26.00390625 -29.492919921875
34.230712890625 26.548583984375 -28.391845703125
-13.704345703125 -42.524169921875 33.20751953125
-6.24169921875 6.66552734375 -46.566162109375
-11.85009765625 22.139404296875 -18.1259765625
8.52197265625 3.767578125 -43.48681640625
33.740966796875 7.513671875 -42.5205078125
1.8994140625 -18.3935546875 41.5419921875
-0.55712890625 2.662109375 -39.260009765625
-19.4189453125 -25.82177734375 58.2607421875
-10.4658203125 6.55029296875 -50.04931640625
3.3779296875 29.6416015625 -29.818115234375
22.792236328125 24.07763671875 -20.597900390625
-33.17919921875 -21.78125 2.294677734375
12.88330078125 13.748291015625 -38.175048828125
-26.76416015625 -27.3388671875 -1.273193359375
31.4111328125 24.5693359375 -25.83837890625
7.084716796875 -29.47021484375 21.14404296875
32.455810546875 17.643310546875 -24.45263671875
22.017578125 5.34912109375 -39.385009765625
40.333984375 6.144775390625 -39.726806640625
-19.257080078125 -48.390625 36.387939453125
-13.9267578125 -20.349365234375 57.589599609375
-19.997802734375 -46.302001953125 30.29541015625
17.569091796875 5.181640625 -46.126953125
-11.76708984375 -8.69775390625 40.4560546875
6.70458984375 -26.166259765625 25.7939453125
-21.616943359375 27.4599609375 -23.1826171875
25.8935546875 22.328369140625 -20.85498046875
0.632080078125 2.2177734375 -34.025390625
20.90869140625 3.7421875 -48.527099609375
-7.1328125 6.46923828125 -49.714111328125
-26.546875 -30.053955078125 -2.228271484375
-2.92333984375 4.296875 -33.71826171875
30.60400390625 13.93212890625 -31.29150390625
-10.67578125 21.251953125 -5.518798828125
12.094970703125 33.509033203125 -29.470703125
-12.867919921875 10.203369140625 11.046875
-16.81787109375 -22.596923828125 57.176513671875
6.38232421875 -36.02197265625 20.83740234375
-19.281494140625 -25.84423828125 49.659423828125
-8.21923828125 -16.2822265625 54.660888671875
2.08154296875 4.58349609375 -41.42041015625
0.158447265625 -30.368408203125 29.9130859375
-13.572509765625 -45.0771484375 30.552978515625
-19.548583984375 -45.950927734375 32.8818359375
6.2412109375 27.922119140625 -32.80908203125
-16.46875 4.803466796875 -37.542724609375
1.443603515625 -15.014892578125 44.722412109375
2.0234375 5.3359375 -47.05078125
-8.020263671875 -20.7822265625 49.183837890625
-23.419189453125 -46.8857421875 30.822021484375
-13.187255859375 14.5673828125 4.037841796875
18.736328125 27.81689453125 -17.01708984375
-12.532470703125 -2.552001953125 32.670166015625
28.373046875 3.847900390625 -50.685302734375
-10.338134765625 -43.8740234375 29.485107421875
17.6298828125 -14.236572265625 10.38525390625
-48.92626953125 -16.74072265625 51.355224609375
7.731201171875 19.641357421875 -34.951416015625
14.0341796875 4.697509765625 -44.43505859375
21.113525390625 5.79150390625 -46.62255859375
15.3408203125 28.6044921875 -31.822021484375
-3.36328125 0.06640625 59.595703125
34.04736328125 19.11669921875 -23.012939453125
-12.782958984375 -10.996337890625 41.72314453125
6.880859375 25.320068359375 -19.781982421875
3.73828125 -1.155517578125 -35.455078125
18.394775390625 25.632568359375 -23.830810546875
23.432861328125 8.027099609375 -33.55712890625
7.90869140625 3.841796875 -47.487060546875
10.84033203125 13.582763671875 -38.924072265625
38.271240234375 28.26171875 -32.8779296875
-3.138427734375 6.343505859375 -43.8232421875
-14.23291015625 -18.160400390625 53.70947265625
21.259765625 -22.75146484375 -1.660400390625
-14.684326171875 -23.608154296875 48.3994140625
-19.638916015625 -22.449951171875 52.402099609375
16.089599609375 25.829833984375 -19.13720703125
-55.688232421875 -12.96337890625 49.259765625
-7.12158203125 -14.2841796875 52.98095703125
-8.90478515625 -8.227294921875 63.05908203125
-12.828857421875 25.790283203125 -14.98974609375
-11.616455078125 22.541748046875 -9.190185546875
-5.28662109375 26.47607421875 -31.386474609375
-3.163330078125 -2.3876953125 56.805908203125
10.857666015625 24.2470703125 -20.88916015625
-49.840087890625 -17.01953125 47.201171875
-37.65576171875 -9.41748046875 8.57568359375
5.140380859375 -26.65576171875 27.15966796875
-6.27783203125 -9.75439453125 52.89111328125
-23.03466796875 -22.747802734375 52.42822265625
-1.755126953125 -6.211181640625 52.619384765625
4.291015625 -29.704833984375 27.22216796875
8.480712890625 26.7109375 -18.76416015625
10.501220703125 -23.588134765625 19.39208984375
-7.52880859375 -19.0869140625 51.83837890625
8.84765625 -32.714111328125 18.171630859375
22.0849609375 -19.83154296875 -0.739013671875
24.54296875 26.3408203125 -26.696044921875
-49.564697265625 -18.728271484375 44.17578125
25.02099609375 7.674560546875 -38.373046875
22.18896484375 0.722412109375 -34.23388671875
23.408935546875 20.75244140625 -24.626953125
-36.86474609375 -8.783447265625 11.77490234375
-25.493408203125 -49.461181640625 30.35400390625
-6.8544921875 0.916015625 63.511962890625
-15.045654296875 -40.11669921875 38.48779296875
-53.01806640625 -13.839599609375 48.21142578125
-13.118896484375 18.592041015625 -15.801513671875
18.368896484375 27.55029296875 -27.1171875
7.695556640625 -24.549072265625 29.828369140625
-4.333984375 5.83740234375 -46.560302734375
21.84521484375 4.191650390625 -42.935791015625
-3.578857421875 -4.026123046875 55.484619140625
-13.176513671875 -21.20751953125 47.9384765625
0.862060546875 26.69921875 -26.83984375
5.69140625 32.25439453125 -30.05712890625
1.314697265625 -11.206298828125 48.626708984375
-45.13720703125 -22.915771484375 47.564453125
14.8232421875 25.55810546875 -22.224365234375
-10.470703125 21.834228515625 -26.293701171875
11.53173828125 27.31103515625 -18.462158203125
32.208984375 10.85107421875 -39.48779296875
38.353271484375 4.96484375 -46.08740234375
7.833740234375 -20.42333984375 32.1259765625
-2.626220703125 24.611083984375 -20.401611328125
4.343017578125 23.796875 -34.029052734375
36.159912109375 6.10888671875 -38.447265625
-15.270751953125 30.37939453125 -31.5556640625
28.6455078125 6.901123046875 -48.017578125
23.9111328125 3.289794921875 -50.97705078125
27.814453125 27.083740234375 -29.529296875
-6.84716796875 21.07666015625 -22.367431640625
10.2158203125 -24.68896484375 25.56396484375
15.983154296875 31.544677734375 -30.12939453125
-7.9453125 3.117919921875 -33.162109375
8.164306640625 29.498046875 -31.796142578125
18.17333984375 3.653564453125 -44.452392578125
5.894775390625 -29.593505859375 23.751708984375
1.507080078125 23.933837890625 -23.496337890625
-9.850830078125 26.27685546875 -17.00390625
6.845458984375 16.10693359375 -35.477783203125
-51.87548828125 -15.6826171875 45.2431640625
12.109375 2.07470703125 -41.443115234375
-22.017822265625 -25.229736328125 50.79931640625
0.815185546875 19.8212890625 -23.509765625
-13.629638671875 12.3974609375 7.927490234375
-6.720947265625 -18.549072265625 42.78564453125
-14.30126953125 28.600341796875 -30.6640625
-12.35888671875 -4.221435546875 35.869873046875
-12.916259765625 9.18701171875 12.80517578125
15.404052734375 -2.613037109375 -40.82080078125
22.913818359375 4.999755859375 -50.228271484375
-0.419921875 6.59716796875 -46.271484375
15.41845703125 3.31298828125 -42.777099609375
9.169921875 -27.356689453125 22.97509765625
-4.877197265625 -7.381591796875 51.570556640625
25.173095703125 5.28759765625 -35.402099609375
-5.1103515625 3.87353515625 -39.660400390625
5.683837890625 -26.53955078125 30.5859375
-13.286865234375 -20.47998046875 50.35546875
-12.05419921875 21.7421875 -16.133056640625
-10.69677734375 7.630615234375 -47.71923828125
21.018310546875 25.75048828125 -19.175048828125
12.1298828125 3.676513671875 -47.958251953125
-12.33056640625 13.856689453125 -21.253173828125
30.188720703125 15.688720703125 -34.996337890625
0.33349609375 3.450439453125 -52.120849609375
39.953125 3.582275390625 -41.58984375
18.239501953125 27.367431640625 -31.376220703125
-29.123779296875 -20.791015625 2.990966796875
-13.257080078125 -38.8955078125 35.219482421875
18.14111328125 3.23388671875 -48.451416015625
20.623046875 -17.36865234375 4.888427734375
3.891845703125 27.11962890625 -18.762939453125
-14.469970703125 -32.0439453125 40.090576171875
23.472412109375 6.142333984375 -47.484619140625
1.422607421875 27.0380859375 -29.97119140625
21.91357421875 -0.16259765625 -37.8251953125
20.681640625 -14.70849609375 6.649658203125
-5.054443359375 -20.212646484375 39.70068359375
-12.174072265625 27.257080078125 -27.505615234375
-10.615234375 8.515869140625 13.7119140625
31.791259765625 12.80615234375 -32.81982421875
24.51025390625 11.189208984375 -31.001220703125
-16.174072265625 27.7265625 -34.409423828125
25.3212890625 11.446533203125 -38.6181640625
-8.448486328125 5.41650390625 -38.902587890625
4.097412109375 3.195556640625 -33.74169921875
20.6064453125 -20.3359375 1.875732421875
5.921875 -22.835693359375 31.676513671875
41.301025390625 4.1494140625 -44.47998046875
4.041015625 4.13623046875 -47.8291015625
37.169921875 6.541015625 -40.50732421875
30.30224609375 17.830078125 -24.4453125
-11.06591796875 27.14453125 -30.591796875
-9.114013671875 -41.46826171875 31.7294921875
27.253173828125 19.259033203125 -24.933349609375
26.32666015625 18.728759765625 -31.205810546875
4.858154296875 19.64208984375 -35.301513671875
2.93017578125 -35.8251953125 25.59619140625
14.234375 2.011474609375 -41.474853515625
3.658203125 23.908203125 -20.785888671875
-16.06005859375 29.724609375 -36.46484375
-8.411376953125 25.54931640625 -26.6337890625
-21.594970703125 29.845458984375 -25.314208984375
-5.00341796875 -15.27783203125 44.295654296875
3.396484375 -37.76904296875 22.84619140625
5.417236328125 3.956298828125 -46.24609375
-13.715576171875 -22.377197265625 60.17236328125
27.599365234375 25.68798828125 -19.229736328125
30.058349609375 13.4716796875 -37.626953125
-7.19580078125 27.739013671875 -29.147216796875
27.930419921875 27.023681640625 -27.57470703125
15.203857421875 4.747314453125 -46.062255859375
34.052978515625 25.124755859375 -34.93310546875
3.71142578125 -35.73193359375 23.404541015625
-20.39794921875 -47.814208984375 33.632080078125
-16.19677734375 28.703125 -27.57861328125
10.3681640625 -22.898681640625 21.425048828125
1.6982421875 27.845458984375 -17.262939453125
19.85693359375 -20.291259765625 5.270751953125
11.347900390625 28.266845703125 -33.290771484375
-1.629638671875 4.5380859375 -40.956298828125
-17.5107421875 30.085693359375 -30.3564453125
-19.02880859375 29.571533203125 -32.5908203125
-43.163818359375 -26.03173828125 47.34228515625
8.35791015625 30.735107421875 -26.88525390625
-23.390625 -22.75927734375 54.56591796875
19.084716796875 22.85009765625 -21.623291015625
-13.048828125 -12.513671875 46.221435546875
-2.00537109375 -26.891357421875 34.48974609375
25.08544921875 26.68310546875 -29.85302734375
-1.498291015625 -8.817138671875 50.221435546875
-12.195556640625 -17.3662109375 56.12158203125
-11.013427734375 -37.106689453125 36.666015625
32.861328125 6.283203125 -44.045166015625
9.4677734375 26.512939453125 -34.68505859375
23.055419921875 2.84814453125 -36.01318359375
-30.401123046875 -19.070068359375 3.197265625
-10.7822265625 -14.527099609375 57.233642578125
-13.78125 -26.796630859375 61.562255859375
-1.330078125 25.324462890625 -32.12451171875
18.71142578125 24.07666015625 -20.166015625
-1.99609375 5.52294921875 -32.2177734375
-7.491943359375 -13.8369140625 57.974365234375
23.775390625 -21.39306640625 -4.38525390625
-51.404052734375 -18.247314453125 42.80810546875
21.539794921875 -17.698974609375 3.235107421875
17.21875 25.400390625 -33.547119140625
-19.48876953125 24.365478515625 -22.149658203125
-20.720458984375 -33.5185546875 52.043212890625
-11.14306640625 9.85302734375 10.293212890625
21.614990234375 26.426025390625 -27.449462890625
29.783935546875 20.584716796875 -22.310302734375
-10.799072265625 -19.732177734375 64.349365234375
33.4755859375 12.13818359375 -37.990966796875
-12.26416015625 25.658935546875 -11.87451171875
30.1435546875 26.699951171875 -18.176513671875
-24.261474609375 -46.861083984375 32.57763671875
13.253662109375 24.48583984375 -20.15283203125
-7.66796875 -20.771240234375 47.04638671875
13.699951171875 16.501220703125 -35.605224609375
24.67431640625 6.6103515625 -45.12451171875
33.874267578125 19.317138671875 -25.0126953125
-31.293212890625 -15.104248046875 6.019287109375
36.60693359375 27.09033203125 -34.329345703125
-9.50439453125 -43.2333984375 32.4619140625
-11.48681640625 4.68603515625 -37.613037109375
29.6728515625 24.073486328125 -31.66162109375
-14.46630859375 -35.865234375 36.431640625
10.621826171875 31.111328125 -27.329345703125
18.177734375 -14.8349609375 8.359375
-6.92822265625 25.56787109375 -19.675048828125
5.25341796875 -29.55712890625 30.22705078125
-17.681884765625 -21.4287109375 53.923583984375
-1.605712890625 -11.7119140625 47.432861328125
-1.205078125 -5.003662109375 54.047607421875
6.369140625 1.31298828125 -34.045654296875
8.035400390625 13.439453125 -38.080078125
38.46484375 4.6826171875 -37.177490234375
-6.113037109375 26.942626953125 -18.654052734375
-1.97509765625 18.072265625 -25.680419921875
-11.24658203125 -12.644775390625 58.940185546875
-9.0244140625 26.851806640625 -31.75146484375
-9.03271484375 4.212890625 -52.361572265625
24.908935546875 -19.40869140625 -3.348388671875
-11.113525390625 -40.3125 34.5966796875
-33.022705078125 -20.4638671875 3.802490234375
19.904296875 -3.2861328125 -40.44873046875
-44.301513671875 -22.59033203125 49.205322265625
-11.128173828125 -15.93017578125 49.0341796875
34.060302734375 22.227783203125 -32.364501953125
0.468017578125 22.319580078125 -22.167236328125
-15.244140625 -24.9677734375 58.990234375
10.590087890625 3.11962890625 -49.1064453125
-3.417236328125 27.2998046875 -18.714111328125
-6.26123046875 -1.4140625 61.137451171875
-11.075927734375 -11.362060546875 61.6220703125
16.482177734375 26.3642578125 -24.266357421875
-6.35009765625 -12.67529296875 51.385498046875
24.258056640625 18.5009765625 -24.04150390625
-12.749755859375 22.493408203125 -7.61376953125
-5.119873046875 -6.148193359375 54.664306640625
-27.334228515625 -51.67919921875 40.02783203125
-11.45556640625 -11.523681640625 38.893310546875
-9.06201171875 -14.659912109375 56.0087890625
-17.701171875 -46.09130859375 33.3525390625
-13.355712890625 -43.985595703125 32.134521484375
-15.5361328125 -41.49853515625 39.608154296875
2.17041015625 -24.498779296875 35.380615234375
-4.80517578125 3.6123046875 -34.043701171875
-54.2978515625 -13.228759765625 51.831298828125
3.6220703125 27.127685546875 -24.970947265625
-4.826416015625 0.842041015625 60.648681640625
2.45556640625 25.860595703125 -33.764892578125
-5.884033203125 5.03662109375 -50.07275390625
-3.158203125 2.66015625 -52.01953125
36.373779296875 28.113525390625 -30.890380859375
-6.113037109375 22.69384765625 -21.743896484375
-12.358154296875 -33.517822265625 38.634521484375
-11.025146484375 24.93115234375 -26.550537109375
22.3798828125 7.607177734375 -41.53369140625
-1.1865234375 -28.549560546875 31.76220703125
23.401611328125 6.286865234375 -38.661376953125
13.462646484375 33.19677734375 -28.308837890625
7.481201171875 -22.306396484375 30.73583984375
-15.006103515625 -21.328369140625 56.50048828125
-6.35400390625 7.289794921875 -44.61181640625
-20.17138671875 -46.7158203125 35.213623046875
-16.1220703125 2.328125 -36.190673828125
0.0107421875 21.975830078125 -26.0380859375
-24.9169921875 -25.6318359375 52.139892578125
7.775390625 -2.06396484375 -36.672119140625
-15.061767578125 -43.49853515625 38.206298828125
4.641357421875 -35.10986328125 17.656982421875
-16.66162109375 -47.2705078125 28.696533203125
0.933837890625 22.06787109375 -32.298095703125
6.083251953125 32.523193359375 -28.164306640625
-49.457275390625 -21.546875 41.763671875
-11.85302734375 7.144287109375 -38.954833984375
30.76123046875 23.731689453125 -20.24853515625
18.22119140625 -23.790283203125 1.8896484375
-4.58544921875 2.2216796875 -39.168212890625
