3.814453125 -18.492431640625 -11.94873046875
8.698486328125 -49.799560546875 -40.9189453125
4.94677734375 -44.75146484375 -54.4833984375
13.791748046875 -30.451904296875 -50.5224609375
9.50244140625 25.21923828125 7.107177734375
12.580810546875 -12.67333984375 -27.939697265625
9.577880859375 -40.3818359375 -33.669189453125
8.408447265625 -37.4873046875 -44.91259765625
10.065673828125 -30.33984375 -37.935302734375
7.565185546875 25.865234375 2.82666015625
-12.0107421875 -71.420166015625 -71.952880859375
6.031982421875 -11.35009765625 -6.15966796875
3.59912109375 -51.392333984375 -51.416015625
14.257568359375 -0.5966796875 -23.8369140625
12.941162109375 -7.343994140625 -28.47900390625
11.678466796875 -22.9072265625 -26.66455078125
-8.86865234375 -83.53515625 -60.945068359375
15.48583984375 -6.958251953125 -10.3818359375
11.734619140625 24.4970703125 -2.239501953125
6.169677734375 22.96484375 1.894287109375
1.221923828125 -41.591552734375 -27.316650390625
5.85107421875 -15.133544921875 -8.800537109375
10.17333984375 -27.816650390625 -36.169677734375
13.50390625 -12.805908203125 -17.955078125
15.936279296875 8.709716796875 -14.73876953125
1.494140625 -32.213623046875 -21.9912109375
17.747802734375 17.687744140625 17.735595703125
-9.367431640625 -78.9755859375 -64.28564453125
-9.62158203125 24.840576171875 18.191650390625
10.455810546875 -25.840576171875 -34.611328125
1.391845703125 -37.939453125 -24.4609375
14.680908203125 -8.30126953125 -14.49169921875
6.4951171875 23.500244140625 6.10107421875
10.498779296875 26.5908203125 4.853271484375
2.53173828125 -52.662353515625 -50.513427734375
12.62548828125 31.14404296875 2.26513671875
14.764404296875 25.431884765625 -4.251953125
13.63037109375 32.94189453125 8.8583984375
9.3857421875 -32.11083984375 -47.708740234375
10.2763671875 -26.78271484375 -44.111328125
17.34033203125 16.478759765625 -9.358154296875
1.10791015625 -55.128662109375 -49.374267578125
5.28759765625 -46.865478515625 -53.22021484375
-8.41650390625 -86.756591796875 -58.037841796875
11.992431640625 -16.92138671875 -30.97119140625
12.782958984375 27.57666015625 10.3564453125
8.871337890625 -38.687255859375 -41.41552734375
14.34716796875 1.741455078125 -22.177490234375
10.8349609375 26.817138671875 7.043212890625
9.735595703125 -35.23388671875 -38.5439453125
1.85791015625 -58.891845703125 -48.634765625
1.46826171875 -59.935302734375 -47.766845703125
0.1279296875 -47.10791015625 -31.73828125
-14.86376953125 -75.79541015625 -70.795166015625
12.765380859375 -32.58837890625 -53.80615234375
8.58642578125 -44.95263671875 -37.610595703125
9.95361328125 -35.197265625 -35.913330078125
11.420166015625 -25.96337890625 -27.1689453125
16.67919921875 14.154052734375 -12.5126953125
10.2646484375 -35.838623046875 -30.071533203125
8.0263671875 -38.1142578125 -46.3349609375
8.2861328125 -40.493896484375 -44.452880859375
7.756591796875 -38.593505859375 -49.015625
-3.89892578125 -60.144287109375 -39.2568359375
13.864990234375 -10.179443359375 -19.199951171875
11.614501953125 -18.581298828125 -33.50390625
9.908935546875 -28.47412109375 -37.661865234375
-8.6630859375 -62.166748046875 -41.302978515625
8.539306640625 -43.27783203125 -40.301513671875
13.445068359375 -10.57958984375 -22.074462890625
5.682373046875 -50.2763671875 -51.525634765625
15.29052734375 9.29541015625 -17.296875
8.77783203125 -42.23876953125 -39.302978515625
8.689208984375 -38.507080078125 -42.951904296875
15.457763671875 -3.2646484375 -10.713623046875
7.2978515625 -46.049072265625 -48.6005859375
25.658447265625 6.712890625 4.245361328125
9.01220703125 -29.761962890625 -45.454345703125
14.86572265625 -2.34130859375 -15.94091796875
-1.37158203125 -51.14697265625 -49.61376953125
14.62109375 4.31689453125 -21.208740234375
9.843017578125 -26.008544921875 -43.083984375
9.455322265625 -36.533203125 -36.68115234375
9.523681640625 -39.120361328125 -34.09912109375
15.867919921875 20.887939453125 20.253662109375
13.005126953125 -16.721435546875 -21.491455078125
14.86328125 -3.88623046875 -12.85400390625
9.2529296875 -28.403076171875 -42.71826171875
14.55224609375 -5.338134765625 -16.88037109375
17.207763671875 15.406982421875 -11.35400390625
0.7529296875 -40.31982421875 -26.252197265625
13.798095703125 29.234375 12.97607421875
9.95068359375 -25.94189453125 -40.341796875
6.971435546875 -26.28369140625 -20.515869140625
11.0400390625 -20.716796875 -34.23828125
0.2412109375 -45.8740234375 -30.069091796875
25.688232421875 2.34423828125 0.051513671875
9.91015625 -26.028564453125 -38.6171875
6.5185546875 -42.88916015625 -54.048828125
-13.148193359375 -79.50341796875 -67.97265625
-7.419921875 -82.0107421875 -60.38134765625
-11.3662109375 -79.1689453125 -66.0126953125
15.646728515625 1.868896484375 -14.299560546875
10.338623046875 -24.237060546875 -37.756591796875
-1.0263671875 -63.474365234375 -46.8828125
-0.80615234375 -52.587890625 -49.103759765625
19.58154296875 18.509033203125 21.1123046875
14.16845703125 -5.546630859375 -18.684326171875
11.52294921875 -19.319091796875 -30.703125
14.55712890625 2.4287109375 -20.1923828125
12.063720703125 -14.44775390625 -31.427734375
12.0498046875 -14.898193359375 -29.24560546875
11.040283203125 -18.29736328125 -35.1884765625
14.55712890625 -7.168701171875 -15.387451171875
3.21044921875 -24.954345703125 -15.505859375
11.287841796875 -20.8427734375 -32.2490234375
6.167236328125 -53.003173828125 -48.682861328125
9.135498046875 -33.627197265625 -42.42822265625
9.24755859375 -31.3515625 -46.36962890625
12.430908203125 -19.89990234375 -23.33251953125
6.398193359375 -48.072998046875 -50.843505859375
-8.2138671875 -79.383544921875 -62.399169921875
1.975830078125 -30.241943359375 -20.1201171875
-16.5810546875 -74.8642578125 -73.30078125
11.9296875 -24.889892578125 -23.1767578125
12.03759765625 -22.5380859375 -24.2265625
8.186767578125 -3.509765625 -0.427001953125
-9.982421875 -84.44921875 -60.553466796875
11.9951171875 -20.552978515625 -25.1640625
1.220703125 -35.75341796875 -24.71484375
-7.361572265625 -68.6767578125 -69.51708984375
12.98291015625 -12.9404296875 -21.801025390625
17.57373046875 18.33740234375 -9.98828125
4.18310546875 -47.390625 -55.166259765625
12.56689453125 -15.510986328125 -24.828857421875
16.721435546875 11.274169921875 -12.683837890625
25.81982421875 4.927734375 1.036865234375
-16.514404296875 -79.13818359375 -69.49658203125
0.78173828125 -49.311767578125 -54.451416015625
12.05810546875 -12.581298828125 -32.95556640625
8.531494140625 -46.15234375 -41.07568359375
12.685546875 -8.7734375 -32.17041015625
12.8583984375 26.9970703125 6.361083984375
1.01953125 -57.7509765625 -48.923583984375
8.368896484375 -42.3212890625 -42.36669921875
3.941162109375 -20.793212890625 -12.714599609375
12.3740234375 27.05126953125 0.330078125
12.58740234375 -10.057861328125 -29.97021484375
12.080322265625 -17.640380859375 -27.7978515625
16.026611328125 6.871337890625 -10.736572265625
-10.97705078125 -83.65673828125 -62.557373046875
13.195068359375 30.97802734375 10.61083984375
14.64501953125 -0.932373046875 -17.794189453125
10.251220703125 -34.516357421875 -32.20703125
14.072265625 -7.622802734375 -18.710205078125
14.59716796875 -0.014892578125 -19.82763671875
-1.80224609375 -59.933837890625 -50.555908203125
-15.389404296875 -74.642578125 -70.7529296875
12.448486328125 -20.9990234375 -22.32470703125
-9.93505859375 20.853759765625 13.960693359375
12.731689453125 -18.3212890625 -21.340576171875
15.493408203125 2.285400390625 -12.054443359375
1.801025390625 -48.478759765625 -55.353271484375
11.28759765625 -30.541259765625 -28.43408203125
9.361328125 -30.9189453125 -41.8662109375
9.0673828125 -13.67138671875 -11.50390625
7.684326171875 24.512939453125 7.11669921875
0.7373046875 -37.960205078125 -25.527587890625
13.57568359375 27.863037109375 -0.1455078125
16.00927734375 7.44970703125 -12.25390625
9.922607421875 -10.611083984375 -9.462890625
15.256103515625 -5.7841796875 -11.18017578125
-10.97998046875 -48.5400390625 -42.543212890625
9.32763671875 -40.085693359375 -36.810791015625
9.60498046875 -29.345458984375 -40.27099609375
10.30126953125 -28.987548828125 -35.24365234375
9.81396484375 -32.3369140625 -37.28125
13.294921875 -15.38037109375 -18.444091796875
12.688720703125 28.527587890625 3.103759765625
9.84716796875 -27.780029296875 -38.68408203125
-7.796142578125 25.8876953125 15.7431640625
10.127197265625 -31.033447265625 -36.911865234375
15.289794921875 5.98291015625 -17.467041015625
11.9140625 -19.6220703125 -29.41943359375
3.229736328125 -53.578125 -49.487548828125
-9.49072265625 -82.48095703125 -61.45263671875
12.086181640625 -12.621826171875 -30.78076171875
-0.6474609375 -57.212646484375 -49.062744140625
11.559326171875 -17.032958984375 -32.2451171875
3.654541015625 -45.150390625 -33.69384765625
14.244873046875 -9.66748046875 -15.77294921875
12.14013671875 27.62841796875 12.33935546875
10.985107421875 -26.419189453125 -30.1201171875
3.019775390625 -45.089599609375 -56.810546875
-0.041259765625 15.267578125 17.08056640625
11.281494140625 -28.32421875 -28.292236328125
14.430908203125 -6.552490234375 -16.83740234375
16.22021484375 -4.666748046875 -10.38037109375
14.65673828125 -3.039794921875 -17.913818359375
1.523681640625 -33.784912109375 -23.2119140625
16.86279296875 13.923583984375 -13.71875
9.179443359375 -50.195556640625 -41.96484375
12.475341796875 -21.020263671875 -20.184326171875
13.23291015625 25.187744140625 7.956787109375
13.426513671875 -6.3701171875 -29.396484375
13.061279296875 -5.825439453125 -26.863037109375
-1.084716796875 -49.101318359375 -32.462158203125
13.07568359375 -9.818115234375 -25.4873046875
11.15283203125 27.244140625 2.35400390625
1.99365234375 -47.057373046875 -58.9736328125
13.107177734375 29.53173828125 11.1240234375
11.51025390625 -26.9931640625 -25.662841796875
0.322509765625 -48.2724609375 -58.6640625
11.4150390625 25.18505859375 7.4892578125
7.005615234375 -43.097412109375 -52.177734375
-0.25341796875 -59.648681640625 -49.0556640625
-5.689453125 -60.73681640625 -40.5146484375
8.060546875 -2.859619140625 0.725830078125
8.068359375 -42.46337890625 -45.55517578125
0.7197265625 -62.1806640625 -46.66015625
6.31982421875 -41.39599609375 -53.734130859375
7.935302734375 -43.77099609375 -45.5322265625
13.48095703125 -8.324951171875 -23.59521484375
3.5107421875 -20.90576171875 -13.938720703125
6.631591796875 -38.7529296875 -51.46484375
13.704833984375 -4.49755859375 -23.035888671875
11.569580078125 -28.3388671875 -50.025146484375
15.420654296875 4.0419921875 -14.0
14.428955078125 -10.960693359375 -13.346923828125
3.455322265625 -59.531494140625 -49.015625
13.368896484375 -7.984375 -21.86279296875
9.281982421875 26.116943359375 4.86181640625
13.5732421875 -4.392333984375 -25.067626953125
13.86328125 -7.818359375 -20.1416015625
7.585693359375 -42.255615234375 -47.406005859375
8.24072265625 -48.03466796875 -39.798583984375
15.83349609375 6.442626953125 -13.71533203125
4.98193359375 -18.2060546875 -10.8359375
14.261474609375 -3.990234375 -19.21533203125
8.281982421875 -36.090087890625 -46.991943359375
12.927001953125 29.037109375 4.406494140625
8.93994140625 -36.696533203125 -42.4755859375
12.4765625 -9.7109375 -28.2109375
-6.306884765625 -62.23486328125 -40.056640625
11.088134765625 -22.5009765625 -34.401123046875
15.089599609375 3.986328125 -17.396484375
5.517333984375 25.0673828125 4.515869140625
12.80517578125 28.98291015625 9.407958984375
15.306884765625 -1.801025390625 -12.08642578125
15.094482421875 2.1640625 -15.912109375
8.05322265625 -45.749755859375 -44.058837890625
12.94775390625 29.1162109375 7.830322265625
-14.19189453125 -73.6162109375 -70.610595703125
-7.66552734375 -66.860595703125 -70.254150390625
15.361083984375 3.71875 -16.06396484375
14.46337890625 1.933837890625 -23.337890625
13.4375 -4.80615234375 -27.677978515625
-1.661376953125 -63.064697265625 -48.011474609375
13.58740234375 -14.354248046875 -17.039794921875
15.441162109375 7.8330078125 -15.926513671875
0.153564453125 -43.7646484375 -28.7236328125
3.59765625 -51.1962890625 -52.57568359375
8.6689453125 -44.465087890625 -39.3623046875
16.72900390625 6.17236328125 -11.36669921875
-9.947021484375 22.768798828125 16.464111328125
13.708740234375 28.20166015625 8.154296875
17.02001953125 17.432861328125 -11.617431640625
3.78076171875 -26.2138671875 -16.6171875
12.703369140625 -13.51806640625 -25.375732421875
10.16943359375 -33.06103515625 -35.963134765625
7.397216796875 -1.4306640625 0.83544921875
-9.915771484375 23.7421875 17.916259765625
12.928955078125 -14.939697265625 -23.487548828125
16.965576171875 9.53515625 -10.37890625
8.959716796875 -42.413818359375 -37.77294921875
12.7490234375 -19.417724609375 -20.336181640625
7.638916015625 -48.157470703125 -47.337890625
8.944580078125 -36.334228515625 -40.740478515625
9.246337890625 -38.268310546875 -38.87939453125
13.33740234375 -17.34375 -17.512451171875
14.305419921875 -4.383544921875 -21.410888671875
15.65673828125 5.430908203125 -15.18310546875
14.190185546875 -3.0126953125 -23.37841796875
13.98583984375 -13.381103515625 -15.73583984375
14.953125 23.2314453125 -5.51513671875
12.462646484375 30.251220703125 6.79931640625
8.3759765625 -34.864990234375 -45.25634765625
8.173095703125 -42.928466796875 -43.380859375
0.954833984375 17.0439453125 17.76806640625
8.3271484375 -40.26513671875 -43.3232421875
12.26123046875 -18.8466796875 -22.580810546875
5.761474609375 -12.682373046875 -7.033203125
14.821044921875 -7.654296875 -12.997314453125
8.542724609375 -43.075927734375 -41.43505859375
15.38330078125 8.017578125 -17.443115234375
9.656005859375 -28.360595703125 -39.6806640625
4.91650390625 -40.8740234375 -30.611328125
18.111572265625 19.3466796875 -10.400146484375
6.29345703125 -8.447265625 -5.725830078125
14.07666015625 -9.664306640625 -11.40283203125
3.640380859375 -29.202880859375 -18.8251953125
11.1123046875 -25.157958984375 -30.154052734375
8.921630859375 -40.161865234375 -39.856201171875
-9.934326171875 25.10888671875 19.418212890625
6.191162109375 24.1337890625 1.92578125
-9.08251953125 26.148681640625 17.7919921875
6.935791015625 -52.09033203125 -47.574462890625
12.596923828125 -19.462890625 -18.590087890625
-10.353515625 19.17822265625 14.72607421875
6.600830078125 21.7255859375 7.422607421875
12.596435546875 30.991455078125 9.642822265625
25.52880859375 3.065185546875 -0.814453125
18.3115234375 16.83544921875 18.23583984375
-4.774658203125 26.637451171875 13.2333984375
9.574951171875 -38.122314453125 -33.516357421875
2.07958984375 -50.289794921875 -52.82421875
10.4794921875 -22.201171875 -38.3037109375
11.502685546875 -31.0419921875 -52.498291015625
10.50537109375 -24.867919921875 -34.03271484375
25.9501953125 3.314453125 1.390869140625
5.6728515625 -10.250244140625 -5.279541015625
8.849365234375 26.384521484375 3.25634765625
-7.041259765625 25.76025390625 13.657470703125
12.026611328125 -11.93115234375 -31.78271484375
5.854736328125 -53.5693359375 -49.608154296875
15.47314453125 9.054931640625 -18.520263671875
11.0458984375 -20.495849609375 -35.3427734375
13.38330078125 26.9013671875 9.35693359375
-10.39697265625 17.497802734375 13.719970703125
10.132568359375 -35.380126953125 -34.399169921875
6.180419921875 -32.0625 -24.526611328125
10.917724609375 -28.7109375 -30.759765625
-14.7509765625 -79.6201171875 -68.851318359375
8.266357421875 -48.771484375 -41.023193359375
10.89306640625 -32.68017578125 -28.76806640625
-8.018798828125 -65.501220703125 -70.989013671875
11.487060546875 -21.930419921875 -30.837646484375
1.589111328125 -53.202392578125 -50.254150390625
6.47021484375 -30.100341796875 -23.02099609375
-0.2509765625 -44.95849609375 -30.6767578125
10.21875 -28.33056640625 -45.31787109375
5.570556640625 -50.411865234375 -50.257080078125
13.033203125 -14.682373046875 -21.9423828125
16.133056640625 3.02294921875 -11.5234375
25.92431640625 4.806884765625 2.97119140625
6.23388671875 -4.758056640625 -1.384033203125
8.0224609375 -35.989013671875 -49.0556640625
11.990478515625 -23.49755859375 -24.78662109375
1.42431640625 -51.653564453125 -51.729736328125
6.935791015625 -45.115478515625 -51.106689453125
12.768798828125 -11.595703125 -26.40673828125
8.5947265625 -46.84716796875 -40.037353515625
-2.357421875 -53.101318359375 -47.674560546875
5.862548828125 24.084228515625 3.690185546875
7.489990234375 -50.462890625 -45.633544921875
11.650146484375 -18.385986328125 -32.4150390625
12.44384765625 -14.669677734375 -27.3935546875
12.935546875 -12.33203125 -25.511474609375
7.802001953125 -47.388916015625 -45.686767578125
12.3828125 -22.92822265625 -21.290283203125
-8.032958984375 21.25 12.365234375
7.821533203125 -48.52490234375 -44.6328125
11.529052734375 -28.4365234375 -26.314697265625
7.785400390625 -43.7431640625 -47.709228515625
16.18603515625 0.8349609375 -12.191650390625
14.000732421875 -12.108642578125 -15.684814453125
9.33935546875 -34.727783203125 -40.986083984375
16.79345703125 19.053466796875 19.963134765625
8.97900390625 -31.88330078125 -45.012939453125
11.806884765625 -30.503662109375 -51.5771484375
-1.885986328125 -57.717041015625 -49.105712890625
8.500244140625 25.378173828125 6.470458984375
12.936279296875 -18.328125 -18.824951171875
11.967529296875 32.673828125 3.857666015625
2.26318359375 -49.86572265625 -54.734619140625
8.137451171875 -40.459228515625 -46.620849609375
12.8505859375 -8.394775390625 -27.374267578125
8.60009765625 -46.4619140625 -38.29931640625
12.14453125 31.39306640625 6.121337890625
9.5986328125 -27.448974609375 -41.82861328125
-0.80126953125 -62.62939453125 -48.78955078125
9.302978515625 -29.874755859375 -41.1669921875
6.8466796875 0.213623046875 2.381103515625
13.467529296875 -6.709228515625 -24.02978515625
13.69970703125 -9.447998046875 -20.087158203125
8.350830078125 -34.09326171875 -48.05419921875
9.593994140625 -27.665283203125 -40.705810546875
2.15380859375 -46.877685546875 -57.9208984375
11.15283203125 27.453125 3.847412109375
14.386474609375 -6.154541015625 -14.661376953125
3.30908203125 -23.388427734375 -16.03857421875
7.832763671875 -40.8017578125 -48.682373046875
12.888916015625 29.322509765625 6.415771484375
3.09814453125 -56.64404296875 -49.02978515625
7.83203125 23.359130859375 7.442626953125
6.279052734375 24.607666015625 5.339111328125
9.4892578125 -39.140625 -36.326416015625
15.537109375 4.2353515625 -15.13916015625
12.75146484375 33.821533203125 5.214599609375
-1.02587890625 -59.014404296875 -49.446044921875
2.198486328125 -28.380615234375 -19.120361328125
-6.82275390625 26.294677734375 12.529052734375
13.258544921875 34.739013671875 7.2734375
9.412109375 -28.069580078125 -49.721923828125
6.2587890625 -51.923828125 -49.853759765625
15.81396484375 -0.6748046875 -11.94384765625
0.5068359375 14.1083984375 15.62060546875
9.517333984375 -37.2255859375 -35.656005859375
8.876953125 -35.99951171875 -43.510986328125
10.419189453125 -23.611328125 -36.6640625
14.863525390625 -6.735107421875 -12.4638671875
1.882568359375 15.03955078125 16.457275390625
9.54443359375 -12.421630859375 -10.80029296875
9.77685546875 -30.095458984375 -39.349609375
14.566162109375 -0.1826171875 -20.87451171875
7.603759765625 -38.7626953125 -50.048583984375
-9.0986328125 24.943603515625 17.278564453125
-2.966796875 -52.10107421875 -48.17822265625
9.64697265625 -31.375732421875 -39.322265625
11.35986328125 -25.27587890625 -28.17431640625
-6.8310546875 -65.27783203125 -70.302734375
14.91259765625 3.46826171875 -18.326171875
-9.515869140625 -67.473388671875 -71.553955078125
11.653076171875 32.471923828125 7.54296875
-8.13232421875 24.4208984375 15.48486328125
10.529052734375 -21.23193359375 -37.719482421875
11.841064453125 -21.781005859375 -27.289306640625
-2.599365234375 -56.834228515625 -48.351318359375
4.5224609375 -45.248046875 -55.302734375
15.609619140625 2.4765625 -13.1904296875
11.34326171875 -17.881103515625 -37.108154296875
10.40087890625 -27.031005859375 -34.0830078125
5.44384765625 -46.6865234375 -52.1767578125
-9.3232421875 -85.8525390625 -59.5048828125
8.41455078125 -51.30419921875 -45.974365234375
10.8876953125 -25.93505859375 -32.220703125
11.0517578125 -24.468505859375 -31.163330078125
1.844482421875 -35.5986328125 -23.0673828125
11.1845703125 -30.275390625 -29.43310546875
-0.028564453125 -51.0546875 -53.239990234375
-15.519287109375 -74.398681640625 -71.8369140625
-12.873291015625 -80.163330078125 -66.4638671875
11.57666015625 -25.050048828125 -26.703369140625
0.448974609375 -49.27880859375 -58.8798828125
9.115478515625 -39.56103515625 -38.8515625
16.0048828125 9.26025390625 -13.726806640625
12.8046875 -16.177001953125 -23.448974609375
12.29150390625 -15.878173828125 -29.5224609375
1.98583984375 -59.908203125 -48.83984375
10.1279296875 -24.026123046875 -41.4970703125
12.0927734375 -19.281982421875 -27.361328125
-0.68505859375 -61.717041015625 -50.592041015625
11.960205078125 -20.749755859375 -26.2373046875
1.994384765625 -32.557861328125 -20.82373046875
6.9716796875 -28.255615234375 -21.718994140625
10.37548828125 -21.927978515625 -39.31396484375
-0.2158203125 -61.73876953125 -48.0908203125
-10.384033203125 -80.7705078125 -63.462890625
12.150390625 -19.650146484375 -24.702880859375
4.95654296875 -16.185546875 -9.130126953125
11.976806640625 -23.929443359375 -22.619140625
-10.53173828125 19.789306640625 15.869140625
-9.07568359375 -68.7314453125 -70.277099609375
3.2158203125 -46.793701171875 -55.96533203125
9.126708984375 -29.469482421875 -43.82177734375
14.135498046875 -1.81201171875 -23.798828125
14.152587890625 -9.687255859375 -18.355224609375
-15.735107421875 -80.788818359375 -69.228271484375
12.598388671875 -13.774169921875 -26.930908203125
12.6455078125 -8.36279296875 -29.915771484375
13.58203125 -5.717529296875 -22.9970703125
6.869140625 -53.727294921875 -48.811767578125
12.883056640625 30.407958984375 3.01220703125
10.7783203125 -23.785400390625 -34.764892578125
0.579345703125 -59.049072265625 -49.204833984375
13.09716796875 -17.2138671875 -19.443359375
9.294921875 -42.21484375 -36.361083984375
13.99755859375 -5.85009765625 -20.686767578125
-11.354248046875 -70.05029296875 -71.22314453125
1.6923828125 -60.25 -46.830322265625
7.4443359375 -43.9462890625 -49.15234375
7.973876953125 -22.1025390625 -17.382568359375
9.609130859375 -38.1044921875 -31.303466796875
7.975341796875 -36.632080078125 -47.904541015625
13.363037109375 34.510498046875 5.71337890625
7.51806640625 -46.3701171875 -47.666748046875
13.4560546875 -15.803955078125 -15.93310546875
9.566650390625 -34.126953125 -37.745849609375
11.6865234375 -16.096923828125 -33.958740234375
7.3662109375 -41.933349609375 -48.336669921875
13.62255859375 28.49365234375 -1.158203125
4.294921875 -23.8662109375 -14.791748046875
11.487060546875 -19.515380859375 -31.788330078125
8.653076171875 -33.7666015625 -46.004150390625
10.76708984375 -30.822509765625 -26.33251953125
4.364501953125 -53.007080078125 -49.335693359375
8.228515625 -48.814697265625 -43.296142578125
12.248291015625 29.822021484375 8.91650390625
10.575927734375 -34.53759765625 -29.71142578125
8.24462890625 -38.43701171875 -45.4091796875
14.93603515625 4.951904296875 -19.32666015625
0.76123046875 -51.087890625 -52.2275390625
9.537109375 -38.505126953125 -37.45849609375
10.006591796875 -33.850830078125 -33.6220703125
-1.711181640625 -51.1220703125 -53.996337890625
10.337890625 -26.6767578125 -36.80224609375
7.9287109375 -20.573486328125 -16.18701171875
8.4716796875 -38.18505859375 -43.87451171875
9.56982421875 -36.382568359375 -37.90673828125
9.464111328125 -36.117919921875 -38.92578125
7.370849609375 -41.523681640625 -50.63720703125
12.09423828125 -17.1953125 -29.978271484375
14.522216796875 5.868896484375 -19.4462890625
13.099853515625 29.28271484375 12.09228515625
13.63818359375 -9.28662109375 -21.634033203125
9.453125 -34.4267578125 -39.363037109375
16.065673828125 10.140625 -15.825927734375
9.630859375 -27.923828125 -44.171630859375
15.7294921875 0.343994140625 -13.39501953125
-9.935302734375 -83.01806640625 -62.2939453125
9.4814453125 -32.52197265625 -38.686279296875
-9.205078125 -79.564697265625 -62.66552734375
14.578857421875 -10.0830078125 -12.905517578125
11.86279296875 27.862060546875 5.246337890625
-0.046630859375 -60.56787109375 -48.740478515625
14.15771484375 -11.525146484375 -16.855224609375
12.62890625 -16.508056640625 -25.486083984375
3.844482421875 -49.735595703125 -53.865234375
0.33935546875 -42.263671875 -27.674560546875
-0.612548828125 -43.73046875 -29.69970703125
13.123779296875 -6.803466796875 -27.520263671875
10.269775390625 -35.6318359375 -31.178466796875
10.89453125 -22.96044921875 -32.588134765625
17.20068359375 10.917724609375 -11.552490234375
5.4521484375 -48.21923828125 -52.901611328125
12.549560546875 31.049560546875 4.299560546875
8.095458984375 -52.464111328125 -47.515869140625
14.8779296875 -8.332763671875 -12.025390625
15.60595703125 22.292236328125 21.4443359375
9.893310546875 -36.6064453125 -34.264892578125
-6.42431640625 -61.231689453125 -39.864013671875
-10.80517578125 -85.231201171875 -61.046142578125
13.970458984375 -1.079345703125 -24.686279296875
18.22119140625 17.240966796875 20.72021484375
4.712646484375 -14.380615234375 -8.82666015625
13.069091796875 -12.421875 -23.467041015625
10.4375 -33.785400390625 -28.430419921875
10.514892578125 -29.31005859375 -34.33837890625
-10.8251953125 -82.2802734375 -62.567138671875
9.817626953125 -24.986083984375 -40.150634765625
0.89501953125 -48.1845703125 -57.4228515625
1.74267578125 -57.0869140625 -48.963623046875
-8.462158203125 -82.6494140625 -60.64501953125
2.714599609375 -55.158203125 -49.133056640625
-10.619873046875 -69.37646484375 -71.269775390625
3.720947265625 -50.466064453125 -53.22021484375
-8.925537109375 -67.368408203125 -70.28076171875
11.624755859375 26.93212890625 0.952880859375
-16.557861328125 -75.03857421875 -72.09716796875
8.262939453125 -46.655029296875 -43.743408203125
-9.230712890625 -81.17724609375 -61.577880859375
6.507080078125 -41.57421875 -52.166748046875
14.716064453125 -2.169677734375 -20.046875
3.081787109375 -27.389404296875 -17.14453125
13.845947265625 -8.275146484375 -18.014892578125
10.649658203125 -32.016357421875 -30.17431640625
11.197509765625 -19.805908203125 -33.763671875
11.130126953125 -29.031982421875 -29.86083984375
7.63671875 -46.04345703125 -46.009521484375
6.73974609375 -43.212890625 -53.10986328125
4.990478515625 -11.1669921875 -6.81591796875
7.782958984375 -41.647216796875 -46.38330078125
17.485107421875 15.8623046875 -10.53759765625
-12.803466796875 -82.655517578125 -64.947021484375
-14.297607421875 -80.072265625 -68.117919921875
-11.391845703125 -80.783203125 -64.923828125
-9.993408203125 -79.718017578125 -64.3564453125
-9.04248046875 -87.4990234375 -58.1083984375
-12.47119140625 -81.073486328125 -65.728271484375
-7.4072265625 -81.20361328125 -60.925537109375
-8.13427734375 -68.99951171875 -70.013671875
-12.152099609375 -83.068359375 -63.79052734375
14.8583984375 -2.063720703125 -14.339111328125
-12.68115234375 -70.83154296875 -72.450927734375
6.958984375 -43.739501953125 -51.015625
18.441162109375 19.4765625 -11.70361328125
-2.73828125 -51.43994140625 -48.92333984375
3.932861328125 -51.7734375 -50.587646484375
15.448974609375 22.066650390625 19.653076171875
11.276123046875 -17.093994140625 -35.32080078125
-9.3056640625 23.279296875 15.94482421875
6.9716796875 -3.848388671875 -1.97021484375
11.6484375 -20.15625 -28.1162109375
11.281494140625 -23.1513671875 -28.52392578125
-3.2412109375 -54.92138671875 -46.991455078125
7.354248046875 -47.13720703125 -49.32373046875
8.90185546875 -34.439697265625 -44.562744140625
5.699951171875 -46.757080078125 -54.191162109375
7.325927734375 -51.2392578125 -47.287353515625
7.9658203125 -39.494873046875 -48.702880859375
11.897216796875 -14.01513671875 -34.010498046875
8.127685546875 -38.747802734375 -47.056396484375
7.638671875 -36.615234375 -50.48876953125
13.243896484375 -33.745361328125 -54.34765625
1.525634765625 -49.785888671875 -53.432373046875
6.493408203125 -44.470458984375 -52.982666015625
2.37646484375 -26.939697265625 -18.11083984375
15.048095703125 0.244384765625 -17.55322265625
8.908447265625 -31.611328125 -43.781982421875
8.409423828125 -39.769287109375 -45.087890625
16.1728515625 7.71875 -10.30419921875
8.770751953125 -45.105712890625 -40.0732421875
11.513427734375 -18.947265625 -37.896484375
13.694580078125 -6.052734375 -24.731689453125
12.34375 -16.790283203125 -27.43310546875
13.0517578125 -11.325439453125 -24.470703125
15.241943359375 -0.3154296875 -15.636474609375
14.70703125 -3.44091796875 -15.330810546875
13.632568359375 -31.39990234375 -51.02783203125
4.944091796875 -51.5390625 -52.111328125
8.29052734375 -44.902099609375 -41.9111328125
14.846923828125 -5.653076171875 -13.450439453125
0.600830078125 -60.1875 -48.14453125
10.007568359375 -31.40185546875 -34.580322265625
8.50439453125 -17.95751953125 -14.946533203125
8.5087890625 -35.841552734375 -45.454833984375
-10.031005859375 16.802734375 12.405029296875
4.35888671875 -43.897216796875 -55.619384765625
5.784912109375 -55.40576171875 -49.69140625
-8.063232421875 24.863037109375 13.516845703125
6.29931640625 -47.221435546875 -51.26708984375
16.398193359375 5.069091796875 -11.13525390625
16.7509765625 19.48583984375 17.601806640625
-0.255859375 -61.206298828125 -49.77490234375
4.013671875 -48.56298828125 -54.515625
10.36328125 -27.23876953125 -35.181396484375
13.4970703125 -34.79150390625 -54.669189453125
7.73779296875 -49.007568359375 -46.914306640625
2.61572265625 -58.575439453125 -48.147705078125
5.70703125 -48.890869140625 -51.43408203125
8.9140625 -45.330078125 -36.79736328125
8.93017578125 -44.35009765625 -38.45166015625
8.992919921875 -40.281494140625 -38.221923828125
5.39111328125 -45.1943359375 -53.764892578125
6.48095703125 -45.260986328125 -52.449462890625
3.10693359375 -54.305908203125 -48.845458984375
-1.48779296875 -50.259521484375 -55.91015625
2.54443359375 -51.8720703125 -51.046142578125
10.7109375 -28.17578125 -32.7646484375
-0.731201171875 -49.943603515625 -55.423828125
9.089599609375 -31.799560546875 -42.25048828125
6.923095703125 -45.9052734375 -50.573974609375
10.28271484375 -23.3232421875 -39.892578125
7.16015625 -49.885498046875 -47.610107421875
-11.4755859375 -81.867431640625 -63.72265625
10.77783203125 -30.74609375 -30.20849609375
6.014892578125 -50.854736328125 -49.538330078125
12.7529296875 -33.377685546875 -53.273681640625
-8.749755859375 21.226318359375 13.456787109375
-7.1240234375 -65.43017578125 -69.409912109375
4.407958984375 -15.388671875 -10.189697265625
7.0185546875 -49.277099609375 -49.180908203125
26.00146484375 1.47509765625 0.279052734375
15.676025390625 5.351806640625 -13.110107421875
2.653564453125 -48.816162109375 -55.60693359375
14.05615234375 -3.665283203125 -20.085205078125
11.076416015625 -20.5185546875 -33.146484375
11.526611328125 -25.021484375 -22.285400390625
13.60107421875 27.324951171875 7.234375
6.275634765625 -39.943603515625 -51.22802734375
13.10498046875 -16.992919921875 -20.514892578125
-8.524169921875 22.822509765625 14.30224609375
13.08642578125 -29.76416015625 -50.392333984375
2.942138671875 -25.58642578125 -16.915771484375
3.576171875 -22.76171875 -14.63330078125
8.19140625 -19.733642578125 -15.836181640625
11.17919921875 -29.736572265625 -50.92919921875
8.224609375 -46.70556640625 -41.9833984375
8.119384765625 -43.9453125 -43.98388671875
13.037353515625 -7.33056640625 -25.847900390625
13.279052734375 -9.84619140625 -22.965087890625
14.479248046875 -4.603759765625 -15.1923828125
9.736083984375 -25.61669921875 -41.253173828125
10.537841796875 -32.659912109375 -33.46240234375
12.331787109375 -10.67236328125 -31.42578125
8.038818359375 -37.33154296875 -46.86279296875
13.762939453125 -11.97021484375 -17.602294921875
-15.830078125 -79.91064453125 -69.65576171875
-8.9140625 -79.427734375 -63.552001953125
-5.52392578125 -60.546142578125 -39.49853515625
14.18896484375 28.388916015625 13.119384765625
8.3916015625 -33.873291015625 -46.920654296875
8.60791015625 -41.2822265625 -41.36376953125
10.30126953125 26.703125 2.549072265625
8.869384765625 -41.169921875 -40.45166015625
7.24609375 -44.56005859375 -50.18310546875
-3.88671875 -59.364013671875 -39.783203125
8.954833984375 -38.03076171875 -40.30322265625
-9.267578125 -62.8837890625 -41.371337890625
18.738525390625 19.14501953125 21.30615234375
15.066650390625 -4.208984375 -11.99365234375
13.64013671875 -6.402587890625 -22.01220703125
9.039794921875 -35.055419921875 -43.017822265625
8.971923828125 -41.634765625 -38.29833984375
11.787353515625 -16.05908203125 -31.283203125
8.966552734375 -32.662109375 -44.487548828125
13.5888671875 -3.125244140625 -25.00732421875
-13.869873046875 -82.138671875 -66.295654296875
12.426025390625 -28.646484375 -50.269287109375
11.16015625 -31.809326171875 -28.398681640625
2.65771484375 -46.088134765625 -57.73974609375
15.25732421875 1.438720703125 -15.036376953125
7.348876953125 -40.59130859375 -50.540771484375
10.8271484375 -27.337646484375 -30.591064453125
16.107421875 11.521728515625 -14.748291015625
9.44482421875 -30.412109375 -43.61572265625
12.59521484375 -20.31640625 -20.791015625
1.425048828125 -56.107177734375 -49.1689453125
9.223876953125 -41.92724609375 -35.145263671875
-11.820556640625 -84.25537109375 -62.39794921875
9.49560546875 -41.038818359375 -34.766357421875
16.744873046875 12.742431640625 -13.674072265625
9.67236328125 -38.953125 -33.097412109375
7.5009765625 25.783447265625 4.855712890625
13.091796875 -15.3662109375 -20.953125
9.85595703125 -34.3671875 -36.33154296875
-9.94921875 -86.594970703125 -59.575439453125
10.6630859375 -21.8515625 -36.204833984375
8.5654296875 -44.00390625 -41.523681640625
15.548828125 23.80810546875 -5.993896484375
8.991455078125 -42.587158203125 -34.414306640625
13.131591796875 -13.4111328125 -24.1201171875
-0.577392578125 15.872314453125 17.542724609375
10.02490234375 -30.418701171875 -36.213623046875
14.11767578125 -2.28076171875 -21.66552734375
10.648681640625 -32.365234375 -31.8662109375
-11.7490234375 -46.818115234375 -43.96044921875
14.116455078125 26.6708984375 -2.146728515625
14.388427734375 -1.75390625 -18.14453125
10.806884765625 -33.879638671875 -30.43310546875
10.4970703125 -25.753662109375 -36.322021484375
11.36083984375 -18.67431640625 -34.3916015625
10.455078125 -28.2763671875 -33.656494140625
10.66748046875 -31.037109375 -31.79736328125
8.85888671875 -39.466796875 -40.889892578125
9.0849609375 -43.79833984375 -35.71240234375
10.180419921875 -9.789306640625 -9.12158203125
11.882568359375 -25.852783203125 -23.73583984375
11.93212890625 32.948974609375 5.86181640625
12.69873046875 32.94189453125 7.185546875
14.034423828125 -0.74072265625 -22.57666015625
10.2138671875 -20.3076171875 -37.927734375
11.540771484375 -20.42578125 -29.686767578125
14.540771484375 -3.2255859375 -16.762451171875
10.9169921875 -33.049072265625 -54.446044921875
10.912109375 -24.40185546875 -33.254638671875
4.643798828125 -51.703125 -51.252685546875
5.605224609375 -43.584716796875 -54.41943359375
12.46435546875 -17.315185546875 -23.21435546875
11.05810546875 -19.729736328125 -35.859375
11.51708984375 -15.04248046875 -33.18212890625
15.341552734375 7.121337890625 -17.97998046875
-14.16357421875 -81.29931640625 -67.1474609375
11.329833984375 -29.776123046875 -26.768798828125
7.266845703125 -2.878173828125 -0.643798828125
-8.458740234375 -80.85498046875 -61.081787109375
10.3984375 -25.265869140625 -38.44580078125
9.513916015625 -37.588134765625 -37.37353515625
11.462890625 -23.45751953125 -29.8076171875
9.5283203125 -38.915771484375 -35.216552734375
13.793212890625 30.96484375 11.578125
1.8125 17.24462890625 18.034423828125
15.727783203125 3.1708984375 -13.781982421875
0.32470703125 -39.89306640625 -26.944580078125
11.534423828125 -23.055419921875 -27.643310546875
5.406494140625 -9.489013671875 -6.052001953125
1.02587890625 -39.44921875 -25.88720703125
11.15478515625 -25.0703125 -31.84912109375
11.792724609375 -24.82470703125 -25.236572265625
10.955078125 -23.65087890625 -31.577880859375
9.438720703125 -33.092041015625 -41.527587890625
12.17529296875 -13.65625 -29.280029296875
-8.2177734375 22.78515625 12.10400390625
12.00341796875 -18.24951171875 -28.86376953125
12.46240234375 -11.295166015625 -29.9365234375
12.486572265625 -9.77978515625 -30.95849609375
8.65673828125 24.6826171875 7.2978515625
7.32177734375 -5.4296875 -3.365234375
12.049560546875 -21.779296875 -24.738525390625
-7.261962890625 -67.766845703125 -69.519775390625
11.785888671875 -22.633544921875 -25.101318359375
1.616943359375 -34.596435546875 -22.799560546875
14.54931640625 0.905517578125 -21.8671875
14.239501953125 -1.0673828125 -21.705078125
12.402099609375 -21.953857421875 -22.880859375
-4.64599609375 -60.456298828125 -39.737060546875
9.498046875 -31.53515625 -40.331298828125
12.3837890625 -18.45703125 -24.83935546875
14.485595703125 1.86181640625 -21.22509765625
12.24658203125 -20.459228515625 -24.290283203125
10.164306640625 -33.27099609375 -34.84814453125
12.640869140625 -15.7509765625 -25.99658203125
12.5927734375 -11.91650390625 -28.4501953125
12.138916015625 -22.80712890625 -23.241943359375
12.39013671875 -15.841064453125 -26.87060546875
25.830322265625 2.62451171875 1.974853515625
12.51904296875 27.852783203125 0.73828125
11.461669921875 -27.62548828125 -24.56103515625
17.19189453125 17.92578125 -10.710693359375
12.89306640625 -10.3623046875 -26.443359375
12.470947265625 -14.705322265625 -25.240234375
2.068603515625 -31.048095703125 -19.709228515625
11.630126953125 -25.950927734375 -24.61181640625
14.018798828125 -10.317626953125 -15.080078125
12.572509765625 -10.51513671875 -27.80029296875
-0.339599609375 -51.02197265625 -33.8525390625
13.0546875 -8.42626953125 -24.845458984375
13.511474609375 -4.222900390625 -26.62451171875
1.0791015625 -60.9775390625 -46.899658203125
10.19677734375 -28.71923828125 -36.253173828125
4.311767578125 -51.712890625 -49.76611328125
15.490966796875 5.155029296875 -17.15673828125
25.53955078125 6.026123046875 4.8251953125
13.43310546875 -11.3310546875 -21.567626953125
0.310302734375 -51.630126953125 -51.256591796875
13.04931640625 -6.578125 -26.35546875
13.70654296875 -5.301513671875 -25.238525390625
15.80859375 4.468994140625 -13.26611328125
11.69091796875 -15.247802734375 -31.695556640625
13.60400390625 -13.908203125 -19.171142578125
13.67578125 -2.59375 -26.672607421875
-7.00341796875 -66.47119140625 -69.640869140625
6.89453125 -50.00634765625 -48.538818359375
13.6435546875 -11.129638671875 -20.12890625
10.656005859375 -29.366943359375 -32.235595703125
6.392822265625 -50.794921875 -48.717041015625
7.185302734375 -48.30615234375 -48.67529296875
14.984375 -1.64404296875 -16.53662109375
8.9912109375 -31.1044921875 -45.538330078125
13.910888671875 -4.8232421875 -22.161376953125
13.220703125 -15.97998046875 -19.48486328125
14.26953125 0.1513671875 -24.341552734375
9.244140625 -36.156982421875 -41.572998046875
14.172607421875 -10.254638671875 -16.802978515625
12.134033203125 -16.46630859375 -28.321533203125
13.3681640625 -13.244140625 -20.540283203125
13.356201171875 -13.99609375 -20.033203125
2.4541015625 -29.49658203125 -19.95751953125
14.531005859375 -9.177490234375 -14.934814453125
14.4189453125 -7.298095703125 -16.33447265625
13.600830078125 -2.375244140625 -25.512939453125
14.90087890625 -1.154052734375 -13.805419921875
14.6689453125 -9.04638671875 -13.9892578125
14.266357421875 -5.82373046875 -17.7197265625
8.732421875 -17.00244140625 -14.030517578125
9.2861328125 26.40283203125 1.401611328125
8.130615234375 -38.54052734375 -48.200927734375
11.087890625 -26.687255859375 -29.122802734375
9.17822265625 25.906494140625 5.926025390625
13.853271484375 -10.9287109375 -18.694580078125
14.56884765625 3.172119140625 -20.694091796875
11.38427734375 -26.168212890625 -28.250732421875
14.8583984375 1.8203125 -18.365234375
15.1904296875 -8.185302734375 -10.7099609375
14.83251953125 -4.05810546875 -13.8876953125
14.99609375 -4.78369140625 -13.010498046875
15.69384765625 1.458251953125 -11.742431640625
14.900634765625 2.7265625 -17.825927734375
14.7470703125 -1.99951171875 -19.000244140625
11.27587890625 -21.606689453125 -31.73388671875
4.23046875 -18.9072265625 -11.27587890625
11.55224609375 -24.160400390625 -26.628173828125
17.407470703125 14.59375 -11.04443359375
10.249267578125 25.79345703125 7.00048828125
5.8994140625 -39.997314453125 -52.046142578125
10.633544921875 26.681396484375 5.73046875
14.120849609375 -8.53271484375 -16.67041015625
17.00830078125 16.21923828125 -11.663330078125
9.61083984375 -26.6748046875 -42.350830078125
15.6005859375 6.112060546875 -16.150634765625
-0.931884765625 -58.12890625 -49.45947265625
13.95458984375 -12.216796875 -14.05859375
8.11767578125 -48.75732421875 -39.164794921875
16.446533203125 9.0029296875 -12.03515625
17.17578125 20.908203125 -9.53662109375
9.064453125 -33.497314453125 -44.068603515625
15.36328125 -2.47900390625 -11.11962890625
19.0947265625 16.14208984375 17.601806640625
16.053955078125 9.40380859375 -15.3291015625
18.13037109375 17.860595703125 16.952392578125
-14.940673828125 -80.63427734375 -67.53173828125
17.098876953125 8.66064453125 -10.53125
16.220458984375 6.8671875 -12.98291015625
4.936767578125 -49.801025390625 -52.547119140625
1.166015625 -48.06494140625 -56.485107421875
-8.3876953125 -66.72900390625 -70.75146484375
12.74072265625 -10.426025390625 -24.684814453125
4.809326171875 -13.061279296875 -8.31982421875
16.175537109375 4.919189453125 -9.913818359375
15.82568359375 0.06494140625 -12.442626953125
16.038330078125 7.60595703125 -11.23193359375
15.974853515625 12.394775390625 -14.591552734375
11.8388671875 -16.044189453125 -35.75927734375
16.733154296875 12.00830078125 -13.178955078125
16.7099609375 10.5400390625 -12.188720703125
10.791259765625 -22.689208984375 -33.5888671875
5.30029296875 -46.07421875 -53.75390625
6.93212890625 -47.63525390625 -50.137939453125
9.465576171875 -33.650634765625 -39.886474609375
12.823974609375 30.616943359375 1.58447265625
16.69091796875 14.88623046875 -13.006591796875
16.547119140625 2.60986328125 -10.853271484375
16.0595703125 -2.9228515625 -10.165771484375
16.824462890625 14.99169921875 -12.080078125
17.4033203125 16.396240234375 -12.50927734375
12.567626953125 -17.900390625 -23.881591796875
3.010986328125 -50.537841796875 -52.55224609375
11.390625 -16.291015625 -33.150634765625
25.78271484375 5.6826171875 3.110107421875
-4.0048828125 -54.296142578125 -47.380615234375
12.334716796875 -30.078125 -50.87548828125
7.607177734375 -45.493408203125 -47.680908203125
-8.108642578125 -84.019775390625 -59.903564453125
7.3134765625 -42.74853515625 -50.099609375
-8.963134765625 -83.62841796875 -59.639404296875
1.0107421875 -54.27685546875 -49.79736328125
13.460693359375 -16.11181640625 -17.555419921875
15.68310546875 7.903076171875 -15.083740234375
10.19873046875 24.713134765625 7.495361328125
4.084716796875 -46.53759765625 -55.58935546875
18.401611328125 16.55712890625 19.123291015625
13.599365234375 -13.6044921875 -17.54541015625
7.78271484375 -43.94580078125 -46.56201171875
7.568603515625 -40.914794921875 -49.607666015625
-10.37060546875 21.8671875 17.263427734375
-10.409912109375 -68.53466796875 -71.388916015625
9.05908203125 -50.9267578125 -45.3798828125
13.384033203125 26.233642578125 7.37646484375
12.34130859375 31.72119140625 8.902099609375
5.295166015625 -13.40625 -7.188720703125
16.757080078125 21.540771484375 -8.6416015625
3.4853515625 -22.17919921875 -13.98779296875
8.180419921875 -47.152099609375 -37.965087890625
13.008056640625 -13.810791015625 -21.87158203125
8.68798828125 -45.593017578125 -38.318359375
16.458251953125 9.737548828125 -12.530517578125
14.95947265625 24.63818359375 -3.944580078125
8.089599609375 -1.1416015625 1.280517578125
11.17333984375 -19.559326171875 -37.069580078125
13.45849609375 -12.199462890625 -21.637939453125
9.00146484375 -44.46337890625 -36.817138671875
16.812744140625 14.260009765625 -11.586669921875
-6.096923828125 -66.384521484375 -69.919921875
-11.072509765625 -80.00830078125 -65.16064453125
-10.619140625 -80.46044921875 -64.42724609375
-12.79052734375 -81.848388671875 -65.491455078125
8.415283203125 -39.39892578125 -43.339599609375
-11.590087890625 -83.592041015625 -63.17236328125
-10.486083984375 -84.45654296875 -61.282958984375
-9.738525390625 -69.121826171875 -70.890869140625
-10.703369140625 -81.544921875 -63.22607421875
-9.771484375 -80.835205078125 -62.84814453125
14.1533203125 -0.039306640625 -23.17724609375
-8.446044921875 -80.048828125 -61.62548828125
0.4365234375 -50.072265625 -58.3447265625
8.49658203125 -36.622802734375 -44.927978515625
13.846435546875 -13.517333984375 -16.6875
6.190185546875 23.887939453125 2.91015625
17.66796875 17.086669921875 -10.12353515625
4.216796875 -19.217529296875 -12.869384765625
12.730224609375 26.7080078125 12.31689453125
8.852294921875 -37.559326171875 -42.458984375
4.673583984375 -47.39306640625 -54.451416015625
2.2705078125 -47.339599609375 -55.701416015625
14.45166015625 1.1875 -22.83447265625
10.331298828125 -28.86181640625 -50.066650390625
0.275390625 -61.73779296875 -47.379150390625
9.2333984375 -34.46142578125 -42.00927734375
6.529296875 -49.27490234375 -49.89306640625
14.474609375 -9.516357421875 -12.26220703125
14.547607421875 -0.652587890625 -18.755615234375
25.716796875 3.2412109375 0.5634765625
-8.225341796875 -62.603271484375 -40.5947265625
7.9775390625 -50.464599609375 -44.924560546875
12.934326171875 29.2880859375 3.42236328125
14.142578125 -4.689697265625 -18.61669921875
10.194091796875 -36.0712890625 -33.377685546875
25.691650390625 4.73486328125 2.1474609375
7.11767578125 -38.7578125 -50.756591796875
11.47509765625 -25.11328125 -29.3701171875
12.890625 -19.2744140625 -19.3740234375
12.409423828125 -14.85888671875 -28.468017578125
10.183837890625 -36.484375 -31.156005859375
17.19970703125 18.435302734375 19.14892578125
14.447998046875 -4.77685546875 -16.231689453125
10.15185546875 -29.488037109375 -37.9541015625
7.50244140625 -49.674072265625 -46.16552734375
9.6806640625 -26.814453125 -40.723388671875
0.35595703125 -57.181640625 -49.423583984375
0.635986328125 -47.511474609375 -58.896484375
5.238525390625 -11.08349609375 -5.985107421875
12.474853515625 27.438232421875 11.575927734375
1.619384765625 -47.516845703125 -57.465087890625
11.831298828125 27.52734375 2.7900390625
5.386474609375 -47.517578125 -53.958740234375
7.64892578125 -47.56787109375 -46.719482421875
17.620849609375 18.641845703125 21.21875
15.198974609375 1.6142578125 -16.55712890625
3.3994140625 -45.03271484375 -55.985107421875
16.159912109375 20.072265625 20.484619140625
0.429443359375 -41.416015625 -27.698486328125
9.823974609375 -26.876708984375 -38.5986328125
2.519287109375 -53.452392578125 -49.98046875
6.279296875 -46.080322265625 -52.32763671875
-0.71875 -49.1533203125 -55.956787109375
0.468994140625 -50.070068359375 -54.2197265625
12.667724609375 27.777099609375 6.053955078125
11.046630859375 27.240478515625 4.9150390625
-0.737548828125 -50.9296875 -53.7314453125
12.538330078125 30.343505859375 4.775634765625
13.64453125 25.95751953125 8.62451171875
7.602783203125 25.99365234375 3.790771484375
7.10595703125 -41.637451171875 -51.56591796875
10.343994140625 -24.0185546875 -38.87109375
12.87451171875 -32.28662109375 -52.134765625
-11.316162109375 -47.249755859375 -43.260009765625
8.438720703125 -49.72314453125 -42.979736328125
-10.3349609375 21.701416015625 16.265625
6.205322265625 22.1201171875 6.782470703125
6.924072265625 25.21826171875 5.31640625
7.169189453125 23.78173828125 6.534423828125
10.42431640625 -23.392333984375 -37.775634765625
10.33349609375 -24.455322265625 -36.64453125
8.64453125 26.247802734375 1.934814453125
14.865234375 4.39013671875 -20.35546875
0.84228515625 -40.939697265625 -26.928955078125
13.249755859375 29.22509765625 0.678466796875
15.840087890625 20.75439453125 19.314697265625
9.69384765625 26.675537109375 4.045654296875
7.918701171875 -40.136474609375 -47.549560546875
0.82666015625 -37.118896484375 -25.552490234375
11.426513671875 -28.169921875 -27.30859375
11.952392578125 30.381591796875 9.66455078125
7.803466796875 -37.950439453125 -50.17041015625
8.279052734375 -47.98681640625 -41.55224609375
13.07373046875 -31.47412109375 -52.25634765625
