10.10693359375 -20.688232421875 -21.871826171875
14.876220703125 20.8291015625 8.42041015625
-1.421142578125 -22.689453125 -23.992919921875
12.076171875 -26.02734375 -24.88525390625
4.765869140625 -58.447265625 -56.156982421875
0.405029296875 -19.12890625 -19.274658203125
9.70068359375 26.157958984375 14.52001953125
20.2294921875 -46.567626953125 -50.9873046875
11.97607421875 12.408203125 3.529296875
8.1455078125 -25.890380859375 -25.84912109375
24.421875 28.525634765625 4.955322265625
7.810302734375 17.20068359375 8.219970703125
5.62353515625 18.654052734375 10.00537109375
3.279541015625 -20.83203125 -19.954833984375
4.650146484375 -31.061279296875 -28.1806640625
-9.23828125 20.51611328125 15.23583984375
9.221923828125 3.885498046875 -2.53076171875
18.1162109375 23.527587890625 12.214599609375
0.218017578125 -45.080322265625 -37.379638671875
14.45263671875 -1.922607421875 -8.493408203125
15.919189453125 -51.076904296875 -51.83984375
-7.80712890625 18.039306640625 12.615478515625
-8.75732421875 24.757080078125 18.13818359375
2.5595703125 21.545654296875 12.86181640625
11.39111328125 -58.775634765625 -49.59033203125
6.9091796875 -14.983154296875 -16.1953125
4.455078125 -24.507080078125 -23.0126953125
11.978271484375 8.705322265625 0.632080078125
-10.563720703125 19.893310546875 13.813232421875
17.064697265625 25.37744140625 7.987548828125
4.118896484375 -16.47412109375 -16.701171875
10.04833984375 -24.736572265625 -24.74560546875
22.769775390625 32.668212890625 6.093505859375
4.978759765625 -2.080078125 -6.68798828125
11.755615234375 10.94091796875 2.300537109375
-2.42919921875 -49.64111328125 -40.268310546875
6.760498046875 3.54833984375 -2.033203125
12.040283203125 -19.5556640625 -23.345458984375
7.6943359375 -30.795654296875 -29.113037109375
18.104248046875 23.432373046875 8.28564453125
17.475341796875 -52.55615234375 -46.463134765625
16.518798828125 -49.127685546875 -54.836181640625
17.294921875 22.45068359375 6.24609375
-4.072509765625 -42.62890625 -53.130859375
11.83984375 -53.388427734375 -51.0673828125
2.54736328125 17.23046875 9.70703125
14.567138671875 -43.705810546875 -59.906494140625
-5.662109375 15.495849609375 10.37890625
14.236083984375 -53.44580078125 -50.07373046875
20.314453125 -43.882080078125 -58.0361328125
1.02392578125 25.631591796875 13.826416015625
5.34326171875 21.52978515625 12.234130859375
-8.014404296875 15.525146484375 10.828125
3.990478515625 27.206298828125 16.865478515625
3.9951171875 -42.758544921875 -37.025390625
0.410400390625 23.3330078125 14.725341796875
-8.74072265625 -51.834228515625 -55.6826171875
12.583251953125 -44.96240234375 -61.2890625
6.44873046875 -43.79345703125 -39.507080078125
5.311279296875 -6.325927734375 -9.593505859375
17.1806640625 -55.4267578125 -45.408203125
2.213134765625 -23.20361328125 -21.418212890625
6.50927734375 25.79296875 15.20654296875
6.82958984375 -56.518310546875 -57.853515625
-8.45947265625 -46.51025390625 -50.061279296875
11.4189453125 6.477783203125 -1.0673828125
7.248779296875 11.373779296875 3.57373046875
10.6943359375 -54.815673828125 -54.764892578125
3.994384765625 -19.65625 -19.113037109375
16.35009765625 6.0908203125 -4.2900390625
17.40380859375 20.22216796875 5.264892578125
9.7109375 -28.420166015625 -28.34033203125
17.155517578125 -38.6337890625 -58.741455078125
16.71826171875 -51.3984375 -49.15576171875
14.281982421875 -51.8828125 -52.475341796875
3.171630859375 -29.34375 -26.2568359375
5.27490234375 -11.390380859375 -12.86474609375
2.384033203125 -59.27783203125 -57.623779296875
6.5341796875 1.665771484375 -3.4072265625
14.742919921875 -51.443359375 -60.046875
-0.643798828125 21.549560546875 13.796142578125
10.92724609375 -60.710205078125 -47.281005859375
18.918212890625 22.7353515625 17.74853515625
15.112548828125 -53.357666015625 -47.73828125
-1.6640625 20.144775390625 12.72216796875
20.078857421875 -50.801025390625 -51.000244140625
19.136962890625 -44.193115234375 -56.384521484375
1.458740234375 -15.981689453125 -17.563232421875
-7.122314453125 -48.722900390625 -51.17138671875
10.163330078125 -50.723388671875 -58.44677734375
6.78271484375 -0.2255859375 -5.25927734375
15.369140625 -55.019775390625 -47.11669921875
16.02880859375 25.671630859375 9.3955078125
-3.748779296875 27.093017578125 10.662353515625
6.872314453125 7.6904296875 0.468994140625
27.791259765625 31.578125 4.40087890625
3.247314453125 -25.671875 -23.360107421875
14.7177734375 -51.60595703125 -54.927001953125
4.53125 -60.9306640625 -55.25244140625
-9.403564453125 -54.82080078125 -42.42919921875
18.808837890625 20.6484375 4.151611328125
-9.588134765625 25.82177734375 18.9541015625
-0.39013671875 -47.62548828125 -39.460205078125
-0.15087890625 -49.81201171875 -41.55712890625
-0.025634765625 -31.664794921875 -27.268798828125
7.705810546875 14.289306640625 6.01123046875
6.200927734375 -16.148193359375 -17.030029296875
9.793212890625 -5.67236328125 -10.007080078125
7.62109375 -51.48681640625 -58.933837890625
18.054443359375 -36.5234375 -58.478759765625
7.345458984375 -5.99365234375 -9.769775390625
15.588623046875 11.028076171875 -1.399169921875
8.812255859375 -66.802734375 -51.266357421875
5.40625 -62.952392578125 -53.13623046875
5.08251953125 -26.971923828125 -24.901611328125
24.603515625 -40.875732421875 -52.5283203125
24.67578125 -39.180419921875 -52.587890625
5.495849609375 -4.408935546875 -7.912109375
0.622802734375 -65.48046875 -44.91845703125
7.7744140625 -2.159912109375 -6.827392578125
4.552734375 17.588134765625 9.294189453125
7.668701171875 -10.28857421875 -12.569091796875
1.113037109375 19.757568359375 11.97900390625
2.407470703125 19.04345703125 10.940185546875
4.611083984375 25.464599609375 15.096435546875
2.585693359375 -61.3544921875 -56.64501953125
13.513916015625 -55.451416015625 -48.802978515625
2.909423828125 -35.951416015625 -31.262939453125
6.312744140625 -8.685546875 -11.3134765625
12.97998046875 22.240234375 10.545654296875
7.99853515625 -67.437744140625 -49.07470703125
19.53466796875 -41.192626953125 -55.584228515625
5.1748046875 23.31689453125 13.585205078125
-11.992919921875 -45.02197265625 -48.3974609375
-4.553466796875 -79.130615234375 -50.46923828125
-6.557373046875 -57.6494140625 -45.593505859375
8.0595703125 -55.411865234375 -59.868408203125
1.093017578125 -40.045166015625 -33.796630859375
15.067626953125 -57.458251953125 -45.91650390625
0.39990234375 -46.3935546875 -38.8740234375
16.74560546875 11.864501953125 -3.180908203125
9.372314453125 -18.65087890625 -19.5517578125
0.528564453125 -28.002685546875 -24.72412109375
7.5966796875 -29.55517578125 -28.26025390625
-2.32080078125 25.911376953125 11.00634765625
11.60888671875 4.59375 -2.496826171875
-4.0546875 -45.916748046875 -51.161376953125
9.396728515625 9.855712890625 2.14306640625
-6.981201171875 -51.958251953125 -41.0986328125
27.89404296875 34.644287109375 4.426513671875
-4.934814453125 -48.2666015625 -39.884033203125
-10.936279296875 23.19970703125 14.639892578125
13.8623046875 6.814697265625 -1.4267578125
-0.180419921875 -61.325439453125 -58.228515625
7.534423828125 -32.870849609375 -31.07373046875
9.2021484375 -22.260986328125 -21.685791015625
17.79150390625 24.386474609375 15.98828125
-2.761962890625 -55.29638671875 -45.08203125
6.647216796875 5.826171875 -0.892822265625
9.4384765625 1.610107421875 -4.227294921875
17.88134765625 16.936767578125 -4.024169921875
13.0791015625 -52.987548828125 -58.262939453125
1.484619140625 -44.30908203125 -37.312744140625
-9.6376953125 -57.8525390625 -44.596435546875
5.570068359375 -40.727783203125 -35.999755859375
7.780517578125 -27.50390625 -26.466064453125
-7.099853515625 25.892578125 17.391357421875
1.9599609375 23.681884765625 14.6318359375
0.916259765625 -42.580322265625 -35.9228515625
1.114013671875 -30.07275390625 -26.340576171875
-0.561767578125 -35.36328125 -29.984619140625
7.53173828125 -4.464599609375 -8.211669921875
10.9697265625 21.506103515625 10.84033203125
-1.1025390625 -39.095458984375 -32.724853515625
20.671142578125 -48.72998046875 -51.473388671875
11.678955078125 -14.340576171875 -17.922119140625
15.08447265625 24.5029296875 10.066650390625
12.682861328125 -4.183837890625 -10.206787109375
2.501953125 -54.139404296875 -57.1474609375
3.99267578125 -33.509765625 -29.751953125
3.406005859375 -52.471923828125 -57.035400390625
-9.525634765625 -48.234375 -52.0146484375
6.688720703125 12.47265625 4.78662109375
12.869384765625 34.82275390625 5.209716796875
7.969970703125 -17.004150390625 -18.1171875
14.165771484375 1.542724609375 -6.254638671875
12.995849609375 18.261474609375 7.602783203125
18.458251953125 -41.70947265625 -59.369140625
14.28759765625 11.41259765625 -0.6962890625
18.899169921875 -49.179443359375 -53.669921875
17.14453125 -36.549072265625 -60.72412109375
8.815673828125 7.25390625 0.467529296875
-0.675537109375 -33.702880859375 -28.84716796875
5.787109375 -55.262451171875 -59.143798828125
10.733154296875 -10.76513671875 -14.121337890625
13.769287109375 -12.415771484375 -17.877197265625
8.982666015625 6.141845703125 -0.708984375
18.09130859375 -42.04931640625 -57.37451171875
30.55126953125 32.28759765625 4.51708984375
-6.01318359375 20.16748046875 13.812744140625
7.083984375 -12.6220703125 -14.345703125
2.822265625 22.600341796875 13.798095703125
12.0947265625 -3.01806640625 -8.927978515625
7.05078125 -42.0927734375 -37.700927734375
-8.139892578125 -50.906005859375 -53.600830078125
25.218017578125 -38.722412109375 -50.813232421875
1.226318359375 -20.3564453125 -19.64892578125
9.192138671875 -15.850830078125 -17.91748046875
11.805908203125 -52.796142578125 -55.8095703125
26.0986328125 -39.9677734375 -48.903564453125
14.088134765625 -3.808349609375 -11.246826171875
11.3876953125 14.25830078125 4.983154296875
12.467041015625 -6.11669921875 -11.62353515625
14.103515625 -45.408935546875 -60.098388671875
16.769287109375 25.7158203125 13.587890625
-3.42041015625 -47.44970703125 -38.6552734375
-5.44189453125 -55.9453125 -44.144287109375
2.983154296875 -10.12646484375 -13.243408203125
-11.09130859375 -58.73779296875 -46.473876953125
13.458984375 3.440673828125 -4.195556640625
4.831298828125 -38.142822265625 -33.42822265625
3.508056640625 -7.81298828125 -11.054931640625
14.041259765625 5.69580078125 -2.61328125
-2.0126953125 -37.391845703125 -31.741455078125
12.25048828125 -8.058837890625 -13.04736328125
0.7216796875 -67.024658203125 -43.2060546875
11.16552734375 -54.27490234375 -52.33740234375
-4.3310546875 -43.821533203125 -51.64013671875
13.730712890625 -53.106201171875 -52.03125
11.20703125 -22.771728515625 -26.27880859375
1.838623046875 25.8369140625 15.8291015625
-2.45458984375 -43.956298828125 -52.90771484375
15.18212890625 3.806640625 -4.857177734375
18.199951171875 14.211669921875 -4.12451171875
6.778076171875 -22.574462890625 -21.866455078125
10.593994140625 17.9140625 7.943603515625
5.81201171875 -38.628662109375 -34.46337890625
5.45849609375 16.118408203125 8.192626953125
11.44482421875 -56.230224609375 -49.3583984375
14.668212890625 -42.00341796875 -60.132080078125
14.381103515625 -42.888916015625 -61.184326171875
8.588134765625 -54.450439453125 -57.583984375
25.134033203125 30.7490234375 5.695556640625
11.34375 -51.17431640625 -57.844482421875
-0.36083984375 -22.318603515625 -22.886474609375
2.5712890625 -63.74609375 -54.352783203125
8.634521484375 -57.176513671875 -53.2314453125
15.81982421875 -50.003173828125 -55.95849609375
7.36669921875 -61.2509765625 -51.638427734375
-9.738525390625 -52.763916015625 -58.0263671875
2.3994140625 -14.8310546875 -15.649169921875
6.299072265625 19.72314453125 10.768798828125
0.69287109375 -63.77587890625 -56.082275390625
8.741455078125 -51.482421875 -57.852783203125
18.0537109375 23.647705078125 10.57666015625
0.60498046875 -21.941162109375 -21.202392578125
15.37744140625 19.730224609375 7.616455078125
-8.5322265625 16.96240234375 12.117919921875
7.04931640625 9.534423828125 2.092529296875
27.18896484375 35.82470703125 4.23046875
20.64794921875 -43.10400390625 -59.7197265625
1.047607421875 21.213623046875 12.69970703125
18.939453125 22.408935546875 11.75830078125
-11.1962890625 -53.966064453125 -50.623291015625
10.05517578125 -0.302978515625 -5.86962890625
25.17626953125 35.459228515625 4.389892578125
-5.7822265625 17.305419921875 11.605712890625
3.705810546875 -45.2802734375 -38.405517578125
13.98291015625 25.88623046875 12.07177734375
21.412841796875 32.23681640625 6.934814453125
10.822265625 18.979248046875 9.02978515625
-11.330810546875 -43.7265625 -46.6943359375
5.195068359375 -63.039306640625 -54.51904296875
12.397216796875 16.07373046875 6.208740234375
7.21533203125 -34.515869140625 -32.003173828125
3.841796875 -66.41162109375 -49.4736328125
11.5263671875 24.389404296875 12.57275390625
-4.268798828125 -53.854248046875 -43.027587890625
12.83984375 -57.040771484375 -47.711181640625
22.87353515625 -30.320556640625 -59.82421875
14.460205078125 -50.047119140625 -58.10888671875
11.967041015625 -13.16064453125 -17.0205078125
4.1806640625 20.80712890625 12.1611328125
-7.5517578125 19.455078125 13.7919921875
22.379638671875 -47.4140625 -48.837890625
6.59130859375 -53.54638671875 -58.372802734375
22.59033203125 -44.393798828125 -47.09765625
-10.96630859375 -56.904296875 -43.781982421875
9.056640625 25.112060546875 13.63671875
9.195556640625 22.941162109375 12.426513671875
3.83154296875 -13.304931640625 -14.247314453125
3.925537109375 19.376220703125 11.1025390625
-8.9990234375 -52.30859375 -41.656005859375
12.378173828125 -9.235595703125 -13.9990234375
4.16845703125 -40.6318359375 -35.027099609375
15.113037109375 -46.99755859375 -56.23486328125
12.0888671875 -48.706298828125 -59.166259765625
-3.379638671875 18.408203125 11.118408203125
-0.379150390625 19.43310546875 11.687744140625
-6.9794921875 -60.603271484375 -46.363037109375
12.78271484375 -47.5107421875 -60.448486328125
2.458740234375 -11.271728515625 -15.20458984375
8.801513671875 27.22412109375 15.48095703125
-4.809326171875 23.4794921875 14.177001953125
15.7744140625 27.86767578125 15.1572265625
-9.30810546875 21.948974609375 16.072021484375
7.939208984375 -62.8779296875 -50.283447265625
7.78759765625 25.086669921875 14.30810546875
4.311279296875 -9.79833984375 -11.529296875
5.612548828125 -27.814453125 -25.82421875
12.720947265625 -43.701416015625 -61.833251953125
2.611083984375 24.7255859375 15.510009765625
-4.55224609375 -50.366943359375 -40.19189453125
6.240478515625 -65.8046875 -51.00244140625
-5.484619140625 -46.2265625 -50.1220703125
-4.2802734375 -47.960693359375 -50.128662109375
17.54248046875 -45.3447265625 -54.9619140625
9.265380859375 -9.16015625 -12.291748046875
13.3017578125 -54.6591796875 -49.878662109375
9.297119140625 -55.4189453125 -51.665771484375
6.310791015625 -66.498779296875 -48.96435546875
9.94091796875 -6.836181640625 -11.08837890625
-4.72607421875 26.637451171875 11.943603515625
-9.811279296875 -44.300048828125 -48.7978515625
-6.57666015625 21.93408203125 15.45703125
9.0380859375 -37.662109375 -38.60546875
22.977783203125 -41.17138671875 -50.828857421875
16.156982421875 -47.83935546875 -54.966796875
-9.68505859375 -46.89306640625 -50.459716796875
-2.326416015625 21.8837890625 14.88671875
-7.204345703125 -46.98828125 -50.11181640625
8.002197265625 -64.864990234375 -48.524169921875
12.732177734375 20.052490234375 9.373779296875
10.711669921875 -59.92822265625 -48.351318359375
3.929443359375 -23.6748046875 -22.099609375
-7.584716796875 -43.166259765625 -49.373046875
-4.155517578125 21.5830078125 14.39404296875
15.80712890625 2.744873046875 -8.420654296875
13.238037109375 8.69287109375 0.190673828125
15.2275390625 0.00146484375 -7.9853515625
-8.482666015625 -41.41845703125 -48.489013671875
-0.2080078125 -26.76904296875 -24.928955078125
10.762939453125 -21.121337890625 -23.38623046875
-12.46435546875 -57.337646484375 -45.19775390625
19.73388671875 -41.326416015625 -59.124755859375
-6.57958984375 24.1279296875 16.013427734375
-14.00439453125 -41.453125 -44.75927734375
0.350830078125 -40.860107421875 -34.540283203125
12.751220703125 -49.543212890625 -58.139404296875
-11.850341796875 -55.14794921875 -42.915771484375
-5.885986328125 -49.1943359375 -51.0625
3.983154296875 -54.713623046875 -58.51513671875
6.421875 14.281494140625 6.7041015625
8.803466796875 0.110107421875 -5.43017578125
16.44091796875 -42.857421875 -58.0185546875
10.35693359375 -19.890380859375 -20.799072265625
-5.662841796875 -50.409912109375 -49.97509765625
-8.574462890625 -45.617919921875 -48.97705078125
3.745849609375 -66.13818359375 -51.498291015625
-6.589599609375 -50.70751953125 -40.59423828125
17.015869140625 -41.529296875 -56.0849609375
9.691650390625 -13.095947265625 -15.560546875
-0.90966796875 -64.199462890625 -45.6142578125
20.033203125 -46.29052734375 -54.580078125
20.34326171875 -42.5048828125 -55.531005859375
-0.22265625 -52.038330078125 -44.38037109375
3.599853515625 -15.66455078125 -15.80908203125
19.69287109375 -46.622314453125 -52.77587890625
29.205078125 32.623046875 5.339111328125
20.584716796875 -40.33203125 -54.05078125
0.73095703125 -60.09228515625 -58.265625
7.324462890625 -56.404296875 -55.553955078125
6.926025390625 -50.643310546875 -59.796142578125
8.18408203125 -36.71484375 -35.798583984375
11.0615234375 -21.9501953125 -25.271728515625
19.100830078125 -41.346435546875 -60.4580078125
11.963623046875 -24.395751953125 -23.91064453125
-0.453125 -36.61865234375 -30.990478515625
7.50439453125 -36.638671875 -34.2041015625
6.7333984375 23.667236328125 13.490478515625
-3.23974609375 20.15673828125 13.061279296875
6.308349609375 -42.916748046875 -38.454833984375
1.11962890625 27.882080078125 13.747314453125
3.0556640625 -41.859619140625 -36.1484375
15.94384765625 -41.620361328125 -59.8876953125
-0.12841796875 -29.209716796875 -26.0224609375
15.537109375 12.104248046875 -7.298828125
15.368408203125 27.068115234375 11.0927734375
13.736083984375 -41.610595703125 -62.23486328125
11.966796875 27.94873046875 15.0380859375
-3.942138671875 -56.970458984375 -46.06298828125
8.666748046875 -30.8525390625 -29.9970703125
-6.42529296875 -54.145751953125 -42.651611328125
6.2099609375 20.807373046875 11.507568359375
-1.808349609375 -32.856201171875 -29.27001953125
19.263916015625 -51.01953125 -56.0595703125
-1.569091796875 -43.716796875 -36.22412109375
16.02294921875 13.27783203125 -7.538818359375
-1.654052734375 -53.596435546875 -43.63330078125
7.423095703125 -7.55322265625 -10.554931640625
10.04736328125 -4.134765625 -8.864501953125
1.632568359375 28.12255859375 15.292236328125
16.454345703125 15.093994140625 -5.234375
0.86962890625 -37.513671875 -31.767578125
20.18017578125 -50.52392578125 -53.856201171875
14.1455078125 -50.933349609375 -58.989990234375
-0.8916015625 -41.219482421875 -34.621826171875
11.037109375 1.56787109375 -4.32470703125
7.84423828125 -20.600341796875 -20.52978515625
12.6513671875 -0.34326171875 -7.056396484375
17.34375 -36.9501953125 -59.46240234375
-10.654052734375 24.243408203125 15.565673828125
0.338623046875 -52.962646484375 -45.525146484375
9.826904296875 -49.439697265625 -58.74267578125
11.609375 0.809326171875 -5.457275390625
2.950439453125 -31.392822265625 -27.898681640625
-1.264892578125 -63.76708984375 -57.32763671875
11.775146484375 -23.1865234375 -24.91845703125
12.849853515625 4.571533203125 -2.807861328125
5.078125 -14.135498046875 -14.68994140625
-5.310546875 -43.7392578125 -50.689208984375
7.45947265625 -58.0234375 -54.10693359375
29.017333984375 30.4375 4.00537109375
8.205322265625 -19.010009765625 -19.9248046875
0.1357421875 -38.736572265625 -32.64306640625
1.7509765625 -27.645751953125 -24.641357421875
12.471435546875 14.962890625 5.586669921875
9.990478515625 15.728515625 6.552490234375
26.451171875 31.914794921875 5.222412109375
10.861083984375 -48.6708984375 -59.59033203125
-4.151123046875 24.697509765625 12.67578125
16.0234375 -54.985595703125 -45.993896484375
9.0 -23.068115234375 -23.054443359375
-2.265869140625 -51.807861328125 -41.902587890625
2.050048828125 -26.031494140625 -23.589599609375
5.185791015625 -36.908935546875 -32.783203125
-4.61572265625 22.658203125 15.171875
6.478271484375 -60.943115234375 -54.01171875
16.30810546875 9.45703125 -1.32421875
6.828125 -18.559814453125 -18.87939453125
-8.70751953125 -59.216552734375 -45.640625
-6.51025390625 -42.432373046875 -50.827392578125
17.3935546875 -53.803466796875 -46.260009765625
10.85009765625 22.580810546875 11.70947265625
12.486572265625 -52.47607421875 -57.212890625
-6.017822265625 -59.8583984375 -47.01318359375
9.675048828125 -63.6513671875 -48.0693359375
11.314697265625 -11.564208984375 -15.29541015625
13.340087890625 -46.267822265625 -60.90478515625
22.159912109375 -46.925048828125 -47.57275390625
-14.270751953125 -45.27880859375 -47.066162109375
-12.087890625 -58.81982421875 -48.46435546875
11.799560546875 25.45263671875 13.3837890625
-1.513427734375 -62.105712890625 -58.12841796875
15.068603515625 2.313232421875 -6.677978515625
14.02685546875 10.5849609375 0.54931640625
10.873779296875 -61.967529296875 -47.23681640625
18.633056640625 -52.9990234375 -45.87646484375
2.746337890625 -38.876708984375 -33.509521484375
-7.50732421875 -44.465087890625 -50.284423828125
3.51171875 -55.974853515625 -58.556396484375
1.559814453125 -35.053955078125 -30.337158203125
-3.154541015625 -66.122802734375 -39.53466796875
-10.150634765625 18.797607421875 13.288818359375
8.659912109375 -55.6220703125 -55.65283203125
-1.232421875 -26.74853515625 -26.2041015625
2.5693359375 -11.294677734375 -13.4228515625
18.279296875 22.740478515625 7.2578125
-12.951171875 -44.938232421875 -47.459228515625
12.9306640625 27.644775390625 13.919189453125
-1.707275390625 -42.797607421875 -54.805908203125
2.669189453125 -28.502197265625 -25.48095703125
9.076416015625 -55.91259765625 -53.028564453125
1.6787109375 -12.4296875 -15.607666015625
-1.87548828125 -45.814453125 -37.459228515625
3.741943359375 -12.123046875 -13.438720703125
24.205810546875 31.083740234375 6.45703125
8.09033203125 18.28125 9.042724609375
5.7109375 -45.04248046875 -40.405517578125
17.875732421875 -46.624755859375 -54.668212890625
11.1640625 -53.558837890625 -54.7236328125
1.546630859375 -64.715576171875 -45.251953125
24.413818359375 -39.551513671875 -51.277587890625
-10.336181640625 17.409912109375 11.5966796875
20.933349609375 -47.415771484375 -50.303466796875
13.22216796875 -1.89111328125 -8.31298828125
18.6748046875 15.763671875 -4.238037109375
9.4951171875 12.80712890625 4.384033203125
-10.13232421875 -59.91064453125 -44.607666015625
10.95556640625 -51.89794921875 -55.684326171875
27.062255859375 -40.452392578125 -49.521240234375
-9.462646484375 -42.18017578125 -47.678466796875
3.752197265625 -3.543701171875 -9.169677734375
-13.166015625 -42.751220703125 -45.17431640625
4.947265625 -7.483154296875 -10.05078125
6.142578125 -24.17138671875 -23.28759765625
-0.0849609375 27.319580078125 11.668701171875
8.68798828125 16.46533203125 7.48095703125
10.592041015625 10.2119140625 2.09423828125
7.890625 12.07568359375 4.50048828125
5.35009765625 -52.640869140625 -58.496337890625
11.80517578125 9.810546875 1.803955078125
-4.96875 -58.728759765625 -48.155517578125
18.763916015625 -39.5400390625 -58.201416015625
4.85986328125 -28.603759765625 -26.40283203125
-8.458740234375 -55.759765625 -43.479736328125
-0.658447265625 17.623779296875 10.642333984375
6.443359375 26.869873046875 15.805419921875
21.86328125 33.38134765625 6.839599609375
5.451904296875 -3.2470703125 -7.3984375
9.0537109375 5.00634765625 -1.346435546875
16.32861328125 12.747314453125 -5.014404296875
8.3154296875 19.71337890625 10.24072265625
10.358154296875 12.052490234375 3.766357421875
14.599853515625 -2.6875 -9.444091796875
-8.60107421875 -54.003173828125 -41.98046875
22.741943359375 35.83984375 4.8447265625
10.378173828125 4.232666015625 -2.30908203125
17.653076171875 24.77197265625 10.85107421875
1.493408203125 -24.3876953125 -22.265625
-1.897216796875 19.4697265625 11.6416015625
11.723876953125 7.598388671875 -0.351806640625
2.3515625 -13.249267578125 -14.9931640625
-2.826904296875 -41.1689453125 -35.491455078125
16.236083984375 -44.957275390625 -57.285888671875
8.2666015625 -55.340087890625 -58.462158203125
9.4921875 8.73583984375 1.37744140625
14.59375 -55.86181640625 -47.73486328125
14.31201171875 0.786865234375 -7.19775390625
24.060302734375 32.6953125 5.52880859375
13.490966796875 -59.132568359375 -46.990478515625
18.867431640625 -44.980224609375 -55.045654296875
16.143798828125 23.0908203125 8.308349609375
16.8466796875 26.267578125 11.295654296875
16.7685546875 21.282958984375 6.73828125
-2.665283203125 -45.589599609375 -51.8837890625
9.981689453125 -56.247802734375 -50.822021484375
7.746337890625 1.636962890625 -3.582275390625
-7.47802734375 23.347412109375 16.77587890625
4.55615234375 -57.227783203125 -57.26904296875
11.443359375 2.71728515625 -4.149658203125
7.608154296875 -1.01806640625 -5.625244140625
15.800048828125 20.86083984375 7.6533203125
16.117919921875 -51.4462890625 -50.61083984375
-12.6357421875 -43.231201171875 -46.174072265625
1.68505859375 17.960205078125 10.43798828125
5.76953125 -67.7021484375 -48.526123046875
12.71630859375 -53.576416015625 -53.730712890625
8.2421875 -34.58984375 -33.199462890625
10.91357421875 -17.505859375 -18.8369140625
8.198486328125 -67.113525390625 -50.211181640625
13.643798828125 -6.901123046875 -13.842041015625
4.996337890625 -64.666259765625 -53.648193359375
0.006103515625 25.7080078125 13.08544921875
8.56298828125 21.14794921875 11.30419921875
6.2958984375 -62.149658203125 -53.15673828125
6.892822265625 2.803466796875 -2.9599609375
9.381103515625 -60.011962890625 -50.61328125
9.187255859375 -60.78173828125 -49.62109375
13.06103515625 10.943115234375 1.59326171875
16.332275390625 -40.67724609375 -56.942626953125
20.8056640625 -42.78076171875 -51.035400390625
14.35546875 -46.672119140625 -59.30517578125
-11.090576171875 -45.507080078125 -49.0068359375
15.0859375 7.5595703125 -1.4912109375
-4.826904296875 -52.087158203125 -41.612060546875
-1.285888671875 -31.202392578125 -26.93505859375
-6.506103515625 20.863525390625 14.732421875
-8.81298828125 -50.943359375 -54.90185546875
5.253662109375 -1.332763671875 -5.80859375
1.500732421875 -18.76806640625 -18.47119140625
-6.20703125 -44.958251953125 -50.654541015625
17.701904296875 24.561279296875 8.562744140625
-1.83447265625 -40.736083984375 -33.73974609375
3.036376953125 -66.18212890625 -47.01025390625
-9.13623046875 -52.764404296875 -49.92578125
16.178466796875 13.978515625 -6.100830078125
4.652587890625 24.37646484375 14.624267578125
5.87451171875 -25.786376953125 -24.48681640625
7.299560546875 -39.155517578125 -36.03125
11.144287109375 16.45166015625 6.757080078125
7.577392578125 22.941162109375 12.896240234375
0.537109375 -61.72998046875 -57.38623046875
8.86328125 -58.401611328125 -52.29296875
8.162353515625 9.1103515625 2.339111328125
16.707275390625 -44.02587890625 -54.851806640625
25.168212890625 29.6298828125 5.336669921875
2.462890625 -58.01513671875 -57.83251953125
5.04248046875 -35.6416015625 -31.618408203125
-10.2333984375 25.161376953125 18.076904296875
9.26123046875 10.582763671875 3.053466796875
-13.158203125 -40.65478515625 -44.62109375
-10.464599609375 -53.165283203125 -43.36083984375
8.887939453125 -24.697265625 -25.137451171875
6.178955078125 -20.538818359375 -20.272705078125
0.440673828125 -63.41455078125 -57.1630859375
0.5654296875 24.50146484375 14.04638671875
7.679931640625 -60.10546875 -53.298583984375
6.715576171875 4.69091796875 -1.5302734375
17.77685546875 -43.259521484375 -55.853515625
1.87646484375 -62.921875 -55.203369140625
6.1640625 -32.796142578125 -30.268798828125
5.029296875 -17.300048828125 -17.51611328125
-0.335693359375 -64.93798828125 -55.231689453125
11.798095703125 -15.138671875 -18.759765625
13.98291015625 -57.90087890625 -47.10888671875
9.07763671875 -52.763671875 -57.557861328125
10.52099609375 -53.601318359375 -56.037353515625
12.134033203125 -56.205078125 -48.388916015625
3.95751953125 -63.431396484375 -54.923583984375
0.35595703125 -23.947998046875 -22.66845703125
-6.11669921875 -64.4560546875 -35.93115234375
8.95654296875 -35.08056640625 -35.079345703125
15.448486328125 -52.4931640625 -47.0458984375
3.7060546875 -30.599853515625 -27.31787109375
17.570068359375 -38.99951171875 -56.25244140625
14.267822265625 28.438720703125 13.09033203125
11.0380859375 -20.322265625 -22.4541015625
10.691162109375 -58.37158203125 -50.4169921875
1.720947265625 -15.2001953125 -16.509033203125
10.872802734375 3.469970703125 -3.022705078125
5.54833984375 -31.515380859375 -28.747802734375
23.825927734375 28.457275390625 5.942626953125
21.536865234375 -45.67529296875 -48.58642578125
9.4716796875 24.005859375 13.2373046875
7.57421875 15.003662109375 6.908447265625
-7.93408203125 -57.10302734375 -44.603759765625
4.400146484375 15.4267578125 7.464111328125
6.347900390625 11.852783203125 2.12451171875
15.501220703125 5.3291015625 -4.14501953125
-4.2109375 17.658935546875 11.38037109375
22.536865234375 32.197021484375 7.16650390625
15.554443359375 -50.470458984375 -57.01318359375
17.308837890625 -47.42431640625 -54.072509765625
-6.77880859375 -55.0 -43.330078125
-6.868896484375 15.5 10.7978515625
9.59423828125 -57.530517578125 -51.345458984375
1.797119140625 -17.1865234375 -17.441162109375
-10.6005859375 -54.36474609375 -42.6943359375
-0.83447265625 -52.361328125 -43.196533203125
-1.783447265625 21.205322265625 13.7099609375
5.086669921875 -22.5087890625 -21.4619140625
0.251708984375 -56.2353515625 -51.3173828125
6.429931640625 -65.041748046875 -51.998291015625
-2.171142578125 -47.089599609375 -38.57421875
14.406494140625 9.425048828125 0.397705078125
1.14990234375 -16.764892578125 -18.333740234375
-0.653564453125 23.755126953125 14.357421875
10.49755859375 -16.293212890625 -18.5263671875
2.669921875 16.52490234375 8.820556640625
9.98193359375 7.98486328125 0.674072265625
7.355712890625 -35.3681640625 -33.032958984375
10.146728515625 -19.478759765625 -19.5068359375
-5.666259765625 23.817626953125 14.906005859375
-2.2724609375 18.369140625 11.3466796875
-1.1494140625 27.378173828125 11.181884765625
7.623291015625 -14.21728515625 -15.491455078125
17.968505859375 24.22119140625 13.094970703125
-2.82080078125 24.758544921875 11.48681640625
2.954345703125 -22.0244140625 -20.7177734375
16.09130859375 19.44775390625 5.856201171875
27.421875 30.458740234375 4.095947265625
16.857177734375 26.42431640625 9.2607421875
4.1630859375 -21.26708984375 -20.50341796875
4.796630859375 -5.54345703125 -8.724365234375
26.09765625 35.50390625 3.742919921875
3.449951171875 -18.8369140625 -18.069091796875
2.92236328125 -40.991943359375 -35.10888671875
3.400634765625 -17.242919921875 -17.406982421875
10.5087890625 -8.409423828125 -12.362548828125
-3.39794921875 16.547607421875 10.79638671875
8.747802734375 -4.10888671875 -8.26611328125
-2.675537109375 24.279296875 12.86376953125
11.9033203125 -4.94091796875 -10.478759765625
1.09326171875 26.766357421875 13.65869140625
2.26171875 -65.9677734375 -44.724609375
18.77783203125 22.01513671875 6.568603515625
1.908203125 26.968017578125 15.662353515625
11.517822265625 -2.246337890625 -7.78076171875
-0.2919921875 22.6357421875 14.216552734375
-1.301513671875 -66.109130859375 -43.498291015625
4.363037109375 -14.899658203125 -15.3916015625
6.538330078125 -2.518310546875 -6.635498046875
-10.42822265625 -41.67919921875 -46.59912109375
7.447509765625 -56.1845703125 -58.93408203125
14.817138671875 -43.67431640625 -58.828125
5.30810546875 -33.576171875 -30.254638671875
6.468017578125 -10.642822265625 -12.6533203125
14.4306640625 -48.74072265625 -57.66015625
0.060302734375 -25.958984375 -23.8486328125
8.795654296875 18.989990234375 9.5615234375
6.642822265625 0.912109375 -4.201416015625
6.78466796875 -9.479736328125 -11.909912109375
4.78076171875 -10.59375 -12.125732421875
13.9892578125 20.433837890625 8.93603515625
-10.869140625 21.76611328125 13.7998046875
7.064453125 -56.455810546875 -56.619873046875
14.243408203125 22.25244140625 9.992919921875
-8.54150390625 -49.61181640625 -53.40771484375
-5.173828125 -53.361572265625 -42.429931640625
-6.621826171875 17.66259765625 12.213623046875
6.25732421875 -29.490478515625 -27.612548828125
25.276123046875 33.445068359375 5.46826171875
7.993896484375 3.525390625 -2.343017578125
4.4013671875 -62.16357421875 -54.7197265625
13.196533203125 1.538818359375 -5.30712890625
-0.14453125 16.544189453125 9.589111328125
-1.699462890625 -42.43115234375 -35.048095703125
12.2373046875 21.146484375 10.171630859375
18.281494140625 23.674560546875 15.322021484375
7.91064453125 -40.885986328125 -37.577880859375
-9.3525390625 -51.90283203125 -57.48046875
13.24365234375 23.680419921875 11.4794921875
5.53515625 5.871337890625 -1.2626953125
3.83349609375 -27.326171875 -24.837158203125
0.77685546875 -30.88134765625 -26.985595703125
6.08837890625 -63.340087890625 -52.142822265625
25.55126953125 28.485595703125 5.188232421875
6.935791015625 21.519287109375 11.892578125
23.782470703125 35.00927734375 5.37060546875
20.288818359375 -43.78076171875 -55.486328125
16.786865234375 -39.49267578125 -59.29345703125
7.085205078125 -28.709228515625 -27.477294921875
17.11181640625 25.173583984375 15.681884765625
5.60791015625 -57.617431640625 -55.85205078125
6.865234375 -27.45947265625 -25.88916015625
12.107666015625 -58.7587890625 -48.77978515625
-3.427734375 25.95068359375 10.778076171875
19.369873046875 -40.80810546875 -56.99658203125
3.958251953125 23.312255859375 13.99951171875
11.2294921875 -55.438720703125 -50.435302734375
19.8994140625 -40.336669921875 -55.037841796875
13.216552734375 -51.73779296875 -58.802490234375
21.744873046875 -43.600830078125 -49.3017578125
19.756591796875 -52.049072265625 -58.993896484375
-9.56005859375 -50.09033203125 -55.42578125
15.275146484375 9.0400390625 -0.109130859375
20.310791015625 -47.44677734375 -51.603515625
6.935302734375 17.93359375 8.956787109375
7.15771484375 8.79931640625 1.31396484375
15.11572265625 -52.21142578125 -49.94775390625
20.943115234375 -51.63623046875 -58.253662109375
1.802978515625 -32.582275390625 -28.69677734375
19.96826171875 -45.74072265625 -51.748291015625
-9.424560546875 -53.593994140625 -57.421142578125
9.1953125 -20.652587890625 -21.304931640625
20.591552734375 -45.712890625 -50.447998046875
-11.80322265625 -58.765869140625 -47.430908203125
10.219482421875 20.783447265625 10.583740234375
21.87841796875 -39.8798828125 -51.614013671875
3.991943359375 -58.876953125 -56.803955078125
27.214599609375 28.86767578125 4.818359375
26.16796875 -41.260498046875 -49.501708984375
-2.888671875 23.083984375 13.92919921875
9.76953125 -52.307861328125 -56.41748046875
-8.090576171875 21.2314453125 15.30859375
-3.680908203125 -65.193359375 -38.567138671875
-3.56689453125 -56.120361328125 -45.535400390625
29.580810546875 30.11328125 3.157470703125
-6.1806640625 -56.800048828125 -45.067138671875
5.429443359375 -30.271728515625 -27.747802734375
29.89208984375 31.2138671875 3.732177734375
10.77099609375 -14.31298828125 -17.36376953125
5.700927734375 -19.719482421875 -19.657470703125
10.9013671875 26.15673828125 14.234619140625
15.3154296875 -56.278076171875 -47.072509765625
-1.306884765625 -55.445068359375 -46.4052734375
-12.180419921875 -57.2861328125 -44.174560546875
-6.6591796875 -49.611572265625 -51.69775390625
21.618896484375 -48.795166015625 -51.949462890625
-0.364501953125 -32.47607421875 -27.91552734375
12.1865234375 -59.48486328125 -46.911865234375
11.215576171875 11.673583984375 3.267333984375
-11.71142578125 -44.56591796875 -47.221923828125
-15.147705078125 -44.38134765625 -46.476318359375
18.12890625 23.850830078125 18.066162109375
-3.946044921875 19.4560546875 12.55029296875
6.5556640625 -62.089599609375 -52.101806640625
3.535400390625 -51.22802734375 -57.571533203125
16.69873046875 25.39208984375 17.837890625
3.299560546875 -61.75830078125 -55.8056640625
-7.615478515625 25.4697265625 18.21142578125
-4.177001953125 -47.85791015625 -39.269287109375
-3.5498046875 -51.736328125 -41.686767578125
3.616455078125 -10.16015625 -12.2373046875
-9.8603515625 -43.436279296875 -48.193359375
5.321044921875 -24.946533203125 -23.421875
8.891357421875 14.644775390625 5.964599609375
1.944580078125 -25.212890625 -22.740234375
-1.486328125 -54.092529296875 -44.87353515625
18.828857421875 22.271484375 8.34814453125
-4.85888671875 25.839599609375 12.613037109375
23.928466796875 33.394287109375 6.298828125
5.980224609375 -14.558837890625 -15.3701171875
1.35400390625 -22.767822265625 -21.0126953125
8.216796875 -11.08447265625 -13.59375
-0.576416015625 25.4326171875 11.916748046875
24.793212890625 36.60107421875 4.538818359375
7.6181640625 -25.4560546875 -25.058837890625
9.974365234375 19.345703125 9.51708984375
16.609619140625 3.502197265625 -8.28955078125
7.108642578125 -16.576171875 -17.716552734375
15.002685546875 -51.83642578125 -59.117919921875
9.89990234375 -2.980712890625 -7.791748046875
14.5576171875 -45.75830078125 -57.764892578125
-2.89111328125 -45.93603515625 -50.42724609375
9.52783203125 -23.497314453125 -23.83935546875
-0.754150390625 -42.918701171875 -35.9345703125
-1.541748046875 -43.587646484375 -53.23583984375
12.560791015625 -6.89599609375 -12.301513671875
16.19384765625 27.8193359375 10.959228515625
8.75732421875 -36.35205078125 -36.648681640625
-4.620849609375 -42.570556640625 -52.250732421875
-3.1552734375 -45.329833984375 -37.109619140625
11.610107421875 -6.881591796875 -11.4736328125
28.79150390625 34.676025390625 3.9130859375
-4.614501953125 -46.698974609375 -50.4169921875
6.527587890625 -36.571044921875 -33.306640625
6.2294921875 -12.201416015625 -13.951416015625
5.23974609375 22.232177734375 12.9814453125
18.2021484375 22.949951171875 9.688232421875
-4.987548828125 -49.501708984375 -39.840576171875
-1.654541015625 -48.81884765625 -39.666748046875
20.39453125 -42.000244140625 -53.340576171875
4.6396484375 -44.095947265625 -38.74462890625
-1.30419921875 -60.04248046875 -59.024169921875
7.6669921875 -5.231689453125 -9.159423828125
8.540283203125 -5.64013671875 -9.685546875
11.2919921875 -3.775634765625 -9.05908203125
-0.25244140625 -66.27099609375 -44.900146484375
17.22900390625 -49.97802734375 -54.14599609375
8.909423828125 -32.94580078125 -31.881591796875
20.3173828125 -52.980712890625 -59.87158203125
4.40966796875 -3.972412109375 -8.44091796875
26.858642578125 30.023681640625 4.833740234375
22.551025390625 -29.45751953125 -60.272705078125
-4.638427734375 -55.123779296875 -43.692626953125
-10.82958984375 -58.672607421875 -45.289306640625
-8.023193359375 -42.295166015625 -49.010009765625
-4.0654296875 20.8837890625 13.65283203125
7.892822265625 -32.057373046875 -30.569091796875
-10.454833984375 23.78759765625 16.6669921875
12.684326171875 25.482421875 12.761962890625
9.019775390625 -2.188720703125 -7.14453125
14.549560546875 -11.248779296875 -17.469970703125
1.8984375 -34.236328125 -29.684814453125
16.9755859375 -39.45458984375 -57.887451171875
17.51123046875 -42.423828125 -56.624755859375
8.5078125 -21.837646484375 -22.300048828125
4.013427734375 -65.85107421875 -53.126708984375
2.214599609375 -38.00439453125 -32.561767578125
18.357177734375 -48.69580078125 -52.95849609375
-0.1806640625 -67.370361328125 -42.889892578125
-9.92578125 19.82763671875 14.60205078125
5.539794921875 -43.73486328125 -39.0556640625
16.7490234375 -45.75634765625 -55.4453125
-1.125 24.6298828125 12.7685546875
-0.08740234375 -21.9208984375 -21.9453125
-0.52978515625 -19.89990234375 -21.224365234375
20.8515625 -46.5380859375 -49.689697265625
-10.01318359375 21.2548828125 15.56689453125
0.626220703125 -43.847412109375 -37.033203125
-9.39013671875 22.642333984375 16.805419921875
19.292724609375 -48.328125 -53.288818359375
7.385498046875 -64.940673828125 -49.973876953125
9.121337890625 0.86083984375 -4.828125
-6.09912109375 16.2265625 10.923583984375
-1.528564453125 -49.705810546875 -40.720947265625
19.075439453125 -42.638916015625 -60.5791015625
-5.07373046875 -48.367919921875 -50.6025390625
12.56640625 -10.810302734375 -15.367919921875
0.544677734375 21.5439453125 13.510498046875
1.141357421875 -45.147705078125 -37.981201171875
19.193359375 -47.119140625 -54.885009765625
6.32421875 -34.8798828125 -31.701171875
-8.36572265625 19.8154296875 14.2666015625
9.78564453125 -54.4736328125 -56.997802734375
-1.73681640625 -34.915771484375 -30.24462890625
10.069091796875 -62.8017578125 -47.6953125
15.83349609375 -46.99267578125 -55.408935546875
-0.97216796875 -21.083740234375 -21.26318359375
2.3857421875 -44.367919921875 -37.7607421875
15.383056640625 -49.119873046875 -55.7470703125
21.403564453125 -41.986572265625 -51.787109375
10.445556640625 26.873779296875 14.773681640625
2.664794921875 -60.093994140625 -56.853271484375
0.560791015625 -33.754638671875 -28.899658203125
13.244873046875 19.33544921875 8.56005859375
10.295654296875 -59.222412109375 -50.794189453125
4.987548828125 -51.349609375 -58.626953125
8.483642578125 -29.189208984375 -28.557861328125
5.483642578125 -65.381103515625 -51.50927734375
11.61181640625 -25.195556640625 -24.4052734375
7.1884765625 -54.933837890625 -59.725341796875
16.043212890625 12.012939453125 -5.755615234375
8.945068359375 2.376953125 -3.510986328125
11.87939453125 -50.365966796875 -58.28173828125
-6.66650390625 22.99267578125 16.306396484375
17.852294921875 24.0947265625 9.702392578125
-10.76611328125 18.1357421875 12.1376953125
4.635986328125 -59.683837890625 -55.623046875
7.15087890625 -37.876220703125 -34.852783203125
5.609130859375 15.415283203125 7.168701171875
5.6298828125 -56.49609375 -58.440185546875
-7.363525390625 -50.486572265625 -52.96240234375
12.65673828125 6.45751953125 -1.376220703125
19.170166015625 16.5517578125 -4.599365234375
-8.661376953125 18.386962890625 13.3486328125
11.509765625 5.728271484375 -1.719970703125
25.420166015625 34.258544921875 4.908447265625
-1.105712890625 -32.86572265625 -28.5107421875
12.162841796875 -54.225341796875 -50.630859375
10.159423828125 6.492919921875 -0.62353515625
14.822265625 27.013427734375 11.925537109375
3.04833984375 -37.217529296875 -32.425537109375
-1.193603515625 -27.969970703125 -26.75244140625
14.03369140625 24.7890625 11.5927734375
-3.77099609375 -46.2021484375 -38.78173828125
4.371337890625 -52.986083984375 -57.83203125
-5.9013671875 24.622802734375 14.16650390625
3.431884765625 -64.22412109375 -54.49169921875
13.84228515625 -45.0068359375 -61.029541015625
8.9951171875 -26.330810546875 -26.115478515625
2.904296875 -53.28515625 -56.764404296875
-7.283203125 -53.67333984375 -42.3662109375
9.8759765625 -65.89599609375 -49.754638671875
12.01513671875 -23.1875 -23.952880859375
9.90576171875 -60.7626953125 -48.811279296875
16.492919921875 -45.357421875 -56.3642578125
4.347900390625 -18.8701171875 -18.6279296875
16.31689453125 -57.0830078125 -45.67724609375
2.92919921875 -45.679443359375 -38.865966796875
5.967041015625 -18.1298828125 -18.477783203125
14.301025390625 -47.953369140625 -59.26025390625
2.4013671875 -62.127685546875 -55.635986328125
7.447021484375 -24.22509765625 -23.777099609375
-2.17138671875 -44.7802734375 -52.149658203125
-2.728515625 -43.68896484375 -36.7783203125
2.07177734375 -64.550537109375 -54.083984375
-9.13037109375 23.6748046875 17.8505859375
-3.787841796875 -43.4541015625 -52.372802734375
12.633056640625 -51.6640625 -57.900146484375
21.516845703125 -40.7314453125 -52.1552734375
16.6787109375 -56.227783203125 -45.146728515625
7.39306640625 13.566162109375 5.431396484375
-0.685302734375 -44.602783203125 -36.7939453125
12.927001953125 -11.9912109375 -17.6201171875
-7.946044921875 24.04248046875 17.55859375
13.451416015625 0.411865234375 -6.92578125
4.082275390625 -5.901611328125 -9.286865234375
0.217041015625 -39.5830078125 -33.3701171875
13.353515625 -49.186767578125 -59.057373046875
1.5576171875 -59.684814453125 -57.944580078125
9.906494140625 -15.081298828125 -17.209228515625
-1.4052734375 -39.520263671875 -33.548828125
9.306640625 -17.8486328125 -19.001220703125
6.215087890625 -54.41455078125 -58.9228515625
10.708984375 -54.970947265625 -57.46728515625
3.798828125 -57.232177734375 -57.932861328125
-8.354248046875 -48.679443359375 -51.42529296875
15.802734375 -46.663330078125 -57.640869140625
20.547119140625 -49.548095703125 -50.95947265625
-9.985595703125 -47.34765625 -51.488037109375
-1.573974609375 -66.37744140625 -41.76611328125
0.868408203125 -62.568115234375 -56.943359375
2.374755859375 -20.396484375 -19.262939453125
19.33056640625 -43.813720703125 -57.385009765625
-7.17431640625 -47.8505859375 -50.561279296875
-7.407470703125 -58.451904296875 -45.732421875
5.425048828125 -39.44580078125 -34.82177734375
-0.152099609375 -53.7607421875 -45.26513671875
-10.52880859375 -46.429443359375 -50.324462890625
13.55126953125 -43.294921875 -61.5087890625
7.798583984375 -54.005859375 -57.935302734375
8.99853515625 17.18359375 8.056884765625
14.981689453125 5.702880859375 -3.4140625
-5.458251953125 -59.52587890625 -47.893310546875
6.212646484375 -59.27197265625 -54.64404296875
-3.421630859375 -53.054931640625 -42.88916015625
15.072021484375 19.012451171875 7.03857421875
14.989013671875 -51.441162109375 -51.51123046875
6.769287109375 -57.192626953125 -54.958251953125
5.7724609375 8.500732421875 0.208251953125
5.502685546875 -58.865966796875 -55.4814453125
10.35107421875 -22.720458984375 -23.704833984375
4.875244140625 -55.20068359375 -58.82177734375
13.365478515625 4.19677734375 -3.536865234375
7.784912109375 -15.01123046875 -16.607177734375
8.34716796875 -7.96240234375 -11.365234375
11.93505859375 -47.044921875 -60.470703125
5.326416015625 -16.118896484375 -16.617431640625
17.372314453125 -38.60400390625 -57.502197265625
-4.434814453125 -44.63671875 -51.130126953125
0.584228515625 -64.583740234375 -55.5634765625
7.535400390625 -13.42578125 -14.806640625
20.8232421875 -40.30615234375 -52.98974609375
12.347412109375 24.02197265625 12.22119140625
7.599853515625 -33.70458984375 -31.647705078125
5.692626953125 -60.5029296875 -54.360107421875
17.009033203125 25.955078125 10.39697265625
7.64013671875 -62.05908203125 -50.8798828125
4.807373046875 19.02734375 10.359619140625
7.516845703125 -63.717529296875 -50.49951171875
0.468505859375 -66.246337890625 -44.103271484375
5.78125 -65.10498046875 -53.30029296875
-4.692138671875 -64.625732421875 -37.21142578125
18.0068359375 -47.8427734375 -53.236083984375
6.131103515625 6.95703125 0.070556640625
9.306396484375 -35.982421875 -37.34765625
12.370849609375 -53.8759765625 -51.773193359375
-0.871337890625 -25.94873046875 -25.70849609375
15.7900390625 9.8232421875 -0.6005859375
-6.456787109375 -58.976318359375 -46.65283203125
-14.279541015625 -43.58837890625 -46.494873046875
15.288330078125 -44.895751953125 -56.80126953125
25.534912109375 -39.5693359375 -50.37548828125
1.397216796875 16.88427734375 9.62109375
7.07080078125 -52.719970703125 -58.48095703125
-10.308349609375 -47.794921875 -52.359130859375
-1.39111328125 -51.44189453125 -42.061279296875
8.539794921875 -10.311767578125 -12.97509765625
20.6162109375 -44.43896484375 -50.33154296875
-0.11572265625 -50.666748046875 -41.994873046875
-8.385009765625 -52.682373046875 -55.405517578125
-3.048828125 -52.212158203125 -42.36669921875
-12.05908203125 -60.1171875 -49.05517578125
14.783203125 21.5478515625 9.0498046875
18.41845703125 -50.00341796875 -53.5634765625
0.020263671875 -24.7451171875 -23.305419921875
13.76904296875 -2.276123046875 -9.197021484375
13.259521484375 -56.205322265625 -47.49658203125
14.03466796875 -54.225830078125 -49.082275390625
9.133544921875 -62.04296875 -49.576904296875
20.326171875 -43.603271484375 -50.9296875
13.630859375 -47.976806640625 -60.42626953125
18.913818359375 -40.869140625 -59.312744140625
15.051025390625 -42.873291015625 -60.015625
22.5400390625 -40.29833984375 -50.621337890625
7.637939453125 -37.08251953125 -35.103515625
10.66650390625 -9.977783203125 -13.5810546875
1.839599609375 20.468017578125 12.36279296875
-1.720703125 -64.60009765625 -45.92578125
8.59814453125 -60.861328125 -51.236572265625
5.02783203125 16.861572265625 8.61328125
5.70556640625 17.93505859375 9.380126953125
3.369384765625 21.1767578125 12.51171875
2.1865234375 -42.227294921875 -35.994140625
-0.583740234375 -65.02099609375 -45.185546875
