-49.2041015625 -22.1729736328125 11.0633544921875
53.158935546875 -105.0350341796875 -3.9039306640625
-13.898681640625 63.9486083984375 15.9420166015625
63.31494140625 34.3729248046875 9.7410888671875
-59.292236328125 -79.4969482421875 14.86083984375
-61.429931640625 -32.5238037109375 10.7864990234375
5.581787109375 -78.7099609375 9.787109375
23.02490234375 -80.52001953125 9.6279296875
-26.3232421875 41.935302734375 16.4814453125
-10.8681640625 -22.27685546875 10.9842529296875
26.944091796875 36.787109375 16.18798828125
34.28369140625 -62.761474609375 9.29150390625
-48.612548828125 -76.667236328125 12.6358642578125
42.743408203125 -36.7706298828125 -18.4349365234375
43.511962890625 -72.88037109375 -14.4361572265625
-66.103759765625 -60.27587890625 10.1590576171875
62.55517578125 -92.3035888671875 -0.1854248046875
78.077392578125 -72.50927734375 -4.847412109375
47.750732421875 -27.232421875 -17.337158203125
-55.22216796875 -15.031005859375 10.459228515625
-54.59228515625 -49.2928466796875 16.44970703125
-20.88134765625 -19.27587890625 9.4461669921875
-68.67041015625 -77.5142822265625 14.869384765625
-27.68359375 -22.404296875 1.2054443359375
82.696044921875 -43.77490234375 0.285888671875
19.956298828125 -56.7791748046875 10.1661376953125
-0.472900390625 60.3245849609375 16.5540771484375
-23.27783203125 8.23876953125 16.9163818359375
19.58203125 21.0279541015625 21.258056640625
34.1826171875 -84.4947509765625 -13.581787109375
48.23779296875 -60.846923828125 -11.3201904296875
5.6728515625 -54.8358154296875 10.572509765625
78.3193359375 -34.2496337890625 -0.7828369140625
-56.29150390625 -81.8526611328125 5.4869384765625
-6.010498046875 -52.7288818359375 12.677001953125
-51.525634765625 -32.3743896484375 10.5313720703125
32.232666015625 -47.1431884765625 10.7137451171875
-7.724609375 16.7786865234375 16.389404296875
45.642578125 -11.0748291015625 -19.641357421875
45.550537109375 -120.95458984375 -3.13330078125
39.513671875 -96.4071044921875 -3.492431640625
-54.1845703125 -60.4630126953125 4.7120361328125
57.4541015625 -25.310546875 -3.76708984375
-27.730712890625 -42.3563232421875 10.62255859375
77.8251953125 -79.888427734375 8.909912109375
-88.13720703125 29.202880859375 10.2071533203125
-33.030517578125 -48.658935546875 18.6663818359375
68.3623046875 -29.7620849609375 3.084716796875
32.428466796875 20.1011962890625 16.255859375
14.2109375 50.429443359375 16.0040283203125
-19.121337890625 -23.720703125 -2.9876708984375
25.2236328125 -2.906494140625 15.536865234375
-92.077392578125 39.228759765625 9.646484375
33.0419921875 -8.756103515625 10.1260986328125
-79.85107421875 14.8851318359375 11.2421875
82.670166015625 -85.1534423828125 -0.7001953125
-34.60595703125 -25.4898681640625 10.890625
-45.136474609375 -37.341796875 10.5076904296875
38.309814453125 23.39306640625 -16.849853515625
3.342041015625 -32.4285888671875 10.95263671875
-68.673095703125 -9.9112548828125 10.3084716796875
-75.001953125 35.5791015625 8.1298828125
-18.447265625 -44.4945068359375 10.525634765625
-65.350830078125 -1.32958984375 11.5086669921875
-85.24267578125 43.6229248046875 8.3289794921875
-24.939453125 -12.72265625 11.3548583984375
-0.453125 52.231201171875 16.6409912109375
2.466064453125 -12.17626953125 10.5289306640625
32.359130859375 64.447021484375 15.3797607421875
4.835205078125 -20.399169921875 11.105224609375
-36.005126953125 -33.6256103515625 3.1038818359375
-61.95703125 -60.1883544921875 2.1865234375
23.283447265625 -40.3995361328125 4.365234375
24.273681640625 84.2718505859375 19.090087890625
48.256591796875 -83.4671630859375 -18.2607421875
72.01953125 11.4400634765625 1.609619140625
24.47314453125 -48.046630859375 10.59765625
24.943359375 -72.910888671875 9.6263427734375
14.09912109375 -67.1639404296875 9.7161865234375
18.385498046875 14.051025390625 16.683349609375
-27.316162109375 25.5528564453125 16.2276611328125
15.348388671875 -32.5635986328125 10.3408203125
-79.0126953125 28.013671875 9.5325927734375
-12.850341796875 33.7818603515625 16.2713623046875
68.918212890625 -88.4891357421875 8.4091796875
10.571044921875 89.1654052734375 24.8824462890625
46.5068359375 -111.052001953125 -3.736572265625
52.643310546875 2.5958251953125 -20.4490966796875
39.062744140625 -22.2381591796875 11.3094482421875
29.693115234375 -15.71240234375 11.047119140625
-12.21337890625 -30.246337890625 10.242919921875
69.80126953125 -19.29638671875 -0.9539794921875
29.73291015625 -31.890869140625 10.8936767578125
35.97216796875 -4.6776123046875 -16.94189453125
24.858642578125 50.609375 16.2735595703125
25.255126953125 60.4654541015625 16.180908203125
46.735595703125 28.60595703125 -22.5330810546875
80.63623046875 -72.78564453125 9.4508056640625
-8.629150390625 7.8671875 16.650390625
30.536376953125 57.2015380859375 -2.6448974609375
82.279052734375 -92.7469482421875 -3.0289306640625
31.353515625 42.3209228515625 -8.1875
-21.76171875 35.6839599609375 15.799072265625
-112.166259765625 44.2408447265625 8.8583984375
-21.492919921875 47.5888671875 16.4678955078125
48.99462890625 14.9833984375 -22.627197265625
-25.046142578125 -33.3857421875 5.6588134765625
52.919921875 -12.1824951171875 -20.29052734375
62.064697265625 43.322265625 -1.321044921875
85.54541015625 -71.2452392578125 -4.099853515625
39.11669921875 -106.490234375 -4.0811767578125
-62.97119140625 -72.9832763671875 3.9453125
65.246337890625 5.743408203125 2.41552734375
41.954345703125 -49.4671630859375 11.0576171875
-75.06103515625 21.678466796875 10.4295654296875
76.102294921875 -57.680908203125 7.564208984375
-1.6357421875 -39.950927734375 10.5487060546875
-44.880615234375 -69.998779296875 14.7850341796875
-9.824951171875 46.7762451171875 16.27392578125
77.218505859375 -88.6773681640625 7.67919921875
34.526611328125 -37.5029296875 10.710693359375
69.58642578125 31.3765869140625 1.1668701171875
-38.156982421875 -73.9078369140625 15.9644775390625
-64.208740234375 13.4913330078125 11.0244140625
-2.59033203125 -67.694091796875 10.504150390625
91.992919921875 -56.7806396484375 -5.0936279296875
19.10791015625 -14.287109375 10.7239990234375
4.61669921875 5.640380859375 16.7100830078125
-34.990478515625 -39.99609375 7.00341796875
56.68896484375 -92.2802734375 3.911376953125
55.555419921875 -86.6204833984375 -14.8619384765625
-102.382080078125 52.9871826171875 6.6903076171875
9.235595703125 27.2977294921875 16.0491943359375
4.374755859375 -87.0860595703125 9.0863037109375
16.738525390625 -86.3270263671875 9.3372802734375
37.95849609375 6.8349609375 17.3388671875
-47.42919921875 -83.99658203125 15.14697265625
16.264404296875 -39.87890625 9.6939697265625
36.95849609375 -19.33935546875 -14.387939453125
-70.9755859375 -70.293212890625 14.895263671875
-76.298583984375 -9.134521484375 10.532958984375
-23.83349609375 61.2261962890625 16.1419677734375
-46.084716796875 -51.0574951171875 16.1622314453125
5.431884765625 16.2772216796875 16.59765625
-44.4619140625 -60.579833984375 15.9239501953125
-2.2939453125 -25.1051025390625 10.7017822265625
-56.848388671875 -66.863037109375 5.270751953125
-21.482666015625 20.7867431640625 19.1383056640625
87.093994140625 -100.767333984375 -10.305908203125
39.194580078125 -90.84228515625 -7.724609375
12.2275390625 2.0538330078125 16.9759521484375
31.92138671875 32.07421875 15.9847412109375
-100.082763671875 37.51171875 9.529296875
-6.59619140625 -12.517578125 10.5985107421875
-57.351318359375 1.83154296875 12.3424072265625
76.7021484375 -60.835205078125 1.5450439453125
91.268798828125 -71.5045166015625 -0.196533203125
-18.588623046875 -31.2998046875 1.3203125
35.7705078125 -77.3388671875 -15.33203125
91.589111328125 -63.83349609375 -7.893798828125
9.5732421875 -45.9783935546875 10.45263671875
13.6806640625 -53.7421875 10.3172607421875
6.567138671875 84.0743408203125 26.7022705078125
-40.76171875 -52.1568603515625 10.5164794921875
61.6181640625 38.409423828125 4.639404296875
41.7958984375 17.716796875 -17.7459716796875
33.00244140625 24.0908203125 -12.4100341796875
11.728515625 -20.62890625 10.926025390625
-52.79296875 -8.506591796875 10.40625
30.56982421875 74.993896484375 17.6900634765625
-75.117919921875 8.6239013671875 12.0726318359375
-73.748291015625 -81.6611328125 15.851318359375
65.935791015625 19.4674072265625 2.067626953125
51.193359375 -98.748779296875 -6.209716796875
43.41015625 -48.75390625 -16.635009765625
47.018798828125 -67.681640625 -11.3262939453125
-50.38916015625 -44.317138671875 15.5030517578125
-29.611572265625 11.6925048828125 17.8153076171875
12.18798828125 37.688232421875 15.7984619140625
73.518310546875 -57.0816650390625 -4.6298828125
44.6513671875 35.37939453125 -21.777587890625
70.464599609375 -36.668701171875 3.80224609375
35.33984375 -52.893310546875 10.7479248046875
-40.856689453125 -42.083984375 9.335205078125
41.73193359375 5.409912109375 -18.470458984375
67.80712890625 -94.9827880859375 10.7108154296875
17.33935546875 26.004150390625 16.57080078125
-15.22265625 22.7158203125 16.24072265625
81.89697265625 -54.68603515625 -1.6597900390625
-25.106689453125 53.3424072265625 19.0513916015625
-77.423095703125 1.740234375 12.5980224609375
-68.38525390625 22.6932373046875 9.7711181640625
5.7880859375 -62.2940673828125 9.8765869140625
-90.19970703125 47.726806640625 8.4783935546875
71.347412109375 -50.711669921875 3.7872314453125
-64.64013671875 -67.1317138671875 1.892333984375
52.924072265625 -90.4395751953125 -8.6876220703125
28.80810546875 -65.9095458984375 9.9671630859375
44.75048828125 -89.5174560546875 -19.013671875
-8.71142578125 40.5333251953125 16.3070068359375
24.997314453125 -25.314453125 10.9537353515625
34.597412109375 -92.0823974609375 -12.5916748046875
-15.0673828125 51.012451171875 16.4808349609375
-19.47265625 -28.1773681640625 8.207275390625
32.403564453125 10.913818359375 16.319091796875
-14.39501953125 -36.134521484375 4.1009521484375
28.189697265625 43.2354736328125 15.765625
-1.48876953125 -92.201416015625 9.7841796875
57.912109375 -77.2449951171875 -12.5616455078125
39.450927734375 44.1529541015625 -16.581787109375
46.460693359375 -76.3004150390625 -18.7662353515625
15.056396484375 57.048095703125 16.251708984375
67.513427734375 -12.948486328125 -0.029296875
72.5615234375 -68.232666015625 9.84130859375
-13.129150390625 57.7740478515625 16.262451171875
73.030517578125 -77.91943359375 5.4530029296875
16.68359375 70.537841796875 16.0987548828125
80.049560546875 -69.8739013671875 1.94873046875
74.47314453125 -48.8240966796875 10.0296630859375
21.84716796875 73.1982421875 18.33642578125
-21.223388671875 2.43212890625 17.633544921875
-20.77001953125 -23.1319580078125 2.9927978515625
12.053955078125 -81.6961669921875 9.507568359375
46.585205078125 -53.055908203125 -12.7998046875
-53.388427734375 -80.5390625 13.37939453125
38.68701171875 -118.5765380859375 -1.37451171875
-6.608642578125 60.922119140625 16.5352783203125
31.23779296875 -3.4139404296875 14.3031005859375
70.42626953125 -80.905517578125 0.687255859375
46.34423828125 2.038818359375 -22.989990234375
-59.697021484375 -78.509521484375 1.6319580078125
35.62841796875 48.1285400390625 -10.5018310546875
77.34716796875 -46.291015625 -1.3304443359375
3.4951171875 41.282958984375 15.9571533203125
40.517333984375 -7.740966796875 -19.97509765625
63.611328125 -51.5413818359375 10.677978515625
-4.111083984375 -47.24462890625 10.353271484375
36.614501953125 -90.8067626953125 -2.1966552734375
84.982177734375 -95.2000732421875 -8.9901123046875
82.055419921875 -65.3599853515625 -2.9365234375
72.55615234375 -32.3768310546875 -1.025390625
80.643798828125 -92.701416015625 10.62158203125
90.832275390625 -84.1998291015625 -6.59130859375
-11.291748046875 -37.5238037109375 11.01806640625
-28.57861328125 -25.265625 10.64111328125
20.981689453125 37.5982666015625 16.4246826171875
-30.538330078125 -51.435546875 10.4658203125
75.69482421875 -20.3052978515625 0.46484375
-78.57666015625 41.4473876953125 7.8121337890625
-51.7900390625 -73.4857177734375 2.82470703125
66.252685546875 -0.428466796875 0.68798828125
25.286865234375 -60.9918212890625 10.301025390625
-0.2470703125 -54.4842529296875 10.239013671875
-61.13232421875 -85.34619140625 15.3057861328125
44.356689453125 -42.8546142578125 -16.952392578125
-69.17822265625 34.9141845703125 7.4073486328125
83.688720703125 -79.4044189453125 8.4412841796875
1.311767578125 29.2242431640625 16.2843017578125
24.795654296875 20.7899169921875 16.340576171875
-67.642578125 -73.740966796875 8.8726806640625
59.30517578125 -93.0819091796875 -5.0770263671875
82.088134765625 -104.8701171875 -8.8719482421875
66.96337890625 -41.3134765625 4.7305908203125
22.04931640625 -42.6973876953125 10.634033203125
16.20166015625 80.2801513671875 26.6175537109375
-107.101806640625 47.16748046875 9.0206298828125
10.550048828125 60.733642578125 15.757568359375
42.56640625 -60.414794921875 -14.779052734375
31.44775390625 25.8304443359375 15.84423828125
71.632568359375 26.2152099609375 2.9332275390625
6.1220703125 48.8233642578125 16.094970703125
-58.34228515625 14.2724609375 11.3975830078125
64.9658203125 33.3780517578125 4.069580078125
41.689453125 -96.3779296875 -8.9471435546875
52.780029296875 -110.8902587890625 -3.9136962890625
-14.35400390625 9.8487548828125 16.383056640625
-22.322998046875 14.424072265625 16.6358642578125
37.58837890625 34.5567626953125 -14.2197265625
59.951416015625 -28.241943359375 4.302001953125
38.994384765625 -8.396728515625 12.7008056640625
18.429931640625 -27.71240234375 10.2745361328125
-62.9990234375 3.868408203125 12.197021484375
85.634765625 -107.5511474609375 -12.5079345703125
-25.864501953125 -35.7042236328125 11.1993408203125
40.375244140625 -36.8505859375 11.06982421875
46.89501953125 -32.4708251953125 -15.2650146484375
-57.362060546875 -3.63037109375 10.6678466796875
22.311767578125 31.30029296875 16.3040771484375
23.978759765625 8.40869140625 16.433349609375
53.689453125 -60.345458984375 -9.80517578125
-56.504638671875 -29.4095458984375 10.4737548828125
-71.574951171875 -21.54443359375 11.4820556640625
34.1005859375 11.97412109375 -14.5709228515625
32.0458984375 -83.34375 -8.48291015625
48.0166015625 -17.5765380859375 -20.1717529296875
11.411376953125 67.59765625 16.1365966796875
20.7529296875 -35.7562255859375 6.715576171875
-62.441162109375 -66.938232421875 7.059814453125
10.105224609375 -73.5169677734375 9.6209716796875
8.89599609375 -33.0787353515625 10.8514404296875
-46.097412109375 -17.5455322265625 10.6234130859375
72.71044921875 -3.0914306640625 0.0679931640625
28.60693359375 56.0101318359375 15.819091796875
18.938720703125 -71.7193603515625 9.878173828125
-1.59814453125 18.359619140625 16.404052734375
75.113037109375 -73.3011474609375 9.89892578125
-1.2490234375 37.821044921875 15.842529296875
-50.629150390625 -78.356689453125 7.75
67.88427734375 -86.364990234375 1.09765625
82.11376953125 -79.4742431640625 -1.59375
12.523193359375 15.076171875 16.539794921875
-77.45361328125 48.881103515625 7.938720703125
-13.154296875 -46.634033203125 10.3223876953125
48.103759765625 -39.195068359375 -15.18408203125
32.19775390625 37.5650634765625 -11.5491943359375
64.72705078125 -6.7392578125 4.553466796875
38.016845703125 -85.7154541015625 -17.3507080078125
-63.82763671875 -28.7200927734375 13.9754638671875
35.132080078125 -17.89208984375 10.9544677734375
38.615478515625 -34.2421875 -15.817626953125
17.658447265625 -62.1624755859375 10.41796875
-25.5380859375 -36.1497802734375 -0.1390380859375
44.521728515625 -115.985595703125 -5.2275390625
-63.70849609375 -22.3873291015625 9.8277587890625
38.1640625 54.7626953125 -11.3900146484375
11.7197265625 -3.070068359375 15.1158447265625
73.192626953125 -61.5126953125 10.17626953125
23.6435546875 -17.3399658203125 10.8072509765625
-95.745849609375 44.5496826171875 10.5853271484375
-2.4072265625 6.8272705078125 16.7674560546875
31.289794921875 69.7945556640625 15.3433837890625
40.121826171875 -70.765869140625 -10.728759765625
-0.707275390625 66.9869384765625 16.075439453125
65.000732421875 -18.5836181640625 2.5350341796875
88.625244140625 -66.8157958984375 -3.5506591796875
63.826171875 -32.3197021484375 4.9033203125
-44.048828125 -75.264892578125 15.749267578125
8.561279296875 -93.0985107421875 9.394775390625
41.72607421875 26.629638671875 -21.1173095703125
-0.30029296875 -79.534423828125 9.6961669921875
4.19482421875 -41.7327880859375 10.89794921875
-40.546875 -49.8115234375 15.362548828125
37.25146484375 33.341552734375 15.5423583984375
-68.908447265625 -59.7152099609375 15.110107421875
45.590576171875 -91.3681640625 -13.8157958984375
-59.4970703125 -18.8140869140625 10.0250244140625
36.14794921875 1.422119140625 16.525390625
41.052001953125 -14.3052978515625 -19.9388427734375
3.968994140625 -27.1163330078125 10.7969970703125
79.3271484375 -39.49609375 -0.5767822265625
43.427734375 -24.737548828125 -19.24365234375
-29.09326171875 56.03076171875 16.18310546875
80.63720703125 -59.822998046875 -2.3350830078125
27.3525390625 78.205322265625 20.4716796875
-48.806396484375 -27.8006591796875 10.8194580078125
39.278076171875 -50.5499267578125 -12.7286376953125
28.963134765625 78.6158447265625 13.1346435546875
43.165283203125 12.2540283203125 -20.9228515625
0.81396484375 1.946533203125 16.6695556640625
45.470947265625 -5.902099609375 -20.78662109375
-46.31982421875 -75.125 6.689208984375
36.5205078125 0.425537109375 -18.2449951171875
19.890380859375 60.0711669921875 16.371337890625
44.577880859375 46.522705078125 -18.2744140625
-43.753173828125 -24.071044921875 10.617919921875
-7.806884765625 -27.43603515625 10.800537109375
-48.248291015625 -42.427734375 10.7135009765625
-24.380859375 29.9105224609375 16.1917724609375
-13.632568359375 -17.6806640625 11.0302734375
-3.990966796875 48.38671875 16.1866455078125
82.492431640625 -48.9666748046875 -0.9375
-4.189697265625 26.002685546875 16.3468017578125
-41.610595703125 -34.0400390625 2.4217529296875
68.90625 -25.446044921875 0.203369140625
-23.03125 -24.484619140625 9.118408203125
73.005126953125 -45.7962646484375 3.323486328125
-61.82275390625 -79.15966796875 10.322265625
32.1298828125 61.7186279296875 -4.6763916015625
90.87890625 -91.04150390625 -6.2919921875
1.453369140625 46.1004638671875 16.234130859375
35.432861328125 29.1715087890625 -14.6826171875
16.85595703125 9.0675048828125 16.49169921875
14.906494140625 45.2955322265625 16.06298828125
19.606201171875 -51.3330078125 10.5396728515625
25.0546875 -35.602783203125 3.650390625
-67.40185546875 -82.6142578125 15.2408447265625
35.871337890625 6.6888427734375 -18.2525634765625
-18.88427734375 62.7020263671875 15.8470458984375
43.261474609375 -108.6842041015625 -6.93701171875
39.587646484375 -100.50732421875 -6.7381591796875
14.100830078125 84.4351806640625 24.471435546875
-16.733154296875 -28.216552734375 -2.3836669921875
3.638916015625 -73.1331787109375 10.014404296875
-75.853515625 -68.8851318359375 15.531982421875
33.622314453125 -27.8851318359375 11.024169921875
37.871826171875 18.9912109375 16.300537109375
6.140625 22.6033935546875 16.3377685546875
-4.75927734375 12.5740966796875 16.5654296875
18.80712890625 -31.1121826171875 5.6458740234375
33.9072265625 43.2369384765625 15.80908203125
-102.59228515625 37.98291015625 13.904296875
-22.4921875 -41.4637451171875 10.651123046875
-13.764892578125 28.8114013671875 16.30517578125
-3.601806640625 56.38916015625 16.0703125
52.64990234375 -28.4017333984375 -17.5020751953125
44.321533203125 16.850830078125 -22.962890625
-53.94189453125 -19.875 10.04443359375
13.228271484375 -91.1373291015625 10.6683349609375
85.10302734375 -83.512451171875 -5.701171875
-10.871337890625 1.915283203125 17.128173828125
2.57275390625 56.37548828125 16.0877685546875
-49.89794921875 -14.3040771484375 10.8455810546875
39.70068359375 38.0902099609375 -17.051513671875
11.302734375 -63.1746826171875 10.8038330078125
-85.109130859375 17.4932861328125 12.40869140625
64.985595703125 -59.1435546875 10.6829833984375
-39.904541015625 -46.716064453125 10.9105224609375
-28.828125 45.357666015625 19.097900390625
-28.667236328125 65.65869140625 17.106201171875
-48.39306640625 -5.564697265625 12.293212890625
-21.110107421875 42.65185546875 16.039794921875
22.255859375 0.4144287109375 17.731689453125
-87.59619140625 34.3404541015625 9.156494140625
-10.61572265625 68.7828369140625 17.3441162109375
-65.222900390625 18.483154296875 10.577880859375
-9.73876953125 -50.8648681640625 9.7733154296875
-89.42822265625 42.7994384765625 11.832763671875
-54.153076171875 -79.436279296875 1.7362060546875
37.69287109375 -25.0665283203125 -14.0791015625
-34.3935546875 -18.02783203125 10.8623046875
-67.4541015625 -78.6611328125 10.220458984375
33.02197265625 -57.24365234375 10.5308837890625
68.85400390625 8.21630859375 -0.373046875
20.2275390625 48.9075927734375 16.2821044921875
-13.803466796875 -41.733642578125 10.4720458984375
17.2109375 76.3480224609375 21.063720703125
42.8603515625 -30.549072265625 -19.160400390625
52.866455078125 -82.8846435546875 -16.573974609375
41.052001953125 -122.814453125 -3.7713623046875
53.181640625 -40.179443359375 -14.4814453125
-55.3134765625 -35.4716796875 10.1915283203125
32.303466796875 -88.2125244140625 -10.63818359375
14.608642578125 -11.365478515625 11.121826171875
56.744384765625 -81.93212890625 -13.6685791015625
-59.993896484375 -13.921630859375 10.5087890625
39.233642578125 -39.416748046875 -16.2803955078125
59.567138671875 -87.5015869140625 -10.004638671875
-16.911376953125 36.5057373046875 16.1458740234375
-98.616455078125 50.15283203125 7.978515625
81.73291015625 -50.715087890625 -5.43310546875
-69.2783203125 11.046142578125 11.220947265625
16.85498046875 -80.435546875 9.5523681640625
46.61962890625 -96.7493896484375 -6.59619140625
-64.506591796875 25.603759765625 9.3963623046875
67.8701171875 13.58642578125 0.261474609375
17.892333984375 -91.581787109375 9.381103515625
-72.87548828125 3.357666015625 12.07373046875
39.057861328125 -22.6292724609375 -19.13916015625
13.95654296875 -25.277587890625 10.786865234375
-43.49365234375 -33.24072265625 7.4830322265625
17.155029296875 0.65966796875 17.292236328125
-16.841064453125 46.2777099609375 16.3096923828125
-5.718505859375 -37.369140625 10.6785888671875
48.31640625 -73.16552734375 -14.7283935546875
-65.53515625 -76.4869384765625 1.85595703125
-50.312744140625 -38.079345703125 10.7095947265625
-46.096435546875 -56.0631103515625 15.6865234375
21.29638671875 17.0394287109375 19.067138671875
-19.8310546875 -49.952392578125 10.15576171875
53.097900390625 -48.740234375 -13.1856689453125
53.37109375 -92.6746826171875 -12.90625
-28.19921875 -47.251220703125 10.42919921875
-46.718994140625 -71.289794921875 2.926513671875
75.659423828125 -83.2677001953125 6.3123779296875
86.05078125 -55.1849365234375 -4.970947265625
-6.034912109375 -22.1519775390625 10.570556640625
4.7607421875 -37.0015869140625 10.7470703125
29.828125 0.259521484375 17.648681640625
63.376220703125 -92.0714111328125 4.4989013671875
1.519287109375 -65.3399658203125 10.0242919921875
-28.30712890625 -31.1900634765625 10.635986328125
36.97998046875 -47.343505859375 10.54248046875
27.385986328125 -20.2430419921875 11.0577392578125
80.50146484375 -84.2608642578125 9.1895751953125
20.992919921875 -75.986083984375 9.6390380859375
-50.906494140625 -52.1844482421875 15.754150390625
-10.6494140625 13.0576171875 16.42333984375
66.767578125 -47.7203369140625 10.7374267578125
89.3427734375 -74.7271728515625 -3.0765380859375
-75.46630859375 -11.8450927734375 14.3115234375
32.772705078125 54.068115234375 -7.227294921875
-53.078369140625 -64.567138671875 2.68896484375
49.064453125 -107.38916015625 -5.2108154296875
-32.88818359375 -42.3756103515625 10.4720458984375
34.106689453125 -42.8336181640625 10.725830078125
-7.518798828125 -17.1236572265625 10.537841796875
9.201904296875 -51.745849609375 10.3580322265625
-22.927978515625 -46.1343994140625 10.8011474609375
19.981689453125 84.2159423828125 20.976806640625
82.487548828125 -88.0601806640625 -4.6151123046875
-83.642578125 26.5579833984375 9.70166015625
-5.45361328125 21.5355224609375 16.906982421875
-68.042724609375 -5.2789306640625 10.367919921875
44.306640625 -64.7996826171875 -13.8140869140625
10.39501953125 33.384033203125 16.01220703125
49.0498046875 -9.111572265625 -22.1541748046875
36.29296875 18.7703857421875 -17.1962890625
28.7734375 -43.331787109375 10.5775146484375
30.147705078125 60.4151611328125 16.1483154296875
51.195068359375 -120.82958984375 -4.1097412109375
20.2861328125 81.8577880859375 25.0242919921875
-28.49951171875 6.1219482421875 16.8509521484375
-35.59521484375 -51.5264892578125 10.8895263671875
-14.7080078125 -34.119873046875 9.577880859375
-74.308837890625 31.004150390625 9.2274169921875
-26.344482421875 37.0804443359375 16.081787109375
5.402587890625 61.7509765625 16.2056884765625
20.826171875 -6.8017578125 12.459228515625
18.978759765625 -40.5855712890625 2.6649169921875
19.90576171875 67.227294921875 16.4144287109375
82.564453125 -75.2091064453125 -3.322509765625
-28.099365234375 -18.3160400390625 5.27392578125
51.26416015625 -94.15087890625 -6.3895263671875
48.39892578125 -89.037841796875 -6.6116943359375
-38.168212890625 -35.255615234375 6.822021484375
-103.3896484375 40.700439453125 9.3382568359375
8.802978515625 -85.6900634765625 9.3726806640625
76.548095703125 -68.195068359375 -5.24658203125
47.930419921875 22.8927001953125 -22.2122802734375
29.26513671875 -70.524658203125 9.9351806640625
77.439208984375 -69.3717041015625 9.6571044921875
24.398681640625 40.705810546875 16.108642578125
16.790283203125 20.3472900390625 17.7113037109375
72.924072265625 -90.4638671875 7.4876708984375
-55.97705078125 -75.0924072265625 3.6483154296875
42.28369140625 -84.998291015625 -18.7816162109375
-39.444580078125 -25.549560546875 10.71337890625
-61.1650390625 -27.4322509765625 10.399169921875
7.762451171875 -57.549072265625 13.5751953125
28.56689453125 -50.037841796875 10.5802001953125
-46.70703125 -31.8370361328125 10.7034912109375
24.479248046875 81.5369873046875 22.7183837890625
41.90625 -90.128662109375 -11.30029296875
37.2880859375 -59.2930908203125 9.68896484375
7.586669921875 39.331787109375 15.6998291015625
5.734130859375 89.3802490234375 26.4154052734375
39.535888671875 -75.349609375 -16.8856201171875
-69.79052734375 -16.4732666015625 10.2889404296875
14.989013671875 -58.511474609375 10.2362060546875
48.522705078125 -23.0721435546875 -18.93994140625
-18.878173828125 -32.340576171875 6.5528564453125
-79.288818359375 19.348388671875 10.8214111328125
3.41943359375 -50.929443359375 10.7098388671875
55.660400390625 -90.4190673828125 -5.10302734375
-73.196533203125 -77.2457275390625 15.144775390625
69.007568359375 -77.0479736328125 7.3994140625
-91.82861328125 30.547607421875 12.40185546875
-67.397216796875 -71.7657470703125 4.313720703125
13.115234375 -43.226318359375 10.3548583984375
65.932373046875 42.614013671875 1.0811767578125
67.15234375 -69.5235595703125 9.818359375
-33.44970703125 -29.69287109375 9.887939453125
-28.224609375 -20.0919189453125 13.595458984375
-83.593505859375 12.9173583984375 12.697998046875
-1.98681640625 -11.9119873046875 10.7999267578125
-61.029052734375 -64.92138671875 3.29296875
-77.28564453125 -5.6195068359375 13.0911865234375
-43.993408203125 -64.99169921875 16.2296142578125
22.557373046875 -85.9569091796875 9.4310302734375
29.7080078125 -60.5574951171875 10.37939453125
2.724853515625 -58.8662109375 10.0609130859375
90.971435546875 -101.2752685546875 -8.201904296875
5.313720703125 11.8421630859375 16.4534912109375
-22.057373046875 -31.5819091796875 9.550537109375
-63.916259765625 -11.852783203125 10.502197265625
39.604736328125 -58.8157958984375 -11.9169921875
44.864013671875 -15.6217041015625 -17.786376953125
-23.95263671875 21.09619140625 15.505615234375
-53.802001953125 -24.4896240234375 10.5252685546875
48.7109375 -90.0699462890625 -10.9837646484375
-73.680908203125 25.7349853515625 9.465087890625
-56.86328125 -83.641357421875 15.3839111328125
14.2578125 -17.05615234375 11.0159912109375
-69.337158203125 0.4573974609375 11.74609375
66.81884765625 -41.121337890625 9.097900390625
23.753173828125 54.771728515625 17.02294921875
-36.209228515625 -50.146240234375 15.6820068359375
23.23291015625 -53.7568359375 10.549560546875
-10.7734375 -13.706298828125 10.9739990234375
75.43115234375 -37.3648681640625 -1.7435302734375
-58.6904296875 -70.5084228515625 3.76416015625
31.728271484375 15.20361328125 16.263916015625
-87.4384765625 39.9539794921875 9.233642578125
-8.87744140625 64.612548828125 16.6905517578125
-40.27490234375 -61.677734375 15.782470703125
34.947265625 -5.356689453125 13.2049560546875
28.29296875 8.5562744140625 16.676513671875
65.554931640625 -86.15869140625 7.0394287109375
72.033447265625 -8.18603515625 -0.4571533203125
38.603515625 -18.1346435546875 -19.1220703125
67.95166015625 34.8709716796875 -1.24365234375
45.930908203125 -20.2060546875 -16.6148681640625
81.982421875 -88.2945556640625 9.199462890625
48.571533203125 -117.43359375 -3.9921875
-72.7421875 39.420654296875 8.089111328125
2.845703125 -16.4168701171875 10.9876708984375
10.50537109375 -56.607666015625 10.162841796875
26.57470703125 31.04736328125 16.044677734375
74.292236328125 -53.0565185546875 9.4373779296875
-19.388427734375 9.947265625 16.4390869140625
-52.078369140625 -69.5457763671875 5.4461669921875
26.00048828125 74.1700439453125 18.0933837890625
-18.60498046875 32.1187744140625 16.23095703125
-27.235107421875 -16.2783203125 11.9774169921875
68.325439453125 23.9295654296875 1.5296630859375
-27.0615234375 48.380615234375 16.6795654296875
35.505859375 -89.3779296875 -15.742919921875
-72.58251953125 -6.908447265625 10.1756591796875
69.678466796875 17.6402587890625 1.2314453125
31.8125 37.28955078125 16.155029296875
14.779541015625 41.061767578125 15.7884521484375
79.807373046875 -73.0679931640625 -0.83154296875
-8.816650390625 -32.880126953125 10.746826171875
-10.35009765625 20.1036376953125 16.4383544921875
-15.935302734375 -32.3580322265625 -2.0325927734375
-63.972412109375 -80.558837890625 13.688232421875
41.78466796875 -68.366943359375 -13.791259765625
-19.198974609375 -27.23974609375 2.8177490234375
10.458984375 82.4652099609375 26.3082275390625
66.0498046875 -35.301025390625 2.89404296875
74.476806640625 -56.964111328125 3.728759765625
-46.6220703125 -78.829833984375 15.6708984375
-44.904541015625 -75.786865234375 10.613525390625
3.214599609375 -82.1982421875 9.8216552734375
64.3212890625 36.170166015625 0.839111328125
32.771484375 -66.74560546875 8.8084716796875
80.370849609375 -69.209228515625 -3.244873046875
8.051513671875 -17.4677734375 11.0316162109375
24.175537109375 45.4298095703125 16.28173828125
29.345947265625 -7.4970703125 11.695556640625
51.314208984375 -57.7652587890625 -12.119384765625
45.477294921875 -57.4171142578125 -14.3802490234375
66.03125 -9.2742919921875 1.3524169921875
-17.90869140625 -37.100341796875 2.0267333984375
-82.21923828125 31.915283203125 9.582763671875
20.404541015625 23.154541015625 16.4945068359375
70.87939453125 -87.65234375 4.8106689453125
-40.630126953125 -70.57666015625 15.4384765625
-21.618408203125 -14.8446044921875 9.957275390625
58.497314453125 -93.2607421875 -0.4749755859375
-56.609619140625 -11.0936279296875 10.2908935546875
-22.279541015625 65.0238037109375 15.1455078125
0.48583984375 -29.387451171875 11.008544921875
-71.153076171875 -66.1376953125 15.0185546875
-9.173828125 35.6873779296875 16.568603515625
26.6396484375 2.755859375 16.734375
74.587646484375 -48.639892578125 0.6939697265625
52.151611328125 -64.184814453125 -10.078857421875
-36.045166015625 -38.8897705078125 3.158935546875
-73.194580078125 -11.8447265625 10.3563232421875
65.69580078125 -55.0838623046875 10.421142578125
33.893798828125 -80.189208984375 -13.0296630859375
2.45556640625 -90.698974609375 9.5419921875
-8.126953125 29.3546142578125 16.3472900390625
9.11767578125 -89.9505615234375 12.4874267578125
16.375 -36.2174072265625 7.33544921875
63.099853515625 2.453857421875 4.8759765625
41.137939453125 34.4661865234375 -19.771240234375
6.571533203125 -12.2352294921875 10.5206298828125
10.728271484375 -77.83740234375 9.9244384765625
-87.17724609375 50.3714599609375 7.6492919921875
46.734130859375 -48.0723876953125 -14.3443603515625
35.609619140625 -11.8665771484375 10.817138671875
-2.257080078125 -35.055908203125 10.58447265625
38.87646484375 -3.360107421875 -19.6541748046875
-81.40625 44.962158203125 7.9598388671875
-74.14599609375 12.8226318359375 11.3896484375
-43.59716796875 -14.7513427734375 9.035400390625
64.866943359375 47.2412109375 0.490234375
39.902587890625 -89.597900390625 -0.1292724609375
48.14794921875 -1.6055908203125 -22.993896484375
-63.1484375 9.5904541015625 11.4605712890625
-12.976318359375 -32.6907958984375 6.1937255859375
-48.756591796875 -9.3050537109375 10.7608642578125
14.33349609375 -71.211181640625 9.81689453125
-12.86669921875 37.8343505859375 16.418212890625
-83.229736328125 40.1510009765625 8.8505859375
28.634521484375 52.019287109375 16.57763671875
27.399169921875 81.4534912109375 18.0670166015625
16.128662109375 37.095947265625 16.4573974609375
9.05517578125 18.58544921875 16.1390380859375
42.216552734375 9.85986328125 -17.5775146484375
-93.43603515625 35.0240478515625 9.2628173828125
-49.226318359375 -87.5986328125 14.915283203125
15.781005859375 -20.7796630859375 10.799560546875
71.63525390625 -42.3099365234375 4.7989501953125
13.003662109375 25.94091796875 16.4501953125
52.818359375 -8.7510986328125 -23.51953125
27.074462890625 64.051025390625 16.2255859375
31.3515625 78.5628662109375 19.5582275390625
21.94384765625 12.210693359375 16.4560546875
-64.95068359375 -7.7781982421875 9.83251953125
-75.619873046875 17.7283935546875 10.84912109375
-78.00390625 33.09716796875 9.07080078125
36.152587890625 44.300048828125 -11.5592041015625
9.310546875 6.094970703125 16.6788330078125
64.37890625 22.432861328125 4.2587890625
-23.7275390625 57.2303466796875 16.2515869140625
36.74267578125 -8.9635009765625 -17.7886962890625
33.82470703125 -31.874267578125 11.0030517578125
27.545166015625 47.6588134765625 16.2225341796875
47.820556640625 -100.439697265625 -4.9127197265625
49.7578125 -87.688232421875 -18.0302734375
-47.194091796875 -47.7667236328125 14.0220947265625
-65.280029296875 -75.7677001953125 5.762451171875
37.15625 14.7742919921875 -18.0792236328125
-17.71337890625 -36.3701171875 6.3875732421875
-21.2998046875 52.3028564453125 18.5540771484375
37.173583984375 -25.6827392578125 10.693359375
-59.848876953125 -80.689697265625 7.229248046875
9.78369140625 50.3450927734375 15.8812255859375
17.55078125 -43.7955322265625 11.023681640625
-71.279296875 -84.711669921875 15.252685546875
-1.32568359375 -43.903564453125 10.4146728515625
49.097412109375 10.731689453125 -22.624267578125
48.484130859375 18.970703125 -22.3656005859375
34.63134765625 23.3956298828125 16.2734375
41.42529296875 -119.1015625 -5.0950927734375
-97.085693359375 41.09619140625 9.19677734375
-60.9033203125 -2.0152587890625 11.3597412109375
-3.02001953125 -51.49560546875 10.406005859375
-44.89892578125 -50.739990234375 11.10986328125
-24.853759765625 4.609130859375 16.99560546875
-39.78369140625 -30.485595703125 6.657958984375
80.13916015625 -70.859619140625 6.0406494140625
28.96484375 -26.2857666015625 11.070556640625
-2.8076171875 63.6580810546875 16.318359375
5.349853515625 85.8970947265625 29.9798583984375
8.910888671875 13.455810546875 16.49658203125
42.5615234375 -76.5546875 -19.2493896484375
71.628173828125 -28.556884765625 -1.230712890625
5.3271484375 26.8668212890625 16.15625
13.573486328125 -37.1881103515625 10.682861328125
90.1376953125 -80.6015625 -5.1678466796875
65.76025390625 -26.860107421875 3.5882568359375
20.642578125 -94.3201904296875 9.9927978515625
-72.714599609375 -58.87744140625 15.5711669921875
-42.285400390625 -36.94970703125 6.3927001953125
-26.1884765625 13.8096923828125 16.4925537109375
-37.743408203125 -52.576416015625 18.341064453125
73.33203125 -56.80224609375 10.18603515625
77.8076171875 -64.31787109375 4.0023193359375
-20.6875 23.3797607421875 16.322265625
5.818359375 -47.0350341796875 10.21435546875
76.88037109375 -30.6676025390625 -1.30322265625
19.490966796875 -83.56396484375 9.617431640625
-6.6474609375 43.8328857421875 16.1971435546875
34.81298828125 -1.51123046875 -15.0030517578125
49.601806640625 -13.9578857421875 -21.265625
-37.587890625 -43.90869140625 12.2728271484375
-54.68359375 -56.286865234375 10.237548828125
-3.313232421875 -57.187255859375 10.3123779296875
49.8017578125 -79.413330078125 -18.04931640625
65.73046875 9.703857421875 1.3914794921875
35.55322265625 51.7410888671875 -9.089111328125
16.94580078125 52.244140625 18.07177734375
35.3291015625 -91.61962890625 1.369140625
77.0380859375 -61.8187255859375 9.825439453125
-107.987060546875 42.5289306640625 9.482666015625
52.79931640625 -16.3984375 -19.27197265625
-19.576171875 -23.3763427734375 6.6640625
76.900146484375 -58.82763671875 -2.34033203125
24.52587890625 -68.48779296875 10.1107177734375
89.778076171875 -60.51611328125 -5.815673828125
0.868408203125 33.059814453125 16.2032470703125
-58.052490234375 -79.781494140625 10.8720703125
27.90625 18.5089111328125 16.2642822265625
84.760986328125 -91.8487548828125 -7.0933837890625
21.4873046875 -60.3004150390625 10.53271484375
-55.501220703125 6.2735595703125 11.368896484375
-66.46044921875 29.237060546875 8.5111083984375
-28.297119140625 29.267333984375 16.0469970703125
20.890380859375 -41.163818359375 7.305908203125
62.715576171875 54.1563720703125 -0.813232421875
1.782958984375 -69.160400390625 9.78369140625
87.546875 -104.528564453125 -10.9019775390625
50.061767578125 4.4200439453125 -22.6138916015625
-93.996826171875 48.062744140625 8.8333740234375
-8.72802734375 57.7484130859375 16.256591796875
-18.387939453125 19.695068359375 17.17529296875
28.97314453125 22.9642333984375 16.3572998046875
19.145751953125 -34.0673828125 2.9566650390625
-68.013671875 -21.055419921875 10.2021484375
33.525634765625 34.0123291015625 -13.000732421875
43.945068359375 5.3544921875 -21.5765380859375
62.515869140625 39.6690673828125 -0.3218994140625
79.542724609375 -76.615478515625 9.84765625
-17.309814453125 -39.94287109375 9.51611328125
31.419677734375 -39.67626953125 11.0135498046875
66.396728515625 -82.9083251953125 1.612548828125
20.866943359375 -10.9432373046875 11.106201171875
-87.76953125 26.0555419921875 12.2945556640625
84.273193359375 -57.558349609375 -2.3507080078125
-46.30224609375 -68.938232421875 5.8636474609375
38.577392578125 -29.1571044921875 -14.265869140625
37.6025390625 60.46875 -4.747314453125
39.98486328125 -47.155517578125 -15.80712890625
-32.74365234375 -22.2139892578125 10.6517333984375
67.58544921875 -51.3792724609375 10.3199462890625
24.467041015625 -39.0257568359375 7.668212890625
32.254638671875 46.9747314453125 -9.296142578125
74.87939453125 -64.8890380859375 10.0609130859375
59.991943359375 -90.95556640625 -8.5823974609375
14.642822265625 4.9085693359375 16.598876953125
70.009521484375 -59.5201416015625 10.2601318359375
44.49072265625 -52.4146728515625 -15.8499755859375
-68.94677734375 18.9366455078125 10.43603515625
44.6337890625 -80.2230224609375 -18.7513427734375
34.575927734375 4.8211669921875 16.771728515625
30.651611328125 -12.0872802734375 11.11767578125
-24.406494140625 -43.5552978515625 13.105224609375
-79.1318359375 11.2996826171875 12.065185546875
36.077392578125 -81.8883056640625 -15.5523681640625
-49.98388671875 -45.6441650390625 11.522705078125
7.765625 -82.0947265625 9.43212890625
13.05908203125 -86.509521484375 10.34521484375
9.47314453125 -66.9637451171875 9.883544921875
3.9521484375 52.90234375 16.1173095703125
-7.801513671875 50.236083984375 15.6485595703125
-90.590087890625 46.55517578125 12.8941650390625
56.703369140625 -92.8331298828125 -8.240966796875
82.11474609375 -95.5562744140625 -5.4813232421875
42.97314453125 -92.19287109375 -16.551025390625
12.069091796875 54.874755859375 15.766357421875
-51.041259765625 -48.4002685546875 15.769287109375
71.377197265625 -94.0159912109375 8.8104248046875
0.447021484375 -22.5938720703125 10.773193359375
12.1806640625 30.128173828125 16.141845703125
-1.217529296875 -71.7059326171875 9.968994140625
72.066650390625 -24.1170654296875 -1.291748046875
7.31103515625 -23.1473388671875 10.8336181640625
-52.179931640625 -42.6707763671875 10.9542236328125
-38.6904296875 -41.29931640625 6.4329833984375
39.638671875 28.0887451171875 -15.8662109375
38.171142578125 48.4393310546875 -13.22021484375
35.006591796875 -2.3779296875 15.69384765625
66.3837890625 -92.1009521484375 8.8934326171875
68.272216796875 2.537109375 -0.1783447265625
-20.589111328125 17.1441650390625 18.681396484375
25.02587890625 -57.3153076171875 10.204833984375
35.5693359375 25.319091796875 -15.31396484375
8.768310546875 64.0478515625 16.1456298828125
65.934814453125 -44.9710693359375 8.43505859375
69.4306640625 -1.6798095703125 -0.822265625
26.167236328125 -32.4613037109375 7.3175048828125
-13.05615234375 45.019775390625 16.2039794921875
28.1015625 71.813232421875 16.213134765625
41.71630859375 -104.348876953125 -7.4384765625
52.95751953125 -43.847900390625 -14.2755126953125
70.964111328125 -64.4205322265625 9.9515380859375
69.763427734375 -39.24560546875 6.320068359375
-64.690673828125 -26.4139404296875 10.3758544921875
-18.735595703125 39.6595458984375 16.525390625
-23.076904296875 39.5849609375 16.4039306640625
38.8828125 -110.1392822265625 -3.911865234375
36.088134765625 9.8155517578125 16.3406982421875
41.203125 -52.926025390625 10.158203125
37.954833984375 -91.3673095703125 -11.3453369140625
0.6015625 -75.186767578125 9.52294921875
78.504150390625 -64.7607421875 -3.5087890625
2.196533203125 64.7918701171875 16.283935546875
-36.6357421875 -20.89794921875 11.0050048828125
60.155029296875 -92.816650390625 6.029541015625
51.014404296875 -102.5634765625 -5.50537109375
19.7802734375 -47.135498046875 10.4158935546875
33.61181640625 59.760009765625 18.71142578125
33.24267578125 -91.7657470703125 -3.1651611328125
-19.36474609375 -21.22021484375 -0.3612060546875
-58.839599609375 -35.812744140625 10.9898681640625
33.032958984375 57.4937744140625 -6.05126953125
-5.922607421875 38.2091064453125 16.255615234375
49.789794921875 -69.292236328125 -9.62158203125
-105.765380859375 53.6302490234375 8.013671875
64.9169921875 29.9666748046875 6.594970703125
-32.66162109375 -38.4122314453125 9.284423828125
33.690185546875 28.9229736328125 16.241455078125
15.45751953125 60.80126953125 15.854736328125
-71.455078125 7.8812255859375 11.8514404296875
8.378173828125 91.7833251953125 26.9827880859375
-61.930419921875 -70.5322265625 6.391845703125
41.323974609375 21.159423828125 -18.7344970703125
91.405029296875 -67.109619140625 -5.9512939453125
-7.70166015625 -47.5875244140625 10.4560546875
7.634033203125 1.8936767578125 17.3773193359375
-103.27099609375 49.8660888671875 8.266357421875
50.858154296875 -31.5108642578125 -17.755859375
-23.0234375 26.6353759765625 15.59228515625
63.55029296875 6.6383056640625 5.453857421875
1.90478515625 15.8690185546875 16.05322265625
38.505615234375 4.13525390625 -19.3795166015625
46.4814453125 -92.3046875 -17.285400390625
-61.181396484375 16.305908203125 10.5845947265625
-24.775146484375 -41.4539794921875 7.8873291015625
7.503662109375 30.40576171875 16.4263916015625
-69.255615234375 -73.9857177734375 14.7916259765625
-77.69921875 5.3038330078125 12.4832763671875
-15.92529296875 60.76123046875 16.3138427734375
20.80908203125 26.6971435546875 16.110107421875
11.5205078125 -49.03759765625 10.217041015625
40.7841796875 -89.281982421875 -18.7723388671875
-43.13671875 -52.9593505859375 15.51318359375
89.88671875 -70.31201171875 -3.2606201171875
43.0263671875 -99.921630859375 -8.4383544921875
35.41162109375 47.0726318359375 16.264404296875
-50.79638671875 -79.2183837890625 11.318359375
-53.7724609375 -5.103759765625 10.8140869140625
26.089111328125 -14.752197265625 10.9044189453125
39.4326171875 -91.672119140625 -4.1937255859375
24.072265625 34.689208984375 16.347900390625
-44.7880859375 -43.1900634765625 10.3890380859375
72.3818359375 -36.25341796875 -0.2891845703125
-52.81884765625 -27.9049072265625 10.5948486328125
48.61474609375 -64.8779296875 -9.84716796875
2.611083984375 36.66748046875 16.5010986328125
55.22412109375 -90.146728515625 -14.9678955078125
-19.693603515625 6.4271240234375 16.691162109375
-60.038330078125 -74.873779296875 4.55322265625
30.72802734375 54.717041015625 18.9716796875
-110.47119140625 48.1478271484375 9.4686279296875
84.282958984375 -99.379638671875 -8.136474609375
78.721923828125 -49.54052734375 -1.1611328125
31.002197265625 41.1119384765625 15.9708251953125
67.1689453125 29.805419921875 3.1937255859375
37.111083984375 -34.046142578125 10.7987060546875
68.691650390625 -78.5966796875 4.25146484375
1.9541015625 7.938232421875 16.884765625
14.729248046875 12.332763671875 16.5152587890625
72.0498046875 15.28173828125 2.3282470703125
46.10205078125 -35.718994140625 -16.3585205078125
-23.373291015625 -18.110595703125 11.6236572265625
-99.2890625 34.5518798828125 11.2301025390625
28.361328125 -35.75146484375 10.9698486328125
45.758056640625 -106.44189453125 -5.864990234375
85.653076171875 -74.986572265625 -4.9539794921875
-31.419677734375 -16.1923828125 10.67724609375
-28.904541015625 -23.6864013671875 -1.811767578125
49.28271484375 -50.8316650390625 -12.9046630859375
-12.21728515625 5.747802734375 16.608154296875
7.10595703125 8.80615234375 16.7034912109375
85.15185546875 -66.9915771484375 -3.2237548828125
-77.90087890625 23.69482421875 10.2252197265625
65.035400390625 -2.893310546875 2.8282470703125
40.424072265625 -45.941650390625 10.5714111328125
-25.861572265625 -39.4224853515625 10.7364501953125
48.8447265625 -113.546875 -4.375
28.85546875 28.4329833984375 16.27392578125
66.23583984375 -22.7767333984375 2.3590087890625
6.394287109375 -58.2330322265625 10.4130859375
-0.740234375 -48.7906494140625 10.265380859375
45.167724609375 -2.2357177734375 -21.32275390625
46.18798828125 -86.2406005859375 -18.574951171875
88.358642578125 -94.44580078125 -8.3538818359375
-64.506103515625 -84.6085205078125 14.9522705078125
77.32275390625 -42.1419677734375 -1.5908203125
-52.892822265625 -81.183349609375 5.27197265625
-77.599853515625 -2.3358154296875 12.01904296875
89.46337890625 -87.4130859375 -6.1407470703125
-18.26953125 49.70166015625 16.281005859375
-40.310302734375 -76.619384765625 15.85986328125
21.768798828125 52.0748291015625 17.910400390625
23.18505859375 -20.769775390625 10.95068359375
44.28955078125 -112.018798828125 -6.2142333984375
-12.352294921875 17.28857421875 16.2950439453125
-16.102294921875 -48.4378662109375 10.388671875
-67.669677734375 -13.7718505859375 9.9095458984375
-23.727294921875 18.362060546875 20.143798828125
20.20947265625 -18.3336181640625 10.7734375
0.6982421875 -37.4150390625 10.7586669921875
22.244873046875 64.6923828125 16.25732421875
-62.46484375 -88.5201416015625 15.050048828125
57.944580078125 -85.373779296875 -12.1822509765625
10.671630859375 46.81982421875 15.8092041015625
58.833984375 -91.4176025390625 9.0162353515625
70.76318359375 -16.001708984375 -1.2740478515625
18.31103515625 40.8424072265625 16.2191162109375
-50.210693359375 -18.8912353515625 10.7598876953125
-2.265625 31.6719970703125 16.513671875
5.891845703125 -90.7020263671875 9.6661376953125
0.55859375 -84.2918701171875 9.2027587890625
-63.810546875 22.2918701171875 9.9844970703125
-26.854248046875 51.71875 15.9039306640625
70.51416015625 -84.0621337890625 2.0338134765625
42.54150390625 29.9080810546875 -21.725830078125
-67.892822265625 14.473876953125 10.87939453125
52.682861328125 -25.0537109375 -18.2568359375
-12.802978515625 25.19580078125 16.6109619140625
88.611328125 -57.4390869140625 -6.7894287109375
23.088134765625 4.8050537109375 16.5880126953125
46.443603515625 12.7916259765625 -23.3182373046875
48.0732421875 -56.658935546875 -11.9407958984375
-27.20166015625 21.8087158203125 16.3333740234375
-12.63232421875 53.4215087890625 16.6036376953125
42.072265625 48.785400390625 -17.6937255859375
40.4892578125 -42.478271484375 -17.158447265625
41.560791015625 13.214599609375 -17.387939453125
-54.163818359375 1.398193359375 11.1796875
-59.5224609375 -62.799560546875 1.078125
