50.17041015625 2.541015625 -19.7835693359375
13.537353515625 -75.806884765625 7.151611328125
4.58984375 -36.5699462890625 7.420166015625
82.611328125 -79.203125 7.389404296875
-30.970947265625 60.1077880859375 13.9788818359375
-5.071533203125 37.410888671875 12.3670654296875
31.23291015625 23.2781982421875 11.8052978515625
-32.12060546875 -21.29345703125 7.3502197265625
38.822998046875 -37.9833984375 7.761474609375
42.243896484375 -123.090576171875 -6.0806884765625
-24.923828125 -41.605712890625 -5.7860107421875
31.863037109375 -8.0740966796875 -16.1873779296875
35.620361328125 -35.594970703125 -13.52978515625
-89.1728515625 48.27099609375 3.4329833984375
41.191162109375 -60.2381591796875 5.6678466796875
79.822265625 -43.1104736328125 -3.6915283203125
-9.5673828125 18.2950439453125 12.3538818359375
-12.0966796875 -44.3311767578125 7.4244384765625
-76.19970703125 22.4869384765625 6.023193359375
-68.164306640625 -58.4730224609375 13.505615234375
24.64013671875 -90.777587890625 6.7655029296875
-42.904296875 -54.9892578125 13.4312744140625
77.89501953125 -71.592529296875 -8.115966796875
-67.035400390625 -90.6197509765625 14.3148193359375
45.650390625 -90.453369140625 -20.893798828125
41.960205078125 -91.708984375 12.550048828125
59.058837890625 -95.7847900390625 -1.452392578125
54.615478515625 -65.9849853515625 -10.6180419921875
12.249267578125 39.0369873046875 11.86669921875
-48.239013671875 -91.10546875 12.2064208984375
-15.194091796875 53.199951171875 12.2022705078125
95.8779296875 -94.837890625 -21.144775390625
-1.325927734375 -85.5802001953125 7.76318359375
16.89404296875 6.6441650390625 12.8936767578125
61.18505859375 -47.4124755859375 7.2838134765625
-26.794677734375 21.685791015625 13.590576171875
84.234130859375 -92.422119140625 -7.4842529296875
18.99462890625 -38.618408203125 -0.4271240234375
18.794921875 57.1583251953125 11.7762451171875
-44.35595703125 -77.9410400390625 1.4171142578125
33.816162109375 -96.2945556640625 -5.55615234375
2.013916015625 -21.0111083984375 7.2261962890625
-62.679443359375 2.3826904296875 8.6324462890625
-53.751953125 -23.493896484375 7.1627197265625
56.50048828125 -34.4737548828125 -22.9862060546875
67.94384765625 17.1409912109375 -0.2435302734375
-28.583251953125 -36.1580810546875 7.7359619140625
78.03955078125 -10.2784423828125 0.4703369140625
25.61669921875 -66.7216796875 7.0784912109375
68.57958984375 -83.6749267578125 4.6099853515625
-65.263916015625 -72.047119140625 -0.4451904296875
12.338623046875 -61.7371826171875 12.1512451171875
1.6123046875 8.454345703125 12.89599609375
-105.948974609375 37.0364990234375 5.5848388671875
-59.95361328125 -36.4034423828125 7.8421630859375
-9.319580078125 -0.92919921875 13.38916015625
-71.734130859375 -9.829833984375 7.12255859375
35.1591796875 -15.5823974609375 6.5589599609375
15.653564453125 -12.638916015625 7.33740234375
58.09326171875 -97.1251220703125 -15.5399169921875
60.17041015625 -53.763671875 -16.5267333984375
41.214111328125 -69.731201171875 -13.29638671875
-27.132568359375 -27.9324951171875 -5.3988037109375
67.656494140625 30.9407958984375 7.00927734375
48.756103515625 -43.958984375 -16.8135986328125
35.353759765625 23.8917236328125 -14.1883544921875
69.80029296875 -36.184814453125 2.3209228515625
8.920654296875 -49.4608154296875 7.4708251953125
33.006591796875 -21.3955078125 -14.078857421875
-36.2109375 -45.275146484375 0.6177978515625
43.21533203125 14.2069091796875 -21.5220947265625
54.189208984375 -115.1998291015625 -7.8712158203125
84.55517578125 -92.261962890625 7.751953125
77.892822265625 -57.2076416015625 -3.022216796875
92.363037109375 -71.220703125 -9.083251953125
-15.010498046875 -33.234375 13.6168212890625
65.150146484375 44.5321044921875 10.975341796875
-83.630615234375 36.1806640625 4.85400390625
-16.769775390625 31.3648681640625 12.2711181640625
-42.39453125 -67.9261474609375 12.447509765625
-30.1494140625 -51.6951904296875 18.1602783203125
-1.55419921875 -71.843994140625 7.884765625
21.102783203125 17.9912109375 17.135986328125
-65.28125 28.366943359375 4.8551025390625
23.985595703125 -4.1600341796875 13.924072265625
24.486572265625 33.4130859375 11.97265625
-20.618896484375 -17.4530029296875 6.7896728515625
49.081298828125 -78.1646728515625 -17.0767822265625
-64.493896484375 -79.7440185546875 8.88037109375
45.574951171875 -8.5318603515625 -21.48876953125
-12.9296875 -41.6158447265625 -5.4727783203125
80.900390625 -67.307373046875 4.71337890625
64.72998046875 41.370849609375 -5.40087890625
-69.61181640625 11.9063720703125 7.4176025390625
48.931884765625 -92.838623046875 -8.9678955078125
38.583984375 1.6065673828125 -16.119384765625
68.482177734375 24.140869140625 20.783203125
13.40380859375 -87.7174072265625 7.035888671875
13.550537109375 -29.251220703125 7.714111328125
68.33056640625 -72.5509033203125 7.38720703125
-9.20166015625 -16.42529296875 7.0933837890625
-13.626708984375 -55.6763916015625 7.85791015625
24.544677734375 -78.9041748046875 6.90185546875
84.581787109375 -80.6033935546875 -5.987060546875
-60.71240234375 -13.00390625 7.1416015625
-82.97021484375 13.79443359375 8.8765869140625
-43.088134765625 -18.315185546875 7.1007080078125
-4.713134765625 -30.131103515625 6.6907958984375
34.768798828125 -27.3564453125 7.49365234375
46.33154296875 -31.862548828125 -17.8966064453125
-54.75048828125 -75.4241943359375 5.0010986328125
28.068359375 -40.909423828125 6.031494140625
55.723876953125 -26.18310546875 -15.3541259765625
72.701904296875 -50.013671875 3.8709716796875
2.652099609375 45.5279541015625 12.09033203125
36.6923828125 -48.947998046875 7.72900390625
36.317138671875 -94.6475830078125 -16.5299072265625
-49.40771484375 -48.0782470703125 7.628662109375
-1.138916015625 26.249267578125 12.274658203125
-25.8310546875 50.0384521484375 12.399169921875
-22.989013671875 -45.19140625 5.17138671875
73.573974609375 -90.5252685546875 -2.050048828125
69.40380859375 -16.720458984375 0.5087890625
-14.893310546875 42.4310302734375 12.227783203125
60.4150390625 -62.6885986328125 7.518798828125
92.4208984375 -98.8624267578125 -9.2894287109375
59.683349609375 -52.402587890625 -6.0546875
29.81103515625 12.1180419921875 12.6663818359375
-95.593017578125 38.6162109375 4.9964599609375
41.1826171875 -96.7608642578125 1.7977294921875
-1.62109375 -48.8427734375 7.352294921875
76.598388671875 11.5489501953125 -0.385498046875
-39.857666015625 -28.89013671875 7.4732666015625
-54.43359375 -82.9547119140625 11.88916015625
39.752197265625 -81.1722412109375 -20.0020751953125
18.978515625 47.035400390625 12.6898193359375
37.524169921875 -46.166015625 -13.0399169921875
-18.411865234375 14.5810546875 15.5548095703125
41.681396484375 -111.4722900390625 -4.8258056640625
-58.524658203125 -95.7427978515625 12.4765625
68.314697265625 -6.71826171875 0.235107421875
25.663330078125 -12.212646484375 8.1192626953125
71.942626953125 2.633544921875 22.409423828125
54.839111328125 -87.1734619140625 -18.7408447265625
17.47119140625 -44.4659423828125 7.4501953125
41.694580078125 -114.8941650390625 10.3892822265625
-0.69384765625 -95.281494140625 7.3675537109375
64.44384765625 -95.40478515625 6.6234130859375
17.236328125 26.96044921875 12.080078125
-6.516357421875 48.97607421875 12.036865234375
-86.43505859375 22.7371826171875 6.8160400390625
-35.957763671875 -53.492919921875 6.91943359375
28.39892578125 56.8704833984375 11.539794921875
18.3603515625 -98.9053955078125 7.898193359375
-45.637939453125 -79.47509765625 10.8406982421875
-21.11474609375 -29.754150390625 5.43701171875
60.015869140625 34.24609375 11.4425048828125
69.585693359375 -25.9542236328125 3.5443115234375
35.650146484375 -67.6322021484375 7.449462890625
-80.033935546875 46.228515625 3.1082763671875
14.6650390625 -4.9063720703125 13.4259033203125
51.07275390625 -55.1182861328125 -14.7930908203125
9.982666015625 53.1295166015625 11.716064453125
-13.1064453125 7.49951171875 12.74951171875
77.641845703125 -33.97607421875 -3.7947998046875
8.021728515625 -68.3878173828125 7.34033203125
7.513427734375 31.132080078125 12.3248291015625
32.493408203125 -57.5986328125 7.249267578125
-4.108154296875 -39.739013671875 7.436279296875
-74.243408203125 31.7659912109375 4.9102783203125
-98.753662109375 49.370849609375 2.6988525390625
84.692138671875 -65.833251953125 -6.0247802734375
-73.39599609375 -84.18505859375 15.46826171875
39.021484375 -13.6026611328125 -16.0533447265625
91.182373046875 -102.15283203125 -23.64501953125
-62.263916015625 -27.6932373046875 7.1954345703125
6.658203125 -12.9071044921875 7.45068359375
-56.705810546875 8.940673828125 7.204833984375
-90.927734375 42.5953369140625 11.5439453125
-50.910888671875 -83.723388671875 3.6820068359375
46.50146484375 -62.3787841796875 -12.2296142578125
-15.4072265625 -32.236328125 -5.0687255859375
73.4521484375 -62.12158203125 -9.0006103515625
-73.848388671875 -66.1798095703125 13.2552490234375
9.580810546875 12.359619140625 12.6143798828125
54.843505859375 -101.8209228515625 -8.2093505859375
-18.08740234375 -2.1773681640625 13.5986328125
84.07763671875 -50.89453125 -2.4952392578125
51.8857421875 -14.484619140625 -18.8040771484375
-53.25634765625 -53.3773193359375 13.4105224609375
-35.6083984375 -36.637451171875 -0.4810791015625
20.125732421875 -59.1494140625 7.2689208984375
-52.6767578125 0.2822265625 8.1170654296875
-40.6943359375 -87.4156494140625 14.4583740234375
3.972900390625 -78.4393310546875 6.79736328125
-27.005615234375 30.5277099609375 12.44189453125
-6.9599609375 57.5914306640625 12.0328369140625
11.36767578125 -20.931396484375 7.5599365234375
30.275146484375 0.6595458984375 -14.2738037109375
-0.899169921875 16.6195068359375 12.415771484375
8.30810546875 1.490478515625 12.846435546875
-36.69384765625 -63.1490478515625 16.6182861328125
77.535400390625 -86.9898681640625 4.6043701171875
-26.328857421875 13.0531005859375 12.851318359375
-47.69384765625 -69.8961181640625 -1.226806640625
92.65625 -89.5704345703125 -8.0966796875
-67.6640625 19.9801025390625 6.341064453125
-17.9697265625 23.0787353515625 12.135986328125
33.375244140625 -75.58251953125 6.1851806640625
-52.36181640625 -33.113525390625 7.3028564453125
37.859619140625 -27.4915771484375 -16.79736328125
69.18994140625 -44.0994873046875 -0.684326171875
41.29931640625 -96.0584716796875 -9.017578125
84.23291015625 -103.12841796875 -8.34130859375
25.736328125 3.8182373046875 12.8170166015625
51.291259765625 -96.4417724609375 -20.141845703125
77.639892578125 -1.5386962890625 0.4093017578125
33.630859375 -89.4617919921875 -10.353759765625
-23.05712890625 57.7364501953125 12.0533447265625
65.22900390625 33.7271728515625 -0.745361328125
41.637451171875 30.782958984375 -17.392822265625
65.049072265625 -54.5740966796875 7.2960205078125
-70.168212890625 -1.926513671875 8.2203369140625
16.16845703125 -68.116943359375 7.3685302734375
67.966552734375 25.239501953125 -0.9508056640625
56.380859375 -40.0625 -17.111572265625
28.770751953125 18.7950439453125 -12.0865478515625
74.631591796875 -77.83203125 7.110595703125
48.486572265625 -72.2508544921875 -10.816162109375
-1.3544921875 0.2855224609375 13.1112060546875
-19.100830078125 -37.530517578125 5.3958740234375
67.4091796875 8.003173828125 0.9862060546875
-54.296875 -41.6922607421875 9.94091796875
-9.137939453125 26.5711669921875 12.5447998046875
-11.628173828125 -36.210205078125 0.76025390625
-30.609619140625 -45.7630615234375 7.507080078125
-39.98974609375 -46.693359375 7.905029296875
28.211181640625 26.7449951171875 -12.2467041015625
55.18505859375 -48.177734375 -14.056396484375
43.31689453125 -38.0594482421875 -14.0880126953125
16.976806640625 -36.334228515625 7.42333984375
-23.905517578125 -34.375732421875 -2.3172607421875
-62.2919921875 -5.3817138671875 7.8612060546875
32.37158203125 -4.9541015625 12.395263671875
67.805419921875 29.4879150390625 15.166015625
25.35205078125 -34.2581787109375 3.1265869140625
-61.536376953125 -65.266357421875 -0.0782470703125
6.487060546875 -91.14990234375 6.7489013671875
34.525634765625 31.58203125 -13.5029296875
6.249755859375 -57.9161376953125 7.2564697265625
36.553955078125 15.33251953125 -14.1602783203125
-66.9013671875 -17.458984375 7.02099609375
41.718994140625 22.70263671875 -19.1500244140625
5.225830078125 -27.9180908203125 7.3082275390625
-64.474365234375 -79.4569091796875 0.9478759765625
23.802001953125 -44.4161376953125 0.2529296875
-51.726318359375 -16.2103271484375 7.058349609375
-5.80810546875 9.8408203125 12.5111083984375
-23.921142578125 -22.8883056640625 2.748779296875
43.377685546875 -97.0723876953125 -17.439697265625
92.124267578125 -77.423583984375 -4.89111328125
60.426513671875 -89.556884765625 -13.509765625
43.134765625 3.9755859375 -21.85888671875
40.041015625 -5.599609375 -17.3758544921875
-26.5673828125 -1.00634765625 14.2703857421875
-19.908447265625 -51.8050537109375 7.2083740234375
-100.23388671875 32.7001953125 7.587158203125
71.035888671875 -92.4654541015625 4.621826171875
-61.299560546875 -85.640625 12.1400146484375
19.61962890625 39.0953369140625 12.0230712890625
36.432373046875 -87.175048828125 -16.777587890625
47.098876953125 -117.0137939453125 -7.15283203125
-8.35693359375 -23.794189453125 7.2232666015625
-36.09228515625 -71.7376708984375 13.7523193359375
-46.381103515625 -25.66650390625 7.05224609375
-81.77978515625 28.189697265625 5.703857421875
10.662841796875 -41.969482421875 7.41357421875
39.462158203125 -62.96484375 -10.659423828125
3.615478515625 38.3829345703125 12.3046875
-28.756103515625 -28.9569091796875 7.67529296875
-77.001953125 9.9036865234375 8.0494384765625
85.7666015625 -72.900634765625 -6.4173583984375
36.377197265625 -87.384765625 13.703857421875
-20.57763671875 50.7802734375 17.198974609375
-104.650634765625 44.0234375 4.77392578125
24.180419921875 24.291015625 12.26318359375
73.774658203125 20.068359375 -3.107666015625
30.9443359375 30.4307861328125 11.811279296875
21.130126953125 -17.656982421875 7.4920654296875
76.386474609375 -17.7989501953125 -2.06640625
61.177734375 -96.6802978515625 -9.166748046875
-35.06689453125 -54.750732421875 14.0689697265625
14.931884765625 -54.3514404296875 7.344482421875
44.556884765625 -49.0074462890625 -14.2001953125
30.062255859375 -20.795166015625 7.52392578125
18.063232421875 -81.68212890625 7.1251220703125
48.364501953125 8.9739990234375 -22.0374755859375
-53.658203125 -100.99853515625 13.0677490234375
16.874267578125 13.674560546875 12.3846435546875
12.751220703125 -93.7926025390625 10.5496826171875
77.11767578125 -60.171630859375 4.22900390625
74.535400390625 -68.7388916015625 7.1954345703125
36.428955078125 8.220947265625 -15.701904296875
60.349609375 49.55029296875 11.415283203125
-21.64013671875 44.0106201171875 12.0264892578125
32.33544921875 -35.55859375 7.58447265625
-60.732421875 -20.941650390625 7.1253662109375
23.64306640625 52.1005859375 13.2840576171875
76.306884765625 -48.8974609375 -1.8948974609375
41.77587890625 -104.2562255859375 -5.183837890625
10.876953125 45.7716064453125 11.8087158203125
85.39453125 -85.4281005859375 6.77587890625
47.990966796875 19.055908203125 -22.003662109375
-10.26611328125 -34.096435546875 7.0927734375
-44.660400390625 -66.496826171875 6.1943359375
-9.235595703125 -50.5089111328125 7.4083251953125
49.923095703125 -110.011474609375 -6.866943359375
56.64013671875 -58.4979248046875 -12.89794921875
-76.298583984375 -5.416748046875 9.4949951171875
28.013427734375 -29.5289306640625 7.71240234375
40.810791015625 -20.5816650390625 -15.410400390625
52.44287109375 -34.3348388671875 -16.57470703125
32.073486328125 -14.4451904296875 -14.0947265625
-70.26806640625 5.300048828125 8.2607421875
71.617919921875 -11.4591064453125 -3.134521484375
-57.332275390625 -70.4462890625 0.291748046875
-69.95068359375 -71.6663818359375 12.4822998046875
82.809326171875 -36.456298828125 -0.396484375
-73.555908203125 -16.181396484375 7.910400390625
10.408447265625 -81.65234375 6.848388671875
-63.0380859375 12.7998046875 7.3348388671875
-42.8671875 -53.2615966796875 7.0322265625
67.354736328125 35.4146728515625 12.248291015625
1.710205078125 -66.1580810546875 7.0587158203125
48.857666015625 -84.6988525390625 -21.11083984375
20.6796875 -29.9560546875 7.6053466796875
28.95849609375 38.135009765625 11.6715087890625
14.116943359375 32.67041015625 12.269775390625
86.88671875 -86.157470703125 -8.4268798828125
-59.37353515625 -85.1605224609375 5.8870849609375
43.201904296875 -75.882568359375 -13.1534423828125
20.44384765625 -72.9471435546875 7.0126953125
-77.357177734375 37.93115234375 4.412353515625
23.006591796875 11.735595703125 12.7359619140625
68.990478515625 -85.7115478515625 -1.485595703125
-12.496826171875 36.485595703125 11.843505859375
-86.758544921875 43.203857421875 6.5513916015625
16.879150390625 20.5582275390625 12.2440185546875
64.9619140625 -93.406005859375 -0.7896728515625
81.490478515625 -76.9337158203125 -1.7633056640625
84.563720703125 -59.253662109375 -4.4461669921875
77.723876953125 -94.9315185546875 5.8634033203125
-20.861083984375 37.701904296875 12.5111083984375
2.14208984375 -43.697509765625 7.4072265625
76.16064453125 -54.529296875 7.0347900390625
30.66064453125 -46.9022216796875 7.7633056640625
-44.5478515625 -73.3736572265625 9.3797607421875
-89.866943359375 34.9752197265625 5.2847900390625
-69.544677734375 -79.4249267578125 12.7413330078125
77.8349609375 -64.3050537109375 -0.5582275390625
25.5146484375 18.00244140625 12.5634765625
67.407470703125 1.1153564453125 0.934326171875
9.73681640625 -8.0257568359375 10.5880126953125
55.789794921875 -93.817138671875 -7.4923095703125
55.24169921875 -80.86474609375 -18.9752197265625
72.697509765625 -31.02587890625 0.093017578125
-41.032470703125 -40.982666015625 3.9144287109375
66.175048828125 -65.2880859375 7.2686767578125
94.534423828125 -99.3897705078125 -16.9815673828125
-0.888916015625 32.7039794921875 12.1103515625
-57.813720703125 -79.4339599609375 1.2579345703125
17.16162109375 -23.3497314453125 7.790771484375
75.014892578125 -39.3531494140625 -1.93310546875
-42.6572265625 -61.6951904296875 12.994384765625
44.083251953125 -14.7071533203125 -19.8419189453125
73.0341796875 -4.1678466796875 -2.97265625
51.864013671875 -21.7532958984375 -18.5789794921875
91.700927734375 -104.4893798828125 -12.385009765625
10.776611328125 -34.8123779296875 7.3505859375
66.626220703125 -48.748291015625 4.14404296875
18.96142578125 -0.4364013671875 13.2633056640625
-15.1533203125 -41.99267578125 2.561767578125
51.740234375 -95.5992431640625 -14.016845703125
-1.65087890625 -8.105224609375 11.57470703125
26.21142578125 -60.2435302734375 7.220703125
-16.3916015625 -26.155029296875 -5.363525390625
-68.75830078125 34.5302734375 4.384765625
-47.669921875 -50.824462890625 13.260009765625
36.93701171875 -21.627685546875 7.9141845703125
26.56982421875 -73.139892578125 6.9501953125
-1.459228515625 -15.99755859375 7.174560546875
70.30517578125 11.988037109375 -2.528564453125
-8.85888671875 42.4700927734375 12.342041015625
38.823486328125 -54.93359375 7.2779541015625
-55.9013671875 -88.7933349609375 12.1414794921875
-56.274169921875 -5.59912109375 7.704833984375
79.73681640625 -73.918701171875 7.103759765625
-23.164794921875 -44.68017578125 -0.818359375
63.80419921875 34.8319091796875 -6.4627685546875
17.535888671875 -93.068359375 6.91943359375
90.34375 -65.660400390625 -8.2855224609375
-47.4052734375 -84.912353515625 12.550537109375
-26.350830078125 -49.914794921875 7.0426025390625
68.629150390625 18.2017822265625 22.274658203125
44.812255859375 -26.3299560546875 -16.4080810546875
50.042236328125 -3.37451171875 -19.476318359375
-50.3583984375 -78.442626953125 1.0677490234375
26.05126953125 -38.8426513671875 -0.5469970703125
-31.668212890625 -40.96923828125 4.2064208984375
59.611328125 40.13037109375 11.080810546875
-92.59423828125 43.84814453125 5.32763671875
48.66650390625 -99.178466796875 -8.278076171875
-51.959716796875 -70.6781005859375 2.880615234375
-46.39306640625 -31.8323974609375 7.2410888671875
74.31982421875 -82.733154296875 2.1063232421875
-1.075439453125 51.2313232421875 12.05810546875
-39.417236328125 -23.021484375 7.4970703125
-71.1103515625 26.822265625 5.5048828125
38.988525390625 -94.4000244140625 -3.5911865234375
63.5986328125 28.322998046875 19.0531005859375
87.012451171875 -96.755615234375 -10.2484130859375
34.830810546875 -42.833251953125 7.5821533203125
-46.256591796875 -12.174072265625 7.2392578125
77.51904296875 4.28466796875 0.4803466796875
2.9736328125 20.9669189453125 12.52392578125
48.052734375 -37.984619140625 -17.7139892578125
26.269287109375 -116.6234130859375 10.857177734375
-22.46484375 -39.192138671875 0.956787109375
34.4130859375 -3.0115966796875 -17.4171142578125
-75.603515625 15.46142578125 7.1654052734375
-41.07373046875 -76.3885498046875 13.19970703125
2.56787109375 -52.835693359375 7.112060546875
38.0009765625 -32.1407470703125 7.0748291015625
78.820068359375 -66.1148681640625 -5.9642333984375
-17.9208984375 -44.0244140625 7.68896484375
-16.703125 -37.03173828125 -1.8399658203125
-6.40380859375 4.11083984375 12.5699462890625
44.553955078125 -1.5869140625 -22.3299560546875
-17.69140625 -29.952392578125 0.6029052734375
40.187744140625 -33.2969970703125 -16.1158447265625
-31.144287109375 55.1815185546875 11.0582275390625
81.141845703125 -76.4456787109375 -7.9090576171875
-55.033203125 -11.539306640625 7.2200927734375
20.314453125 -87.0462646484375 7.019775390625
-67.21044921875 -85.1832275390625 12.63427734375
-56.86279296875 -29.6375732421875 7.3262939453125
-52.148193359375 -95.5809326171875 13.8101806640625
-87.951171875 28.1673583984375 6.2330322265625
68.0107421875 -41.5528564453125 4.2335205078125
39.248291015625 -41.404052734375 -16.14306640625
-10.90185546875 12.822509765625 12.833251953125
71.91748046875 -21.1932373046875 -2.6671142578125
4.25341796875 -85.353271484375 6.952880859375
23.1904296875 -46.333740234375 7.66845703125
-7.33203125 32.26123046875 12.154296875
-22.247314453125 26.712646484375 12.5240478515625
-21.235595703125 10.5433349609375 11.7916259765625
-49.438720703125 -42.2686767578125 7.22021484375
-39.71728515625 -82.26318359375 12.2518310546875
23.6689453125 44.2376708984375 11.4908447265625
46.08154296875 -95.900634765625 -12.692626953125
70.634033203125 -54.943115234375 7.6298828125
55.040771484375 -107.85009765625 -7.14794921875
4.829833984375 26.2708740234375 12.3875732421875
-4.240234375 -54.4603271484375 7.230712890625
-1.3369140625 -25.7872314453125 7.3681640625
23.4873046875 -96.1810302734375 6.993408203125
-68.46484375 -63.837890625 12.2076416015625
37.97021484375 -51.6026611328125 -12.1578369140625
83.231201171875 -87.0057373046875 -4.3743896484375
43.32470703125 -85.459228515625 -20.504638671875
68.74609375 36.101806640625 -4.3507080078125
19.400634765625 -50.3095703125 7.2510986328125
-1.222900390625 41.6226806640625 12.1011962890625
-80.78564453125 19.6004638671875 6.9697265625
-33.761962890625 -26.7120361328125 7.2816162109375
74.107177734375 -44.3792724609375 1.763916015625
39.71923828125 -90.8895263671875 -19.1458740234375
11.427978515625 6.946044921875 12.5069580078125
-32.35986328125 -34.956787109375 3.9395751953125
84.678466796875 -43.8546142578125 -1.2467041015625
33.41748046875 -95.5382080078125 -11.9599609375
46.297607421875 -56.9112548828125 -12.248291015625
4.453369140625 15.49755859375 12.443115234375
8.3740234375 -74.045654296875 6.9156494140625
28.79345703125 50.273681640625 11.2703857421875
75.750732421875 -53.97412109375 1.6304931640625
-61.481201171875 -73.874755859375 3.0211181640625
91.359130859375 -83.5045166015625 -6.8216552734375
-99.258056640625 43.332275390625 4.67333984375
-13.997314453125 47.77880859375 11.8914794921875
4.515625 50.6297607421875 12.0806884765625
-15.44677734375 18.048583984375 12.6146240234375
-24.963623046875 -27.8038330078125 0.70458984375
-62.672119140625 21.889404296875 5.5020751953125
-4.1748046875 21.802734375 12.113037109375
66.6220703125 -89.7860107421875 3.1192626953125
-6.3994140625 -45.95751953125 7.29541015625
-23.0400390625 17.2823486328125 12.8656005859375
-3.616943359375 -20.899658203125 7.239990234375
12.646728515625 17.299072265625 12.1529541015625
-67.35302734375 -28.5279541015625 8.582275390625
-81.8349609375 41.17626953125 4.29052734375
-0.35009765625 -34.5721435546875 7.3779296875
41.326416015625 -116.74072265625 -5.53125
53.6474609375 -73.484375 -10.4835205078125
-16.4140625 3.34912109375 12.7359619140625
55.6533203125 -93.22509765625 -18.1842041015625
-65.379638671875 -10.4813232421875 7.0648193359375
28.512939453125 -0.6868896484375 13.134765625
14.891845703125 50.281982421875 11.79052734375
49.4931640625 -49.49853515625 -16.044677734375
33.262451171875 7.67138671875 11.8253173828125
18.832763671875 -43.2010498046875 2.5064697265625
3.756591796875 -71.519287109375 7.1966552734375
67.632568359375 29.7613525390625 1.7491455078125
-41.501220703125 -33.996826171875 6.3677978515625
49.2578125 -27.039794921875 -19.127685546875
-58.400634765625 -0.634033203125 8.1453857421875
33.649169921875 -62.723388671875 7.207275390625
45.473876953125 -111.59765625 -9.1341552734375
51.863525390625 -60.4161376953125 -13.83203125
38.74462890625 -57.6904296875 -10.9605712890625
36.420654296875 -18.5426025390625 -17.30615234375
30.045166015625 -14.9730224609375 7.2491455078125
11.094970703125 -59.7672119140625 7.409423828125
83.631103515625 -109.485107421875 -10.6861572265625
13.538818359375 -97.0059814453125 6.5579833984375
-56.91796875 -16.5325927734375 7.1697998046875
-9.59716796875 -39.2242431640625 7.32861328125
49.897216796875 -66.3729248046875 -12.677001953125
34.9189453125 -30.501953125 -13.175048828125
74.09423828125 7.62890625 -2.600341796875
19.249755859375 32.883544921875 11.9345703125
31.4267578125 18.150146484375 12.1781005859375
-108.831787109375 41.33203125 6.0726318359375
51.1279296875 -120.1781005859375 -7.5579833984375
20.551025390625 -64.269287109375 7.1654052734375
29.843017578125 -52.1658935546875 7.617919921875
59.623046875 -48.289794921875 -11.482177734375
1.009521484375 -90.063232421875 6.87890625
31.638671875 17.85009765625 -16.2347412109375
-63.16455078125 -94.555419921875 14.305419921875
-14.15771484375 -49.0223388671875 7.374267578125
42.807861328125 -100.9185791015625 -10.0482177734375
30.69775390625 5.4844970703125 -15.9322509765625
-19.300537109375 -25.0257568359375 3.28564453125
-67.5283203125 -76.135498046875 3.35302734375
3.5712890625 3.3690185546875 13.1510009765625
-75.947021484375 43.199951171875 3.501220703125
68.72021484375 -97.3839111328125 8.575439453125
68.875 -79.140625 6.92578125
12.139892578125 27.0882568359375 12.16015625
-10.9853515625 -29.0841064453125 6.62548828125
39.873291015625 -43.2486572265625 7.137939453125
36.24169921875 -40.7471923828125 -12.10400390625
-0.9970703125 -79.2860107421875 7.353759765625
2.55419921875 -99.159912109375 7.4072265625
63.019775390625 -97.18212890625 2.1077880859375
23.125244140625 -39.2047119140625 3.5587158203125
-58.77392578125 -100.7205810546875 13.2921142578125
-22.585205078125 32.9736328125 12.14111328125
42.00146484375 -61.2357177734375 -14.6617431640625
-54.4423828125 -82.5472412109375 -0.83154296875
87.239990234375 -55.0601806640625 -3.6693115234375
20.394775390625 -34.6761474609375 2.4150390625
79.706787109375 -52.25146484375 -4.5704345703125
77.3896484375 -64.280517578125 7.107177734375
-44.550537109375 -44.6895751953125 7.26953125
87.254638671875 -101.6571044921875 -12.0516357421875
72.072509765625 25.486572265625 -3.8031005859375
1.03369140625 -3.4840087890625 15.6634521484375
30.516357421875 -67.73046875 7.1048583984375
-31.03564453125 -55.1209716796875 7.4063720703125
55.76220703125 -52.395263671875 -11.4576416015625
6.016357421875 -18.04052734375 7.294921875
-27.42333984375 8.410400390625 14.2967529296875
13.279541015625 1.3526611328125 12.7686767578125
-45.82373046875 -77.4637451171875 6.30419921875
-47.676025390625 -56.193359375 12.833251953125
29.451416015625 31.39990234375 -13.7540283203125
14.9609375 -8.789306640625 10.37109375
24.16259765625 -83.8311767578125 6.7420654296875
70.277587890625 7.248291015625 22.82470703125
-26.91015625 -24.5933837890625 6.341064453125
-37.65576171875 -67.003173828125 13.3782958984375
-74.431884765625 -79.86962890625 12.5115966796875
16.24072265625 -17.9207763671875 7.69482421875
-36.255859375 -39.3465576171875 3.688720703125
10.7265625 -16.093017578125 7.3277587890625
12.657958984375 57.2169189453125 11.78759765625
-25.409423828125 -39.848876953125 7.333740234375
-39.59765625 -35.6243896484375 2.144775390625
80.779541015625 -97.03564453125 9.0169677734375
42.946533203125 27.1959228515625 -20.770751953125
-63.477294921875 -90.5294189453125 11.00927734375
-66.097412109375 7.7838134765625 8.1971435546875
50.770751953125 -89.3221435546875 -20.2529296875
-80.299072265625 6.6365966796875 11.0679931640625
66.075927734375 26.0838623046875 24.4881591796875
62.60595703125 -96.9073486328125 -4.5753173828125
-50.8388671875 -27.469482421875 7.1348876953125
7.353759765625 41.3837890625 11.92431640625
78.828857421875 -82.5989990234375 6.0655517578125
-47.64013671875 -21.038818359375 7.314453125
-63.156005859375 -31.8099365234375 9.5008544921875
61.320068359375 -57.9771728515625 7.6700439453125
-18.264892578125 57.76416015625 12.1260986328125
38.95166015625 -64.07080078125 7.4395751953125
14.974853515625 -48.53466796875 7.6434326171875
65.163818359375 39.7623291015625 10.7196044921875
-35.42236328125 -48.0782470703125 8.0760498046875
43.609375 9.2891845703125 -21.7281494140625
15.1015625 -62.322265625 7.8494873046875
-100.163330078125 37.2965087890625 5.31982421875
54.1171875 -43.111083984375 -14.23095703125
-11.492919921875 56.1646728515625 11.690673828125
-20.817626953125 52.6575927734375 12.8284912109375
20.43505859375 -6.6455078125 11.9522705078125
87.98974609375 -77.5155029296875 -7.2508544921875
-65.158447265625 -22.6767578125 7.322509765625
42.31103515625 -107.5125732421875 -8.6053466796875
30.188720703125 23.3267822265625 -14.8873291015625
-13.1962890625 -30.9130859375 -0.59326171875
-18.982421875 47.5196533203125 14.13623046875
-50.1220703125 -82.9791259765625 9.1795654296875
79.20654296875 -29.671875 -2.5672607421875
50.887939453125 -105.092041015625 -8.2930908203125
-53.42431640625 -37.780029296875 7.4288330078125
-32.53515625 -41.8189697265625 -0.362548828125
7.073486328125 -22.8836669921875 7.5008544921875
37.030517578125 -114.4661865234375 10.91064453125
6.206787109375 -64.0548095703125 6.970947265625
-79.19091796875 32.0938720703125 5.232177734375
-96.08544921875 33.6705322265625 5.5943603515625
95.203125 -85.5687255859375 -5.0787353515625
24.3251953125 38.89306640625 11.8443603515625
88.770263671875 -69.4871826171875 -5.235595703125
49.971435546875 -10.344970703125 -19.9290771484375
46.94189453125 -96.16796875 -21.8927001953125
-21.93017578125 -34.64697265625 1.9874267578125
60.000244140625 44.8734130859375 11.3104248046875
-12.10986328125 22.226318359375 12.5048828125
-21.780517578125 -21.9512939453125 7.3819580078125
-58.515380859375 13.77197265625 6.663330078125
3.60986328125 -10.153564453125 9.6708984375
34.05224609375 2.6192626953125 -17.44873046875
-13.806884765625 26.5684814453125 12.4737548828125
36.312744140625 -81.1990966796875 -16.85693359375
-55.437255859375 -84.73095703125 3.2432861328125
80.55810546875 -90.3653564453125 5.654541015625
71.5009765625 -40.4898681640625 1.0860595703125
-26.318359375 43.6390380859375 12.842041015625
-74.526123046875 -0.441650390625 8.7276611328125
57.942138671875 -83.5567626953125 -16.350830078125
45.461181640625 -67.68896484375 -12.77685546875
65.82275390625 -59.1265869140625 7.496337890625
26.058349609375 -17.3056640625 7.40576171875
-93.7578125 48.802001953125 3.35888671875
44.586669921875 -43.4263916015625 -14.9061279296875
-47.740966796875 -81.9764404296875 -0.3265380859375
-6.0400390625 15.3580322265625 12.75537109375
-76.45703125 27.075439453125 5.7327880859375
26.086181640625 29.0980224609375 12.1302490234375
-57.72216796875 -66.3963623046875 2.4207763671875
-12.06396484375 -21.0933837890625 7.442138671875
79.84375 -61.0693359375 -4.554931640625
-23.49755859375 -32.656982421875 8.0645751953125
-11.857177734375 3.0057373046875 13.052490234375
45.3369140625 22.87841796875 -21.9517822265625
42.357177734375 -10.8734130859375 -17.599365234375
67.653076171875 12.3505859375 2.395751953125
55.344970703125 -30.2166748046875 -17.4442138671875
6.93310546875 7.6727294921875 12.6746826171875
30.192626953125 -25.344970703125 7.425048828125
34.95263671875 -12.296630859375 -17.6229248046875
69.98388671875 -21.762939453125 1.824462890625
-1.71728515625 4.8048095703125 12.8765869140625
88.084228515625 -92.3536376953125 -9.989013671875
20.729248046875 -54.658935546875 7.0814208984375
-71.691162109375 22.0587158203125 6.2156982421875
-40.504150390625 -39.82421875 -0.4337158203125
40.376708984375 -73.5999755859375 -10.4573974609375
34.443115234375 -52.8592529296875 7.4366455078125
16.9990234375 42.7630615234375 11.673828125
-62.83642578125 17.525146484375 6.6593017578125
-59.3203125 5.2760009765625 7.780029296875
9.6845703125 -64.7969970703125 10.1575927734375
-65.700927734375 -1.3492431640625 8.3953857421875
37.466796875 -91.711669921875 13.0677490234375
3.496826171875 33.731201171875 12.0733642578125
-8.642822265625 -55.391845703125 7.07275390625
-62.564453125 -82.06396484375 5.183837890625
-21.14013671875 1.070068359375 13.0537109375
-1.825927734375 11.8890380859375 12.4915771484375
20.5791015625 -13.24853515625 7.977783203125
72.681640625 -73.8126220703125 6.9942626953125
68.0947265625 33.5648193359375 17.3668212890625
55.733642578125 -98.2418212890625 -5.6971435546875
69.626708984375 -1.3233642578125 -2.0694580078125
-36.505859375 -56.994140625 17.6405029296875
83.076171875 -79.2086181640625 1.72216796875
3.885498046875 -48.584716796875 7.2186279296875
51.890625 -39.910400390625 -16.3753662109375
62.685546875 53.3253173828125 11.131591796875
79.978271484375 -47.679931640625 -4.0909423828125
-27.9296875 34.87158203125 12.3555908203125
-18.095947265625 7.5386962890625 12.706298828125
38.41064453125 -95.9320068359375 -12.38720703125
-86.867919921875 38.7352294921875 6.498291015625
68.11669921875 -90.3272705078125 -1.2564697265625
-37.82861328125 -59.912841796875 13.8118896484375
-71.052001953125 17.152587890625 6.7225341796875
42.59375 -29.8582763671875 -14.7099609375
67.64599609375 30.656005859375 -2.968505859375
-16.064453125 -41.6812744140625 -2.3560791015625
7.59375 35.5521240234375 12.307373046875
-47.946044921875 -74.2431640625 -0.4708251953125
52.72412109375 -97.8741455078125 -9.420166015625
33.955810546875 -25.697998046875 -13.911865234375
21.080078125 3.408203125 12.8734130859375
38.86767578125 -118.4482421875 10.4752197265625
10.843994140625 -2.2593994140625 13.4256591796875
81.579345703125 -71.820556640625 -5.6075439453125
-58.165283203125 -24.50830078125 7.0010986328125
-72.853515625 36.111328125 4.2650146484375
-47.300537109375 -81.4908447265625 5.3629150390625
-5.9013671875 -34.4522705078125 7.391357421875
-84.64697265625 45.435302734375 3.4267578125
71.9033203125 -16.491943359375 -3.0830078125
33.37548828125 -85.1170654296875 -9.5994873046875
73.328125 -35.680419921875 -0.246337890625
-27.835693359375 58.053466796875 11.7216796875
11.491455078125 -11.5462646484375 8.68212890625
-84.994873046875 31.3033447265625 5.505615234375
74.71435546875 -90.1578369140625 2.1494140625
96.099853515625 -90.7733154296875 -5.7088623046875
-54.9326171875 3.958984375 7.5064697265625
43.546142578125 18.9302978515625 -21.58544921875
-17.40771484375 -32.004638671875 5.1036376953125
70.212890625 -68.3668212890625 6.9036865234375
-61.000732421875 -81.8194580078125 -0.6246337890625
6.099853515625 57.303955078125 11.8271484375
9.527099609375 -53.760986328125 7.350341796875
90.37890625 -73.5933837890625 -5.939453125
19.19140625 52.8604736328125 12.1488037109375
-51.76708984375 -3.9735107421875 7.2706298828125
26.96435546875 -55.460205078125 7.4822998046875
74.248046875 15.7650146484375 -3.081298828125
-26.622314453125 3.464599609375 14.0146484375
-13.92333984375 -36.1494140625 8.16552734375
68.28759765625 -93.016357421875 7.920166015625
23.079833984375 56.7581787109375 11.3681640625
40.93896484375 -45.5047607421875 -15.916015625
-45.242431640625 -49.2008056640625 7.4810791015625
-1.631591796875 46.043212890625 11.984619140625
9.4970703125 -85.8656005859375 7.055419921875
77.507080078125 -6.0242919921875 -0.017333984375
82.6796875 -55.3760986328125 -4.267578125
-9.6796875 52.2633056640625 11.845947265625
44.22412109375 -81.35400390625 -21.4346923828125
61.552978515625 -52.0771484375 7.3973388671875
75.0400390625 -60.2198486328125 -4.138671875
-2.17431640625 -43.571044921875 7.458251953125
30.700927734375 -4.248779296875 -14.62548828125
-44.296630859375 -88.1888427734375 12.25830078125
42.0986328125 -65.5264892578125 -14.3306884765625
21.324951171875 18.847900390625 12.20849609375
68.74853515625 25.3201904296875 14.8331298828125
-31.419189453125 -32.31396484375 7.651611328125
7.155517578125 -44.4215087890625 7.199951171875
-16.763427734375 36.21484375 12.12353515625
-15.145751953125 12.277099609375 12.7413330078125
-11.350341796875 30.2259521484375 12.298828125
30.407958984375 4.5596923828125 12.51171875
18.537353515625 -38.96875 4.43603515625
36.88623046875 -8.5865478515625 -16.7354736328125
-75.289794921875 -10.5689697265625 9.3675537109375
25.386962890625 -44.1512451171875 4.7303466796875
6.67822265625 46.959716796875 11.8228759765625
26.715576171875 7.9708251953125 12.7481689453125
49.122802734375 -17.467529296875 -20.09130859375
60.61669921875 -94.5328369140625 -13.2835693359375
74.420166015625 -28.5784912109375 -3.1964111328125
6.732177734375 -31.9007568359375 7.24169921875
-68.333984375 -5.7550048828125 7.908203125
94.886962890625 -74.16259765625 -7.3292236328125
5.099365234375 -1.97314453125 13.6767578125
29.36767578125 -113.7254638671875 11.0809326171875
80.14111328125 -38.35888671875 -3.0908203125
41.573486328125 1.097900390625 -19.1612548828125
44.34326171875 -78.14306640625 -16.5491943359375
-75.132080078125 5.3402099609375 8.2216796875
37.3671875 -96.7108154296875 -0.438720703125
30.35986328125 -75.4166259765625 14.9036865234375
-80.2626953125 23.71337890625 6.153076171875
64.126708984375 34.1199951171875 14.6458740234375
35.07958984375 -91.00341796875 -14.802490234375
3.384521484375 -94.6026611328125 6.5469970703125
87.7373046875 -62.9515380859375 -5.7174072265625
28.19091796875 -37.3052978515625 3.66845703125
6.92236328125 -40.0648193359375 7.2955322265625
52.4716796875 -69.6417236328125 -12.1171875
-28.083251953125 -20.2628173828125 6.8392333984375
33.33740234375 27.7548828125 -14.7464599609375
8.461669921875 17.47509765625 12.3006591796875
10.333251953125 -90.6260986328125 9.2498779296875
45.281005859375 -72.1842041015625 -13.500732421875
-67.47900390625 24.7569580078125 5.6583251953125
36.2314453125 -22.6932373046875 -16.9442138671875
17.66552734375 -76.3824462890625 7.1094970703125
-51.6005859375 -67.3121337890625 -0.804443359375
-31.74365234375 -49.9425048828125 7.511474609375
22.0078125 7.45849609375 12.68310546875
41.631591796875 -99.4967041015625 -6.32666015625
91.732666015625 -94.8743896484375 -8.3634033203125
71.918212890625 -25.0731201171875 -1.2115478515625
-4.343994140625 53.7388916015625 11.61962890625
51.3056640625 -81.3583984375 -21.1883544921875
58.87451171875 -38.4456787109375 -14.2303466796875
-22.489013671875 -47.615478515625 8.4815673828125
75.8759765625 -44.796142578125 -2.148681640625
48.589599609375 14.9769287109375 -21.794189453125
23.923828125 15.4981689453125 15.4320068359375
-52.3984375 -86.62890625 12.33642578125
68.799072265625 20.98974609375 -1.4466552734375
2.35205078125 -61.078125 7.197998046875
-33.922119140625 -44.402099609375 3.9488525390625
10.21630859375 -26.845703125 7.561279296875
47.638916015625 -121.53369140625 -5.8525390625
-57.6552734375 -67.224853515625 -2.245361328125
40.087158203125 -96.35693359375 -19.797607421875
14.35791015625 -83.4522705078125 6.937744140625
95.486083984375 -99.767822265625 -20.9569091796875
29.924072265625 -77.2393798828125 7.6590576171875
-70.266357421875 -88.1107177734375 14.0692138671875
-103.762451171875 49.9085693359375 3.8792724609375
34.5234375 12.484130859375 -16.2740478515625
-62.0947265625 -69.2589111328125 0.583984375
-71.35009765625 -20.0074462890625 7.4638671875
-72.958740234375 9.5401611328125 7.6676025390625
13.452392578125 -71.1458740234375 7.4571533203125
22.166015625 -69.2684326171875 7.210205078125
25.48779296875 47.8621826171875 11.7491455078125
21.185302734375 27.900146484375 11.946533203125
-46.926025390625 -16.1790771484375 7.21142578125
94.73388671875 -81.3673095703125 -6.09912109375
3.21728515625 -15.0059814453125 7.9310302734375
-84.498291015625 18.1419677734375 7.7166748046875
44.060546875 -34.3116455078125 -15.4605712890625
-26.63916015625 -44.9356689453125 7.4666748046875
-43.244384765625 -84.2596435546875 12.384521484375
40.1025390625 5.297119140625 -15.4041748046875
47.330322265625 -96.58740234375 -16.487060546875
-92.24658203125 39.793701171875 8.931640625
-53.6875 -83.8994140625 6.79833984375
32.282470703125 -71.373046875 7.12744140625
68.36083984375 21.914794921875 24.1588134765625
-57.03515625 -39.581787109375 7.459228515625
57.303955078125 -96.40283203125 -11.65185546875
-61.639892578125 -82.5469970703125 9.3831787109375
-0.257080078125 -30.5537109375 7.572021484375
40.42236328125 -50.4468994140625 7.7254638671875
-52.680908203125 -74.1131591796875 0.922607421875
-70.868896484375 -83.5538330078125 12.3094482421875
-14.24267578125 -36.08056640625 -5.0615234375
-57.108642578125 -33.6820068359375 7.0467529296875
19.722900390625 49.9366455078125 15.3565673828125
-28.168212890625 26.6905517578125 12.411376953125
60.502685546875 -96.1302490234375 6.6634521484375
47.116943359375 4.121826171875 -22.2451171875
-22.19775390625 22.717529296875 12.2894287109375
36.254638671875 -58.9263916015625 7.470458984375
68.33447265625 -51.2738037109375 6.7177734375
32.1455078125 -31.583251953125 7.690673828125
2.23388671875 29.9583740234375 12.1680908203125
-56.347412109375 -20.48828125 7.1805419921875
46.969482421875 -4.6766357421875 -21.7122802734375
-65.84814453125 -76.087890625 -0.64111328125
-67.11767578125 2.907470703125 8.5596923828125
-38.443115234375 -50.4188232421875 6.5938720703125
-13.71484375 -39.52783203125 6.1004638671875
15.694580078125 -40.0771484375 7.53466796875
-71.234619140625 -75.393798828125 12.8199462890625
82.921630859375 -80.993408203125 -1.8056640625
37.4501953125 -95.8408203125 -8.1343994140625
56.30859375 -44.7633056640625 -17.0772705078125
24.0146484375 0.2701416015625 12.933349609375
-0.16650390625 -39.838134765625 7.410400390625
69.7626953125 15.831787109375 19.3375244140625
-39.491455078125 -55.16748046875 7.736572265625
69.236328125 5.5330810546875 -2.0118408203125
35.47802734375 20.0262451171875 -14.9163818359375
8.80224609375 -94.2557373046875 7.392333984375
81.20947265625 -85.521728515625 7.1622314453125
85.5498046875 -81.6475830078125 5.7344970703125
28.1982421875 -4.3895263671875 14.389404296875
-5.2314453125 -17.328369140625 7.31494140625
-22.720703125 48.326416015625 15.01953125
69.084716796875 32.309814453125 10.597412109375
14.6318359375 -33.20458984375 7.6715087890625
-38.492919921875 -44.4813232421875 5.0460205078125
75.024658203125 -60.7432861328125 7.479736328125
0.647705078125 -75.00048828125 7.20751953125
42.63525390625 -114.2703857421875 -8.2615966796875
-3.058837890625 57.4483642578125 11.90771484375
76.85693359375 -62.8154296875 -7.223388671875
57.7490234375 -88.6124267578125 -16.1861572265625
-71.363037109375 -61.57373046875 13.510009765625
-74.76904296875 -69.9530029296875 12.896240234375
41.036865234375 -50.2271728515625 -15.34814453125
55.83740234375 -37.1529541015625 -20.2340087890625
-5.763916015625 -2.5245361328125 13.40625
64.085205078125 48.2664794921875 11.3023681640625
-52.69921875 -91.8262939453125 12.943603515625
-4.287353515625 28.5364990234375 12.3468017578125
-70.156005859375 30.5245361328125 4.780517578125
54.46826171875 -97.0606689453125 -16.951416015625
82.0732421875 -71.015380859375 4.65869140625
-61.1455078125 9.426513671875 7.73193359375
-49.813720703125 -36.36083984375 7.51904296875
42.061767578125 15.980224609375 -18.272216796875
-60.478271484375 -8.7774658203125 7.427490234375
69.38623046875 -29.523193359375 2.0533447265625
-42.7080078125 -72.284423828125 12.608154296875
44.5927734375 -120.0836181640625 -7.7430419921875
77.933837890625 -21.2578125 -1.30126953125
-13.367431640625 -17.4942626953125 6.90380859375
42.72119140625 -3.84326171875 -19.536376953125
28.88134765625 -33.89794921875 7.094970703125
52.578125 -51.2872314453125 -14.564453125
14.5712890625 -90.5125732421875 9.6373291015625
-20.36376953125 -41.038330078125 7.8212890625
-51.027587890625 -45.491943359375 9.99169921875
20.380615234375 -26.110107421875 7.48046875
12.971435546875 23.3212890625 12.2413330078125
58.768798828125 -95.86669921875 -5.8372802734375
76.265380859375 -60.5498046875 -0.4986572265625
60.369384765625 -85.521240234375 -13.9315185546875
39.29345703125 -84.89306640625 -19.1175537109375
78.55029296875 -77.573974609375 6.9671630859375
-90.356201171875 31.2254638671875 5.982421875
-29.0380859375 -41.1031494140625 7.469970703125
77.172119140625 -98.37255859375 8.02685546875
75.241455078125 -12.571533203125 -2.5308837890625
72.867431640625 -47.8746337890625 -0.537109375
-22.758544921875 13.872314453125 14.5955810546875
69.2587890625 -46.9793701171875 1.990966796875
34.08056640625 -1.5341796875 12.15673828125
-107.548828125 46.51171875 5.046630859375
73.81640625 -0.3411865234375 -2.717529296875
13.170166015625 -66.2152099609375 8.798583984375
32.560546875 8.5791015625 -17.1832275390625
-37.239013671875 -75.1585693359375 12.4925537109375
84.73779296875 -105.652587890625 -11.161376953125
-59.64892578125 -89.4605712890625 12.282470703125
-20.613037109375 -25.8741455078125 6.758544921875
-33.459716796875 -53.5723876953125 18.0240478515625
39.876708984375 -67.4267578125 -10.5767822265625
-44.698486328125 -58.53515625 13.5672607421875
22.677001953125 -37.1295166015625 -0.921630859375
-67.412109375 16.060546875 6.7381591796875
35.1142578125 -84.162109375 -14.80224609375
-39.412109375 -53.9105224609375 12.3929443359375
-1.402587890625 -64.1610107421875 7.923828125
-19.098876953125 18.3612060546875 13.5980224609375
44.639404296875 -53.7119140625 -13.639892578125
6.542724609375 -82.335205078125 6.9970703125
-5.363037109375 -26.09423828125 7.5174560546875
-24.429443359375 36.2943115234375 12.1197509765625
11.9921875 -90.78173828125 12.7049560546875
-25.977294921875 53.8046875 12.135009765625
52.526611328125 -25.9134521484375 -17.605712890625
-23.989501953125 -37.8426513671875 -3.8148193359375
-26.78955078125 17.0980224609375 13.2352294921875
74.261962890625 -86.8309326171875 -2.3653564453125
-13.078125 -1.0577392578125 13.145751953125
-65.354736328125 -78.87890625 5.3184814453125
-36.19140625 -21.3951416015625 6.4481201171875
64.71826171875 -46.2127685546875 7.7501220703125
19.1884765625 15.9747314453125 14.6080322265625
27.6171875 21.109619140625 12.4219970703125
-43.766845703125 -28.31640625 7.49169921875
-43.330810546875 -22.04345703125 7.3929443359375
28.767822265625 26.489501953125 12.3392333984375
-74.670654296875 19.0965576171875 6.4525146484375
20.80517578125 -45.890380859375 4.8177490234375
-58.60302734375 -76.18701171875 3.6318359375
15.3359375 46.4906005859375 12.0286865234375
3.650634765625 -24.39111328125 7.3829345703125
-9.365478515625 7.4461669921875 12.751708984375
64.390869140625 34.588134765625 2.794921875
41.7734375 -24.1865234375 -15.5965576171875
-68.335205078125 -14.0128173828125 6.9534912109375
-103.51123046875 34.346435546875 6.9266357421875
-64.102294921875 -83.2088623046875 13.1893310546875
16.177978515625 35.755126953125 12.0008544921875
-50.698486328125 -12.642333984375 7.183349609375
72.05322265625 -65.14501953125 6.9989013671875
-17.0283203125 -54.145263671875 7.2701416015625
0.806640625 -82.6605224609375 6.9332275390625
42.3994140625 -95.5567626953125 -12.9766845703125
-1.487548828125 -67.9017333984375 7.7347412109375
31.959716796875 -40.50244140625 7.4053955078125
