38.214111328125 -53.69091796875 6.826416015625
-39.447265625 -37.6024169921875 -0.3179931640625
46.172119140625 -117.7786865234375 -6.1124267578125
-56.7900390625 -15.9525146484375 7.1072998046875
-47.790283203125 -24.988037109375 7.0306396484375
-41.804443359375 -33.57763671875 5.2965087890625
-0.86328125 -24.3533935546875 7.423095703125
40.2353515625 -73.862548828125 -12.619873046875
8.765869140625 -87.5472412109375 6.3968505859375
-0.705810546875 -43.4000244140625 7.156005859375
33.6171875 -93.3798828125 -14.3245849609375
58.235595703125 -94.4853515625 -3.3524169921875
-71.7197265625 -79.7960205078125 12.7171630859375
25.9921875 34.7388916015625 12.2618408203125
85.531982421875 -108.4658203125 -14.59326171875
-42.580810546875 -24.4951171875 7.13330078125
0.39990234375 62.0673828125 12.1075439453125
11.57470703125 -92.7655029296875 9.337890625
-71.313720703125 30.287109375 6.34716796875
43.39697265625 -47.353759765625 -20.795166015625
-19.4580078125 -24.662109375 3.30078125
-69.382568359375 15.7694091796875 7.575927734375
54.8583984375 -62.7259521484375 -15.648681640625
81.283935546875 -75.8515625 -4.1927490234375
-62.755615234375 -83.444580078125 2.0262451171875
-43.471923828125 -73.669921875 11.518798828125
-49.467041015625 -20.40869140625 7.225830078125
53.76123046875 -25.2105712890625 -26.6197509765625
-28.48046875 -41.1011962890625 7.0965576171875
-63.639892578125 -17.0228271484375 6.8875732421875
-26.642822265625 -36.9942626953125 -5.1810302734375
-9.82177734375 -55.1029052734375 7.61962890625
20.095458984375 5.8260498046875 12.6182861328125
53.951171875 -84.1260986328125 -18.6357421875
0.15283203125 35.32177734375 12.126953125
-6.809814453125 51.31982421875 12.3475341796875
91.911865234375 -96.610107421875 -8.488525390625
23.228515625 -45.616455078125 7.255859375
67.544189453125 -49.132080078125 5.955078125
-44.14794921875 -46.43212890625 7.18994140625
58.089111328125 -95.825927734375 -9.1312255859375
26.66748046875 43.129638671875 12.229736328125
32.29833984375 -95.5272216796875 -8.1767578125
75.2255859375 -58.335205078125 -3.9693603515625
31.701416015625 -81.0213623046875 -11.745361328125
-28.46044921875 -45.639892578125 7.3585205078125
48.558349609375 -90.791015625 -20.5518798828125
69.891357421875 -28.9573974609375 -0.29736328125
84.41259765625 -97.258056640625 -9.1348876953125
-79.066162109375 34.91455078125 5.97705078125
80.19482421875 -68.3519287109375 0.4246826171875
51.701416015625 -70.3310546875 -15.020263671875
5.01708984375 -66.8294677734375 6.8817138671875
24.094482421875 -81.6971435546875 6.5335693359375
68.2861328125 -19.7386474609375 -0.6134033203125
95.302978515625 -90.3741455078125 -4.4566650390625
33.17822265625 21.3719482421875 12.1236572265625
-28.5830078125 49.40673828125 13.336181640625
50.85693359375 -107.044677734375 -7.148681640625
11.847412109375 -79.1353759765625 6.6968994140625
20.202880859375 -14.229248046875 6.634521484375
-70.206787109375 -12.7470703125 7.1851806640625
-79.18115234375 30.6851806640625 6.768310546875
-17.052734375 -34.32421875 1.3863525390625
88.727783203125 -101.718017578125 -11.490478515625
52.867431640625 -94.512451171875 -19.6058349609375
3.843017578125 18.1165771484375 12.501220703125
68.24462890625 -0.3687744140625 -1.975341796875
0.832275390625 -63.399658203125 7.1539306640625
79.469970703125 -79.0865478515625 6.205810546875
10.73388671875 15.731689453125 12.2755126953125
-73.2255859375 0.2503662109375 8.944091796875
40.330322265625 -52.5889892578125 -16.51513671875
-30.71142578125 55.5955810546875 13.219482421875
2.838623046875 39.9400634765625 12.3253173828125
-8.740478515625 32.1412353515625 12.2333984375
37.9541015625 -47.965576171875 6.9449462890625
2.165771484375 -58.5458984375 6.9215087890625
-99.67724609375 47.3035888671875 6.158447265625
39.01171875 -4.265625 11.2974853515625
-46.66259765625 -49.6097412109375 12.8038330078125
30.799560546875 13.41845703125 12.2708740234375
-89.214111328125 44.6966552734375 8.317626953125
-63.930908203125 -75.347900390625 -0.29833984375
36.42041015625 -5.1002197265625 -23.4014892578125
-33.447265625 -41.9403076171875 1.029296875
50.237060546875 -12.0531005859375 -29.924560546875
44.802001953125 -96.7484130859375 -11.1473388671875
-11.50634765625 25.64208984375 12.302001953125
9.4638671875 -59.5511474609375 6.9935302734375
-72.916259765625 20.00537109375 7.5391845703125
-49.42529296875 -13.18798828125 6.9251708984375
66.787353515625 -66.9927978515625 7.0745849609375
31.343994140625 -69.4371337890625 6.43408203125
70.904052734375 -46.0804443359375 0.8079833984375
-31.2880859375 -51.378662109375 15.4739990234375
81.252685546875 -74.878173828125 3.680908203125
4.870849609375 23.796875 12.1807861328125
-14.5986328125 56.17822265625 12.6241455078125
-48.690185546875 -38.4951171875 6.977783203125
-15.948974609375 50.9913330078125 12.59130859375
66.194580078125 -22.1053466796875 2.883056640625
-11.708740234375 -50.277587890625 7.1478271484375
-52.660888671875 -52.163818359375 12.9945068359375
16.27490234375 -82.8519287109375 6.5203857421875
-43.388427734375 -52.057861328125 12.005615234375
-4.72705078125 21.62109375 12.087890625
31.534912109375 40.668212890625 12.01904296875
-37.97705078125 -43.5758056640625 3.9857177734375
2.322998046875 -90.7691650390625 6.530029296875
-56.991455078125 0.7005615234375 8.4129638671875
71.78515625 -74.4744873046875 6.1612548828125
23.930908203125 -20.4361572265625 7.120361328125
-58.000732421875 -8.9222412109375 7.128173828125
-55.519287109375 -43.0643310546875 8.4130859375
-29.99951171875 -54.1112060546875 7.18212890625
82.1728515625 -86.6463623046875 6.25
22.332763671875 -37.550048828125 2.376708984375
41.095703125 -32.3359375 -23.5054931640625
8.53076171875 36.657470703125 12.4432373046875
96.309814453125 -84.654296875 -2.927001953125
50.75732421875 -66.2998046875 -15.7015380859375
-40.141357421875 -50.1627197265625 7.2852783203125
-13.49755859375 -0.410400390625 13.5645751953125
-61.224365234375 -87.26513671875 12.912841796875
-55.362060546875 -63.031982421875 -0.1317138671875
-17.32177734375 -37.1304931640625 -1.874267578125
-19.627197265625 19.3365478515625 13.1175537109375
-67.150146484375 -86.2918701171875 12.8751220703125
7.661376953125 -95.72509765625 6.299072265625
66.190673828125 -13.065185546875 2.84033203125
-12.9140625 46.7091064453125 12.2562255859375
83.81396484375 -73.2109375 -6.9560546875
11.87451171875 3.8565673828125 12.684326171875
71.41162109375 -92.0357666015625 4.8623046875
33.275390625 -39.6595458984375 7.128173828125
-22.9921875 54.990234375 12.5576171875
-24.276611328125 -42.3419189453125 3.3602294921875
67.305419921875 31.292724609375 -1.3314208984375
29.3271484375 -33.7860107421875 7.1478271484375
24.4091796875 25.6507568359375 12.609375
18.966796875 -66.1448974609375 6.2523193359375
-19.800048828125 -53.8504638671875 7.845703125
83.77783203125 -105.1961669921875 -9.0640869140625
32.081787109375 -47.358154296875 6.9991455078125
51.3125 -34.7899169921875 -24.69580078125
79.685791015625 -65.952392578125 4.1068115234375
34.958740234375 46.6966552734375 11.7943115234375
-72.01220703125 -8.1573486328125 7.2657470703125
-57.43505859375 -34.3919677734375 7.20263671875
-58.41064453125 13.3677978515625 7.320068359375
37.44775390625 32.985595703125 12.238525390625
-35.135009765625 -20.8040771484375 6.9395751953125
24.328125 -87.807373046875 6.54345703125
29.14599609375 61.656982421875 12.3538818359375
44.30078125 -70.6331787109375 -15.6715087890625
-46.01513671875 -16.5206298828125 7.189453125
65.552490234375 39.2391357421875 0.1072998046875
-58.237060546875 -106.1602783203125 13.1046142578125
74.449951171875 -53.128173828125 -1.8046875
32.238037109375 -54.0089111328125 6.892822265625
-53.473876953125 -20.8148193359375 7.2728271484375
39.135009765625 -114.418212890625 -7.6624755859375
-0.832275390625 9.875244140625 12.8194580078125
69.100341796875 22.3570556640625 -1.5045166015625
-78.06298828125 13.2838134765625 8.323974609375
65.30078125 2.3096923828125 1.362548828125
-1.862060546875 -56.529541015625 7.0753173828125
-56.913330078125 -25.2294921875 7.1995849609375
52.77587890625 -119.2294921875 -3.297607421875
-12.73046875 8.0313720703125 13.0185546875
50.61865234375 -44.1669921875 -22.0576171875
-77.156005859375 3.46923828125 9.0706787109375
-18.004638671875 43.2083740234375 12.098876953125
82.16943359375 -94.591064453125 6.8150634765625
22.095458984375 21.22314453125 12.5069580078125
92.498779296875 -105.60107421875 -10.8353271484375
-22.902587890625 -18.8321533203125 7.1402587890625
18.7080078125 -49.099609375 6.88330078125
8.798828125 62.12109375 12.1820068359375
67.663818359375 -85.027587890625 1.1807861328125
65.23486328125 -6.5184326171875 0.6968994140625
67.131103515625 -15.3948974609375 -0.210205078125
27.934326171875 4.6632080078125 12.57470703125
-11.231201171875 -29.8446044921875 6.4031982421875
0.979736328125 -39.155517578125 7.1336669921875
79.3505859375 -64.049072265625 -6.2132568359375
-52.2578125 -75.493896484375 1.9320068359375
24.057373046875 39.796142578125 12.2750244140625
12.705078125 -63.16845703125 10.6912841796875
-53.6435546875 -102.50146484375 12.44580078125
3.223876953125 -7.5533447265625 11.1856689453125
4.80224609375 -53.0321044921875 6.939697265625
36.70068359375 -81.30615234375 -18.125
53.1083984375 -20.4722900390625 -28.0579833984375
-71.878173828125 -74.9183349609375 12.817138671875
-4.92138671875 44.3839111328125 12.219482421875
28.62548828125 -74.5162353515625 14.7781982421875
-41.82568359375 -36.9306640625 3.2615966796875
76.46240234375 -49.4630126953125 -4.61328125
32.993408203125 61.1756591796875 11.824951171875
-64.407958984375 26.83349609375 6.146728515625
41.41015625 -106.2789306640625 -10.4915771484375
54.59228515625 -54.5506591796875 -18.341064453125
-50.845458984375 -29.6226806640625 7.2828369140625
91.585205078125 -73.27734375 -6.8328857421875
-67.73291015625 -72.8394775390625 10.6126708984375
10.7880859375 30.4119873046875 12.2828369140625
-58.465576171875 -82.0076904296875 10.2520751953125
-47.84619140625 -88.8157958984375 12.9927978515625
41.108154296875 -122.8851318359375 -8.3634033203125
-69.41259765625 -4.50146484375 8.1209716796875
24.375244140625 -0.258056640625 12.93310546875
43.663818359375 -111.1553955078125 -9.6083984375
-73.32275390625 8.3682861328125 8.763427734375
15.854248046875 -97.472412109375 7.2823486328125
18.5927734375 41.7364501953125 11.8818359375
-48.709228515625 -75.4122314453125 -0.605712890625
69.66796875 -9.7178955078125 -2.7047119140625
2.425048828125 -74.6815185546875 6.42724609375
31.59033203125 -21.06884765625 7.0718994140625
-23.585205078125 -39.5753173828125 -3.433349609375
-77.774169921875 22.330810546875 7.7333984375
-22.265869140625 -23.3499755859375 5.7115478515625
63.1171875 -39.9276123046875 -1.484375
36.126953125 -94.631103515625 -6.544189453125
87.848876953125 -61.6260986328125 -8.5203857421875
-73.66552734375 -63.870849609375 13.34423828125
-20.844970703125 -47.75732421875 7.18994140625
7.850830078125 46.0477294921875 12.2391357421875
78.6767578125 -71.7705078125 6.3714599609375
26.757080078125 47.105712890625 12.2303466796875
-3.28466796875 -51.897705078125 7.033447265625
-55.79296875 -84.706298828125 2.31494140625
74.29345703125 -62.1085205078125 6.3214111328125
-73.540283203125 -16.79736328125 7.6922607421875
-68.50927734375 -67.170654296875 12.5477294921875
50.1455078125 -80.1207275390625 -20.58203125
-36.218017578125 -35.617919921875 -0.802490234375
-31.011474609375 -33.5814208984375 6.8681640625
-98.618408203125 32.0001220703125 8.8465576171875
18.2763671875 28.6002197265625 12.1463623046875
18.625732421875 53.7060546875 13.8468017578125
29.852294921875 53.9197998046875 12.159423828125
-67.97314453125 -89.840576171875 14.83251953125
38.48974609375 -114.176025390625 9.8233642578125
-49.003662109375 -79.99072265625 -0.290283203125
79.091552734375 -91.5928955078125 5.9013671875
-14.9423828125 -47.432373046875 7.1240234375
-23.180419921875 22.3861083984375 12.8594970703125
19.152587890625 -57.1090087890625 6.7706298828125
-51.70849609375 -5.17333984375 7.4923095703125
0.962890625 -29.040283203125 7.0831298828125
28.577392578125 -75.0809326171875 6.647216796875
-69.693115234375 7.29443359375 8.76171875
6.95947265625 15.87109375 12.4105224609375
-65.65087890625 16.350341796875 7.6761474609375
-4.76416015625 16.649169921875 12.5931396484375
33.671875 0.4837646484375 12.667724609375
-48.3955078125 -92.469482421875 14.0401611328125
-75.971923828125 -8.099609375 8.60888671875
0.38330078125 -95.8955078125 7.9061279296875
41.312255859375 -98.123046875 -10.766357421875
40.14501953125 -11.89208984375 8.030517578125
73.601806640625 -28.892333984375 -3.4898681640625
18.893310546875 -75.331298828125 6.6407470703125
-70.226318359375 -22.5494384765625 7.2830810546875
73.56396484375 -5.279052734375 -0.2525634765625
47.307373046875 -33.017333984375 -23.049560546875
-84.20263671875 28.8583984375 7.13720703125
34.950927734375 -9.0611572265625 8.99560546875
-93.087890625 39.3253173828125 9.134765625
-12.209228515625 -35.9893798828125 0.4942626953125
-13.522216796875 -36.278564453125 6.1387939453125
-90.750732421875 32.189208984375 7.190185546875
-109.334716796875 42.072265625 7.760498046875
63.251708984375 -51.4542236328125 6.606689453125
29.602294921875 20.3052978515625 12.1146240234375
-31.581787109375 -39.111572265625 5.7928466796875
2.41259765625 43.9063720703125 12.3558349609375
-45.56494140625 -71.3812255859375 2.3929443359375
40.254638671875 -96.512451171875 -3.152587890625
74.755615234375 -21.2454833984375 -3.1802978515625
33.16015625 -60.61669921875 6.735107421875
-15.796630859375 -30.187255859375 -4.8277587890625
-42.900390625 -69.0152587890625 0.6318359375
-19.135986328125 -23.567138671875 -1.8427734375
73.689697265625 -15.0667724609375 -2.33740234375
10.601318359375 54.3385009765625 12.5740966796875
-92.52490234375 48.8447265625 5.39208984375
44.024658203125 -84.91064453125 -20.830810546875
8.972900390625 -71.939453125 6.7471923828125
18.339599609375 -41.3328857421875 3.0335693359375
38.114501953125 55.131591796875 15.535400390625
41.006591796875 -77.45068359375 -16.7476806640625
37.768798828125 10.9273681640625 -25.158447265625
46.444091796875 -27.282470703125 -24.3828125
-4.249267578125 -32.7525634765625 7.2283935546875
14.883544921875 -68.3734130859375 6.88720703125
51.5126953125 -97.560302734375 -8.7435302734375
40.651123046875 -27.079345703125 -24.1968994140625
54.068603515625 -13.84423828125 -29.0296630859375
-56.558837890625 -96.113037109375 12.5133056640625
78.0771484375 -61.3896484375 1.901611328125
42.5615234375 -66.6351318359375 -16.4052734375
-9.259521484375 -15.2882080078125 6.765625
5.211669921875 -88.4461669921875 6.2049560546875
-39.5380859375 -54.201416015625 8.8739013671875
28.120361328125 -115.689697265625 9.5537109375
28.063720703125 -25.564208984375 6.97119140625
-8.3876953125 -22.5986328125 6.9864501953125
-2.974365234375 -38.7523193359375 6.9384765625
1.8515625 -21.8900146484375 7.4610595703125
-28.491943359375 -22.525146484375 6.726806640625
-53.76171875 -12.32666015625 7.3377685546875
-26.78466796875 61.927978515625 12.5513916015625
10.54296875 -89.259765625 9.4013671875
-55.18701171875 -73.4534912109375 0.904296875
-58.138916015625 17.3829345703125 8.365966796875
29.326904296875 -42.2779541015625 7.408935546875
-17.096923828125 -38.0699462890625 4.19775390625
85.779541015625 -105.7413330078125 -12.0504150390625
27.2685546875 -37.5223388671875 3.197509765625
-18.15576171875 -29.7874755859375 1.639404296875
-39.95263671875 -21.1600341796875 7.0413818359375
24.752685546875 -42.6429443359375 -0.0538330078125
19.24755859375 -38.7642822265625 -0.7481689453125
66.227783203125 28.187255859375 2.1397705078125
38.8037109375 -1.7999267578125 -26.152099609375
-8.62646484375 -43.374267578125 7.008056640625
20.4765625 2.2198486328125 12.7099609375
75.01611328125 -72.5155029296875 6.5096435546875
23.81103515625 18.9466552734375 17.0845947265625
44.817138671875 2.5565185546875 -27.6322021484375
32.101318359375 -86.2535400390625 -11.1212158203125
37.470703125 -35.2733154296875 6.5887451171875
22.474365234375 -69.46728515625 6.8209228515625
12.599853515625 -44.633056640625 7.0545654296875
-24.085693359375 -43.248291015625 -1.3056640625
-105.216552734375 35.78564453125 8.775634765625
-77.026611328125 -4.8023681640625 9.608154296875
44.52001953125 -56.902099609375 -18.644287109375
-14.88525390625 16.3560791015625 12.79150390625
12.526611328125 -57.22412109375 7.1151123046875
-9.039794921875 59.8720703125 12.2381591796875
76.417724609375 -40.8016357421875 -3.7901611328125
25.93701171875 57.5347900390625 12.304931640625
-13.775146484375 37.6771240234375 12.1956787109375
17.260986328125 10.04443359375 12.5706787109375
-51.0869140625 -86.1280517578125 12.3177490234375
71.387451171875 -48.68701171875 3.23193359375
41.468017578125 -16.7391357421875 -26.593017578125
26.3017578125 -48.719970703125 6.9373779296875
-71.885498046875 -83.3770751953125 12.5234375
-25.45849609375 -37.041259765625 6.16015625
32.25927734375 -30.3958740234375 7.172119140625
-81.431396484375 9.632568359375 8.953857421875
67.495849609375 -88.0711669921875 -1.6632080078125
36.958984375 -95.6031494140625 -1.7451171875
-81.230712890625 16.8519287109375 8.1474609375
46.253662109375 -22.94482421875 -25.0653076171875
74.164306640625 3.640380859375 0.494873046875
37.033935546875 -23.05224609375 7.180419921875
-59.572265625 -75.54150390625 4.416015625
36.521728515625 -91.5001220703125 13.2447509765625
84.9130859375 -76.5882568359375 -7.3165283203125
-51.358154296875 -83.651123046875 6.3507080078125
-85.70361328125 35.1072998046875 6.8070068359375
18.372314453125 14.74560546875 13.129638671875
-28.005615234375 -19.117431640625 8.68408203125
-62.17626953125 11.6175537109375 7.718505859375
79.448486328125 -43.9931640625 -3.505859375
-42.55419921875 -40.14013671875 6.7960205078125
-19.590576171875 34.9525146484375 12.2191162109375
-41.380859375 -57.49169921875 12.920654296875
66.844482421875 -73.5482177734375 6.043701171875
0.104736328125 14.935302734375 12.5072021484375
39.8408203125 -100.635498046875 -8.7122802734375
46.681640625 -120.9481201171875 -4.528564453125
36.04443359375 29.601318359375 -23.3372802734375
-22.802978515625 19.0096435546875 15.3450927734375
68.5361328125 14.68310546875 -1.6448974609375
44.912353515625 -95.8560791015625 -17.9677734375
-1.54345703125 -15.6561279296875 7.06884765625
70.48486328125 -61.169921875 6.2354736328125
-14.60986328125 -40.4012451171875 -5.7354736328125
47.177734375 -64.1690673828125 -14.6370849609375
-61.542724609375 -93.1396484375 13.067626953125
-22.00830078125 14.6077880859375 14.53271484375
25.383056640625 -9.098876953125 8.8031005859375
-27.406005859375 45.216796875 15.701171875
80.214599609375 -50.78759765625 -4.4029541015625
-3.2275390625 52.695556640625 11.9703369140625
7.82275390625 -63.783203125 7.469970703125
11.335205078125 -13.7550048828125 7.1265869140625
-97.626953125 43.9613037109375 6.798583984375
-105.170166015625 41.1551513671875 7.35693359375
-65.6552734375 -25.827880859375 6.8804931640625
13.1923828125 0.4967041015625 13.084716796875
72.401611328125 11.620361328125 -0.7850341796875
-47.624267578125 -45.97900390625 7.0838623046875
83.43896484375 -90.5137939453125 -4.3955078125
32.228271484375 54.4581298828125 15.408447265625
4.24267578125 -93.68212890625 6.744873046875
37.087158203125 -85.3314208984375 -18.3470458984375
7.69677734375 33.2664794921875 12.3707275390625
26.816650390625 -55.8291015625 6.8114013671875
-17.03662109375 30.386474609375 12.048583984375
66.7724609375 19.323486328125 0.0408935546875
49.201904296875 -87.3668212890625 -20.497802734375
32.09375 -72.5845947265625 12.92626953125
67.745361328125 3.1568603515625 -1.4886474609375
16.70263671875 -44.02099609375 7.3514404296875
53.376708984375 -31.3465576171875 -25.17724609375
-3.919921875 25.0299072265625 12.28271484375
-58.947509765625 -64.822998046875 -1.602783203125
16.796630859375 37.4661865234375 12.130126953125
-1.66796875 -20.5316162109375 7.2220458984375
80.31396484375 -37.9691162109375 -1.7689208984375
47.650146484375 -17.355712890625 -26.680908203125
16.958740234375 24.8453369140625 12.2330322265625
-49.73291015625 -46.3834228515625 10.5714111328125
3.255615234375 31.7825927734375 12.548828125
-19.764892578125 49.503173828125 14.79248046875
90.31884765625 -83.060302734375 -7.6014404296875
45.031494140625 -77.1195068359375 -17.4654541015625
36.069091796875 -95.7962646484375 -14.7476806640625
-54.39990234375 -91.7073974609375 12.8997802734375
-20.97509765625 -31.6556396484375 6.3896484375
11.340087890625 42.5411376953125 12.125244140625
40.022216796875 -33.884033203125 -19.869140625
64.175048828125 -45.267822265625 0.4576416015625
-11.09423828125 20.946533203125 12.5277099609375
-60.083740234375 -17.567138671875 6.88037109375
-70.28564453125 2.4757080078125 9.202880859375
-86.779296875 41.6981201171875 7.43115234375
6.649169921875 58.991455078125 11.937255859375
48.4580078125 -9.16162109375 -29.46630859375
68.026123046875 -96.0054931640625 6.78173828125
42.212890625 -38.6590576171875 -22.3966064453125
66.538330078125 -63.6092529296875 6.626708984375
40.548828125 -89.2576904296875 -19.720703125
71.30517578125 -78.3106689453125 5.7432861328125
39.37109375 2.316162109375 12.405029296875
25.947509765625 -64.1871337890625 6.67333984375
-83.533447265625 22.827880859375 7.6412353515625
38.5380859375 -44.212158203125 6.894287109375
39.53857421875 -10.1116943359375 -25.80322265625
2.794677734375 -50.1925048828125 6.94873046875
47.6318359375 -60.62890625 -15.408203125
29.960205078125 -3.63623046875 14.02880859375
37.91650390625 51.892333984375 14.4791259765625
-63.551513671875 -0.9207763671875 8.8812255859375
55.690673828125 -88.157470703125 -17.491455078125
86.0966796875 -93.8916015625 -9.8466796875
-17.809814453125 3.16162109375 12.7528076171875
71.11572265625 -54.069580078125 6.4173583984375
36.93798828125 29.578369140625 12.137451171875
3.949951171875 54.0731201171875 12.2525634765625
-19.38037109375 27.802001953125 12.2138671875
6.913330078125 -16.0162353515625 6.7236328125
-14.548583984375 -43.9395751953125 7.42236328125
18.745849609375 21.773193359375 12.4857177734375
36.5546875 14.967041015625 12.255859375
-73.925048828125 14.3551025390625 8.3907470703125
-1.519287109375 3.27587890625 13.111083984375
35.477783203125 7.2193603515625 12.5615234375
-54.267822265625 -66.3372802734375 2.3792724609375
-40.477294921875 -41.1964111328125 -0.0770263671875
38.38671875 2.350830078125 -25.478759765625
55.713623046875 -95.2166748046875 -17.9219970703125
-20.76171875 46.088134765625 12.1575927734375
-6.441650390625 -30.214111328125 6.6605224609375
35.21533203125 -90.33447265625 -16.191162109375
59.248779296875 -95.3487548828125 3.1595458984375
78.80517578125 -67.531982421875 -2.5401611328125
-35.985595703125 -26.9200439453125 7.2803955078125
-87.697021484375 38.369140625 7.4052734375
13.83056640625 -94.8856201171875 6.5277099609375
42.30224609375 -21.491943359375 -26.3731689453125
-9.90234375 3.466796875 12.5767822265625
-62.792724609375 6.855224609375 8.285400390625
-23.742919921875 -47.1033935546875 8.7728271484375
-84.555419921875 47.8802490234375 5.5931396484375
-18.02099609375 -31.9600830078125 4.670166015625
-2.436767578125 60.265869140625 12.042724609375
46.838623046875 -53.53076171875 -17.7117919921875
4.510009765625 9.1044921875 12.5750732421875
-9.66015625 48.6507568359375 12.545166015625
-57.680419921875 -40.1121826171875 8.5401611328125
15.066162109375 58.8072509765625 12.4014892578125
-94.056640625 32.732177734375 7.169189453125
72.816162109375 19.1959228515625 -1.3660888671875
24.34033203125 -29.254638671875 7.2412109375
32.525146484375 -36.40869140625 6.9345703125
73.448486328125 -51.569091796875 2.5203857421875
14.882080078125 -51.2723388671875 7.04150390625
-16.573486328125 -34.010986328125 -4.8165283203125
43.9619140625 -12.194580078125 -27.7071533203125
20.278564453125 -91.7532958984375 6.2862548828125
-29.25 30.3831787109375 13.2713623046875
-21.027587890625 8.928955078125 12.723388671875
46.80224609375 -109.5830078125 -6.7152099609375
-26.1513671875 43.0560302734375 12.5343017578125
-66.534423828125 -79.8619384765625 11.3546142578125
41.718994140625 -46.7071533203125 6.798095703125
31.16455078125 3.930908203125 12.3505859375
22.4990234375 -44.02587890625 4.0394287109375
70.998046875 -86.5262451171875 -1.148681640625
84.075927734375 -100.89697265625 -7.445068359375
2.804443359375 27.8543701171875 12.451171875
22.474365234375 -74.5299072265625 6.614990234375
-60.79296875 -67.3475341796875 1.3089599609375
78.16015625 -68.427734375 -8.7359619140625
22.896484375 -58.5018310546875 6.8624267578125
90.915283203125 -89.9085693359375 -8.0880126953125
-106.37548828125 47.6220703125 6.498046875
-37.218994140625 -40.7666015625 1.2767333984375
16.440185546875 -38.6253662109375 6.1761474609375
20.0732421875 -53.3875732421875 6.8065185546875
74.3623046875 -96.0989990234375 4.6688232421875
-22.041015625 -28.7314453125 5.0379638671875
71.48388671875 0.2838134765625 -1.1185302734375
36.385986328125 22.908203125 12.0328369140625
-11.560302734375 16.4781494140625 12.31201171875
-4.71337890625 -25.6893310546875 6.8677978515625
69.11083984375 6.20166015625 -1.6104736328125
30.608154296875 49.490478515625 12.359375
-13.09375 -38.6397705078125 -1.23681640625
6.43896484375 -85.238525390625 6.5452880859375
66.924560546875 -29.6119384765625 1.4471435546875
76.467529296875 -60.950927734375 -1.646240234375
24.99462890625 -52.382568359375 7.0408935546875
14.665283203125 -91.8057861328125 8.89892578125
21.439453125 -23.515625 6.9453125
74.19091796875 -53.010986328125 6.6727294921875
-1.731689453125 45.9881591796875 12.1273193359375
-88.399658203125 25.5626220703125 8.3199462890625
65.159423828125 8.9412841796875 1.0859375
-49.25927734375 -66.49560546875 -1.158447265625
-86.626220703125 31.158935546875 7.2821044921875
36.478515625 24.5364990234375 -23.5572509765625
55.1396484375 -94.361328125 -11.715576171875
-35.498779296875 -54.6724853515625 15.2940673828125
44.767578125 -15.5050048828125 -26.8721923828125
16.058349609375 -27.6864013671875 7.215087890625
70.4306640625 -20.8822021484375 -2.7647705078125
-11.025634765625 39.3907470703125 12.25927734375
26.772705078125 -17.8558349609375 7.275390625
-57.311279296875 -71.0506591796875 0.4681396484375
41.164306640625 -40.07958984375 6.7012939453125
71.3916015625 -68.5675048828125 6.1815185546875
-26.307861328125 10.5513916015625 12.71484375
6.835693359375 52.3929443359375 12.3125
-74.031982421875 35.8873291015625 5.8616943359375
77.215087890625 -54.7752685546875 -2.096435546875
-64.150146484375 3.6221923828125 8.7677001953125
63.2177734375 -95.595703125 -2.1641845703125
-76.133544921875 -1.7791748046875 8.9234619140625
10.778564453125 -75.6085205078125 6.6407470703125
51.78369140625 -37.814208984375 -23.6488037109375
69.187255859375 -90.4632568359375 0.8902587890625
18.093505859375 -61.16455078125 6.174072265625
31.03076171875 27.7667236328125 11.902587890625
5.722900390625 -48.822021484375 6.9700927734375
-70.36962890625 21.95947265625 7.3436279296875
-36.623046875 -56.7855224609375 17.70361328125
-11.65966796875 -42.3172607421875 7.09619140625
77.079833984375 -66.20068359375 6.479248046875
-1.8974609375 -66.9119873046875 7.248046875
83.906494140625 -70.0863037109375 -7.672607421875
38.6669921875 -92.5572509765625 -18.9678955078125
-6.38330078125 9.540283203125 12.331787109375
-49.249755859375 -16.9827880859375 7.181884765625
16.7041015625 44.3502197265625 11.6275634765625
-42.29638671875 -64.404541015625 12.770751953125
40.028564453125 -19.900146484375 7.447021484375
36.218994140625 -30.9664306640625 7.1375732421875
11.784912109375 -65.847900390625 7.2044677734375
21.99853515625 34.11181640625 12.15185546875
-62.01708984375 -82.345947265625 7.40966796875
67.29638671875 -5.541015625 -1.9815673828125
-21.171142578125 -51.0653076171875 7.119873046875
-5.707275390625 -1.140380859375 13.3966064453125
39.61767578125 -108.32177734375 -6.9705810546875
48.65673828125 -94.64208984375 -8.91748046875
18.721435546875 -34.6954345703125 2.25439453125
-90.89697265625 45.964111328125 5.9339599609375
85.044921875 -65.6103515625 -7.0372314453125
49.39892578125 -95.5919189453125 -19.4302978515625
-44.704345703125 -86.504638671875 12.657470703125
26.250732421875 53.6878662109375 11.8853759765625
-62.61572265625 20.0767822265625 7.065673828125
21.968017578125 57.9027099609375 12.055419921875
59.618408203125 -39.5322265625 -8.361328125
29.602294921875 -118.9912109375 10.326171875
-56.057373046875 -37.7144775390625 7.2525634765625
-93.98046875 37.05224609375 7.1163330078125
11.27490234375 -20.7427978515625 7.1607666015625
70.22021484375 -34.0791015625 0.0711669921875
48.97705078125 -114.28662109375 -6.2623291015625
63.401611328125 -59.64111328125 6.9554443359375
40.753173828125 -103.2132568359375 -10.930419921875
7.98828125 2.86328125 12.7030029296875
7.21435546875 -36.9166259765625 7.041748046875
82.329833984375 -82.241943359375 6.23779296875
11.693115234375 20.0809326171875 12.338623046875
-50.49755859375 -42.53076171875 7.25390625
81.65966796875 -61.697998046875 -6.742919921875
81.87841796875 -53.839111328125 -4.7119140625
77.117431640625 -86.004150390625 4.2265625
64.03173828125 36.6854248046875 -0.8985595703125
-28.459228515625 57.6396484375 12.2850341796875
2.66357421875 -1.0098876953125 13.6839599609375
-58.8583984375 -31.6063232421875 7.044189453125
84.983154296875 -81.4830322265625 -7.3607177734375
29.0380859375 9.791015625 12.3846435546875
29.470703125 -49.076416015625 7.18505859375
-26.51416015625 38.612060546875 12.5655517578125
67.4833984375 39.9581298828125 -3.5474853515625
31.978271484375 -111.8116455078125 10.8240966796875
-3.56494140625 40.5802001953125 12.383056640625
-18.707275390625 11.5166015625 12.684814453125
32.96142578125 -66.683349609375 6.5401611328125
-6.955078125 41.821533203125 11.8486328125
-20.956298828125 0.248291015625 12.97216796875
-49.466796875 -83.0115966796875 11.07861328125
2.205810546875 3.135009765625 12.97802734375
-80.221435546875 37.8077392578125 6.1488037109375
44.481201171875 -60.4013671875 -17.7874755859375
-17.732421875 22.4769287109375 12.357666015625
59.17724609375 -95.791259765625 -6.2099609375
74.474609375 -34.764892578125 -3.488037109375
-45.5693359375 -73.8363037109375 -0.09033203125
-32.416259765625 -46.08984375 7.291015625
65.902587890625 -42.1357421875 0.1978759765625
75.95263671875 -89.8572998046875 4.318115234375
-49.041748046875 -70.4271240234375 0.3160400390625
38.23583984375 35.96240234375 11.8056640625
-0.79638671875 38.2747802734375 12.3199462890625
7.214599609375 25.827880859375 12.01953125
35.73046875 18.493896484375 11.94189453125
-46.658447265625 -81.054931640625 11.544677734375
66.807861328125 34.4307861328125 -2.1973876953125
6.275634765625 -25.126708984375 7.16943359375
-39.11328125 -84.9063720703125 14.84765625
9.70556640625 39.721923828125 12.1080322265625
14.81787109375 31.91943359375 12.133544921875
72.586669921875 -42.5849609375 -1.655517578125
30.775390625 35.1009521484375 12.0611572265625
76.8408203125 -45.966552734375 -4.337158203125
-45.751708984375 -75.2283935546875 8.2091064453125
-70.485107421875 -1.6319580078125 8.5294189453125
-15.43115234375 10.8778076171875 12.583251953125
-106.39892578125 44.0928955078125 6.9139404296875
-65.14013671875 -83.11083984375 12.49951171875
-23.405029296875 -32.7015380859375 -0.4879150390625
59.4912109375 -94.11181640625 -13.928955078125
85.22509765625 -87.0748291015625 6.37939453125
16.602294921875 50.6240234375 11.6378173828125
17.232666015625 -86.524169921875 6.2490234375
89.74072265625 -104.16796875 -9.9246826171875
38.04833984375 -13.490966796875 -22.57470703125
-2.265869140625 28.41015625 12.4210205078125
29.108642578125 -71.541748046875 6.596923828125
-8.07080078125 21.498291015625 12.570068359375
75.80810546875 -60.3404541015625 -6.2403564453125
77.286376953125 -56.39501953125 -5.155029296875
24.615234375 -12.7784423828125 7.2882080078125
83.580322265625 -84.1905517578125 -6.1280517578125
41.25146484375 -8.971435546875 -28.07421875
79.261962890625 -35.09423828125 -1.837158203125
-23.8037109375 48.51806640625 14.294921875
55.4990234375 -25.2127685546875 -24.1043701171875
16.568603515625 -17.418212890625 7.01953125
0.31201171875 -79.7589111328125 6.7159423828125
44.49609375 -92.5704345703125 -20.82568359375
-70.443115234375 -18.23388671875 7.1383056640625
-44.67138671875 -54.6759033203125 12.910888671875
-20.44482421875 39.8966064453125 12.1444091796875
-39.2705078125 -70.21875 12.917236328125
4.943115234375 5.4847412109375 12.6671142578125
-56.64404296875 7.8240966796875 7.6080322265625
-94.702392578125 43.423583984375 7.4686279296875
-43.93505859375 -32.2950439453125 7.0576171875
38.72119140625 -7.57470703125 -23.9332275390625
9.05615234375 8.815185546875 12.2613525390625
-45.848876953125 -50.9613037109375 9.4063720703125
-64.37841796875 -81.3076171875 4.061279296875
36.26611328125 -60.7391357421875 6.6356201171875
-99.7490234375 41.3564453125 6.9765625
19.370849609375 16.842529296875 15.0880126953125
11.615478515625 -86.5328369140625 6.7498779296875
32.795166015625 -84.0875244140625 -13.1326904296875
21.35986328125 -5.117919921875 11.281005859375
-26.752685546875 -34.330810546875 6.577880859375
73.663330078125 -88.95751953125 -0.7601318359375
75.5537109375 -55.6798095703125 6.2291259765625
-39.885498046875 -26.1868896484375 7.5458984375
-54.080322265625 1.724609375 8.4439697265625
28.59619140625 16.0430908203125 12.1761474609375
5.368408203125 -57.75732421875 6.809814453125
-84.6904296875 25.8878173828125 7.44677734375
14.44873046875 18.0517578125 12.5244140625
-35.2099609375 -44.2890625 5.0584716796875
-34.732421875 -50.3536376953125 7.1396484375
87.010498046875 -99.2369384765625 -11.6295166015625
71.990966796875 -7.4163818359375 -1.691162109375
-17.857177734375 -28.12890625 -4.0367431640625
-54.44482421875 -69.3397216796875 2.5445556640625
-61.42529296875 -90.2008056640625 12.2740478515625
-7.10302734375 -18.14599609375 6.9906005859375
10.84765625 45.8570556640625 12.0323486328125
37.807861328125 18.1507568359375 -26.548828125
-25.37646484375 1.799072265625 12.907470703125
-27.574462890625 19.6397705078125 13.415771484375
35.9580078125 38.2430419921875 11.838623046875
67.958251953125 -56.2093505859375 6.637451171875
-22.6142578125 29.54150390625 12.3089599609375
-66.094970703125 -18.741943359375 7.192626953125
46.16259765625 -100.7674560546875 -10.1033935546875
-91.249755859375 27.34375 8.5013427734375
31.97119140625 -9.2413330078125 8.7135009765625
-56.6875 -84.5419921875 11.142333984375
-25.267822265625 -39.9688720703125 6.7491455078125
-20.098388671875 58.0283203125 12.7431640625
50.855712890625 -28.49560546875 -26.515625
19.5048828125 45.297119140625 12.0804443359375
-22.80029296875 -37.1031494140625 -1.9456787109375
42.473388671875 -113.894287109375 -9.46826171875
85.052490234375 -58.87548828125 -6.5687255859375
32.36181640625 -95.4638671875 -11.5634765625
-25.97802734375 14.3323974609375 12.8114013671875
61.404296875 -95.2093505859375 5.67431640625
71.7958984375 8.7196044921875 -1.087158203125
-64.15087890625 -80.965087890625 1.11181640625
25.008056640625 16.7796630859375 13.055419921875
41.32080078125 -62.0574951171875 -16.9793701171875
-0.551025390625 -31.85498046875 7.2025146484375
53.67919921875 -92.989501953125 -9.5152587890625
89.967529296875 -92.4102783203125 -9.389404296875
18.954345703125 -11.537353515625 6.8304443359375
39.7470703125 -95.8389892578125 -18.1190185546875
40.23095703125 -56.56884765625 -15.6412353515625
25.03369140625 11.4454345703125 12.4130859375
-62.02734375 -63.240234375 2.10302734375
4.9921875 -29.0428466796875 7.1583251953125
55.69140625 -95.438232421875 -2.185546875
34.609130859375 -115.5146484375 10.200439453125
6.958740234375 -69.64794921875 6.7618408203125
2.564453125 21.87548828125 12.46533203125
-51.4482421875 -82.789794921875 -0.7177734375
38.296630859375 -94.657470703125 -12.1058349609375
93.54150390625 -88.5889892578125 -7.965087890625
-71.48486328125 -65.712646484375 12.6339111328125
13.477294921875 -22.688720703125 7.2550048828125
-75.495361328125 42.1104736328125 5.400146484375
80.572265625 -75.8800048828125 6.35693359375
32.9638671875 -17.48095703125 7.20703125
-3.5380859375 37.0091552734375 12.1263427734375
-66.99853515625 23.76904296875 6.9696044921875
-78.48779296875 25.896728515625 7.504150390625
48.755615234375 -15.435546875 -28.591552734375
-5.52978515625 59.53369140625 12.5169677734375
-22.61279296875 34.48583984375 12.3018798828125
-12.8779296875 -19.4404296875 7.1607666015625
17.51904296875 61.3345947265625 11.9730224609375
10.982666015625 -48.2176513671875 7.298583984375
-20.126220703125 -26.24072265625 5.8209228515625
31.29736328125 -44.5484619140625 6.9276123046875
49.899169921875 -103.592041015625 -7.6710205078125
5.667724609375 11.78173828125 12.621826171875
69.067138671875 -17.63427734375 -2.465576171875
60.487548828125 -96.320556640625 -3.48681640625
-36.891357421875 -80.68798828125 14.69384765625
4.2822265625 14.435791015625 12.59423828125
47.4072265625 -36.0311279296875 -21.975341796875
-62.828125 -69.0008544921875 0.0556640625
80.11328125 -71.21533203125 0.90234375
28.712646484375 -112.8486328125 10.278564453125
42.24169921875 -82.62548828125 -20.6729736328125
-52.042724609375 -72.625732421875 2.3133544921875
12.98876953125 24.135986328125 11.9998779296875
-23.92578125 4.30517578125 12.8045654296875
23.353271484375 -94.5511474609375 6.7506103515625
33.26318359375 10.0546875 12.09423828125
7.6787109375 22.5316162109375 11.9866943359375
82.5380859375 -78.6937255859375 -3.025634765625
0.963623046875 -71.3389892578125 6.7344970703125
93.65283203125 -84.711181640625 -8.029541015625
23.778564453125 -39.5718994140625 0.904052734375
31.05419921875 -24.914306640625 7.2398681640625
-65.9462890625 9.1248779296875 8.486328125
52.80224609375 -104.8740234375 -6.898681640625
-21.7060546875 -45.051513671875 7.6942138671875
-10.11865234375 -35.197265625 7.06298828125
82.203857421875 -64.526611328125 -6.853759765625
-49.445068359375 -81.1982421875 4.7652587890625
6.793212890625 -0.8482666015625 13.27587890625
-75.666259765625 11.6666259765625 8.2928466796875
54.200927734375 -70.818603515625 -13.6749267578125
-58.389404296875 -89.349365234375 12.3919677734375
-57.365966796875 -11.954345703125 7.111328125
53.5498046875 -59.3531494140625 -17.3775634765625
13.957763671875 39.1092529296875 12.07080078125
-56.28564453125 -103.6365966796875 12.52392578125
-32.579833984375 -52.335693359375 7.00537109375
-19.052490234375 -40.6767578125 6.5543212890625
-20.92236328125 -37.583984375 4.806396484375
-38.29833984375 -47.0355224609375 7.8216552734375
90.427001953125 -70.5869140625 -7.5662841796875
-27.886474609375 25.80419921875 13.6849365234375
44.747802734375 -104.2095947265625 -10.3521728515625
63.3515625 -46.3702392578125 2.9622802734375
49.297119140625 -100.142333984375 -8.2213134765625
-39.649658203125 -31.1622314453125 5.3544921875
-83.179443359375 36.3648681640625 6.3709716796875
45.96484375 9.394775390625 -27.506103515625
24.7255859375 51.3609619140625 12.5079345703125
38.70556640625 52.6650390625 10.764892578125
-2.887451171875 -45.2264404296875 7.20068359375
32.30810546875 -1.7022705078125 13.8746337890625
-69.66357421875 -59.3060302734375 12.819580078125
6.29345703125 -44.158203125 6.9072265625
26.80615234375 27.6962890625 12.4483642578125
-40.98486328125 -72.47705078125 12.8135986328125
40.757568359375 -30.829833984375 7.4185791015625
56.99853515625 -82.7275390625 -16.360107421875
22.74462890625 6.8114013671875 12.562255859375
-62.9638671875 -19.7476806640625 7.2188720703125
27.37060546875 -39.4027099609375 5.3050537109375
-61.18310546875 -75.197021484375 2.1151123046875
52.675048828125 -46.1973876953125 -21.59765625
45.001953125 -38.2149658203125 -22.39111328125
41.539306640625 -60.471435546875 7.1929931640625
5.132080078125 45.3189697265625 12.039794921875
-74.7041015625 -79.6060791015625 12.923095703125
54.361083984375 -96.045166015625 -15.19873046875
25.923828125 -117.009765625 10.799072265625
21.504638671875 -86.3951416015625 6.621337890625
-59.035888671875 -83.87939453125 2.8546142578125
75.920654296875 -24.022216796875 -2.8800048828125
-27.1123046875 -51.685546875 6.7347412109375
-1.199462890625 22.114990234375 12.72509765625
8.03173828125 -20.39111328125 6.906494140625
-62.66064453125 -13.77783203125 7.2598876953125
13.018310546875 6.4129638671875 12.608642578125
-30.090087890625 -27.9278564453125 7.34765625
12.20751953125 -39.055419921875 7.5264892578125
40.2587890625 10.411376953125 10.6104736328125
-65.330322265625 -56.5452880859375 12.278076171875
39.34521484375 -117.2880859375 -7.7269287109375
-31.823974609375 -35.17724609375 3.9244384765625
-18.076171875 -47.38916015625 7.110595703125
32.843994140625 -57.44775390625 6.630859375
79.196533203125 -63.98876953125 2.1810302734375
10.121337890625 -59.877197265625 11.447265625
-9.431640625 29.4371337890625 12.2825927734375
38.167236328125 -56.4783935546875 6.837646484375
12.453857421875 12.1807861328125 12.5294189453125
39.08740234375 -25.8927001953125 7.4044189453125
33.439453125 -88.38818359375 -13.810546875
72.239990234375 -11.9530029296875 -2.265625
69.447265625 29.635009765625 -1.9638671875
73.7587890625 -64.8375244140625 6.360595703125
-35.55517578125 -38.2298583984375 0.2144775390625
61.510009765625 -95.4971923828125 -9.1640625
-6.333740234375 5.2899169921875 12.94873046875
49.5419921875 -54.90478515625 -18.29931640625
-8.74462890625 14.664306640625 12.7427978515625
52.84716796875 -64.5098876953125 -16.326904296875
-42.77392578125 -48.838623046875 7.1143798828125
39.943359375 -18.410400390625 -24.991455078125
96.708251953125 -87.4969482421875 -3.2611083984375
27.091064453125 -15.1336669921875 6.8834228515625
-10.0517578125 53.703369140625 12.4410400390625
42.600830078125 -120.5574951171875 -8.4107666015625
22.55615234375 28.2001953125 12.35986328125
-21.29296875 53.154052734375 13.7349853515625
-37.004638671875 -56.4766845703125 13.193359375
64.53466796875 30.547607421875 0.364990234375
-41.3203125 -42.7347412109375 5.124755859375
-105.924072265625 51.819091796875 5.544677734375
-39.83154296875 -66.95751953125 12.3785400390625
32.224365234375 23.9534912109375 11.940673828125
-26.277099609375 -33.098388671875 -5.05712890625
32.019287109375 -50.2564697265625 6.8958740234375
77.3896484375 -62.5511474609375 -7.439453125
36.03515625 -11.163330078125 7.5841064453125
41.099365234375 -35.8865966796875 -22.515869140625
73.520263671875 -46.36865234375 -2.953125
-53.6337890625 -85.105224609375 12.4903564453125
-45.502685546875 -76.8707275390625 3.4505615234375
-36.044677734375 -74.405029296875 14.179443359375
39.822998046875 21.079345703125 11.1585693359375
17.751953125 55.7330322265625 12.212890625
-5.699951171875 -49.0306396484375 7.069580078125
-67.388671875 3.828369140625 8.9910888671875
37.45458984375 -6.33154296875 -21.1815185546875
92.77099609375 -74.75390625 -4.2252197265625
-52.60546875 -66.81103515625 -0.37060546875
2.763671875 -34.3128662109375 7.2203369140625
2.00341796875 -87.3155517578125 6.5316162109375
16.4658203125 -73.469482421875 6.6875
-7.310302734375 46.5751953125 12.1263427734375
34.129638671875 -79.4537353515625 -13.9794921875
-26.071044921875 49.5985107421875 12.2625732421875
2.094970703125 -43.3385009765625 7.3106689453125
-37.99462890625 -52.7110595703125 11.8656005859375
-76.35205078125 -74.359130859375 13.573974609375
-43.7197265625 -18.059326171875 7.1605224609375
-44.1044921875 -78.2900390625 12.592529296875
-45.847900390625 -48.64306640625 7.3265380859375
51.833740234375 -23.6375732421875 -27.742431640625
-11.635498046875 -26.884033203125 7.1187744140625
40.56787109375 -37.4556884765625 7.681884765625
5.165771484375 -74.27294921875 6.459716796875
0.365478515625 -60.716064453125 7.0579833984375
-25.85205078125 -19.4295654296875 10.324462890625
18.78125 -97.1298828125 6.5264892578125
-22.15966796875 -42.6168212890625 5.052978515625
57.474609375 -94.1297607421875 -16.0955810546875
-59.657470703125 -85.1826171875 12.12890625
41.48779296875 -54.5404052734375 -18.60546875
20.5380859375 -63.9906005859375 6.8184814453125
14.3564453125 -80.1732177734375 6.528076171875
-0.40087890625 -50.610107421875 6.941650390625
37.941650390625 -18.6533203125 -20.9547119140625
-21.136474609375 -21.0902099609375 6.7960205078125
69.408447265625 -93.6048583984375 5.78759765625
17.12060546875 -36.0386962890625 5.763916015625
67.04833984375 23.188232421875 0.1177978515625
20.9951171875 -47.1287841796875 7.06591796875
70.88427734375 -27.5447998046875 -2.3773193359375
0.9208984375 46.49755859375 12.0728759765625
-26.361328125 -23.6395263671875 -2.716552734375
-71.79345703125 16.9720458984375 7.7327880859375
34.907470703125 33.830078125 11.90234375
-57.986572265625 -2.47509765625 8.266357421875
7.239501953125 -79.117431640625 6.567626953125
86.6318359375 -103.0958251953125 -12.479736328125
80.032958984375 -57.4112548828125 -5.8990478515625
91.80029296875 -76.7838134765625 -6.0260009765625
-3.3857421875 -17.6214599609375 7.0875244140625
41.01171875 -70.6502685546875 -15.1170654296875
-14.97314453125 -51.3060302734375 6.9207763671875
41.41064453125 -55.1351318359375 6.1456298828125
42.04443359375 -49.53515625 -19.9827880859375
40.035400390625 -24.5635986328125 -23.46728515625
25.13232421875 31.4573974609375 12.3154296875
-92.457275390625 29.613525390625 7.3369140625
1.947021484375 59.8720703125 12.2618408203125
0.1669921875 27.2650146484375 12.379638671875
13.526611328125 -28.5887451171875 7.275390625
82.379150390625 -76.88720703125 -6.4730224609375
-7.549560546875 -40.918701171875 7.1514892578125
-39.626708984375 -79.548095703125 12.8489990234375
-100.48046875 50.3514404296875 5.804443359375
-15.103759765625 61.5323486328125 11.48486328125
-78.737548828125 17.841064453125 8.08642578125
81.377685546875 -72.831298828125 5.49658203125
3.50048828125 -63.5694580078125 6.9698486328125
21.865966796875 61.0579833984375 11.673095703125
10.329833984375 33.7607421875 12.3170166015625
-24.3544921875 -16.6151123046875 6.7510986328125
40.305419921875 -65.77783203125 -15.1922607421875
-64.490478515625 -10.2742919921875 7.236328125
-3.6865234375 31.4808349609375 12.138427734375
73.909912109375 -40.2333984375 -3.0435791015625
18.53466796875 -80.6033935546875 6.6893310546875
37.964111328125 -94.5711669921875 -8.4871826171875
13.05419921875 49.47265625 12.2705078125
-72.98193359375 -12.2513427734375 7.1376953125
-57.364501953125 -74.6932373046875 3.0435791015625
-88.888427734375 39.6925048828125 9.5855712890625
-48.0478515625 -10.9287109375 7.284912109375
-35.532470703125 -43.747802734375 1.086669921875
14.02001953125 -61.026611328125 9.7896728515625
-47.27880859375 -35.107666015625 7.0816650390625
23.1923828125 -77.6094970703125 6.6912841796875
24.364990234375 -85.1397705078125 6.641357421875
53.434326171875 -94.76513671875 -7.54150390625
38.41650390625 -90.11181640625 11.9835205078125
36.387939453125 56.986328125 11.71484375
-22.70068359375 58.7720947265625 12.273681640625
-13.001220703125 22.7911376953125 12.7843017578125
43.913818359375 -43.5845947265625 -21.382568359375
20.070556640625 -0.887451171875 12.7322998046875
89.1337890625 -86.8262939453125 -8.7713623046875
39.281494140625 -81.8424072265625 -19.54833984375
15.054443359375 -35.3955078125 7.31494140625
7.638427734375 -52.5174560546875 7.0865478515625
85.088134765625 -90.2960205078125 -8.2166748046875
53.793701171875 -86.779541015625 -18.75732421875
-25.879150390625 -47.20458984375 7.190185546875
35.498046875 54.9481201171875 15.9781494140625
-44.16748046875 -83.7816162109375 12.1650390625
74.8212890625 11.933837890625 0.2728271484375
-41.15869140625 -84.1397705078125 12.4053955078125
30.202880859375 -27.58203125 6.9488525390625
14.6640625 -62.1021728515625 7.44677734375
25.349365234375 -44.09716796875 6.7528076171875
-0.537109375 -74.35302734375 6.8558349609375
-22.60791015625 25.3143310546875 11.8123779296875
67.095947265625 25.902099609375 0.09521484375
39.286865234375 -14.5550537109375 7.85107421875
36.997802734375 0.0372314453125 12.810791015625
