-76.67822265625 -8.0780029296875 7.638916015625
-63.72314453125 -3.954833984375 6.1595458984375
26.555419921875 92.0074462890625 18.9365234375
18.242919921875 -110.528076171875 5.9022216796875
7.939453125 -117.50341796875 7.367431640625
-29.29833984375 26.17236328125 9.58544921875
12.501953125 -9.673583984375 10.7276611328125
30.876220703125 26.21484375 -8.4254150390625
-53.524169921875 -87.127197265625 0.2965087890625
14.351806640625 6.3634033203125 9.47509765625
-48.623046875 -42.3607177734375 6.125244140625
-63.133056640625 -81.4129638671875 4.3453369140625
37.6962890625 -98.51318359375 1.3616943359375
35.578857421875 -43.3907470703125 -11.882080078125
31.026123046875 19.840576171875 -12.9876708984375
84.021728515625 -107.463134765625 -6.477783203125
6.49755859375 9.6494140625 9.951904296875
-65.8955078125 -87.053466796875 5.267822265625
31.42431640625 -73.2470703125 6.14501953125
-12.01904296875 17.896240234375 9.8349609375
39.241455078125 -64.0040283203125 5.3511962890625
39.85400390625 -100.13330078125 8.9793701171875
72.44970703125 -103.670654296875 -3.6759033203125
-37.38720703125 -82.8782958984375 13.36279296875
20.864990234375 -53.84912109375 2.958740234375
25.921630859375 84.4200439453125 6.0975341796875
25.7744140625 1.293212890625 10.5557861328125
14.619873046875 -39.6697998046875 5.4268798828125
32.718994140625 87.4256591796875 1.886962890625
-26.446044921875 6.1864013671875 10.844482421875
16.28369140625 73.208984375 16.39794921875
13.11328125 48.6773681640625 7.9005126953125
17.1953125 19.154052734375 8.979248046875
-22.146484375 -16.57275390625 11.5885009765625
43.566650390625 2.8612060546875 -16.5313720703125
-0.085693359375 -46.4337158203125 5.5999755859375
50.21240234375 -41.8204345703125 -19.255126953125
25.7470703125 61.1077880859375 14.7176513671875
35.066650390625 -34.108154296875 5.21435546875
-28.314697265625 20.1766357421875 10.1175537109375
-50.602783203125 -70.6605224609375 16.4674072265625
34.85009765625 30.7740478515625 -14.0340576171875
33.114990234375 9.30224609375 -16.961181640625
41.012939453125 27.5111083984375 -13.0894775390625
35.02783203125 0.288330078125 9.6724853515625
-12.8662109375 38.411865234375 9.006103515625
24.963623046875 -103.4871826171875 6.0428466796875
-6.495849609375 -36.2080078125 5.4853515625
-68.17138671875 -98.8037109375 2.9605712890625
37.818115234375 93.3758544921875 20.777587890625
31.76513671875 90.1988525390625 13.838623046875
67.08251953125 36.2156982421875 -7.1551513671875
16.31396484375 -57.22802734375 6.0302734375
-106.87060546875 28.7540283203125 5.5513916015625
31.7822265625 37.44091796875 -11.8370361328125
-10.59814453125 4.0517578125 10.3731689453125
34.409912109375 55.61328125 -6.8685302734375
56.0244140625 -40.0428466796875 16.6463623046875
50.3173828125 -103.4969482421875 -22.7469482421875
3.80517578125 -41.4471435546875 5.45361328125
-27.109375 -56.7882080078125 9.23583984375
73.81884765625 -107.5703125 -15.9388427734375
71.50390625 -27.0596923828125 -3.23388671875
-47.7353515625 -64.4111328125 6.75
37.826416015625 -74.5648193359375 -9.242431640625
24.831298828125 78.2158203125 2.156494140625
72.407470703125 -15.74365234375 -6.270751953125
67.22265625 7.640625 -2.86474609375
1.177001953125 71.3760986328125 27.1328125
-68.80712890625 -33.5130615234375 6.111328125
62.457763671875 18.5115966796875 -1.7393798828125
-6.905517578125 47.270263671875 8.5941162109375
16.465576171875 -46.3592529296875 5.826904296875
1.24951171875 -72.250244140625 6.368896484375
36.67626953125 -104.4105224609375 -17.701416015625
12.392578125 -100.3428955078125 5.638427734375
7.028564453125 -76.2738037109375 6.3221435546875
42.552490234375 87.2679443359375 13.7010498046875
39.869873046875 -53.242431640625 -16.2147216796875
77.560791015625 -73.4837646484375 1.96142578125
47.640625 -90.596435546875 -13.12548828125
-12.2451171875 -26.8856201171875 8.456298828125
26.0380859375 49.72705078125 8.3851318359375
-3.820556640625 -18.63720703125 11.5157470703125
-80.063232421875 28.427001953125 4.955322265625
36.7353515625 -5.239501953125 9.9339599609375
45.800537109375 -99.9718017578125 -16.750732421875
39.524658203125 -93.1212158203125 -10.707763671875
-34.55810546875 -46.33544921875 5.90234375
-20.3154296875 11.7060546875 9.9586181640625
14.224609375 73.2171630859375 30.21044921875
12.6865234375 -51.0816650390625 6.1966552734375
9.0458984375 29.5538330078125 8.9215087890625
41.435302734375 21.815673828125 -13.77783203125
78.6416015625 -85.1014404296875 -3.275146484375
-67.5693359375 -88.1055908203125 10.7777099609375
17.522705078125 -93.0628662109375 5.52392578125
-5.630126953125 64.01025390625 20.7042236328125
63.02001953125 26.9837646484375 -11.297119140625
41.38037109375 -82.538818359375 -14.8428955078125
-58.367919921875 -84.61279296875 10.347412109375
11.107177734375 -83.0775146484375 7.9730224609375
42.25048828125 14.3681640625 -14.4129638671875
28.052001953125 13.84765625 9.4332275390625
-22.601806640625 31.2142333984375 11.3753662109375
4.885009765625 -90.1259765625 5.4176025390625
73.86181640625 14.0087890625 -2.9073486328125
27.4052734375 -85.552978515625 5.9393310546875
36.539794921875 -63.560302734375 -10.6207275390625
42.830322265625 -69.5113525390625 -14.8780517578125
36.83837890625 77.011962890625 -2.0255126953125
37.460693359375 -28.391845703125 6.7974853515625
-27.401611328125 -38.562744140625 8.7781982421875
-6.905029296875 -30.0203857421875 7.1185302734375
79.31103515625 -34.107666015625 -5.221923828125
13.154541015625 57.8707275390625 13.541259765625
48.716552734375 -15.8887939453125 -21.11328125
-90.816162109375 26.43408203125 7.2044677734375
-19.104736328125 -41.9327392578125 3.1370849609375
34.0224609375 56.1973876953125 10.8641357421875
76.3779296875 -45.5994873046875 -6.6630859375
-11.916748046875 60.8629150390625 18.399169921875
-20.09521484375 65.2154541015625 21.304931640625
29.190185546875 21.758056640625 8.8836669921875
36.527587890625 -25.730712890625 -17.6549072265625
-66.533447265625 -78.995361328125 12.660400390625
-30.830810546875 -72.9561767578125 6.4425048828125
22.887939453125 66.660888671875 15.4925537109375
-18.218505859375 -45.9959716796875 -6.7794189453125
72.776611328125 -63.6083984375 -1.5540771484375
-107.666748046875 18.54833984375 6.870361328125
91.0185546875 -96.260009765625 -7.4471435546875
30.422119140625 -63.0062255859375 1.3411865234375
-13.28076171875 30.761474609375 9.3775634765625
-9.016845703125 -2.4302978515625 10.76416015625
39.932861328125 48.6148681640625 -7.7562255859375
67.89013671875 27.021484375 -2.41552734375
36.296875 -33.2611083984375 -16.8226318359375
24.095703125 -120.836181640625 10.2967529296875
24.196533203125 77.474853515625 23.380859375
82.9482421875 -98.2744140625 -9.724365234375
33.557373046875 -24.0030517578125 -12.3707275390625
-70.3857421875 -22.6370849609375 6.6739501953125
44.672119140625 -48.93212890625 -14.92138671875
43.00146484375 90.0794677734375 5.0555419921875
47.893310546875 -3.212158203125 -20.575439453125
45.307861328125 -25.244140625 -18.4654541015625
-1.7412109375 -59.90283203125 6.5721435546875
34.699462890625 -89.6534423828125 5.73828125
23.761474609375 -59.5556640625 -3.3385009765625
17.642333984375 30.4139404296875 8.7828369140625
9.741943359375 37.7181396484375 8.4940185546875
44.688232421875 -9.5223388671875 -16.6287841796875
47.455078125 -85.246826171875 4.4532470703125
52.3056640625 -54.568359375 -17.76513671875
-34.718017578125 -36.50537109375 6.027099609375
26.773681640625 97.5479736328125 22.97119140625
-52.931884765625 -27.7579345703125 5.8536376953125
39.507568359375 58.780029296875 -4.5057373046875
87.50927734375 -81.3365478515625 -7.7454833984375
23.536865234375 29.6595458984375 8.9862060546875
32.417236328125 -98.8466796875 -10.493408203125
89.25146484375 -76.3804931640625 -6.3311767578125
58.809814453125 -102.06494140625 -17.1749267578125
-52.82421875 -80.0360107421875 -0.994873046875
45.562744140625 -96.7593994140625 1.154052734375
-51.71826171875 -50.76318359375 6.21044921875
76.11181640625 -51.382080078125 -5.544921875
36.389892578125 -39.3580322265625 3.80078125
35.5 66.6754150390625 -0.2432861328125
58.92041015625 -96.2200927734375 -7.2308349609375
-22.695556640625 -31.708984375 6.619140625
35.49853515625 -36.71484375 -12.655517578125
35.46875 -102.9407958984375 10.73974609375
48.361083984375 -109.6298828125 -23.249755859375
-14.663330078125 -15.5751953125 11.52734375
-21.97314453125 -67.2237548828125 3.4649658203125
40.818603515625 74.6600341796875 0.443115234375
-44.8779296875 -74.2427978515625 10.243408203125
43.533935546875 -100.1260986328125 -22.4375
32.179443359375 45.677490234375 7.678955078125
79.0380859375 -78.9423828125 -6.3045654296875
-2.278076171875 33.1956787109375 8.909912109375
33.067138671875 -7.154296875 -13.4852294921875
-58.959716796875 -79.9990234375 7.079833984375
21.533935546875 -47.6363525390625 5.9744873046875
33.873291015625 -106.611572265625 -6.1531982421875
-7.6396484375 23.314697265625 9.4093017578125
78.5419921875 -89.22216796875 -11.5416259765625
-19.447509765625 -59.4942626953125 -2.6829833984375
-5.09228515625 -8.175537109375 10.751220703125
-16.545654296875 -33.487548828125 5.8583984375
-21.19189453125 -53.1912841796875 -3.97119140625
72.615478515625 -41.75634765625 -3.8375244140625
28.334716796875 64.1497802734375 11.5054931640625
37.709716796875 30.6361083984375 7.8712158203125
22.59912109375 81.7161865234375 14.1309814453125
66.77880859375 -102.8955078125 -5.1961669921875
-0.858642578125 58.383544921875 15.22314453125
82.5546875 -55.6571044921875 -7.8466796875
39.36083984375 -87.6080322265625 5.6353759765625
43.02099609375 -94.955078125 5.6175537109375
-62.789306640625 -31.6806640625 6.1163330078125
-97.08203125 27.3145751953125 4.837890625
35.49951171875 -55.251220703125 -7.65966796875
68.082763671875 -6.1053466796875 -4.2166748046875
46.286865234375 -77.4403076171875 -12.7664794921875
5.753173828125 65.62060546875 18.3543701171875
38.939208984375 -63.949462890625 -15.9471435546875
-87.024169921875 8.496337890625 6.0338134765625
65.077392578125 37.28857421875 -1.2689208984375
-23.409423828125 -59.09423828125 6.7044677734375
13.09716796875 71.3369140625 21.4649658203125
-58.993408203125 -85.3460693359375 -0.3116455078125
34.6025390625 21.96435546875 8.5616455078125
41.88134765625 -103.057861328125 -17.3720703125
65.203369140625 17.0726318359375 -6.5164794921875
-11.729248046875 52.6883544921875 18.2154541015625
-1.835205078125 39.462158203125 8.46728515625
1.8388671875 -82.7095947265625 5.66162109375
37.249267578125 -114.0865478515625 -19.4857177734375
81.75439453125 -105.4337158203125 1.2559814453125
83.20263671875 -89.10205078125 -6.923583984375
-49.418212890625 -88.845458984375 2.5830078125
27.74169921875 -43.7783203125 6.149169921875
33.05859375 99.1077880859375 22.4820556640625
-67.035888671875 -38.663818359375 6.1148681640625
15.3232421875 -62.185791015625 5.52880859375
-8.956298828125 42.3980712890625 8.5947265625
20.611572265625 42.7933349609375 7.9598388671875
-9.85546875 74.26171875 30.9278564453125
0.169189453125 -5.6746826171875 10.743896484375
-97.442626953125 19.6749267578125 5.4052734375
29.888916015625 71.2967529296875 2.226806640625
18.210693359375 14.089111328125 9.305908203125
33.607421875 -97.0469970703125 8.21484375
-10.748046875 43.588134765625 14.5684814453125
-62.604248046875 -81.9456787109375 -0.560546875
-22.542724609375 -25.6015625 9.455322265625
-74.838623046875 5.7628173828125 5.659912109375
71.394775390625 -53.19775390625 -2.185791015625
0.643798828125 7.8912353515625 9.97119140625
-10.054443359375 -49.5648193359375 5.5811767578125
3.01416015625 21.6365966796875 9.6019287109375
43.220703125 84.6859130859375 0.3116455078125
74.791015625 -102.740478515625 2.3082275390625
-41.096435546875 -85.7738037109375 11.963134765625
35.573974609375 90.6600341796875 17.3604736328125
46.19580078125 -43.847900390625 -16.8189697265625
67.0927734375 26.1392822265625 -8.698486328125
40.759765625 20.206787109375 8.6243896484375
36.727783203125 -57.8150634765625 5.6778564453125
-37.802490234375 -65.98046875 2.6622314453125
-7.33642578125 -41.017333984375 5.8604736328125
32.54638671875 31.40966796875 9.823486328125
-90.1904296875 20.224609375 8.501708984375
-6.490234375 56.067138671875 12.657958984375
-15.804443359375 21.4599609375 9.5831298828125
63.825927734375 40.4188232421875 8.8060302734375
46.62109375 6.21240234375 -19.9334716796875
20.907470703125 -68.0025634765625 4.16455078125
44.96630859375 12.04296875 -19.2247314453125
31.946044921875 -80.297119140625 5.5948486328125
-60.577392578125 -91.141357421875 1.4002685546875
41.637939453125 -35.3194580078125 -17.33056640625
-62.720947265625 -73.285888671875 13.1046142578125
4.81396484375 -0.625 10.3695068359375
-1.96826171875 17.165283203125 9.5146484375
-94.547119140625 32.1116943359375 7.24609375
-47.700439453125 -53.446533203125 6.353515625
-48.51171875 -80.7099609375 12.091552734375
31.913330078125 26.655029296875 -14.319091796875
42.4169921875 -78.763427734375 5.615478515625
19.3046875 -3.1590576171875 10.9857177734375
-46.53076171875 -35.7130126953125 6.004638671875
-23.137939453125 18.747802734375 9.9217529296875
29.0751953125 56.0877685546875 2.1173095703125
3.341796875 -33.4808349609375 5.3822021484375
-49.028076171875 -88.6629638671875 -2.4595947265625
12.33642578125 17.199951171875 9.495849609375
10.451171875 -31.5 5.8834228515625
-15.301513671875 6.0716552734375 10.1708984375
-75.829833984375 19.445068359375 4.478759765625
41.770751953125 95.9969482421875 21.3594970703125
18.46826171875 71.6024169921875 20.326171875
22.922119140625 75.579833984375 7.1026611328125
-18.722412109375 0.781982421875 11.20947265625
-11.130126953125 -44.609130859375 5.60302734375
-14.294677734375 -45.0887451171875 1.178955078125
0.9482421875 -87.36962890625 6.0855712890625
21.831298828125 -32.8482666015625 5.3232421875
41.33203125 -41.5509033203125 -16.94873046875
28.614501953125 87.1314697265625 9.979248046875
-57.334228515625 -38.5504150390625 6.0159912109375
86.182373046875 -103.285400390625 -10.271728515625
38.444580078125 -98.7705078125 -14.84716796875
70.127685546875 0.495361328125 -6.959228515625
24.9521484375 25.1241455078125 9.1663818359375
80.509765625 -95.778564453125 4.6346435546875
32.3173828125 104.2034912109375 27.15625
33.57421875 -13.851318359375 -16.6341552734375
-1.51123046875 27.5657958984375 8.9993896484375
15.71142578125 -72.503173828125 5.801025390625
33.13818359375 0.6680908203125 -16.1817626953125
29.30908203125 78.2091064453125 -4.4547119140625
-1.197509765625 -14.7745361328125 11.1671142578125
7.314453125 -23.521728515625 9.9853515625
46.236083984375 -59.96728515625 -14.11669921875
40.680908203125 40.4930419921875 -10.8858642578125
-21.888671875 -21.2908935546875 11.375244140625
-20.39501953125 -39.2247314453125 -3.9324951171875
88.906494140625 -87.581787109375 -7.6904296875
-88.7880859375 30.495849609375 8.24658203125
49.70556640625 -94.522705078125 -11.710693359375
15.46142578125 62.1087646484375 15.5474853515625
-16.410888671875 -57.326416015625 -5.46435546875
36.460205078125 19.347412109375 -15.763916015625
-53.1171875 -79.187255859375 4.9158935546875
26.149658203125 -72.8668212890625 5.8348388671875
11.978759765625 -88.903076171875 5.39111328125
-2.30615234375 49.321533203125 8.720947265625
6.44140625 59.7855224609375 15.8995361328125
45.646484375 -29.47265625 10.1412353515625
79.92822265625 -99.4515380859375 -1.4578857421875
39.439697265625 -108.2850341796875 -19.5201416015625
-69.06689453125 -94.8018798828125 11.2783203125
33.3583984375 26.8131103515625 8.683837890625
-64.841796875 -96.861572265625 -0.3226318359375
41.133056640625 -74.0140380859375 5.7095947265625
67.980712890625 18.36865234375 -2.327880859375
23.922119140625 6.452392578125 9.98876953125
-56.0380859375 -98.2684326171875 1.8043212890625
11.390380859375 73.1278076171875 16.8681640625
-55.5771484375 -23.4515380859375 6.76806640625
30.249267578125 62.4642333984375 -1.28955078125
49.51806640625 -69.464599609375 -17.067138671875
43.618408203125 -90.0943603515625 -15.2108154296875
-4.6513671875 71.1488037109375 27.5855712890625
9.903564453125 -1.5767822265625 10.2686767578125
80.999267578125 -15.68994140625 20.02587890625
8.370849609375 -49.6356201171875 6.1834716796875
7.95556640625 -112.90673828125 3.0499267578125
32.8671875 -112.1749267578125 -12.264404296875
66.6630859375 42.009521484375 1.8514404296875
-79.302978515625 22.3736572265625 4.4093017578125
40.541015625 9.439697265625 8.970458984375
5.341552734375 44.5977783203125 8.24658203125
45.575439453125 -21.6998291015625 -15.664794921875
-28.11328125 41.72412109375 9.6588134765625
29.55517578125 49.40673828125 -6.123046875
43.849365234375 29.06298828125 -16.9124755859375
-16.04931640625 -6.327392578125 10.984619140625
66.822021484375 32.7947998046875 2.4866943359375
-54.538330078125 -77.071533203125 12.321044921875
83.172607421875 -93.9669189453125 0.152587890625
-65.419921875 6.099853515625 4.0166015625
35.6875 -66.730224609375 5.7615966796875
-8.8486328125 67.5997314453125 24.6448974609375
30.408935546875 39.7095947265625 8.36083984375
-0.181884765625 65.38134765625 21.7557373046875
13.712890625 52.92431640625 9.2237548828125
55.470947265625 -97.6788330078125 -9.7005615234375
33.90380859375 -59.6170654296875 -9.4580078125
6.590576171875 -19.4462890625 11.680419921875
34.559814453125 -9.1884765625 -17.1766357421875
-0.4794921875 -51.4429931640625 5.80224609375
40.900634765625 -68.140380859375 5.09765625
-79.269287109375 5.9393310546875 6.159423828125
52.041259765625 -98.724609375 -16.0960693359375
72.697021484375 10.12451171875 -7.2647705078125
29.889404296875 2.9747314453125 10.255615234375
5.78125 -66.3348388671875 5.58935546875
8.558349609375 47.7791748046875 8.110595703125
60.380859375 -97.5814208984375 -16.7152099609375
-13.46875 67.8502197265625 25.2745361328125
14.32373046875 1.4815673828125 9.9664306640625
-38.367919921875 -39.0318603515625 5.9208984375
-68.47705078125 -12.07080078125 7.2020263671875
82.75537109375 -76.8387451171875 -7.496826171875
33.78271484375 83.4967041015625 -1.6702880859375
44.584716796875 -65.5203857421875 4.7847900390625
40.041748046875 31.7120361328125 -12.0838623046875
-37.85546875 -53.393310546875 2.4854736328125
22.931640625 -12.15234375 10.4052734375
25.509521484375 -114.57666015625 7.81201171875
-4.268798828125 11.4019775390625 9.8428955078125
53.001953125 -97.6878662109375 -21.55029296875
66.84326171875 40.62451171875 -7.0302734375
-62.098388671875 -18.6495361328125 7.251953125
32.46826171875 -49.59765625 5.740234375
21.653076171875 -107.8223876953125 6.6090087890625
-78.587646484375 -3.9349365234375 7.2362060546875
34.309814453125 5.5172119140625 9.159912109375
-23.091064453125 0.745849609375 11.733154296875
21.7646484375 76.4451904296875 19.378662109375
77.845458984375 -69.2564697265625 -5.51953125
-60.060302734375 -53.594970703125 6.798095703125
-41.259033203125 -56.8978271484375 1.966796875
21.90625 70.203125 6.8365478515625
-14.114990234375 72.3531494140625 29.27587890625
8.347412109375 -40.2298583984375 5.518798828125
-50.98974609375 -95.35888671875 2.8533935546875
79.4609375 -102.2071533203125 3.7052001953125
45.732421875 52.207763671875 -7.531982421875
8.171142578125 -103.4384765625 5.29150390625
14.52001953125 44.3048095703125 8.1578369140625
-23.793212890625 -62.63330078125 3.1513671875
31.951904296875 -19.888427734375 -12.677490234375
-69.769287109375 -98.8017578125 13.0140380859375
-66.091796875 -102.465087890625 12.6728515625
44.46826171875 68.7967529296875 -0.97021484375
-49.971435546875 -57.9833984375 6.49169921875
27.828125 83.6068115234375 18.328857421875
-53.50927734375 -72.586669921875 12.568359375
29.26025390625 -7.37548828125 -11.3902587890625
22.647705078125 38.73583984375 8.8995361328125
47.8896484375 -95.3853759765625 4.5526123046875
37.705322265625 -17.5858154296875 -18.5843505859375
33.460205078125 36.155517578125 10.3935546875
28.771240234375 86.7977294921875 3.8560791015625
8.432373046875 74.2159423828125 29.8092041015625
17.744140625 -25.40185546875 8.438232421875
-70.984130859375 -90.5218505859375 12.5150146484375
13.04248046875 -117.9058837890625 6.7532958984375
41.399658203125 44.9051513671875 -11.597412109375
29.614990234375 41.30712890625 -8.7095947265625
30.962646484375 1.8504638671875 -9.7783203125
53.1103515625 -88.66650390625 -11.1182861328125
-76.702392578125 -17.3079833984375 7.796875
36.107177734375 -16.6690673828125 9.890380859375
36.618408203125 -44.5972900390625 -16.7095947265625
-28.059326171875 69.4031982421875 27.891845703125
8.0869140625 14.09912109375 9.8843994140625
-27.638916015625 -43.2237548828125 5.3363037109375
30.17578125 54.4027099609375 9.4395751953125
31.387939453125 -9.7470703125 10.4256591796875
37.784912109375 16.472412109375 9.141357421875
-59.786865234375 -11.7227783203125 6.8165283203125
23.41015625 84.3057861328125 10.82568359375
17.576171875 -29.9486083984375 6.2669677734375
-39.486083984375 -48.0977783203125 6.3409423828125
36.33203125 100.0677490234375 28.455322265625
-4.3740234375 2.0499267578125 10.3697509765625
19.17236328125 -37.8787841796875 5.5203857421875
-83.385009765625 13.520263671875 5.44140625
15.94921875 -98.0018310546875 5.814697265625
19.1650390625 -17.4818115234375 11.211669921875
40.5361328125 1.720947265625 10.75048828125
-40.3994140625 -74.033447265625 7.58203125
6.484130859375 -55.36767578125 5.898681640625
65.225830078125 33.3062744140625 6.390380859375
13.998779296875 -110.0155029296875 8.2242431640625
30.903564453125 53.410400390625 -5.7203369140625
-33.428466796875 -55.3558349609375 3.696044921875
26.312255859375 -28.707763671875 6.9921875
74.884033203125 -36.1630859375 -6.1856689453125
8.501953125 -96.1754150390625 5.26904296875
14.26806640625 -22.9398193359375 9.46728515625
0.255615234375 -96.2257080078125 6.2130126953125
65.484619140625 17.89990234375 1.1397705078125
23.406982421875 -51.5518798828125 5.451171875
22.5595703125 -53.640869140625 -1.073486328125
-59.026611328125 -95.32666015625 0.293212890625
-73.736083984375 -2.7646484375 6.6478271484375
-24.034423828125 -12.7913818359375 11.0328369140625
-26.08349609375 -18.1842041015625 11.8795166015625
74.23828125 -108.0927734375 -4.0911865234375
39.411865234375 -99.8114013671875 -3.18359375
-22.75146484375 -5.4534912109375 10.80712890625
-68.986328125 -77.7716064453125 15.832275390625
-13.0615234375 -21.5887451171875 10.7493896484375
7.001708984375 -80.5750732421875 5.700439453125
38.399658203125 62.95263671875 -1.9765625
40.63134765625 88.0560302734375 2.2618408203125
18.49853515625 7.123779296875 9.7880859375
17.072998046875 50.395751953125 8.3323974609375
-51.535400390625 -31.6962890625 5.986572265625
2.245361328125 52.5880126953125 10.1405029296875
33.31005859375 -105.0382080078125 -15.3184814453125
26.1943359375 102.1793212890625 26.5625
1.06982421875 -36.9686279296875 5.576416015625
38.633544921875 34.3565673828125 9.49853515625
-79.190185546875 13.18896484375 5.351318359375
16.068603515625 -6.883056640625 10.651123046875
36.696044921875 -49.1998291015625 -14.943603515625
-50.211181640625 -24.741455078125 4.95361328125
-51.6083984375 -45.2528076171875 6.1212158203125
18.2802734375 -57.8162841796875 2.1429443359375
-21.59033203125 -52.605712890625 8.261474609375
-103.400390625 30.91259765625 4.842529296875
55.607421875 -98.545166015625 -13.748291015625
13.392578125 -35.7186279296875 5.29931640625
26.256103515625 -54.9373779296875 3.41162109375
81.037109375 -71.671142578125 -6.803466796875
8.73828125 33.708740234375 8.5927734375
-91.521240234375 15.84326171875 5.8795166015625
-73.854736328125 15.819091796875 4.3643798828125
41.712890625 36.27197265625 -13.564453125
-68.107421875 -90.406005859375 2.151123046875
23.509033203125 -1.645263671875 12.6763916015625
66.2578125 27.098876953125 1.3648681640625
7.485107421875 -9.2921142578125 10.896728515625
18.76416015625 -61.632568359375 -1.8817138671875
-73.4892578125 1.5550537109375 5.929443359375
-25.81982421875 29.8255615234375 9.2249755859375
15.131103515625 24.032470703125 8.6968994140625
-15.162841796875 42.68603515625 8.7001953125
22.288330078125 -24.4764404296875 9.0714111328125
-10.53076171875 49.1573486328125 8.2861328125
73.778076171875 -38.2933349609375 -1.9847412109375
35.79638671875 45.8377685546875 -7.88134765625
-31.083251953125 -51.7049560546875 5.59326171875
79.264892578125 -60.1370849609375 -6.823486328125
25.84716796875 -99.236083984375 5.5750732421875
-81.52783203125 0.701171875 6.7327880859375
49.931884765625 -59.5411376953125 -17.3111572265625
-70.8544921875 -29.986328125 6.2845458984375
25.827392578125 70.1439208984375 3.49462890625
-87.991455078125 19.5052490234375 5.140380859375
69.026123046875 -16.6966552734375 -4.2061767578125
-11.552490234375 -11.9287109375 11.1051025390625
-1.904296875 -22.1304931640625 10.6773681640625
-65.816650390625 -47.5550537109375 7.8341064453125
21.10546875 70.01318359375 22.98828125
-13.923828125 14.3043212890625 9.65576171875
-62.655029296875 -8.2470703125 6.6005859375
-8.513671875 8.8302001953125 10.2520751953125
74.0576171875 -19.4383544921875 -6.665283203125
0.331787109375 76.0640869140625 30.9940185546875
-6.46923828125 19.3277587890625 9.6121826171875
-22.023193359375 35.818115234375 9.528076171875
23.271484375 -20.527099609375 10.764892578125
-46.584716796875 -69.221923828125 7.8060302734375
30.34521484375 -59.1416015625 2.5499267578125
36.21630859375 -0.4593505859375 -19.8275146484375
-20.919921875 70.552734375 28.1868896484375
30.706787109375 -36.7008056640625 5.2841796875
-81.472900390625 -8.841064453125 8.3365478515625
37.184814453125 -68.5941162109375 -8.871337890625
-49.191162109375 -85.46630859375 0.3775634765625
45.296142578125 -18.7772216796875 -18.4356689453125
26.9931640625 79.7322998046875 -1.5223388671875
-8.6220703125 33.5426025390625 9.0152587890625
22.77978515625 -112.2490234375 5.812255859375
31.221923828125 22.4970703125 -9.9324951171875
72.62646484375 23.515380859375 -7.4512939453125
28.2841796875 -19.656494140625 11.2301025390625
47.708984375 -101.9189453125 -13.7921142578125
22.569580078125 70.04736328125 13.3455810546875
-94.433837890625 23.4136962890625 7.799560546875
69.2841796875 -107.560791015625 -17.092529296875
25.27197265625 74.133056640625 0.1912841796875
16.404052734375 -80.2158203125 6.135498046875
71.91162109375 -30.7030029296875 -4.8333740234375
44.826171875 -5.8165283203125 -19.37255859375
-62.922119140625 -96.6778564453125 -4.1243896484375
36.9912109375 -24.0511474609375 8.9609375
49.392822265625 -45.8636474609375 -20.2486572265625
78.912353515625 -54.04541015625 -7.847900390625
11.286865234375 -70.9190673828125 5.78955078125
-104.28173828125 20.437744140625 5.96826171875
31.33203125 10.79443359375 9.9735107421875
-41.9697265625 -59.696533203125 5.54833984375
-44.866455078125 -44.129150390625 6.0196533203125
45.927978515625 -98.4583740234375 -12.9986572265625
45.724853515625 -32.8909912109375 -17.0606689453125
27.105712890625 31.3900146484375 8.8619384765625
34.002685546875 90.8907470703125 4.97265625
-55.087646484375 -18.20556640625 7.145263671875
12.34228515625 67.0455322265625 15.8233642578125
41.2626953125 -91.0794677734375 5.743408203125
26.85009765625 91.1329345703125 23.751953125
29.171875 -26.1378173828125 7.929443359375
10.549560546875 -25.7708740234375 8.7735595703125
-2.766357421875 61.576416015625 18.2752685546875
-16.054931640625 -37.5838623046875 5.9471435546875
30.193115234375 16.473876953125 -9.130859375
75.627685546875 -78.6737060546875 -4.333251953125
-74.50341796875 -25.123046875 6.3614501953125
-12.362548828125 53.148193359375 13.292236328125
78.890625 -97.7969970703125 -4.8853759765625
9.4052734375 -111.664794921875 6.994873046875
10.846923828125 8.160888671875 9.6024169921875
3.8095703125 -46.9600830078125 5.3529052734375
31.41064453125 8.9232177734375 -13.43115234375
2.73974609375 -14.843505859375 11.1575927734375
36.961181640625 9.2791748046875 -17.78759765625
42.868896484375 -45.4669189453125 -15.48291015625
-2.8955078125 -28.720458984375 7.3616943359375
16.05126953125 36.39990234375 8.5911865234375
32.593505859375 -102.6138916015625 -8.9072265625
66.9326171875 11.402099609375 -4.7957763671875
89.125732421875 -103.5611572265625 -12.8388671875
-16.028564453125 64.531982421875 21.843017578125
-6.47314453125 -51.2496337890625 5.5523681640625
10.6015625 -16.7152099609375 11.4293212890625
23.055908203125 -92.272705078125 5.6048583984375
-84.15673828125 18.7227783203125 5.262939453125
-18.656982421875 -25.2740478515625 9.557861328125
40.506103515625 100.2669677734375 25.3946533203125
25.196533203125 10.324951171875 9.498046875
-87.171630859375 27.3817138671875 4.684326171875
45.078857421875 0.953857421875 -19.5628662109375
73.122802734375 -25.3154296875 -6.3060302734375
-19.511474609375 -43.395263671875 -4.0635986328125
0.959716796875 -1.119873046875 10.357177734375
-48.2890625 -73.0892333984375 8.7828369140625
14.205078125 28.6143798828125 8.99658203125
78.249755859375 -100.4178466796875 -8.7510986328125
51.646240234375 -64.6573486328125 -17.84326171875
-36.387939453125 -54.3175048828125 -1.14697265625
73.73291015625 -45.0352783203125 -2.1048583984375
-38.822509765625 -58.1043701171875 -1.177978515625
19.05859375 73.6075439453125 27.255859375
-26.468505859375 -35.6602783203125 6.2486572265625
37.352783203125 81.4051513671875 -5.1287841796875
4.07275390625 6.107177734375 9.8465576171875
38.482177734375 -84.05419921875 -11.542724609375
16.347412109375 -113.682373046875 4.72216796875
-70.34423828125 -18.71533203125 6.9608154296875
35.45458984375 40.6192626953125 -10.3779296875
-2.694580078125 -80.5819091796875 7.5594482421875
40.977294921875 -96.7464599609375 -8.465087890625
22.451171875 57.325927734375 12.318359375
40.23779296875 -26.752685546875 -17.74853515625
83.71630859375 -98.1142578125 -4.21044921875
-71.96337890625 8.7115478515625 5.1685791015625
-62.666748046875 -80.621337890625 12.02978515625
37.333251953125 -72.5001220703125 -12.6768798828125
-55.58154296875 -33.4849853515625 5.9873046875
-67.539306640625 -4.3486328125 6.320556640625
1.54638671875 37.0623779296875 8.922119140625
43.029052734375 21.3389892578125 -17.5362548828125
90.056396484375 -91.45458984375 -7.379638671875
29.761962890625 92.9407958984375 16.7713623046875
42.411865234375 -98.375 3.0147705078125
13.1171875 -43.1708984375 5.854248046875
28.57421875 11.2445068359375 -11.1654052734375
42.23095703125 51.107421875 -9.5396728515625
-23.205322265625 14.3377685546875 9.9622802734375
39.136474609375 -78.5302734375 -13.8316650390625
-17.881103515625 -51.904296875 -2.55419921875
6.970947265625 68.9454345703125 23.79833984375
15.897705078125 56.1387939453125 11.5284423828125
25.01708984375 46.08544921875 7.8707275390625
61.98876953125 -98.108154296875 -8.4921875
20.032470703125 63.0484619140625 15.359619140625
-72.709228515625 -33.3154296875 6.3021240234375
2.3447265625 -54.5833740234375 5.954833984375
-20.26953125 -72.53271484375 5.5865478515625
7.641357421875 -59.9322509765625 5.9061279296875
-64.751220703125 -83.9827880859375 2.06298828125
30.672119140625 -15.235107421875 -10.708251953125
-70.88232421875 -41.1497802734375 6.2672119140625
12.383056640625 72.628662109375 26.8389892578125
29.5595703125 96.5238037109375 20.609130859375
-83.569091796875 5.4483642578125 6.114501953125
-60.356689453125 -98.3985595703125 -1.646728515625
18.372802734375 -76.9757080078125 6.0872802734375
21.012451171875 21.1226806640625 9.15380859375
67.255859375 22.4111328125 -9.3309326171875
43.939697265625 -54.902587890625 -14.884521484375
76.45068359375 -7.37744140625 -8.5733642578125
31.741455078125 12.4639892578125 -15.4027099609375
-0.46533203125 -111.3916015625 6.2408447265625
85.62646484375 -88.338623046875 -9.71923828125
-5.05419921875 41.4222412109375 8.7047119140625
-70.36376953125 -84.1551513671875 12.2386474609375
-21.84228515625 -46.103515625 4.6827392578125
26.595458984375 96.1011962890625 29.5313720703125
36.40087890625 -43.1650390625 4.4742431640625
-73.14599609375 -83.525390625 15.6611328125
-25.577392578125 -50.478271484375 6.375
-10.0546875 46.844970703125 19.461181640625
-9.75537109375 56.7376708984375 14.3760986328125
-26.892822265625 -27.350341796875 8.609130859375
34.519287109375 95.8258056640625 21.1717529296875
-16.177001953125 9.8909912109375 10.233642578125
68.281005859375 -2.4818115234375 -5.1187744140625
-52.743408203125 -95.6524658203125 -0.799072265625
-46.556396484375 -94.0263671875 -1.222900390625
16.529541015625 -107.4583740234375 7.22216796875
-55.697998046875 -13.527587890625 6.7293701171875
10.274658203125 -6.59130859375 10.59375
38.837646484375 71.0548095703125 1.7169189453125
-36.9619140625 -42.4844970703125 5.992431640625
-24.40576171875 -58.4232177734375 0.8800048828125
7.609375 22.06640625 9.276611328125
7.91259765625 -107.9564208984375 6.489501953125
22.35302734375 75.283935546875 15.72265625
-43.39306640625 -66.52685546875 6.5634765625
-9.926513671875 14.0745849609375 9.91162109375
-88.655517578125 23.5931396484375 8.8228759765625
-15.158203125 -10.2872314453125 10.92431640625
5.197265625 -114.343994140625 6.04736328125
-105.845458984375 24.53955078125 5.7020263671875
31.63525390625 16.6241455078125 -14.731689453125
-8.52197265625 -9.5460205078125 11.083984375
-20.435546875 -8.2996826171875 11.3282470703125
42.78857421875 -98.3671875 -0.7034912109375
-89.241943359375 11.6339111328125 5.677001953125
40.919921875 82.4559326171875 -2.99853515625
-49.54736328125 -72.032958984375 12.1263427734375
20.7861328125 31.42333984375 11.158935546875
46.83544921875 20.6494140625 -17.970703125
-28.802734375 73.3973388671875 31.032470703125
2.73095703125 -24.77783203125 9.142822265625
37.63427734375 -99.63037109375 -6.4129638671875
-65.7802734375 -22.322998046875 6.8106689453125
-12.64111328125 -4.031982421875 10.794677734375
24.68115234375 -83.067138671875 6.050048828125
16.080322265625 -19.495849609375 11.353759765625
33.90966796875 -16.6929931640625 -13.1431884765625
8.1220703125 56.9281005859375 13.1795654296875
34.3369140625 -106.278076171875 11.79443359375
31.355224609375 -21.5040283203125 10.4019775390625
-68.2958984375 8.7459716796875 4.8980712890625
19.626220703125 -98.025146484375 5.772705078125
40.095703125 55.5712890625 -6.8162841796875
41.94921875 -28.0361328125 5.8294677734375
33.55322265625 -14.023681640625 10.7847900390625
-23.194091796875 68.1522216796875 26.390380859375
-20.20947265625 -44.3798828125 7.4954833984375
22.230224609375 52.5838623046875 8.9285888671875
-27.860595703125 23.133056640625 12.2369384765625
35.95361328125 -29.6280517578125 -17.1209716796875
-24.03173828125 -68.239013671875 6.3126220703125
39.435546875 91.4696044921875 18.1080322265625
87.02294921875 -95.8897705078125 -10.597412109375
-3.483154296875 -76.8900146484375 7.1099853515625
27.275146484375 -3.2454833984375 10.1973876953125
-27.049560546875 -5.1685791015625 10.8031005859375
46.81982421875 -81.210693359375 -12.909912109375
-10.37158203125 49.9715576171875 12.78662109375
-83.57861328125 27.2742919921875 3.918701171875
2.181884765625 -106.673583984375 6.3916015625
1.598876953125 -28.0308837890625 7.404296875
32.695556640625 69.15673828125 0.1812744140625
-18.325927734375 -49.8863525390625 0.466064453125
27.970947265625 -16.0545654296875 10.8172607421875
-22.18408203125 8.6368408203125 10.5306396484375
32.98779296875 -76.8306884765625 5.9237060546875
40.7216796875 -60.68896484375 5.4908447265625
8.078857421875 -88.4493408203125 5.84765625
32.610595703125 -28.9962158203125 6.659423828125
-14.4267578125 35.0919189453125 9.203125
-30.362060546875 -55.2264404296875 6.108642578125
43.406005859375 -27.170654296875 -15.837158203125
-0.20703125 55.3978271484375 12.5538330078125
44.592529296875 -72.7181396484375 4.904541015625
-10.66748046875 -36.2998046875 5.2081298828125
-21.5927734375 73.0933837890625 30.688232421875
77.3994140625 -77.1014404296875 -1.5849609375
-44.58984375 -82.7513427734375 12.011962890625
-38.963623046875 -67.171875 5.8779296875
-20.43310546875 45.08154296875 9.4742431640625
83.103759765625 -103.1689453125 -3.797607421875
-8.073486328125 1.4619140625 10.448974609375
24.511474609375 14.0501708984375 8.7354736328125
27.15185546875 -94.4088134765625 5.67529296875
-8.209228515625 61.945068359375 19.2491455078125
22.859619140625 63.66552734375 13.20263671875
22.634521484375 78.4873046875 12.4769287109375
17.138671875 -42.2137451171875 5.8817138671875
37.795166015625 -81.9197998046875 5.557861328125
44.11083984375 -74.44091796875 -13.8099365234375
-67.12744140625 -82.5426025390625 12.38330078125
68.64892578125 3.6199951171875 -5.9334716796875
29.78662109375 44.8980712890625 -8.4473876953125
44.955810546875 -112.6884765625 -22.642822265625
42.3642578125 -102.0108642578125 7.21435546875
42.2880859375 67.046142578125 -3.509521484375
-20.23095703125 22.28076171875 9.4310302734375
87.457275390625 -74.9267578125 -9.0848388671875
-58.597412109375 -20.6591796875 7.0419921875
34.5751953125 34.2222900390625 -13.0732421875
39.878662109375 89.0780029296875 15.2696533203125
27.48193359375 89.5382080078125 16.059814453125
6.559326171875 -32.0233154296875 5.9779052734375
-11.792724609375 -47.6171875 3.1290283203125
13.703125 -80.5672607421875 8.5205078125
26.823486328125 -90.258544921875 5.2598876953125
32.19775390625 -3.6693115234375 -14.346435546875
31.851318359375 6.1263427734375 -15.8829345703125
-76.073486328125 27.819091796875 4.00634765625
45.045654296875 -12.3109130859375 -19.2347412109375
5.951416015625 53.5914306640625 10.2625732421875
86.543212890625 -84.93310546875 -8.11376953125
-60.810791015625 -48.3585205078125 6.1907958984375
-46.48291015625 -86.388671875 6.5042724609375
-2.477783203125 -86.4168701171875 6.3792724609375
-66.711181640625 1.8690185546875 4.5970458984375
13.21728515625 -65.7998046875 4.6531982421875
-45.864501953125 -40.1302490234375 6.4549560546875
39.267333984375 -32.35693359375 -18.5679931640625
15.182373046875 -54.071533203125 7.229736328125
-9.5517578125 -14.787353515625 11.8077392578125
-71.822998046875 12.654541015625 4.9581298828125
10.937255859375 -75.1341552734375 6.15478515625
31.633056640625 -46.1585693359375 5.396484375
2.27392578125 29.4168701171875 9.2591552734375
71.487548828125 -11.57568359375 -6.3067626953125
33.451416015625 21.1907958984375 -16.123779296875
-28.826416015625 36.505859375 9.442138671875
34.232666015625 -33.1058349609375 -13.943359375
-50.18896484375 -81.8873291015625 6.3543701171875
21.834228515625 -76.215087890625 5.976318359375
74.506591796875 -59.14013671875 -4.172119140625
37.459228515625 49.6787109375 -5.455810546875
44.391357421875 82.4490966796875 -2.303955078125
-19.75 -40.6220703125 -0.7449951171875
23.0908203125 -8.5743408203125 10.4996337890625
22.855712890625 -100.54638671875 6.9248046875
-75.59228515625 -12.0743408203125 7.57861328125
16.419677734375 70.8017578125 13.819580078125
-50.68115234375 -65.6798095703125 9.7725830078125
34.174072265625 14.2054443359375 9.2431640625
-32.34765625 68.767578125 29.2640380859375
43.193359375 -79.55810546875 -14.388427734375
27.28662109375 -7.429931640625 10.172119140625
0.48046875 68.6785888671875 24.7655029296875
-45.089599609375 -78.2823486328125 10.3389892578125
38.12109375 -35.81640625 4.9505615234375
31.254638671875 23.2244873046875 -13.884765625
66.529541015625 30.2694091796875 -0.105224609375
-20.179443359375 66.8270263671875 24.41650390625
-14.325927734375 -29.3175048828125 7.0177001953125
-6.19580078125 -26.819091796875 8.354248046875
35.676513671875 -98.4974365234375 -1.4996337890625
37.183349609375 -20.9844970703125 -17.9310302734375
44.39794921875 -35.7047119140625 -15.2132568359375
-28.05908203125 66.7498779296875 25.18408203125
20.60205078125 69.792724609375 17.0528564453125
17.446533203125 -88.1041259765625 5.4708251953125
4.60302734375 71.9439697265625 27.5306396484375
-56.866943359375 -26.6468505859375 6.18701171875
70.3173828125 -8.0191650390625 -6.100830078125
-1.922119140625 -9.6534423828125 11.0107421875
-63.1259765625 -28.2091064453125 5.9168701171875
25.2158203125 -31.58203125 5.3385009765625
10.3525390625 -78.365234375 7.7694091796875
22.85302734375 72.7755126953125 21.76318359375
31.6220703125 -85.1461181640625 5.83837890625
15.558837890625 -11.4244384765625 10.682861328125
-23.719970703125 41.5255126953125 8.798095703125
-19.260986328125 32.140869140625 11.7508544921875
42.373046875 -63.5513916015625 -15.5419921875
44.76904296875 -98.04052734375 -19.454833984375
-23.96484375 -38.73779296875 8.2691650390625
72.169921875 15.319580078125 -6.0732421875
46.751708984375 -51.56396484375 -15.8333740234375
49.260009765625 -76.8489990234375 -14.833740234375
-66.41943359375 -30.9493408203125 6.0789794921875
37.45751953125 -8.3065185546875 -18.8792724609375
66.689208984375 38.244873046875 -4.1888427734375
-15.313232421875 -47.8853759765625 -6.897216796875
4.357421875 -117.627197265625 6.7777099609375
-10.34423828125 -73.0030517578125 5.7138671875
4.50830078125 -37.380126953125 5.5089111328125
37.191162109375 -115.7626953125 -16.4580078125
5.19775390625 -73.3558349609375 5.9920654296875
67.444580078125 14.376220703125 -3.076904296875
38.57666015625 -101.65283203125 -18.561767578125
-62.4169921875 -93.9144287109375 0.222900390625
4.97802734375 37.00390625 8.52685546875
36.728759765625 -52.6551513671875 -14.902587890625
28.537353515625 59.2652587890625 13.8507080078125
18.15234375 33.9947509765625 9.906005859375
28.21484375 66.129638671875 1.8446044921875
68.6259765625 -104.2762451171875 -0.1494140625
-52.85107421875 -91.3917236328125 2.2041015625
30.06005859375 57.12060546875 11.5576171875
27.217529296875 38.410400390625 8.3419189453125
-64.620849609375 -42.7794189453125 5.655029296875
29.559814453125 35.8497314453125 -9.191162109375
71.5244140625 -104.8370361328125 -16.3255615234375
19.18505859375 38.4359130859375 8.1097412109375
80.176025390625 -95.8157958984375 -8.60205078125
-86.759765625 5.099609375 8.8507080078125
1.2587890625 18.3424072265625 9.625732421875
-99.011962890625 23.2884521484375 5.197509765625
19.17431640625 -82.791015625 6.125732421875
81.604248046875 -97.3197021484375 0.6435546875
78.72265625 -37.4219970703125 -5.8546142578125
28.723388671875 47.653564453125 7.92578125
-7.29345703125 -20.1221923828125 11.185791015625
82.444580078125 -92.140380859375 -8.292724609375
24.542724609375 -44.905029296875 5.7574462890625
15.274658203125 9.756103515625 9.135986328125
-1.83935546875 73.4774169921875 29.3468017578125
71.663818359375 13.979248046875 -9.8309326171875
-103.86181640625 35.5438232421875 4.2647705078125
31.548828125 30.200927734375 -13.440185546875
-40.4013671875 -61.656005859375 3.2520751953125
42.98681640625 14.9462890625 -17.6827392578125
-19.47265625 38.051513671875 9.7557373046875
-66.997802734375 -15.0948486328125 7.6492919921875
32.809814453125 87.8160400390625 11.6612548828125
-72.002197265625 -10.9412841796875 7.1859130859375
46.997314453125 -80.4017333984375 4.7974853515625
41.784423828125 -99.32177734375 -14.7933349609375
39.87548828125 47.4698486328125 -4.57080078125
-16.55126953125 31.9716796875 9.3880615234375
-13.574951171875 42.626220703125 12.9759521484375
-84.5068359375 -0.632080078125 7.8184814453125
-15.065673828125 -44.4373779296875 5.631591796875
-8.81494140625 64.4505615234375 21.87548828125
-96.1826171875 11.9619140625 6.9779052734375
48.300048828125 -25.3319091796875 -20.37841796875
-63.12841796875 -76.5565185546875 12.3709716796875
-56.400146484375 -57.949462890625 7.129638671875
40.5673828125 -34.8594970703125 7.0704345703125
10.334716796875 64.8035888671875 18.009521484375
32.654052734375 0.706298828125 -12.46484375
5.922607421875 68.0533447265625 20.6845703125
39.419921875 -70.8729248046875 -14.767578125
-55.865478515625 -52.4580078125 6.864013671875
31.68505859375 59.7265625 -3.1727294921875
-4.6904296875 44.7508544921875 8.373046875
84.1005859375 -104.046142578125 -7.74462890625
-72.056640625 22.3255615234375 3.3631591796875
26.859375 82.1136474609375 3.841796875
47.09814453125 -102.5640869140625 -22.54443359375
33.068359375 65.0611572265625 -1.903076171875
63.89453125 23.6046142578125 -11.161376953125
79.44873046875 -83.393310546875 -8.12939453125
-19.071044921875 -15.24365234375 11.520263671875
27.191162109375 19.0721435546875 8.7474365234375
35.00634765625 -98.67529296875 -8.37548828125
32.242431640625 74.5289306640625 -0.4310302734375
35.0908203125 -99.897705078125 9.3973388671875
-58.242431640625 -44.87109375 6.390380859375
-1.122802734375 -56.733642578125 5.6915283203125
4.89501953125 62.1026611328125 18.6807861328125
27.1015625 -23.8824462890625 -16.6041259765625
-109.640869140625 26.97509765625 6.63525390625
-21.066162109375 -28.7911376953125 7.5885009765625
21.649658203125 -85.0147705078125 5.8157958984375
6.97314453125 41.5849609375 8.413818359375
-56.624755859375 -80.693603515625 9.3616943359375
35.506103515625 -47.2159423828125 -9.455810546875
7.55322265625 -92.1298828125 5.433837890625
-66.72607421875 -9.2366943359375 7.072021484375
1.185791015625 48.756591796875 8.39453125
37.45947265625 -61.37060546875 -14.4410400390625
70.85546875 -106.5909423828125 -3.80322265625
27.392578125 -80.7447509765625 5.984375
66.75927734375 3.838134765625 -2.2711181640625
34.903076171875 -23.13037109375 -16.3782958984375
12.9912109375 40.060791015625 8.2183837890625
26.538330078125 94.5484619140625 21.06982421875
9.982666015625 -11.83154296875 10.788818359375
-56.361328125 -74.302490234375 12.2490234375
28.59521484375 -19.9735107421875 -16.187744140625
-93.8447265625 30.5518798828125 10.0821533203125
7.30859375 25.5174560546875 9.447021484375
42.20703125 17.86572265625 -16.1248779296875
38.325439453125 66.4429931640625 -2.5286865234375
-10.567626953125 28.8802490234375 9.2178955078125
5.165283203125 -11.6331787109375 11.145263671875
18.24169921875 -54.0865478515625 5.983154296875
26.03173828125 97.2425537109375 26.1754150390625
-26.405517578125 16.029296875 10.08251953125
9.244384765625 50.9423828125 8.75537109375
30.6884765625 29.482666015625 -8.021484375
-4.51904296875 26.2220458984375 9.06884765625
-54.3720703125 -79.669921875 1.8902587890625
47.13720703125 -21.6868896484375 -20.20751953125
-39.179443359375 -78.6868896484375 12.17724609375
-5.997802734375 51.9384765625 9.67041015625
22.001953125 -57.973876953125 -1.056640625
-15.075927734375 27.16259765625 9.288330078125
30.48486328125 -22.617431640625 -11.603759765625
24.929931640625 -39.9615478515625 5.6485595703125
-67.141357421875 -90.0711669921875 6.9718017578125
38.89013671875 95.6739501953125 22.8876953125
-40.557861328125 -82.1309814453125 12.248291015625
29.835693359375 -88.792236328125 5.365234375
-61.47021484375 -14.6766357421875 7.034912109375
-14.91162109375 2.4913330078125 10.8302001953125
45.6806640625 43.17724609375 -11.10595703125
-7.19775390625 -5.150390625 10.619384765625
15.440185546875 15.8082275390625 9.0023193359375
22.516357421875 78.4791259765625 16.41845703125
42.227294921875 26.3150634765625 -16.1820068359375
-14.04345703125 62.1190185546875 20.884033203125
29.084228515625 41.9432373046875 -5.071533203125
15.158447265625 -104.5257568359375 6.7872314453125
-74.04541015625 -91.2572021484375 13.3785400390625
45.2470703125 -28.79248046875 -17.9871826171875
27.149658203125 53.276611328125 8.986328125
6.0166015625 30.7381591796875 8.7681884765625
67.032470703125 40.087158203125 8.35107421875
2.823486328125 -79.105712890625 6.58837890625
43.577880859375 60.1568603515625 -5.264892578125
3.30126953125 64.580078125 20.2191162109375
6.857177734375 -100.47998046875 5.5869140625
42.892822265625 97.6419677734375 23.9805908203125
-21.423095703125 28.1007080078125 9.326904296875
-41.876708984375 -76.4393310546875 11.0687255859375
-27.970703125 -10.5814208984375 11.045654296875
17.309814453125 47.1683349609375 8.072509765625
73.181396484375 -50.6439208984375 -3.781005859375
46.295654296875 -39.7305908203125 -17.1793212890625
31.300537109375 80.9051513671875 -3.0238037109375
20.584716796875 16.2930908203125 9.154052734375
48.959228515625 -97.8331298828125 -11.7498779296875
10.82177734375 69.4378662109375 17.4559326171875
44.28955078125 86.9620361328125 2.3924560546875
42.54150390625 71.2706298828125 -0.1636962890625
