63.674072265625 12.16845703125 -5.1309814453125
59.427490234375 40.6715087890625 -0.22998046875
-9.289794921875 40.9481201171875 21.6019287109375
27.37255859375 32.8773193359375 21.474609375
65.271484375 -104.402587890625 -8.732421875
46.379150390625 27.795654296875 23.4976806640625
53.280029296875 -39.90234375 14.495849609375
-45.81787109375 -84.51318359375 15.1885986328125
5.208740234375 12.9373779296875 22.0535888671875
-67.403564453125 24.6739501953125 14.230712890625
32.5048828125 -62.91162109375 11.349609375
-1.199462890625 -49.2296142578125 5.111572265625
46.667236328125 1.806396484375 22.6092529296875
45.297119140625 4.39501953125 0.52490234375
-58.58154296875 -24.51416015625 18.7418212890625
-27.130126953125 -61.6314697265625 12.4114990234375
-7.200439453125 -35.3936767578125 19.3155517578125
47.748779296875 -112.1669921875 -1.23046875
4.2353515625 38.7586669921875 21.11376953125
59.765625 -96.198486328125 -1.66845703125
-59.693115234375 -14.1715087890625 18.4224853515625
20.473876953125 23.319091796875 22.013916015625
11.11767578125 43.643798828125 21.3592529296875
87.338134765625 -24.5572509765625 8.35546875
-48.154541015625 -88.5936279296875 11.068115234375
-0.37744140625 -40.9384765625 18.380615234375
47.859375 38.3009033203125 20.800537109375
65.56982421875 -6.9542236328125 -7.0732421875
39.713134765625 15.6536865234375 -2.79248046875
63.559326171875 -105.283447265625 -3.3251953125
54.921875 -76.27197265625 0.0595703125
12.5703125 6.4910888671875 22.364013671875
-27.025146484375 -49.77001953125 18.406005859375
-45.09619140625 -40.2275390625 17.8529052734375
47.63525390625 -46.3804931640625 17.691162109375
64.455322265625 -47.6571044921875 -3.291259765625
-15.374755859375 -50.15673828125 18.275634765625
-71.7451171875 25.2879638671875 18.3636474609375
23.49755859375 10.1287841796875 22.34716796875
103.010498046875 -81.06396484375 4.6363525390625
54.406494140625 -65.4910888671875 -1.8211669921875
78.775634765625 -107.61279296875 7.5660400390625
47.951171875 11.7462158203125 1.08154296875
-2.309326171875 -59.8990478515625 7.718994140625
43.873291015625 -64.952880859375 15.8192138671875
-34.315673828125 -87.919921875 12.531982421875
-76.9873046875 24.4881591796875 14.71875
46.934814453125 -116.667724609375 4.6990966796875
-37.19775390625 -46.564697265625 17.671142578125
53.13916015625 -41.431884765625 -2.6146240234375
6.794189453125 25.52490234375 21.8121337890625
-12.368896484375 -41.4342041015625 18.9151611328125
48.47412109375 -52.1650390625 2.59716796875
60.572509765625 -11.3624267578125 -2.7816162109375
-48.87060546875 -47.562255859375 18.419189453125
83.709228515625 -11.4468994140625 8.60791015625
25.8974609375 27.508544921875 21.4383544921875
53.6572265625 -104.7822265625 -1.0059814453125
3.786376953125 42.994140625 27.2720947265625
-13.558837890625 30.8431396484375 22.004638671875
90.401123046875 -80.616455078125 12.6297607421875
107.111328125 -90.3260498046875 4.10693359375
-5.04150390625 -51.1380615234375 9.482421875
56.820068359375 -36.890625 -6.6746826171875
-31.294677734375 -98.5458984375 12.024169921875
41.050048828125 -43.4730224609375 18.06591796875
-39.95654296875 -35.088134765625 16.964111328125
-38.86962890625 -98.2884521484375 13.4935302734375
55.828125 -106.0048828125 10.0589599609375
-4.08154296875 -49.4605712890625 14.8526611328125
53.46826171875 26.445556640625 -1.6138916015625
58.049072265625 -113.2677001953125 -8.6268310546875
55.19677734375 -70.7379150390625 -2.581787109375
-36.989013671875 -52.71435546875 18.1417236328125
39.372802734375 2.1256103515625 22.7655029296875
-51.91064453125 -10.5196533203125 17.360595703125
17.640380859375 14.092529296875 22.4093017578125
1.7001953125 1.1385498046875 22.72265625
10.26904296875 -40.7679443359375 18.5848388671875
-46.062744140625 -29.397705078125 17.9906005859375
54.885009765625 -98.989013671875 2.0166015625
19.283447265625 -43.30517578125 18.2705078125
-7.673583984375 -2.703125 23.049560546875
-72.824462890625 2.0537109375 18.593017578125
-50.90478515625 -21.470703125 19.357177734375
29.453125 -41.018310546875 18.47314453125
70.283203125 -101.22802734375 4.5594482421875
65.75048828125 -112.112548828125 -8.3472900390625
-18.381591796875 -64.850341796875 8.9033203125
58.567626953125 14.8577880859375 -2.7254638671875
-77.997802734375 20.5218505859375 17.645751953125
17.720703125 48.3092041015625 23.0400390625
-51.95361328125 -37.4639892578125 17.609619140625
62.355712890625 -55.3974609375 13.76123046875
32.105712890625 10.7493896484375 22.222412109375
48.060791015625 -104.4503173828125 7.957275390625
53.996337890625 5.81982421875 -5.0614013671875
-69.4150390625 -7.68701171875 18.4375
62.277587890625 -53.029296875 -4.0506591796875
57.0185546875 -62.037353515625 -4.23095703125
-72.392822265625 22.72705078125 14.150634765625
61.345947265625 -44.0460205078125 -4.572021484375
56.229736328125 -51.2550048828125 13.78759765625
94.51904296875 -86.513427734375 7.617919921875
10.069091796875 20.5982666015625 21.926513671875
32.315185546875 19.5732421875 21.94677734375
47.434814453125 9.15234375 22.157958984375
53.9267578125 -116.585693359375 -4.14892578125
10.07080078125 -45.64013671875 18.382568359375
-13.327880859375 -0.439697265625 22.7342529296875
50.09814453125 -4.3392333984375 -3.868896484375
99.35107421875 -102.234619140625 7.3297119140625
-43.083984375 -86.14306640625 10.9718017578125
-77.0673828125 15.21484375 15.5867919921875
-27.888427734375 -66.464599609375 10.9849853515625
58.5869140625 21.7476806640625 -3.112548828125
-85.826904296875 27.2247314453125 16.75048828125
24.86279296875 63.5018310546875 -21.455810546875
-56.241943359375 -44.4300537109375 18.1619873046875
54.786865234375 -19.681640625 -6.7396240234375
96.909423828125 -75.675537109375 8.2412109375
-9.021240234375 23.19677734375 21.7579345703125
-2.012939453125 15.62548828125 21.8878173828125
30.413330078125 41.1373291015625 21.3192138671875
61.483642578125 -1.3504638671875 -4.7177734375
-42.761474609375 -18.5784912109375 18.5037841796875
-57.90625 -29.1956787109375 18.0728759765625
58.68359375 31.5968017578125 -2.804443359375
63.805419921875 -99.673583984375 0.664794921875
-66.2734375 -2.1651611328125 17.1396484375
55.7548828125 -91.8582763671875 -1.168701171875
-56.12109375 6.2767333984375 14.66552734375
58.234375 -114.1265869140625 -3.8424072265625
7.96630859375 48.1256103515625 23.1202392578125
17.2294921875 27.54931640625 21.3353271484375
54.749755859375 -107.25634765625 -4.999755859375
-9.788330078125 -66.8011474609375 11.2305908203125
-71.795654296875 7.6895751953125 16.329833984375
37.5751953125 -58.641845703125 16.4234619140625
97.36376953125 -82.2425537109375 6.6929931640625
-60.964111328125 -33.7593994140625 17.671630859375
42.65478515625 29.8638916015625 21.578125
-5.0693359375 -65.2757568359375 9.7530517578125
40.507080078125 10.40185546875 22.2059326171875
-36.530029296875 -27.8804931640625 17.36279296875
59.08984375 -24.1495361328125 -5.5772705078125
89.81787109375 -72.5384521484375 9.6114501953125
-82.048583984375 23.7032470703125 14.4652099609375
1.118408203125 -50.1724853515625 13.7325439453125
67.978271484375 -58.2318115234375 -1.6629638671875
100.44091796875 -90.3345947265625 6.1328125
-9.89990234375 8.2061767578125 22.1524658203125
54.57568359375 -81.3487548828125 2.0953369140625
-68.749755859375 14.962646484375 14.45263671875
-59.4453125 -5.14111328125 17.2630615234375
19.603271484375 -47.863037109375 18.0137939453125
90.563720703125 -57.82470703125 8.060791015625
-4.89990234375 -45.05810546875 16.373046875
-28.125244140625 -60.979248046875 17.347900390625
60.764404296875 -103.794189453125 -8.6929931640625
22.72119140625 34.3189697265625 21.27880859375
-56.7578125 1.5264892578125 16.097900390625
58.09619140625 -86.6492919921875 -3.045654296875
42.95654296875 -35.8350830078125 11.62744140625
56.483642578125 34.962890625 -0.332275390625
50.458984375 33.0830078125 1.7906494140625
51.23193359375 -11.4481201171875 -5.2313232421875
12.87646484375 -4.2530517578125 22.568115234375
-18.423583984375 -40.4691162109375 18.78662109375
30.739501953125 -45.3082275390625 17.9881591796875
-92.845947265625 29.5682373046875 15.416015625
-39.947265625 -89.5875244140625 12.7459716796875
50.608154296875 -118.873291015625 -6.0972900390625
0.66943359375 -3.2135009765625 22.8748779296875
93.863525390625 -97.58203125 3.3692626953125
-5.192626953125 34.9697265625 21.5926513671875
15.826416015625 -34.4935302734375 19.3861083984375
49.515869140625 17.1483154296875 -2.8106689453125
62.5439453125 7.9556884765625 -5.9493408203125
38.96484375 34.894775390625 21.3773193359375
60.631591796875 -29.2119140625 -4.95654296875
62.412841796875 24.1383056640625 -4.574462890625
-42.563720703125 -50.4853515625 18.4599609375
86.371337890625 -109.963623046875 10.2672119140625
17.351318359375 32.33251953125 21.5419921875
41.249755859375 19.045166015625 21.9393310546875
36.814697265625 -63.2845458984375 12.833740234375
47.741455078125 -48.0386962890625 3.81494140625
47.801513671875 -107.8411865234375 -1.7998046875
86.7900390625 -62.9407958984375 11.0438232421875
31.624755859375 40.3392333984375 -11.512451171875
-12.846435546875 -47.170166015625 16.361328125
1.939208984375 48.648193359375 26.98046875
54.29443359375 -47.1842041015625 -4.9874267578125
55.052490234375 41.77490234375 2.421142578125
53.600341796875 -25.187744140625 -5.9593505859375
90.819091796875 -67.3641357421875 7.7042236328125
-49.9375 -31.23046875 17.35888671875
61.1533203125 -39.7974853515625 -3.9578857421875
3.635986328125 8.91845703125 22.1912841796875
-5.771240234375 -52.0185546875 17.8619384765625
-33.64208984375 -38.3326416015625 17.5908203125
44.827880859375 -120.06689453125 3.1907958984375
-3.29248046875 -52.9365234375 5.4178466796875
14.246337890625 38.6148681640625 21.2705078125
47.785400390625 -27.2716064453125 13.87060546875
46.956787109375 -32.7109375 10.1097412109375
-4.5205078125 22.895751953125 21.593994140625
35.458984375 25.7142333984375 23.97265625
56.13623046875 -32.279052734375 -7.1292724609375
23.966064453125 3.064208984375 22.496826171875
34.653564453125 -59.4248046875 12.3255615234375
7.241943359375 42.0823974609375 20.8441162109375
-27.6806640625 -45.6170654296875 18.6129150390625
-20.818603515625 -58.6737060546875 15.9718017578125
30.71435546875 -2.9276123046875 22.35888671875
-52.237548828125 -93.8521728515625 11.587890625
-3.26953125 29.8751220703125 21.4583740234375
1.94921875 30.577392578125 21.6412353515625
91.31298828125 -76.4364013671875 9.7039794921875
-91.24609375 21.4114990234375 15.1368408203125
-80.272216796875 7.67236328125 16.6182861328125
43.0703125 -37.92822265625 18.5821533203125
22.605224609375 42.7264404296875 21.1800537109375
45.98876953125 8.707763671875 -0.961181640625
50.368896484375 2.5675048828125 -4.087890625
-44.208984375 -98.1295166015625 13.5447998046875
32.49755859375 3.4246826171875 22.8092041015625
43.271240234375 -45.454345703125 6.482421875
56.20458984375 -52.1881103515625 -5.8101806640625
2.770263671875 24.193359375 21.818115234375
64.765380859375 -2.3817138671875 -6.9661865234375
59.949951171875 5.547119140625 -3.7320556640625
21.7568359375 38.5408935546875 21.4088134765625
49.093994140625 15.743408203125 21.3468017578125
8.749267578125 16.728271484375 21.7276611328125
-61.38037109375 11.643798828125 14.8702392578125
8.47509765625 1.860107421875 22.62744140625
-43.30078125 -25.862548828125 18.5831298828125
-23.810302734375 -47.168701171875 18.702392578125
55.692626953125 -83.3048095703125 -1.6976318359375
57.816162109375 -2.290283203125 -3.26904296875
31.52294921875 -63.651123046875 16.1513671875
-65.961669921875 -17.0892333984375 18.9066162109375
60.86767578125 -15.3983154296875 -2.6484375
-63.966552734375 -12.6417236328125 17.8916015625
16.214599609375 4.7613525390625 22.6075439453125
67.182861328125 -25.8353271484375 -6.18603515625
-79.87255859375 26.6796875 18.3311767578125
33.8388671875 -38.1318359375 18.6468505859375
47.394287109375 24.1436767578125 22.1484375
8.296630859375 9.986572265625 22.1968994140625
-60.066650390625 -18.1201171875 19.035888671875
-11.228759765625 14.5758056640625 21.848876953125
39.23046875 25.427978515625 21.96875
-62.974609375 3.0465087890625 16.0938720703125
45.203857421875 19.3277587890625 21.401123046875
92.227294921875 -83.09619140625 7.9739990234375
41.38330078125 -39.017578125 6.7794189453125
0.842041015625 40.76904296875 21.6033935546875
65.162353515625 -61.338623046875 -1.9764404296875
47.183837890625 -37.3111572265625 17.3658447265625
71.338623046875 -104.931884765625 3.63232421875
63.84326171875 -16.7105712890625 -5.9500732421875
0.260009765625 37.61962890625 24.8218994140625
32.835205078125 -66.9769287109375 11.769775390625
47.40966796875 25.48095703125 0.6796875
-9.90380859375 36.4144287109375 21.558837890625
-35.229248046875 -42.7421875 17.17333984375
40.6689453125 14.8359375 22.47705078125
23.699462890625 19.91357421875 22.129150390625
56.458740234375 -78.6431884765625 -2.6734619140625
53.169921875 -56.549560546875 -0.2301025390625
96.236328125 -100.991943359375 11.2274169921875
99.242919921875 -106.049560546875 6.44580078125
52.658935546875 -49.9654541015625 -0.8704833984375
36.406005859375 9.806884765625 22.5372314453125
102.28515625 -100.367919921875 4.5712890625
49.095703125 11.038818359375 -2.6270751953125
0.13427734375 -61.514892578125 5.122314453125
-6.937744140625 1.988525390625 22.550048828125
-2.815673828125 -37.5303955078125 18.47216796875
-62.606201171875 -24.9176025390625 18.532470703125
24.10498046875 -0.8323974609375 22.731201171875
27.69775390625 10.5313720703125 22.1964111328125
53.093994140625 -29.345947265625 -6.0408935546875
24.75390625 -36.2967529296875 19.0196533203125
57.122802734375 -108.7078857421875 -8.7794189453125
36.869384765625 38.14990234375 21.4027099609375
20.0654296875 5.122314453125 22.7122802734375
-54.127197265625 -40.8885498046875 17.842529296875
40.47705078125 -63.08251953125 11.644775390625
-37.56591796875 -93.4937744140625 13.4580078125
3.770263671875 34.950439453125 21.292724609375
62.807373046875 -22.23095703125 -4.4307861328125
32.486083984375 14.8433837890625 22.0308837890625
-51.105224609375 -15.1734619140625 18.1527099609375
88.6103515625 -48.5078125 7.95947265625
1.654296875 4.946044921875 22.4931640625
-10.0205078125 -62.3447265625 16.8829345703125
-10.105224609375 -45.7423095703125 18.5855712890625
62.514404296875 -105.0958251953125 0.3316650390625
1.736572265625 15.00732421875 21.9315185546875
57.2509765625 -110.1116943359375 -4.85400390625
-23.853271484375 -59.72509765625 10.66162109375
12.688232421875 17.8565673828125 22.1446533203125
68.435791015625 -105.39794921875 -0.2069091796875
56.03076171875 -105.0211181640625 6.3116455078125
-48.63330078125 -98.774658203125 10.428955078125
27.404541015625 47.2547607421875 -13.02099609375
-3.55712890625 -56.4591064453125 8.63720703125
-64.5185546875 6.812744140625 16.091552734375
29.6787109375 35.796142578125 20.87158203125
-55.364501953125 -26.4324951171875 18.3475341796875
-54.4833984375 -22.1556396484375 18.45947265625
-62.076904296875 18.2872314453125 14.2783203125
57.635009765625 -12.466796875 -4.824951171875
-57.0009765625 -2.487548828125 16.1796875
103.53271484375 -85.433349609375 4.239990234375
62.399658203125 -9.3724365234375 -5.36767578125
4.320556640625 41.683837890625 23.435302734375
53.311279296875 -38.6138916015625 -5.057861328125
-10.762451171875 27.8167724609375 22.6376953125
-52.814453125 -99.8931884765625 11.8497314453125
51.41748046875 -115.1080322265625 -1.82958984375
-60.619140625 -10.2677001953125 18.0103759765625
52.339111328125 -31.139892578125 -2.1925048828125
9.429931640625 34.24462890625 21.1466064453125
15.74609375 -1.2576904296875 22.5091552734375
-10.453125 -37.0106201171875 18.4364013671875
-43.19677734375 -33.287841796875 16.837646484375
-3.010009765625 -3.6419677734375 22.8582763671875
-38.9189453125 -101.0909423828125 11.07421875
52.931396484375 -103.6676025390625 -4.970703125
2.34228515625 -44.713134765625 18.55859375
103.94873046875 -89.249755859375 6.531005859375
23.306396484375 60.9659423828125 -19.2314453125
61.56005859375 -52.516845703125 16.0538330078125
35.823486328125 -41.228515625 18.4522705078125
14.736328125 34.9697265625 21.329345703125
65.193115234375 -30.8453369140625 -4.897705078125
-56.338623046875 -12.2933349609375 17.828857421875
-1.6435546875 -67.0240478515625 10.329833984375
58.63330078125 -103.7557373046875 -4.92236328125
-64.6748046875 22.0223388671875 13.441650390625
93.049072265625 -88.276611328125 11.82763671875
-20.366455078125 -45.975830078125 18.472412109375
-48.52392578125 -11.6431884765625 16.5858154296875
108.864501953125 -99.5299072265625 6.605224609375
23.1259765625 46.9898681640625 21.809814453125
-83.882568359375 15.683837890625 16.1346435546875
-11.732177734375 -68.5538330078125 14.7611083984375
-89.913818359375 25.4613037109375 14.5736083984375
14.169921875 10.0465087890625 22.1961669921875
-41.941162109375 -38.835205078125 16.744873046875
48.2041015625 -108.0406494140625 7.526123046875
-68.90576171875 21.31689453125 14.5224609375
-77.55126953125 11.6656494140625 16.079833984375
9.651611328125 29.5780029296875 21.3946533203125
13.163330078125 -43.197265625 18.3828125
61.761474609375 28.5933837890625 -3.1700439453125
14.6416015625 42.9102783203125 21.1185302734375
-1.339599609375 6.9088134765625 22.292236328125
33.09716796875 23.6593017578125 22.2255859375
56.2744140625 2.9940185546875 -3.842529296875
47.734375 21.7999267578125 1.5211181640625
30.870849609375 32.256591796875 21.054931640625
51.685546875 20.0400390625 -2.35302734375
29.94091796875 44.7027587890625 21.345458984375
65.944091796875 -38.00341796875 -4.9083251953125
-84.647705078125 20.64208984375 15.124267578125
55.40283203125 -58.4251708984375 -3.987060546875
-1.2490234375 -45.93310546875 6.787353515625
27.25048828125 17.9300537109375 22.1661376953125
97.083984375 -94.552734375 7.259521484375
53.775146484375 -64.7203369140625 1.5494384765625
55.445068359375 22.087158203125 -1.5841064453125
47.073974609375 34.903564453125 21.1795654296875
-32.34765625 -45.4437255859375 18.6790771484375
-53.404541015625 -29.493896484375 17.4779052734375
45.452392578125 31.740478515625 22.5263671875
17.796630859375 40.11279296875 21.33837890625
-6.3115234375 -47.5462646484375 18.375732421875
22.529541015625 26.651123046875 21.7723388671875
-46.036865234375 -44.5740966796875 17.6497802734375
-3.04296875 -62.7509765625 11.848876953125
87.993896484375 -71.78955078125 13.2078857421875
-39.309814453125 -86.6392822265625 11.0074462890625
-4.82861328125 -45.9686279296875 13.0201416015625
49.4326171875 26.839111328125 24.8424072265625
65.734619140625 -103.5286865234375 -5.4056396484375
9.24658203125 -1.51953125 22.46875
54.94384765625 -115.9918212890625 -0.890625
53.3994140625 10.5697021484375 -4.76123046875
-51.67724609375 -1.5977783203125 16.2913818359375
46.51025390625 -25.244384765625 16.669921875
4.400390625 28.0205078125 21.7689208984375
-51.8662109375 -50.86474609375 18.2718505859375
-1.00439453125 37.281005859375 21.3995361328125
51.768310546875 -18.0455322265625 -4.6898193359375
106.4248046875 -96.0589599609375 6.245361328125
54.134765625 -103.4058837890625 2.4710693359375
-20.297119140625 -63.4482421875 11.38916015625
47.66259765625 -104.21533203125 -0.6539306640625
-69.49658203125 1.73779296875 16.0687255859375
8.785400390625 -36.7083740234375 18.665771484375
98.939697265625 -78.8724365234375 6.9803466796875
24.41162109375 31.0489501953125 21.501953125
20.90185546875 12.3543701171875 22.1837158203125
39.120361328125 6.576171875 22.5574951171875
-65.422119140625 14.79443359375 15.2296142578125
50.922607421875 -4.2384033203125 -0.5523681640625
51.03662109375 9.4835205078125 21.7821044921875
56.197265625 -23.332275390625 -7.1973876953125
25.033935546875 13.2755126953125 22.0616455078125
51.43115234375 -104.133056640625 7.604248046875
43.34716796875 1.0809326171875 22.6043701171875
60.881103515625 14.39599609375 -5.1695556640625
-62.691650390625 -4.1614990234375 17.4307861328125
57.087890625 -6.6563720703125 -4.267578125
-46.475830078125 -85.67333984375 11.408447265625
26.5888671875 -39.247802734375 18.73681640625
-57.440673828125 9.233154296875 15.625244140625
-3.4873046875 9.63720703125 21.91162109375
-25.0166015625 -59.375732421875 14.6466064453125
-67.990478515625 7.68505859375 15.833251953125
11.42626953125 46.8865966796875 22.1690673828125
56.897216796875 28.472900390625 -0.595703125
56.3662109375 -99.7259521484375 -1.2431640625
50.804443359375 -8.14208984375 -5.054931640625
24.877197265625 24.28173828125 21.6422119140625
86.66650390625 -34.77685546875 8.76123046875
54.13818359375 -10.5750732421875 -6.881103515625
38.4912109375 -1.0689697265625 22.5391845703125
-39.99853515625 -25.7247314453125 18.302001953125
26.7880859375 42.6453857421875 21.0880126953125
53.783203125 34.29296875 2.5703125
14.730224609375 46.9346923828125 22.3988037109375
50.22119140625 30.30712890625 24.447021484375
29.245849609375 24.040771484375 21.6373291015625
5.451904296875 0.545166015625 22.6824951171875
2.200927734375 -38.889892578125 18.430908203125
71.684326171875 -103.9881591796875 -2.6014404296875
32.775390625 38.8482666015625 21.188232421875
54.114990234375 -50.256103515625 -3.8426513671875
47.216064453125 -115.257568359375 -0.2816162109375
-0.084228515625 -52.32666015625 5.3868408203125
-49.477783203125 -89.30712890625 14.191650390625
59.898681640625 -116.9942626953125 -9.369873046875
38.193359375 18.240966796875 22.7525634765625
-48.5986328125 -86.188232421875 14.873046875
56.559326171875 -96.1629638671875 -1.072509765625
-74.868408203125 26.19580078125 18.4420166015625
-12.406494140625 21.1622314453125 21.74658203125
-34.483642578125 -98.5411376953125 11.4176025390625
74.402099609375 -103.4732666015625 3.7354736328125
44.34912109375 -40.231689453125 7.2586669921875
55.871337890625 38.301513671875 0.2713623046875
63.0166015625 -96.0169677734375 -0.1812744140625
-65.52734375 1.0745849609375 16.36474609375
50.677978515625 -104.73193359375 2.5615234375
51.759521484375 -14.8779296875 -5.3258056640625
14.96630859375 22.71875 21.7386474609375
18.359130859375 -38.48291015625 18.5164794921875
14.30810546875 13.9395751953125 21.6302490234375
109.20849609375 -97.702392578125 3.956787109375
-28.081298828125 -64.440185546875 13.6610107421875
-69.197998046875 11.4124755859375 15.6004638671875
48.52783203125 -120.38427734375 0.9901123046875
-42.773681640625 -84.9586181640625 14.2838134765625
62.390625 -61.13623046875 -3.55322265625
53.557373046875 -4.2841796875 -6.272705078125
88.3203125 -41.781494140625 7.7425537109375
-74.006103515625 20.0269775390625 14.96142578125
-44.533935546875 -47.962890625 18.0618896484375
65.172119140625 -44.5821533203125 -3.2181396484375
46.845947265625 -108.94580078125 1.7425537109375
-37.396484375 -36.850830078125 17.5081787109375
2.32177734375 19.780029296875 21.974365234375
-37.297119140625 -49.552978515625 18.6683349609375
33.014404296875 -42.6527099609375 18.3404541015625
40.935302734375 -40.3424072265625 17.7744140625
23.721923828125 6.195556640625 22.668212890625
-47.74755859375 -26.810546875 18.5882568359375
62.868896484375 -113.23974609375 -8.9017333984375
-35.896728515625 -90.487060546875 11.658203125
8.33935546875 13.14892578125 22.0289306640625
51.887939453125 28.5596923828125 0.07958984375
-41.06982421875 -41.696533203125 17.685302734375
45.260986328125 -45.01123046875 2.931884765625
91.727783203125 -48.7147216796875 7.8526611328125
61.50537109375 21.1685791015625 -4.9307861328125
-77.01513671875 17.6395263671875 18.327880859375
50.510986328125 25.0245361328125 -1.447998046875
12.519775390625 -38.2650146484375 18.2740478515625
-3.010498046875 -43.4334716796875 18.20947265625
-4.03076171875 -49.748046875 6.248046875
-3.992919921875 3.7996826171875 22.5234375
-18.6474609375 -60.9786376953125 13.7205810546875
58.170166015625 43.8006591796875 0.257568359375
-35.385498046875 -30.64208984375 16.6319580078125
57.151123046875 -17.752685546875 -6.3515625
88.6630859375 -55.4698486328125 8.5537109375
22.157958984375 -39.96435546875 18.7823486328125
103.63623046875 -97.52685546875 5.84326171875
-18.14013671875 -59.397216796875 17.247314453125
46.420166015625 -106.9854736328125 4.343505859375
-68.2294921875 -10.525390625 18.6661376953125
-58.060302734375 -33.1385498046875 16.9693603515625
-10.6669921875 -3.0810546875 22.53271484375
-28.467041015625 -41.8306884765625 18.6121826171875
0.56884765625 -58.505126953125 4.70458984375
48.503173828125 -103.7535400390625 4.4390869140625
61.341796875 -55.9014892578125 -4.3006591796875
-5.41552734375 38.2628173828125 21.098876953125
66.356689453125 -10.5902099609375 -7.0087890625
-59.33642578125 19.864990234375 13.6722412109375
-40.987060546875 -101.1810302734375 13.3238525390625
-56.518798828125 -36.5985107421875 17.538330078125
-72.7919921875 15.852294921875 15.236572265625
101.75537109375 -82.8057861328125 7.00537109375
58.325927734375 -44.973388671875 -6.0142822265625
-94.0791015625 21.1317138671875 16.109375
109.01513671875 -92.3114013671875 2.9005126953125
64.089599609375 -107.1502685546875 -8.488037109375
9.61376953125 26.518310546875 21.5579833984375
-87.5419921875 27.4124755859375 14.2403564453125
-2.986328125 25.9007568359375 21.3204345703125
-2.693115234375 -62.94921875 8.885009765625
-59.99365234375 2.95849609375 16.2984619140625
19.05126953125 17.80029296875 22.0670166015625
51.968505859375 -107.745849609375 -4.0323486328125
-55.757568359375 -15.1502685546875 18.45947265625
105.272216796875 -82.5198974609375 5.924072265625
-54.83642578125 -94.123291015625 13.024658203125
58.1875 -34.09716796875 -5.9581298828125
61.60791015625 -103.9703369140625 -5.154541015625
88.081298828125 -69.238525390625 10.470947265625
48.189697265625 3.7108154296875 0.4537353515625
58.19482421875 17.7569580078125 -1.3560791015625
60.005859375 -104.6834716796875 -1.600341796875
61.091064453125 2.6644287109375 -4.9228515625
44.689208984375 -34.4285888671875 9.2596435546875
67.701416015625 -102.862060546875 3.5555419921875
35.091796875 28.8314208984375 24.049560546875
-51.804443359375 -96.9324951171875 11.9769287109375
111.091552734375 -99.8817138671875 4.6893310546875
48.6953125 -43.635498046875 17.9989013671875
12.819091796875 28.844482421875 21.3121337890625
59.402099609375 37.0306396484375 -1.5618896484375
88.51611328125 -59.7952880859375 8.8416748046875
-2.931884765625 -51.4051513671875 17.3746337890625
56.609130859375 -117.5743408203125 -4.8433837890625
7.110107421875 37.9609375 21.3592529296875
67.012451171875 -55.7117919921875 -2.822998046875
56.072021484375 14.446044921875 -1.234130859375
32.6318359375 -61.2333984375 13.7550048828125
-84.25537109375 26.1328125 14.5289306640625
32.60498046875 7.8634033203125 22.3458251953125
3.564453125 46.0120849609375 25.537841796875
-10.635498046875 11.0517578125 22.1949462890625
-52.043212890625 -44.7095947265625 17.7213134765625
39.846435546875 21.5928955078125 22.0328369140625
48.002197265625 -117.9609375 7.065673828125
43.748291015625 6.7733154296875 1.1138916015625
6.89794921875 22.6453857421875 21.5582275390625
-53.32763671875 -13.342529296875 17.902099609375
-44.47021484375 -16.05322265625 18.3997802734375
49.82958984375 -1.5867919921875 -3.0296630859375
9.2939453125 5.4527587890625 22.15625
61.05224609375 -32.021240234375 -4.44189453125
7.392578125 -40.932861328125 18.447998046875
3.08056640625 -41.6341552734375 18.49365234375
67.288330078125 -104.1572265625 -2.5401611328125
99.658935546875 -93.106201171875 6.1181640625
85.5634765625 -55.150390625 9.353759765625
57.044189453125 -9.4718017578125 -4.8583984375
-71.909912109375 3.9967041015625 16.67919921875
35.4453125 -65.7901611328125 11.5638427734375
-32.40283203125 -92.1580810546875 11.1451416015625
53.87109375 2.33447265625 -5.2686767578125
10.105712890625 23.6973876953125 21.7608642578125
-9.771240234375 33.5560302734375 21.3944091796875
37.96923828125 -43.0599365234375 17.9591064453125
51.102294921875 25.939208984375 20.9688720703125
-14.614013671875 33.47412109375 21.6025390625
-90.2216796875 18.873779296875 15.97802734375
-77.9052734375 8.81298828125 15.484619140625
26.8544921875 2.8018798828125 22.611083984375
4.6484375 -50.583251953125 17.945068359375
-12.74267578125 8.238525390625 22.4617919921875
-25.34814453125 -63.8704833984375 11.0679931640625
56.551025390625 -112.7333984375 -1.99853515625
-51.1162109375 -18.6226806640625 19.2489013671875
57.53173828125 -69.17724609375 -3.067138671875
-0.459228515625 -49.305419921875 15.93896484375
-54.4892578125 4.4583740234375 16.1212158203125
26.556884765625 35.93603515625 21.0135498046875
81.4111328125 -3.68505859375 9.0911865234375
43.904541015625 -51.4376220703125 5.5177001953125
-51.845458984375 -91.0386962890625 11.589599609375
49.38525390625 1.7113037109375 21.7974853515625
-7.502197265625 27.9649658203125 24.1729736328125
-4.3994140625 -53.3582763671875 12.6639404296875
22.319091796875 64.8963623046875 -20.61572265625
85.44140625 -26.656494140625 8.5267333984375
55.1298828125 -79.122314453125 0.4339599609375
-3.274658203125 13.0899658203125 21.9461669921875
55.07275390625 -54.6224365234375 -4.9122314453125
-6.30078125 -44.416259765625 18.7423095703125
65.639404296875 -28.1978759765625 -5.7728271484375
61.717041015625 -48.9246826171875 -4.4874267578125
-87.7373046875 20.22900390625 15.7672119140625
57.811767578125 -39.4720458984375 -6.130859375
3.210693359375 39.326416015625 24.8828125
32.380615234375 -64.5731201171875 13.631103515625
46.88330078125 -40.632568359375 6.0986328125
64.733154296875 -33.6099853515625 -4.6719970703125
-61.999755859375 -16.16650390625 18.4588623046875
53.252685546875 -21.9971923828125 -6.3338623046875
58.54248046875 -77.466064453125 -4.8316650390625
-38.684814453125 -31.3011474609375 17.59619140625
-34.895263671875 -94.98388671875 13.301025390625
55.668212890625 -74.4881591796875 -2.760986328125
-66.10693359375 -4.8563232421875 17.910400390625
4.2216796875 48.33984375 23.5655517578125
58.108154296875 -91.956787109375 -2.669677734375
-28.047119140625 -67.1904296875 14.138671875
54.699462890625 -42.8709716796875 -5.647216796875
-81.3037109375 15.016357421875 15.3170166015625
-3.147705078125 -40.6556396484375 18.3660888671875
45.849609375 11.4383544921875 22.043212890625
4.51171875 3.152587890625 22.5206298828125
-8.707275390625 24.5091552734375 24.1807861328125
-56.84716796875 -6.0833740234375 17.49072265625
57.10595703125 -115.8687744140625 -8.7567138671875
-4.919189453125 -48.5157470703125 11.9407958984375
15.154052734375 1.4273681640625 22.8175048828125
57.51220703125 24.94384765625 -1.826416015625
-40.004638671875 -49.6729736328125 17.814453125
-79.611572265625 25.1424560546875 14.1763916015625
27.30419921875 29.876708984375 21.5535888671875
60.809326171875 -8.7247314453125 -2.0224609375
-4.396240234375 18.6680908203125 21.8719482421875
54.00732421875 -72.2376708984375 1.772216796875
-31.699951171875 -92.1295166015625 14.173583984375
41.87548828125 -41.0379638671875 10.8660888671875
29.36181640625 39.8641357421875 -10.02783203125
6.980712890625 46.0103759765625 21.67041015625
16.9912109375 -41.7327880859375 18.4508056640625
42.789794921875 -46.2100830078125 3.888427734375
6.1982421875 -45.9649658203125 18.378173828125
51.090087890625 -110.8406982421875 -2.8116455078125
47.978515625 19.8267822265625 -0.36865234375
-1.818359375 -63.43603515625 5.1983642578125
-6.724609375 16.1370849609375 21.8812255859375
43.76416015625 39.8251953125 20.818603515625
-6.6044921875 40.376953125 22.363037109375
-2.691162109375 -49.7930908203125 9.841552734375
-52.37548828125 -7.873291015625 16.9007568359375
18.967529296875 25.4361572265625 21.194091796875
60.210693359375 -46.648681640625 -4.9932861328125
62.564208984375 -18.6898193359375 -4.6009521484375
99.05859375 -88.0367431640625 6.55126953125
-3.013671875 -55.880859375 6.0433349609375
45.501708984375 -118.99560546875 6.904052734375
56.8076171875 -48.0579833984375 -6.2987060546875
104.2744140625 -87.993896484375 3.7757568359375
58.20263671875 -64.2135009765625 -5.3182373046875
52.014892578125 -23.11376953125 -2.2940673828125
105.24755859375 -92.23388671875 4.5245361328125
34.068115234375 31.735595703125 21.5103759765625
47.828125 13.226806640625 -1.1668701171875
-9.620361328125 -0.6136474609375 22.8094482421875
58.8515625 -106.6514892578125 -8.5745849609375
58.549560546875 12.498046875 -1.4256591796875
4.251708984375 15.9696044921875 21.924072265625
53.3916015625 -104.9427490234375 9.630126953125
29.599609375 38.573974609375 21.2149658203125
51.688720703125 7.1805419921875 -4.8170166015625
94.906494140625 -83.885009765625 7.203857421875
-69.388671875 -4.7806396484375 17.265869140625
-30.217041015625 -47.0775146484375 18.5941162109375
29.860595703125 3.2816162109375 22.3184814453125
46.45947265625 -51.85693359375 4.345458984375
52.722900390625 -45.835693359375 -2.599609375
0.00341796875 -37.3594970703125 18.6075439453125
-79.54541015625 18.5662841796875 16.6551513671875
60.335205078125 8.514892578125 -4.53564453125
47.787109375 18.660400390625 21.6510009765625
54.5068359375 -68.1533203125 -1.5457763671875
54.919677734375 -88.0081787109375 -0.7130126953125
-64.0859375 9.495361328125 15.5311279296875
52.20166015625 -27.0777587890625 -4.6951904296875
-75.767822265625 21.8406982421875 17.0142822265625
99.759765625 -100.33251953125 5.41455078125
59.411865234375 -103.712646484375 9.538330078125
-57.061767578125 -21.7408447265625 18.9697265625
41.05810546875 27.768310546875 21.919677734375
-54.3564453125 0.3939208984375 16.04638671875
44.083984375 8.9429931640625 22.183349609375
-41.166015625 -99.6795654296875 11.063720703125
52.4609375 -35.6549072265625 -2.269775390625
54.939697265625 -62.1968994140625 -2.59619140625
46.57958984375 -112.9493408203125 2.8436279296875
11.98291015625 39.98974609375 21.2587890625
-58.617919921875 -43.2967529296875 18.3792724609375
56.223388671875 -64.4937744140625 -3.592529296875
-13.840087890625 -38.7755126953125 19.3663330078125
66.12060546875 -49.6922607421875 -3.22314453125
54.129150390625 -56.1563720703125 -2.996337890625
58.424560546875 -31.4820556640625 -5.8299560546875
0.146728515625 24.300537109375 21.7958984375
-5.223876953125 -1.6580810546875 22.9560546875
-49.923095703125 -33.8480224609375 17.20751953125
47.916259765625 31.3358154296875 23.3255615234375
94.545654296875 -75.0499267578125 7.298095703125
49.663818359375 -0.85791015625 22.3056640625
-7.476806640625 5.505615234375 22.2843017578125
65.70751953125 -109.7294921875 -7.2708740234375
-10.332275390625 30.3597412109375 22.2052001953125
-70.478759765625 26.380615234375 13.81787109375
50.177490234375 -103.887451171875 -1.2418212890625
61.238037109375 11.3017578125 -5.425537109375
52.367919921875 -38.9622802734375 -2.34765625
53.2333984375 15.4493408203125 -3.397216796875
-16.09521484375 -47.0506591796875 17.6893310546875
-53.41552734375 -16.1669921875 18.937744140625
-3.552001953125 32.4571533203125 21.4283447265625
108.161865234375 -95.3311767578125 4.091552734375
-72.452392578125 -0.51904296875 17.7130126953125
-58.123291015625 11.6055908203125 14.835205078125
-17.955810546875 -62.7349853515625 10.3370361328125
-13.129638671875 27.98388671875 21.5994873046875
48.542724609375 -25.0885009765625 15.07177734375
-10.83251953125 25.0419921875 21.6136474609375
68.1005859375 -106.8958740234375 1.878662109375
-52.719970703125 -47.352783203125 18.6959228515625
43.4150390625 -44.50439453125 17.913330078125
-76.81787109375 27.04638671875 15.0457763671875
-52.446044921875 -23.7447509765625 18.4615478515625
-12.75341796875 2.1744384765625 23.08447265625
-55.992919921875 13.2652587890625 15.273193359375
20.753173828125 47.329833984375 22.7666015625
47.276123046875 6.57861328125 22.18115234375
3.8330078125 -34.9195556640625 19.5657958984375
51.5361328125 16.5029296875 21.0400390625
27.417724609375 -36.8089599609375 18.7301025390625
57.683349609375 22.4642333984375 -0.3720703125
-3.364501953125 -47.51220703125 7.3304443359375
35.07568359375 -59.1588134765625 14.84619140625
9.11572265625 40.302978515625 20.9852294921875
-55.22607421875 -10.00537109375 17.500732421875
64.161865234375 -55.230224609375 -3.14111328125
-36.979248046875 -99.07373046875 11.65380859375
19.69384765625 -40.7816162109375 18.4383544921875
62.369140625 -13.413818359375 -4.984375
-78.52001953125 25.679443359375 20.2633056640625
63.553955078125 -110.8038330078125 -8.3963623046875
23.104248046875 22.3787841796875 21.80615234375
-63.40283203125 13.2373046875 15.379638671875
-17.2275390625 -63.0911865234375 13.9281005859375
3.28857421875 -3.29736328125 22.812255859375
46.44287109375 -114.2271728515625 5.2474365234375
-4.6826171875 -35.889892578125 19.034423828125
85.73828125 -60.2310791015625 10.4935302734375
61.63232421875 5.031005859375 -5.685791015625
60.356201171875 -4.106201171875 -2.199462890625
-49.37158203125 -24.8558349609375 18.53857421875
96.8818359375 -86.3980712890625 6.6923828125
-53.326171875 -34.810302734375 17.2611083984375
-64.291748046875 -15.1580810546875 17.9862060546875
-50.17822265625 -6.6781005859375 17.3231201171875
-60.0810546875 -37.2568359375 18.03662109375
87.695068359375 -46.2864990234375 8.7666015625
54.9541015625 -104.93994140625 -6.384765625
86.58251953125 -28.9119873046875 8.595458984375
47.975341796875 3.96826171875 22.517333984375
38.803955078125 41.5361328125 21.075927734375
-43.550537109375 -23.38916015625 19.76513671875
50.992919921875 -12.325927734375 -1.3712158203125
20.199951171875 34.23291015625 21.42919921875
-82.247802734375 27.390869140625 16.8333740234375
5.522216796875 43.8177490234375 21.4754638671875
87.729248046875 -64.8280029296875 9.659423828125
-3.4765625 -54.04150390625 7.70361328125
43.467529296875 37.2125244140625 21.2635498046875
-72.853271484375 25.8619384765625 16.1751708984375
49.564208984375 -103.560302734375 9.772216796875
60.00537109375 -52.8577880859375 -5.12255859375
-5.19970703125 -47.3277587890625 9.09130859375
-33.05126953125 -89.9549560546875 13.304931640625
63.662109375 -103.6680908203125 -6.9464111328125
63.044677734375 -7.0452880859375 -6.0557861328125
57.348388671875 -113.134033203125 -5.971435546875
34.6982421875 20.3236083984375 21.64599609375
42.9375 11.1549072265625 21.9005126953125
-8.205078125 -50.7359619140625 16.3504638671875
-10.46533203125 19.614990234375 22.0889892578125
-56.29345703125 -47.0142822265625 18.634765625
36.374267578125 35.713134765625 21.673583984375
62.77880859375 -30.2169189453125 -4.1651611328125
42.8037109375 4.03564453125 22.478271484375
58.4736328125 0.1160888671875 -3.3245849609375
54.286376953125 -36.59716796875 -6.1552734375
26.3583984375 61.6231689453125 -20.7957763671875
-60.44970703125 -20.5797119140625 19.0506591796875
46.671630859375 -117.08154296875 2.260009765625
-35.56640625 -87.0228271484375 14.4862060546875
43.105224609375 25.30517578125 21.317626953125
-49.8076171875 -38.7066650390625 17.7244873046875
94.377685546875 -88.990478515625 7.64697265625
54.74853515625 -83.357666015625 0.595703125
-48.122802734375 -43.4208984375 18.331298828125
53.5224609375 -31.78662109375 -6.05078125
29.588134765625 28.5201416015625 21.4794921875
2.342529296875 11.0311279296875 22.1671142578125
-45.83154296875 -17.9991455078125 19.0936279296875
-22.35888671875 -61.3948974609375 11.709228515625
62.4892578125 -37.435546875 -3.3671875
-36.75732421875 -87.9478759765625 12.1466064453125
82.884521484375 -8.5869140625 8.9739990234375
-20.87841796875 -66.38671875 10.3553466796875
-1.698974609375 -1.5523681640625 22.76953125
-61.380126953125 -12.6248779296875 17.4990234375
-73.663330078125 5.7227783203125 16.8709716796875
66.612548828125 -23.2911376953125 -6.26025390625
61.1064453125 32.888427734375 -2.3902587890625
45.77294921875 -43.4468994140625 18.077880859375
-49.0244140625 -19.7879638671875 18.67138671875
91.879150390625 -72.242919921875 7.802001953125
58.474609375 34.89453125 -2.3597412109375
47.8154296875 7.117919921875 -0.5196533203125
89.404541015625 -75.9439697265625 11.177734375
54.74951171875 -88.5609130859375 1.678466796875
36.13623046875 0.8729248046875 22.7315673828125
-6.826904296875 -37.5513916015625 18.201171875
12.6611328125 2.6597900390625 22.5948486328125
30.46923828125 -38.7889404296875 18.650390625
-36.15576171875 -33.0362548828125 17.4307861328125
12.06982421875 34.1619873046875 21.167236328125
55.6611328125 -101.00390625 3.186279296875
95.17138671875 -81.13671875 6.69580078125
52.347900390625 31.208251953125 23.23828125
56.213623046875 -76.114013671875 2.1368408203125
57.209716796875 32.706787109375 -1.19140625
13.661376953125 -35.6357421875 19.3157958984375
-12.899169921875 -45.8935546875 18.4503173828125
17.184326171875 -44.5635986328125 18.2916259765625
1.29248046875 36.1915283203125 26.51806640625
-44.0791015625 -35.567626953125 16.841064453125
-56.4560546875 -41.4459228515625 17.3511962890625
51.07861328125 30.912109375 0.8553466796875
108.33935546875 -89.5018310546875 2.165283203125
49.55908203125 -51.2469482421875 4.581298828125
35.063720703125 11.7613525390625 21.959228515625
58.091064453125 -79.9658203125 -4.462158203125
-10.312744140625 -40.3026123046875 18.25048828125
-74.359130859375 10.11376953125 15.386962890625
-7.535888671875 36.9779052734375 21.4404296875
-25.414794921875 -44.819091796875 18.218017578125
96.01416015625 -77.8331298828125 7.55810546875
-5.073974609375 28.03759765625 24.0302734375
55.677734375 43.7459716796875 1.138916015625
57.776123046875 -48.090087890625 17.337646484375
-36.649169921875 -97.310546875 13.6497802734375
63.67333984375 -53.718505859375 15.4793701171875
41.146484375 35.9549560546875 21.5333251953125
-69.0712890625 17.35009765625 14.7518310546875
39.6083984375 -59.841064453125 15.8572998046875
30.263916015625 0.4520263671875 22.3531494140625
56.998291015625 -89.7969970703125 -1.4669189453125
90.681640625 -78.7674560546875 9.927978515625
53.3779296875 -12.7982177734375 -6.2811279296875
89.283447265625 -83.747802734375 10.8609619140625
62.6865234375 -41.673583984375 -3.9788818359375
32.05126953125 36.1851806640625 21.1695556640625
51.70361328125 -5.6068115234375 -5.446533203125
35.927978515625 23.1397705078125 -4.8917236328125
49.24462890625 37.2711181640625 19.1033935546875
20.446533203125 45.2877197265625 21.507080078125
-5.875732421875 20.602783203125 22.1793212890625
-57.07080078125 4.389404296875 15.8416748046875
-64.28369140625 17.304931640625 14.37255859375
49.853759765625 -6.707275390625 -3.3580322265625
39.136962890625 37.315673828125 21.3568115234375
-62.73095703125 20.5880126953125 13.505615234375
46.865478515625 -106.3480224609375 0.150634765625
38.444580078125 13.65283203125 21.6751708984375
-47.021240234375 -38.8448486328125 17.4017333984375
-79.74267578125 10.22802734375 16.1431884765625
61.73388671875 40.8787841796875 0.4373779296875
50.1455078125 -121.189697265625 -1.51513671875
66.138427734375 -14.4434814453125 -6.7984619140625
-40.987548828125 -85.6046142578125 12.3836669921875
-59.817138671875 9.8232421875 14.985107421875
7.045166015625 34.0760498046875 21.3802490234375
101.98876953125 -92.705078125 6.531982421875
49.095458984375 -116.9901123046875 -2.632568359375
-9.9609375 -66.9287109375 13.7232666015625
67.443359375 -60.5516357421875 -1.37841796875
65.700927734375 -59.02099609375 -2.259521484375
37.361328125 19.013916015625 -4.1055908203125
54.9716796875 -92.6832275390625 1.1922607421875
40.256103515625 4.3448486328125 22.843017578125
100.767822265625 -95.669677734375 5.3631591796875
100.744384765625 -105.478515625 4.677001953125
58.411865234375 -26.7569580078125 -6.1700439453125
99.876708984375 -102.70263671875 5.0478515625
54.756591796875 -95.097900390625 1.207763671875
4.5966796875 32.6224365234375 21.3603515625
5.497314453125 -39.36083984375 18.3642578125
60.88720703125 -101.3914794921875 -0.738037109375
51.9404296875 23.7698974609375 21.5029296875
99.376220703125 -77.78515625 10.3096923828125
57.913818359375 -105.257080078125 -2.59375
10.10546875 7.6962890625 22.1446533203125
16.0830078125 30.3143310546875 21.6280517578125
55.043701171875 -68.5074462890625 0.9256591796875
46.865966796875 -104.6680908203125 5.9073486328125
58.259765625 -110.793701171875 -8.6229248046875
-45.143310546875 -95.9739990234375 13.16259765625
-69.702392578125 -0.850830078125 16.9837646484375
51.87744140625 18.8515625 21.198486328125
15.022216796875 25.3206787109375 21.5450439453125
59.734619140625 -36.760498046875 -4.85498046875
29.5244140625 41.3936767578125 -11.84619140625
-62.222900390625 -31.76806640625 17.380859375
41.12890625 23.6806640625 21.94384765625
88.246826171875 -50.86962890625 9.053955078125
99.321533203125 -83.5157470703125 7.076416015625
-49.572998046875 -16.9761962890625 18.11669921875
37.2138671875 24.1903076171875 21.987060546875
-48.873291015625 -22.5487060546875 18.693603515625
18.03173828125 20.8350830078125 21.9365234375
45.0380859375 26.76416015625 21.847412109375
58.93212890625 7.37255859375 -2.63037109375
97.20361328125 -89.496826171875 6.3870849609375
37.49169921875 -58.88330078125 13.6195068359375
50.318115234375 -1.7294921875 -0.723876953125
54.38330078125 -63.1739501953125 -0.126953125
-7.2919921875 -0.407958984375 22.486083984375
51.114501953125 -105.0755615234375 5.035400390625
55.0244140625 -29.9869384765625 -7.23388671875
50.360107421875 3.8511962890625 21.9677734375
47.98291015625 15.8330078125 -0.5166015625
32.42919921875 38.396240234375 -10.4512939453125
-35.142822265625 -47.559326171875 18.2490234375
51.369384765625 0.7420654296875 -5.1873779296875
36.10595703125 33.3759765625 21.607666015625
64.262939453125 -39.165771484375 -3.7415771484375
-20.1904296875 -43.6405029296875 18.2506103515625
-32.1142578125 -100.6829833984375 11.4835205078125
58.2646484375 -94.2655029296875 -2.2530517578125
57.109619140625 -71.32958984375 -3.911865234375
67.91748046875 -103.2935791015625 -6.416015625
1.437255859375 50.919921875 26.6558837890625
57.931396484375 -52.8525390625 14.0419921875
51.43603515625 -117.615234375 -4.296630859375
-48.75341796875 -40.875 17.6484375
64.62255859375 -36.261474609375 -4.056884765625
47.546630859375 -110.029296875 6.4696044921875
-35.267822265625 -92.6531982421875 12.3001708984375
30.256591796875 9.3211669921875 22.418701171875
55.09765625 -103.32373046875 0.131591796875
59.45458984375 -55.2257080078125 -5.512451171875
-0.400634765625 3.8265380859375 22.4237060546875
-58.47216796875 -26.7618408203125 18.0994873046875
-71.67529296875 19.835693359375 15.04443359375
57.276123046875 -66.86279296875 -3.560302734375
21.572998046875 8.8033447265625 22.4537353515625
34.327880859375 16.2662353515625 21.83544921875
54.86474609375 -70.51171875 -0.2813720703125
-58.62353515625 -16.287841796875 19.1209716796875
-40.619873046875 -43.9461669921875 18.113037109375
49.275146484375 14.8824462890625 -2.3074951171875
-54.169189453125 -45.594482421875 18.1932373046875
-9.322509765625 -34.434814453125 19.4571533203125
21.41650390625 20.3843994140625 22.0574951171875
-2.765380859375 -60.976318359375 5.7021484375
-18.06640625 -42.6224365234375 17.6773681640625
7.677490234375 18.9207763671875 21.3707275390625
-2.320068359375 -58.4547119140625 5.890625
51.4560546875 22.9774169921875 -2.0286865234375
-48.73828125 -36.195068359375 17.3006591796875
42.2158203125 -33.6845703125 9.8765869140625
46.920654296875 -34.390380859375 8.4990234375
0.0927734375 16.6495361328125 22.041748046875
37.289306640625 31.210693359375 21.96923828125
49.42529296875 0.822265625 -2.400390625
3.463623046875 45.666259765625 27.8343505859375
58.235595703125 -115.6163330078125 -2.06103515625
6.318359375 8.7706298828125 22.2149658203125
60.74658203125 -53.80810546875 14.285888671875
42.683349609375 13.7650146484375 22.0460205078125
-42.82177734375 -28.125 18.386962890625
42.380859375 -43.4072265625 5.8494873046875
59.96923828125 19.4866943359375 -4.4935302734375
-58.231201171875 7.0543212890625 15.7071533203125
10.3037109375 3.2724609375 22.4334716796875
-39.451171875 -46.2672119140625 18.1240234375
4.086181640625 43.927734375 24.670654296875
-32.06103515625 -37.136474609375 16.3916015625
16.306884765625 44.4832763671875 21.456787109375
-5.69677734375 10.6298828125 21.8695068359375
58.878662109375 -69.634033203125 -4.9722900390625
