23.943359375 16.855712890625 13.739013671875
36.571044921875 36.56201171875 11.09814453125
7.648193359375 -3.258056640625 12.133056640625
47.11669921875 -25.3577880859375 -25.6580810546875
1.328369140625 -97.5458984375 6.5220947265625
61.25244140625 -40.6671142578125 -3.344482421875
27.721435546875 -76.7100830078125 6.06982421875
-69.849609375 -23.8984375 6.91064453125
9.7705078125 -34.864990234375 6.5552978515625
70.94482421875 -40.128662109375 -1.7388916015625
9.989501953125 -76.92724609375 5.878173828125
71.299072265625 4.2979736328125 -1.4638671875
-91.4296875 31.126953125 6.759033203125
-31.062744140625 54.9622802734375 12.5546875
-94.516357421875 40.9788818359375 9.9564208984375
-33.931640625 -53.3270263671875 18.1290283203125
11.280029296875 13.1983642578125 11.7489013671875
7.26220703125 -19.326416015625 6.2906494140625
-63.838134765625 18.1259765625 6.75
50.77294921875 -104.767578125 -8.31298828125
38.606201171875 9.1226806640625 11.553955078125
-58.52685546875 -83.474365234375 5.76416015625
67.778076171875 -23.8902587890625 -0.9613037109375
66.55078125 -78.38818359375 6.0216064453125
-48.6142578125 -69.7481689453125 -3.315185546875
-43.239501953125 -15.799072265625 5.618896484375
18.94384765625 -70.485107421875 5.760498046875
-56.524658203125 -70.4718017578125 1.5084228515625
23.55908203125 0.6387939453125 11.990234375
-24.4873046875 51.119384765625 12.0953369140625
84.860107421875 -81.001708984375 -8.8358154296875
56.436767578125 -95.416015625 -10.7037353515625
-26.131591796875 27.0008544921875 11.890869140625
67.22705078125 -2.474609375 -2.7935791015625
29.23974609375 -30.4244384765625 6.3211669921875
5.975830078125 -48.775390625 6.3267822265625
77.410400390625 -38.9896240234375 -4.063232421875
-41.3994140625 -41.0457763671875 2.8896484375
15.748291015625 25.4248046875 11.5550537109375
23.31103515625 8.34423828125 11.7655029296875
42.913330078125 -29.2718505859375 -25.757080078125
-58.314208984375 -77.21923828125 3.268310546875
25.211669921875 38.639892578125 11.5216064453125
-32.755859375 -53.8594970703125 6.843017578125
-37.5234375 -61.45166015625 16.1552734375
8.13916015625 4.4150390625 11.973876953125
-17.501220703125 51.6943359375 12.1107177734375
-43.1611328125 -64.7801513671875 12.2030029296875
-32.474609375 -38.072998046875 3.9254150390625
39.63330078125 -11.172119140625 -27.7073974609375
-45.769287109375 -69.9483642578125 4.023681640625
35.358642578125 -13.776123046875 6.05224609375
32.35205078125 -77.6839599609375 14.7415771484375
7.628662109375 25.4215087890625 11.5015869140625
84.62744140625 -61.377197265625 -7.021240234375
62.787841796875 -44.9205322265625 -1.9136962890625
35.618896484375 -23.1143798828125 6.31103515625
-47.031005859375 -86.0050048828125 12.00390625
-63.46435546875 -90.4815673828125 10.337158203125
-13.76806640625 10.425537109375 12.0419921875
68.047607421875 -56.5433349609375 5.984619140625
-6.712646484375 -42.8870849609375 6.3861083984375
-20.631591796875 -48.3250732421875 6.38623046875
66.81787109375 -18.282958984375 -0.8238525390625
17.5126953125 -34.8753662109375 2.61865234375
-99.9013671875 46.16259765625 5.7049560546875
-2.04931640625 -23.3502197265625 6.7427978515625
0.803955078125 1.7491455078125 12.4954833984375
29.76513671875 40.255615234375 11.4559326171875
-32.26904296875 -29.7615966796875 6.835693359375
54.093017578125 -66.693115234375 -14.93212890625
30.873046875 -73.2991943359375 11.6363525390625
-36.950927734375 -29.064453125 7.04833984375
19.596435546875 -63.545166015625 6.0140380859375
22.12109375 12.7069091796875 11.2283935546875
38.037109375 51.9151611328125 11.78759765625
-101.64599609375 39.798583984375 6.6513671875
64.43701171875 -93.863037109375 2.09912109375
42.5107421875 -54.6226806640625 -20.0233154296875
74.153564453125 -21.1085205078125 -3.7996826171875
-41.724609375 -56.3944091796875 12.5281982421875
-60.85498046875 -17.5701904296875 6.3138427734375
69.5771484375 -70.2652587890625 5.4456787109375
36.562744140625 -7.2078857421875 9.345703125
-66.1484375 -56.7774658203125 11.2994384765625
70.48291015625 19.7569580078125 -2.77099609375
20.776123046875 -2.6788330078125 13.048095703125
18.353515625 -30.3231201171875 6.270751953125
-72.83056640625 -62.0286865234375 12.82958984375
36.02490234375 22.5283203125 -23.99658203125
51.282470703125 -84.788818359375 -20.4669189453125
-24.5546875 -37.1119384765625 -3.254150390625
-37.7822265625 -38.4737548828125 1.912353515625
-50.40185546875 -90.8826904296875 11.6036376953125
26.1171875 55.22021484375 11.5958251953125
-46.127197265625 -76.1226806640625 9.65869140625
-18.79541015625 -31.8519287109375 -1.8316650390625
35.743896484375 -94.5145263671875 -9.225341796875
-3.602294921875 -0.989990234375 12.9320068359375
38.623291015625 0.1162109375 12.1593017578125
45.442626953125 -20.5267333984375 -26.363525390625
-2.85302734375 -60.506591796875 6.5745849609375
30.056396484375 -121.8363037109375 10.2266845703125
24.63623046875 -50.8966064453125 6.392333984375
-0.330078125 54.1431884765625 11.659423828125
40.9130859375 -118.791015625 -9.709716796875
52.850341796875 -19.747314453125 -29.0146484375
83.781005859375 -55.6029052734375 -6.02783203125
2.7646484375 16.010498046875 11.853759765625
-62.798828125 -79.1434326171875 -1.3465576171875
8.0703125 51.5413818359375 11.322998046875
-49.159912109375 -48.2086181640625 9.34228515625
-70.0888671875 -11.5589599609375 6.9112548828125
81.993408203125 -85.427978515625 5.163330078125
-3.485107421875 -52.3565673828125 6.3363037109375
-57.70263671875 -4.95751953125 7.1392822265625
73.879150390625 -95.0394287109375 4.08837890625
-36.64404296875 -76.0323486328125 13.6988525390625
-50.97802734375 -82.43994140625 6.3035888671875
-3.21044921875 39.716064453125 11.369873046875
43.3154296875 -107.84814453125 -11.055908203125
55.980224609375 -91.1121826171875 -17.49853515625
-22.7734375 -27.2781982421875 4.38525390625
-5.7119140625 23.916259765625 11.572021484375
-41.291259765625 -48.8614501953125 6.4986572265625
29.57666015625 23.193603515625 11.582763671875
24.56005859375 27.1343994140625 11.688720703125
40.355712890625 -113.06591796875 -10.3101806640625
80.355224609375 -69.5009765625 -7.7061767578125
75.83642578125 -59.613037109375 -4.6162109375
47.80517578125 -52.9361572265625 -18.193115234375
-70.376220703125 7.949951171875 8.405029296875
35.291259765625 -60.913330078125 6.253173828125
65.899169921875 -33.901611328125 0.781982421875
-64.8515625 -26.1473388671875 6.57666015625
-86.670654296875 22.4490966796875 7.9774169921875
28.934814453125 9.3426513671875 11.740966796875
77.599365234375 -31.1075439453125 -3.23583984375
69.601806640625 -15.0234375 -3.7777099609375
-14.29541015625 -44.0537109375 6.5899658203125
-17.97412109375 28.76220703125 11.4310302734375
47.986572265625 -47.0562744140625 -20.329833984375
78.2197265625 -67.943603515625 5.05419921875
36.760498046875 -16.4991455078125 -21.998291015625
66.017822265625 32.2435302734375 -4.1859130859375
13.060302734375 -63.7772216796875 8.9937744140625
12.62744140625 -15.7381591796875 6.4835205078125
-63.3603515625 -72.19189453125 1.3748779296875
-56.4853515625 -85.2606201171875 10.01953125
85.780517578125 -66.2724609375 -7.479736328125
-79.16259765625 39.8763427734375 5.5277099609375
70.685546875 -91.654541015625 3.8577880859375
41.376220703125 -45.6651611328125 -21.7298583984375
42.56689453125 -95.9783935546875 -18.965087890625
-40.357421875 -26.135986328125 6.3331298828125
71.21142578125 -49.4951171875 1.90380859375
24.576904296875 -71.828369140625 5.9307861328125
65.076416015625 -26.8741455078125 0.3175048828125
-64.896484375 -69.7391357421875 -1.705322265625
12.344970703125 -68.3431396484375 6.1058349609375
-69.629150390625 27.67138671875 5.96728515625
-18.411376953125 -36.0748291015625 1.630859375
-58.729248046875 -79.95556640625 -0.4444580078125
-27.689697265625 -21.1966552734375 9.2713623046875
-59.08203125 -66.4273681640625 -1.214111328125
92.357421875 -83.3294677734375 -10.207275390625
92.737060546875 -72.3441162109375 -9.656005859375
28.88134765625 -112.6065673828125 9.867919921875
18.53369140625 -20.0137939453125 6.2041015625
-64.8486328125 13.76806640625 7.2294921875
-71.47607421875 -81.56005859375 12.060546875
-75.765869140625 5.43701171875 8.4534912109375
92.630859375 -99.562255859375 -9.304443359375
33.000244140625 -45.3916015625 6.3519287109375
75.88427734375 -59.818603515625 3.3548583984375
30.671142578125 31.261962890625 11.3848876953125
-47.844970703125 -37.0732421875 6.3956298828125
21.8017578125 -95.0858154296875 5.7025146484375
-74.020751953125 19.8284912109375 7.46240234375
-38.88330078125 -83.036865234375 12.19091796875
6.739990234375 32.5062255859375 11.4329833984375
72.765625 12.5205078125 -1.7640380859375
88.751220703125 -89.2568359375 -10.059814453125
47.104248046875 -92.014404296875 -10.311767578125
9.202880859375 -92.3697509765625 9.131103515625
-80.677978515625 45.366455078125 4.8277587890625
-52.00927734375 -4.129638671875 6.961669921875
84.414794921875 -86.5992431640625 -8.711669921875
-17.01025390625 2.35498046875 12.4085693359375
59.8486328125 -94.2698974609375 -12.877197265625
47.841064453125 -100.002197265625 -8.8260498046875
68.0146484375 6.3770751953125 -2.8223876953125
10.12646484375 -98.40185546875 6.117919921875
80.29931640625 -79.05322265625 5.3853759765625
37.546630859375 22.6854248046875 11.0167236328125
13.20458984375 -38.2900390625 5.8624267578125
-25.26025390625 -42.664306640625 5.63623046875
65.021240234375 -10.2645263671875 1.0308837890625
-1.697021484375 -88.027587890625 5.902587890625
-89.139892578125 39.1365966796875 8.47314453125
-80.65283203125 31.82177734375 6.3441162109375
67.230224609375 26.5269775390625 -1.8648681640625
-47.5341796875 -77.96826171875 -1.073974609375
34.274658203125 -113.6552734375 9.704345703125
-53.334228515625 -50.501220703125 12.75830078125
-91.937255859375 44.6817626953125 9.115478515625
10.752197265625 -11.5091552734375 6.71484375
-21.353271484375 -39.7601318359375 6.484375
48.593505859375 -13.6199951171875 -30.030029296875
39.304931640625 -52.3951416015625 -18.887451171875
42.003173828125 -97.0279541015625 -12.4638671875
-16.79150390625 41.15478515625 11.697265625
39.5947265625 -96.472900390625 -5.3192138671875
-53.263427734375 -30.1473388671875 6.5992431640625
27.955078125 -1.248046875 12.294189453125
45.654541015625 -33.979736328125 -23.727783203125
-70.78369140625 -1.0921630859375 8.039306640625
-61.6875 11.2525634765625 7.3900146484375
-12.284912109375 47.839599609375 11.618408203125
13.939453125 -48.3450927734375 6.4486083984375
16.343017578125 54.573486328125 11.5101318359375
53.119140625 -96.0394287109375 -6.9427490234375
35.989990234375 -51.3079833984375 6.0474853515625
24.49365234375 -24.0037841796875 6.274658203125
3.4267578125 -3.7861328125 12.0653076171875
-7.145263671875 -50.0364990234375 6.237548828125
10.0693359375 17.0203857421875 11.8341064453125
-15.05810546875 32.2828369140625 11.718994140625
-69.389892578125 34.0296630859375 5.142333984375
-4.605712890625 9.9027099609375 12.1339111328125
5.8740234375 -11.37939453125 6.8221435546875
15.532470703125 -61.7628173828125 5.83837890625
-90.642578125 48.7637939453125 5.5
-82.78271484375 15.044921875 8.0181884765625
-20.73779296875 47.794677734375 13.501953125
-39.720458984375 -78.8980712890625 11.787353515625
80.489013671875 -76.132080078125 -3.4139404296875
88.373291015625 -73.05517578125 -8.118408203125
40.636962890625 -47.1373291015625 6.047607421875
12.306640625 -84.9398193359375 5.764892578125
39.72802734375 -30.9017333984375 6.522705078125
-99.665283203125 32.1396484375 8.561767578125
1.7919921875 -84.23828125 5.84619140625
69.85205078125 -33.331298828125 -1.725830078125
-64.518798828125 -82.4012451171875 3.789794921875
-58.027099609375 -9.985595703125 6.50146484375
40.06005859375 -75.3074951171875 -14.872314453125
13.00146484375 -43.5775146484375 6.489501953125
-44.959716796875 -29.7835693359375 6.5806884765625
20.710693359375 -55.7542724609375 6.005859375
-45.3095703125 -45.51513671875 6.5262451171875
66.6435546875 -86.60888671875 0.5623779296875
-105.42529296875 35.431640625 8.5709228515625
13.54638671875 31.9461669921875 11.45703125
-97.529541015625 37.135498046875 6.757080078125
8.219970703125 37.6234130859375 11.5784912109375
-2.004638671875 -19.4066162109375 6.71533203125
18.963134765625 58.34326171875 11.193603515625
77.364013671875 -61.966064453125 -7.3837890625
51.1142578125 -65.503662109375 -17.2210693359375
29.483154296875 16.5938720703125 11.4581298828125
16.8935546875 -39.0989990234375 0.050537109375
-53.90771484375 -79.9322509765625 -0.255126953125
-75.1669921875 34.93896484375 5.546142578125
-54.81396484375 -44.517333984375 8.45654296875
17.81103515625 -94.1097412109375 5.761474609375
-10.248046875 16.5709228515625 11.781494140625
-106.570556640625 47.5816650390625 6.0418701171875
73.097412109375 -81.4361572265625 0.6171875
-75.086669921875 -69.899658203125 12.358642578125
15.25244140625 11.11474609375 11.8406982421875
-69.329833984375 14.0538330078125 7.5477294921875
32.09375 -91.105712890625 -13.462158203125
81.74560546875 -73.3603515625 -8.0771484375
64.38818359375 37.0738525390625 -3.75244140625
-71.255615234375 -19.6949462890625 6.6158447265625
-44.689208984375 -53.2442626953125 6.7835693359375
49.073974609375 -95.58251953125 -18.112060546875
38.89501953125 43.7423095703125 10.939453125
9.35107421875 58.6068115234375 11.4862060546875
30.527099609375 2.9068603515625 11.6217041015625
42.79736328125 -6.9014892578125 -29.2034912109375
55.17138671875 -58.210693359375 -17.0672607421875
-20.0986328125 56.441162109375 12.287109375
-3.42724609375 17.173828125 11.9185791015625
-61.578857421875 -84.4105224609375 11.2607421875
21.074951171875 -87.029296875 5.4847412109375
91.80908203125 -96.762451171875 -24.0775146484375
89.323974609375 -106.7540283203125 -10.95458984375
-22.31201171875 3.6790771484375 12.04736328125
3.284423828125 -15.90966796875 6.7930908203125
-0.605224609375 35.8682861328125 11.4443359375
30.44482421875 -22.1434326171875 6.1988525390625
21.0625 30.236328125 11.430908203125
7.444580078125 -43.543212890625 6.4215087890625
-23.996826171875 -45.6148681640625 8.909912109375
51.04443359375 -95.0087890625 -10.2161865234375
15.936767578125 -1.1923828125 12.899658203125
-64.060546875 -75.5042724609375 -1.112060546875
-10.471923828125 -18.6651611328125 6.2481689453125
-49.68017578125 -23.770751953125 6.7449951171875
36.36083984375 -36.7620849609375 6.429443359375
92.851318359375 -91.74658203125 -8.371337890625
31.958251953125 -69.248291015625 5.9573974609375
19.5947265625 -43.244140625 3.0059814453125
22.5029296875 47.7525634765625 11.5894775390625
37.5888671875 16.585693359375 11.5113525390625
25.427490234375 -43.511474609375 4.7890625
-73.113037109375 -7.7952880859375 7.2056884765625
-53.943359375 -40.7681884765625 6.4111328125
-50.525634765625 -66.3056640625 -2.1611328125
-50.621337890625 -71.8817138671875 1.542724609375
43.54248046875 -87.14306640625 -21.6878662109375
54.245849609375 -44.572998046875 -21.947509765625
30.4716796875 -16.25 6.0511474609375
-13.758544921875 -38.267578125 6.0450439453125
-26.230224609375 30.8228759765625 11.8878173828125
-51.619873046875 -82.63623046875 -1.764892578125
39.414794921875 -37.861328125 -20.7481689453125
72.941650390625 -73.3507080078125 5.670166015625
39.698486328125 -20.46826171875 -25.7252197265625
-28.12939453125 45.30712890625 15.1832275390625
59.708984375 -96.5870361328125 -4.080322265625
-13.06201171875 -50.741455078125 6.4364013671875
2.652587890625 -92.3826904296875 5.9534912109375
59.327392578125 -96.1776123046875 0.1767578125
-2.203857421875 -80.071044921875 6.1016845703125
38.842529296875 -106.52294921875 -7.52294921875
33.550537109375 -28.57421875 6.24267578125
78.13671875 -68.0047607421875 -4.1185302734375
43.1953125 -15.7449951171875 -27.799072265625
-8.680908203125 3.0546875 12.0609130859375
65.171875 -60.841064453125 5.7357177734375
-67.645751953125 5.2957763671875 8.3538818359375
32.7216796875 55.8427734375 13.60986328125
-21.026123046875 -35.204833984375 5.49658203125
13.43212890625 -88.49951171875 6.371826171875
5.89794921875 -70.1539306640625 5.90087890625
49.538818359375 -40.6312255859375 -23.6807861328125
35.885986328125 -3.7369384765625 11.851318359375
-42.512451171875 -88.289794921875 14.137939453125
66.5224609375 -44.6771240234375 -1.49365234375
-68.265380859375 -75.5587158203125 10.56884765625
45.717529296875 -61.1671142578125 -17.5928955078125
-25.398193359375 -26.903076171875 -1.779052734375
-47.254638671875 -16.7603759765625 6.2689208984375
70.64599609375 16.00390625 -2.744873046875
-56.38330078125 -97.6702880859375 12.0650634765625
-105.3828125 39.9317626953125 6.7952880859375
-63.3642578125 -64.958251953125 0.9249267578125
39.50634765625 -60.047607421875 -15.446533203125
45.957275390625 -117.1221923828125 -6.482177734375
-28.19287109375 21.365478515625 12.925048828125
-86.58349609375 43.5435791015625 5.2755126953125
-51.482666015625 -83.1668701171875 10.0889892578125
0.533447265625 46.10400390625 11.6065673828125
5.183837890625 -78.887451171875 6.12255859375
23.948486328125 -80.5487060546875 5.462890625
-68.6962890625 -85.9041748046875 12.109619140625
-15.916748046875 -38.82763671875 1.82958984375
57.374267578125 -85.59912109375 -16.178466796875
-39.354736328125 -52.9993896484375 10.04833984375
-14.946533203125 6.8209228515625 12.1317138671875
-59.00439453125 -71.5997314453125 -1.0126953125
29.5625 53.9578857421875 12.1312255859375
54.20751953125 -83.3009033203125 -18.7431640625
-4.94482421875 51.803955078125 11.603515625
-0.809814453125 -46.3167724609375 6.334228515625
89.161865234375 -97.6143798828125 -11.115234375
-17.8095703125 -42.742919921875 5.6785888671875
22.624755859375 22.5733642578125 11.4449462890625
-22.138916015625 25.248779296875 11.1112060546875
-82.203857421875 21.2388916015625 7.1842041015625
77.445068359375 -71.9053955078125 5.2325439453125
83.1083984375 -100.7528076171875 -8.8115234375
0.267578125 -72.234375 5.98046875
9.216064453125 -82.638916015625 5.8594970703125
52.655029296875 -31.0533447265625 -26.0816650390625
67.0517578125 -96.0040283203125 6.5809326171875
-12.836181640625 -32.9886474609375 2.689697265625
8.92919921875 0.38134765625 12.1649169921875
18.983154296875 37.48046875 11.451904296875
84.427001953125 -108.5123291015625 -14.8514404296875
14.0849609375 -77.5595703125 5.7015380859375
66.657470703125 20.0518798828125 -1.1485595703125
62.9609375 -47.5218505859375 5.97705078125
-57.6005859375 -37.164306640625 6.7506103515625
46.35791015625 -69.0404052734375 -15.2791748046875
27.681396484375 47.190185546875 11.6090087890625
3.62353515625 -29.4891357421875 6.4932861328125
-35.15966796875 -43.396728515625 0.9996337890625
-61.32275390625 -11.5335693359375 6.400146484375
-18.595703125 15.56982421875 13.123046875
-9.883544921875 24.51806640625 11.6170654296875
-9.058349609375 -24.48583984375 6.4248046875
-65.43310546875 -6.4249267578125 7.1141357421875
37.058837890625 -9.0311279296875 -24.49267578125
-4.223876953125 29.92333984375 11.5831298828125
-56.517822265625 -24.9796142578125 6.3150634765625
35.02294921875 -96.3173828125 -12.9154052734375
-25.978515625 13.7845458984375 12.161865234375
70.85986328125 -84.3751220703125 -4.17138671875
26.45458984375 -64.2890625 5.75634765625
-1.543701171875 22.978759765625 11.778564453125
39.50146484375 29.912353515625 11.138916015625
-84.32763671875 33.9017333984375 6.216064453125
52.666015625 -24.2896728515625 -27.958984375
76.1513671875 -91.3048095703125 3.9127197265625
-26.795654296875 54.5765380859375 12.123291015625
-23.400634765625 -19.3519287109375 6.4686279296875
-30.249267578125 -19.1180419921875 6.013916015625
-20.323974609375 -24.0255126953125 2.196533203125
18.3583984375 -11.76171875 5.813232421875
-15.010009765625 19.683349609375 11.6163330078125
-23.271240234375 18.508544921875 14.0771484375
-20.600341796875 -26.0810546875 -1.9091796875
70.490478515625 -30.1072998046875 -3.3193359375
77.569580078125 -43.291015625 -4.7138671875
22.495849609375 52.5589599609375 13.151123046875
-64.368408203125 -16.451416015625 6.4365234375
-55.124267578125 -65.80078125 1.2225341796875
77.513427734375 -69.1240234375 -9.9329833984375
74.3359375 -86.694091796875 0.6783447265625
71.456787109375 -47.0224609375 -0.67333984375
-82.57568359375 37.03759765625 6.052978515625
22.560791015625 44.2164306640625 12.0989990234375
-28.279296875 -46.4432373046875 6.2303466796875
4.20068359375 40.007080078125 11.735107421875
48.470947265625 -107.4847412109375 -8.09521484375
-65.772705078125 1.7789306640625 8.4912109375
69.751708984375 0.0335693359375 -2.880859375
-65.797607421875 -30.3052978515625 7.4990234375
52.239013671875 -96.3724365234375 -16.559814453125
-49.81201171875 -81.2718505859375 1.1986083984375
-62.760498046875 24.2362060546875 5.7567138671875
-9.69677734375 -30.3656005859375 6.39453125
-47.261962890625 -77.658447265625 6.426513671875
-37.561767578125 -46.62646484375 7.125244140625
1.281005859375 10.252685546875 11.9632568359375
39.549072265625 -67.586669921875 -14.6070556640625
61.96240234375 -58.939697265625 5.7281494140625
-95.725341796875 46.003662109375 5.5302734375
-66.09814453125 -75.278564453125 1.94970703125
-75.442138671875 38.759033203125 5.5203857421875
-73.328125 28.0089111328125 6.3509521484375
-60.12939453125 -33.6893310546875 6.8961181640625
-28.64697265625 -50.5928955078125 6.29296875
36.8095703125 -95.63671875 -3.30859375
18.052490234375 48.940185546875 12.9410400390625
20.31396484375 -40.10205078125 0.0462646484375
-25.79541015625 -43.085693359375 -2.3837890625
30.243408203125 49.654296875 11.8177490234375
-24.98974609375 1.2576904296875 12.243408203125
-76.836669921875 -76.774658203125 13.3060302734375
54.65283203125 -27.23095703125 -25.4886474609375
33.014892578125 -118.9532470703125 9.6888427734375
17.80810546875 41.93603515625 11.4072265625
-17.3701171875 -27.934814453125 -6.32177734375
7.401611328125 -37.4420166015625 6.2716064453125
-58.87744140625 -82.26416015625 10.611328125
0.5322265625 -31.882080078125 6.493896484375
46.019287109375 -91.8070068359375 -21.610595703125
-43.343994140625 -23.9202880859375 6.6431884765625
33.1875 54.88037109375 17.1248779296875
-9.9716796875 53.958984375 11.4422607421875
7.438720703125 9.4296875 11.6502685546875
31.934326171875 -95.638916015625 -7.019287109375
-37.379150390625 -31.4237060546875 4.4327392578125
-56.875244140625 -17.8822021484375 6.617431640625
-2.93994140625 45.759765625 11.8538818359375
41.57177734375 -50.1357421875 -20.84716796875
-5.814453125 6.62646484375 11.9759521484375
-53.498291015625 -33.9495849609375 6.654296875
27.075439453125 58.877197265625 11.7913818359375
26.3349609375 -40.1978759765625 2.7291259765625
-39.885986328125 -36.2833251953125 -1.71142578125
-52.74365234375 -79.9248046875 10.3792724609375
76.413818359375 -49.95751953125 -5.4593505859375
75.954833984375 -60.796142578125 -0.1949462890625
48.671630859375 -111.204833984375 -7.4112548828125
-25.081298828125 -33.7183837890625 -3.8427734375
40.099365234375 -38.67822265625 6.52294921875
37.453369140625 3.836669921875 -26.76025390625
-26.878662109375 8.3778076171875 11.9925537109375
43.909912109375 -104.2850341796875 -11.28369140625
20.14306640625 6.4327392578125 11.9891357421875
-54.478271484375 -11.02978515625 6.493896484375
-77.031494140625 -7.0595703125 8.7811279296875
66.864990234375 -6.3126220703125 -3.0853271484375
63.210205078125 30.727783203125 -2.1124267578125
54.099365234375 -94.7655029296875 -13.185546875
65.319580078125 5.2984619140625 -0.9234619140625
-16.7626953125 55.0794677734375 12.05224609375
43.21044921875 -40.0703125 -23.02001953125
37.609619140625 -44.021728515625 6.3680419921875
-75.35791015625 -13.869873046875 7.0792236328125
12.101318359375 37.934326171875 11.3026123046875
8.497314453125 29.5340576171875 11.1842041015625
-25.9814453125 18.9073486328125 11.9012451171875
38.537109375 -29.1416015625 -20.6248779296875
27.84716796875 -72.929931640625 5.7032470703125
73.942138671875 -52.0015869140625 5.2060546875
19.45166015625 -74.9715576171875 5.7508544921875
-73.01904296875 -74.133544921875 12.01318359375
-5.521484375 -17.7264404296875 6.243408203125
44.70556640625 -46.8590087890625 -21.3951416015625
37.59423828125 -121.068359375 -8.186767578125
-28.37939453125 39.19873046875 13.2877197265625
40.69140625 -26.6143798828125 -25.4708251953125
-61.705078125 -95.2156982421875 13.200439453125
-80.39892578125 26.6552734375 6.62939453125
-15.3076171875 25.19970703125 11.7509765625
52.693603515625 -89.648681640625 -20.0032958984375
36.049072265625 -93.026611328125 12.7125244140625
-15.59423828125 -38.0247802734375 -5.68359375
36.07080078125 6.10302734375 11.7293701171875
36.951171875 26.871337890625 11.4434814453125
-49.643798828125 -28.8560791015625 6.44287109375
67.049072265625 30.0234375 -1.6365966796875
-15.59765625 48.8411865234375 12.108642578125
68.816162109375 -89.8087158203125 1.095458984375
-52.0302734375 -54.2767333984375 12.68017578125
-56.407470703125 -103.61083984375 11.8800048828125
-28.0712890625 -26.132080078125 -5.358154296875
14.175048828125 -92.61083984375 7.4473876953125
10.150390625 -59.4765625 9.188232421875
-80.1044921875 9.1270751953125 8.488525390625
-57.49560546875 -73.7314453125 1.1954345703125
2.648681640625 -24.1407470703125 6.4122314453125
21.55322265625 -21.6063232421875 6.1158447265625
15.26416015625 7.603271484375 12.0877685546875
-41.149658203125 -18.364990234375 4.2073974609375
-69.85986328125 21.1470947265625 7.1507568359375
1.341064453125 -41.8953857421875 6.615234375
62.32177734375 -50.868896484375 5.913818359375
43.52783203125 -111.8309326171875 -10.1529541015625
95.77001953125 -83.2115478515625 -7.8399658203125
-22.881591796875 -51.5008544921875 6.45849609375
-55.766357421875 -83.2869873046875 2.6318359375
6.729248046875 -52.0826416015625 6.29345703125
-93.98974609375 49.3140869140625 5.485595703125
69.517333984375 -64.7215576171875 5.5511474609375
-48.689453125 -82.9456787109375 11.997314453125
23.606201171875 4.2041015625 11.865966796875
-45.241943359375 -33.67431640625 6.5220947265625
27.942626953125 -119.2120361328125 10.484619140625
31.146240234375 -12.6395263671875 6.829833984375
-37.929443359375 -64.1121826171875 14.1129150390625
37.49267578125 -18.432861328125 5.9195556640625
49.2216796875 -92.8720703125 -21.19384765625
-72.88525390625 40.7979736328125 4.696044921875
33.634765625 -48.8133544921875 6.204833984375
88.718994140625 -66.8895263671875 -9.013916015625
-28.55859375 -32.4013671875 6.5921630859375
66.02490234375 -69.951171875 5.126220703125
78.989013671875 -76.12646484375 -10.3499755859375
43.956298828125 -58.51953125 -19.044921875
-44.951904296875 -83.1173095703125 11.8428955078125
-37.5419921875 -58.3375244140625 17.4371337890625
-43.149658203125 -42.387451171875 6.3411865234375
65.95361328125 -38.5877685546875 -3.706787109375
-22.438720703125 -33.986572265625 2.4683837890625
66.7060546875 -89.248291015625 -1.623291015625
-20.99365234375 37.3099365234375 11.751220703125
-51.08642578125 -76.546142578125 -0.30322265625
-86.686279296875 39.3890380859375 5.58203125
-7.77880859375 32.6871337890625 11.5791015625
65.226806640625 -17.4459228515625 2.2603759765625
21.85595703125 -58.898681640625 6.1702880859375
20.2060546875 19.43359375 14.8963623046875
70.6650390625 -36.6929931640625 -2.33203125
-89.8740234375 41.516845703125 11.2386474609375
82.87744140625 -93.5364990234375 -6.0040283203125
78.916015625 -53.9093017578125 -6.37841796875
-35.623046875 -53.180419921875 12.66015625
35.55712890625 -116.726806640625 9.397216796875
30.3359375 -54.8292236328125 6.2349853515625
20.146240234375 -90.8428955078125 5.5745849609375
27.3291015625 -36.907958984375 3.32861328125
-51.503173828125 -20.98876953125 6.497802734375
64.64697265625 40.9732666015625 -5.6802978515625
27.16162109375 -16.629638671875 6.1690673828125
-3.66259765625 -26.210205078125 6.1689453125
9.948974609375 48.791748046875 11.44921875
66.8837890625 -14.1790771484375 -2.052978515625
14.620849609375 -22.8807373046875 6.9735107421875
23.552490234375 -40.641845703125 -1.32568359375
-90.50048828125 35.8126220703125 6.5137939453125
31.41748046875 12.28076171875 11.442626953125
67.66796875 -93.0196533203125 3.63427734375
5.904541015625 -90.094970703125 5.5946044921875
2.7353515625 -58.6566162109375 6.049072265625
70.685302734375 -54.609619140625 5.4439697265625
2.926025390625 55.89208984375 11.6851806640625
-60.83349609375 -91.6820068359375 12.0220947265625
48.01904296875 -85.0107421875 -21.569580078125
-68.26904296875 30.9293212890625 5.343505859375
50.27392578125 -50.4630126953125 -21.1490478515625
-60.473876953125 2.7877197265625 7.863037109375
15.956298828125 44.6566162109375 11.2816162109375
33.97265625 57.9715576171875 11.4317626953125
-55.096435546875 -14.8680419921875 6.6944580078125
17.1748046875 -50.111083984375 5.99658203125
42.70849609375 -18.9832763671875 -27.53369140625
51.117431640625 -81.4638671875 -20.6636962890625
9.4326171875 22.691162109375 11.5009765625
83.943603515625 -93.3033447265625 -9.1051025390625
8.129150390625 -56.3304443359375 6.2197265625
39.8359375 -44.848876953125 -18.7144775390625
24.677001953125 -13.405029296875 5.7310791015625
-18.066650390625 -32.6871337890625 1.6783447265625
81.079833984375 -90.0472412109375 5.461669921875
5.769775390625 -62.65234375 6.3135986328125
44.787841796875 -94.335205078125 -12.0997314453125
-53.743408203125 -71.98095703125 -0.0836181640625
2.33203125 4.5919189453125 12.1392822265625
40.84765625 -82.0933837890625 -21.244873046875
-23.32470703125 -40.7696533203125 -3.0521240234375
73.785888671875 -59.5447998046875 5.814208984375
1.0537109375 51.0765380859375 11.4354248046875
6.535888671875 -85.6378173828125 5.849365234375
-58.058837890625 -100.6668701171875 11.8731689453125
73.289794921875 -24.623046875 -4.516845703125
16.98095703125 21.6405029296875 11.59375
-31.626953125 -44.830810546875 6.455810546875
57.16259765625 -46.010986328125 -11.5660400390625
7.373046875 -28.5013427734375 6.572998046875
8.666015625 45.0101318359375 11.6710205078125
-72.528076171875 -3.8721923828125 7.7154541015625
-28.7734375 25.20703125 12.3336181640625
-67.939453125 -8.445556640625 7.077880859375
85.89697265625 -102.8824462890625 -12.99462890625
-88.077392578125 33.062744140625 6.4952392578125
83.3017578125 -77.489013671875 3.692138671875
31.6162109375 -80.966552734375 -13.0513916015625
52.47412109375 -71.19677734375 -15.024658203125
-3.615234375 -43.7086181640625 6.633056640625
31.899658203125 -39.6080322265625 6.40625
-7.599609375 -32.910400390625 6.2626953125
25.072021484375 -47.72216796875 6.230224609375
-11.614013671875 19.7708740234375 11.74853515625
-64.665283203125 -81.7379150390625 0.6610107421875
-7.5078125 -46.283203125 6.2362060546875
64.649658203125 -64.4954833984375 6.4727783203125
81.3037109375 -45.227294921875 -2.662353515625
18.83740234375 -47.091796875 6.323974609375
16.745361328125 -56.1153564453125 6.0614013671875
-73.965087890625 -78.8040771484375 12.2213134765625
27.526611328125 -25.821533203125 6.5418701171875
-65.069091796875 -22.9818115234375 6.906982421875
-22.515625 53.6138916015625 12.3353271484375
28.300537109375 -60.0765380859375 5.945556640625
-59.15283203125 -84.4119873046875 2.7845458984375
76.55908203125 -34.11572265625 -3.3619384765625
38.871337890625 -13.5164794921875 -25.6904296875
-46.790771484375 -50.3753662109375 11.71484375
11.87646484375 25.0218505859375 11.7041015625
-69.08544921875 -15.6593017578125 6.7662353515625
42.66796875 -122.29150390625 -8.734619140625
6.815673828125 -22.8450927734375 6.22509765625
38.51513671875 -112.069580078125 -7.914794921875
45.38916015625 -98.667236328125 -10.888671875
66.88134765625 -36.51708984375 -1.482421875
52.3037109375 -59.2821044921875 -18.663818359375
65.360595703125 12.0013427734375 -0.4964599609375
22.7646484375 -115.0908203125 11.0697021484375
1.39501953125 -54.2100830078125 6.458251953125
37.828369140625 -110.9833984375 10.219482421875
15.62353515625 -80.5245361328125 5.945556640625
-20.67578125 21.991455078125 11.764892578125
-69.80517578125 -61.7562255859375 11.93212890625
70.759521484375 28.3956298828125 -2.877685546875
-81.47509765625 17.9049072265625 7.6527099609375
-39.2734375 -39.4287109375 -0.798828125
93.721435546875 -76.7586669921875 -6.794189453125
34.655029296875 10.8729248046875 11.711669921875
-29.770263671875 -50.9454345703125 18.3125
41.396240234375 -32.7322998046875 -24.65478515625
43.95556640625 -75.830078125 -15.5673828125
21.044921875 -28.69287109375 6.54296875
-49.214111328125 -92.821533203125 14.1790771484375
-49.288818359375 -41.2171630859375 6.540283203125
-3.252685546875 -36.7757568359375 6.328857421875
87.924560546875 -81.6087646484375 -9.699951171875
1.387939453125 38.523681640625 11.2991943359375
4.892822265625 -8.3387451171875 8.8056640625
-1.447998046875 4.2132568359375 12.28466796875
39.28955078125 -23.82763671875 -25.0289306640625
68.1162109375 -27.0087890625 -0.487548828125
-5.3193359375 48.2978515625 11.5067138671875
84.393310546875 -95.9874267578125 -10.69482421875
85.379638671875 -53.081298828125 -5.0419921875
-93.1220703125 28.634765625 7.641845703125
59.868408203125 -95.25390625 3.2061767578125
-29.63037109375 -26.545654296875 6.6202392578125
68.611572265625 23.2091064453125 -2.548583984375
-62.031982421875 -3.4906005859375 7.6734619140625
66.6396484375 -53.0244140625 5.6116943359375
-55.462890625 -81.8909912109375 5.6346435546875
45.03662109375 -80.2215576171875 -22.236083984375
45.568115234375 5.862060546875 -27.9898681640625
23.404052734375 -53.7672119140625 6.2633056640625
36.288818359375 49.9437255859375 13.4703369140625
16.101318359375 -68.95947265625 5.954345703125
6.834716796875 55.758056640625 11.5369873046875
-16.374755859375 -34.5306396484375 -5.471435546875
18.7158203125 -66.80419921875 5.8682861328125
-3.28515625 -30.355224609375 6.522216796875
60.661376953125 -47.1444091796875 -2.425048828125
79.437255859375 -83.0614013671875 5.3406982421875
31.856201171875 42.94580078125 11.3095703125
26.249267578125 -110.0035400390625 11.482421875
0.83740234375 29.0301513671875 11.8553466796875
35.5244140625 -88.71435546875 -18.3646240234375
18.777587890625 32.4862060546875 11.4664306640625
-70.840576171875 -67.8826904296875 12.15576171875
64.85693359375 -2.9122314453125 -0.0955810546875
28.468017578125 -51.5299072265625 6.2376708984375
-66.335693359375 -83.4134521484375 12.037109375
87.66552734375 -60.4095458984375 -10.9329833984375
48.693603515625 -27.949951171875 -27.0980224609375
35.514892578125 -95.2344970703125 -6.2205810546875
39.777587890625 -91.2247314453125 10.75927734375
-24.671142578125 -54.148193359375 6.6082763671875
-19.988037109375 -29.4127197265625 6.1876220703125
-82.3837890625 29.01953125 6.8671875
0.74658203125 -65.411865234375 6.123779296875
8.102294921875 -96.1221923828125 5.590576171875
-29.040771484375 52.54296875 13.0587158203125
35.088623046875 44.7852783203125 10.8236083984375
39.69189453125 -25.9918212890625 6.50830078125
-6.260986328125 39.243408203125 11.4603271484375
-19.022705078125 -28.2252197265625 -3.4722900390625
49.18994140625 -57.144775390625 -18.9293212890625
88.795166015625 -69.7498779296875 -7.8670654296875
-26.566162109375 -35.804443359375 5.8985595703125
13.457275390625 -98.256103515625 5.7696533203125
57.441650390625 -96.000732421875 -13.71337890625
38.480224609375 -18.3797607421875 -23.7259521484375
35.10400390625 -89.794921875 13.014892578125
49.702392578125 -31.8209228515625 -26.4892578125
1.34521484375 -75.54052734375 5.703369140625
-21.17529296875 45.37158203125 11.362548828125
10.868896484375 42.27978515625 11.131591796875
37.371826171875 -3.6016845703125 -25.260009765625
26.114501953125 16.70703125 11.57177734375
47.9619140625 -43.938720703125 -21.18310546875
38.142822265625 -83.98876953125 -20.25927734375
-6.809326171875 -53.8358154296875 6.126708984375
-110.367919921875 40.880615234375 7.8790283203125
-80.247802734375 2.704833984375 10.840576171875
-36.154296875 -55.0328369140625 16.878662109375
18.4931640625 -81.5823974609375 5.7470703125
85.44775390625 -89.3411865234375 -9.6044921875
-10.64892578125 12.440185546875 11.9407958984375
-65.926513671875 -89.852783203125 12.04541015625
70.420166015625 -87.0975341796875 -2.2415771484375
-17.5634765625 37.985595703125 11.252197265625
-43.177490234375 -27.2388916015625 6.7784423828125
12.76123046875 18.4620361328125 11.642578125
-66.59228515625 -91.2470703125 14.7474365234375
-8.802978515625 57.2186279296875 11.2237548828125
-60.272216796875 -70.7386474609375 1.6734619140625
71.956787109375 -44.39990234375 -2.3463134765625
70.5537109375 7.9468994140625 -2.1719970703125
74.30859375 -97.3243408203125 6.0667724609375
-78.651611328125 42.9158935546875 5.2071533203125
-54.328857421875 -82.3206787109375 11.3955078125
39.437744140625 -34.848388671875 -21.171875
30.73046875 19.65234375 11.2459716796875
53.4013671875 -51.5623779296875 -20.048095703125
69.1259765625 -76.534423828125 5.493408203125
3.248291015625 20.27783203125 11.81640625
-3.784423828125 58.74755859375 11.6407470703125
-11.709716796875 40.489990234375 11.5914306640625
10.0107421875 -20.5501708984375 6.696044921875
47.72216796875 -121.7850341796875 -6.1124267578125
39.107666015625 -93.713623046875 -2.8544921875
78.666015625 -36.2418212890625 -2.91015625
64.81396484375 -41.9803466796875 -2.43505859375
35.5107421875 -96.0926513671875 -15.9715576171875
-48.816650390625 -10.2161865234375 6.3165283203125
38.6640625 -95.21923828125 -8.8927001953125
31.48779296875 -84.765380859375 -8.8004150390625
6.889404296875 48.7615966796875 11.4091796875
-29.532470703125 32.25537109375 11.6162109375
37.194580078125 -25.882080078125 -20.1846923828125
2.875 13.002197265625 12.096923828125
-86.586669921875 26.4163818359375 6.954345703125
-23.34228515625 50.55615234375 15.362060546875
72.10302734375 -79.60986328125 2.8055419921875
72.884033203125 22.246337890625 -1.73681640625
-78.48291015625 -3.177734375 9.2060546875
12.359375 -50.892333984375 6.1142578125
28.31005859375 35.8616943359375 11.5557861328125
13.213134765625 1.3408203125 12.107421875
-51.7705078125 -46.1068115234375 8.9398193359375
73.703125 -47.203857421875 -4.2744140625
37.5 -58.9072265625 5.857421875
44.05908203125 -64.23291015625 -17.4931640625
56.36474609375 -81.2967529296875 -17.5916748046875
57.946044921875 -92.6556396484375 -15.8243408203125
73.59326171875 -2.67041015625 -0.3603515625
-69.74609375 24.681640625 6.2528076171875
79.369384765625 -49.6741943359375 -4.9931640625
74.5 -78.28662109375 5.001708984375
64.703857421875 -46.9110107421875 -0.6517333984375
20.987548828125 -43.8350830078125 0.1551513671875
32.36767578125 -109.0245361328125 11.26953125
-48.5390625 -47.31982421875 6.5472412109375
-61.5537109375 -82.6888427734375 4.1226806640625
39.872802734375 -94.9825439453125 -15.3863525390625
90.21484375 -82.260986328125 -7.8917236328125
-12.35107421875 -30.9664306640625 4.837890625
44.193603515625 -26.0596923828125 -25.96533203125
-50.62353515625 -49.4342041015625 11.6380615234375
74.4853515625 -54.7784423828125 -2.9908447265625
-46.1474609375 -88.8294677734375 11.621337890625
69.581787109375 -40.148681640625 0.9141845703125
24.12890625 -56.975830078125 6.342529296875
68.952392578125 -33.5064697265625 1.38232421875
-71.5087890625 10.6483154296875 7.85791015625
-75.518798828125 12.3651123046875 8.0078125
-10.62841796875 29.5733642578125 11.7869873046875
-76.904296875 32.5565185546875 5.9442138671875
23.805419921875 31.3792724609375 11.4906005859375
70.37890625 -9.4920654296875 -3.1837158203125
89.30029296875 -76.068603515625 -7.9190673828125
-43.375 -39.4847412109375 5.7548828125
-27.5537109375 45.4365234375 12.0714111328125
-63.7236328125 -81.25927734375 9.9552001953125
75.90185546875 -62.2203369140625 5.32177734375
6.35595703125 22.0364990234375 11.3433837890625
32.648681640625 -62.417236328125 5.989990234375
-72.887939453125 6.375 8.358642578125
-25.86328125 -30.026611328125 -3.4012451171875
-2.78759765625 55.7965087890625 11.57373046875
40.698486328125 -13.9188232421875 -28.01318359375
40.542724609375 -106.6932373046875 -11.296630859375
3.331787109375 -95.522705078125 5.7083740234375
84.373046875 -74.6951904296875 -8.6849365234375
-13.9375 -32.588134765625 -0.112548828125
-100.358154296875 43.479736328125 4.545166015625
16.62109375 -35.880615234375 5.253173828125
-19.8974609375 -26.6402587890625 4.63916015625
39.5224609375 -7.814697265625 7.9161376953125
15.926025390625 -96.3665771484375 5.4713134765625
-55.50537109375 -74.1627197265625 3.3502197265625
-9.76953125 42.7154541015625 11.57666015625
68.3935546875 -17.673583984375 -3.30712890625
-60.89306640625 18.6295166015625 7.385009765625
-55.096923828125 -27.7962646484375 6.474853515625
84.345458984375 -58.162109375 -7.7200927734375
39.458251953125 -28.84228515625 -23.9932861328125
-38.644775390625 -83.4835205078125 15.0906982421875
16.606201171875 18.5224609375 11.74560546875
0.00537109375 -95.078857421875 5.61474609375
-9.8388671875 46.2091064453125 11.703369140625
37.790771484375 11.941162109375 11.7413330078125
65.764892578125 27.0828857421875 0.7161865234375
4.18310546875 43.8330078125 11.6055908203125
-54.70361328125 -94.4176025390625 11.9287109375
-21.321044921875 58.82470703125 11.0782470703125
74.92578125 -40.7518310546875 -4.554931640625
-83.60205078125 45.5528564453125 5.035400390625
83.080810546875 -68.6241455078125 -8.358642578125
-43.064208984375 -68.447509765625 12.0968017578125
75.8935546875 -58.0804443359375 -7.1129150390625
2.17431640625 -0.84033203125 12.5216064453125
17.874755859375 12.3447265625 11.4052734375
31.541015625 -36.703369140625 6.4197998046875
32.512939453125 23.00634765625 11.374267578125
-19.094482421875 -52.511962890625 6.424072265625
80.18896484375 -39.2840576171875 -2.4091796875
-82.128662109375 7.910888671875 10.211181640625
-76.37060546875 23.6112060546875 6.8614501953125
12.197509765625 -55.3641357421875 6.3817138671875
-61.762939453125 -88.881591796875 12.404052734375
36.459228515625 -30.6300048828125 6.1622314453125
-11.341552734375 1.474609375 12.0068359375
-0.084228515625 -68.718017578125 5.8680419921875
93.336669921875 -79.91015625 -8.2613525390625
49.136962890625 -37.7720947265625 -24.2890625
39.451904296875 -93.07470703125 -20.4730224609375
-48.614990234375 -80.7362060546875 6.33544921875
-64.712158203125 7.4937744140625 7.8831787109375
53.81982421875 -41.4981689453125 -22.8819580078125
-56.652587890625 6.043701171875 7.439697265625
45.29541015625 -113.3016357421875 -7.6512451171875
79.731689453125 -65.6524658203125 2.9903564453125
72.03759765625 -33.9317626953125 -3.8515625
70.095458984375 -2.88818359375 -2.6353759765625
81.982666015625 -60.29345703125 -7.51806640625
-58.066650390625 -107.0880126953125 12.2332763671875
21.67822265625 -73.1243896484375 5.9189453125
80.56787109375 -71.1260986328125 1.5909423828125
18.6083984375 24.022216796875 11.856689453125
-21.55322265625 7.37841796875 12.1080322265625
36.943115234375 55.2247314453125 12.9161376953125
-12.638671875 35.4376220703125 11.54052734375
4.70068359375 10.7615966796875 11.96826171875
46.143798828125 -14.711181640625 -27.7239990234375
-95.515625 33.5369873046875 7.0235595703125
-25.264892578125 -17.2015380859375 5.994140625
-73.528076171875 -18.9244384765625 8.2896728515625
-22.602783203125 -41.553466796875 0.5228271484375
-42.20849609375 -46.1761474609375 6.9962158203125
33.052734375 32.8817138671875 11.3446044921875
-36.24267578125 -53.556396484375 6.52197265625
32.929443359375 17.0146484375 11.3394775390625
41.737548828125 -94.1673583984375 -12.6180419921875
-62.329345703125 -30.541748046875 6.55908203125
50.23681640625 -97.7496337890625 -9.8895263671875
7.387451171875 -73.3643798828125 5.816162109375
-60.044189453125 -82.2950439453125 -1.4833984375
82.0302734375 -79.1328125 -2.4925537109375
-28.408447265625 56.860595703125 11.460205078125
37.5673828125 -123.6129150390625 -6.279541015625
-20.37646484375 16.9869384765625 14.8719482421875
39.275146484375 -2.393310546875 -28.6734619140625
-16.832275390625 -0.807373046875 13.012939453125
-24.556640625 48.493408203125 13.6444091796875
32.200439453125 -94.34228515625 -13.9085693359375
28.46875 -66.5367431640625 5.85205078125
-24.363037109375 -1.500732421875 12.693115234375
16.01220703125 -41.1658935546875 5.9119873046875
54.5009765625 -36.5484619140625 -23.85400390625
70.06591796875 -73.83349609375 5.53369140625
-24.36865234375 42.5380859375 11.97900390625
-53.487060546875 -84.407958984375 -0.5264892578125
-33.660400390625 -41.9215087890625 3.1416015625
-26.046875 38.6505126953125 11.3482666015625
39.89990234375 -62.49755859375 -17.024658203125
-6.013427734375 0.57275390625 12.24267578125
-1.679443359375 -50.152587890625 6.192138671875
72.3486328125 -62.45458984375 5.5750732421875
-49.103759765625 -88.343505859375 11.608642578125
65.66552734375 14.5771484375 0.6878662109375
50.923828125 -117.4388427734375 -6.8349609375
-67.640625 -26.7008056640625 6.4351806640625
35.73681640625 -93.8333740234375 -18.4298095703125
-2.34228515625 -70.0220947265625 7.277587890625
84.053466796875 -105.34033203125 -12.2845458984375
4.7255859375 -36.478271484375 6.223388671875
-23.12890625 32.7122802734375 11.5362548828125
-0.68603515625 -0.657958984375 12.7247314453125
28.8525390625 -33.232421875 6.4791259765625
-38.5771484375 -55.0589599609375 11.83935546875
15.166748046875 38.065185546875 11.467529296875
42.12255859375 -95.103515625 -21.6243896484375
-42.39453125 -38.4100341796875 2.584716796875
-53.604248046875 -22.88818359375 6.550537109375
6.6865234375 -40.1766357421875 6.4556884765625
-76.652587890625 15.503662109375 7.332275390625
12.578369140625 -34.5625 6.3531494140625
54.0126953125 -96.6063232421875 -4.317138671875
41.3271484375 -64.9404296875 -17.2742919921875
23.365234375 -117.8150634765625 10.5914306640625
-10.35107421875 -43.7559814453125 6.421142578125
-73.611083984375 -1.0955810546875 8.00341796875
-38.302490234375 -33.97998046875 0.860107421875
-14.185791015625 -18.9530029296875 5.8062744140625
-0.11181640625 -90.566162109375 6.028076171875
3.707763671875 -72.3123779296875 5.9595947265625
-26.046630859375 -51.6812744140625 6.116455078125
58.301025390625 -39.85693359375 -11.551025390625
21.735107421875 49.8455810546875 13.3299560546875
-46.159912109375 -53.1937255859375 12.3726806640625
27.469482421875 -38.70849609375 5.5472412109375
50.256103515625 -72.940185546875 -15.03369140625
14.44140625 -29.671630859375 6.4285888671875
-102.945068359375 34.79150390625 9.75244140625
50.144775390625 -19.045166015625 -29.3883056640625
-3.094482421875 32.6009521484375 11.4990234375
-13.012451171875 -46.556884765625 6.401611328125
48.12060546875 -118.9140625 -6.7108154296875
40.722412109375 -38.6866455078125 -23.100830078125
23.019287109375 -35.9476318359375 -1.46142578125
39.5615234375 -115.7545166015625 -10.090087890625
12.38330078125 -27.100830078125 6.561767578125
-89.0009765625 28.7032470703125 7.101318359375
2.72314453125 26.82568359375 11.8492431640625
-36.13720703125 -40.776611328125 0.69189453125
83.952880859375 -77.3984375 -8.0628662109375
-31.335205078125 -32.7034912109375 6.7933349609375
-10.40869140625 -22.033935546875 6.3861083984375
-77.22265625 -0.865234375 8.2598876953125
36.71533203125 -11.2005615234375 6.790283203125
-15.528564453125 13.380615234375 12.410400390625
9.579833984375 -68.7596435546875 6.079833984375
-62.15673828125 -27.5125732421875 6.745849609375
-43.090576171875 -58.818603515625 12.289794921875
43.671142578125 -118.74169921875 -8.7764892578125
41.47021484375 -88.9654541015625 -21.2696533203125
-64.105712890625 21.2095947265625 6.615966796875
3.19140625 -48.832275390625 6.1802978515625
44.485595703125 -36.614013671875 -23.4453125
31.612548828125 -75.4915771484375 13.18896484375
77.51953125 -79.087646484375 5.2425537109375
-16.202880859375 -50.7720947265625 6.31787109375
34.498046875 -58.255126953125 6.068603515625
90.20166015625 -93.343505859375 -9.6630859375
37.734130859375 -40.6920166015625 6.3465576171875
24.065673828125 36.1322021484375 11.8572998046875
40.263427734375 -101.5528564453125 -11.7080078125
-48.798095703125 -70.1864013671875 -0.5809326171875
-19.980224609375 -23.396240234375 -2.2271728515625
