17.203369140625 -13.2822265625 4.3250732421875
-32.421142578125 -60.0301513671875 -9.080322265625
31.545654296875 61.688720703125 -11.8802490234375
39.718505859375 31.8115234375 -21.2100830078125
-1.707275390625 -28.6259765625 -0.417724609375
6.10888671875 -7.738037109375 4.3304443359375
39.273193359375 -83.9298095703125 -1.3973388671875
-26.43115234375 26.4705810546875 3.30908203125
16.599609375 -7.8753662109375 4.0201416015625
27.46630859375 -96.490966796875 -14.9263916015625
-74.46533203125 -95.7977294921875 1.17724609375
-54.515869140625 -64.656005859375 -1.5809326171875
36.309814453125 -93.6021728515625 -0.8050537109375
3.156982421875 -61.923828125 -1.2255859375
28.14794921875 -104.3399658203125 -24.2637939453125
-9.859619140625 63.6746826171875 14.3883056640625
11.567626953125 56.7132568359375 6.5980224609375
-67.724853515625 -93.720703125 -6.1884765625
-26.358154296875 46.7174072265625 3.8916015625
21.029296875 52.77783203125 3.8671875
-101.6123046875 34.2462158203125 1.9716796875
-32.076416015625 -42.587890625 -3.1246337890625
7.687255859375 -58.5135498046875 -1.755859375
-32.073486328125 -51.6871337890625 6.12060546875
-87.126953125 31.740234375 -2.22216796875
17.827880859375 -98.594970703125 -1.10498046875
69.025634765625 23.447509765625 -11.63427734375
-7.5791015625 -59.26953125 -1.198974609375
-14.34619140625 12.4300537109375 3.576904296875
69.918212890625 -103.568359375 -12.6776123046875
70.058837890625 -65.48779296875 -6.444580078125
84.328125 -89.9974365234375 -14.0953369140625
21.533447265625 -16.9349365234375 4.3753662109375
-36.96630859375 -46.4251708984375 10.3797607421875
31.956787109375 39.3759765625 2.839599609375
-75.64697265625 -94.2991943359375 -8.3775634765625
-2.90087890625 -69.712158203125 -1.036865234375
84.5859375 -97.806640625 -16.9144287109375
30.552001953125 1.4666748046875 -23.1044921875
72.057861328125 -86.0621337890625 -6.2962646484375
-5.81298828125 -79.1968994140625 -0.9793701171875
5.850341796875 12.94873046875 3.8206787109375
5.679443359375 2.524658203125 3.7288818359375
30.9814453125 -97.134765625 -4.162109375
10.223388671875 -80.27978515625 -1.3485107421875
-3.1201171875 -42.006103515625 -1.5009765625
-14.06298828125 31.388671875 3.149658203125
11.56689453125 -92.417236328125 -1.2484130859375
-73.738525390625 -70.4447021484375 14.4263916015625
-10.263427734375 -36.292236328125 -1.253662109375
25.400146484375 48.8841552734375 -14.2659912109375
13.235595703125 17.99951171875 3.2525634765625
21.170654296875 11.3946533203125 3.5166015625
-74.9541015625 -13.398193359375 0.3172607421875
-17.0263671875 -43.759033203125 -2.03466796875
-53.872802734375 -84.3621826171875 -1.59423828125
37.92919921875 20.3551025390625 -23.0950927734375
13.797119140625 7.4664306640625 3.807373046875
31.215087890625 -34.8115234375 -5.4371337890625
2.16015625 19.3896484375 3.4627685546875
-63.27197265625 -95.1961669921875 -8.46240234375
8.973388671875 -30.6424560546875 -0.8902587890625
-7.973388671875 24.77392578125 3.2557373046875
37.542236328125 -95.2569580078125 -13.8717041015625
25.11669921875 32.6693115234375 4.20556640625
17.795654296875 -88.139404296875 -1.40380859375
-24.319580078125 -53.314453125 -11.4024658203125
67.11328125 4.064208984375 -3.549072265625
6.77587890625 -12.8653564453125 4.18310546875
79.02197265625 -66.235107421875 -11.7550048828125
42.6435546875 -94.7352294921875 -19.9100341796875
-57.921875 -80.714111328125 -5.320068359375
32.390380859375 -101.0694580078125 3.3603515625
17.873779296875 -54.1485595703125 -8.505859375
69.695556640625 33.533935546875 -11.5880126953125
25.90087890625 33.2301025390625 -19.2542724609375
-43.015380859375 -43.6978759765625 -1.5093994140625
14.8037109375 -36.324951171875 -0.8817138671875
38.66357421875 10.94677734375 -24.4410400390625
4.720458984375 -24.3594970703125 2.0164794921875
24.46435546875 -104.8828125 -16.84814453125
-57.378173828125 -30.1800537109375 -1.880859375
-19.7333984375 40.60498046875 3.1646728515625
30.536865234375 -10.7823486328125 -25.072021484375
-80.562744140625 -75.49560546875 14.4564208984375
64.9833984375 -103.7047119140625 -8.0621337890625
30.6015625 -3.7083740234375 -27.6351318359375
12.589111328125 -75.786865234375 -0.779296875
-6.0166015625 -32.228515625 -1.149169921875
23.296875 52.1416015625 -5.4859619140625
-4.099853515625 -83.742919921875 -1.1497802734375
-28.85498046875 -34.4395751953125 -0.9862060546875
-4.466796875 43.0528564453125 2.7974853515625
-79.184814453125 24.4923095703125 -2.7054443359375
27.232666015625 -99.3359375 3.1158447265625
-1.65869140625 66.077880859375 17.694091796875
34.021484375 -119.88525390625 9.43798828125
-63.819091796875 -9.51904296875 -0.373046875
-21.707275390625 -42.6072998046875 -1.8702392578125
33.31201171875 8.913818359375 0.0654296875
-55.572998046875 -87.99267578125 -9.376953125
-52.150634765625 -82.5787353515625 4.03125
-13.517578125 -19.81298828125 4.0281982421875
-3.6572265625 15.233642578125 3.3046875
30.651123046875 -115.8389892578125 -19.988037109375
80.750244140625 -75.6180419921875 -17.3902587890625
62.801513671875 39.127197265625 -14.2349853515625
24.68798828125 43.841796875 -10.8914794921875
38.3134765625 -101.0570068359375 -29.273681640625
-43.273193359375 -43.6767578125 7.9793701171875
6.96923828125 47.6878662109375 3.20068359375
1.1640625 56.411865234375 6.24755859375
-4.271240234375 58.800048828125 9.075439453125
-28.07568359375 16.3089599609375 3.6986083984375
14.3212890625 28.3739013671875 3.2030029296875
30.2880859375 42.9559326171875 -17.55908203125
2.728759765625 -104.7568359375 -0.3896484375
-8.610107421875 -103.0794677734375 -1.4876708984375
65.38427734375 43.8416748046875 8.2470703125
39.5458984375 -97.7657470703125 -10.3751220703125
-63.202880859375 -78.2640380859375 0.7452392578125
29.821533203125 32.50341796875 -22.4527587890625
12.336669921875 -16.6207275390625 4.351806640625
5.760009765625 62.0025634765625 11.398681640625
-21.514892578125 -0.6746826171875 3.663330078125
-23.877197265625 -32.6065673828125 -1.5755615234375
28.01708984375 18.0830078125 -24.363525390625
35.860107421875 -50.9722900390625 -28.31005859375
14.886474609375 -62.474609375 -7.2545166015625
34.9169921875 30.4658203125 2.2447509765625
-31.57763671875 20.0953369140625 3.3521728515625
16.63818359375 -27.400634765625 0.658935546875
6.659912109375 -41.8009033203125 -1.3612060546875
-68.681884765625 -28.698974609375 -1.7637939453125
19.2744140625 26.8956298828125 3.205078125
37.31298828125 -81.4129638671875 -24.3587646484375
-62.185302734375 -48.534423828125 -1.7535400390625
12.276611328125 -69.087890625 -1.3131103515625
20.053466796875 42.1820068359375 3.2489013671875
34.968017578125 -89.3253173828125 -17.245361328125
-35.72607421875 -55.0911865234375 1.527587890625
-77.031982421875 -103.23486328125 4.3707275390625
34.679443359375 -31.85986328125 -4.57080078125
88.15673828125 -75.55712890625 -18.328125
-69.457763671875 -65.2789306640625 15.3499755859375
-63.316650390625 -84.236328125 -6.7259521484375
-0.7421875 -53.2283935546875 -1.38330078125
69.891357421875 15.9283447265625 -11.9921875
20.572265625 -21.854736328125 3.1513671875
-67.343017578125 -116.7755126953125 6.126708984375
-2.2138671875 -13.0291748046875 4.036376953125
-75.404296875 -88.2423095703125 -5.5086669921875
67.999267578125 -22.575927734375 -9.7928466796875
-85.182861328125 -71.3509521484375 17.1466064453125
-80.553466796875 -65.20751953125 16.51806640625
-47.185791015625 -51.5555419921875 -3.364501953125
-29.9306640625 1.1865234375 5.1121826171875
64.669189453125 25.1466064453125 -13.4578857421875
-11.80322265625 67.5501708984375 18.1463623046875
-86.782958984375 -2.7225341796875 0.4427490234375
32.936279296875 -52.658935546875 -24.6900634765625
4.154052734375 -70.1282958984375 -1.4827880859375
27.77294921875 -36.8388671875 -1.6947021484375
76.423095703125 -107.4090576171875 -14.02978515625
39.346435546875 -89.906982421875 -1.0924072265625
10.427490234375 -5.785400390625 4.198974609375
-18.45361328125 53.8731689453125 11.2381591796875
25.244384765625 39.1590576171875 -16.96875
16.144287109375 35.1690673828125 5.087158203125
14.26904296875 63.5615234375 11.7352294921875
30.027587890625 10.9241943359375 -26.82470703125
-10.40380859375 44.654541015625 3.225341796875
76.8193359375 -58.6759033203125 -9.5645751953125
-13.91015625 2.6668701171875 3.8106689453125
14.853515625 53.44970703125 4.1409912109375
19.68408203125 -126.4847412109375 5.2562255859375
24.2373046875 -63.5460205078125 -4.993896484375
90.392822265625 -83.056884765625 -17.3914794921875
22.77392578125 -112.3804931640625 -15.2506103515625
38.78466796875 -61.322021484375 -27.6593017578125
-72.59716796875 1.7012939453125 -0.4595947265625
22.610595703125 56.337158203125 6.115478515625
30.092529296875 24.79052734375 2.92236328125
-12.878662109375 35.7762451171875 3.3157958984375
7.40185546875 -55.0653076171875 1.1114501953125
74.34228515625 -92.3529052734375 -5.4576416015625
8.528564453125 -107.67919921875 -0.1220703125
-20.33642578125 -17.4053955078125 4.475341796875
-96.937255859375 18.45849609375 -0.9454345703125
32.804931640625 -97.6971435546875 -9.7803955078125
-96.252685546875 34.0418701171875 2.160888671875
-66.27294921875 -77.83251953125 -4.931884765625
-38.5400390625 69.05517578125 22.0391845703125
29.389404296875 -59.926513671875 -1.0557861328125
10.739501953125 -62.9954833984375 -1.9051513671875
-2.35498046875 50.22998046875 3.2799072265625
39.630859375 -98.7447509765625 -21.6846923828125
35.4228515625 -75.8369140625 -1.1285400390625
27.873046875 35.7860107421875 5.7674560546875
-38.470947265625 -96.4776611328125 9.714599609375
37.09326171875 41.5948486328125 -19.847900390625
47.09765625 -91.1143798828125 -1.6053466796875
-43.4072265625 -88.87646484375 5.463134765625
5.678466796875 -92.1890869140625 -1.3822021484375
-65.6591796875 -98.9014892578125 -8.9727783203125
-72.6396484375 -75.6392822265625 4.4072265625
-4.027099609375 -97.1016845703125 -1.0628662109375
-79.678955078125 -19.160400390625 -0.898681640625
-76.49072265625 -91.897216796875 1.7481689453125
-28.79736328125 -16.2281494140625 4.6968994140625
34.46435546875 -108.362548828125 2.8424072265625
-76.215087890625 -23.279052734375 -1.4615478515625
12.766845703125 -57.424072265625 -8.556884765625
-65.4287109375 -13.5458984375 0.4461669921875
59.590576171875 35.477783203125 -5.3887939453125
-59.70458984375 -93.2720947265625 -6.7313232421875
-82.493408203125 -10.3868408203125 0.7811279296875
9.93212890625 14.560791015625 3.4810791015625
28.15576171875 18.0740966796875 3.318359375
-88.42138671875 5.3594970703125 -0.3773193359375
34.12890625 -110.09619140625 -24.716552734375
-105.610107421875 31.738037109375 -1.523681640625
28.05859375 -119.5372314453125 8.1864013671875
-22.70751953125 10.561279296875 3.3355712890625
-87.277587890625 22.8526611328125 -1.908447265625
24.126953125 20.2493896484375 3.2918701171875
-19.233154296875 3.075927734375 3.6173095703125
-58.835693359375 -68.5596923828125 4.2398681640625
8.053466796875 -35.0316162109375 -1.3218994140625
74.93212890625 -97.612060546875 -14.6324462890625
21.742919921875 63.3212890625 7.125732421875
1.031982421875 -40.2080078125 -1.278564453125
-2.06640625 -111.18994140625 -1.0517578125
23.822998046875 28.584228515625 3.3355712890625
-10.741943359375 -41.2137451171875 -1.2386474609375
15.261962890625 -133.701171875 6.479736328125
71.485595703125 -99.5972900390625 -10.355712890625
-23.048583984375 -41.5076904296875 -6.3846435546875
-26.65771484375 -42.8817138671875 -0.3193359375
2.508544921875 -75.8511962890625 -0.836181640625
25.089111328125 -14.4462890625 4.0628662109375
-16.719482421875 -5.1827392578125 3.928466796875
-36.6044921875 -57.9718017578125 -1.8028564453125
-71.119384765625 -79.880126953125 -6.9525146484375
34.968505859375 12.338623046875 2.96630859375
-44.851806640625 -55.9285888671875 -7.698974609375
66.22216796875 5.0697021484375 -10.1317138671875
-63.8994140625 -40.262939453125 -1.66650390625
85.428955078125 -82.9765625 -19.2911376953125
15.57275390625 -52.22216796875 -5.4034423828125
24.200927734375 -110.9775390625 -22.8739013671875
35.15869140625 -40.0772705078125 -29.1488037109375
60.15087890625 23.367431640625 -8.1246337890625
25.333984375 -6.703857421875 3.84375
66.304931640625 -109.32666015625 -14.651123046875
-18.3701171875 -12.172607421875 4.23486328125
72.916015625 -51.8741455078125 -7.885498046875
-71.77880859375 -84.6126708984375 -9.5377197265625
24.19287109375 1.07080078125 -8.6556396484375
-1.182861328125 -106.2078857421875 -1.4039306640625
-32.01708984375 41.5638427734375 3.395263671875
60.156982421875 28.0823974609375 -3.5728759765625
-74.044921875 -8.7454833984375 0.57861328125
32.48779296875 -47.818115234375 -27.8282470703125
-27.130615234375 -23.7059326171875 2.3924560546875
-31.197998046875 26.890625 3.4910888671875
-68.533447265625 -68.983642578125 7.3043212890625
33.2080078125 -43.9534912109375 -23.896240234375
-17.35888671875 -34.1617431640625 -1.634765625
29.4853515625 -122.625 -11.625
-12.8330078125 -45.656005859375 -1.602783203125
32.953369140625 56.6463623046875 -13.2708740234375
37.45654296875 -72.01513671875 -1.0145263671875
57.6572265625 37.983154296875 -0.2513427734375
-0.67041015625 -7.240478515625 4.10009765625
34.292724609375 -24.845703125 3.284912109375
10.373291015625 -21.2264404296875 3.41650390625
-60.84765625 -64.498779296875 9.6295166015625
-101.28466796875 31.9241943359375 -1.989013671875
-45.5234375 -63.728759765625 -5.5078125
-35.366455078125 -47.6328125 14.090576171875
-70.854736328125 -55.1632080078125 18.4820556640625
72.9501953125 -73.996337890625 -8.780029296875
-22.239990234375 -55.228515625 -15.792236328125
-64.90966796875 -18.8052978515625 -0.0882568359375
43.168212890625 -82.34814453125 -1.1923828125
-8.253173828125 9.73974609375 3.6240234375
21.466064453125 -92.3751220703125 -0.994384765625
1.146240234375 28.1007080078125 3.252197265625
31.957275390625 -37.451416015625 -2.0380859375
27.226318359375 64.41259765625 -5.989013671875
32.74658203125 -96.9974365234375 -25.47216796875
4.026611328125 -83.8868408203125 -1.153564453125
-36.642822265625 -37.6097412109375 -1.20654296875
-93.06494140625 27.217529296875 1.501220703125
-35.868408203125 -90.276123046875 13.452880859375
35.239501953125 22.006103515625 3.2952880859375
28.020263671875 61.5225830078125 -9.1632080078125
4.938720703125 -99.5009765625 -1.2955322265625
-16.056640625 49.6014404296875 13.8365478515625
61.140380859375 46.6142578125 -8.36279296875
33.426513671875 50.7301025390625 -15.1878662109375
-109.11279296875 34.91455078125 -1.6746826171875
-72.708984375 -32.5364990234375 -1.862548828125
63.172607421875 53.5966796875 -11.69287109375
28.57421875 23.0704345703125 -24.4947509765625
82.906982421875 -93.8118896484375 -14.9429931640625
37.2041015625 -88.451171875 -23.3057861328125
24.719970703125 -108.7637939453125 -14.6309814453125
16.45751953125 -84.2100830078125 -1.4674072265625
-31.681396484375 -60.4669189453125 -4.409912109375
-23.027099609375 -45.20654296875 -13.870849609375
2.408935546875 -20.151123046875 4.04443359375
-14.73486328125 21.492431640625 3.3128662109375
-52.210693359375 -59.9898681640625 -1.666748046875
25.660400390625 35.251220703125 -15.665771484375
-29.755859375 -40.114501953125 0.4520263671875
7.96240234375 -120.3807373046875 2.1280517578125
-95.76806640625 23.78564453125 -0.94091796875
37.40234375 63.322998046875 -12.648681640625
26.263427734375 -126.130859375 5.914794921875
-50.13623046875 -34.6749267578125 -0.9482421875
12.908203125 48.180419921875 3.537841796875
-48.616943359375 -86.7779541015625 4.35888671875
59.8203125 -0.0992431640625 -10.6351318359375
22.2080078125 65.912353515625 -2.7286376953125
12.147216796875 -48.3297119140625 0.7208251953125
35.1259765625 36.1795654296875 -19.4869384765625
-15.202880859375 60.9365234375 11.7064208984375
-11.155029296875 -12.98095703125 4.46044921875
78.349609375 -100.24072265625 -15.3160400390625
-26.483642578125 68.402587890625 20.2938232421875
31.93603515625 -123.54736328125 -14.754150390625
-4.1103515625 -1.2374267578125 3.87353515625
34.058837890625 -63.2510986328125 -25.7457275390625
-17.441162109375 44.9310302734375 3.3544921875
-20.540283203125 57.5091552734375 11.244140625
43.5693359375 -93.039306640625 -0.7900390625
8.550537109375 -83.9620361328125 -1.0450439453125
33.864013671875 -83.0511474609375 -19.7105712890625
-68.990478515625 -90.054931640625 -7.3643798828125
32.81884765625 -103.2899169921875 -0.001953125
-58.16259765625 -85.541259765625 -7.460693359375
-7.54736328125 52.7467041015625 4.048828125
-84.51123046875 14.4627685546875 -0.976806640625
67.205810546875 -31.1395263671875 -9.322021484375
-17.37646484375 66.900146484375 17.8323974609375
12.226806640625 -110.798095703125 -2.1849365234375
-1.081787109375 24.42333984375 3.297119140625
-77.332275390625 -68.708984375 14.8526611328125
-50.6806640625 -50.4429931640625 -0.780517578125
71.453369140625 21.6363525390625 -15.6558837890625
-80.9482421875 -54.9906005859375 18.722900390625
27.196533203125 49.3399658203125 2.4014892578125
-11.26611328125 -84.2210693359375 -0.9696044921875
16.451416015625 44.68115234375 2.9996337890625
1.488037109375 63.3165283203125 11.8074951171875
-10.251708984375 -7.389404296875 4.4017333984375
43.93310546875 -64.8297119140625 -1.0623779296875
-32.561767578125 33.89697265625 3.523193359375
10.232177734375 -55.9368896484375 -3.8480224609375
27.50244140625 -63.38818359375 -1.64306640625
-58.075927734375 -44.045654296875 -1.6138916015625
33.499267578125 -100.4432373046875 -27.3580322265625
-18.417236328125 -27.0106201171875 0.153564453125
-16.155029296875 41.14501953125 12.5037841796875
36.546630859375 49.116455078125 -17.0599365234375
46.084228515625 -69.545166015625 -1.1424560546875
20.97021484375 37.326904296875 3.2734375
-25.3759765625 -54.4366455078125 -7.591796875
-115.195556640625 27.7510986328125 -0.8892822265625
-7.9658203125 -48.9365234375 -1.34326171875
-48.760009765625 -59.415771484375 -4.149169921875
59.271240234375 41.1383056640625 -9.0262451171875
-76.748779296875 8.806884765625 -1.1429443359375
74.394775390625 -99.893310546875 -2.2977294921875
-72.94091796875 -105.82080078125 4.34619140625
-61.62060546875 -25.10595703125 -1.25732421875
-83.892333984375 30.8074951171875 -0.096923828125
73.858642578125 -90.6259765625 -15.4307861328125
-82.085205078125 -28.3353271484375 -1.4290771484375
21.763916015625 -131.33154296875 3.8514404296875
30.016357421875 -30.086669921875 -1.34912109375
63.734619140625 30.478759765625 -13.0892333984375
-81.935791015625 -81.195068359375 4.70947265625
-56.0693359375 -54.3338623046875 -1.6448974609375
32.252197265625 -38.1878662109375 -27.294677734375
31.209716796875 -29.1729736328125 -28.8365478515625
26.57568359375 -96.430419921875 -21.7099609375
64.109375 -40.2855224609375 -9.211181640625
34.849609375 -93.097900390625 -21.3477783203125
2.827880859375 39.8328857421875 3.4234619140625
-4.212890625 33.30224609375 3.240478515625
-58.175048828125 -95.8359375 -9.2552490234375
64.6552734375 5.9808349609375 -6.0096435546875
-50.92138671875 -66.176025390625 -1.502685546875
-13.679931640625 52.90673828125 4.531982421875
-31.394287109375 -7.11767578125 4.2396240234375
19.743896484375 -71.1854248046875 -0.48291015625
-73.50048828125 -70.6060791015625 9.2088623046875
-100.033935546875 25.308349609375 -0.1827392578125
-59.1513671875 -77.552978515625 3.658447265625
-91.8466796875 10.730712890625 -0.5692138671875
27.345703125 -34.02392578125 -7.2685546875
-17.266845703125 49.957763671875 3.722900390625
-24.92919921875 0.5390625 5.0185546875
81.39306640625 -79.3193359375 -14.4122314453125
-31.555908203125 -12.65625 4.58837890625
68.7802734375 19.6356201171875 -12.1492919921875
-3.147705078125 -20.1583251953125 3.8062744140625
-83.57373046875 24.16015625 -2.0689697265625
-0.9306640625 10.2586669921875 3.5621337890625
27.32421875 -115.03125 -14.4715576171875
-44.324462890625 -66.7548828125 -2.5093994140625
-12.6484375 15.8751220703125 3.5001220703125
17.524169921875 -0.11328125 5.706298828125
6.280517578125 -110.7427978515625 0.4334716796875
28.005859375 -102.90576171875 4.6773681640625
20.64697265625 -48.1458740234375 -1.4031982421875
34.189208984375 -73.6785888671875 -23.3038330078125
-82.578369140625 -79.865966796875 10.90576171875
13.82568359375 -130.341552734375 7.5914306640625
-4.9296875 -102.0631103515625 -1.4232177734375
-70.9443359375 -46.0535888671875 -1.608642578125
27.539794921875 -88.93798828125 -1.522216796875
31.451416015625 -14.9093017578125 -24.460205078125
35.015380859375 -103.1180419921875 -25.1015625
10.848388671875 30.09033203125 3.5211181640625
-66.681396484375 -78.5789794921875 -0.783447265625
34.795166015625 55.90673828125 -7.7542724609375
40.287109375 -67.1668701171875 -1.2120361328125
-83.104736328125 -85.0521240234375 4.339599609375
-18.499267578125 62.5302734375 13.61962890625
-84.641845703125 5.6854248046875 -0.608154296875
-9.67626953125 29.447021484375 3.373779296875
-12.93115234375 58.2132568359375 9.07275390625
-31.58544921875 -31.8118896484375 -1.1387939453125
66.2998046875 -47.4195556640625 -8.050537109375
-51.009765625 -43.3687744140625 -2.3145751953125
44.21240234375 -74.64111328125 -1.3424072265625
-41.4375 -53.0042724609375 -4.08251953125
19.938720703125 -6.0908203125 4.0377197265625
47.450927734375 -97.4183349609375 -24.91357421875
-39.271240234375 -43.968505859375 8.65380859375
19.95849609375 -52.9403076171875 -1.6639404296875
39.390380859375 -97.498046875 -25.5728759765625
25.931640625 -27.9066162109375 -0.0284423828125
63.20263671875 -6.6123046875 -9.5194091796875
29.79541015625 -68.1966552734375 -0.8299560546875
26.03759765625 -101.6243896484375 -21.2626953125
-27.422607421875 42.649658203125 3.317138671875
-21.867919921875 -20.9892578125 3.5447998046875
-74.183837890625 -60.6654052734375 16.6380615234375
-71.527099609375 10.53759765625 -1.416259765625
8.526611328125 34.306884765625 3.056396484375
13.575439453125 59.4384765625 9.1346435546875
29.135986328125 4.1510009765625 2.9051513671875
2.498046875 -14.3690185546875 4.4405517578125
-86.997802734375 26.606689453125 -1.869140625
-53.365966796875 -79.0318603515625 4.3140869140625
76.24658203125 -63.8248291015625 -10.5880126953125
-23.18701171875 30.1595458984375 3.2081298828125
7.0703125 -48.34033203125 1.856201171875
-33.302978515625 -45.84716796875 -1.712890625
-10.24658203125 -21.5916748046875 3.5255126953125
71.24658203125 -54.84716796875 -9.4530029296875
-46.279541015625 -81.3056640625 4.2913818359375
-75.580810546875 -4.22802734375 -0.2630615234375
22.728271484375 61.5169677734375 -1.9439697265625
-73.0234375 15.4554443359375 -0.916259765625
33.5947265625 -84.7786865234375 -1.288330078125
28.26611328125 40.0927734375 -18.95703125
-29.49560546875 -19.8399658203125 4.06787109375
8.67138671875 58.6175537109375 8.6014404296875
31.284423828125 -92.05859375 -0.9287109375
-112.714599609375 34.122802734375 -2.2012939453125
30.536865234375 -112.1727294921875 -26.0277099609375
76.73779296875 -92.8052978515625 -14.53271484375
-24.318603515625 -58.24072265625 -9.548583984375
-41.107666015625 -92.1805419921875 7.103271484375
29.46875 -20.74853515625 2.9669189453125
29.371337890625 -124.1007080078125 -3.075927734375
18.267578125 15.6158447265625 3.7489013671875
33.603515625 -28.6470947265625 -0.00634765625
84.4267578125 -75.991943359375 -18.6068115234375
-20.18994140625 32.8392333984375 3.29248046875
13.048828125 -95.6656494140625 -2.244873046875
69.070068359375 -42.1044921875 -9.97412109375
-28.202392578125 34.8330078125 5.5155029296875
-62.610107421875 -71.6719970703125 4.1168212890625
73.82666015625 -92.9447021484375 -11.3677978515625
15.3203125 1.725830078125 -16.1383056640625
-31.483154296875 73.0916748046875 25.297607421875
-82.59033203125 -1.4954833984375 0.114501953125
-21.788330078125 43.853271484375 3.1822509765625
40.21337890625 -97.2523193359375 -5.6075439453125
-19.341796875 12.506591796875 3.64208984375
-75.3525390625 -84.49951171875 -8.4906005859375
-55.841552734375 -71.980224609375 4.1126708984375
31.587890625 -34.5946044921875 -25.378662109375
37.7001953125 -57.6927490234375 -28.5615234375
60.64013671875 53.5511474609375 -8.94580078125
20.9365234375 48.8648681640625 3.043701171875
-73.51416015625 -81.939208984375 -1.285400390625
-22.999267578125 -29.13623046875 -0.751953125
6.595458984375 53.47119140625 4.4063720703125
-76.295166015625 -82.96142578125 2.7027587890625
-4.13525390625 -16.3521728515625 4.60205078125
20.982421875 7.0869140625 3.7652587890625
37.73583984375 -107.326416015625 -29.150390625
36.219970703125 -98.6624755859375 -15.1737060546875
72.757080078125 -106.4554443359375 -15.2674560546875
-70.092529296875 -111.593017578125 7.418212890625
78.347412109375 -73.29248046875 -10.072021484375
-33.774169921875 -96.7945556640625 13.778076171875
-26.043212890625 -26.9066162109375 0.6282958984375
-24.979736328125 -7.6015625 4.4647216796875
24.847900390625 -110.010986328125 -18.0645751953125
28.38427734375 -0.5093994140625 3.121826171875
38.436279296875 -70.2093505859375 -26.0728759765625
-60.042724609375 -17.7470703125 -0.519775390625
91.036376953125 -77.52294921875 -19.388427734375
59.853271484375 20.1546630859375 -11.4456787109375
10.8232421875 20.81689453125 3.6722412109375
27.883056640625 40.282470703125 3.093505859375
-2.996826171875 46.655517578125 3.1795654296875
-9.2138671875 36.3558349609375 3.174560546875
24.369384765625 59.4105224609375 -8.08251953125
-78.401611328125 -74.216552734375 7.6011962890625
58.506103515625 16.7801513671875 -12.85400390625
1.609619140625 -89.9398193359375 -1.3310546875
18.698974609375 -44.1024169921875 -0.769775390625
31.2919921875 50.84130859375 -12.1494140625
82.2265625 -75.5513916015625 -14.0953369140625
59.9990234375 27.7501220703125 -14.812255859375
-104.509765625 17.7322998046875 -0.256591796875
32.942626953125 -17.412841796875 -30.0654296875
33.448486328125 33.864990234375 2.6474609375
-9.682861328125 -94.80517578125 -1.453369140625
30.599853515625 -74.5391845703125 -1.154052734375
31.996337890625 -97.327880859375 -17.1383056640625
64.3232421875 43.4832763671875 4.832763671875
-3.073486328125 -45.5953369140625 -1.3748779296875
-46.9189453125 -36.5025634765625 0.004638671875
-80.627685546875 -76.4410400390625 5.3262939453125
35.1474609375 -24.158203125 -0.1324462890625
29.573974609375 15.4859619140625 -26.2880859375
29.90234375 -97.0008544921875 -11.90771484375
-10.1533203125 -108.3203125 -1.88330078125
-71.648193359375 -23.308837890625 -1.006103515625
-1.73046875 5.2359619140625 3.7391357421875
28.420654296875 -15.927734375 4.0440673828125
-5.2958984375 -89.2484130859375 -1.2598876953125
29.345947265625 32.5367431640625 6.0311279296875
44.1484375 -96.5684814453125 -4.23291015625
0.2236328125 -97.4554443359375 -1.2781982421875
16.79931640625 -33.432861328125 -1.492431640625
34.726806640625 -123.830322265625 8.7987060546875
1.511474609375 -49.393310546875 -0.9630126953125
-29.656494140625 23.677490234375 3.5623779296875
-54.137451171875 -41.887939453125 -1.2774658203125
-22.04443359375 18.477294921875 3.3736572265625
29.022705078125 7.9482421875 2.892333984375
16.753173828125 30.973876953125 3.1727294921875
-24.983642578125 71.1112060546875 22.931640625
-63.40576171875 -65.0987548828125 15.313720703125
-5.5634765625 3.759765625 3.726318359375
36.3310546875 -99.44091796875 -9.2335205078125
-76.02099609375 2.597900390625 -0.812744140625
-68.740234375 -8.4517822265625 0.1143798828125
-55.53662109375 -50.842529296875 -1.2962646484375
4.41943359375 58.5992431640625 8.845458984375
-60.060791015625 -55.9326171875 -1.9453125
-94.86767578125 31.98486328125 -2.26708984375
25.345703125 -77.4114990234375 -1.078857421875
-67.53515625 -113.959716796875 8.2598876953125
-17.885498046875 44.4755859375 8.709228515625
-33.84423828125 -40.3800048828125 -0.9671630859375
3.294189453125 -0.2392578125 3.84814453125
-0.68359375 66.4869384765625 13.5303955078125
31.943359375 34.7249755859375 -19.97705078125
-15.250244140625 55.6070556640625 6.7591552734375
25.448486328125 -3.0399169921875 4.007080078125
-9.002197265625 -30.366943359375 -0.8948974609375
-8.167236328125 56.7984619140625 7.5338134765625
20.32275390625 1.3990478515625 3.91064453125
65.0703125 17.4844970703125 -11.3460693359375
32.525146484375 67.9351806640625 -9.0880126953125
60.51171875 32.348876953125 -4.062255859375
80.357421875 -98.2869873046875 -17.6314697265625
-84.74462890625 -16.6390380859375 0.0296630859375
-7.78173828125 17.8609619140625 3.574951171875
-67.0205078125 -81.23681640625 1.954833984375
-5.024658203125 37.688232421875 3.097900390625
67.20166015625 -2.819580078125 -10.396240234375
-7.57080078125 -83.390380859375 -1.5096435546875
29.785400390625 -127.2908935546875 -5.284423828125
28.26318359375 -96.5528564453125 1.259521484375
37.044677734375 34.0748291015625 -21.521240234375
-31.268310546875 11.0478515625 3.697509765625
72.29541015625 24.2613525390625 -12.5545654296875
33.3740234375 -111.958251953125 -21.861328125
-6.8251953125 -115.1929931640625 0.08154296875
-29.808837890625 -26.3623046875 0.9443359375
-10.626220703125 4.3026123046875 3.9140625
-90.1591796875 30.049560546875 -1.9173583984375
16.27978515625 10.1312255859375 3.776123046875
16.490478515625 -118.44482421875 1.772705078125
-22.741943359375 23.84716796875 3.3836669921875
20.66064453125 23.182861328125 3.3333740234375
37.86328125 -96.54736328125 -3.1376953125
14.580810546875 -103.9298095703125 -2.677490234375
1.19921875 -112.389404296875 -1.1468505859375
83.181884765625 -84.6033935546875 -17.190185546875
-58.6640625 -80.8414306640625 -0.153076171875
7.521484375 -69.2999267578125 -1.73779296875
6.7548828125 27.935302734375 3.09521484375
-65.75146484375 -31.4051513671875 -1.7110595703125
26.189697265625 29.236083984375 -18.6634521484375
71.539306640625 -80.487060546875 -12.7977294921875
36.224853515625 24.5736083984375 -22.07421875
-62.0537109375 -78.4183349609375 -7.3033447265625
-67.688720703125 -119.6600341796875 11.9140625
-26.03125 -13.0244140625 4.435791015625
-33.6015625 -44.1285400390625 4.011474609375
-65.56591796875 -68.194580078125 4.905517578125
-74.611083984375 -29.6854248046875 -1.3497314453125
3.971923828125 16.44384765625 3.6585693359375
-32.962890625 -49.775634765625 3.3740234375
-26.3203125 -44.063720703125 -5.247314453125
30.296875 -124.2958984375 -7.677734375
-105.132080078125 25.5521240234375 -1.2470703125
-56.04736328125 -66.9527587890625 1.69140625
-25.140625 -49.5875244140625 -11.1201171875
-34.60546875 -60.7169189453125 -1.19140625
-37.286865234375 -40.85986328125 2.16552734375
47.8408203125 -87.71142578125 -1.556640625
69.838134765625 -61.2808837890625 -7.0452880859375
-38.99853515625 72.3148193359375 24.8636474609375
-77.453857421875 -26.5849609375 -1.9892578125
-34.046630859375 5.288818359375 4.120361328125
12.00927734375 10.408935546875 3.695068359375
26.741455078125 11.115966796875 3.625732421875
-26.74169921875 6.82568359375 3.872314453125
-18.97216796875 56.1451416015625 7.48193359375
-46.39697265625 -43.0732421875 -1.45263671875
30.06640625 -6.7763671875 -25.8653564453125
6.09521484375 22.9549560546875 3.354248046875
9.06005859375 -15.6021728515625 4.24267578125
-46.34326171875 -48.331298828125 -1.3599853515625
32.9931640625 -61.787109375 -1.0032958984375
60.361328125 41.3992919921875 -2.79248046875
-77.998779296875 -88.848876953125 2.1820068359375
76.39697265625 -80.849365234375 -12.2401123046875
-11.7138671875 39.2454833984375 3.3287353515625
-15.71484375 48.365234375 6.3277587890625
30.1064453125 66.660888671875 -4.98974609375
-5.5556640625 60.7999267578125 11.532958984375
-98.511962890625 21.6533203125 -0.9085693359375
-24.20458984375 66.107666015625 17.814697265625
69.534423828125 -109.85107421875 -13.69970703125
20.732421875 58.3861083984375 8.0850830078125
33.307373046875 64.5396728515625 -11.2723388671875
11.435546875 -98.8658447265625 -1.0843505859375
-25.685791015625 -42.2615966796875 -11.283447265625
2.166259765625 53.6324462890625 4.4974365234375
-81.973388671875 -79.2843017578125 7.5546875
75.186767578125 -98.306884765625 -11.2391357421875
1.59033203125 36.4088134765625 3.325927734375
26.00390625 -0.9327392578125 -2.3988037109375
-62.01904296875 -75.382080078125 3.8046875
25.2998046875 55.94970703125 4.10009765625
80.32666015625 -100.914794921875 -12.3006591796875
33.82080078125 -68.748779296875 -21.4173583984375
30.687744140625 27.2548828125 -24.4410400390625
-11.675048828125 -102.001953125 -0.59228515625
-47.177978515625 -59.1119384765625 -9.457763671875
1.246826171875 -27.2364501953125 0.40869140625
14.932373046875 -42.0223388671875 -1.09423828125
26.64599609375 -41.6072998046875 -4.974365234375
-67.880126953125 -82.281982421875 -8.6376953125
43.63818359375 -99.0963134765625 -19.15625
13.416748046875 -26.4404296875 0.6524658203125
37.111572265625 15.97900390625 3.3690185546875
-15.097412109375 28.2010498046875 3.339111328125
69.506591796875 -79.03369140625 -9.843994140625
14.287109375 0.94921875 6.257080078125
-69.1806640625 -74.3023681640625 4.69287109375
71.473876953125 -99.707275390625 -13.705810546875
86.8310546875 -79.2197265625 -18.4461669921875
59.44580078125 39.693359375 -12.042236328125
-63.756103515625 -80.912353515625 -8.91796875
-80.753173828125 2.1063232421875 -0.4403076171875
74.72607421875 -73.01806640625 -11.4403076171875
34.333251953125 -106.705322265625 -25.82080078125
-34.39697265625 -5.6549072265625 4.1705322265625
32.70849609375 44.9337158203125 -14.846435546875
45.046630859375 -97.4796142578125 -27.2308349609375
27.68017578125 -51.712158203125 -1.302734375
-3.313232421875 -9.2783203125 4.0791015625
23.5166015625 -54.26513671875 -1.4813232421875
72.1337890625 -109.835693359375 -11.2337646484375
-1.806640625 -92.994140625 -1.42724609375
25.64111328125 -97.4920654296875 -12.3203125
-35.95361328125 -49.2880859375 -0.6177978515625
35.733642578125 11.0498046875 -0.752685546875
-88.783935546875 19.9019775390625 -1.5794677734375
30.0185546875 -2.7740478515625 -24.4937744140625
33.871337890625 -97.9063720703125 -2.7098388671875
-22.379150390625 36.72314453125 3.2608642578125
-77.97900390625 -72.83349609375 13.7498779296875
3.6142578125 47.5040283203125 3.2052001953125
83.36572265625 -86.8026123046875 -14.267578125
-0.612548828125 17.5792236328125 3.270263671875
-29.99365234375 66.18310546875 19.00244140625
-56.603271484375 -81.9500732421875 -2.5443115234375
34.438720703125 -81.6923828125 -22.736572265625
-36.958740234375 74.2078857421875 26.8580322265625
7.48779296875 -38.290283203125 -1.186767578125
-30.31298828125 -96.7666015625 13.6109619140625
-57.467041015625 -91.77978515625 -8.65771484375
28.87548828125 -107.9322509765625 -23.5709228515625
25.1474609375 41.5020751953125 -13.188720703125
5.093017578125 -44.796875 -0.9388427734375
-4.400634765625 -61.4239501953125 -1.370849609375
29.712646484375 7.3233642578125 -26.734375
23.196044921875 -29.657470703125 -0.599853515625
-47.904052734375 -53.2728271484375 -8.9315185546875
-52.622314453125 -86.834716796875 -8.477294921875
5.9443359375 -76.745361328125 -1.3079833984375
72.44580078125 -88.1595458984375 -11.639404296875
27.12548828125 -110.7003173828125 -9.84619140625
-66.42724609375 -25.8204345703125 -1.3294677734375
-26.858154296875 -40.8154296875 -5.3870849609375
-6.7607421875 27.8233642578125 3.2340087890625
64.91943359375 10.6163330078125 -9.4976806640625
-0.6796875 41.909912109375 3.0574951171875
1.703369140625 -33.067626953125 -1.32080078125
59.486572265625 38.9986572265625 2.26513671875
38.739990234375 44.4632568359375 -19.9234619140625
-34.1171875 -58.4755859375 -11.4056396484375
-7.712158203125 -2.474365234375 4.158447265625
30.6728515625 -22.93798828125 -26.864013671875
71.4814453125 -58.0975341796875 -9.30126953125
-62.797119140625 -67.0123291015625 3.6549072265625
-1.1123046875 -2.513427734375 3.766845703125
77.522705078125 -71.447265625 -13.009765625
-16.565185546875 -29.5555419921875 -0.72802734375
-85.4921875 18.521728515625 -1.86474609375
26.639404296875 43.2869873046875 3.0179443359375
-15.458251953125 37.856689453125 3.2337646484375
-101.151611328125 35.4969482421875 -0.9947509765625
23.537353515625 48.6121826171875 -11.617919921875
-67.06298828125 -120.8170166015625 8.281494140625
-65.603759765625 -68.2598876953125 10.286865234375
23.04052734375 -40.0052490234375 -1.3486328125
37.978515625 55.55078125 -13.7769775390625
-58.23876953125 -20.3525390625 -1.197265625
-11.56640625 -88.8018798828125 -1.29052734375
28.70751953125 -81.1622314453125 -0.9539794921875
34.374267578125 -77.5283203125 -23.2525634765625
73.2802734375 -89.004638671875 -5.7581787109375
33.004638671875 -125.834228515625 -12.7374267578125
-76.177734375 -89.648193359375 -1.1221923828125
-72.1591796875 -17.4219970703125 0.1893310546875
27.5322265625 46.1810302734375 -16.1446533203125
9.986328125 46.5501708984375 3.18017578125
-83.10791015625 -23.2017822265625 -1.002685546875
29.672119140625 3.732421875 -25.2159423828125
-21.510986328125 -10.131103515625 4.2001953125
-65.907470703125 -89.2275390625 -6.95556640625
22.10546875 -13.2938232421875 4.353271484375
-17.852783203125 -9.0120849609375 4.0037841796875
-112.24951171875 26.1549072265625 -1.3475341796875
6.3017578125 9.1845703125 3.657958984375
-29.17236328125 -52.608642578125 17.3411865234375
14.812255859375 4.4324951171875 3.711181640625
25.4453125 -86.16162109375 -1.17822265625
-71.08154296875 -62.1514892578125 16.3070068359375
25.033447265625 -1.259033203125 -10.671875
-72.669677734375 -67.56494140625 15.2901611328125
5.11474609375 65.3035888671875 11.8638916015625
-3.080322265625 -26.1446533203125 1.04345703125
-60.94482421875 -87.8524169921875 -5.615234375
29.108154296875 -43.7960205078125 -3.535888671875
-44.42724609375 -70.3115234375 -1.720703125
4.664794921875 -95.1683349609375 -0.9066162109375
-9.8349609375 -25.4254150390625 1.494384765625
2.12255859375 -72.747802734375 -1.4197998046875
22.783203125 53.794677734375 -2.8197021484375
6.84521484375 -28.382568359375 -0.20654296875
-17.447509765625 50.90283203125 10.7227783203125
-16.398681640625 51.81494140625 16.166259765625
25.1171875 -35.102294921875 -1.529296875
33.068603515625 -26.1363525390625 -28.821044921875
8.566650390625 3.8282470703125 3.8897705078125
34.123291015625 -58.5897216796875 -27.2257080078125
-27.898681640625 -37.5496826171875 0.3031005859375
-51.8056640625 -69.21728515625 -1.5467529296875
-7.56689453125 6.658203125 3.8795166015625
19.358642578125 45.911376953125 3.239501953125
-69.7216796875 -35.3687744140625 -1.7266845703125
-76.944091796875 -40.6949462890625 -1.288818359375
67.11279296875 35.88720703125 -12.2264404296875
64.705810546875 0.1544189453125 -9.04150390625
77.76171875 -108.2410888671875 -18.2745361328125
-91.501953125 2.6793212890625 0.5435791015625
71.54248046875 -86.09619140625 -9.424560546875
-18.949462890625 68.710693359375 19.886962890625
36.134765625 -62.05859375 -1.14892578125
-56.35546875 -82.183837890625 -7.64697265625
22.309326171875 34.4945068359375 2.91455078125
15.685546875 -56.39990234375 -7.9434814453125
30.640625 -18.1517333984375 -26.499267578125
-17.63330078125 -18.9757080078125 4.070068359375
-65.897705078125 -76.441650390625 -8.350341796875
-9.504150390625 50.0745849609375 3.292236328125
-15.156982421875 -23.4232177734375 2.34228515625
60.552001953125 43.0150146484375 -6.8587646484375
26.16259765625 37.1641845703125 -19.3209228515625
32.111328125 22.2469482421875 3.2437744140625
-14.09619140625 -41.4677734375 -1.71044921875
13.558349609375 31.034912109375 5.277099609375
-26.474853515625 -45.4345703125 1.4810791015625
70.364013671875 -45.195068359375 -10.698974609375
64.19482421875 46.37744140625 -11.8729248046875
33.358642578125 -91.3548583984375 -19.2261962890625
17.458984375 -77.412109375 -1.271484375
-98.411376953125 30.755615234375 -0.806884765625
-27.155517578125 65.84130859375 16.8358154296875
4.509033203125 -58.9981689453125 -1.280029296875
17.37158203125 -69.3355712890625 -1.3074951171875
17.885498046875 54.1146240234375 4.4307861328125
71.008544921875 -106.45751953125 -12.2559814453125
57.49755859375 16.7723388671875 -8.515869140625
-35.119384765625 41.794677734375 3.5140380859375
-3.542236328125 -55.8021240234375 -1.5343017578125
35.5517578125 -100.6910400390625 -12.9110107421875
26.309814453125 -123.1033935546875 7.1671142578125
42.116455078125 -109.1968994140625 -29.2008056640625
5.091796875 -16.08349609375 4.390869140625
17.951171875 -24.83544921875 1.826904296875
-67.483154296875 -93.7071533203125 -9.2877197265625
31.724365234375 27.7001953125 3.904541015625
-19.373046875 -40.5794677734375 -1.5787353515625
25.713134765625 -48.3031005859375 -1.39794921875
-53.174072265625 -37.11181640625 -1.5552978515625
-77.35986328125 -93.8760986328125 3.9761962890625
-69.101318359375 -43.5606689453125 -1.7509765625
5.23681640625 -114.6575927734375 -1.2940673828125
30.4521484375 62.0340576171875 -7.2802734375
-57.34228515625 -63.6279296875 -0.8350830078125
36.916259765625 28.9495849609375 -22.185546875
-71.84765625 -38.929443359375 -1.401123046875
-23.734130859375 -38.910400390625 -11.8114013671875
2.168701171875 -101.830078125 -1.22216796875
24.4189453125 -21.51416015625 3.366455078125
30.519775390625 -98.753662109375 2.5216064453125
-47.87158203125 -65.7591552734375 -1.2095947265625
5.5595703125 -106.913818359375 0.25732421875
-58.6474609375 -27.364990234375 -1.797607421875
-70.19775390625 -19.7791748046875 -0.193603515625
-34.23974609375 27.974365234375 3.84521484375
40.02392578125 -81.0087890625 -0.7664794921875
-1.878173828125 21.272705078125 3.143798828125
-53.7158203125 -30.7344970703125 -1.4769287109375
7.96630859375 -89.765869140625 -1.2584228515625
17.984619140625 63.4310302734375 8.5472412109375
-61.851806640625 -67.3397216796875 10.18798828125
60.558837890625 38.4195556640625 -2.1051025390625
34.330078125 -99.455322265625 1.5428466796875
-0.826416015625 -71.9722900390625 -1.1429443359375
-82.130615234375 -61.5384521484375 17.4921875
63.7529296875 13.4493408203125 -11.7022705078125
13.2802734375 37.8353271484375 3.2359619140625
36.333740234375 -110.982421875 -29.2882080078125
-4.051025390625 25.1549072265625 3.282470703125
13.634521484375 -13.853271484375 4.2899169921875
75.3359375 -104.689453125 -12.466796875
-25.141357421875 -36.46533203125 -1.6021728515625
-26.23291015625 32.49755859375 5.5762939453125
33.973876953125 47.5015869140625 -15.9139404296875
75.966064453125 -67.2342529296875 -9.025390625
-24.9375 16.0849609375 3.491943359375
-35.47998046875 -49.71435546875 5.1019287109375
-56.014404296875 -38.23291015625 -1.7913818359375
23.96630859375 49.1162109375 3.2132568359375
-64.206787109375 -37.236328125 -1.7303466796875
-33.593994140625 -48.50927734375 18.063720703125
16.597900390625 60.115478515625 9.43505859375
72.60009765625 -103.313232421875 -14.07861328125
10.154541015625 -103.2783203125 -1.112060546875
67.363037109375 -110.5784912109375 -17.2413330078125
29.886962890625 -41.777099609375 -6.1844482421875
22.40283203125 60.108642578125 -5.3636474609375
60.295654296875 45.3580322265625 4.9752197265625
60.831787109375 26.6873779296875 -6.1781005859375
-71.170654296875 -81.66162109375 -9.85986328125
-54.53564453125 -83.5816650390625 2.45458984375
60.603271484375 33.8193359375 -7.713134765625
-64.5244140625 -75.562255859375 2.111572265625
30.751220703125 -102.8135986328125 -24.0108642578125
-59.913330078125 -66.2418212890625 5.863525390625
71.21630859375 -71.5560302734375 -9.2362060546875
-9.80322265625 65.8114013671875 16.532958984375
34.151611328125 -70.67431640625 -24.0074462890625
-68.858154296875 -1.5894775390625 -0.6138916015625
11.76123046875 -82.881591796875 -1.4910888671875
-6.727783203125 -20.6009521484375 3.683837890625
15.31982421875 20.1805419921875 3.3642578125
65.360595703125 -109.214111328125 -11.5159912109375
53.176513671875 38.1802978515625 -4.9822998046875
43.635986328125 -77.5960693359375 -1.15576171875
62.17431640625 40.9263916015625 -11.552734375
25.525390625 -9.7010498046875 4.1153564453125
27.203125 25.3289794921875 -19.6368408203125
37.08349609375 8.4716796875 -25.3026123046875
-75.208251953125 -77.2117919921875 4.5111083984375
-55.175048828125 -27.261474609375 -2.1605224609375
-69.6513671875 5.59912109375 -1.4844970703125
65.0205078125 7.5391845703125 -8.904296875
28.080810546875 27.0133056640625 3.1318359375
38.62841796875 -97.089111328125 -28.811767578125
-26.83203125 3.1925048828125 3.88818359375
36.62744140625 -33.20703125 -29.3245849609375
-0.041748046875 -84.333251953125 -0.8887939453125
-79.82568359375 20.8736572265625 -1.9935302734375
69.229248046875 -55.21630859375 -5.6846923828125
12.455078125 -34.4710693359375 -1.0885009765625
26.4638671875 31.5576171875 -16.7845458984375
22.68505859375 -125.904052734375 5.7069091796875
-43.624267578125 -37.4498291015625 0.478759765625
-6.278564453125 11.995849609375 3.648193359375
-42.144775390625 -51.9644775390625 -7.993408203125
34.653564453125 -86.0166015625 -18.8641357421875
-15.1298828125 -12.8173828125 4.552734375
84.498291015625 -94.944580078125 -18.9678955078125
27.55322265625 15.1463623046875 3.373291015625
-6.42578125 55.2716064453125 5.6435546875
-22.721923828125 -3.404296875 3.8079833984375
34.748291015625 -29.107177734375 -2.72314453125
46.384033203125 -99.7030029296875 -21.197998046875
32.0576171875 6.2083740234375 0.119873046875
-29.88427734375 -64.8455810546875 -2.3143310546875
60.041259765625 18.503662109375 -8.7138671875
28.346435546875 16.084228515625 -22.1754150390625
23.1572265625 60.17333984375 8.535888671875
63.7509765625 40.458740234375 4.227294921875
85.294189453125 -89.393310546875 -18.2874755859375
-48.90234375 -90.3760986328125 3.63818359375
67.814697265625 -40.65869140625 -7.6973876953125
22.927734375 -71.6903076171875 -1.2396240234375
17.107421875 -47.233642578125 -1.0291748046875
-9.68505859375 -54.956787109375 -1.5223388671875
34.163818359375 -68.451904296875 -1.0445556640625
32.966064453125 14.3143310546875 -26.7647705078125
14.430419921875 -91.7916259765625 -0.8289794921875
34.838623046875 -108.3096923828125 -28.2559814453125
19.2421875 -36.905029296875 -1.4984130859375
-32.887451171875 -50.833740234375 15.9327392578125
31.258056640625 -57.6517333984375 -1.34765625
-63.9462890625 -51.7255859375 -1.5625
35.88525390625 13.87060546875 -24.6912841796875
28.84619140625 -34.10400390625 -1.376220703125
-63.84423828125 -87.284912109375 -5.6414794921875
34.025390625 9.259765625 -2.7791748046875
3.71923828125 -41.5899658203125 -1.2210693359375
24.72705078125 -102.7196044921875 -14.8599853515625
-93.64453125 25.846435546875 -1.155029296875
-48.509033203125 -39.0750732421875 -1.49462890625
19.501708984375 56.150390625 5.8543701171875
35.205810546875 -89.8699951171875 -21.663818359375
33.539306640625 41.5615234375 -16.458251953125
-66.732666015625 -47.6175537109375 -1.888916015625
-0.974609375 63.2777099609375 14.4573974609375
-6.255615234375 -99.0213623046875 -1.050537109375
-7.465087890625 -8.486572265625 4.1207275390625
76.70654296875 -104.7164306640625 -15.1759033203125
-41.664306640625 -57.0775146484375 -10.0343017578125
32.759765625 53.2193603515625 -13.0589599609375
-39.365234375 -45.1827392578125 14.3682861328125
-85.326904296875 -9.6893310546875 1.106201171875
32.116455078125 -125.8819580078125 6.4405517578125
40.859375 9.003173828125 -24.5396728515625
25.064697265625 -57.1365966796875 -1.0584716796875
23.696044921875 50.302734375 -7.73046875
-80.266845703125 -57.757080078125 18.0467529296875
29.287109375 -106.172119140625 5.4517822265625
-51.701416015625 -62.855712890625 -1.386474609375
-37.714111328125 -52.2958984375 1.5689697265625
-15.49365234375 9.2265625 3.6851806640625
-11.83154296875 0.614013671875 3.902099609375
47.078369140625 -76.6170654296875 -1.5157470703125
-62.493408203125 -42.822021484375 -1.5418701171875
-85.21142578125 29.547119140625 -2.4344482421875
-23.247314453125 -17.5941162109375 4.38525390625
-2.256103515625 -79.73974609375 -1.2236328125
82.650390625 -105.066162109375 -18.9996337890625
52.604736328125 -98.7259521484375 -14.3265380859375
57.474853515625 23.924560546875 -14.5296630859375
31.3203125 30.0146484375 -22.693115234375
31.533203125 -31.5777587890625 -27.2255859375
-50.328125 -54.94775390625 -3.4932861328125
