-17.018798828125 -43.8016357421875 -0.2664794921875
7.564208984375 62.598876953125 18.9423828125
26.88427734375 73.7982177734375 21.6044921875
29.958984375 71.9688720703125 11.826416015625
-9.898681640625 -28.1146240234375 3.2486572265625
-57.75537109375 -4.1119384765625 1.251220703125
22.6796875 72.6341552734375 16.66015625
-5.441650390625 62.009765625 18.9447021484375
-70.7490234375 7.9171142578125 0.4173583984375
44.522705078125 -99.830078125 -2.2762451171875
-60.5556640625 -86.646728515625 1.9361572265625
3.107421875 64.8155517578125 21.7496337890625
50.0654296875 51.8978271484375 -7.240478515625
-56.4267578125 -85.96484375 5.0694580078125
53.278564453125 75.0384521484375 4.5101318359375
37.79443359375 85.0152587890625 3.8712158203125
18.499267578125 41.5897216796875 7.367431640625
-22.3466796875 12.07080078125 7.5601806640625
23.199951171875 -1.7503662109375 7.6513671875
9.849365234375 51.7120361328125 8.7777099609375
-19.235595703125 -42.7557373046875 -7.8116455078125
28.990234375 47.381591796875 7.624755859375
13.06640625 -99.4404296875 0.0057373046875
-26.71484375 -37.0933837890625 0.503173828125
35.88671875 39.9720458984375 7.4091796875
-6.013427734375 -39.0601806640625 1.0386962890625
27.65869140625 21.6214599609375 7.5223388671875
-72.118408203125 -94.308837890625 10.0419921875
-49.12646484375 -22.1705322265625 1.3765869140625
77.347412109375 -10.853271484375 20.15869140625
-65.8857421875 -79.3948974609375 5.22314453125
30.126953125 -57.1708984375 -6.4923095703125
-8.345703125 -22.14404296875 6.046630859375
-20.898193359375 37.32275390625 11.6302490234375
-2.455810546875 12.216796875 7.1890869140625
32.45361328125 -41.6768798828125 1.6478271484375
-31.281005859375 -46.757568359375 1.1346435546875
32.705078125 21.987548828125 7.5164794921875
-2.1806640625 58.3868408203125 15.4190673828125
-54.158935546875 -93.189453125 -9.1011962890625
38.296142578125 -113.083251953125 -12.5345458984375
38.780517578125 -16.1484375 7.204833984375
26.537353515625 -65.9935302734375 -2.098876953125
32.18212890625 97.6131591796875 28.504150390625
7.009521484375 -38.3612060546875 1.3101806640625
19.544189453125 -21.15625 6.63232421875
8.971435546875 -28.5562744140625 3.2088623046875
47.921142578125 94.3101806640625 22.9208984375
-35.538330078125 -59.9259033203125 -5.7254638671875
39.84326171875 87.1141357421875 18.0281982421875
-71.617919921875 -85.0673828125 10.8848876953125
19.990234375 7.7288818359375 7.419189453125
-86.681640625 33.3017578125 -0.20458984375
-21.874267578125 -52.7762451171875 0.61279296875
-62.8212890625 -64.948974609375 17.416259765625
-41.93896484375 -84.1378173828125 -6.242431640625
31.733642578125 77.133056640625 6.1092529296875
17.3369140625 -51.718994140625 1.8135986328125
41.55810546875 47.7664794921875 -9.5184326171875
39.68798828125 -97.2049560546875 -18.598388671875
-41.56103515625 -66.556396484375 0.09033203125
-62.283935546875 -83.5313720703125 -2.5230712890625
-55.858154296875 -66.3309326171875 17.0552978515625
8.6982421875 69.3902587890625 26.0421142578125
24.468017578125 -11.2647705078125 7.48974609375
-21.096435546875 -45.908935546875 -4.707275390625
30.2392578125 84.6444091796875 11.282470703125
-68.862060546875 -24.3350830078125 0.6685791015625
-9.90185546875 20.7044677734375 7.043701171875
43.315673828125 64.6240234375 -1.0574951171875
-34.892578125 -64.6900634765625 0.04833984375
-25.649169921875 70.5233154296875 28.013427734375
28.895263671875 -18.0048828125 7.2607421875
50.428466796875 61.622802734375 -5.240478515625
41.676025390625 42.890869140625 -12.2435302734375
20.885009765625 -64.433349609375 1.0714111328125
34.207763671875 -58.1134033203125 0.175537109375
49.44189453125 72.76953125 0.9951171875
21.866943359375 -84.62744140625 0.41015625
-6.44287109375 55.653564453125 12.943603515625
-53.0068359375 -38.6689453125 0.210693359375
43.793212890625 48.788818359375 3.1680908203125
-18.73291015625 -54.31201171875 -7.7113037109375
43.012939453125 -58.161376953125 1.822265625
-55.794677734375 -13.263671875 2.3765869140625
-4.27294921875 28.7169189453125 7.05419921875
40.798583984375 95.5142822265625 24.903564453125
6.04736328125 18.262939453125 7.392822265625
4.35791015625 -56.0230712890625 0.98193359375
36.514892578125 63.1976318359375 3.89111328125
58.78466796875 -94.81689453125 0.9208984375
-80.554931640625 25.186279296875 -0.184326171875
16.005859375 -108.2991943359375 0.7724609375
46.545654296875 91.1314697265625 16.372314453125
9.652099609375 42.420654296875 7.326904296875
-5.35986328125 37.4642333984375 7.0186767578125
30.999267578125 80.684326171875 22.6549072265625
-12.32470703125 73.324951171875 30.919189453125
-19.7587890625 22.287841796875 7.0233154296875
35.51123046875 -79.0748291015625 0.6597900390625
18.229248046875 -79.9390869140625 1.587158203125
52.480224609375 67.870849609375 -2.5433349609375
37.292236328125 60.05322265625 15.3192138671875
22.70068359375 -105.40625 -0.4293212890625
31.05224609375 -23.865234375 5.85400390625
-4.809814453125 52.4730224609375 10.0711669921875
11.37109375 10.281982421875 7.22021484375
30.770263671875 11.3895263671875 7.68408203125
-20.91455078125 30.0574951171875 10.8785400390625
43.38916015625 15.58544921875 7.60302734375
64.811279296875 -98.38232421875 -1.9307861328125
-0.089111328125 45.2916259765625 7.3388671875
-11.333251953125 27.6510009765625 6.8748779296875
21.980712890625 -54.689208984375 5.2447509765625
39.388916015625 101.9617919921875 33.0147705078125
68.780029296875 -93.4925537109375 0.6585693359375
40.091064453125 82.8621826171875 0.3922119140625
29.41259765625 -95.3575439453125 0.410400390625
-8.5751953125 -1.2244873046875 6.809326171875
-13.285888671875 42.4000244140625 7.0545654296875
42.73388671875 -27.88134765625 3.963623046875
29.768798828125 88.7857666015625 13.0635986328125
4.478271484375 -15.8084716796875 7.0792236328125
-67.540771484375 -84.349853515625 5.0908203125
-52.552734375 -79.0487060546875 -6.494873046875
-23.69580078125 -59.6793212890625 -0.177978515625
-13.067626953125 -48.1611328125 -9.8656005859375
16.596923828125 58.4423828125 14.7017822265625
13.861572265625 -36.4000244140625 1.2716064453125
-11.77392578125 -55.724853515625 -9.541015625
57.574951171875 -100.9683837890625 -6.132568359375
-89.98095703125 23.720947265625 0.0675048828125
11.47412109375 -6.4520263671875 7.3392333984375
-22.515380859375 -30.2078857421875 1.9893798828125
36.66796875 -39.3563232421875 1.238037109375
27.207275390625 83.2039794921875 20.1748046875
45.63525390625 99.9754638671875 28.599365234375
-42.83056640625 -57.7001953125 0.4259033203125
27.126220703125 -52.4571533203125 0.5345458984375
34.9609375 73.993896484375 5.205322265625
-24.373291015625 -44.2015380859375 0.7313232421875
-9.464599609375 60.789794921875 20.3934326171875
-69.23828125 -91.1463623046875 5.1611328125
13.46337890625 14.4002685546875 7.446044921875
42.675537109375 -79.0787353515625 1.633544921875
-5.31201171875 44.4412841796875 6.964111328125
-10.77392578125 -15.469970703125 6.8668212890625
26.805908203125 57.0682373046875 12.892333984375
20.528564453125 -98.50439453125 0.063720703125
-85.570556640625 17.8673095703125 0.252197265625
-96.100830078125 35.6158447265625 0.19140625
-66.984375 3.1376953125 1.0814208984375
24.80908203125 -114.4053955078125 -0.34521484375
-11.2314453125 10.919189453125 6.8897705078125
21.015380859375 -25.0562744140625 5.22705078125
38.561767578125 -104.4107666015625 -14.76318359375
-29.2197265625 -52.845947265625 -1.61376953125
27.14892578125 77.510498046875 24.445556640625
-51.2783203125 -91.345947265625 -5.4365234375
-49.173828125 -52.239990234375 0.391357421875
24.91357421875 14.981689453125 7.450927734375
11.80712890625 -21.373779296875 6.407958984375
-53.75732421875 -48.7581787109375 0.2210693359375
-75.3466796875 6.9578857421875 0.83544921875
-36.176513671875 -55.203125 -2.3182373046875
-41.5693359375 -82.3707275390625 4.9583740234375
41.78515625 -97.4677734375 -9.873779296875
38.7431640625 -92.3966064453125 0.461669921875
0.51220703125 -26.105224609375 4.3692626953125
-17.5263671875 -32.972900390625 1.1710205078125
-5.184326171875 19.8388671875 7.0987548828125
49.45361328125 83.9000244140625 0.7003173828125
18.604248046875 71.562255859375 15.687255859375
42.73388671875 29.9068603515625 -17.673583984375
-58.96728515625 -71.229736328125 11.8824462890625
-9.65087890625 -60.2886962890625 -7.7408447265625
20.492431640625 60.6607666015625 15.923095703125
-39.65087890625 -34.169189453125 1.03271484375
40.9052734375 44.7930908203125 7.732421875
-59.113037109375 -81.6551513671875 4.151611328125
-61.8076171875 -90.05126953125 -5.8602294921875
63.67431640625 -85.1395263671875 0.6171875
-75.3876953125 0.7862548828125 1.1864013671875
40.26416015625 49.5765380859375 -5.61181640625
-13.962158203125 32.7745361328125 8.4205322265625
-69.724853515625 -65.619140625 17.4881591796875
37.481201171875 91.3145751953125 9.46923828125
-75.9931640625 15.4063720703125 0.083740234375
38.843017578125 -50.8372802734375 1.4849853515625
18.110595703125 -55.9052734375 1.471435546875
-54.688720703125 -7.0654296875 1.4736328125
37.943115234375 -23.808837890625 5.8572998046875
55.624755859375 55.4039306640625 -9.8255615234375
38.28271484375 53.0660400390625 8.9886474609375
50.557373046875 47.1866455078125 -9.7423095703125
19.100830078125 -12.6070556640625 7.4248046875
3.715087890625 5.7059326171875 7.092529296875
-27.403564453125 -55.0777587890625 -7.0546875
21.475341796875 53.673583984375 9.749755859375
-83.45654296875 31.84375 2.7041015625
-71.1513671875 -15.5277099609375 1.7918701171875
38.493896484375 -61.691650390625 1.0390625
-0.254638671875 -16.553955078125 7.359619140625
66.632080078125 -78.5042724609375 0.80517578125
-62.447998046875 -106.357421875 4.423095703125
-19.69921875 -49.87451171875 -4.454345703125
-61.534423828125 -12.8560791015625 2.4256591796875
4.606201171875 25.73046875 7.316650390625
41.704345703125 -5.8878173828125 7.25244140625
4.216552734375 -6.4658203125 7.2862548828125
59.460205078125 -75.8751220703125 1.0755615234375
-41.3671875 -61.6337890625 0.3026123046875
15.05029296875 2.352783203125 7.2890625
-68.12646484375 -5.0087890625 1.2607421875
25.48388671875 69.5047607421875 18.4501953125
66.00390625 -70.506103515625 0.86669921875
-17.973876953125 26.05078125 7.01611328125
42.132080078125 22.200927734375 7.4949951171875
-79.035400390625 12.0418701171875 0.5772705078125
29.44091796875 32.5054931640625 8.7259521484375
32.63720703125 56.2486572265625 11.7149658203125
36.95361328125 27.760986328125 7.7039794921875
-43.006103515625 -94.11083984375 -8.942626953125
38.8701171875 -85.9219970703125 0.9241943359375
48.843505859375 40.7529296875 -14.1998291015625
-36.8544921875 -89.365478515625 5.308837890625
69.11865234375 -87.0748291015625 0.8277587890625
17.591552734375 -86.7474365234375 0.32666015625
25.937744140625 -92.072021484375 0.154541015625
-20.161376953125 -57.72705078125 0.654296875
-0.322021484375 -48.7415771484375 0.969970703125
-59.361083984375 -32.627197265625 0.34765625
11.44873046875 -111.4364013671875 -2.8663330078125
-61.7978515625 -91.9288330078125 3.2523193359375
-53.235595703125 -118.482177734375 4.8809814453125
18.89697265625 -41.30859375 1.8634033203125
-13.20068359375 -19.0439453125 6.9346923828125
82.445556640625 -17.8531494140625 16.6702880859375
25.1845703125 -87.67236328125 0.591796875
4.218994140625 35.0057373046875 7.3511962890625
9.821044921875 -11.813720703125 7.01123046875
51.236083984375 -98.749267578125 -4.0804443359375
-0.90478515625 -7.9158935546875 7.2906494140625
-7.656982421875 73.353759765625 30.6680908203125
-13.8818359375 0.1546630859375 7.8929443359375
52.556640625 -95.0780029296875 0.76123046875
-68.077392578125 16.2462158203125 -0.06982421875
-65.054443359375 -25.724609375 0.2366943359375
29.69580078125 76.0576171875 10.43896484375
-19.9658203125 30.9769287109375 7.02783203125
39.249755859375 -100.497314453125 -11.526611328125
53.77880859375 -73.840087890625 1.1624755859375
33.091064453125 -93.677490234375 0.0399169921875
-40.267822265625 -77.298828125 5.4400634765625
-24.484375 -47.9593505859375 17.2708740234375
-69.333984375 -79.0028076171875 12.4488525390625
2.4140625 56.508056640625 12.6824951171875
-3.5205078125 46.78466796875 13.01953125
21.72021484375 71.503662109375 20.4173583984375
-5.935546875 54.98291015625 17.31396484375
-95.73583984375 22.1103515625 0.896484375
5.263671875 -113.0093994140625 2.076904296875
35.6298828125 2.789306640625 7.3634033203125
-84.628173828125 11.36181640625 0.5631103515625
34.302978515625 93.7259521484375 23.6468505859375
0.172119140625 66.7493896484375 23.7340087890625
-61.29638671875 -96.4171142578125 0.230712890625
-93.49169921875 31.094970703125 -0.2088623046875
23.59033203125 39.3194580078125 7.6824951171875
32.956787109375 -32.1593017578125 2.175537109375
61.669921875 -70.8963623046875 1.353515625
11.477783203125 -25.3858642578125 4.8206787109375
-45.45458984375 -82.6468505859375 -7.3629150390625
-11.11572265625 37.395263671875 7.1697998046875
49.2119140625 -100.9722900390625 -7.69287109375
27.955078125 -100.19970703125 -0.4237060546875
16.91162109375 -64.56396484375 1.041748046875
23.8837890625 -101.6719970703125 0.245849609375
21.9736328125 33.3046875 7.3682861328125
38.698486328125 55.5311279296875 0.3892822265625
45.670654296875 -62.8626708984375 1.5540771484375
37.32080078125 9.4798583984375 7.2225341796875
-55.258544921875 -80.49951171875 -1.8370361328125
43.2158203125 87.4176025390625 4.267822265625
-69.04638671875 20.7947998046875 -0.485107421875
-0.890380859375 52.4002685546875 9.10205078125
46.82861328125 -93.2564697265625 0.284423828125
14.5107421875 71.1439208984375 29.2994384765625
-18.11865234375 -65.940673828125 -0.4752197265625
12.904541015625 25.340087890625 7.3504638671875
19.65625 50.44873046875 8.14794921875
54.27197265625 60.8333740234375 -6.4754638671875
-20.909423828125 44.279052734375 7.950439453125
47.77880859375 62.65771484375 0.1341552734375
33.060791015625 81.9844970703125 5.8612060546875
12.536376953125 45.41259765625 7.7430419921875
7.21826171875 -20.01025390625 7.2431640625
49.48388671875 94.3272705078125 13.54345703125
30.370361328125 68.1065673828125 11.37939453125
32.748046875 88.4871826171875 10.0206298828125
14.38330078125 49.46728515625 7.8302001953125
-1.05517578125 71.377197265625 28.186279296875
-42.785400390625 -89.8282470703125 -8.588134765625
33.179443359375 88.9715576171875 20.2850341796875
41.214111328125 36.7515869140625 8.285400390625
37.018798828125 44.721923828125 7.492431640625
26.626708984375 81.00146484375 17.0205078125
-6.785888671875 -14.4019775390625 7.115234375
44.18115234375 90.7542724609375 7.6259765625
27.59423828125 28.5770263671875 10.1455078125
-48.64990234375 -17.159423828125 2.2205810546875
15.763427734375 -20.3846435546875 7.0701904296875
44.2587890625 34.752197265625 -17.1884765625
-17.44140625 -24.59423828125 4.7696533203125
38.323486328125 -108.139404296875 -13.7342529296875
3.244140625 -23.6807861328125 5.661865234375
-8.527587890625 -43.8206787109375 0.6072998046875
-62.62060546875 -102.4017333984375 4.9627685546875
-3.974365234375 -50.2393798828125 0.586181640625
34.51611328125 31.85400390625 7.3184814453125
-20.27783203125 -12.915283203125 6.85693359375
27.565185546875 6.4952392578125 7.2064208984375
46.7236328125 24.219970703125 7.551025390625
-19.05517578125 16.30517578125 6.6124267578125
-48.732177734375 -78.994873046875 4.1270751953125
12.571044921875 67.968017578125 22.7120361328125
-31.68896484375 -38.4635009765625 2.1964111328125
42.431640625 52.1876220703125 -7.575927734375
4.172119140625 21.9171142578125 7.276123046875
-57.391357421875 -94.63232421875 -6.43505859375
13.73974609375 -15.2869873046875 7.4267578125
-19.483154296875 37.8427734375 6.728759765625
47.79638671875 -86.94677734375 0.7930908203125
-39.28564453125 -50.3123779296875 0.779296875
-21.30517578125 2.311767578125 7.248046875
10.663330078125 32.8045654296875 7.234375
0.552490234375 31.19287109375 7.431884765625
14.42626953125 -104.2640380859375 0.0482177734375
26.7314453125 -77.615478515625 1.2674560546875
9.746826171875 -83.885498046875 3.093505859375
-52.79833984375 -79.411865234375 3.254150390625
27.573974609375 62.578369140625 17.0244140625
32.099609375 40.118408203125 7.720703125
-21.83251953125 -45.803466796875 -8.4365234375
-1.897705078125 -19.9556884765625 6.932373046875
-63.6669921875 -17.473876953125 1.8397216796875
-12.887451171875 -42.439453125 -10.086669921875
-22.630615234375 72.431640625 30.666259765625
-13.103759765625 -36.2535400390625 0.9757080078125
84.3134765625 -25.4925537109375 19.1595458984375
39.3037109375 91.6104736328125 23.599365234375
22.9404296875 63.547119140625 16.036376953125
9.7880859375 18.6689453125 7.047119140625
31.658203125 63.10009765625 16.0169677734375
-12.587646484375 -7.6925048828125 6.952880859375
30.44921875 1.829833984375 7.403076171875
33.220703125 48.388916015625 7.6119384765625
14.373046875 -55.9525146484375 1.0191650390625
8.52734375 -89.666015625 0.2769775390625
-72.755126953125 -8.3759765625 2.074951171875
-59.21826171875 -82.0467529296875 -4.1671142578125
31.06005859375 87.1400146484375 23.1934814453125
28.821533203125 -86.8009033203125 0.2554931640625
-58.612548828125 -20.3681640625 1.5413818359375
45.873291015625 -123.2752685546875 9.843505859375
-3.55126953125 15.8033447265625 7.114501953125
15.27783203125 28.5911865234375 7.3492431640625
8.235107421875 -99.41845703125 0.0103759765625
-57.67724609375 -74.3924560546875 5.530517578125
4.64892578125 44.4610595703125 7.4578857421875
37.0302734375 89.1021728515625 14.941162109375
-45.34619140625 -81.354248046875 -3.5540771484375
-40.615966796875 -42.77734375 0.62744140625
-22.09765625 -22.09326171875 6.3271484375
3.388427734375 -39.1610107421875 0.8995361328125
-61.057373046875 -5.8389892578125 1.4022216796875
38.68359375 -100.09228515625 -16.4300537109375
22.63037109375 72.4136962890625 27.8907470703125
81.943603515625 -21.74072265625 19.6937255859375
28.97900390625 -49.46435546875 1.7064208984375
-47.6435546875 -25.5206298828125 0.8115234375
-65.9013671875 -74.8475341796875 13.51708984375
9.60595703125 -40.991943359375 1.1708984375
11.7021484375 5.55322265625 7.2525634765625
-73.87744140625 31.0596923828125 -0.472412109375
-63.26513671875 10.4228515625 0.5809326171875
-11.127197265625 -40.6849365234375 -13.128173828125
-13.622314453125 -11.9974365234375 7.069091796875
78.329345703125 -14.4039306640625 20.3687744140625
-22.747314453125 -41.733154296875 -6.7603759765625
2.228759765625 59.1517333984375 15.24609375
-17.1005859375 -3.3948974609375 8.3775634765625
0.037841796875 2.862548828125 7.177978515625
-72.0380859375 13.5069580078125 0.09228515625
40.8701171875 -34.9197998046875 1.8309326171875
-7.18994140625 66.8062744140625 23.9427490234375
31.76123046875 86.9730224609375 29.0556640625
-64.96923828125 -74.39697265625 8.08642578125
-6.004638671875 -31.7762451171875 1.60302734375
-68.90576171875 -19.374267578125 1.53125
-25.341064453125 -47.288818359375 9.9884033203125
47.579833984375 86.2386474609375 3.1019287109375
-13.897705078125 71.091552734375 28.4844970703125
28.578369140625 69.14306640625 20.7392578125
10.388427734375 -0.8134765625 7.23095703125
13.83349609375 -92.5594482421875 0.216064453125
5.7314453125 66.5919189453125 23.5694580078125
17.167724609375 -90.8599853515625 0.21630859375
-67.650390625 -97.2215576171875 4.9207763671875
-2.392578125 23.122802734375 7.3914794921875
6.15087890625 72.5257568359375 29.1922607421875
22.21240234375 -58.8994140625 -0.4425048828125
34.6357421875 17.215576171875 7.568115234375
-20.99462890625 -5.0909423828125 7.150146484375
50.937744140625 54.626220703125 -9.5791015625
24.703857421875 -35.7711181640625 1.389892578125
-5.511474609375 5.2171630859375 7.01611328125
4.766357421875 60.7591552734375 17.496826171875
6.153564453125 50.18115234375 8.1361083984375
46.658203125 -74.4517822265625 0.8485107421875
64.625732421875 -93.513916015625 1.3536376953125
-2.535400390625 -1.6671142578125 7.176513671875
18.06689453125 -26.918701171875 4.2950439453125
26.9169921875 42.98828125 7.3720703125
-84.675048828125 30.4063720703125 -0.980224609375
21.39892578125 23.597412109375 7.51513671875
16.46337890625 66.9188232421875 21.786865234375
-9.8232421875 -47.77490234375 -12.325927734375
-42.28125 -28.35400390625 1.05712890625
-82.511474609375 23.5599365234375 2.369140625
24.247802734375 -55.276611328125 -2.4503173828125
-77.847900390625 31.1488037109375 1.125
-2.156005859375 63.1142578125 19.8731689453125
-5.014404296875 32.3016357421875 7.2071533203125
28.534912109375 -80.873291015625 0.9632568359375
70.5849609375 -72.288818359375 1.1080322265625
49.31640625 -100.5496826171875 -11.617431640625
-48.126220703125 -88.8489990234375 -8.2626953125
20.17919921875 -94.2650146484375 0.2081298828125
44.369140625 -99.287109375 -15.4766845703125
74.633056640625 -70.6859130859375 3.7764892578125
34.514892578125 -46.5526123046875 1.6273193359375
45.807861328125 38.015625 7.4246826171875
42.806640625 90.1112060546875 19.019775390625
-50.5341796875 -70.25390625 11.18017578125
-23.205810546875 67.9464111328125 25.9127197265625
40.4580078125 56.838134765625 12.31396484375
15.682861328125 56.0743408203125 12.242919921875
29.806640625 91.3143310546875 27.2532958984375
23.330322265625 6.5882568359375 7.290771484375
45.945556640625 -67.3629150390625 1.3031005859375
-57.35986328125 -109.2930908203125 4.7174072265625
56.116943359375 68.698974609375 -0.1038818359375
-72.457763671875 -91.6790771484375 7.728515625
39.9189453125 -47.012939453125 1.5572509765625
37.9990234375 69.440185546875 4.18798828125
-4.60302734375 -35.8525390625 1.31201171875
29.999755859375 68.50439453125 15.4599609375
23.733154296875 -31.852294921875 2.1402587890625
-14.624755859375 -41.2657470703125 -2.4293212890625
-49.755126953125 -94.4849853515625 -5.0933837890625
39.132568359375 97.7000732421875 28.33740234375
11.80078125 -73.6275634765625 0.6474609375
-7.529052734375 27.447265625 7.23681640625
34.4951171875 -27.4576416015625 4.135009765625
-34.746337890625 -47.1993408203125 1.2403564453125
38.652099609375 -107.209228515625 -17.501953125
45.04443359375 -99.3985595703125 -11.066162109375
50.593505859375 -80.04296875 0.8309326171875
49.43798828125 58.029541015625 -1.9932861328125
-3.85595703125 41.15478515625 15.267578125
-9.0126953125 43.896728515625 10.62841796875
9.592041015625 -55.0533447265625 0.851318359375
-72.528076171875 -86.3787841796875 15.40625
-3.585205078125 -41.5325927734375 0.8314208984375
-69.979736328125 -73.22216796875 16.7103271484375
-10.29833984375 -4.7127685546875 6.8509521484375
-58.446044921875 -84.1434326171875 -8.290283203125
-83.98193359375 -9.14306640625 16.127197265625
-33.564208984375 -53.1104736328125 -3.2274169921875
42.39697265625 52.234375 8.4635009765625
42.7080078125 -24.7554931640625 5.44921875
-59.49365234375 -79.6600341796875 6.952392578125
7.337158203125 -106.2001953125 -0.2752685546875
68.403564453125 -68.0592041015625 1.3125
46.913818359375 31.5679931640625 7.925048828125
43.720703125 71.7115478515625 5.6884765625
35.693603515625 -54.147705078125 1.615966796875
61.0986328125 -91.3160400390625 1.2684326171875
-79.41943359375 28.7225341796875 -0.76318359375
-71.21923828125 -0.7496337890625 1.2373046875
21.09326171875 47.3648681640625 7.403564453125
-66.6689453125 -67.406494140625 16.884033203125
3.46533203125 -49.29052734375 1.0277099609375
-64.197265625 -70.5130615234375 15.9656982421875
48.53662109375 35.764892578125 7.3875732421875
-13.255615234375 -27.3702392578125 3.3570556640625
-1.187255859375 -28.71240234375 2.780029296875
-60.668701171875 -95.2103271484375 3.3887939453125
-44.546142578125 -82.75244140625 3.2816162109375
11.88916015625 36.9390869140625 7.3486328125
15.096923828125 11.1097412109375 7.2979736328125
-12.9619140625 -49.143310546875 -4.93408203125
17.926513671875 68.214599609375 15.925537109375
-55.50634765625 -45.8184814453125 0.1341552734375
3.9072265625 9.69921875 7.4593505859375
-60.8193359375 -43.6253662109375 -0.0150146484375
2.339111328125 53.0279541015625 9.9854736328125
32.41015625 -3.8624267578125 7.48828125
-43.911376953125 -36.8140869140625 0.6842041015625
28.61865234375 -70.1617431640625 0.6121826171875
-26.76416015625 -46.3468017578125 13.71484375
13.8447265625 -66.87451171875 0.64453125
15.302490234375 63.3641357421875 16.8026123046875
59.141357421875 -68.696044921875 1.8701171875
41.864013671875 -84.354736328125 0.660888671875
32.210205078125 -17.321533203125 7.4384765625
-11.75146484375 45.390625 7.4468994140625
53.5732421875 -88.7955322265625 0.1795654296875
42.139404296875 29.3385009765625 -13.671875
15.88818359375 36.35302734375 7.2994384765625
-52.7646484375 -81.6915283203125 -8.5850830078125
-13.41845703125 3.91943359375 6.368896484375
11.143310546875 63.4205322265625 20.0791015625
23.251953125 -73.5758056640625 0.9093017578125
38.04736328125 0.4471435546875 7.5931396484375
-18.4765625 -16.208251953125 6.9415283203125
51.021484375 49.3016357421875 -12.345703125
40.17822265625 57.416015625 6.206787109375
1.455322265625 23.91845703125 7.1490478515625
-11.92236328125 -55.41357421875 -5.9127197265625
-75.66455078125 19.068115234375 -0.1812744140625
58.32373046875 -80.6162109375 0.9552001953125
8.896728515625 -49.4561767578125 1.1353759765625
3.911376953125 -42.5718994140625 0.9449462890625
-56.129150390625 -25.9541015625 0.5213623046875
38.554931640625 92.1387939453125 12.5443115234375
-56.263427734375 -70.1402587890625 6.6856689453125
-63.203857421875 -98.802978515625 4.648681640625
-35.996337890625 -52.21630859375 2.923583984375
-17.010986328125 20.3856201171875 6.7685546875
16.813232421875 -113.62353515625 2.1688232421875
37.508544921875 75.445068359375 3.597412109375
28.40625 90.8648681640625 31.5782470703125
-49.192626953125 -82.018798828125 -8.042236328125
79.083740234375 -9.591064453125 17.5106201171875
38.87744140625 -110.0372314453125 -11.0479736328125
1.538330078125 -13.74365234375 7.4166259765625
-91.52734375 16.6685791015625 -0.0643310546875
31.60791015625 95.7169189453125 25.8302001953125
-38.212890625 -64.666259765625 0.2657470703125
-10.02734375 7.074462890625 7.0947265625
44.83544921875 92.8875732421875 14.123291015625
-19.915771484375 5.745849609375 10.537353515625
-65.0400390625 -35.1556396484375 0.3848876953125
20.085693359375 -0.603271484375 7.446533203125
38.291259765625 60.2083740234375 -0.5377197265625
-37.3388671875 -42.0633544921875 0.38916015625
8.0458984375 -31.33642578125 1.6444091796875
-12.541748046875 -51.7152099609375 -9.8016357421875
48.896728515625 90.1121826171875 8.112060546875
-4.89013671875 48.4185791015625 18.266845703125
50.869140625 70.4251708984375 -0.83056640625
31.29052734375 -11.274169921875 7.5709228515625
-90.97265625 32.8018798828125 3.5484619140625
66.244384765625 -96.3150634765625 0.7325439453125
14.34326171875 -83.1070556640625 2.3726806640625
-10.447998046875 24.422119140625 6.818115234375
27.260498046875 50.79736328125 8.1790771484375
41.4921875 37.8521728515625 -13.2547607421875
4.710693359375 -88.643798828125 2.58642578125
-48.706298828125 -44.757568359375 0.4879150390625
20.70361328125 -9.520751953125 7.3446044921875
-17.34814453125 40.29150390625 7.1285400390625
53.871337890625 58.4017333984375 -8.62548828125
-88.009033203125 -5.9036865234375 16.321533203125
50.378173828125 65.4083251953125 -2.959228515625
21.7080078125 42.112060546875 7.66162109375
9.59423828125 60.7396240234375 17.1885986328125
8.021484375 56.59912109375 12.931396484375
-7.266845703125 -61.03173828125 -10.30126953125
-78.8095703125 17.4078369140625 -0.0364990234375
34.308349609375 -23.7506103515625 5.9932861328125
-55.95068359375 -81.6466064453125 4.9462890625
16.406494140625 -46.2303466796875 2.5103759765625
-58.490234375 -95.3345947265625 -9.4163818359375
25.1943359375 -4.9290771484375 7.67333984375
-6.828125 -9.107666015625 7.1856689453125
16.817626953125 -72.4898681640625 0.7998046875
17.632080078125 17.4710693359375 7.2027587890625
10.724853515625 -87.2926025390625 0.0205078125
35.77197265625 98.2279052734375 29.18994140625
-11.024169921875 15.5450439453125 7.154296875
62.517578125 -78.1209716796875 0.892333984375
46.646728515625 -97.5576171875 -3.1805419921875
55.8935546875 -86.511962890625 -0.0106201171875
-4.1669921875 49.793212890625 11.7708740234375
4.424072265625 -2.02978515625 7.1260986328125
-70.93017578125 -98.73779296875 12.155517578125
-63.497802734375 -86.5518798828125 5.1995849609375
41.429443359375 29.274169921875 8.7493896484375
-54.423583984375 -31.3935546875 0.391845703125
-61.694580078125 -1.7716064453125 1.3951416015625
39.577392578125 -107.2767333984375 -8.33447265625
-96.603759765625 28.18505859375 0.0936279296875
25.520751953125 -69.5078125 1.2103271484375
-8.92236328125 -55.01611328125 -11.813232421875
-20.387939453125 -5.2635498046875 11.259765625
20.255615234375 -108.821533203125 0.3116455078125
80.312744140625 -15.3992919921875 17.91552734375
-75.284912109375 24.7042236328125 -0.691650390625
-55.369384765625 -70.0400390625 10.68994140625
18.35595703125 -114.733154296875 -0.7664794921875
51.88037109375 -68.397216796875 1.4488525390625
34.39306640625 58.7803955078125 14.7967529296875
25.060791015625 -65.70556640625 0.732177734375
-55.3037109375 -83.1295166015625 1.171142578125
29.0634765625 81.8377685546875 12.50830078125
18.289794921875 -83.1400146484375 0.653076171875
41.885009765625 -53.18017578125 1.453857421875
19.193359375 -77.1136474609375 0.453857421875
-1.73583984375 68.7724609375 25.98095703125
24.955322265625 -41.518798828125 1.2777099609375
-29.950439453125 -51.0447998046875 0.9093017578125
-54.62451171875 -10.462646484375 1.418212890625
23.69921875 56.4163818359375 12.65478515625
21.20849609375 -33.7012939453125 1.518798828125
23.21435546875 -80.911376953125 0.632568359375
-30.989501953125 -56.5926513671875 -6.375
-44.851318359375 -70.7611083984375 6.2342529296875
47.41796875 47.6146240234375 -9.914306640625
57.085693359375 -98.7557373046875 -3.036376953125
46.576904296875 70.31494140625 2.92236328125
1.660400390625 -9.774169921875 7.2196044921875
-4.7158203125 59.8128662109375 16.7838134765625
27.995849609375 -23.2196044921875 6.3428955078125
-87.5263671875 25.6351318359375 1.3070068359375
8.454833984375 -7.38525390625 7.302490234375
-44.8349609375 -46.39794921875 0.435302734375
36.291015625 88.9075927734375 7.8060302734375
-19.07421875 -1.2332763671875 7.208251953125
-5.48388671875 -25.8997802734375 4.210693359375
17.73486328125 -99.9432373046875 -0.115478515625
6.373779296875 11.6494140625 7.588623046875
42.368896484375 25.885986328125 -18.3692626953125
15.3447265625 43.720703125 7.4273681640625
0.78955078125 -41.22900390625 0.7615966796875
-41.25537109375 -84.7181396484375 -2.9173583984375
6.4267578125 -95.898681640625 0.247802734375
-12.519287109375 68.287841796875 25.50048828125
23.08837890625 70.4981689453125 23.468017578125
61.3876953125 -96.4425048828125 1.5367431640625
11.384521484375 58.0064697265625 14.3282470703125
-11.7568359375 -40.7469482421875 -3.560546875
26.033935546875 18.1895751953125 7.566162109375
-0.322509765625 73.337646484375 30.5018310546875
-58.78466796875 -65.2923583984375 17.3648681640625
-76.30224609375 3.9915771484375 0.9888916015625
25.768310546875 71.1881103515625 25.3985595703125
24.509521484375 20.9007568359375 7.3529052734375
-6.93994140625 71.1907958984375 28.5416259765625
28.83642578125 36.596435546875 7.5819091796875
-88.45458984375 20.431396484375 0.4031982421875
65.854248046875 -81.51708984375 0.8880615234375
43.70751953125 33.3248291015625 9.6671142578125
-76.187255859375 -4.842041015625 1.851318359375
-25.472900390625 -51.516357421875 0.5294189453125
-49.6787109375 -55.3140869140625 0.32958984375
53.692138671875 -81.3026123046875 1.2530517578125
-63.0224609375 17.0496826171875 -0.0916748046875
7.5791015625 -15.6781005859375 7.2174072265625
38.13330078125 37.1121826171875 8.116943359375
-67.137451171875 -11.39013671875 1.882568359375
-18.05224609375 11.4266357421875 6.810302734375
14.3330078125 -5.2674560546875 7.23974609375
-68.9306640625 -79.7760009765625 5.6346435546875
3.093017578125 -53.19775390625 0.99462890625
6.163818359375 64.2213134765625 21.1756591796875
22.410888671875 36.365478515625 7.5052490234375
-19.126708984375 -43.3333740234375 -3.4525146484375
-13.889892578125 -46.2247314453125 -7.3984375
59.73681640625 -84.25 0.8232421875
14.65087890625 -49.324951171875 1.423583984375
-20.1552734375 -43.9508056640625 -10.508056640625
-27.23095703125 -45.3675537109375 0.8370361328125
33.264404296875 -89.9730224609375 0.0360107421875
-42.464111328125 -85.3641357421875 2.34228515625
-0.5810546875 16.6171875 7.215087890625
-62.708984375 -94.0521240234375 -5.576416015625
16.397216796875 67.451416015625 18.75439453125
-22.007080078125 20.185302734375 7.0264892578125
25.70751953125 67.97021484375 15.7939453125
-13.712158203125 -44.53369140625 -4.1927490234375
-67.983154296875 0.236572265625 1.1759033203125
38.650146484375 -5.626220703125 7.217529296875
24.020751953125 -28.7901611328125 3.2698974609375
-62.64892578125 -88.716552734375 2.7725830078125
-17.119873046875 71.158447265625 27.39599609375
-50.2490234375 -72.002197265625 5.5146484375
-10.1767578125 -19.243896484375 6.568115234375
-8.570068359375 63.681640625 20.770263671875
42.719970703125 -97.51953125 -6.9722900390625
9.246337890625 38.7396240234375 7.287109375
1.82958984375 38.3560791015625 7.3251953125
36.81884765625 -18.4552001953125 7.5264892578125
16.94677734375 -39.0098876953125 1.447509765625
-52.096435546875 -22.8038330078125 1.2203369140625
34.879150390625 69.3382568359375 8.2440185546875
40.874267578125 -90.24609375 0.718017578125
9.6474609375 -61.2401123046875 1.227294921875
22.5302734375 29.1864013671875 7.5006103515625
0.264892578125 -0.49853515625 7.07861328125
48.668701171875 55.08251953125 -5.8255615234375
-58.40771484375 1.81494140625 0.5115966796875
-19.873779296875 -52.0948486328125 -2.2724609375
-9.48046875 -37.4388427734375 1.060302734375
-61.883056640625 -93.4508056640625 0.562255859375
36.047607421875 -3.9925537109375 7.4287109375
25.320068359375 -106.9207763671875 -0.2760009765625
15.78515625 -12.4903564453125 7.1478271484375
57.028564453125 -97.2191162109375 0.357177734375
-99.078125 34.3729248046875 -0.183837890625
37.02490234375 -11.6614990234375 7.914794921875
49.556640625 87.3087158203125 5.3699951171875
61.47509765625 -97.958251953125 -4.146484375
6.028076171875 39.2255859375 7.3760986328125
18.566162109375 10.390380859375 7.2720947265625
46.26220703125 40.9937744140625 7.629638671875
20.4482421875 39.2872314453125 7.4202880859375
27.03271484375 -7.887939453125 7.5572509765625
34.317626953125 -10.1964111328125 7.5391845703125
-6.818603515625 11.50830078125 7.07177734375
28.236328125 -42.1668701171875 1.43701171875
-62.638427734375 -72.837158203125 9.18017578125
47.469482421875 -90.339111328125 0.6510009765625
27.37939453125 79.86474609375 22.4854736328125
-16.28125 34.6365966796875 7.981689453125
25.683349609375 -62.19921875 -6.11865234375
-48.06494140625 -96.8048095703125 -8.6094970703125
42.2158203125 99.2545166015625 26.6390380859375
14.96533203125 -114.3162841796875 -1.42138671875
41.438232421875 -61.3262939453125 1.388916015625
-13.63330078125 29.4560546875 7.4805908203125
-62.3720703125 -39.0943603515625 0.339111328125
-53.192626953125 -89.1297607421875 -5.9974365234375
-61.98486328125 -87.1490478515625 -5.202392578125
-24.962158203125 -37.3194580078125 2.89794921875
46.454833984375 42.326416015625 -13.38525390625
-89.52685546875 32.3951416015625 -0.4920654296875
31.839599609375 -48.6904296875 1.485107421875
20.130126953125 72.831298828125 18.1683349609375
48.947998046875 92.8612060546875 16.5570068359375
22.621826171875 17.1937255859375 7.2279052734375
-62.0556640625 5.78759765625 0.6434326171875
2.19921875 -31.502685546875 1.7012939453125
50.207763671875 -76.037109375 1.045654296875
31.055419921875 -54.5845947265625 -5.388916015625
-10.426025390625 -39.9864501953125 -8.4642333984375
42.355712890625 -97.6014404296875 -16.8260498046875
14.146484375 -71.2646484375 1.0777587890625
-11.0859375 -32.9639892578125 1.1507568359375
-71.924560546875 21.4169921875 -0.43603515625
-0.33251953125 49.832275390625 7.7745361328125
-79.611083984375 6.5584716796875 0.9234619140625
11.82568359375 20.8685302734375 7.3663330078125
39.80078125 15.017822265625 7.6942138671875
30.385986328125 101.8770751953125 33.05126953125
-92.846435546875 23.1036376953125 0.2198486328125
-10.59912109375 -42.500732421875 -0.99755859375
-70.16259765625 -98.72900390625 4.8199462890625
32.574951171875 -86.5277099609375 0.5787353515625
25.114990234375 23.8272705078125 7.625244140625
-18.2490234375 -56.9722900390625 -5.0267333984375
17.21923828125 31.1724853515625 7.0841064453125
-22.62548828125 -49.461181640625 15.5467529296875
63.025634765625 -89.1676025390625 0.8062744140625
38.083740234375 12.2696533203125 7.637939453125
-71.79541015625 -23.7642822265625 0.8426513671875
11.8037109375 53.834228515625 10.05517578125
-48.99072265625 -68.9844970703125 5.603515625
-49.065673828125 -40.525146484375 0.2880859375
40.57861328125 42.7275390625 -8.1396484375
-44.73974609375 -75.0943603515625 5.673828125
50.277099609375 50.9124755859375 -9.9744873046875
11.544677734375 -32.109619140625 1.5279541015625
11.045654296875 -44.7376708984375 1.3262939453125
20.637451171875 -60.6412353515625 1.2772216796875
35.3515625 66.43017578125 11.1456298828125
26.4921875 -15.2120361328125 7.544921875
-91.193359375 26.362548828125 0.083251953125
-16.4169921875 -46.2078857421875 -1.7816162109375
-59.514892578125 -38.2236328125 0.3660888671875
-36.58447265625 -85.216552734375 5.675048828125
10.169921875 -92.02099609375 -0.1334228515625
-47.849365234375 -76.704833984375 5.6707763671875
42.247314453125 55.9466552734375 -4.90576171875
-33.522216796875 -58.258544921875 -7.04736328125
27.34619140625 77.437255859375 17.793212890625
21.75146484375 14.2689208984375 7.280517578125
-70.63037109375 -81.4930419921875 11.7496337890625
-75.392578125 -10.9449462890625 2.349853515625
-48.6640625 -33.9058837890625 0.4111328125
45.642822265625 66.400390625 1.4447021484375
-59.685302734375 -103.4366455078125 4.531494140625
-2.88720703125 -4.5308837890625 7.1368408203125
31.653564453125 79.7396240234375 7.3441162109375
31.015380859375 -53.6278076171875 0.55078125
30.95263671875 8.255126953125 7.4490966796875
28.457763671875 -54.599365234375 -6.6297607421875
32.163818359375 -80.7823486328125 0.659423828125
15.233154296875 -27.1961669921875 3.8890380859375
45.2705078125 26.6993408203125 7.4703369140625
-51.8193359375 -99.4462890625 -8.4141845703125
-38.2666015625 -58.1484375 0.6925048828125
9.518798828125 -111.671630859375 -0.7559814453125
25.856201171875 -46.15771484375 1.5655517578125
-2.423095703125 31.0745849609375 7.237060546875
19.013671875 -4.0460205078125 7.397216796875
-50.229248046875 -81.72900390625 2.1566162109375
-71.400634765625 -84.8349609375 7.6676025390625
-21.48681640625 -43.642578125 -1.4422607421875
-4.028564453125 44.4560546875 9.8857421875
-58.578857421875 -12.6427001953125 2.1661376953125
29.2275390625 78.1064453125 12.376220703125
44.108154296875 45.722900390625 7.4471435546875
-56.15478515625 -51.0306396484375 0.2191162109375
25.224853515625 29.5765380859375 8.9017333984375
-16.56494140625 -45.6600341796875 -5.13037109375
-45.34619140625 -59.03466796875 0.26220703125
28.0078125 0.34130859375 8.352783203125
-68.0439453125 -31.2921142578125 0.1378173828125
-65.587646484375 -82.227294921875 5.2548828125
14.396240234375 -60.5372314453125 1.267578125
6.37890625 1.7623291015625 7.2523193359375
3.997802734375 70.7193603515625 27.728759765625
48.684326171875 -69.2210693359375 0.978271484375
40.91552734375 88.7205810546875 20.6229248046875
47.262451171875 38.6273193359375 -15.2301025390625
26.47509765625 26.941162109375 7.4149169921875
-15.07177734375 66.829833984375 24.1640625
32.469482421875 89.3638916015625 14.02587890625
2.222900390625 17.044677734375 7.2164306640625
-10.8173828125 -25.255615234375 4.4647216796875
33.978271484375 91.3172607421875 21.66357421875
33.28173828125 82.7657470703125 25.635498046875
18.115966796875 71.2618408203125 26.5811767578125
66.42626953125 -85.7789306640625 0.7440185546875
22.21875 -18.903564453125 7.353515625
19.151123046875 33.452392578125 7.3350830078125
-72.61474609375 -88.9935302734375 9.494873046875
35.047607421875 -29.983642578125 3.0096435546875
-1.80712890625 61.1455078125 17.8848876953125
31.864013671875 17.4888916015625 7.13720703125
6.280517578125 -46.760498046875 1.2760009765625
-49.34130859375 -79.36279296875 -1.8271484375
40.251708984375 84.9266357421875 2.302978515625
39.218505859375 57.31689453125 -1.726806640625
43.167236328125 -67.6746826171875 1.64599609375
76.854248046875 -8.32568359375 18.6776123046875
-65.044921875 15.0914306640625 -0.4564208984375
28.763427734375 55.6688232421875 11.435302734375
-8.993896484375 35.5628662109375 6.9425048828125
-55.114013671875 -17.7879638671875 1.90673828125
17.080078125 0.4124755859375 7.311279296875
12.262451171875 -108.0548095703125 -0.1473388671875
26.51220703125 65.0030517578125 16.090576171875
37.628662109375 81.5330810546875 0.60888671875
-44.836669921875 -30.19384765625 0.8607177734375
29.417724609375 -37.1466064453125 1.5186767578125
31.36865234375 -73.71240234375 0.4197998046875
35.44580078125 -95.1016845703125 0.566162109375
40.258544921875 90.8721923828125 8.16064453125
23.0625 -110.5859375 -0.548583984375
41.772705078125 101.9774169921875 31.401123046875
44.719970703125 95.5845947265625 22.942138671875
-19.00927734375 4.1654052734375 6.7589111328125
44.662109375 -76.36865234375 1.2249755859375
-22.169921875 -37.8125 1.30224609375
25.9443359375 -51.46875 2.9468994140625
-4.118896484375 -8.4678955078125 7.05224609375
-78.273681640625 0.6663818359375 1.378662109375
17.69140625 69.096923828125 23.00927734375
38.922607421875 21.471435546875 7.32373046875
9.17578125 -66.6190185546875 1.18359375
17.580810546875 6.26953125 7.32275390625
-44.93408203125 -27.387451171875 1.01220703125
-57.04541015625 -43.303466796875 0.2432861328125
-55.760009765625 -39.0037841796875 0.221923828125
35.24365234375 99.6253662109375 32.5404052734375
-39.8974609375 -69.603271484375 -0.5423583984375
-30.0205078125 -44.3118896484375 0.79150390625
-61.964111328125 -85.948486328125 -0.3477783203125
39.543701171875 -18.9176025390625 7.314453125
53.4619140625 71.0113525390625 0.439208984375
-37.77392578125 -36.373046875 1.0963134765625
18.04931640625 -106.689208984375 -0.1717529296875
44.544189453125 48.0040283203125 -10.4013671875
37.080810546875 87.9041748046875 17.4326171875
-45.311767578125 -97.0120849609375 -8.7513427734375
6.47705078125 5.6031494140625 7.0589599609375
38.278076171875 62.8134765625 0.8023681640625
-3.226806640625 6.7689208984375 7.044677734375
49.723388671875 92.5784912109375 11.422119140625
43.957275390625 12.9384765625 7.068115234375
-33.06884765625 -66.82275390625 -0.0262451171875
-52.66650390625 -77.9830322265625 -3.9537353515625
-19.980712890625 -51.4761962890625 -6.6815185546875
27.655517578125 14.3831787109375 7.3831787109375
-71.448974609375 27.4947509765625 -0.9093017578125
14.114501953125 -86.1964111328125 0.672119140625
36.093994140625 -92.10693359375 -0.224609375
-25.406982421875 -41.6558837890625 0.8115234375
27.887939453125 -28.233154296875 3.8270263671875
-8.5400390625 44.4554443359375 7.9832763671875
-69.462158203125 -88.4124755859375 5.1990966796875
-14.2822265625 -43.889892578125 -0.38623046875
-59.13525390625 -90.9063720703125 -7.0355224609375
-20.510986328125 10.2471923828125 6.587646484375
33.06787109375 77.2681884765625 3.7247314453125
-52.368408203125 -13.89453125 2.5616455078125
-2.4912109375 -14.8193359375 7.166015625
-52.3740234375 -55.388427734375 -0.1253662109375
0.8193359375 11.62890625 7.09716796875
50.395263671875 -102.3343505859375 -9.743896484375
14.923828125 -17.746826171875 7.3707275390625
30.6875 86.1097412109375 17.2303466796875
23.630126953125 -93.521484375 0.311767578125
-71.091796875 -80.4615478515625 15.724609375
-31.199462890625 -40.68701171875 0.643798828125
-62.096923828125 -28.6278076171875 0.3292236328125
4.775634765625 13.97705078125 7.276611328125
-64.82958984375 -105.05224609375 4.6849365234375
45.9658203125 94.8350830078125 12.464599609375
37.441650390625 6.7620849609375 7.4228515625
36.86181640625 -48.9755859375 1.6982421875
29.9755859375 96.6043701171875 29.83349609375
14.98291015625 -7.910888671875 7.345947265625
60.56689453125 -73.38134765625 1.2147216796875
-19.151611328125 67.5355224609375 25.2691650390625
18.739990234375 -30.34375 2.2838134765625
34.767578125 -82.183837890625 0.8135986328125
-5.20703125 -1.9847412109375 6.78173828125
6.775390625 27.3677978515625 7.279541015625
-20.887939453125 -47.9503173828125 -7.063232421875
-63.4140625 -4.4859619140625 1.3939208984375
44.8330078125 -86.629150390625 0.4765625
-22.302734375 -41.17822265625 -0.646484375
-65.07958984375 12.3154296875 -0.1175537109375
7.524658203125 31.3028564453125 7.548095703125
27.756591796875 74.8128662109375 19.2464599609375
-65.705810546875 22.82421875 -0.535888671875
47.263427734375 65.3861083984375 -1.25
53.938232421875 -98.59814453125 -3.9930419921875
6.0517578125 -108.572998046875 -0.48974609375
-6.150390625 1.4908447265625 6.8408203125
-19.548828125 -34.744140625 0.8740234375
30.2568359375 73.4031982421875 9.552734375
-17.062255859375 -41.1136474609375 0.0284423828125
33.790283203125 71.4110107421875 6.8919677734375
-7.43505859375 -3.6715087890625 6.8197021484375
0.1806640625 41.582275390625 7.33935546875
44.677001953125 21.337158203125 7.2568359375
-12.1572265625 -1.8291015625 7.29150390625
-4.1572265625 -21.33837890625 6.431884765625
-60.655517578125 -86.7828369140625 -7.518798828125
-48.565673828125 -89.725341796875 -5.7525634765625
-19.775634765625 -40.7059326171875 0.6563720703125
-57.447998046875 -70.7757568359375 9.14501953125
-17.6728515625 -13.5908203125 6.787841796875
18.861572265625 44.689697265625 7.438232421875
39.202880859375 -21.4979248046875 6.6441650390625
30.31640625 89.5748291015625 30.199462890625
23.0126953125 11.2301025390625 7.3253173828125
44.44677734375 -97.98974609375 -4.65771484375
43.052001953125 38.5399169921875 7.4913330078125
-20.07373046875 -23.55908203125 5.3466796875
37.145751953125 65.7850341796875 4.2237548828125
18.655517578125 26.1153564453125 7.41943359375
-15.343017578125 -68.438232421875 -0.4456787109375
-45.98193359375 -49.418701171875 0.4029541015625
-43.270751953125 -82.937744140625 -2.9410400390625
41.284912109375 -30.9912109375 2.529296875
23.56591796875 1.6856689453125 7.7252197265625
34.373291015625 28.39306640625 7.378173828125
-57.7890625 -85.4158935546875 2.833251953125
18.64404296875 -66.591552734375 1.253662109375
-66.216064453125 -29.345947265625 0.294921875
30.9560546875 30.7685546875 7.3736572265625
44.90283203125 37.1871337890625 -16.29833984375
23.926513671875 -13.8677978515625 7.2415771484375
-28.2060546875 -52.80908203125 -4.08154296875
-60.961181640625 -9.7630615234375 1.974609375
-12.951904296875 39.755615234375 7.05615234375
-58.013916015625 -69.32421875 14.6175537109375
47.518798828125 52.1337890625 -7.9906005859375
11.385498046875 -70.9991455078125 0.7730712890625
-72.365478515625 -12.5615234375 2.460693359375
-61.86376953125 -22.984375 0.8572998046875
25.933349609375 12.2962646484375 7.2943115234375
-47.092041015625 -80.822265625 -1.62255859375
-50.052001953125 -37.9222412109375 0.3028564453125
49.1748046875 60.492431640625 -3.1895751953125
-45.303955078125 -23.0067138671875 1.3023681640625
27.829833984375 -5.022216796875 7.9769287109375
34.52587890625 19.8597412109375 7.3701171875
3.303466796875 -93.4224853515625 0.720703125
-57.885009765625 -6.8187255859375 1.482421875
-53.341796875 -95.7003173828125 -9.3543701171875
12.727294921875 -96.818603515625 0.2099609375
41.19482421875 -13.8153076171875 7.2012939453125
-71.8017578125 5.46484375 0.910400390625
46.0966796875 91.8521728515625 18.880126953125
-2.67041015625 45.87548828125 7.3394775390625
43.032958984375 -3.76025390625 8.0947265625
32.123046875 83.1822509765625 23.2965087890625
-15.415283203125 26.701416015625 6.88916015625
