1.867919921875 29.2921142578125 2.9322509765625
53.4384765625 -90.3533935546875 1.742431640625
50.926025390625 -82.7298583984375 -19.0096435546875
-44.23876953125 -96.7598876953125 -7.4974365234375
19.410400390625 71.691162109375 18.3564453125
46.150146484375 26.121826171875 3.34814453125
-49.489013671875 -69.245361328125 8.5078125
-1.31982421875 59.088623046875 9.30078125
42.8857421875 46.0775146484375 2.7728271484375
-34.18798828125 -82.749755859375 5.3502197265625
41.037353515625 55.8826904296875 4.6622314453125
46.862060546875 16.3448486328125 -26.893798828125
-6.774658203125 81.5704345703125 30.876953125
67.834716796875 -96.43896484375 -6.5386962890625
43.435546875 93.2459716796875 15.7860107421875
36.220947265625 23.095947265625 3.2386474609375
-11.640625 78.8712158203125 28.7757568359375
97.0634765625 -80.6158447265625 -17.616943359375
-16.15478515625 8.642578125 3.79833984375
29.646728515625 35.0614013671875 5.1881103515625
4.566162109375 71.677001953125 20.9122314453125
-11.199951171875 6.7545166015625 8.2359619140625
32.750244140625 92.3919677734375 23.10595703125
54.223876953125 -39.9862060546875 -31.990966796875
85.552734375 -61.5240478515625 -7.4024658203125
-64.17822265625 11.0660400390625 -2.366455078125
12.17626953125 -99.4603271484375 0.7086181640625
-55.8408203125 -92.1954345703125 1.329345703125
22.90966796875 8.370849609375 3.9854736328125
24.6640625 -10.876708984375 5.1405029296875
-9.94970703125 -3.3475341796875 3.6392822265625
34.071533203125 81.1424560546875 1.0052490234375
2.1640625 -28.6905517578125 0.361328125
21.471923828125 47.67236328125 2.5908203125
43.404296875 100.1885986328125 19.08642578125
87.689208984375 -68.23046875 -0.801025390625
45.519775390625 20.275634765625 -24.2489013671875
77.962646484375 -0.51220703125 -0.9549560546875
11.372802734375 -26.362060546875 1.6400146484375
47.822265625 -41.7022705078125 -0.0384521484375
8.751708984375 29.52880859375 19.4666748046875
48.1435546875 -34.658203125 -29.7265625
49.667724609375 -61.654296875 -23.828857421875
-7.5263671875 36.1634521484375 2.892333984375
25.8310546875 40.179931640625 3.2379150390625
3.654541015625 4.5992431640625 4.2275390625
-46.789306640625 -27.574462890625 -1.7310791015625
-19.781494140625 16.0078125 4.0870361328125
-51.77783203125 -80.1998291015625 -8.47900390625
-16.123291015625 -51.127685546875 2.57275390625
43.9736328125 40.2725830078125 -14.3311767578125
34.6787109375 39.7288818359375 2.649169921875
-46.892578125 -78.3304443359375 -0.8326416015625
54.656982421875 43.1705322265625 -20.92578125
19.2578125 11.3973388671875 3.748291015625
-44.1396484375 -19.567626953125 -0.659423828125
64.874267578125 -99.8758544921875 -6.75
35.6513671875 87.4022216796875 1.981201171875
-6.452392578125 -40.8638916015625 -2.8372802734375
27.386474609375 17.2479248046875 3.8065185546875
-16.48828125 -46.78857421875 -3.04150390625
40.007080078125 -32.880615234375 0.3460693359375
3.93896484375 12.4910888671875 3.614501953125
48.559814453125 -39.8502197265625 -28.70263671875
72.624267578125 -96.7657470703125 -2.0860595703125
-51.96337890625 -11.132080078125 0.186279296875
78.820556640625 -12.066650390625 1.165771484375
45.497802734375 -113.0867919921875 -23.392822265625
38.950439453125 -39.8116455078125 -0.34814453125
52.08349609375 76.9207763671875 -2.251220703125
-18.134033203125 -47.71142578125 -8.725830078125
45.789306640625 71.434326171875 -1.3828125
42.7060546875 -96.7681884765625 -18.3331298828125
-33.936767578125 -38.0377197265625 -0.488525390625
87.869873046875 -96.06494140625 1.649169921875
59.3291015625 -62.145263671875 -15.7657470703125
-14.571533203125 70.0211181640625 20.521484375
60.69091796875 -97.961669921875 -23.326416015625
26.292724609375 -106.177001953125 1.487548828125
35.597900390625 83.1173095703125 22.511474609375
-61.61279296875 -32.4476318359375 -1.634033203125
21.454833984375 67.6495361328125 10.6241455078125
52.5859375 -99.094482421875 -27.2769775390625
82.7861328125 -55.016357421875 -3.2586669921875
7.374755859375 34.0863037109375 3.0887451171875
49.45849609375 -47.080810546875 -27.189453125
-1.63671875 50.571533203125 16.04443359375
-35.604736328125 -33.0069580078125 -1.127685546875
44.2978515625 10.203857421875 4.1939697265625
-58.130615234375 -85.297119140625 -4.910888671875
-22.529296875 68.72119140625 24.9285888671875
44.491455078125 -103.5340576171875 -8.2510986328125
10.461669921875 -33.1368408203125 -0.3580322265625
47.0048828125 -3.5650634765625 -28.82666015625
5.162353515625 47.65966796875 2.5980224609375
16.3525390625 73.9542236328125 21.3392333984375
-20.724365234375 -36.36181640625 -0.886474609375
32.460693359375 25.1319580078125 2.9234619140625
45.787841796875 -104.39892578125 -23.8631591796875
13.62451171875 -117.2418212890625 1.6650390625
1.72412109375 66.4501953125 16.3348388671875
-14.2021484375 -42.832763671875 -7.642333984375
46.491455078125 -99.9552001953125 -24.585693359375
43.718505859375 64.5479736328125 -6.732421875
-69.348876953125 23.335693359375 -4.8101806640625
36.307861328125 82.0067138671875 17.830810546875
74.52734375 17.584228515625 1.9013671875
44.70458984375 -107.782470703125 -8.0323486328125
-43.97119140625 -66.8173828125 6.676025390625
28.45703125 -15.109375 5.311279296875
-56.997802734375 -16.9158935546875 -0.3914794921875
-59.384033203125 -90.296142578125 -5.8946533203125
-42.57470703125 -37.142822265625 -0.29833984375
-21.128173828125 66.920654296875 16.589111328125
-1.5009765625 37.2896728515625 2.6641845703125
98.376220703125 -96.6585693359375 -16.8614501953125
25.758056640625 60.582275390625 9.5687255859375
-21.635009765625 -56.2532958984375 -2.2664794921875
66.533447265625 -95.8837890625 3.033447265625
7.60693359375 -102.5877685546875 1.587158203125
53.466064453125 -62.3499755859375 0.7933349609375
24.67236328125 27.182861328125 3.30078125
-76.422607421875 15.17138671875 -3.9498291015625
44.941650390625 37.16455078125 -18.8106689453125
-0.684326171875 48.3846435546875 6.1884765625
3.464599609375 -6.3851318359375 3.738525390625
-19.772216796875 -43.6546630859375 0.08984375
41.112548828125 3.8406982421875 4.3751220703125
-9.341552734375 -42.75244140625 -8.3280029296875
86.366455078125 -89.4576416015625 3.2513427734375
27.9619140625 79.82177734375 15.0718994140625
-52.81787109375 -25.73046875 -1.5189208984375
51.380615234375 -66.5889892578125 -26.105224609375
-18.359130859375 73.80224609375 24.598388671875
51.046875 -32.242431640625 -31.980224609375
-17.695556640625 81.9656982421875 31.8660888671875
-9.6298828125 11.2279052734375 3.4901123046875
47.482177734375 -18.1192626953125 -28.49658203125
11.11767578125 24.058349609375 3.3221435546875
-53.60302734375 -110.0279541015625 5.2677001953125
17.17236328125 -31.458740234375 -0.5423583984375
42.917724609375 -109.468994140625 -16.957275390625
46.8056640625 -96.7496337890625 -10.0836181640625
-6.08740234375 -59.7509765625 -8.4215087890625
77.451171875 -8.9708251953125 -3.6551513671875
74.48828125 -97.9591064453125 1.4044189453125
-7.82373046875 -54.4307861328125 -10.356201171875
10.7294921875 -90.569580078125 0.1162109375
60.131103515625 41.18994140625 3.286376953125
50.860595703125 -89.1917724609375 -16.6536865234375
70.719482421875 -95.578857421875 6.7828369140625
-50.905029296875 -42.1339111328125 -1.2669677734375
3.0791015625 25.1497802734375 3.247802734375
34.172119140625 -52.41015625 -1.9661865234375
43.59326171875 52.7586669921875 -6.274169921875
-45.37744140625 -83.528564453125 -6.8948974609375
32.0537109375 79.68310546875 4.2738037109375
47.97900390625 -24.6497802734375 -27.6209716796875
-14.163330078125 -61.8902587890625 -8.1234130859375
-34.158447265625 -59.589599609375 0.4356689453125
46.245849609375 48.23974609375 -15.5281982421875
-62.296142578125 -22.9232177734375 -1.1434326171875
-32.807373046875 -57.318359375 4.180908203125
78.789306640625 -30.2025146484375 4.779296875
-4.2578125 -11.1409912109375 4.8048095703125
83.528564453125 -35.7110595703125 -7.4290771484375
18.41650390625 54.32177734375 4.306640625
-52.149169921875 -94.0888671875 -6.146728515625
19.3349609375 71.645263671875 10.7398681640625
7.340087890625 2.501708984375 4.178466796875
27.229248046875 -57.776611328125 -6.013671875
-23.459716796875 69.5655517578125 20.1175537109375
34.173828125 69.4573974609375 5.697998046875
39.41943359375 29.9893798828125 3.6407470703125
83.963134765625 -58.9222412109375 -4.7086181640625
30.68994140625 72.4150390625 16.322509765625
-29.738037109375 -83.2874755859375 4.97216796875
-2.943603515625 56.766845703125 12.20458984375
38.710205078125 62.44677734375 10.513427734375
43.53759765625 48.3328857421875 -7.69580078125
-11.9443359375 -57.48681640625 -10.8887939453125
49.347900390625 -57.4964599609375 -24.4990234375
52.66796875 55.1383056640625 -13.5352783203125
44.206298828125 61.0369873046875 9.0499267578125
28.5107421875 63.4669189453125 11.252685546875
40.963623046875 -24.968505859375 2.564453125
-30.42529296875 -60.2738037109375 -6.0030517578125
6.772705078125 75.0279541015625 24.1324462890625
-19.78076171875 -41.0047607421875 -9.5784912109375
-2.448486328125 -22.1400146484375 3.5791015625
47.872802734375 -11.6795654296875 -26.1016845703125
14.218994140625 65.7894287109375 15.5538330078125
5.70068359375 62.1258544921875 12.0103759765625
15.625732421875 22.678466796875 3.279052734375
45.0341796875 30.82177734375 -15.8365478515625
51.171142578125 -74.68603515625 -23.0965576171875
-40.429931640625 -58.40087890625 -0.7301025390625
-31.0126953125 -53.197265625 -7.733154296875
-37.810791015625 -77.8740234375 5.43408203125
99.5224609375 -91.82666015625 -17.363037109375
37.111083984375 77.330078125 -2.3109130859375
-1.564208984375 39.214111328125 10.8218994140625
50.056640625 68.2987060546875 -5.9874267578125
50.798583984375 -107.53662109375 -26.4940185546875
14.4619140625 -8.79150390625 4.236572265625
83.25634765625 -27.146240234375 -7.572265625
53.8544921875 33.427490234375 -20.6607666015625
-7.854248046875 -41.9234619140625 -14.0701904296875
-46.19775390625 -35.47314453125 -1.83154296875
-31.4228515625 -52.0916748046875 -2.268798828125
46.7353515625 -4.4169921875 -24.328369140625
-3.291015625 76.80419921875 26.4927978515625
-22.546630859375 71.587890625 27.649658203125
51.75244140625 -95.0821533203125 -17.3746337890625
-63.947509765625 -36.25146484375 -0.5062255859375
-42.44189453125 -86.2255859375 -6.3314208984375
47.0703125 15.842529296875 3.743408203125
42.059326171875 79.5745849609375 22.44140625
26.822998046875 -55.6446533203125 7.452880859375
19.504150390625 -115.162109375 7.094482421875
-15.555419921875 43.3065185546875 2.5767822265625
-13.5322265625 -54.3861083984375 -8.6414794921875
42.628173828125 -97.861083984375 -22.6085205078125
9.8662109375 -20.6138916015625 4.1689453125
79.312255859375 -77.888427734375 0.49365234375
55.0576171875 -67.871337890625 -26.553955078125
28.256591796875 57.8643798828125 7.0059814453125
-14.81201171875 4.25146484375 5.604736328125
-15.814208984375 -55.2327880859375 -0.4041748046875
9.190673828125 69.759521484375 19.345703125
53.059326171875 26.5543212890625 -22.799560546875
79.57958984375 -51.25 -0.20654296875
-18.986083984375 -12.657958984375 5.3690185546875
54.269775390625 -103.2529296875 -28.003173828125
47.093994140625 99.9210205078125 17.8271484375
-53.873779296875 -83.5889892578125 1.4609375
34.830322265625 -43.284423828125 0.704833984375
54.765869140625 -88.0863037109375 -22.4031982421875
45.10009765625 33.2845458984375 -19.6553955078125
45.390380859375 6.8358154296875 -23.1358642578125
36.125732421875 104.1090087890625 25.849609375
-32.4873046875 -54.5362548828125 6.8905029296875
76.99951171875 -2.6241455078125 -4.136962890625
-68.173095703125 -8.7550048828125 -0.051025390625
84.812744140625 -92.9691162109375 11.942138671875
51.302978515625 62.8306884765625 -9.6395263671875
-57.512451171875 -95.3343505859375 -2.1927490234375
22.911865234375 -7.4595947265625 4.5155029296875
53.440673828125 45.3441162109375 -17.551513671875
65.974853515625 -96.277587890625 -22.216796875
31.900634765625 -45.85205078125 0.455810546875
-33.052490234375 -56.4229736328125 -1.5770263671875
42.64892578125 69.89892578125 -3.07275390625
16.5107421875 60.31494140625 9.639404296875
47.88037109375 29.6724853515625 -23.398193359375
-50.828857421875 -72.656982421875 5.1903076171875
37.654052734375 54.244873046875 3.718505859375
-37.3759765625 -83.404052734375 -7.113037109375
-3.38134765625 51.1485595703125 4.5093994140625
56.594970703125 -99.088623046875 -5.4478759765625
19.456787109375 -27.153076171875 1.02197265625
43.87841796875 -56.93017578125 -0.4654541015625
-12.929443359375 -45.46826171875 -10.46044921875
31.2568359375 77.4044189453125 7.649169921875
26.883544921875 -4.098388671875 4.9678955078125
40.066162109375 91.1829833984375 12.9818115234375
5.8037109375 55.8446044921875 5.8248291015625
-25.464111328125 -53.87744140625 3.8250732421875
-47.185546875 -76.7454833984375 5.7369384765625
-69.84619140625 5.6376953125 -2.136474609375
82.107421875 -20.007080078125 -7.2679443359375
-2.8505859375 7.2235107421875 3.68701171875
-41.957763671875 -27.2491455078125 -2.1126708984375
34.59033203125 95.4388427734375 16.77099609375
-1.342529296875 46.4195556640625 12.351318359375
-42.273193359375 -63.1212158203125 12.60791015625
31.3291015625 72.3251953125 9.4510498046875
16.34716796875 38.054931640625 3.15576171875
90.64208984375 -89.7911376953125 7.4910888671875
58.116943359375 -39.0836181640625 -20.72314453125
49.706298828125 -26.221923828125 -31.3572998046875
-54.642333984375 -74.332275390625 5.2083740234375
2.22119140625 21.4364013671875 3.4024658203125
-17.682373046875 20.205810546875 3.3023681640625
32.9658203125 62.433837890625 11.2049560546875
-25.957275390625 -52.4669189453125 -2.9959716796875
-49.265625 -18.765380859375 -0.43115234375
-5.337158203125 -14.765380859375 4.420166015625
-18.548095703125 -59.0455322265625 -3.6121826171875
36.7998046875 -26.7576904296875 1.7486572265625
-48.20263671875 -54.07958984375 0.141357421875
-55.267578125 -86.7032470703125 4.7786865234375
97.5 -104.3436279296875 -17.1220703125
44.985107421875 -2.3026123046875 3.334716796875
56.193359375 58.2149658203125 -14.7178955078125
54.34619140625 -76.81982421875 -16.201904296875
-5.103759765625 63.3458251953125 13.668701171875
46.480712890625 -26.78369140625 -1.242431640625
79.509033203125 -31.05224609375 -1.6300048828125
56.794677734375 -51.0032958984375 -28.23046875
32.3544921875 -0.33740234375 6.7037353515625
26.090576171875 -58.79638671875 1.2874755859375
29.228515625 73.8499755859375 20.6348876953125
60.540283203125 -96.8448486328125 -27.435791015625
80.31689453125 -34.712646484375 0.4039306640625
11.224853515625 31.2398681640625 3.0694580078125
-62.794677734375 -14.4798583984375 0.27587890625
63.363525390625 -97.4765625 1.286865234375
57.788330078125 -46.5830078125 -19.7625732421875
-18.945068359375 -55.7994384765625 8.3712158203125
47.724365234375 -107.6912841796875 -24.3349609375
-68.407958984375 -23.7509765625 -0.837890625
50.156494140625 -56.6656494140625 0.19091796875
-15.264892578125 -57.251953125 -13.1181640625
47.993896484375 44.899658203125 -16.927490234375
19.06591796875 3.0308837890625 3.8702392578125
-48.182861328125 -81.259521484375 -7.892578125
57.75146484375 -88.60595703125 -12.20458984375
-17.693115234375 -58.3499755859375 1.219482421875
-11.71240234375 -41.03564453125 -1.4345703125
56.150146484375 -110.5516357421875 2.2880859375
24.02294921875 21.0592041015625 3.343994140625
30.927490234375 99.2005615234375 25.347412109375
-2.5693359375 21.75390625 3.123291015625
83.3876953125 -46.0352783203125 -6.6346435546875
46.5087890625 36.4970703125 5.0260009765625
-45.169677734375 -96.192138671875 -3.6650390625
50.191650390625 -13.575439453125 5.3675537109375
-19.524169921875 -50.4466552734375 -2.12646484375
5.2587890625 37.9527587890625 3.1871337890625
46.22314453125 -95.941650390625 -24.2681884765625
35.691650390625 50.7982177734375 2.8526611328125
-75.97265625 21.3433837890625 -4.2457275390625
36.8515625 -18.37109375 4.9932861328125
42.205810546875 59.85693359375 -6.62353515625
-4.125732421875 79.5677490234375 29.239501953125
11.278076171875 52.8118896484375 3.5806884765625
14.589111328125 1.600830078125 4.2152099609375
54.39453125 -96.457763671875 -25.084716796875
41.920166015625 102.0894775390625 22.9456787109375
-14.58642578125 36.6767578125 3.505859375
86.422119140625 -46.7047119140625 -8.9156494140625
50.251220703125 -69.7080078125 -20.43701171875
90.40576171875 -99.1053466796875 -0.1829833984375
20.752685546875 -13.805419921875 4.7589111328125
10.82275390625 44.24072265625 2.609130859375
-17.3291015625 -3.4180908203125 4.604248046875
-40.95458984375 -92.343994140625 -9.2098388671875
-54.57275390625 -80.69775390625 -5.421875
46.693359375 -19.3975830078125 3.534423828125
-9.4140625 -14.248779296875 4.55322265625
57.70361328125 -81.15283203125 -14.0244140625
57.7724609375 -95.189208984375 -20.21923828125
46.15087890625 25.91064453125 -17.731201171875
38.8046875 -44.5621337890625 0.1295166015625
77.2646484375 3.6444091796875 -2.3016357421875
-0.18701171875 -34.9288330078125 -0.9110107421875
-42.32470703125 -78.48486328125 3.7294921875
-15.433837890625 79.4637451171875 29.623291015625
-18.24853515625 -40.7857666015625 -4.518798828125
49.0234375 72.09033203125 -2.9019775390625
52.49462890625 25.6153564453125 3.130859375
-58.772216796875 -37.909423828125 -1.56982421875
15.047607421875 67.2760009765625 12.1075439453125
80.232177734375 -100.0863037109375 -1.41064453125
85.488525390625 -17.4898681640625 16.0892333984375
37.5439453125 -53.3099365234375 -4.3375244140625
82.626953125 -14.49267578125 18.5718994140625
-47.83740234375 -96.9190673828125 -7.6436767578125
3.31005859375 -14.3306884765625 4.926513671875
56.571533203125 51.33203125 -19.0361328125
8.75244140625 6.1748046875 3.82958984375
42.965576171875 -103.32275390625 -13.6968994140625
-12.100830078125 -33.235107421875 -0.611083984375
19.8408203125 -5.5843505859375 4.4932861328125
-22.47900390625 75.075927734375 30.8739013671875
49.713134765625 41.4241943359375 -17.9154052734375
13.369140625 -31.040771484375 -0.5740966796875
34.727294921875 15.2320556640625 3.62353515625
-49.6396484375 -13.8416748046875 0.5069580078125
89.562744140625 -75.9422607421875 -2.365234375
3.570068359375 -21.2396240234375 3.59423828125
-59.43408203125 -13.9837646484375 1.408935546875
6.444580078125 -33.49462890625 -0.5982666015625
31.510498046875 9.476806640625 3.81201171875
12.91064453125 26.0928955078125 22.4671630859375
23.45068359375 -18.9827880859375 4.7777099609375
-19.104248046875 27.7686767578125 3.482177734375
39.30126953125 15.710693359375 3.6265869140625
6.456787109375 65.2479248046875 14.86572265625
-13.4814453125 18.3875732421875 3.249755859375
79.1181640625 -23.00830078125 -3.4569091796875
-14.832275390625 -56.0343017578125 -3.7481689453125
47.829345703125 -94.5113525390625 1.6556396484375
50.844970703125 -53.2305908203125 -22.303955078125
-55.56494140625 -95.2486572265625 4.2359619140625
-14.10888671875 -61.3873291015625 -4.21875
82.704345703125 -77.57177734375 -5.2904052734375
27.463623046875 4.35009765625 4.581787109375
51.8681640625 -61.56005859375 -27.291259765625
62.542236328125 -64.3885498046875 0.9959716796875
42.689453125 -109.6009521484375 -13.4222412109375
38.040771484375 -36.404296875 0.004638671875
83.563720703125 -39.4677734375 -7.337890625
54.273681640625 -77.851806640625 -26.5767822265625
-64.4462890625 -25.681396484375 -1.658447265625
-38.3271484375 -74.3800048828125 5.3134765625
45.339111328125 -96.6583251953125 -13.923095703125
20.352783203125 15.1104736328125 3.7073974609375
43.314453125 58.1094970703125 6.48095703125
29.19482421875 85.2579345703125 9.97607421875
58.14013671875 -97.376953125 -0.260986328125
-4.599365234375 57.9217529296875 8.7462158203125
6.003173828125 77.5023193359375 26.5167236328125
-15.056640625 73.161376953125 27.360107421875
41.96484375 18.0150146484375 3.295654296875
30.531005859375 -10.3775634765625 4.3883056640625
19.353759765625 57.549560546875 6.86865234375
31.421630859375 -35.90625 -0.8648681640625
15.35888671875 31.843017578125 3.0111083984375
39.0849609375 65.7052001953125 1.0374755859375
-4.61181640625 -26.1939697265625 1.630859375
47.14892578125 93.5767822265625 11.8817138671875
46.414794921875 -35.4661865234375 -1.1373291015625
39.397705078125 -13.6951904296875 3.797119140625
47.097412109375 57.8392333984375 6.047607421875
83.339111328125 -97.8104248046875 1.979248046875
43.22021484375 47.6387939453125 -11.11572265625
-18.49462890625 -45.5694580078125 -12.5068359375
37.43701171875 -1.8001708984375 4.3812255859375
14.695556640625 -113.0501708984375 1.00439453125
50.312255859375 91.9952392578125 1.2386474609375
-48.59228515625 -31.5123291015625 -1.1787109375
26.957275390625 -30.8826904296875 -0.2589111328125
51.690673828125 -74.7740478515625 -17.7672119140625
21.656494140625 75.1783447265625 11.814453125
13.540771484375 8.2838134765625 3.747802734375
54.64208984375 -61.072509765625 -19.39599609375
49.13623046875 -28.2493896484375 -24.6136474609375
85.51416015625 -66.469482421875 -4.296142578125
-13.051025390625 30.8966064453125 4.82080078125
23.577392578125 -108.0712890625 0.416748046875
31.706787109375 31.364013671875 5.9091796875
18.335693359375 28.330078125 3.343505859375
30.75927734375 77.051025390625 22.6112060546875
-7.681884765625 40.2945556640625 2.238525390625
49.325927734375 -9.0733642578125 4.8717041015625
63.715087890625 -97.6494140625 -19.765625
51.70361328125 57.706787109375 -10.49951171875
22.934326171875 -26.02294921875 1.4847412109375
51.466552734375 18.32763671875 3.7928466796875
-58.714599609375 -24.390869140625 -1.323486328125
29.028076171875 -53.130859375 -2.6761474609375
-5.457275390625 44.4345703125 5.52099609375
54.53515625 -100.48779296875 -0.253173828125
-0.924072265625 -39.5927734375 -0.713134765625
98.947021484375 -100.232421875 -17.586669921875
2.57763671875 57.708984375 7.781005859375
44.955810546875 94.3165283203125 2.87060546875
48.6455078125 -100.6578369140625 -4.303466796875
-18.427978515625 -28.352294921875 0.46435546875
71.8544921875 25.6287841796875 12.22119140625
-0.0625 74.4556884765625 23.7918701171875
43.291259765625 28.08642578125 3.52587890625
-17.470947265625 1.1732177734375 7.5677490234375
29.779541015625 101.8702392578125 27.1534423828125
41.853759765625 -6.74365234375 4.72412109375
15.654541015625 -17.3753662109375 5.123291015625
-3.78466796875 69.1795654296875 19.170166015625
-15.36328125 -21.891845703125 3.5340576171875
12.399658203125 -23.3687744140625 2.9078369140625
-2.2578125 28.7750244140625 2.932861328125
46.6171875 -49.5316162109375 0.108642578125
84.85546875 -64.62158203125 -8.6146240234375
-65.89013671875 -15.755126953125 -0.3045654296875
55.7177734375 64.5423583984375 -10.090576171875
28.9501953125 42.5635986328125 3.2244873046875
-43.776123046875 -70.42236328125 5.19091796875
44.2978515625 -45.640625 -0.1871337890625
-18.1748046875 -18.4334716796875 4.5224609375
38.49169921875 91.0592041015625 2.000244140625
44.17578125 -100.4898681640625 -9.680419921875
36.626953125 74.1988525390625 0.682861328125
85.9228515625 -84.8828125 0.8165283203125
41.22119140625 85.9849853515625 -3.8057861328125
-12.2939453125 42.4522705078125 2.5423583984375
43.687255859375 -27.3226318359375 1.2557373046875
7.72509765625 -11.2392578125 5.181396484375
1.36767578125 -43.1412353515625 -1.196044921875
39.042236328125 -8.8697509765625 4.5489501953125
18.30712890625 -115.6324462890625 1.69775390625
44.5322265625 -40.7567138671875 0.3985595703125
87.686279296875 -70.1959228515625 -6.3377685546875
46.67578125 33.36279296875 6.21240234375
31.0498046875 85.5443115234375 13.1734619140625
16.908447265625 70.49755859375 16.47265625
-13.625244140625 -1.29296875 5.4305419921875
44.85693359375 14.6859130859375 -23.376708984375
17.59326171875 34.947265625 3.078125
-9.9736328125 -7.5855712890625 3.786376953125
78.67578125 -15.5489501953125 -5.3355712890625
31.744140625 28.615234375 2.884521484375
23.8701171875 72.879150390625 16.3575439453125
49.512451171875 -34.1134033203125 -3.4427490234375
-15.443115234375 -42.8126220703125 -4.5452880859375
59.694091796875 -74.166015625 -13.335693359375
12.958984375 72.194580078125 21.140869140625
43.060546875 49.386474609375 1.8089599609375
5.4130859375 42.787353515625 2.771728515625
30.504150390625 22.5126953125 3.5489501953125
-2.18115234375 -58.9942626953125 -13.510986328125
-30.119384765625 -57.6365966796875 -8.00927734375
-3.19873046875 41.6197509765625 9.206298828125
47.54443359375 19.1910400390625 -18.797607421875
25.46875 73.9993896484375 21.3426513671875
54.594970703125 -66.76904296875 -18.542236328125
32.984130859375 90.3499755859375 7.9742431640625
-17.20751953125 -57.6805419921875 5.3836669921875
-35.485107421875 -62.4815673828125 -0.4908447265625
12.312255859375 -109.001953125 3.1396484375
-40.85546875 -64.1649169921875 6.7384033203125
55.285888671875 -103.832763671875 -0.193115234375
29.793212890625 73.0860595703125 13.2108154296875
43.551025390625 -12.8338623046875 4.5289306640625
46.532470703125 1.3387451171875 -28.4361572265625
-50.45849609375 -119.0267333984375 6.771484375
83.02685546875 -10.457275390625 3.361083984375
43.653564453125 91.2681884765625 0.146728515625
51.88427734375 -86.349853515625 -15.3345947265625
81.122314453125 -80.382568359375 1.6478271484375
6.525390625 14.5189208984375 3.7774658203125
9.738037109375 36.3438720703125 2.71826171875
44.10986328125 84.5816650390625 -6.5423583984375
61.7138671875 -53.684814453125 -27.8009033203125
27.301513671875 -52.6915283203125 2.9443359375
50.565185546875 -97.6844482421875 -3.04833984375
-40.535400390625 -89.972412109375 -5.4671630859375
-45.244384765625 -78.2017822265625 -3.667724609375
-28.7978515625 -49.1641845703125 6.9439697265625
-45.111328125 -53.56298828125 -0.823486328125
41.33349609375 11.5439453125 3.7818603515625
-9.64990234375 -38.81201171875 -9.1204833984375
46.53564453125 12.636474609375 4.1182861328125
53.392822265625 -83.68896484375 -23.06884765625
50.296630859375 -46.627685546875 -23.7828369140625
27.962158203125 -38.5819091796875 0.0618896484375
-26.093017578125 -38.9959716796875 -1.7130126953125
87.34716796875 -94.85595703125 8.631103515625
-1.563720703125 61.4588623046875 11.5372314453125
38.359130859375 5.5650634765625 4.09619140625
50.48095703125 64.9583740234375 -5.25537109375
-10.41455078125 -2.2923583984375 6.681396484375
40.937255859375 102.7200927734375 26.503173828125
86.021728515625 -54.094970703125 -8.9337158203125
45.942626953125 -22.20361328125 0.9117431640625
27.8388671875 12.3375244140625 4.0687255859375
83.7373046875 -52.831298828125 -6.2130126953125
78.259521484375 -15.193359375 0.550537109375
22.1640625 39.9443359375 2.7003173828125
-18.464599609375 31.9462890625 5.88818359375
46.546630859375 52.290771484375 2.9097900390625
55.646484375 -98.0750732421875 -11.0889892578125
21.794677734375 1.2548828125 4.202880859375
90.56201171875 -88.5479736328125 -0.5885009765625
86.6318359375 -83.669189453125 -3.55517578125
40.744384765625 21.693603515625 3.5091552734375
32.974365234375 58.3564453125 7.20361328125
32.972412109375 90.1524658203125 20.361328125
12.791015625 48.790283203125 2.2398681640625
51.66455078125 -112.801025390625 -27.7264404296875
-55.83203125 -85.3822021484375 -8.282470703125
30.05078125 56.06494140625 5.0445556640625
32.759521484375 87.6153564453125 4.517578125
47.89599609375 -2.072509765625 4.825439453125
34.7255859375 80.2666015625 20.008544921875
44.229248046875 55.7447509765625 4.4090576171875
27.824462890625 -112.5499267578125 0.7196044921875
18.64892578125 -108.4830322265625 1.9232177734375
1.619384765625 72.3590087890625 21.9619140625
31.20166015625 -53.21435546875 -7.0406494140625
29.680908203125 82.8321533203125 15.783447265625
-28.757568359375 -51.8616943359375 3.496826171875
40.69091796875 -54.273193359375 -0.318115234375
41.948486328125 107.1624755859375 26.958984375
61.679443359375 -99.7940673828125 -6.715576171875
-15.984619140625 35.7767333984375 9.735595703125
-58.279052734375 -93.393798828125 -7.7696533203125
-65.10986328125 -28.8148193359375 -2.196044921875
28.27783203125 77.35009765625 19.5101318359375
26.546630859375 73.30859375 14.671142578125
-6.807861328125 70.6143798828125 20.6219482421875
50.9599609375 -31.3875732421875 -4.438720703125
31.975830078125 100.0135498046875 22.4273681640625
12.647216796875 15.0914306640625 3.8419189453125
102.054443359375 -90.5560302734375 -14.968505859375
-1.478759765625 43.2978515625 12.95068359375
-15.83984375 -26.07373046875 1.119384765625
83.5927734375 -11.16162109375 14.764404296875
39.06396484375 100.3011474609375 21.7451171875
54.2998046875 29.4368896484375 -23.26513671875
-51.701416015625 -21.9969482421875 -0.673828125
47.537353515625 19.7166748046875 -26.6298828125
74.44140625 17.4111328125 9.2039794921875
80.229248046875 -27.0118408203125 -5.418701171875
56.415771484375 40.042724609375 -23.273681640625
-11.416015625 76.575439453125 26.6109619140625
-19.97998046875 80.3116455078125 30.4344482421875
19.45654296875 -105.2799072265625 2.6082763671875
17.35986328125 48.6763916015625 2.8104248046875
-17.598388671875 -32.539306640625 -1.2342529296875
93.55126953125 -102.7906494140625 -13.852783203125
1.519287109375 -0.8895263671875 4.046630859375
46.21337890625 43.679931640625 2.330810546875
15.901123046875 -106.9903564453125 5.2342529296875
19.1572265625 65.4864501953125 10.5731201171875
21.7138671875 55.4744873046875 5.2193603515625
94.25048828125 -98.7435302734375 -14.67333984375
82.4462890625 -52.5208740234375 -0.5301513671875
-1.5400390625 52.80615234375 18.4771728515625
100.783447265625 -97.8978271484375 -18.634033203125
27.4580078125 67.430419921875 8.8079833984375
-61.55322265625 -10.6343994140625 0.310791015625
-24.642333984375 70.4044189453125 22.90771484375
31.347412109375 94.4571533203125 21.1953125
46.294921875 -8.2479248046875 4.887939453125
51.589111328125 -97.0684814453125 -13.496826171875
31.029052734375 -49.316162109375 2.6856689453125
48.043701171875 28.9620361328125 2.213623046875
26.54052734375 -17.576416015625 5.0655517578125
24.5869140625 -62.187744140625 1.2119140625
-54.1337890625 -81.1453857421875 -1.41796875
22.60791015625 72.8924560546875 9.8966064453125
30.026123046875 78.951416015625 11.1666259765625
47.737060546875 90.0064697265625 -1.1077880859375
-61.017333984375 -35.702880859375 -1.4366455078125
43.357177734375 67.268310546875 -5.2591552734375
89.881103515625 -92.6490478515625 8.4642333984375
88.165771484375 -87.5084228515625 1.6219482421875
48.856689453125 -42.8555908203125 -27.9476318359375
-15.15966796875 22.2777099609375 3.05224609375
53.644287109375 -99.3065185546875 -6.410400390625
48.99462890625 95.9642333984375 13.489501953125
12.805908203125 -5.133544921875 4.1302490234375
11.64990234375 -101.67578125 2.8192138671875
-48.7958984375 -77.80615234375 3.3067626953125
-58.410888671875 -19.6275634765625 -0.9114990234375
73.1298828125 14.42236328125 1.370361328125
55.785888671875 -57.8739013671875 -19.4986572265625
-14.31884765625 26.3531494140625 2.9129638671875
-7.027099609375 26.7991943359375 2.9007568359375
26.47607421875 -64.251220703125 -5.9984130859375
-8.96142578125 5.036865234375 3.4068603515625
14.644775390625 -112.041015625 4.173583984375
88.06591796875 -91.3875732421875 6.059326171875
43.5283203125 96.4002685546875 16.1260986328125
35.826904296875 -29.403564453125 0.514892578125
-12.594970703125 14.36083984375 3.4493408203125
-0.176513671875 64.6495361328125 14.72216796875
-5.01513671875 -28.9173583984375 0.2646484375
25.767578125 72.577392578125 8.84130859375
54.272216796875 -70.825439453125 -26.2586669921875
52.704833984375 -106.711181640625 -2.306884765625
42.8173828125 52.987060546875 3.429931640625
7.7568359375 -4.6207275390625 3.8353271484375
-53.782470703125 -89.7320556640625 2.1851806640625
-15.6787109375 -14.864013671875 4.29638671875
-2.614013671875 0.6268310546875 3.780029296875
-1.55322265625 43.76025390625 2.704833984375
83.052734375 -57.632568359375 -0.800537109375
33.69873046875 71.9976806640625 3.01806640625
45.044921875 -109.548095703125 -24.266845703125
-14.462890625 -38.6192626953125 0.067138671875
52.120361328125 -43.7890625 -22.5960693359375
46.016357421875 27.267822265625 -23.629150390625
29.3046875 -19.3037109375 4.9031982421875
-44.233642578125 -79.159423828125 -7.88037109375
85.048583984375 -76.606201171875 -1.9268798828125
27.060302734375 20.2564697265625 3.442138671875
48.49951171875 38.484619140625 -20.203857421875
7.867431640625 44.9654541015625 2.4617919921875
8.293701171875 -17.70361328125 4.9840087890625
39.87890625 45.7276611328125 3.0821533203125
-4.598876953125 -33.1761474609375 -0.777099609375
-69.614013671875 -19.8203125 -0.951171875
-17.01806640625 71.3114013671875 21.7855224609375
48.010498046875 22.588623046875 3.4515380859375
34.048828125 -1.216552734375 4.140380859375
29.677490234375 47.295166015625 2.6693115234375
81.83251953125 -47.1202392578125 -2.830322265625
79.4140625 -7.1700439453125 2.4952392578125
54.022705078125 39.797119140625 -19.339111328125
24.337646484375 18.067138671875 3.706298828125
21.17138671875 -113.6029052734375 0.7760009765625
57.994140625 -65.9427490234375 -16.828857421875
11.02734375 28.4488525390625 21.580810546875
78.400146484375 -9.4237060546875 -0.2501220703125
25.5498046875 -23.3544921875 3.0799560546875
45.133056640625 -114.2330322265625 -20.0316162109375
-42.057373046875 -93.8193359375 -6.5616455078125
53.87255859375 -94.8642578125 1.007568359375
57.928955078125 -53.2918701171875 -18.9676513671875
55.642822265625 -43.86767578125 -21.4493408203125
-24.541748046875 73.4263916015625 24.83251953125
35.114990234375 -4.030029296875 3.949951171875
42.058837890625 93.1802978515625 7.515380859375
63.81982421875 -97.152099609375 -3.2587890625
7.85400390625 57.59423828125 7.4990234375
-3.614013671875 46.5980224609375 14.6787109375
8.6484375 60.0150146484375 9.8892822265625
-43.879638671875 -25.0972900390625 -1.2757568359375
13.400146484375 61.4949951171875 10.7646484375
-51.77783203125 -91.1151123046875 -6.247802734375
49.578369140625 -97.1328125 -17.6104736328125
39.98974609375 60.93359375 -3.07080078125
87.204833984375 -76.22216796875 0.223876953125
18.124267578125 -12.009033203125 4.48046875
24.704833984375 37.0419921875 3.288330078125
-1.564208984375 52.7738037109375 12.6795654296875
94.86474609375 -105.18896484375 -15.7115478515625
43.227294921875 -16.472900390625 5.49560546875
-8.428955078125 -0.3907470703125 3.76416015625
-46.6474609375 -68.1336669921875 6.4559326171875
-9.177978515625 24.6151123046875 2.9141845703125
60.77392578125 -97.1888427734375 -19.536865234375
50.52783203125 -76.9185791015625 -20.6025390625
-61.3671875 12.417724609375 -4.0626220703125
-51.011474609375 -38.1005859375 -1.5721435546875
79.147705078125 -9.0338134765625 -7.3580322265625
15.499267578125 5.6087646484375 3.622802734375
42.574462890625 -109.649169921875 -20.2733154296875
-49.322509765625 -78.197021484375 -6.014404296875
10.662353515625 -11.697509765625 5.299560546875
29.323486328125 -1.65966796875 5.9720458984375
10.078369140625 -0.232666015625 4.4866943359375
35.16552734375 79.32861328125 -1.2889404296875
57.24755859375 37.272705078125 -24.1717529296875
34.5205078125 4.9896240234375 3.516845703125
-2.1435546875 -27.6993408203125 0.9652099609375
38.07958984375 96.7664794921875 17.3660888671875
4.115966796875 -24.126220703125 2.716064453125
53.244140625 -59.416259765625 0.453857421875
-34.880126953125 -76.5140380859375 5.2811279296875
-17.179931640625 39.748046875 6.686279296875
35.151611328125 89.0491943359375 10.7215576171875
33.775146484375 11.3787841796875 3.7259521484375
-16.322998046875 67.65625 18.083984375
78.104248046875 -2.287109375 1.40576171875
10.5908203125 74.78076171875 23.57666015625
6.548095703125 31.2589111328125 3.322265625
-78.9716796875 21.749267578125 -4.7763671875
-6.64501953125 -56.9781494140625 -9.45703125
-54.1318359375 -79.564208984375 3.389892578125
38.041015625 57.692626953125 6.5294189453125
29.44921875 -28.4276123046875 0.7596435546875
57.43310546875 -84.023681640625 -13.42919921875
-30.874267578125 -80.4569091796875 4.9620361328125
-38.275390625 -56.0316162109375 0.171630859375
84.68310546875 -84.8125 3.9998779296875
42.549072265625 -110.619140625 -7.81298828125
0.373046875 -11.0419921875 4.993896484375
38.907958984375 1.21826171875 3.4881591796875
24.181884765625 30.0814208984375 3.3087158203125
-18.8232421875 -21.2437744140625 3.9764404296875
50.4189453125 -90.91357421875 1.733154296875
67.2666015625 -95.0406494140625 -19.89013671875
5.134033203125 -30.044677734375 -0.06298828125
-2.091796875 11.0687255859375 3.4722900390625
49.135009765625 69.1387939453125 -3.1728515625
-49.251953125 -48.0447998046875 -1.076171875
79.079833984375 -28.3045654296875 -3.0579833984375
92.0458984375 -94.237060546875 1.6856689453125
4.767822265625 28.9486083984375 3.0938720703125
-8.650146484375 -59.3101806640625 -9.7535400390625
8.939208984375 32.34423828125 20.2235107421875
-19.375 25.2498779296875 4.9329833984375
-29.3046875 -53.16162109375 -3.9676513671875
53.166015625 -96.98193359375 -4.308349609375
11.490234375 28.3572998046875 3.4215087890625
53.21875 47.169677734375 -14.2271728515625
36.618408203125 37.5784912109375 2.95947265625
-53.731201171875 -84.291015625 5.3236083984375
-20.107421875 71.17626953125 21.718017578125
50.2177734375 -67.902587890625 -23.784423828125
33.693359375 -70.8526611328125 -0.361083984375
43.456298828125 59.1827392578125 0.7161865234375
13.897216796875 46.126953125 2.5836181640625
26.765869140625 50.0458984375 2.8077392578125
48.4619140625 -33.3758544921875 -26.509033203125
69.031982421875 -96.7650146484375 4.7393798828125
26.77294921875 32.048583984375 3.898681640625
11.902099609375 -17.0316162109375 5.06396484375
52.889404296875 -110.1983642578125 -27.3717041015625
-10.625732421875 19.4205322265625 3.0899658203125
29.253173828125 80.44287109375 17.590087890625
-14.43017578125 33.3768310546875 4.2388916015625
-57.2744140625 -86.9722900390625 -1.1824951171875
-26.740478515625 -50.659912109375 5.1912841796875
-50.211669921875 -27.3360595703125 -2.339111328125
-70.375 26.6058349609375 -4.424072265625
31.855712890625 -52.682373046875 -3.6744384765625
81.557861328125 -42.3046875 -2.42236328125
-17.63330078125 45.170166015625 3.3145751953125
-67.674560546875 -0.927734375 -1.5697021484375
-12.257568359375 -27.753173828125 0.635009765625
54.74169921875 22.2945556640625 -26.2847900390625
13.491943359375 -102.2965087890625 0.1669921875
50.568359375 -40.142822265625 -30.7442626953125
41.11279296875 63.0113525390625 2.2218017578125
-15.643798828125 11.1251220703125 5.1549072265625
4.90478515625 51.4122314453125 3.21630859375
42.537353515625 54.5260009765625 -9.7635498046875
76.975341796875 -98.9481201171875 0.3658447265625
25.528564453125 14.84765625 3.5687255859375
9.6328125 -98.9510498046875 1.93505859375
-38.698486328125 -71.5357666015625 5.243896484375
57.312744140625 43.4073486328125 -21.983154296875
16.556640625 67.5098876953125 15.6046142578125
77.939697265625 -12.198486328125 -5.2955322265625
47.60546875 33.0682373046875 -22.1904296875
-59.7255859375 -40.600830078125 -1.8099365234375
35.32666015625 102.4671630859375 23.5169677734375
11.83349609375 -93.3905029296875 -0.021240234375
-52.6396484375 -44.65234375 0.3343505859375
-58.072265625 -92.6290283203125 -1.4439697265625
-19.4365234375 -42.38525390625 -2.4652099609375
-4.33984375 37.046630859375 2.902587890625
-70.037841796875 0.760009765625 -1.612548828125
39.414306640625 -21.2442626953125 4.0867919921875
33.318115234375 88.6590576171875 17.7401123046875
-2.14404296875 57.408203125 19.3287353515625
-10.745361328125 -38.949951171875 -3.1209716796875
-52.982666015625 -86.329345703125 2.81494140625
-9.580078125 29.699951171875 2.6270751953125
49.74072265625 -53.149169921875 -28.275390625
-17.32080078125 -53.496337890625 1.270263671875
15.82568359375 19.025634765625 3.0712890625
33.292236328125 -56.4921875 -8.288818359375
-8.077880859375 33.3748779296875 2.8271484375
25.974853515625 -109.59326171875 0.5142822265625
37.040771484375 93.2474365234375 6.3377685546875
-55.554443359375 -26.4376220703125 -1.806396484375
50.32373046875 -98.088623046875 -8.9921875
18.025634765625 21.180419921875 3.482666015625
-17.455078125 33.6995849609375 3.0400390625
47.7607421875 -58.1697998046875 0.3665771484375
-1.390869140625 53.0916748046875 3.9718017578125
89.01708984375 -70.7066650390625 -0.4384765625
32.427001953125 53.5606689453125 3.2940673828125
48.2802734375 -97.4306640625 -4.7017822265625
35.859619140625 84.1839599609375 19.583740234375
34.65966796875 64.3428955078125 9.9801025390625
45.718505859375 2.052978515625 -23.5543212890625
-63.80908203125 8.2623291015625 -2.2857666015625
-3.9755859375 81.8150634765625 31.20166015625
13.79052734375 64.0030517578125 13.4007568359375
7.69482421875 18.5584716796875 3.806884765625
36.023681640625 86.6160888671875 21.224609375
18.656005859375 45.19091796875 2.720703125
-13.62939453125 9.8658447265625 3.4664306640625
34.9423828125 91.5723876953125 13.9490966796875
44.54150390625 -111.6868896484375 -21.094970703125
77.50048828125 -98.0599365234375 3.4268798828125
41.83935546875 -38.6865234375 -0.2679443359375
-7.646484375 -36.5101318359375 -0.7830810546875
84.821533203125 -81.9390869140625 0.59912109375
21.2197265625 34.8646240234375 3.1256103515625
-21.642578125 75.929443359375 26.6612548828125
50.236083984375 -40.751953125 -24.10986328125
52.598388671875 -47.7735595703125 -29.7652587890625
6.10302734375 -7.2762451171875 4.1488037109375
39.431640625 48.7752685546875 2.2393798828125
58.510009765625 -98.824951171875 -20.799072265625
46.32080078125 1.640869140625 4.3887939453125
80.089111328125 -33.60009765625 -2.6619873046875
55.010498046875 -49.0146484375 -20.8515625
74.79052734375 15.4945068359375 3.757568359375
38.759765625 98.4615478515625 19.6468505859375
85.78466796875 -88.761962890625 10.1119384765625
53.010986328125 14.8056640625 -27.083984375
16.8466796875 65.38525390625 13.805419921875
-44.5595703125 -74.6815185546875 5.4759521484375
45.08642578125 106.5250244140625 26.3228759765625
-10.160888671875 -45.3641357421875 -2.8057861328125
55.836669921875 -93.2293701171875 -20.922119140625
-1.415283203125 44.7608642578125 6.403564453125
30.20068359375 85.9979248046875 7.470703125
-2.44677734375 -6.4688720703125 3.803955078125
55.142333984375 -99.667724609375 -28.213623046875
44.80810546875 -5.9593505859375 4.352783203125
48.6201171875 -18.1201171875 -24.1339111328125
19.366455078125 70.59521484375 14.67333984375
-9.5068359375 -25.2396240234375 1.853515625
60.300048828125 -100.40625 -9.0494384765625
50.050537109375 61.90478515625 -6.2569580078125
-54.439697265625 -30.349853515625 -1.8056640625
-8.78662109375 -20.5694580078125 3.9876708984375
-16.958740234375 -7.13525390625 4.1033935546875
-15.223388671875 -50.130126953125 -10.641357421875
-53.983154296875 -95.8328857421875 -7.7786865234375
-0.218994140625 46.3604736328125 2.29736328125
-45.50927734375 -93.1829833984375 -5.136474609375
52.0322265625 -96.7725830078125 -23.6517333984375
27.50927734375 -58.85986328125 -3.478759765625
89.954345703125 -91.22607421875 10.840576171875
5.190185546875 23.35986328125 3.3203125
43.137939453125 -101.6624755859375 -18.118408203125
-18.8369140625 -44.280517578125 -8.8477783203125
57.147216796875 -96.4583740234375 -24.822998046875
-18.167724609375 74.2020263671875 27.326416015625
22.183837890625 -37.2230224609375 0.1217041015625
24.6513671875 45.189208984375 2.6375732421875
-56.6669921875 -99.9921875 0.9666748046875
-40.331298828125 -83.527099609375 -9.73876953125
-72.716552734375 6.5382080078125 -2.95556640625
70.43212890625 -96.1151123046875 -3.630859375
-57.153076171875 -82.7281494140625 -5.150390625
24.3154296875 51.2926025390625 3.0269775390625
50.906005859375 34.6263427734375 -20.943115234375
32.042236328125 98.2286376953125 29.8800048828125
9.91796875 -93.5885009765625 1.9864501953125
-11.9609375 -15.34130859375 4.4683837890625
-57.753173828125 -87.9984130859375 -5.2967529296875
-16.580078125 16.646484375 3.2166748046875
46.324462890625 -103.122314453125 -6.2384033203125
50.025634765625 -100.8934326171875 -26.10693359375
21.544921875 60.0054931640625 9.1219482421875
71.753662109375 -98.0704345703125 1.1175537109375
2.656494140625 59.64404296875 9.7354736328125
-54.789794921875 -92.4244384765625 3.8603515625
43.029052734375 -96.9031982421875 -15.60546875
-44.147216796875 -60.3363037109375 5.9390869140625
-1.6171875 41.4615478515625 14.99072265625
40.606201171875 70.6959228515625 -0.397216796875
79.77001953125 -27.9757080078125 1.39306640625
52.951904296875 -98.556640625 -1.39892578125
24.10986328125 48.43408203125 2.65869140625
53.696533203125 -84.2366943359375 -14.7449951171875
4.822021484375 8.38916015625 3.7626953125
-53.77587890625 -14.0299072265625 0.7532958984375
-32.607666015625 -56.879638671875 1.4794921875
52.673583984375 54.4107666015625 -10.8834228515625
50.92919921875 49.0384521484375 -13.2430419921875
-14.325439453125 77.546142578125 28.0098876953125
-1.0546875 -16.4844970703125 4.75439453125
-10.604736328125 36.21240234375 2.55615234375
50.4052734375 -56.170166015625 -22.350341796875
51.64892578125 -63.544677734375 -20.089111328125
44.26904296875 39.157470703125 -17.0628662109375
54.140625 -98.76904296875 1.8358154296875
-1.46435546875 48.5860595703125 3.576416015625
29.94970703125 -44.0528564453125 1.097412109375
4.71923828125 69.6485595703125 19.09130859375
69.019775390625 -96.6947021484375 1.5113525390625
34.89404296875 20.7008056640625 3.748046875
-5.35498046875 65.4161376953125 15.419677734375
53.92578125 -46.6270751953125 -21.582763671875
-17.358154296875 4.376220703125 4.6536865234375
-17.077880859375 -54.4788818359375 6.1390380859375
-1.051025390625 40.9754638671875 2.751953125
-50.50439453125 -116.0347900390625 6.3768310546875
32.2109375 -12.81689453125 5.041748046875
-8.364013671875 8.8265380859375 3.55224609375
34.621826171875 -36.1754150390625 -0.2357177734375
10.2373046875 -96.275146484375 -0.0849609375
39.581787109375 32.6956787109375 3.5164794921875
31.56884765625 41.764892578125 2.64892578125
-44.403076171875 -79.3983154296875 -0.8714599609375
38.350830078125 94.2559814453125 4.0142822265625
-9.705078125 80.33154296875 29.9793701171875
90.80126953125 -95.8038330078125 -0.17919921875
46.1259765625 13.755859375 -26.6224365234375
-20.714599609375 -40.37255859375 -0.6837158203125
79.0869140625 -22.2828369140625 -0.853759765625
-42.515869140625 -98.7554931640625 -8.0802001953125
-9.169189453125 82.4974365234375 31.7098388671875
98.2958984375 -103.523681640625 -20.4688720703125
-64.12255859375 -20.2052001953125 -0.7733154296875
32.271728515625 75.72314453125 4.8897705078125
-75.43505859375 23.9847412109375 -4.2236328125
31.738525390625 81.8568115234375 17.2249755859375
44.656494140625 57.7117919921875 -9.7515869140625
46.009033203125 32.003662109375 3.861328125
-41.960693359375 -60.8409423828125 0.1297607421875
0.407958984375 5.67919921875 3.9503173828125
32.2421875 -31.521728515625 -0.042236328125
-15.71728515625 22.0701904296875 5.8575439453125
97.225830078125 -100.9132080078125 -19.5419921875
-1.449462890625 68.2432861328125 18.2191162109375
-17.983642578125 -4.359619140625 8.302001953125
42.915771484375 -106.89794921875 -16.171630859375
78.946533203125 -36.9349365234375 1.044677734375
49.151123046875 36.0238037109375 4.8885498046875
88.484619140625 -98.7451171875 1.6619873046875
85.420166015625 -64.983642578125 -2.058837890625
27.103515625 34.9339599609375 4.3306884765625
48.112548828125 -54.9593505859375 -0.1654052734375
40.617431640625 -51.335205078125 0.4228515625
-45.361328125 -37.999755859375 -1.4912109375
47.914794921875 72.5933837890625 -0.2261962890625
32.548095703125 98.9456787109375 19.5460205078125
46.599609375 65.8924560546875 -5.651611328125
63.4609375 -96.847900390625 -22.939697265625
-8.215576171875 15.065673828125 3.6348876953125
-42.599609375 -62.1673583984375 8.1806640625
65.8076171875 -97.6151123046875 -4.990234375
1.183837890625 81.1729736328125 30.6239013671875
-42.952392578125 -29.7896728515625 -1.4666748046875
38.529296875 86.6160888671875 -1.5235595703125
