85.69873046875 -45.4105224609375 0.8040771484375
54.223876953125 -7.6290283203125 -25.1275634765625
49.528076171875 46.6085205078125 1.74267578125
20.349853515625 13.6468505859375 9.394287109375
94.7744140625 -86.0872802734375 5.575927734375
38.904541015625 83.0772705078125 26.193359375
54.00927734375 -80.0289306640625 -14.2490234375
87.209716796875 -61.711181640625 0.822509765625
-55.16748046875 -93.2169189453125 4.71875
-32.0576171875 -65.21337890625 9.4154052734375
-39.97265625 -96.1578369140625 -1.355224609375
-13.987548828125 67.5904541015625 29.8736572265625
-39.293212890625 -63.261962890625 9.0965576171875
-1.41650390625 -32.0426025390625 7.613525390625
-34.785888671875 -87.799560546875 9.673828125
-3.455810546875 9.43798828125 9.2239990234375
53.163818359375 -49.0606689453125 -23.7193603515625
56.47998046875 50.386962890625 -5.0274658203125
-18.515625 61.81689453125 24.4244384765625
46.755615234375 -105.732177734375 -7.48291015625
2.984375 46.053466796875 14.6636962890625
-55.22607421875 -34.2125244140625 4.2515869140625
54.653076171875 -69.350341796875 6.4501953125
-49.899169921875 -33.3203125 3.8150634765625
46.18017578125 89.3302001953125 23.769287109375
46.332763671875 86.0404052734375 13.3531494140625
63.626220703125 -108.0289306640625 -2.03857421875
34.76220703125 78.10791015625 19.6488037109375
-20.3505859375 -48.11572265625 5.6300048828125
54.06591796875 -100.7921142578125 7.053955078125
0.369384765625 39.261474609375 9.27587890625
55.544189453125 -98.454833984375 -13.3658447265625
-6.1455078125 25.46826171875 11.035400390625
88.404052734375 -37.942626953125 -1.7264404296875
56.326904296875 -13.78564453125 -30.1102294921875
45.81396484375 55.6436767578125 -1.39990234375
-13.553466796875 -45.6861572265625 6.2471923828125
34.098388671875 1.6915283203125 9.9522705078125
40.30615234375 41.9896240234375 8.180419921875
48.35693359375 -109.854248046875 -16.932861328125
40.598388671875 69.95263671875 10.375
-7.045654296875 -40.05810546875 5.452880859375
51.5927734375 32.8385009765625 -13.779296875
-12.2138671875 14.4896240234375 11.0421142578125
26.9609375 -118.5394287109375 7.872314453125
-13.451904296875 -5.7425537109375 10.0621337890625
23.69482421875 45.2384033203125 8.631103515625
-27.713134765625 -65.1497802734375 3.8616943359375
53.40478515625 -65.2078857421875 -18.4925537109375
64.2958984375 -2.552978515625 -26.1507568359375
47.96923828125 1.2359619140625 9.3360595703125
6.628662109375 22.6336669921875 8.7679443359375
58.271728515625 -16.86328125 -26.3109130859375
57.344482421875 14.9971923828125 9.03564453125
-44.559326171875 -34.5521240234375 4.1427001953125
-75.109619140625 10.892578125 1.907470703125
15.550048828125 -28.454345703125 9.3629150390625
57.976318359375 -47.7657470703125 -16.4454345703125
-51.539306640625 -96.2227783203125 7.2149658203125
18.792236328125 66.1025390625 26.748046875
41.62646484375 -41.047119140625 5.864501953125
-3.7822265625 -45.407470703125 4.5108642578125
61.207763671875 -51.658935546875 -14.37451171875
47.306396484375 24.8709716796875 10.6236572265625
-53.66845703125 -101.7159423828125 0.0489501953125
30.40673828125 37.12353515625 8.685302734375
-38.35888671875 -70.0159912109375 10.7581787109375
34.67041015625 -36.7156982421875 6.123779296875
48.43994140625 -2.896728515625 -18.3084716796875
52.691650390625 24.774169921875 8.59912109375
11.319091796875 -109.243896484375 6.3890380859375
-61.88427734375 3.646484375 4.8740234375
33.405517578125 7.689697265625 9.6185302734375
-10.291259765625 -22.89794921875 10.8006591796875
9.198974609375 -14.1741943359375 10.3013916015625
68.526611328125 -102.5538330078125 -13.35595703125
15.85498046875 28.6441650390625 8.657470703125
14.525146484375 -121.1470947265625 8.3367919921875
88.016845703125 -67.129638671875 2.728271484375
46.53662109375 101.2159423828125 32.892822265625
1.5888671875 -12.8553466796875 10.03076171875
93.2373046875 -105.3037109375 6.6832275390625
18.44482421875 -10.86376953125 10.277099609375
58.650146484375 -74.1331787109375 -11.939697265625
60.45556640625 -104.2088623046875 -14.731201171875
-56.290283203125 8.2977294921875 1.951416015625
32.876953125 62.936767578125 14.7879638671875
84.227294921875 -28.5858154296875 7.4754638671875
48.077880859375 86.5255126953125 19.59912109375
45.70068359375 -32.9599609375 7.6346435546875
-47.54541015625 -99.908935546875 0.81640625
48.912353515625 30.235595703125 -8.9169921875
-17.57373046875 -62.668212890625 1.5928955078125
32.533447265625 70.4930419921875 23.248046875
0.9521484375 2.474853515625 9.3245849609375
47.95751953125 52.8895263671875 12.9796142578125
28.8837890625 68.1016845703125 27.4141845703125
37.57177734375 91.5469970703125 24.3675537109375
-1.1572265625 -57.60546875 -5.87548828125
-52.57275390625 -109.589111328125 11.409423828125
34.2705078125 -58.026611328125 4.653564453125
53.18896484375 -114.005126953125 -19.717529296875
-58.841796875 0.121826171875 3.1055908203125
-17.436279296875 -62.869140625 12.6170654296875
36.60986328125 88.5230712890625 31.61474609375
58.989501953125 -71.7706298828125 6.8641357421875
15.287841796875 -104.6126708984375 6.7923583984375
-55.76953125 -4.7689208984375 5.12890625
-12.14013671875 22.545654296875 8.9090576171875
51.24658203125 43.5135498046875 7.7796630859375
-43.338623046875 -88.8079833984375 -0.9947509765625
58.1748046875 41.6689453125 -12.4932861328125
16.078857421875 60.410888671875 21.79736328125
61.817138671875 -13.6895751953125 -24.3463134765625
30.95458984375 18.1365966796875 8.7598876953125
26.525390625 -30.62939453125 8.7216796875
31.970458984375 -66.122802734375 4.30615234375
59.342529296875 -21.4664306640625 -27.342529296875
-44.29638671875 -102.838623046875 -1.2779541015625
-54.74072265625 -95.68603515625 11.0474853515625
102.616943359375 -102.6741943359375 -6.59375
-43.40673828125 -83.849609375 -0.3175048828125
30.39892578125 -64.0653076171875 14.160400390625
59.30517578125 -103.680419921875 5.220458984375
1.82568359375 36.114501953125 13.827392578125
39.067626953125 75.7176513671875 5.7177734375
-35.214111328125 -89.0352783203125 -0.683837890625
-10.018310546875 -36.0640869140625 5.4947509765625
54.814208984375 -96.1695556640625 -9.3558349609375
54.979736328125 -77.6959228515625 -19.10400390625
-9.412841796875 7.085693359375 9.4403076171875
-9.2744140625 -49.386962890625 3.1708984375
40.034423828125 25.857666015625 8.92333984375
19.173583984375 56.9398193359375 18.32470703125
37.26123046875 -8.6424560546875 9.770263671875
44.17041015625 63.694580078125 5.7618408203125
48.035400390625 85.9154052734375 6.6802978515625
32.489501953125 -47.44873046875 6.5791015625
35.083984375 66.434326171875 17.9964599609375
-37.536865234375 -81.659912109375 11.698974609375
13.40771484375 37.0543212890625 8.470703125
71.77294921875 10.5653076171875 9.879638671875
53.6025390625 9.2923583984375 9.522216796875
53.432861328125 -16.681884765625 -26.0869140625
38.42333984375 -78.85400390625 6.0831298828125
3.419921875 65.1429443359375 26.175048828125
60.359130859375 3.4036865234375 -22.936767578125
37.146728515625 10.38525390625 9.404052734375
8.49853515625 -24.467041015625 10.6328125
92.38671875 -101.7242431640625 10.991943359375
48.22998046875 94.2012939453125 24.773681640625
-70.41845703125 2.2767333984375 4.0040283203125
52.8203125 -118.5699462890625 -19.3287353515625
-13.405517578125 -1.43115234375 12.15283203125
5.03369140625 47.8070068359375 10.1640625
87.426025390625 -27.1934814453125 -1.5037841796875
92.962158203125 -76.8980712890625 6.189697265625
58.64697265625 35.2080078125 -10.7249755859375
-9.82568359375 -50.3406982421875 -4.25
1.001708984375 58.4700927734375 20.509765625
-28.108154296875 -85.3170166015625 11.2176513671875
25.505859375 6.814697265625 9.6888427734375
6.039306640625 -30.7412109375 8.4127197265625
21.341796875 -20.4637451171875 10.618896484375
24.885986328125 24.12255859375 8.8948974609375
41.944580078125 86.9686279296875 11.2547607421875
46.544189453125 -116.4345703125 -9.111083984375
42.214599609375 10.2559814453125 9.133544921875
36.5673828125 78.9847412109375 10.488525390625
-9.102783203125 1.487060546875 12.43603515625
59.6533203125 29.2696533203125 -18.3006591796875
18.923828125 -35.4879150390625 6.3092041015625
37.10986328125 71.6475830078125 27.9957275390625
16.03076171875 -18.9765625 10.7742919921875
-52.886962890625 -23.5274658203125 5.6087646484375
18.29248046875 2.0289306640625 9.75048828125
38.500244140625 0.963623046875 9.2978515625
58.876953125 -106.05517578125 0.0384521484375
-60.107666015625 -4.3040771484375 3.902099609375
85.273193359375 -82.674072265625 9.9056396484375
46.73193359375 -109.1392822265625 -10.4078369140625
-49.39306640625 -42.875732421875 4.5906982421875
60.205078125 36.1820068359375 -16.317138671875
41.58642578125 76.763427734375 25.3218994140625
58.309326171875 65.810302734375 -0.2523193359375
45.239501953125 81.6534423828125 4.02734375
50.845458984375 -11.007568359375 -21.877685546875
7.8037109375 13.5562744140625 9.19580078125
47.6611328125 -108.33544921875 -3.635986328125
-5.35107421875 -6.584228515625 10.8126220703125
10.63671875 4.05126953125 9.5628662109375
-13.708740234375 -61.75146484375 14.7803955078125
62.3701171875 -68.6123046875 9.869140625
52.9365234375 -39.976806640625 -19.881591796875
49.921630859375 -115.1883544921875 1.6090087890625
59.029541015625 15.8726806640625 -18.782470703125
44.56884765625 -24.10400390625 11.2489013671875
-48.149658203125 -86.3192138671875 4.3804931640625
8.663818359375 34.1409912109375 8.4404296875
30.024658203125 66.5482177734375 14.061279296875
34.15185546875 64.9859619140625 23.24072265625
50.715576171875 -7.4190673828125 -17.7620849609375
11.41650390625 -96.9002685546875 7.27978515625
-3.08935546875 29.7181396484375 8.5345458984375
58.711181640625 -96.549072265625 -15.7901611328125
42.573974609375 74.1346435546875 1.115966796875
-4.79345703125 39.7247314453125 8.7310791015625
-14.087890625 23.5013427734375 12.754638671875
37.684326171875 86.2806396484375 22.692138671875
90.21630859375 -61.901611328125 -2.9981689453125
30.67529296875 41.5040283203125 8.284423828125
55.989013671875 59.8358154296875 -2.430908203125
82.04931640625 -105.9002685546875 4.47216796875
-58.969970703125 -13.278564453125 5.0850830078125
-5.503173828125 -48.60693359375 -4.6522216796875
-39.056640625 -91.0888671875 -1.052978515625
54.384765625 23.2547607421875 -17.2537841796875
-18.12841796875 62.6287841796875 29.843017578125
-3.337646484375 -54.440185546875 -1.564697265625
53.86474609375 -25.4739990234375 -17.8408203125
91.6640625 -93.760009765625 7.620849609375
16.447021484375 -116.1717529296875 7.122802734375
1.59228515625 14.4368896484375 9.11572265625
21.509033203125 -119.13671875 6.5048828125
52.099853515625 18.4722900390625 -19.764892578125
31.339599609375 -60.598876953125 8.9080810546875
38.18408203125 -31.6282958984375 8.34130859375
-10.77880859375 -64.323974609375 0.912353515625
-9.44921875 -12.8692626953125 10.4759521484375
59.537841796875 -70.3782958984375 -20.7095947265625
-51.523193359375 -87.6318359375 0.4874267578125
4.076171875 33.4432373046875 21.600341796875
11.240966796875 -8.8564453125 9.891845703125
87.159423828125 -55.590087890625 0.408447265625
37.524658203125 29.6463623046875 8.450439453125
-6.779052734375 16.3607177734375 8.7718505859375
4.392578125 -48.42578125 4.8836669921875
57.220703125 -80.880859375 -10.7713623046875
46.36376953125 88.8231201171875 10.0989990234375
-22.05322265625 -60.81640625 -1.688720703125
48.40234375 62.5858154296875 1.4393310546875
-40.072265625 -102.206298828125 -0.761474609375
20.54638671875 60.3778076171875 16.1912841796875
-13.3427734375 -52.9071044921875 -6.7696533203125
-41.652587890625 -82.8388671875 12.1103515625
-50.019287109375 -89.1817626953125 11.6998291015625
49.075927734375 -119.842041015625 -17.5992431640625
-5.7900390625 -0.782958984375 9.1107177734375
82.14501953125 -42.279052734375 7.6461181640625
67.3603515625 -105.552734375 -2.09765625
-70.42138671875 19.195556640625 1.2547607421875
0.276123046875 53.21435546875 14.980224609375
25.909912109375 68.079345703125 16.482666015625
53.0439453125 -55.8135986328125 -20.60693359375
7.236328125 -38.8934326171875 4.6827392578125
62.51513671875 11.2247314453125 -25.2259521484375
49.685302734375 -105.3160400390625 -18.9244384765625
13.1630859375 -23.4124755859375 10.832275390625
15.509521484375 -107.6141357421875 9.7745361328125
31.238525390625 56.2734375 16.5489501953125
-52.815185546875 -102.659912109375 5.743896484375
14.87548828125 46.195556640625 9.0465087890625
33.025390625 -64.7757568359375 -1.018310546875
35.634033203125 72.285400390625 13.8543701171875
55.669677734375 -57.183349609375 -16.070068359375
7.42919921875 44.0042724609375 8.5167236328125
-54.07470703125 -94.290771484375 0.6011962890625
27.648681640625 -7.841796875 10.121337890625
54.417724609375 -72.610595703125 -18.81787109375
70.652099609375 6.5426025390625 10.4022216796875
2.28466796875 49.16064453125 18.00927734375
63.76220703125 -104.013671875 -17.316162109375
-11.076416015625 60.160888671875 23.8565673828125
45.210205078125 16.4285888671875 9.294921875
36.140380859375 -24.5150146484375 10.794189453125
38.501708984375 95.1986083984375 28.21923828125
-44.51318359375 -24.81005859375 5.51513671875
18.86376953125 54.0751953125 15.2835693359375
22.377197265625 -40.8643798828125 5.2861328125
-15.491455078125 14.99560546875 8.37890625
-6.949462890625 -45.210693359375 0.4605712890625
13.548095703125 66.7904052734375 27.47265625
-1.515869140625 -25.682373046875 10.316650390625
45.25927734375 94.3231201171875 27.697998046875
-55.3515625 -16.3516845703125 5.7784423828125
-59.416259765625 -30.5723876953125 4.599853515625
46.156982421875 -4.833740234375 9.812744140625
-59.1357421875 -40.918212890625 4.371826171875
58.18603515625 -6.775634765625 -24.19091796875
-28.59228515625 -61.1568603515625 9.2296142578125
10.63232421875 62.526611328125 23.844970703125
1.725341796875 -8.6719970703125 9.9173583984375
47.445556640625 -61.360107421875 6.568603515625
63.005615234375 -72.5548095703125 6.2105712890625
-49.6513671875 -27.87353515625 5.088134765625
82.751953125 -27.36279296875 2.3458251953125
5.127197265625 58.082275390625 19.680419921875
83.277587890625 -18.345947265625 7.0599365234375
82.894775390625 -13.3907470703125 -2.0821533203125
41.889892578125 46.1702880859375 8.4337158203125
32.679443359375 -2.6627197265625 10.7635498046875
34.81640625 98.3328857421875 32.660400390625
90.58837890625 -77.8939208984375 2.829345703125
59.615966796875 21.013916015625 -19.761474609375
-66.345458984375 2.5186767578125 3.4727783203125
43.4443359375 59.65185546875 5.920166015625
59.581298828125 -55.72705078125 -23.0189208984375
39.7998046875 -51.993408203125 5.990234375
23.695556640625 63.92919921875 22.5615234375
35.421142578125 -17.239013671875 10.5252685546875
88.952880859375 -87.1478271484375 4.294921875
86.8466796875 -21.6195068359375 -2.1610107421875
61.746826171875 -72.0491943359375 -10.2530517578125
57.803955078125 47.6705322265625 -9.7080078125
84.585693359375 -34.4505615234375 0.9384765625
-2.916748046875 -15.919677734375 10.172119140625
37.285400390625 68.01123046875 8.990234375
51.44140625 -35.9725341796875 2.34326171875
85.795654296875 -52.79345703125 3.6826171875
-45.494140625 -75.7435302734375 12.017578125
53.93310546875 -63.140380859375 6.637939453125
45.958740234375 29.093017578125 10.323486328125
22.39013671875 35.915283203125 8.103271484375
-43.2763671875 -42.7039794921875 4.9541015625
-41.6982421875 -63.5269775390625 5.830322265625
49.032958984375 22.5921630859375 -12.438232421875
28.999755859375 9.1441650390625 9.34716796875
32.028076171875 -39.736083984375 5.4984130859375
4.07177734375 40.7750244140625 10.918212890625
17.361083984375 9.002685546875 9.3228759765625
90.271484375 -83.63525390625 10.1024169921875
-51.98193359375 -92.203369140625 7.1053466796875
58.66162109375 -92.8145751953125 -7.681640625
43.211669921875 -60.5501708984375 6.0037841796875
48.194091796875 41.81884765625 -8.017578125
16.728759765625 33.150146484375 8.5582275390625
58.8876953125 40.5634765625 -7.721435546875
-10.63720703125 26.905029296875 9.560791015625
-3.607421875 20.7967529296875 8.545654296875
-1.32861328125 -61.9830322265625 -3.43017578125
11.118896484375 28.268310546875 8.8511962890625
-3.24658203125 34.559814453125 8.3365478515625
-41.87060546875 -31.4617919921875 4.4775390625
-8.234130859375 -66.43701171875 -5.496337890625
5.378173828125 -19.455322265625 11.6439208984375
-25.968994140625 -42.5430908203125 5.6004638671875
-38.0361328125 -73.97021484375 11.2525634765625
47.437255859375 -102.8720703125 -11.526611328125
52.316650390625 17.9725341796875 8.7283935546875
15.01123046875 -37.7161865234375 5.5299072265625
35.163818359375 -12.683837890625 10.2803955078125
-4.457763671875 67.756591796875 29.2957763671875
107.9521484375 -94.314697265625 -10.240966796875
25.344482421875 58.952880859375 15.4852294921875
64.09716796875 -10.8095703125 -25.83740234375
37.453369140625 81.7535400390625 16.4608154296875
84.062744140625 -35.013916015625 6.740966796875
36.234375 15.067626953125 8.8675537109375
23.20751953125 27.9290771484375 8.7904052734375
-61.78564453125 -22.3297119140625 5.704833984375
25.374755859375 1.3082275390625 9.6566162109375
44.0439453125 55.484130859375 3.11962890625
-51.5400390625 -101.4010009765625 9.414306640625
36.74853515625 -58.697265625 1.38720703125
38.67236328125 57.12353515625 16.836669921875
51.560546875 -20.546875 -23.59521484375
53.74169921875 -12.6304931640625 -25.4676513671875
-45.03759765625 -57.135498046875 6.0386962890625
0.20361328125 -21.830322265625 10.56103515625
50.5693359375 13.2752685546875 -14.131591796875
-45.332275390625 -20.4498291015625 6.1318359375
-17.00927734375 -39.2008056640625 5.664794921875
30.81591796875 -64.82958984375 8.30810546875
42.13037109375 90.2943115234375 22.6534423828125
-12.715087890625 30.6041259765625 8.6572265625
52.2001953125 -32.3919677734375 -21.788330078125
55.22021484375 21.835693359375 9.102294921875
28.916015625 -35.09521484375 6.7054443359375
54.724853515625 -88.32763671875 -13.7469482421875
-37.650634765625 -67.287353515625 6.5826416015625
56.575439453125 55.2265625 -5.3626708984375
-8.33544921875 -9.040283203125 11.3187255859375
56.047607421875 -33.0703125 -26.8544921875
36.246337890625 76.271240234375 13.617431640625
29.138427734375 -43.896728515625 5.6287841796875
2.113525390625 -45.9935302734375 2.883544921875
54.7109375 -26.4718017578125 -26.673095703125
54.77734375 -58.31640625 -23.537109375
4.129150390625 4.697021484375 9.3529052734375
55.404541015625 -3.976806640625 -24.6319580078125
-43.21875 -85.4962158203125 9.6583251953125
3.15576171875 37.3533935546875 18.193115234375
-16.07421875 -50.291259765625 -4.3126220703125
38.7998046875 83.7738037109375 19.9697265625
61.051025390625 13.7659912109375 -22.3087158203125
-12.836181640625 33.162841796875 13.126953125
-20.56396484375 64.1829833984375 27.1988525390625
30.46435546875 -22.8812255859375 10.8890380859375
16.846435546875 23.7877197265625 8.8031005859375
81.969482421875 -9.9417724609375 -0.647216796875
2.640869140625 48.0098876953125 24.777587890625
-57.029541015625 -21.3804931640625 5.9139404296875
21.251220703125 40.1927490234375 8.3106689453125
84.157470703125 -41.5299072265625 4.0709228515625
-28.720703125 -45.10595703125 4.8443603515625
47.719970703125 -112.0972900390625 -2.9014892578125
53.291259765625 -48.609619140625 -19.2073974609375
35.4697265625 91.2581787109375 28.0977783203125
4.88134765625 33.1168212890625 8.1475830078125
38.093017578125 34.3983154296875 8.230712890625
19.620361328125 63.6639404296875 23.9229736328125
54.619384765625 -105.5577392578125 -6.729736328125
23.617919921875 -24.115234375 11.0657958984375
57.691650390625 -109.734130859375 5.4669189453125
58.889404296875 -85.0711669921875 -9.3743896484375
0.49560546875 -65.94189453125 -6.6015625
16.096435546875 -2.094970703125 9.68603515625
26.505126953125 -113.5184326171875 7.4779052734375
54.299560546875 9.9178466796875 -22.0802001953125
-3.361083984375 -29.1463623046875 9.09228515625
-41.680908203125 -73.64404296875 14.8187255859375
52.211181640625 5.3316650390625 -22.634765625
-37.363525390625 -29.376708984375 4.892822265625
-53.550048828125 -87.50439453125 12.024658203125
-38.872802734375 -97.2861328125 2.0836181640625
33.844482421875 22.3046875 9.1925048828125
38.162841796875 22.5911865234375 8.6246337890625
51.447998046875 -105.2001953125 1.6741943359375
2.580078125 41.77294921875 19.9315185546875
48.89794921875 27.7530517578125 -12.852294921875
-14.184326171875 -55.4310302734375 5.3153076171875
-22.46435546875 -44.455322265625 4.2000732421875
-29.56982421875 -88.785400390625 11.671142578125
36.771484375 64.0433349609375 13.7379150390625
24.39892578125 -37.005859375 5.669921875
81.276611328125 -8.7939453125 3.1142578125
-15.637939453125 -42.7269287109375 5.2774658203125
33.310302734375 74.241943359375 22.150146484375
54.397705078125 34.3929443359375 -11.8563232421875
38.253662109375 46.87060546875 8.94970703125
57.37060546875 -106.2344970703125 -21.066650390625
47.549560546875 49.974365234375 -3.399169921875
33.02978515625 27.178466796875 10.5687255859375
-13.999755859375 -12.608154296875 10.7271728515625
33.57080078125 52.4793701171875 13.3890380859375
70.997314453125 -102.6304931640625 -16.9229736328125
53.136962890625 -104.220947265625 -19.74658203125
74.986083984375 -104.2760009765625 7.6334228515625
26.90234375 65.789794921875 22.6131591796875
60.53515625 -14.816162109375 -29.80078125
46.2373046875 -48.6939697265625 6.546875
9.880859375 55.1307373046875 16.781005859375
52.44287109375 61.165283203125 1.886474609375
-12.7265625 -60.7403564453125 10.5816650390625
-12.187255859375 -6.8280029296875 14.349365234375
-49.314453125 -89.514892578125 6.406494140625
-12.005615234375 18.1927490234375 8.7122802734375
19.71728515625 -110.3310546875 7.21435546875
-11.859619140625 11.4898681640625 8.8223876953125
69.351318359375 -105.5506591796875 0.9986572265625
-12.560302734375 -57.0103759765625 -0.9952392578125
0.313720703125 28.35205078125 8.4915771484375
45.08837890625 -11.857666015625 10.5987548828125
-36.3408203125 -97.679931640625 -2.2569580078125
-48.163818359375 -48.264892578125 5.52587890625
85.2294921875 -47.800537109375 3.9307861328125
3.117431640625 68.1026611328125 29.234130859375
-11.202880859375 -65.6246337890625 6.3446044921875
52.251953125 -18.669921875 -19.7366943359375
59.03564453125 -92.44287109375 -16.74658203125
33.620849609375 75.9071044921875 16.6689453125
61.4794921875 -88.874267578125 -7.4830322265625
54.47509765625 -42.1748046875 2.767822265625
29.306396484375 -68.721923828125 6.720703125
-54.697509765625 -90.4102783203125 2.280029296875
13.01416015625 53.606201171875 15.258056640625
8.349609375 37.8048095703125 8.100830078125
22.642578125 -14.2373046875 10.3397216796875
-38.4921875 -42.8829345703125 5.8621826171875
73.598388671875 -102.8612060546875 2.798828125
53.14794921875 64.9039306640625 3.0538330078125
84.211669921875 -29.919921875 0.2354736328125
-39.890625 -66.8656005859375 12.8228759765625
0.500732421875 54.8922119140625 22.213623046875
-16.97802734375 65.22265625 27.6090087890625
51.408203125 48.5262451171875 -6.2432861328125
51.380126953125 87.9603271484375 18.265380859375
51.8896484375 -27.8812255859375 -22.8575439453125
-14.142578125 29.4166259765625 11.746337890625
34.159912109375 67.999267578125 21.2247314453125
7.44677734375 50.1788330078125 12.0543212890625
21.765625 21.77685546875 8.9261474609375
3.302734375 30.2806396484375 20.084716796875
13.500732421875 -117.71240234375 8.531494140625
48.767578125 15.9945068359375 9.1485595703125
62.78759765625 6.2667236328125 -24.7862548828125
-14.085205078125 -58.0799560546875 2.8385009765625
22.0791015625 52.5269775390625 13.7347412109375
-47.79736328125 -84.74951171875 11.273193359375
42.361572265625 -47.82666015625 6.6502685546875
52.571044921875 -54.698974609375 7.2056884765625
-60.128662109375 11.445556640625 1.9759521484375
39.146240234375 17.4918212890625 9.1483154296875
49.429443359375 11.216552734375 -18.1282958984375
44.678466796875 98.2733154296875 32.1419677734375
40.750732421875 -3.408203125 9.595703125
34.5986328125 -7.314208984375 12.3353271484375
-54.467529296875 -104.826416015625 10.91455078125
50.845947265625 -30.3172607421875 6.017578125
-62.049560546875 -7.12060546875 4.8021240234375
90.455078125 -104.13720703125 9.27197265625
-53.9150390625 -99.5162353515625 7.5965576171875
55.20458984375 30.259033203125 -14.2408447265625
95.6767578125 -100.595703125 7.783203125
49.829833984375 -17.039306640625 11.094970703125
-68.536376953125 22.1424560546875 0.8251953125
30.1083984375 50.3426513671875 11.440185546875
-33.964111328125 -42.793212890625 5.234375
48.473876953125 -53.1959228515625 5.781494140625
-62.53759765625 -26.25 5.119140625
0.115966796875 -36.580078125 5.7821044921875
-15.639892578125 60.3846435546875 22.9981689453125
84.77734375 -100.7393798828125 8.462646484375
-12.760986328125 -12.9564208984375 14.1490478515625
54.690185546875 -93.16845703125 -11.178955078125
4.541259765625 12.2572021484375 9.184814453125
22.221435546875 10.64111328125 9.2122802734375
51.45166015625 40.0806884765625 7.093994140625
-16.027587890625 -47.143310546875 -2.212646484375
45.89208984375 -116.3994140625 -12.5535888671875
-9.283935546875 66.157470703125 27.7667236328125
33.187255859375 34.378662109375 8.499267578125
52.855712890625 37.611572265625 -11.752197265625
36.644287109375 40.7109375 8.054931640625
16.719482421875 13.81298828125 9.3489990234375
44.69091796875 43.9234619140625 8.254150390625
82.19140625 -12.28369140625 5.1685791015625
-38.421142578125 -105.2021484375 -1.4224853515625
46.35009765625 67.528564453125 4.5128173828125
14.75634765625 41.7821044921875 8.1995849609375
-3.443115234375 58.227294921875 21.0924072265625
58.74267578125 -118.041015625 5.8033447265625
47.767822265625 45.831298828125 8.579833984375
19.310302734375 -4.639892578125 10.253662109375
0.6796875 46.88916015625 11.7196044921875
47.8115234375 38.20654296875 -7.2203369140625
-74.6064453125 25.898193359375 0.6591796875
19.6064453125 -31.9144287109375 7.8966064453125
39.05810546875 -55.3675537109375 6.326171875
56.41015625 -51.160888671875 -23.9423828125
-4.951171875 -32.155029296875 7.566650390625
52.309326171875 -24.9918212890625 9.1949462890625
62.590087890625 -103.6898193359375 6.3338623046875
-52.06982421875 -93.5906982421875 11.7584228515625
39.503173828125 73.9500732421875 25.8194580078125
52.3759765625 -22.6982421875 -19.65576171875
54.461669921875 -22.6920166015625 11.464599609375
-49.942138671875 -78.1915283203125 11.183837890625
-45.630126953125 -84.138671875 2.6331787109375
-29.951904296875 -79.7301025390625 11.861083984375
5.383544921875 52.719970703125 14.6417236328125
57.794677734375 7.2906494140625 -21.283447265625
23.041748046875 15.7945556640625 9.117431640625
78.038330078125 -102.911376953125 8.728759765625
81.861083984375 -15.9940185546875 4.624755859375
49.213134765625 17.460205078125 -17.0618896484375
72.51220703125 -102.149658203125 8.7508544921875
-68.41162109375 -1.84814453125 4.2138671875
-12.497802734375 -19.2537841796875 10.2562255859375
-10.946044921875 -64.4542236328125 -2.521484375
-10.7998046875 -62.2369384765625 13.01806640625
2.11865234375 -39.559814453125 5.708251953125
-52.683837890625 -41.896484375 4.5240478515625
62.06201171875 -0.184326171875 -24.4920654296875
59.980224609375 -115.8267822265625 8.76318359375
43.582275390625 -27.7080078125 9.95458984375
6.082763671875 -15.58056640625 10.4071044921875
85.88916015625 -41.6314697265625 0.2728271484375
22.39990234375 58.056640625 17.8857421875
57.255615234375 69.0120849609375 1.8369140625
58.353271484375 21.9547119140625 -16.5233154296875
54.529296875 -51.0675048828125 5.9873046875
31.68310546875 68.395751953125 29.3858642578125
48.7275390625 38.480224609375 8.375244140625
11.625732421875 -37.8536376953125 5.1728515625
59.03759765625 34.0797119140625 9.306640625
10.95947265625 68.4031982421875 29.232177734375
49.5498046875 84.2662353515625 17.020751953125
-44.945556640625 -38.3050537109375 4.64990234375
29.062744140625 -17.2686767578125 10.5970458984375
9.28076171875 -1.421875 9.83837890625
39.656005859375 60.3204345703125 13.0872802734375
91.495849609375 -84.279541015625 5.2686767578125
-61.805419921875 -38.825439453125 4.2125244140625
21.987060546875 67.7259521484375 27.6968994140625
-54.368408203125 -98.1492919921875 0.267333984375
55.638671875 -111.7666015625 -20.40087890625
-0.937744140625 -43.70654296875 5.209228515625
34.545654296875 -74.69091796875 6.450439453125
55.329345703125 -65.6488037109375 -21.6279296875
12.471435546875 -100.0372314453125 6.619384765625
-6.1123046875 -48.2666015625 3.537353515625
29.1337890625 -47.19140625 6.3424072265625
-9.379150390625 -27.7166748046875 9.6234130859375
88.39599609375 -48.46484375 -1.8585205078125
46.509765625 -42.37548828125 5.7412109375
44.806884765625 51.976806640625 12.234375
-34.017578125 -36.4674072265625 5.0689697265625
76.4404296875 -103.9752197265625 4.6165771484375
48.059326171875 45.329833984375 -1.3673095703125
92.86474609375 -81.1875 4.10107421875
29.750732421875 66.4527587890625 24.6201171875
34.7734375 81.8797607421875 12.4708251953125
-12.756591796875 6.816650390625 9.3880615234375
-12.331298828125 35.2305908203125 8.284423828125
-70.23583984375 -6.2669677734375 4.6805419921875
-37.128662109375 -95.047607421875 0.3104248046875
45.657958984375 79.207275390625 1.7890625
37.157470703125 -21.1495361328125 11.103759765625
12.205810546875 -15.6173095703125 10.396728515625
82.078857421875 -22.188232421875 3.076416015625
38.143798828125 72.7545166015625 7.1900634765625
3.732666015625 24.2828369140625 8.6932373046875
-35.087646484375 -68.8543701171875 11.7603759765625
-63.056884765625 -15.3067626953125 5.6378173828125
53.529541015625 -68.552001953125 -18.2957763671875
50.78369140625 54.7470703125 -2.719970703125
88.509765625 -59.412841796875 -1.4429931640625
-8.85791015625 40.456787109375 8.765380859375
-11.0888671875 -0.850341796875 9.841552734375
54.403076171875 -14.1661376953125 11.201904296875
22.819091796875 -30.318115234375 8.7392578125
-9.98486328125 -60.7232666015625 -1.7520751953125
25.3916015625 52.661376953125 13.681640625
-45.2314453125 -85.516357421875 6.5836181640625
2.92822265625 43.404296875 16.6710205078125
-50.76171875 -100.5965576171875 -1.0667724609375
51.145751953125 19.604736328125 -11.3177490234375
50.79443359375 -11.988037109375 -18.708251953125
49.320556640625 -103.0947265625 -6.4912109375
-42.8974609375 -46.78076171875 4.983642578125
54.75048828125 52.471435546875 -2.4393310546875
-1.57177734375 -8.5491943359375 9.9879150390625
55.635986328125 -36.5357666015625 -26.4859619140625
44.04248046875 -57.36474609375 6.19384765625
-9.965576171875 15.5355224609375 8.77099609375
-1.142822265625 5.09912109375 9.7366943359375
49.55224609375 4.2733154296875 -16.9952392578125
49.426025390625 50.3753662109375 10.7362060546875
104.718017578125 -99.78759765625 -12.8837890625
50.91943359375 -37.9044189453125 5.867431640625
47.457763671875 -115.993896484375 -2.8580322265625
42.712158203125 -31.7275390625 8.1923828125
13.467041015625 -112.5133056640625 8.346435546875
50.372802734375 -9.4769287109375 9.5948486328125
2.24609375 -1.90283203125 9.7274169921875
13.135498046875 49.955322265625 11.51953125
-36.406494140625 -68.4190673828125 15.2750244140625
32.204833984375 -58.162353515625 14.0411376953125
83.802978515625 -36.6007080078125 3.9033203125
41.4580078125 98.9747314453125 32.711181640625
101.085205078125 -102.0008544921875 -9.3853759765625
90.141357421875 -91.24853515625 2.8365478515625
5.046142578125 -27.2315673828125 9.5352783203125
-49.9609375 -96.3892822265625 10.049560546875
-2.389404296875 -51.295654296875 -7.4571533203125
-41.15283203125 -34.6124267578125 4.28515625
-18.829345703125 61.1923828125 21.219482421875
58.232666015625 -86.135986328125 -19.0028076171875
-0.916259765625 -65.313232421875 -2.0152587890625
48.778564453125 32.7919921875 -11.443359375
89.117431640625 -83.983154296875 1.497802734375
-13.608154296875 -51.756103515625 3.9637451171875
11.883056640625 7.625244140625 9.5601806640625
-6.0458984375 24.62158203125 7.929443359375
15.274169921875 -40.9664306640625 5.90673828125
15.52099609375 -9.5166015625 10.2425537109375
55.879638671875 -103.943359375 -15.8377685546875
58.67626953125 -113.843994140625 -21.27734375
32.294189453125 67.2509765625 16.621337890625
50.194580078125 79.8173828125 0.499267578125
8.896484375 25.2222900390625 8.8052978515625
58.759033203125 -67.260009765625 -13.1903076171875
35.701416015625 -62.0394287109375 -0.920654296875
56.47216796875 -98.69482421875 6.8721923828125
55.7861328125 -17.4967041015625 -28.4432373046875
43.13623046875 25.09521484375 9.0206298828125
-12.445556640625 -47.08837890625 3.00732421875
44.935546875 76.1011962890625 0.2496337890625
27.07763671875 61.711181640625 13.9300537109375
50.71484375 87.7369384765625 13.023193359375
-47.47998046875 -90.0794677734375 9.837158203125
-11.140380859375 -61.7689208984375 2.7882080078125
84.90771484375 -87.712646484375 7.101318359375
61.524658203125 -54.725830078125 -13.56201171875
-7.725830078125 1.7718505859375 9.5794677734375
64.24267578125 31.8916015625 8.8043212890625
32.0927734375 70.2142333984375 26.5809326171875
45.20361328125 6.6240234375 9.375
-27.0576171875 -65.864013671875 -0.5194091796875
51.48583984375 6.7979736328125 9.6768798828125
31.190185546875 -62.827392578125 0.696533203125
54.898681640625 -65.0130615234375 -15.275146484375
22.9287109375 -17.377685546875 10.729248046875
43.53173828125 83.5206298828125 17.04150390625
-33.959228515625 -84.970947265625 11.7191162109375
52.377197265625 -47.987548828125 6.193359375
24.24609375 42.1390380859375 8.2122802734375
88.9189453125 -67.5006103515625 5.7484130859375
59.6201171875 -110.0943603515625 8.0040283203125
46.59912109375 -116.00146484375 -5.907470703125
-14.450927734375 -51.08349609375 0.72216796875
52.872314453125 52.0233154296875 11.677001953125
9.64697265625 31.0692138671875 8.73193359375
5.658935546875 41.4683837890625 7.837890625
58.832763671875 37.8363037109375 -14.00341796875
41.693603515625 -44.56591796875 5.597412109375
46.32177734375 55.352294921875 15.5745849609375
-37.281494140625 -88.081787109375 1.5322265625
83.075927734375 -18.6060791015625 -0.0789794921875
-41.807861328125 -74.0546875 10.9425048828125
7.62548828125 4.9635009765625 9.40625
-74.50830078125 18.69287109375 2.5228271484375
37.39453125 50.0645751953125 11.06201171875
-72.885498046875 13.7625732421875 1.255859375
11.8330078125 44.8651123046875 8.6849365234375
-9.794921875 33.375 8.2347412109375
73.738037109375 -102.9273681640625 -0.33984375
19.05615234375 -28.670654296875 9.286865234375
52.578125 -44.8602294921875 -21.5645751953125
53.764892578125 -66.3140869140625 6.783447265625
88.649169921875 -70.3681640625 3.2181396484375
-67.272216796875 -14.12109375 6.1982421875
43.6572265625 84.5914306640625 14.0980224609375
53.9658203125 15.9849853515625 -20.1304931640625
-54.402099609375 -7.16943359375 3.6612548828125
54.46630859375 -22.978271484375 -26.368896484375
62.364990234375 20.4041748046875 -21.3818359375
43.921630859375 -20.6717529296875 10.7178955078125
30.06591796875 -5.733642578125 10.591796875
-6.377685546875 4.913818359375 9.154296875
33.6337890625 46.3619384765625 8.8416748046875
-50.185791015625 -81.38720703125 11.870361328125
-59.571533203125 5.45654296875 2.4739990234375
45.10009765625 87.7677001953125 21.30712890625
88.151123046875 -52.7745361328125 -1.41064453125
54.82275390625 -40.419677734375 -25.8587646484375
52.5263671875 -34.2459716796875 -24.2564697265625
84.5205078125 -39.3306884765625 6.51953125
51.9619140625 -111.440185546875 -18.476806640625
-12.88232421875 26.3319091796875 13.1444091796875
-38.2939453125 -99.4176025390625 -0.0926513671875
6.081787109375 -7.0059814453125 10.057373046875
48.762451171875 -13.0755615234375 10.8980712890625
52.6630859375 67.671875 4.447998046875
-14.984619140625 -36.5286865234375 6.0091552734375
60.364013671875 33.18017578125 -17.05859375
-8.679931640625 62.114013671875 24.0145263671875
-14.1806640625 -31.291259765625 9.0875244140625
50.55419921875 -1.438232421875 -21.38037109375
49.415771484375 -26.6029052734375 10.552490234375
89.600341796875 -41.214111328125 -3.065185546875
36.60595703125 -39.113525390625 5.9345703125
34.795166015625 58.6552734375 15.8741455078125
55.47021484375 -82.7869873046875 -17.9041748046875
21.896484375 18.6322021484375 8.7469482421875
49.9013671875 36.81787109375 -11.3896484375
-29.3193359375 -63.458984375 5.8736572265625
45.428466796875 95.6361083984375 30.558349609375
41.16845703125 63.893310546875 8.7733154296875
-54.0966796875 -101.694580078125 3.123291015625
51.553466796875 -15.1005859375 -19.18115234375
13.6845703125 58.093994140625 19.4666748046875
25.58251953125 -15.1204833984375 10.3834228515625
4.7275390625 8.4808349609375 9.477294921875
91.7392578125 -90.8546142578125 5.7906494140625
44.2373046875 -35.480712890625 6.677734375
59.451904296875 -71.192138671875 -12.266357421875
97.2724609375 -103.379150390625 6.6287841796875
60.20947265625 49.2965087890625 -10.690185546875
-11.7158203125 -14.880126953125 10.025390625
31.522705078125 5.2901611328125 9.395751953125
58.177978515625 34.86376953125 -13.7301025390625
37.66259765625 52.416259765625 13.2105712890625
31.247802734375 0.6025390625 9.815673828125
61.912353515625 -103.338134765625 3.37744140625
65.861083984375 -10.9769287109375 -29.357666015625
39.147216796875 83.7269287109375 9.56884765625
45.205810546875 -54.2445068359375 6.04736328125
56.541259765625 -45.60986328125 -25.1982421875
41.91943359375 79.87255859375 5.3131103515625
24.890380859375 -2.8095703125 10.0235595703125
13.891357421875 21.3994140625 8.8924560546875
26.59130859375 33.8367919921875 8.281005859375
-34.3720703125 -81.0400390625 11.6494140625
58.637939453125 -103.3302001953125 2.278564453125
57.1689453125 -104.36474609375 7.2607421875
-41.396728515625 -86.24658203125 7.3538818359375
-13.289794921875 20.3157958984375 12.12646484375
46.22509765625 57.1219482421875 8.8602294921875
46.162841796875 21.1297607421875 9.2493896484375
86.83740234375 -54.9696044921875 5.511474609375
-36.965087890625 -84.7037353515625 11.906005859375
-54.135009765625 -95.91162109375 5.6976318359375
16.639892578125 -13.4483642578125 10.549560546875
7.55322265625 62.0186767578125 23.4486083984375
63.712890625 -6.7469482421875 -27.4002685546875
105.590087890625 -92.931884765625 -8.9874267578125
-30.634765625 -70.8875732421875 6.1673583984375
9.343994140625 57.2607421875 18.83837890625
21.937255859375 -121.784423828125 8.105224609375
-22.926513671875 -58.387451171875 -0.1429443359375
67.528564453125 -102.6787109375 9.962890625
33.708251953125 41.779541015625 8.03173828125
-18.01025390625 -46.2894287109375 5.1607666015625
29.4169921875 13.0899658203125 9.4150390625
51.396728515625 -6.75439453125 10.3489990234375
51.35205078125 -97.903564453125 8.020751953125
-10.99462890625 -32.709716796875 7.0355224609375
37.4306640625 -28.2279052734375 9.6982421875
-57.41357421875 -46.98291015625 5.154541015625
82.064208984375 -15.90283203125 0.7373046875
81.818359375 -4.76318359375 3.796875
50.986083984375 2.5386962890625 -22.5867919921875
84.400390625 -107.753173828125 4.3486328125
-30.916259765625 -67.6685791015625 6.169677734375
94.045166015625 -96.679931640625 9.0216064453125
56.8134765625 -88.171875 -17.337890625
48.043212890625 -109.683837890625 -13.9658203125
-50.224609375 -45.85205078125 4.8861083984375
66.463623046875 -104.339111328125 -16.0855712890625
47.6513671875 -117.8929443359375 -14.446044921875
16.952392578125 49.5001220703125 11.2711181640625
-45.571044921875 -85.31787109375 -2.0911865234375
11.83984375 64.8619384765625 25.9749755859375
46.786865234375 -108.70068359375 -7.225830078125
3.23291015625 38.803955078125 12.989501953125
46.642333984375 64.746337890625 3.4896240234375
-28.591796875 -62.929931640625 2.0810546875
5.97412109375 -34.037109375 6.7291259765625
56.330810546875 -97.8438720703125 -7.2315673828125
35.08837890625 69.40185546875 17.7889404296875
33.83251953125 -68.418212890625 -0.923095703125
63.673583984375 -104.37646484375 -13.2235107421875
59.79052734375 -103.85986328125 -17.60595703125
60.5029296875 -46.860595703125 -15.171142578125
47.348388671875 42.2337646484375 -5.2012939453125
-47.619384765625 -31.66748046875 4.7576904296875
-25.289306640625 -58.61474609375 2.7562255859375
18.227294921875 -104.215576171875 6.85498046875
-27.740234375 -58.453369140625 6.0848388671875
47.15673828125 -19.5704345703125 11.96875
50.923095703125 -57.190673828125 6.15869140625
-31.592529296875 -63.335205078125 11.6583251953125
-51.09423828125 -36.886962890625 3.86328125
-10.78369140625 -67.3162841796875 0.7152099609375
77.319091796875 8.7408447265625 10.42578125
-14.3359375 -24.9561767578125 11.681884765625
36.953857421875 -49.760009765625 6.7078857421875
61.0419921875 -18.495361328125 -26.7030029296875
-42.9296875 -55.1016845703125 6.424560546875
-36.349365234375 -87.2232666015625 6.8800048828125
-4.17431640625 -51.7015380859375 -2.287353515625
15.828857421875 68.174072265625 28.81005859375
-51.4189453125 0.0113525390625 2.6776123046875
58.759033203125 28.7037353515625 -15.0948486328125
13.161865234375 -35.5108642578125 6.1549072265625
-51.6416015625 -91.1234130859375 10.193359375
60.458984375 -14.2271728515625 -26.9173583984375
34.37548828125 -55.404541015625 7.4053955078125
51.092041015625 10.813232421875 9.3656005859375
54.142822265625 -108.5345458984375 3.2589111328125
60.996826171875 -10.87109375 -24.3726806640625
-6.904541015625 -51.0997314453125 2.9227294921875
-12.83349609375 35.874267578125 11.101806640625
2.305908203125 -5.702880859375 9.9659423828125
59.44970703125 -17.465576171875 -29.1849365234375
88.637939453125 -88.949462890625 1.8218994140625
57.8046875 -31.760498046875 -28.795166015625
55.978515625 -61.2904052734375 -15.3699951171875
29.384033203125 -28.764404296875 9.3858642578125
9.48095703125 10.9627685546875 9.44482421875
-65.708740234375 -10.578369140625 5.0936279296875
46.163330078125 92.2088623046875 25.329345703125
61.4326171875 -92.450439453125 -6.8267822265625
49.448486328125 -104.408203125 -0.3035888671875
24.38818359375 61.51318359375 16.516845703125
-5.787109375 -45.8055419921875 -6.469482421875
52.04052734375 86.6551513671875 7.371337890625
-15.31689453125 -49.5172119140625 3.166259765625
58.60009765625 -87.9075927734375 -8.7705078125
55.37548828125 -47.1109619140625 -17.5833740234375
-3.915283203125 61.0992431640625 23.1666259765625
-2.3623046875 12.13330078125 9.08984375
54.186767578125 -83.3240966796875 -14.506103515625
40.383544921875 80.5762939453125 26.331787109375
-13.405029296875 -50.1026611328125 -7.53466796875
88.88134765625 -65.3182373046875 9.112548828125
49.393310546875 -40.578857421875 5.361572265625
53.125244140625 -51.176513671875 -20.54833984375
57.605712890625 44.1513671875 -11.1053466796875
54.783935546875 -81.8193359375 -12.0321044921875
2.53759765625 53.6485595703125 24.1531982421875
-15.567626953125 -58.2275390625 0.1290283203125
-38.39599609375 -93.6619873046875 -2.2425537109375
55.068115234375 -77.9669189453125 -12.5181884765625
60.474365234375 43.660888671875 -13.0382080078125
-32.486572265625 -39.1563720703125 4.8807373046875
51.017822265625 26.8121337890625 11.7144775390625
24.072509765625 65.9537353515625 15.8033447265625
58.11572265625 63.8427734375 -2.3551025390625
-72.954345703125 8.9749755859375 1.88037109375
61.71923828125 -79.9381103515625 -9.550048828125
91.55224609375 -101.884521484375 7.845458984375
54.43310546875 59.30517578125 -0.0628662109375
-46.606689453125 -42.2020263671875 4.87451171875
29.759765625 34.318603515625 8.57568359375
61.123291015625 -75.2987060546875 -10.886962890625
7.142578125 -49.377685546875 4.8428955078125
8.49462890625 40.6629638671875 8.3890380859375
-47.144287109375 -102.6038818359375 -0.984130859375
-24.835693359375 -57.1112060546875 7.321044921875
62.9921875 -85.4578857421875 -6.9295654296875
55.023193359375 -80.01416015625 -17.3123779296875
58.492919921875 -50.4283447265625 -15.5069580078125
63.7197265625 -67.80419921875 -9.891357421875
-10.15234375 3.431884765625 9.26025390625
-42.1728515625 -86.1905517578125 -1.617919921875
-51.52587890625 -112.0902099609375 10.4971923828125
57.342041015625 47.248291015625 -5.8763427734375
60.515869140625 -102.7469482421875 -5.1536865234375
45.67041015625 52.154541015625 2.2354736328125
-12.313232421875 -64.6114501953125 13.4884033203125
18.75048828125 -118.7841796875 7.1370849609375
-51.270751953125 -98.631591796875 8.7156982421875
42.165283203125 7.41455078125 9.3355712890625
-53.685546875 -99.7850341796875 11.545654296875
18.625 27.984130859375 8.6920166015625
39.41357421875 39.297119140625 7.9510498046875
44.390380859375 39.6470947265625 8.17431640625
41.791259765625 -16.05615234375 10.0203857421875
47.14013671875 53.180419921875 -1.9139404296875
39.4462890625 -38.98193359375 5.9190673828125
95.793701171875 -95.814453125 5.6041259765625
-11.772705078125 -59.24755859375 7.84619140625
49.70458984375 1.450439453125 -17.2398681640625
55.15771484375 -87.5987548828125 -10.394775390625
58.6162109375 -101.7303466796875 7.161376953125
44.50830078125 -62.96875 4.9447021484375
-51.987060546875 -92.55908203125 -1.87841796875
37.8603515625 83.8011474609375 14.197265625
-3.165771484375 64.855712890625 26.4000244140625
9.423583984375 -32.2099609375 7.7469482421875
48.93994140625 -32.53369140625 7.8253173828125
10.3740234375 -22.0770263671875 10.8558349609375
56.20751953125 -105.6705322265625 -4.394287109375
-39.080322265625 -69.39013671875 14.142578125
-11.502685546875 -65.1217041015625 16.3372802734375
35.75634765625 27.90771484375 10.6363525390625
-28.469970703125 -82.1224365234375 11.6409912109375
8.4453125 -10.0111083984375 10.1864013671875
19.440673828125 50.8944091796875 12.2325439453125
26.667236328125 -115.92041015625 8.9500732421875
30.88134765625 -66.4500732421875 12.7330322265625
-41.82568359375 -84.2724609375 1.9783935546875
-54.7958984375 -25.5780029296875 5.295166015625
25.83544921875 55.0081787109375 15.4375
-39.91552734375 -61.5511474609375 6.9462890625
36.239501953125 3.6510009765625 9.7916259765625
57.025390625 -71.61572265625 -21.00537109375
89.714599609375 -74.2900390625 0.1488037109375
63.322509765625 -81.05224609375 -7.35693359375
14.2119140625 -107.1993408203125 6.5482177734375
56.356689453125 -105.8377685546875 -1.1881103515625
45.955322265625 3.9154052734375 9.5159912109375
37.74169921875 79.3031005859375 19.50732421875
14.12158203125 26.1728515625 8.918701171875
-0.90380859375 21.8023681640625 8.7279052734375
0.795166015625 25.527587890625 8.5537109375
70.019287109375 -106.7452392578125 -1.4527587890625
50.1845703125 -112.3978271484375 1.4576416015625
86.925537109375 -61.62939453125 7.4884033203125
41.699951171875 94.4818115234375 27.630859375
54.81787109375 66.20849609375 0.8377685546875
38.942138671875 70.419921875 5.60205078125
83.29541015625 -10.893310546875 7.3349609375
48.476318359375 -117.2288818359375 0.17529296875
49.3955078125 -4.8292236328125 9.9979248046875
15.200927734375 -101.6407470703125 6.4442138671875
53.2119140625 -104.0623779296875 -11.429443359375
33.48388671875 70.847412109375 20.643310546875
-51.914794921875 -31.5140380859375 4.5103759765625
35.31640625 63.9046630859375 16.119384765625
25.056396484375 -9.982177734375 10.0284423828125
49.0302734375 35.334228515625 -6.4918212890625
35.2314453125 -59.17578125 -0.9078369140625
-44.79345703125 -100.574951171875 0.4581298828125
49.918701171875 24.44970703125 8.6055908203125
84.64306640625 -44.3704833984375 4.0074462890625
23.375244140625 48.6846923828125 10.5341796875
32.74169921875 75.93212890625 19.3170166015625
-11.755615234375 -41.682861328125 6.068603515625
-38.478271484375 -40.20361328125 5.0859375
57.913330078125 37.85302734375 -11.2216796875
51.200439453125 -62.685791015625 6.322021484375
89.32763671875 -105.763916015625 4.211181640625
0.955322265625 50.1353759765625 14.711669921875
46.492431640625 -113.7716064453125 -9.927490234375
19.306640625 10.9840087890625 9.1068115234375
