-21.059326171875 -41.9034423828125 -5.6591796875
-32.773193359375 -79.85595703125 -6.681640625
-5.938720703125 54.265380859375 5.56201171875
11.890380859375 68.6856689453125 10.8109130859375
-8.191650390625 -43.2254638671875 -5.103271484375
32.21826171875 85.5523681640625 25.677490234375
38.638427734375 22.876708984375 5.6058349609375
-43.599365234375 -73.4725341796875 -4.7901611328125
60.590087890625 -5.474853515625 -23.3736572265625
33.875244140625 8.644287109375 6.41845703125
25.358154296875 21.2232666015625 5.952392578125
64.080810546875 -36.4942626953125 -21.9354248046875
19.233154296875 -94.887939453125 2.765380859375
40.03515625 -45.903564453125 -4.498291015625
65.228759765625 -18.1937255859375 -25.05419921875
-55.77880859375 -13.3135986328125 1.035888671875
51.041748046875 -1.0235595703125 -12.411376953125
-15.31298828125 -33.9600830078125 -7.95068359375
54.570556640625 -95.8927001953125 -22.040771484375
53.926513671875 -34.36962890625 2.1129150390625
106.8759765625 -91.8375244140625 -14.6981201171875
17.829345703125 14.9202880859375 6.435791015625
54.276123046875 38.262939453125 -11.96826171875
59.58544921875 -0.44091796875 -20.182861328125
-44.82958984375 -72.3438720703125 8.2430419921875
57.187255859375 41.8253173828125 -16.5118408203125
-32.296875 -67.7593994140625 7.2791748046875
56.879638671875 51.908203125 -9.1771240234375
-8.9462890625 17.014892578125 6.6397705078125
-19.353759765625 -32.9000244140625 1.92529296875
-35.47509765625 -84.861572265625 -6.0826416015625
-15.942626953125 -42.34228515625 5.5731201171875
76.0859375 -73.8394775390625 2.2100830078125
20.857177734375 78.4381103515625 21.03857421875
40.771484375 92.8746337890625 6.1336669921875
91.57861328125 -65.894775390625 -13.0157470703125
103.435546875 -79.96435546875 -12.128173828125
51.239990234375 31.4326171875 5.528076171875
-48.3681640625 -74.292236328125 -1.3319091796875
14.4580078125 -21.8585205078125 1.184326171875
51.389404296875 -10.239501953125 -12.9036865234375
-5.133544921875 85.3585205078125 30.690185546875
43.8408203125 94.5643310546875 18.2388916015625
15.219970703125 24.6541748046875 5.8055419921875
6.7255859375 65.118896484375 22.7332763671875
38.767822265625 82.8038330078125 19.687255859375
6.32421875 48.494140625 5.61376953125
52.783935546875 74.53564453125 -1.2403564453125
-23.496826171875 -66.591796875 7.5457763671875
40.256591796875 -21.0286865234375 1.8128662109375
60.730224609375 -82.88671875 3.34326171875
-7.470458984375 30.78759765625 5.7005615234375
42.1142578125 33.657958984375 5.78515625
-49.4951171875 -86.4786376953125 6.6622314453125
-29.38037109375 -74.1798095703125 -4.9964599609375
27.05029296875 -18.6219482421875 2.27734375
62.07177734375 -29.235107421875 -20.39794921875
14.91748046875 56.9122314453125 5.2054443359375
56.6533203125 -63.9957275390625 -14.131103515625
-5.406005859375 14.04541015625 13.5308837890625
-25.121826171875 -46.8292236328125 4.1064453125
45.8876953125 -15.887451171875 3.2259521484375
60.7529296875 -15.5616455078125 -19.4503173828125
-11.68115234375 83.5706787109375 27.0010986328125
11.984619140625 -6.2509765625 7.3101806640625
19.276123046875 72.3797607421875 13.8831787109375
-49.008544921875 -16.2735595703125 0.963134765625
8.3837890625 53.4769287109375 5.2509765625
49.471923828125 -41.0474853515625 1.7890625
46.741455078125 77.087890625 0.1522216796875
57.26171875 -56.404296875 -11.7965087890625
61.42431640625 -82.49169921875 -17.581787109375
54.1796875 -43.2078857421875 1.720458984375
56.326171875 -107.6331787109375 -14.905517578125
-1.135009765625 -4.91796875 7.055908203125
4.614501953125 55.1883544921875 17.790771484375
65.77099609375 -58.649169921875 1.4013671875
1.809814453125 -35.47607421875 -4.184814453125
62.9296875 -58.05224609375 -18.4151611328125
39.845458984375 87.2091064453125 10.4862060546875
15.408203125 6.711181640625 6.5513916015625
16.05615234375 -50.3665771484375 -5.3006591796875
13.123291015625 79.1064453125 20.834716796875
55.029541015625 -36.8897705078125 -18.2745361328125
98.099365234375 -83.067626953125 -12.8814697265625
50.30908203125 12.9251708984375 -14.51806640625
-67.191650390625 20.1533203125 -0.79296875
38.707275390625 49.633544921875 5.2581787109375
31.220703125 70.25537109375 11.42822265625
54.86767578125 -84.6656494140625 -21.036376953125
50.46875 -46.4324951171875 -1.42041015625
32.235107421875 -94.8065185546875 2.5107421875
61.4990234375 -68.141357421875 2.0933837890625
107.63525390625 -97.5789794921875 -15.3870849609375
-43.403564453125 -68.67236328125 1.3348388671875
-68.650146484375 15.6090087890625 0.7392578125
-62.75048828125 11.25634765625 0.8353271484375
20.14892578125 6.998779296875 6.50927734375
-31.711181640625 -21.891357421875 1.01318359375
30.2919921875 57.555419921875 5.5054931640625
60.86669921875 11.2432861328125 -23.18310546875
25.32177734375 -6.4403076171875 7.00146484375
17.564208984375 84.4224853515625 25.7403564453125
16.48046875 38.015869140625 5.732177734375
7.14501953125 -41.7120361328125 -1.8905029296875
41.010498046875 74.4954833984375 6.5338134765625
91.15087890625 -70.6224365234375 -14.1396484375
-40.83056640625 -64.3524169921875 7.5579833984375
-49.050537109375 -79.9783935546875 6.949951171875
46.058837890625 70.3265380859375 9.9061279296875
51.396728515625 -88.5760498046875 -16.5831298828125
15.947509765625 -31.069580078125 1.6302490234375
-47.69677734375 -35.83544921875 2.08447265625
10.557861328125 88.6134033203125 30.6290283203125
5.131103515625 -40.6915283203125 -6.2373046875
5.60498046875 76.35595703125 18.8818359375
-9.402587890625 -15.2593994140625 3.728759765625
45.882080078125 60.359375 -2.6904296875
49.185791015625 26.385986328125 5.9791259765625
39.33251953125 65.73974609375 6.9031982421875
-1.101318359375 -32.9324951171875 -7.5560302734375
16.207275390625 -2.624267578125 7.099365234375
33.40625 -0.636962890625 6.6407470703125
49.5 41.03857421875 -4.767333984375
16.849853515625 66.5772705078125 8.411865234375
52.046875 -102.875244140625 -15.235107421875
67.74365234375 -62.5159912109375 -19.8511962890625
56.310791015625 58.2611083984375 -10.750732421875
0.7373046875 41.1976318359375 5.6044921875
-55.256591796875 -78.98388671875 8.06982421875
24.543701171875 12.2850341796875 6.4617919921875
-29.98974609375 -70.4119873046875 0.2825927734375
14.770263671875 -52.7974853515625 -0.4259033203125
-65.251220703125 27.73095703125 -1.59765625
46.864501953125 56.044189453125 -6.434814453125
48.623046875 88.4471435546875 19.7222900390625
67.44677734375 -47.3653564453125 -20.7137451171875
-15.017822265625 78.361572265625 24.885009765625
-47.379638671875 17.28515625 -0.714111328125
58.572265625 14.67822265625 -19.4249267578125
47.46826171875 48.057861328125 -6.6748046875
35.00634765625 42.3641357421875 5.989990234375
63.71044921875 -78.04541015625 -17.100341796875
-7.79150390625 3.6109619140625 10.0947265625
-49.43994140625 12.980712890625 0.480712890625
53.115234375 -80.2154541015625 2.4945068359375
-9.261474609375 -41.06689453125 -1.510009765625
48.033203125 43.410400390625 -8.9346923828125
-36.021240234375 -22.8382568359375 1.032470703125
-60.914306640625 21.4599609375 -0.062255859375
15.304443359375 33.451171875 5.7650146484375
-10.514892578125 52.2587890625 5.7833251953125
54.639892578125 -3.00390625 -18.6495361328125
-13.586181640625 82.3221435546875 31.66552734375
32.243408203125 27.686767578125 5.9923095703125
7.4365234375 13.8941650390625 6.3284912109375
-28.397216796875 -57.013671875 1.9471435546875
39.623046875 60.8504638671875 5.034423828125
99.51513671875 -70.6649169921875 -11.6417236328125
-53.63623046875 17.827880859375 -0.0224609375
7.384521484375 0.32568359375 6.7274169921875
53.62548828125 -84.28515625 -15.640869140625
-34.356689453125 -60.56689453125 7.9290771484375
-43.541015625 -87.489990234375 -5.430908203125
53.185546875 51.2259521484375 5.4676513671875
-9.37451171875 -36.9765625 0.388427734375
-29.705078125 -43.45947265625 5.4847412109375
-3.546875 -28.1031494140625 4.0494384765625
2.23095703125 54.7569580078125 9.9111328125
-42.7392578125 -29.6724853515625 1.23828125
59.013671875 7.605712890625 -22.097412109375
55.524658203125 -76.2093505859375 2.491455078125
-39.916259765625 -67.5462646484375 -3.37255859375
49.20166015625 30.70703125 -12.39404296875
36.9404296875 83.9200439453125 23.9556884765625
76.858642578125 -69.874267578125 1.8482666015625
7.649658203125 37.5145263671875 5.533935546875
-10.505859375 -28.89892578125 -0.02685546875
68.816650390625 -72.6640625 1.5845947265625
21.393310546875 55.9979248046875 5.320556640625
58.41796875 24.3128662109375 -20.51513671875
56.9375 -73.6341552734375 -18.165771484375
2.142578125 83.3101806640625 25.85205078125
7.1728515625 62.0960693359375 15.1591796875
13.406494140625 10.5970458984375 6.4705810546875
43.664794921875 -23.407958984375 1.611328125
20.126220703125 -104.3067626953125 2.3834228515625
19.030029296875 48.681396484375 5.421630859375
-49.64404296875 -63.0125732421875 15.2794189453125
46.872314453125 90.0006103515625 -7.4981689453125
15.4951171875 -80.1138916015625 3.708251953125
25.124267578125 76.3265380859375 14.771484375
56.87890625 -100.3670654296875 -23.752685546875
58.802001953125 -44.2086181640625 -19.3720703125
28.228515625 6.7462158203125 6.8935546875
30.52294921875 38.97216796875 5.5994873046875
47.334716796875 61.33056640625 5.2080078125
56.673095703125 35.8748779296875 -15.904052734375
39.2041015625 70.1312255859375 10.5750732421875
101.91064453125 -94.961181640625 -9.41845703125
4.826416015625 20.985107421875 5.9664306640625
-1.447998046875 43.4044189453125 7.8575439453125
-54.922607421875 0.24853515625 2.0345458984375
31.329833984375 -48.7525634765625 2.2330322265625
56.259765625 -51.5203857421875 -12.93701171875
-7.004150390625 43.5877685546875 13.202392578125
4.3369140625 67.4442138671875 11.094970703125
30.885009765625 -9.9295654296875 6.2105712890625
41.271240234375 10.931640625 8.7357177734375
-41.009033203125 -60.204833984375 13.4451904296875
41.4140625 87.4212646484375 -4.9515380859375
55.68408203125 -46.383544921875 -17.226318359375
50.595458984375 54.376708984375 -9.501220703125
-20.565673828125 -55.511474609375 1.601806640625
52.319091796875 -13.3092041015625 4.42822265625
-46.439208984375 -71.26513671875 -6.030517578125
-32.5126953125 -45.3538818359375 1.9305419921875
54.659423828125 72.6024169921875 -5.66796875
-8.280029296875 22.0841064453125 8.4757080078125
60.4765625 2.7908935546875 -23.182373046875
70.23486328125 -84.398193359375 -2.04150390625
12.47119140625 40.247802734375 5.7554931640625
52.832275390625 2.3624267578125 5.61083984375
24.463623046875 -26.056884765625 1.435546875
27.5087890625 -88.8671875 3.669189453125
47.7919921875 99.3731689453125 1.27783203125
24.138916015625 69.6861572265625 10.9202880859375
-5.462158203125 -51.2569580078125 -8.00048828125
51.36474609375 3.5179443359375 -16.0755615234375
48.1796875 27.734619140625 -9.5203857421875
-44.2177734375 0.7884521484375 1.4996337890625
44.900146484375 49.367919921875 5.0001220703125
65.18798828125 -74.7000732421875 2.1068115234375
-9.81396484375 37.844970703125 8.3856201171875
0.840576171875 -19.879150390625 1.8140869140625
-5.228515625 27.7767333984375 6.0589599609375
10.1015625 -45.8065185546875 -5.559326171875
-59.666748046875 25.3671875 -0.4954833984375
0.326416015625 53.379638671875 5.3441162109375
-59.266845703125 -14.6466064453125 1.3919677734375
57.8642578125 -52.5030517578125 -18.5458984375
50.59716796875 7.0792236328125 -14.811279296875
-25.618896484375 -44.0087890625 8.8897705078125
-72.320068359375 43.7747802734375 -2.1812744140625
6.544921875 82.0733642578125 24.2469482421875
53.2705078125 -84.3560791015625 -10.30859375
-9.36083984375 44.6568603515625 9.24658203125
24.310302734375 83.8485107421875 25.3778076171875
37.132080078125 26.80615234375 5.901611328125
-45.436279296875 7.9256591796875 0.3919677734375
37.08251953125 -41.7218017578125 5.2540283203125
-10.02734375 -10.676513671875 7.0848388671875
25.09814453125 26.855224609375 6.0625
47.480712890625 0.268310546875 5.9271240234375
-53.47802734375 24.4505615234375 -1.12353515625
-33.185302734375 -13.8924560546875 0.2607421875
-56.0107421875 -71.39013671875 12.1324462890625
4.30029296875 72.902587890625 22.2933349609375
53.35546875 78.1273193359375 -2.010009765625
38.841064453125 -37.2994384765625 4.019775390625
80.195068359375 -67.1998291015625 3.238037109375
-40.87451171875 -54.544921875 17.2071533203125
-42.404052734375 -19.64990234375 1.1131591796875
20.78369140625 -14.1116943359375 4.13134765625
60.83203125 -100.576416015625 -24.8438720703125
42.078125 29.7532958984375 6.009521484375
-58.623779296875 13.3428955078125 0.9715576171875
35.3466796875 -57.13037109375 2.0784912109375
36.66943359375 -28.904541015625 1.83056640625
-46.4345703125 -7.9503173828125 1.7637939453125
-46.20458984375 -64.0126953125 7.393798828125
30.673583984375 65.50048828125 6.98046875
31.277587890625 -100.0712890625 5.2799072265625
34.149169921875 -7.3330078125 6.7310791015625
21.151123046875 -22.737060546875 1.6260986328125
-5.02685546875 57.4892578125 7.0347900390625
57.58447265625 -21.866455078125 -19.1597900390625
-0.18359375 15.7642822265625 6.000732421875
-46.467529296875 -31.8314208984375 1.5550537109375
-9.960693359375 -44.7427978515625 4.906005859375
-4.396484375 -48.872802734375 -4.0595703125
4.85107421875 28.97607421875 5.8157958984375
30.0927734375 35.336669921875 5.6329345703125
45.37548828125 73.431884765625 0.5098876953125
-18.903564453125 -29.29541015625 1.3731689453125
47.6796875 -31.9617919921875 1.837890625
57.535400390625 45.1865234375 -15.1741943359375
45.884521484375 71.275390625 4.1435546875
12.103515625 71.740234375 14.0301513671875
65.46435546875 -53.96044921875 -20.76318359375
54.722412109375 -14.655029296875 -18.595458984375
57.564697265625 51.54345703125 -13.75732421875
-52.9970703125 -28.1793212890625 1.0054931640625
62.058837890625 34.2969970703125 5.4178466796875
-40.831298828125 -40.3671875 1.8558349609375
57.86962890625 -57.427001953125 -18.9241943359375
44.28955078125 54.939208984375 4.991943359375
-7.718017578125 -37.2733154296875 -9.636962890625
-44.622314453125 -58.529541015625 17.11767578125
45.0205078125 101.3927001953125 13.1767578125
11.70458984375 46.264404296875 5.5584716796875
7.748291015625 -17.7197265625 2.17529296875
44.707275390625 -65.451416015625 2.301025390625
-36.35791015625 -49.7301025390625 17.780029296875
45.3994140625 93.4332275390625 -2.0596923828125
39.724853515625 77.8380126953125 10.810546875
13.69482421875 83.9803466796875 25.577880859375
34.525390625 -14.1339111328125 4.25732421875
37.98828125 40.1744384765625 5.70654296875
-10.5107421875 -32.8719482421875 -4.701416015625
27.0400390625 -13.251953125 4.39404296875
32.150390625 82.6866455078125 22.9217529296875
63.620849609375 -84.735595703125 -0.36962890625
-20.2373046875 -48.0489501953125 -5.3592529296875
27.209716796875 46.3472900390625 5.464111328125
54.119140625 -22.240966796875 -17.602294921875
43.287109375 -6.6170654296875 7.0648193359375
-8.055908203125 -48.9288330078125 -10.755859375
47.096435546875 6.6041259765625 6.537841796875
45.71826171875 35.89111328125 5.576416015625
-43.332275390625 -24.5303955078125 1.3648681640625
-4.750732421875 -45.0450439453125 -9.194091796875
-46.507568359375 -61.455810546875 9.94970703125
20.712158203125 -87.736328125 2.401611328125
65.933837890625 -86.3175048828125 -21.175048828125
7.452392578125 53.41455078125 16.38330078125
36.97509765625 67.99169921875 8.8096923828125
57.063232421875 -68.14111328125 -16.2049560546875
1.07763671875 -27.7464599609375 -9.7591552734375
29.563720703125 -0.92431640625 6.8248291015625
9.6689453125 83.9031982421875 25.7342529296875
34.725341796875 -44.9959716796875 5.2523193359375
58.04345703125 -83.2125244140625 -11.800048828125
17.5400390625 -10.1195068359375 6.1790771484375
54.26513671875 59.1982421875 -6.84619140625
43.91162109375 96.5963134765625 4.606201171875
30.532470703125 -19.096435546875 1.822509765625
-40.0048828125 -12.234130859375 1.366943359375
37.324951171875 75.1976318359375 13.293701171875
42.024169921875 -62.1324462890625 2.510986328125
7.564697265625 58.7918701171875 8.83935546875
58.486083984375 67.7120361328125 -10.2509765625
36.6591796875 84.2696533203125 17.2578125
-50.03173828125 -81.24755859375 1.7099609375
21.6123046875 -80.4041748046875 2.228271484375
62.941650390625 -50.9976806640625 -18.3411865234375
57.56298828125 -87.1517333984375 -1.1483154296875
51.3857421875 36.244873046875 -13.5718994140625
50.687744140625 -100.6663818359375 -8.667724609375
55.3642578125 33.908935546875 5.5655517578125
42.6015625 -36.069580078125 2.262451171875
47.19775390625 59.5223388671875 -6.0235595703125
-68.143310546875 33.923095703125 -1.44384765625
63.478515625 26.3011474609375 5.6475830078125
53.67041015625 -26.9720458984375 -13.91259765625
-54.958984375 -22.2188720703125 0.6644287109375
-56.81787109375 5.101806640625 1.2685546875
23.734130859375 34.6334228515625 5.6558837890625
-4.328857421875 -10.2467041015625 5.9393310546875
37.37451171875 35.3526611328125 5.5706787109375
50.579833984375 -96.699462890625 -12.0218505859375
26.00537109375 -94.138671875 3.0997314453125
-6.3720703125 14.664306640625 6.7735595703125
41.45751953125 46.261474609375 5.2183837890625
1.5458984375 31.067138671875 5.73583984375
54.72314453125 43.182373046875 5.3353271484375
57.513427734375 -16.7340087890625 -18.7855224609375
-46.030029296875 -54.4359130859375 17.099853515625
-3.106689453125 2.6451416015625 6.57373046875
3.2783203125 -43.1419677734375 -4.5941162109375
-3.612060546875 -13.6817626953125 4.446044921875
-71.66796875 28.7734375 -0.88037109375
-5.480224609375 49.3621826171875 5.6837158203125
-42.299072265625 -48.93310546875 18.1011962890625
44.569580078125 12.53173828125 6.4285888671875
21.05908203125 -6.423583984375 6.9271240234375
26.87841796875 -105.513427734375 3.5989990234375
55.336669921875 -29.6826171875 -18.518798828125
57.939697265625 -71.700439453125 -11.544677734375
-9.6767578125 -39.1070556640625 -6.7198486328125
62.197509765625 -32.9091796875 -19.6781005859375
42.9921875 -27.9727783203125 1.953369140625
31.57861328125 78.734619140625 11.578125
-50.83056640625 -83.0711669921875 7.6734619140625
12.370361328125 -25.5364990234375 1.2490234375
-40.04345703125 -60.39794921875 8.5306396484375
61.40625 39.1690673828125 5.8492431640625
39.5458984375 86.3138427734375 4.2479248046875
24.451416015625 -87.7890625 2.5079345703125
49.52392578125 -26.4847412109375 1.691162109375
50.9072265625 18.313232421875 -15.6326904296875
36.90673828125 81.1722412109375 13.3424072265625
-62.109619140625 -5.9993896484375 2.5406494140625
-24.851806640625 -27.26513671875 0.1314697265625
-11.946044921875 -34.5648193359375 2.6187744140625
-45.94140625 -81.5899658203125 6.125244140625
48.275146484375 34.5264892578125 -7.64306640625
-3.43505859375 49.77099609375 13.7449951171875
-47.01904296875 -61.19287109375 16.5067138671875
54.833984375 -40.333984375 -14.7861328125
52.65771484375 -9.6129150390625 -16.8944091796875
60.43603515625 -85.650146484375 -25.3369140625
51.32763671875 -6.676513671875 7.1395263671875
-37.572998046875 -27.185791015625 1.791259765625
40.861572265625 88.1373291015625 17.5960693359375
10.321044921875 63.234375 6.2969970703125
-51.922607421875 -9.0931396484375 1.763671875
-0.848388671875 -30.8955078125 -1.37744140625
35.95849609375 20.63037109375 6.3153076171875
-0.827392578125 -29.7576904296875 -6.3570556640625
57.649658203125 20.850830078125 -17.99951171875
-24.728271484375 -69.841064453125 7.6865234375
60.56787109375 27.291259765625 -21.48046875
7.675537109375 87.4185791015625 29.283447265625
107.89794921875 -85.1729736328125 -14.6614990234375
4.8896484375 9.7091064453125 6.5108642578125
55.663818359375 -101.94482421875 -26.4993896484375
39.805419921875 -2.822021484375 6.7738037109375
-21.44287109375 -40.4051513671875 4.15576171875
37.0537109375 53.000732421875 5.4312744140625
21.769287109375 62.5316162109375 5.8250732421875
-21.1357421875 -40.1658935546875 0.2418212890625
79.76318359375 -81.325927734375 1.5330810546875
-2.31103515625 76.1044921875 21.7618408203125
56.76904296875 -84.6033935546875 -18.075927734375
57.086181640625 -47.146728515625 2.03857421875
75.342529296875 -85.9251708984375 -16.49609375
-37.851806640625 -17.90966796875 0.8656005859375
31.614990234375 49.43115234375 5.3836669921875
20.00439453125 2.146240234375 6.6849365234375
54.037841796875 -28.4306640625 1.556396484375
48.20263671875 39.1051025390625 -10.4947509765625
-45.903076171875 -69.3466796875 7.1121826171875
7.696044921875 22.7239990234375 6.344482421875
15.6728515625 48.5189208984375 5.7135009765625
52.109130859375 -67.769287109375 2.661865234375
-63.493896484375 19.325439453125 0.3472900390625
48.048095703125 -65.0377197265625 2.135009765625
37.825439453125 79.13134765625 3.7791748046875
4.119140625 -36.90771484375 -6.1763916015625
5.806884765625 -14.6556396484375 3.931396484375
59.6640625 -8.5516357421875 -19.4127197265625
48.55078125 50.1337890625 5.646484375
44.093994140625 98.0538330078125 12.068603515625
11.954833984375 55.3861083984375 5.6285400390625
66.8701171875 -33.7376708984375 -22.2701416015625
30.05126953125 21.954833984375 6.3216552734375
50.9990234375 -89.4954833984375 -10.3173828125
19.414306640625 44.8739013671875 5.470703125
5.89208984375 73.784912109375 16.435546875
49.14013671875 23.6304931640625 -13.399658203125
6.875244140625 66.838134765625 18.54931640625
-35.6533203125 -67.35009765625 -0.322265625
57.47607421875 28.501220703125 -15.1954345703125
-52.10107421875 -65.71923828125 7.305908203125
-47.966064453125 -74.227783203125 6.7198486328125
71.97314453125 -85.3587646484375 -14.550537109375
101.176025390625 -65.812744140625 -10.934814453125
-23.961669921875 -46.41748046875 -1.5838623046875
0.49365234375 -16.4957275390625 3.098876953125
-5.185302734375 11.3291015625 7.823486328125
47.161376953125 80.6058349609375 -0.2691650390625
10.681884765625 -20.205078125 1.43896484375
-51.46533203125 -69.1156005859375 7.71533203125
8.782470703125 78.0509033203125 20.807861328125
65.595458984375 -71.143798828125 -17.1260986328125
54.391845703125 69.2474365234375 -6.4869384765625
46.58544921875 71.1812744140625 -1.617431640625
56.157958984375 -106.451416015625 -11.8331298828125
-43.6953125 -86.1541748046875 -2.2642822265625
56.9326171875 39.0855712890625 -13.7222900390625
25.7060546875 -100.534423828125 2.1502685546875
55.588623046875 -34.680908203125 -12.06298828125
-68.075927734375 38.05859375 -1.4132080078125
51.857177734375 -2.092041015625 -16.2559814453125
103.214111328125 -84.603759765625 -12.643310546875
-28.90625 -69.3096923828125 7.4813232421875
-36.490478515625 -83.1416015625 -2.4754638671875
-61.424072265625 37.09619140625 -2.388671875
50.62353515625 20.73876953125 -7.8504638671875
23.05615234375 5.3304443359375 6.6995849609375
-12.15869140625 80.6544189453125 24.176025390625
-9.914306640625 77.6766357421875 21.350830078125
50.8349609375 -100.1907958984375 -22.2318115234375
49.04345703125 21.5899658203125 6.0914306640625
46.92529296875 68.189697265625 4.0714111328125
5.7109375 70.849365234375 24.391357421875
13.7626953125 29.7578125 6.073486328125
81.010009765625 -77.2545166015625 1.935546875
22.4736328125 -102.0926513671875 2.789794921875
62.771728515625 -100.7344970703125 -27.44873046875
-31.25 -82.5986328125 -5.838134765625
47.805908203125 57.3956298828125 5.673583984375
-0.376220703125 -31.6396484375 -11.1983642578125
-51.677490234375 7.26025390625 1.1475830078125
46.39111328125 -120.1451416015625 9.151123046875
-8.54052734375 10.7403564453125 10.2557373046875
66.8515625 -86.9996337890625 -4.99267578125
7.649658203125 57.633544921875 11.8594970703125
-6.288818359375 8.154296875 7.08935546875
-55.0986328125 -86.3553466796875 9.1279296875
55.3515625 -33.1385498046875 -18.3026123046875
13.386474609375 61.2091064453125 5.811279296875
-24.3076171875 -72.3634033203125 3.2052001953125
-9.557373046875 -32.794921875 -7.7816162109375
-67.854736328125 25.538330078125 -0.8292236328125
-2.5732421875 87.0853271484375 29.7642822265625
-39.38623046875 -50.68798828125 17.2275390625
45.14404296875 67.4227294921875 7.9281005859375
71.004638671875 -88.0264892578125 -16.2615966796875
35.187255859375 -72.452392578125 2.7088623046875
55.341064453125 -43.3485107421875 -13.78369140625
-39.4248046875 -84.539794921875 -5.666015625
77.370849609375 -85.865966796875 -13.4383544921875
59.3349609375 57.9281005859375 -13.2547607421875
41.839111328125 -122.68310546875 9.6556396484375
-52.4306640625 -16.2744140625 0.982421875
0.8720703125 -45.3917236328125 -6.9693603515625
-43.391357421875 -68.4427490234375 -1.8541259765625
-61.408935546875 4.675537109375 1.7025146484375
31.747802734375 83.1702880859375 12.3050537109375
-5.672119140625 33.42041015625 5.5302734375
5.013916015625 69.57763671875 17.5150146484375
-43.6015625 -75.4111328125 6.6915283203125
-12.229248046875 85.3509521484375 29.5911865234375
5.73193359375 -31.63232421875 -1.8155517578125
20.42236328125 27.8121337890625 5.737548828125
-45.51806640625 -17.5941162109375 0.9532470703125
32.798583984375 -23.259765625 1.438232421875
27.347412109375 69.9061279296875 10.993896484375
29.929443359375 52.10791015625 5.03564453125
67.12744140625 -84.6834716796875 1.9871826171875
-39.6083984375 -67.6776123046875 5.5338134765625
19.06591796875 58.313232421875 5.428466796875
60.10595703125 40.034912109375 -18.3638916015625
2.161376953125 -49.2757568359375 -7.3397216796875
-31.58349609375 -49.600341796875 1.9736328125
59.67724609375 -97.633544921875 -25.1771240234375
66.052001953125 -61.66357421875 2.36474609375
77.616943359375 -84.4927978515625 -1.8646240234375
38.415283203125 79.5003662109375 8.4425048828125
18.5576171875 32.27099609375 5.77392578125
-69.241455078125 22.3026123046875 0.3199462890625
54.515625 -21.548828125 0.298095703125
-58.078369140625 -21.370361328125 -0.8651123046875
-0.416259765625 89.6317138671875 32.393798828125
34.562744140625 -66.4951171875 2.6573486328125
33.924072265625 14.8447265625 6.287109375
48.09619140625 92.4058837890625 -5.851318359375
-7.893310546875 2.86962890625 6.894287109375
-48.9287109375 -10.9017333984375 1.4805908203125
11.333740234375 -9.2796630859375 6.3695068359375
-55.829833984375 -75.92626953125 8.6075439453125
-24.71337890625 -45.1055908203125 1.1868896484375
36.506591796875 -95.19384765625 2.826904296875
-3.770751953125 -25.558837890625 2.1646728515625
-8.668212890625 -48.1715087890625 0.4622802734375
-5.35302734375 22.4969482421875 5.8338623046875
56.40234375 -69.8192138671875 2.3212890625
-49.91259765625 -73.723876953125 -4.1021728515625
-65.09619140625 8.9459228515625 1.4107666015625
13.697021484375 -48.42333984375 -4.6231689453125
84.832275390625 -85.2196044921875 2.3038330078125
42.40234375 -0.2637939453125 6.9124755859375
102.15234375 -100.38671875 -10.2921142578125
2.2587890625 35.6988525390625 5.865478515625
96.623291015625 -77.8759765625 -11.5885009765625
65.857421875 32.5859375 5.43115234375
58.32861328125 -27.435791015625 -19.2354736328125
22.739990234375 19.556396484375 6.2264404296875
35.1650390625 48.1397705078125 5.926513671875
1.830322265625 72.8675537109375 15.71142578125
-39.40673828125 -20.6019287109375 0.7547607421875
62.63720703125 -88.93408203125 2.4510498046875
-59.449462890625 -2.304443359375 2.54248046875
21.2744140625 38.79541015625 5.8028564453125
47.7138671875 -123.1982421875 9.2125244140625
80.433349609375 -84.9349365234375 1.630859375
50.009033203125 48.5205078125 -10.2279052734375
50.1953125 -8.5577392578125 -10.58203125
-64.986083984375 42.0316162109375 -2.634765625
61.3466796875 -52.8004150390625 2.4532470703125
-33.995361328125 -16.532958984375 -1.1513671875
64.00830078125 -97.5054931640625 4.740478515625
41.8115234375 -13.59033203125 4.477294921875
56.37255859375 -94.9031982421875 -1.7384033203125
55.4853515625 -84.6890869140625 -8.174072265625
-1.8896484375 45.3692626953125 5.5118408203125
49.677734375 39.548828125 6.083984375
37.4326171875 -19.781005859375 1.7747802734375
72.541259765625 -80.673583984375 2.4959716796875
29.677001953125 73.0277099609375 13.301025390625
-7.678466796875 -35.8751220703125 -2.71875
37.313232421875 -68.5758056640625 1.5906982421875
-13.009765625 -30.6539306640625 0.732666015625
17.9189453125 23.1785888671875 5.926025390625
58.156005859375 -35.03955078125 -19.4483642578125
-50.3916015625 -79.8626708984375 -1.2618408203125
-6.71728515625 -44.2293701171875 5.4359130859375
20.98876953125 -91.3756103515625 1.9072265625
37.512939453125 -9.48193359375 6.125732421875
-25.857177734375 -58.64013671875 2.52783203125
-14.37646484375 80.7413330078125 28.22607421875
2.533935546875 85.6636962890625 28.2447509765625
34.2890625 75.631591796875 13.376953125
-36.893310546875 -10.349853515625 1.556396484375
-9.179931640625 45.053466796875 5.9498291015625
48.359619140625 68.109619140625 7.922119140625
45.254150390625 -41.9161376953125 1.4295654296875
8.4345703125 -42.474365234375 -5.8690185546875
43.316650390625 5.431640625 6.3026123046875
43.558349609375 84.5430908203125 -3.177734375
35.347900390625 -48.0399169921875 1.5655517578125
37.444091796875 -23.0263671875 1.60888671875
19.874755859375 -82.8447265625 1.6431884765625
42.117919921875 108.0584716796875 18.7672119140625
52.8330078125 -88.0101318359375 -5.2191162109375
107.107177734375 -89.720947265625 -18.087890625
-34.408935546875 -51.986572265625 17.17578125
-2.6640625 52.82763671875 5.300537109375
-14.78515625 87.6846923828125 32.1468505859375
14.744873046875 88.7464599609375 30.16650390625
-6.18603515625 16.994873046875 8.707763671875
43.545654296875 16.990478515625 6.115234375
35.207275390625 61.3212890625 5.310302734375
62.85595703125 -4.099609375 -24.9532470703125
-52.1572265625 -65.9561767578125 11.8387451171875
26.436279296875 58.8377685546875 5.197509765625
42.9384765625 -16.9091796875 3.0093994140625
-32.783447265625 -56.1842041015625 14.4906005859375
57.47607421875 31.4263916015625 -18.121826171875
52.864013671875 42.9559326171875 -11.8726806640625
59.8857421875 -3.4898681640625 -21.22021484375
68.82275390625 -76.526611328125 -16.9468994140625
56.099853515625 39.732421875 5.392822265625
49.62255859375 17.586181640625 -9.4984130859375
-49.145751953125 -22.23974609375 0.835693359375
-34.74560546875 -58.5924072265625 12.3218994140625
49.2021484375 -14.2706298828125 4.1409912109375
66.4921875 -88.0726318359375 -18.509765625
22.375 -20.004638671875 1.4967041015625
58.686767578125 7.787353515625 -19.0186767578125
60.25048828125 -80.1387939453125 2.229736328125
-36.49267578125 -87.9969482421875 -5.359619140625
6.3544921875 71.51123046875 14.09228515625
65.33984375 -55.0267333984375 1.90966796875
-47.169921875 0.4029541015625 1.7989501953125
-29.8876953125 -79.9365234375 -5.897705078125
17.296875 -28.4014892578125 1.56396484375
50.770263671875 -85.025634765625 -15.1527099609375
5.412353515625 -35.97265625 -9.564453125
-40.589599609375 -6.98291015625 1.9366455078125
63.09326171875 -87.0418701171875 -8.463623046875
75.455322265625 -79.3214111328125 2.033447265625
-38.38525390625 -42.0406494140625 1.5482177734375
46.016357421875 66.5772705078125 -1.776611328125
41.25244140625 81.8123779296875 -0.2685546875
-49.080810546875 -28.1331787109375 1.272216796875
-34.649169921875 -73.2723388671875 -8.1058349609375
57.31103515625 -63.495361328125 -18.197998046875
3.8701171875 15.80419921875 6.12744140625
30.12451171875 -12.3861083984375 4.7384033203125
52.5576171875 56.4813232421875 -8.7947998046875
23.119873046875 -94.3790283203125 2.475830078125
47.116943359375 -19.421142578125 2.253662109375
-34.388916015625 -81.0732421875 -3.49560546875
53.7890625 65.014404296875 -4.9024658203125
19.65478515625 -32.247802734375 1.304931640625
7.474365234375 54.5430908203125 13.390869140625
30.8173828125 -26.189453125 1.6256103515625
18.320556640625 79.9398193359375 20.899658203125
-55.4541015625 -18.1138916015625 0.7974853515625
61.274658203125 -97.344482421875 0.703857421875
71.710693359375 -61.1092529296875 1.810302734375
23.22998046875 80.1612548828125 20.7396240234375
39.64892578125 -35.1612548828125 2.1602783203125
52.44580078125 -97.1607666015625 -19.6832275390625
42.159423828125 91.2491455078125 -0.484130859375
14.5263671875 -15.6658935546875 3.330322265625
-72.328369140625 22.3868408203125 0.753173828125
12.4697265625 75.771728515625 17.789794921875
94.255615234375 -75.8226318359375 -11.0107421875
16.660888671875 63.5675048828125 6.46337890625
52.521728515625 -6.2381591796875 -17.1695556640625
53.0390625 -121.2044677734375 9.07275390625
-39.31640625 -33.35986328125 1.531494140625
3.42578125 -2.9285888671875 7.0540771484375
-43.90234375 -36.7158203125 1.333984375
-52.492431640625 -74.1873779296875 7.5263671875
-8.00390625 -40.223388671875 3.8604736328125
45.887939453125 42.2034912109375 5.57080078125
-63.349609375 31.548095703125 -1.60205078125
7.928466796875 25.6368408203125 6.1390380859375
40.6728515625 91.1834716796875 3.418701171875
50.7705078125 69.7047119140625 -3.9217529296875
0.72607421875 24.27197265625 5.916259765625
51.9560546875 -71.7274169921875 2.355224609375
48.194580078125 -73.7381591796875 1.730712890625
-12.129638671875 -27.017822265625 2.25830078125
31.358642578125 -97.4832763671875 3.9210205078125
65.2880859375 -45.2264404296875 -21.1051025390625
53.6435546875 5.8466796875 6.717529296875
19.838623046875 18.173095703125 5.896240234375
51.17724609375 54.7496337890625 5.5179443359375
51.417236328125 -3.91943359375 -12.430908203125
15.999267578125 12.2425537109375 6.197998046875
30.977783203125 8.822998046875 6.672607421875
62.53857421875 -8.3983154296875 -24.0830078125
8.35009765625 58.87109375 5.8651123046875
41.252685546875 76.1441650390625 4.1451416015625
21.225341796875 9.6954345703125 6.3155517578125
42.30810546875 71.73193359375 10.15283203125
93.744873046875 -72.11865234375 -15.0682373046875
9.4599609375 33.03564453125 5.9619140625
6.64892578125 44.7506103515625 5.6627197265625
-62.52734375 7.336669921875 1.4002685546875
50.9287109375 -92.2291259765625 -16.0767822265625
100.68408203125 -62.9359130859375 -10.9208984375
4.176513671875 -44.573974609375 -8.7972412109375
30.85302734375 14.6671142578125 6.419921875
57.708251953125 29.1876220703125 5.5904541015625
47.781494140625 32.6102294921875 5.58349609375
53.991943359375 25.1981201171875 5.6988525390625
34.288818359375 -51.20556640625 2.28271484375
17.389404296875 -88.327392578125 3.4761962890625
61.515625 -67.77490234375 -17.903564453125
-22.78857421875 -25.4151611328125 0.954833984375
66.69189453125 27.8719482421875 5.55517578125
-17.154541015625 -26.7320556640625 3.3760986328125
-9.2744140625 53.164306640625 8.2291259765625
60.225341796875 -86.775390625 -6.3599853515625
43.33740234375 87.5179443359375 19.3819580078125
2.96240234375 78.2088623046875 20.7442626953125
46.69775390625 98.1094970703125 8.7481689453125
-32.463623046875 -73.953857421875 -5.9007568359375
-66.130859375 13.6552734375 0.728271484375
47.37890625 13.7757568359375 6.1513671875
19.6611328125 -92.9984130859375 5.5760498046875
52.575439453125 -20.790771484375 -15.43212890625
-4.69384765625 83.2442626953125 26.3076171875
-6.47265625 41.918701171875 6.59716796875
43.707763671875 105.7008056640625 15.68017578125
41.58251953125 56.5003662109375 5.4061279296875
-6.39013671875 -38.453125 -2.5240478515625
54.247314453125 -100.7503662109375 -21.5631103515625
-29.095947265625 -71.5291748046875 4.5308837890625
61.671875 -21.77734375 -19.0313720703125
53.51708984375 -88.8802490234375 -20.5355224609375
-18.197998046875 -40.7293701171875 7.0159912109375
11.08447265625 -31.4395751953125 1.2144775390625
27.29638671875 80.6383056640625 17.0347900390625
57.433837890625 -38.5672607421875 -19.606201171875
-10.307373046875 24.0360107421875 7.3236083984375
8.997802734375 65.918212890625 8.2020263671875
46.406494140625 86.8677978515625 20.62109375
57.578857421875 -110.01416015625 -11.8585205078125
44.68310546875 -76.7406005859375 2.1812744140625
50.441162109375 69.6641845703125 9.1246337890625
-53.05908203125 21.6973876953125 -0.4674072265625
-7.681884765625 -44.807861328125 1.6016845703125
-6.97412109375 -16.7039794921875 3.3018798828125
74.54052734375 -64.104248046875 2.0614013671875
62.85302734375 -72.9637451171875 2.004150390625
40.265869140625 80.056884765625 12.5262451171875
-47.076171875 -78.0794677734375 7.73876953125
-23.876708984375 -73.2757568359375 7.6846923828125
68.06884765625 -65.332763671875 2.68212890625
-46.139404296875 -24.703369140625 0.9403076171875
62.39306640625 -87.702880859375 -25.54541015625
62.44580078125 50.50244140625 -14.1094970703125
2.491943359375 7.5760498046875 6.8475341796875
12.068603515625 -13.9569091796875 4.3134765625
-10.174560546875 -13.250732421875 5.5821533203125
52.808349609375 -96.3917236328125 -5.7557373046875
17.50537109375 26.331787109375 5.82421875
-5.2353515625 -3.0906982421875 6.9588623046875
23.874267578125 37.455322265625 5.8614501953125
-6.135009765625 46.786865234375 15.081787109375
16.492919921875 -38.42333984375 1.6251220703125
-22.66796875 -41.9862060546875 7.9658203125
-31.5302734375 -55.1397705078125 5.5845947265625
25.722900390625 -97.5789794921875 2.7919921875
36.285888671875 -99.5877685546875 1.9844970703125
33.623291015625 34.9154052734375 5.7542724609375
52.662109375 25.958251953125 -15.5252685546875
65.455322265625 -85.14404296875 -23.832275390625
102.208740234375 -71.47998046875 -11.451171875
3.3466796875 2.9041748046875 6.743408203125
-56.271240234375 -81.74072265625 9.2742919921875
56.179443359375 36.04736328125 -12.5352783203125
66.016357421875 -66.06005859375 -19.0054931640625
17.970703125 55.4410400390625 5.5574951171875
25.19921875 65.8472900390625 7.448486328125
-52.836669921875 -80.3846435546875 7.779052734375
51.7353515625 28.6312255859375 5.626953125
20.767578125 -99.8919677734375 2.424560546875
29.762939453125 -92.96142578125 2.736083984375
8.851318359375 -29.5072021484375 1.4234619140625
37.183837890625 -74.364501953125 2.218994140625
24.388671875 78.925537109375 16.17919921875
35.48779296875 -46.7293701171875 -1.1923828125
50.908447265625 -94.1358642578125 -10.66943359375
5.150390625 -20.1119384765625 1.9833984375
34.13232421875 -89.09228515625 2.82177734375
62.428466796875 -58.9766845703125 2.642822265625
27.620361328125 -90.1396484375 1.17578125
53.829833984375 -27.15673828125 -16.7008056640625
-10.47900390625 26.5382080078125 5.9825439453125
98.484130859375 -76.4910888671875 -13.683837890625
0.632568359375 -33.159912109375 -5.215576171875
52.195068359375 -104.3843994140625 -18.81982421875
-2.408203125 10.703369140625 8.99462890625
-8.14013671875 -3.5849609375 7.0296630859375
54.77734375 -9.9871826171875 -18.6685791015625
46.734130859375 -69.3544921875 1.687744140625
9.225830078125 47.5303955078125 5.5028076171875
23.360595703125 76.27197265625 18.95458984375
31.96337890625 -67.3472900390625 3.1551513671875
62.768798828125 -74.8538818359375 -17.32568359375
55.8173828125 -84.9512939453125 -14.06787109375
24.88427734375 49.635009765625 5.2158203125
52.844482421875 -76.936767578125 2.5355224609375
19.874755859375 21.1256103515625 6.041259765625
-51.949951171875 11.9210205078125 1.001708984375
-46.95263671875 -49.0611572265625 17.831787109375
53.033447265625 -100.0970458984375 -3.30615234375
32.23291015625 -56.4818115234375 3.329833984375
59.553466796875 -66.17236328125 2.1944580078125
3.703857421875 -46.76513671875 -11.478515625
-24.990966796875 -50.7998046875 1.819091796875
33.30078125 55.447509765625 5.2860107421875
52.447265625 -15.59228515625 -13.697265625
-5.250732421875 -46.7215576171875 -11.842529296875
73.912841796875 -83.7257080078125 -0.0941162109375
26.478271484375 3.9442138671875 6.7142333984375
41.6357421875 95.4212646484375 9.3087158203125
35.97705078125 -46.9423828125 -4.3160400390625
36.933837890625 4.1640625 6.95263671875
49.546630859375 15.5057373046875 -11.5142822265625
44.72216796875 32.7579345703125 5.7763671875
7.888427734375 49.19677734375 18.276611328125
38.7802734375 82.0225830078125 3.593017578125
56.59423828125 -92.806884765625 -23.3035888671875
16.4404296875 72.6954345703125 14.4197998046875
50.40673828125 58.237060546875 3.9791259765625
39.82470703125 82.5535888671875 14.1488037109375
-9.01953125 46.91552734375 10.784423828125
-38.0390625 -58.31884765625 16.721923828125
-51.109130859375 16.8607177734375 -0.5286865234375
-37.95556640625 -59.7626953125 13.9971923828125
47.3056640625 -28.8970947265625 1.8131103515625
-32.821533203125 -78.59619140625 -3.4349365234375
49.927734375 -43.7503662109375 1.876953125
-54.500732421875 -69.6295166015625 7.6053466796875
6.64208984375 -6.5185546875 6.97705078125
17.79736328125 -80.29248046875 2.0577392578125
100.6796875 -87.49951171875 -8.333251953125
15.09912109375 51.183349609375 5.501220703125
36.365478515625 -0.54736328125 6.8751220703125
43.7177734375 102.8121337890625 15.1138916015625
-23.748779296875 -44.251953125 -4.1300048828125
8.926025390625 11.6094970703125 6.2042236328125
58.6240234375 16.876220703125 -21.04345703125
48.9365234375 -62.4593505859375 2.25830078125
3.55908203125 90.0811767578125 32.3221435546875
58.21142578125 -78.727783203125 -15.9102783203125
-33.2705078125 -64.434814453125 7.6405029296875
-38.936279296875 -1.1895751953125 1.2965087890625
4.497802734375 87.1053466796875 29.466796875
3.995361328125 80.777099609375 23.1126708984375
7.11572265625 31.4334716796875 5.8831787109375
-6.99560546875 12.0013427734375 12.537109375
64.511962890625 -15.3519287109375 -25.619384765625
-71.847412109375 33.005859375 0.5771484375
7.959228515625 3.1658935546875 6.7030029296875
59.7529296875 14.0411376953125 -17.0621337890625
-31.241943359375 -56.959228515625 7.581787109375
14.095458984375 18.572265625 6.2694091796875
58.364013671875 -84.712890625 -23.2880859375
20.312255859375 -56.0045166015625 -2.2637939453125
27.12451171875 74.45458984375 13.6632080078125
68.337158203125 -57.7864990234375 1.2855224609375
23.367919921875 73.2860107421875 14.9544677734375
61.447021484375 29.7371826171875 5.27001953125
19.482421875 85.4671630859375 27.3341064453125
-54.62548828125 -69.2127685546875 13.0142822265625
62.68115234375 -98.5526123046875 -25.7939453125
-32.40283203125 -86.2547607421875 -6.1412353515625
30.4140625 83.2547607421875 20.64208984375
-52.30322265625 -89.2257080078125 11.8760986328125
7.605712890625 66.2620849609375 25.016845703125
56.783935546875 -61.9488525390625 -15.88671875
6.330810546875 -12.1302490234375 5.236083984375
57.72314453125 -71.2841796875 -17.097412109375
41.811767578125 23.4813232421875 5.5274658203125
36.2421875 -47.71044921875 8.3978271484375
41.211669921875 -48.134521484375 -5.4549560546875
43.97216796875 39.1102294921875 5.2734375
31.328857421875 -28.8311767578125 1.7745361328125
22.050048828125 49.7115478515625 5.4013671875
99.44482421875 -81.6104736328125 -11.059814453125
13.06640625 26.2606201171875 5.9857177734375
-10.20556640625 48.83984375 7.994873046875
36.21630859375 -64.1500244140625 2.2021484375
-6.802001953125 -41.08154296875 0.3760986328125
39.734619140625 89.7305908203125 11.41748046875
-56.4814453125 -2.8372802734375 2.313720703125
-0.943359375 -0.977294921875 6.8330078125
-10.38232421875 13.578369140625 7.4615478515625
54.45947265625 -18.33447265625 2.3895263671875
41.15966796875 -38.333984375 2.327392578125
-47.2705078125 -90.7508544921875 7.5985107421875
-11.541015625 -34.1640625 -8.9619140625
-20.23828125 -45.4200439453125 -4.827880859375
-32.034912109375 -60.4461669921875 6.5931396484375
-33.91650390625 -76.2269287109375 -4.044921875
-31.284912109375 -70.7933349609375 6.0035400390625
-21.9345703125 -68.7646484375 7.051025390625
26.7021484375 41.880615234375 5.857666015625
21.110595703125 -97.0198974609375 2.7366943359375
5.50927734375 64.1505126953125 10.3961181640625
105.834228515625 -84.0008544921875 -13.4349365234375
3.4990234375 56.099609375 5.982666015625
57.281005859375 -69.9410400390625 -14.2437744140625
16.80078125 40.8248291015625 5.5894775390625
63.970947265625 -63.681640625 2.1553955078125
-51.786376953125 -91.510498046875 8.0062255859375
70.421142578125 -85.2423095703125 -21.9107666015625
14.227294921875 42.55615234375 5.5274658203125
-47.689697265625 -71.3277587890625 -1.340576171875
45.17529296875 -13.588623046875 4.3973388671875
-37.962158203125 -46.0262451171875 1.7572021484375
41.900146484375 63.2879638671875 5.512939453125
-43.207763671875 6.4713134765625 0.4786376953125
74.7470703125 -85.490966796875 -13.6890869140625
47.398193359375 -36.2247314453125 1.9287109375
-58.13232421875 29.7025146484375 -1.5543212890625
26.68701171875 -86.3594970703125 2.3248291015625
4.908935546875 -38.5447998046875 -8.1175537109375
-62.057373046875 26.49072265625 -0.7847900390625
-42.89013671875 -56.2733154296875 17.30078125
-18.695068359375 -41.151123046875 -4.7109375
77.485107421875 -85.826904296875 -18.49951171875
87.01708984375 -71.381103515625 4.3896484375
-8.609619140625 -6.1441650390625 8.934326171875
60.288330078125 -93.6927490234375 -25.0611572265625
-23.085205078125 -41.2156982421875 2.24267578125
58.136962890625 -119.7294921875 9.285400390625
54.946044921875 78.576416015625 -4.2159423828125
58.456298828125 -41.5860595703125 -19.336669921875
44.653564453125 88.3765869140625 -6.1942138671875
-3.1025390625 26.1612548828125 5.943603515625
54.439453125 -34.364990234375 -14.5452880859375
59.8623046875 -112.76708984375 -15.5247802734375
-8.841796875 45.486572265625 13.001953125
-42.3994140625 -13.5919189453125 1.1822509765625
59.8408203125 -84.62353515625 -10.47265625
27.90625 14.128662109375 6.135009765625
-45.749267578125 -66.77099609375 7.6749267578125
60.186767578125 -11.8992919921875 -19.8994140625
48.646484375 97.6414794921875 -0.522216796875
66.67578125 -89.8173828125 -26.142333984375
94.54345703125 -78.6884765625 -14.221923828125
57.9697265625 -80.5804443359375 -11.6531982421875
56.76708984375 73.152587890625 -7.1865234375
45.8466796875 53.7176513671875 -2.2567138671875
36.84814453125 -43.0009765625 -2.6650390625
-46.87353515625 -69.20068359375 -4.451904296875
-36.634033203125 -59.5982666015625 8.8265380859375
47.917236328125 -24.4132080078125 1.9161376953125
23.0537109375 22.48486328125 6.0787353515625
23.83203125 -1.2664794921875 6.8524169921875
7.546630859375 -21.061767578125 1.4730224609375
65.883544921875 -60.8006591796875 -19.14404296875
63.91552734375 -48.73388671875 -20.607177734375
57.217041015625 -65.5052490234375 -11.97314453125
-1.535400390625 -28.5968017578125 -0.311767578125
55.09375 3.6767578125 5.946533203125
61.294677734375 -65.115966796875 -17.8082275390625
3.228515625 -8.52490234375 6.7618408203125
-44.395751953125 -11.4892578125 1.7041015625
80.16455078125 -74.7841796875 2.1881103515625
53.21044921875 21.2423095703125 5.0484619140625
15.45703125 21.4677734375 6.258544921875
-5.34765625 -29.654052734375 1.5787353515625
2.595703125 -49.5914306640625 -9.9029541015625
-41.14306640625 -37.2630615234375 1.2525634765625
-6.824951171875 39.4219970703125 5.8912353515625
-28.708984375 -54.418212890625 1.804931640625
14.418212890625 67.1312255859375 9.2010498046875
69.2744140625 -84.2420654296875 0.5611572265625
98.852294921875 -83.262939453125 -6.7720947265625
-6.678955078125 -46.792236328125 -9.43310546875
52.338134765625 14.7523193359375 5.598388671875
17.08740234375 74.8173828125 16.1531982421875
-8.52734375 -8.577880859375 6.673828125
61.07958984375 18.675048828125 -22.89013671875
52.64306640625 -74.2353515625 2.5810546875
70.848388671875 -83.0345458984375 -14.930908203125
11.537353515625 2.0543212890625 6.89892578125
-1.590087890625 79.8243408203125 22.681396484375
-40.0771484375 -27.4586181640625 1.13671875
58.864990234375 60.3436279296875 -12.40869140625
-50.17529296875 23.033203125 -1.14306640625
22.79052734375 -4.486572265625 7.0560302734375
-6.1279296875 -0.0821533203125 6.963623046875
40.0048828125 42.63623046875 8.2813720703125
56.30126953125 63.5966796875 -9.0224609375
57.294677734375 -49.73388671875 1.9925537109375
-53.589599609375 -24.3837890625 1.083984375
39.838623046875 -68.6431884765625 2.46923828125
-56.4765625 -84.3770751953125 10.082763671875
3.621337890625 -13.4068603515625 4.548583984375
-71.088134765625 38.2005615234375 -0.1656494140625
23.771240234375 44.164306640625 5.666259765625
