-98.0830078125 -39.481201171875 17.98876953125
29.034912109375 90.8626708984375 3.21142578125
-24.90478515625 -2.34375 -5.7906494140625
20.378662109375 85.8375244140625 -0.1466064453125
-22.723388671875 -39.7830810546875 -24.75830078125
24.03466796875 -81.6204833984375 -13.7047119140625
-3.213134765625 -109.9805908203125 -12.977783203125
-28.43212890625 -58.462158203125 -15.5296630859375
-12.92724609375 -8.0318603515625 -5.9365234375
-21.6748046875 -51.006103515625 -23.8216552734375
66.038330078125 23.5120849609375 -25.7041015625
64.530517578125 -2.07177734375 -22.7513427734375
-32.15185546875 -13.0682373046875 -3.994140625
-58.349853515625 -72.8421630859375 -4.2850341796875
-44.692626953125 -48.3143310546875 -17.238037109375
-68.674560546875 -1.8013916015625 -9.5172119140625
-73.89697265625 17.7943115234375 -11.4708251953125
-70.039794921875 -11.967529296875 -8.14111328125
17.15185546875 -34.075927734375 -12.817626953125
4.5166015625 -65.3397216796875 -12.534912109375
21.3076171875 -130.2496337890625 -7.27734375
-10.93115234375 73.0328369140625 10.991943359375
34.044189453125 95.6783447265625 8.95068359375
-5.569091796875 0.50927734375 -6.408203125
-14.094970703125 48.738525390625 -2.5440673828125
32.9794921875 16.5447998046875 -8.709716796875
14.26416015625 60.6600341796875 -3.15478515625
38.20361328125 104.5377197265625 13.816650390625
-91.25634765625 22.033935546875 -10.274658203125
-74.370361328125 -98.6131591796875 -4.1328125
-5.14453125 35.571044921875 -6.55859375
38.65673828125 -72.260498046875 -13.995849609375
10.230224609375 5.1676025390625 -6.6824951171875
79.2763671875 -108.29638671875 -28.8958740234375
-17.275146484375 71.7464599609375 10.083740234375
69.744384765625 -106.14404296875 -27.4835205078125
-15.792236328125 -115.642822265625 4.48095703125
-73.028076171875 -46.106689453125 12.8477783203125
19.29150390625 26.933837890625 -7.37841796875
77.488037109375 -72.4019775390625 -27.0677490234375
26.252685546875 -104.1173095703125 -25.974853515625
-58.35791015625 -134.23046875 5.88427734375
55.76220703125 -79.6932373046875 -15.1541748046875
-56.640625 -78.4957275390625 -8.9598388671875
26.755615234375 -102.3365478515625 -34.072509765625
-67.57275390625 -41.021484375 15.0001220703125
-59.935302734375 -67.10009765625 2.0367431640625
-74.20947265625 -84.773193359375 -5.244873046875
-9.92919921875 30.3126220703125 -6.3221435546875
-1.322265625 -89.2752685546875 -12.5394287109375
49.234130859375 -68.2044677734375 -14.37158203125
-3.9599609375 -104.4044189453125 4.40625
-67.958740234375 -60.626953125 5.74755859375
61.417236328125 36.0211181640625 -25.0716552734375
-53.54443359375 -39.155029296875 -10.1444091796875
-15.03466796875 -30.4483642578125 20.3143310546875
-29.91796875 77.365966796875 20.9862060546875
36.065185546875 -82.2662353515625 -14.0841064453125
61.81201171875 38.140380859375 -15.0196533203125
10.230712890625 -65.5771484375 -12.7125244140625
32.95361328125 -87.7198486328125 -31.2811279296875
-87.5419921875 -69.6373291015625 6.9083251953125
-59.201171875 -19.404541015625 -9.6761474609375
17.73193359375 41.63037109375 -7.841552734375
-6.250732421875 -119.5810546875 4.16162109375
3.044189453125 71.3834228515625 8.2347412109375
-0.902587890625 -44.4530029296875 -11.97900390625
-26.730712890625 29.1300048828125 -5.7100830078125
9.252197265625 22.511474609375 -7.0260009765625
40.01904296875 -93.497802734375 -14.071533203125
55.755126953125 -96.66064453125 -18.708251953125
7.6552734375 34.8101806640625 -6.970458984375
80.124755859375 -36.008544921875 -31.9603271484375
76.0859375 -97.398681640625 -28.419189453125
26.495849609375 62.9757080078125 -8.45556640625
-58.4482421875 -58.2421875 -8.2086181640625
-31.000732421875 -49.3194580078125 -17.98193359375
-24.48046875 -34.7958984375 -15.4178466796875
-111.39453125 42.3084716796875 -10.4677734375
6.099853515625 -119.781005859375 3.477783203125
-32.15185546875 -42.33056640625 -17.7626953125
-76.773681640625 -35.0145263671875 -8.841064453125
-4.10302734375 -133.8133544921875 3.7969970703125
-21.44287109375 -42.6575927734375 13.4676513671875
7.28173828125 -95.5418701171875 -12.2774658203125
-68.652099609375 -121.5880126953125 5.71533203125
-30.90625 36.6767578125 -5.4598388671875
35.227783203125 29.0430908203125 -8.44970703125
24.953125 -7.91455078125 -7.2825927734375
-70.8212890625 -76.7469482421875 -3.880126953125
11.64111328125 77.265625 13.4661865234375
-89.818603515625 -46.327392578125 13.234130859375
21.948974609375 -57.1148681640625 -19.3714599609375
24.322998046875 16.9915771484375 -7.592041015625
17.662841796875 -0.106689453125 -4.11376953125
21.460205078125 -44.8680419921875 -12.74072265625
-79.622314453125 -60.9898681640625 6.5206298828125
-32.798828125 -35.9073486328125 -17.7041015625
-50.7646484375 -64.7791748046875 -10.1876220703125
25.2158203125 33.9951171875 -8.0322265625
-51.310302734375 -71.8594970703125 -4.9432373046875
-27.539306640625 11.76953125 -5.460205078125
-35.611083984375 -50.274169921875 -10.9578857421875
33.386474609375 -64.2864990234375 -13.1265869140625
-80.5009765625 -40.433837890625 16.5655517578125
-55.37451171875 -52.5196533203125 -9.9100341796875
-95.31494140625 32.59912109375 -9.748046875
78.632080078125 -92.454833984375 -17.905517578125
-14.296142578125 85.8560791015625 24.3212890625
-101.972412109375 36.1644287109375 -11.0950927734375
72.6611328125 -57.8309326171875 -23.84375
-86.98779296875 -37.69384765625 18.683349609375
28.783447265625 84.3472900390625 -19.4324951171875
30.57373046875 52.7413330078125 -8.1893310546875
15.926025390625 -41.29541015625 -12.658203125
-80.278076171875 -12.3726806640625 -7.8876953125
19.3115234375 68.12646484375 2.9385986328125
15.529052734375 74.0535888671875 1.420166015625
6.553955078125 -26.7119140625 -11.5474853515625
26.877197265625 -99.7237548828125 -22.9434814453125
-25.459716796875 -49.220458984375 9.2530517578125
2.10009765625 32.07861328125 -6.92578125
-11.4921875 20.2674560546875 -6.468505859375
38.813232421875 -88.447265625 -36.5849609375
-7.213623046875 -29.8568115234375 18.5740966796875
-76.994384765625 -21.5787353515625 -9.2857666015625
-0.516845703125 -1.862060546875 -6.48681640625
-67.06298828125 8.7081298828125 -10.2484130859375
84.022705078125 -79.1241455078125 -30.59375
29.28125 104.3270263671875 17.9012451171875
56.1240234375 -66.6109619140625 -15.2686767578125
-80.860595703125 -72.4080810546875 6.25146484375
23.19775390625 -76.3580322265625 -13.3631591796875
33.931640625 35.3419189453125 -5.5999755859375
-8.3671875 -127.8587646484375 4.045166015625
-5.615234375 56.2705078125 -5.28173828125
-64.235595703125 -91.0506591796875 -14.9720458984375
-59.288330078125 -89.41015625 -16.1109619140625
-6.37158203125 49.0189208984375 -6.585693359375
14.403564453125 -21.9949951171875 -9.99072265625
-80.0478515625 -90.2296142578125 0.092529296875
20.524658203125 87.2576904296875 7.421142578125
19.217041015625 72.7220458984375 8.7890625
29.2109375 -85.0091552734375 -13.7025146484375
36.1259765625 80.3427734375 -19.8408203125
-79.05224609375 23.6868896484375 -11.6759033203125
-20.16357421875 -15.8670654296875 -5.9290771484375
-13.759033203125 57.034423828125 6.5155029296875
-5.446044921875 68.486083984375 6.1337890625
16.348876953125 -4.9154052734375 -7.219970703125
-18.0263671875 26.931884765625 -5.9990234375
50.333740234375 -94.32177734375 -16.8870849609375
10.020263671875 57.930419921875 -5.2261962890625
-9.30810546875 -11.8282470703125 -5.790771484375
-83.384033203125 29.9251708984375 -11.913818359375
-26.2705078125 -38.90478515625 -12.60302734375
72.3330078125 23.8065185546875 -26.06494140625
-10.20166015625 -17.976806640625 -7.417236328125
9.288818359375 -109.23779296875 3.022216796875
9.871337890625 75.3116455078125 5.2301025390625
12.025634765625 -31.782470703125 -12.4842529296875
-24.57177734375 -48.3150634765625 -16.4671630859375
26.654052734375 -110.4639892578125 -23.2745361328125
-85.3828125 -31.917724609375 21.0074462890625
71.76416015625 -67.2381591796875 -24.8477783203125
-6.43408203125 -40.521484375 -12.1094970703125
44.6259765625 97.1842041015625 9.0330810546875
-5.093994140625 81.6844482421875 19.3343505859375
-2.660400390625 -114.4996337890625 3.774169921875
-67.9443359375 -40.232177734375 -9.658203125
83.564208984375 -74.60791015625 -24.7249755859375
-19.9736328125 87.2613525390625 26.7674560546875
16.21044921875 -48.7371826171875 -19.5482177734375
9.486083984375 -75.3330078125 -12.61767578125
-22.639892578125 72.39111328125 11.50634765625
54.466796875 -93.9739990234375 -31.8524169921875
20.913818359375 -50.0770263671875 -14.9637451171875
26.51171875 -34.9896240234375 -13.28759765625
-4.11865234375 -82.8831787109375 -11.4276123046875
11.6083984375 -99.9007568359375 -13.2457275390625
-10.99560546875 88.9954833984375 26.7420654296875
42.23046875 -84.2476806640625 -14.1806640625
30.4521484375 -118.9302978515625 -29.2362060546875
31.483642578125 -52.436767578125 -12.6278076171875
75.672119140625 -108.332763671875 -25.2249755859375
-23.3935546875 -126.89794921875 6.275146484375
-2.839111328125 -61.16015625 -12.0848388671875
-79.4189453125 -5.2850341796875 -7.78125
-67.647705078125 -132.0767822265625 6.060546875
29.706787109375 92.8914794921875 -10.5250244140625
-86.89453125 -55.8363037109375 8.96728515625
25.914306640625 58.9202880859375 -11.9459228515625
-23.288818359375 45.6976318359375 -6.050537109375
41.9619140625 86.3560791015625 -16.0487060546875
-20.884033203125 2.510009765625 -5.58349609375
-4.40185546875 8.9237060546875 -6.331787109375
6.89208984375 39.830810546875 -7.347900390625
22.400146484375 10.56298828125 -7.4110107421875
-5.98974609375 -109.0537109375 4.03466796875
85.448486328125 -89.2794189453125 -29.862548828125
-3.10546875 -20.0513916015625 -8.3233642578125
12.876708984375 -57.221923828125 -15.30810546875
-8.03173828125 -27.308349609375 -11.4974365234375
2.224365234375 -100.7196044921875 -12.358642578125
-76.863037109375 -75.4757080078125 2.509033203125
15.6669921875 -45.8062744140625 -8.278564453125
38.177734375 91.2203369140625 -1.8072509765625
31.9609375 -75.162353515625 -13.544921875
-10.524658203125 59.624267578125 -2.171875
-53.017333984375 -83.877685546875 -16.2108154296875
-24.77197265625 -120.5750732421875 4.7349853515625
-93.3837890625 -37.3846435546875 19.080810546875
-23.150390625 -109.230712890625 4.7275390625
22.62939453125 89.6390380859375 -4.601806640625
-44.158203125 -46.9744873046875 -10.7265625
75.57666015625 -61.749267578125 -27.068359375
-17.447998046875 -25.437744140625 -10.5294189453125
29.94677734375 -95.685791015625 -31.7808837890625
59.180419921875 30.024169921875 -20.861572265625
-61.7373046875 -14.1456298828125 -9.0526123046875
2.5625 -102.8587646484375 3.950927734375
-3.84228515625 -10.3636474609375 -6.4488525390625
-84.066162109375 -81.4515380859375 6.91748046875
-45.28759765625 -34.1080322265625 -7.625
11.22119140625 -13.267578125 -6.840087890625
-3.34375 65.043701171875 2.6201171875
-26.63525390625 83.0084228515625 22.537841796875
-60.8359375 -77.323486328125 -6.571533203125
-22.75048828125 19.8565673828125 -6.019775390625
-74.94775390625 -66.0819091796875 6.3546142578125
23.667724609375 29.234619140625 -7.7333984375
19.48974609375 59.3790283203125 -4.9920654296875
-94.802001953125 -32.1561279296875 21.2718505859375
-13.435302734375 64.6707763671875 2.99951171875
-12.80419921875 -107.8199462890625 4.609619140625
26.64501953125 -2.2149658203125 -7.5767822265625
-60.76806640625 -138.508544921875 6.4730224609375
37.87548828125 101.8492431640625 9.5474853515625
46.72119140625 -78.2119140625 -14.46337890625
7.05419921875 -135.26318359375 3.459228515625
-4.866455078125 -124.295166015625 3.7052001953125
-31.69775390625 5.3272705078125 -3.601806640625
-58.9912109375 -37.0809326171875 -9.999267578125
-44.948486328125 -41.6524658203125 -10.764404296875
23.467529296875 64.322021484375 -18.04150390625
-27.107177734375 22.1502685546875 -5.736572265625
1.115478515625 42.4521484375 -6.9210205078125
-16.309326171875 -131.899169921875 4.431640625
25.63623046875 89.8304443359375 12.0198974609375
79.91943359375 -90.92529296875 -32.974853515625
-22.07763671875 35.4622802734375 -5.644287109375
-70.65283203125 -94.2781982421875 -6.4742431640625
-9.83154296875 -138.4542236328125 4.562255859375
2.802490234375 -35.8165283203125 -11.77294921875
66.202880859375 44.5550537109375 -24.34716796875
-16.4921875 -34.2259521484375 17.5643310546875
-68.007080078125 -116.75390625 6.111572265625
25.7001953125 97.9154052734375 17.54296875
-72.201904296875 1.568603515625 -9.5069580078125
17.429931640625 -25.489990234375 -11.5418701171875
3.685302734375 3.8358154296875 -6.739990234375
59.603759765625 39.7947998046875 -19.821044921875
-11.5009765625 -40.9652099609375 -11.668212890625
19.969970703125 20.3026123046875 -7.529052734375
25.312744140625 77.3123779296875 -15.2149658203125
11.79638671875 -50.2237548828125 -14.221923828125
-70.533935546875 -6.2117919921875 -8.7596435546875
-93.937255859375 16.564697265625 -8.9818115234375
64.080078125 5.2249755859375 -22.6016845703125
-15.408447265625 67.9871826171875 6.5482177734375
46.80517578125 -97.679931640625 -23.977294921875
-32.227294921875 43.4005126953125 -5.654052734375
34.589599609375 76.8944091796875 -16.4453125
32.001220703125 -122.484130859375 -2.7659912109375
25.132080078125 85.3629150390625 3.46337890625
-68.16259765625 -52.033447265625 9.76904296875
-10.515380859375 -37.1610107421875 14.3775634765625
67.087890625 8.5113525390625 -24.4500732421875
-13.89404296875 -47.2835693359375 -12.2125244140625
4.309326171875 50.0333251953125 -6.8900146484375
-58.35498046875 -126.0655517578125 6.6307373046875
-65.90234375 -75.021484375 -15.1829833984375
-73.098876953125 -82.69580078125 -15.538330078125
-30.530029296875 -50.4921875 -11.7747802734375
-38.644287109375 -37.623046875 -10.5531005859375
-74.452392578125 -27.9254150390625 -9.6705322265625
-31.29443359375 14.884033203125 -5.349609375
-2.78271484375 76.6868896484375 14.294189453125
41.70458984375 94.8079833984375 2.0986328125
-78.399169921875 0.2957763671875 -8.835205078125
-66.540771484375 -22.4862060546875 -9.86767578125
-30.586181640625 75.7227783203125 15.4453125
30.942138671875 -106.009521484375 -39.2806396484375
-77.1953125 -97.37353515625 2.020751953125
33.177734375 -88.0186767578125 -13.3818359375
-15.688720703125 -49.5771484375 9.96923828125
-14.215576171875 40.8427734375 -6.2286376953125
-65.466796875 -68.2537841796875 1.523681640625
-14.958740234375 -120.74951171875 4.3328857421875
38.842529296875 71.7911376953125 -21.1351318359375
34.112060546875 101.4781494140625 17.572998046875
-31.0341796875 -60.2764892578125 -11.7642822265625
21.853759765625 -65.921142578125 -16.8758544921875
64.276123046875 48.84228515625 -16.27001953125
-88.647216796875 9.623291015625 -8.8375244140625
-5.904541015625 -35.435302734375 -12.1348876953125
19.520751953125 77.46044921875 -6.2244873046875
14.07373046875 10.3497314453125 -6.6043701171875
32.019775390625 -24.4031982421875 -11.4342041015625
12.12255859375 -90.5001220703125 -13.992431640625
38.7529296875 -94.9837646484375 -19.296142578125
76.865234375 -101.5113525390625 -31.9400634765625
14.356201171875 44.8912353515625 -7.2900390625
65.844482421875 44.1912841796875 -13.75927734375
-58.70166015625 -30.9862060546875 -9.9969482421875
4.7607421875 -110.0677490234375 3.6279296875
73.709228515625 -103.1824951171875 -26.3636474609375
0.68115234375 -12.9698486328125 -6.398193359375
14.85400390625 -9.9471435546875 -7.3328857421875
20.759033203125 -14.3037109375 -7.4739990234375
31.532470703125 -83.3184814453125 -34.3988037109375
1.49609375 -28.7333984375 -12.0325927734375
-30.536865234375 -16.8541259765625 -6.1087646484375
6.34130859375 -9.9072265625 -6.581787109375
0.4931640625 -124.0606689453125 3.674072265625
15.358642578125 36.7200927734375 -5.5853271484375
-47.03759765625 -50.9854736328125 -6.4593505859375
25.30908203125 -40.780517578125 -13.2225341796875
-68.5458984375 -69.603271484375 -3.7281494140625
28.70703125 20.2947998046875 -8.5511474609375
-31.021728515625 25.8095703125 -5.34130859375
26.341552734375 -105.6407470703125 -30.9052734375
-110.78173828125 26.916748046875 -9.068359375
33.3779296875 91.7352294921875 -13.248046875
-20.284912109375 -39.41064453125 -12.2772216796875
-0.724853515625 18.1165771484375 -6.6756591796875
-72.77392578125 11.5888671875 -10.7880859375
-67.194580078125 -82.7789306640625 -16.2845458984375
27.96630859375 7.522216796875 -7.8035888671875
34.11279296875 -90.9005126953125 -35.4669189453125
-97.388427734375 37.7984619140625 -12.1536865234375
5.197265625 14.576904296875 -7.0648193359375
-20.46484375 -104.8956298828125 4.3941650390625
-31.158447265625 -39.109375 -21.0037841796875
-47.950439453125 -56.043701171875 -12.3726806640625
-71.12548828125 -56.60009765625 6.666015625
-14.59521484375 -34.1025390625 -11.595703125
13.58349609375 27.3472900390625 -7.56787109375
-24.61376953125 -39.2557373046875 15.775634765625
-20.982421875 -130.1749267578125 8.8052978515625
12.21923828125 -69.915283203125 -12.8511962890625
-57.9921875 -81.9290771484375 -16.53955078125
-69.527099609375 -80.5107421875 -6.2906494140625
46.811767578125 -86.4468994140625 -13.5863037109375
-51.462646484375 -46.901123046875 -8.8941650390625
-40.414306640625 -51.9984130859375 -18.21875
45.662841796875 87.4451904296875 -11.4951171875
66.658935546875 29.073486328125 -25.891845703125
-98.969970703125 24.5677490234375 -10.199462890625
9.10498046875 -17.9019775390625 -7.8843994140625
-80.03955078125 -86.3431396484375 2.306640625
-28.1962890625 -5.563720703125 -5.6597900390625
26.68798828125 85.5040283203125 11.6556396484375
-22.215087890625 -51.989013671875 7.95947265625
-9.841064453125 11.58544921875 -6.111328125
-10.009033203125 -49.455322265625 -12.1793212890625
-30.041015625 -52.9168701171875 -15.4678955078125
51.3701171875 -95.3929443359375 -35.2918701171875
-58.5966796875 -76.1153564453125 -14.870361328125
33.8916015625 89.1685791015625 2.20751953125
5.912353515625 -5.499267578125 -6.6600341796875
15.9296875 -100.867919921875 -13.3138427734375
-47.3193359375 -51.9305419921875 -14.9937744140625
-33.380126953125 -41.3211669921875 -10.8359375
-18.751220703125 65.5587158203125 4.9913330078125
45.1962890625 -101.9566650390625 -23.1458740234375
-8.583984375 -31.9293212890625 -12.031494140625
40.787353515625 93.4595947265625 -9.6524658203125
-21.6875 -135.64697265625 4.722900390625
31.09521484375 93.2618408203125 6.2646484375
-2.08251953125 -97.9398193359375 -12.4658203125
16.285888671875 -68.2117919921875 -13.1295166015625
-34.7578125 80.5267333984375 20.806640625
-34.2255859375 -25.5245361328125 -9.8023681640625
67.62890625 -75.8758544921875 -24.407958984375
-106.1572265625 27.77197265625 -9.9727783203125
-66.9541015625 -34.154052734375 -9.7197265625
31.199462890625 68.4637451171875 -18.16064453125
2.348876953125 -116.3006591796875 3.697998046875
41.652099609375 -123.6473388671875 -2.61669921875
-28.74951171875 -22.41650390625 -8.9998779296875
2.436279296875 -131.554443359375 3.7476806640625
34.917724609375 -92.375 -14.39501953125
28.45166015625 44.727783203125 -8.093994140625
-25.659912109375 -26.7967529296875 -10.666259765625
-56.6748046875 -142.8133544921875 6.925537109375
-85.186767578125 2.825439453125 -8.7020263671875
1.845458984375 -40.9652099609375 -12.044189453125
-4.320068359375 -24.369140625 -10.3497314453125
-79.304931640625 -32.7135009765625 20.962158203125
-39.4599609375 -46.6578369140625 -10.7330322265625
19.75341796875 82.1937255859375 2.0999755859375
-69.0693359375 -17.874267578125 -9.199462890625
-23.930908203125 -45.9046630859375 11.5714111328125
37.89208984375 -66.932861328125 -14.1102294921875
26.37255859375 85.9173583984375 -15.009033203125
-18.34228515625 47.9315185546875 -2.436279296875
-79.06396484375 -51.3037109375 10.8214111328125
6.130126953125 64.8658447265625 1.2781982421875
-78.51953125 -99.58056640625 5.8482666015625
-16.704833984375 -45.5416259765625 11.0390625
27.2607421875 96.7164306640625 12.4876708984375
74.09130859375 -77.734375 -27.336181640625
45.98291015625 -97.40869140625 -35.063232421875
-8.283935546875 26.3521728515625 -6.3638916015625
-2.656005859375 -6.244873046875 -6.514404296875
25.958251953125 59.14111328125 -5.1865234375
14.525634765625 -77.5411376953125 -13.1834716796875
-14.1875 47.44287109375 2.3900146484375
-14.769287109375 51.54638671875 -5.6845703125
18.206298828125 -29.56396484375 -12.9300537109375
-79.385009765625 -81.177490234375 -0.1434326171875
-31.992431640625 -49.5625 -22.2703857421875
19.54345703125 74.25146484375 -2.6614990234375
-62.50390625 -96.64794921875 -17.005615234375
-42.82568359375 -36.87646484375 -10.8564453125
37.652587890625 -93.262939453125 -35.550048828125
77.22705078125 -52.614013671875 -24.51513671875
-17.47705078125 -41.130126953125 13.3048095703125
36.6552734375 -121.1512451171875 -4.0518798828125
-14.935791015625 57.1806640625 0.3690185546875
-6.68359375 61.150634765625 -0.6922607421875
-20.685546875 -115.5738525390625 4.68115234375
-31.887451171875 9.328857421875 -5.6651611328125
24.734619140625 90.0008544921875 -9.330078125
21.660400390625 73.4215087890625 -10.7259521484375
21.38525390625 37.181640625 -7.6865234375
30.32080078125 24.1990966796875 -8.255126953125
8.857666015625 -34.92431640625 -12.192626953125
28.952392578125 -13.9287109375 -8.0887451171875
-70.349853515625 -91.310546875 -17.514404296875
-89.024658203125 -65.6796875 7.352783203125
-75.87841796875 -73.9971923828125 -2.9615478515625
59.963623046875 20.8519287109375 -23.2239990234375
-67.3994140625 -65.1182861328125 5.6925048828125
39.04345703125 24.471923828125 -8.362548828125
63.0703125 41.173095703125 -12.363037109375
18.890625 -84.5107421875 -12.3070068359375
-73.94091796875 -93.569580078125 -3.9237060546875
42.027099609375 90.0413818359375 -12.4453125
26.031982421875 -96.6956787109375 -32.980224609375
-17.913330078125 -141.94482421875 5.451904296875
8.992919921875 -85.3255615234375 -12.90576171875
16.270751953125 -54.02001953125 -19.2613525390625
-2.06201171875 70.3714599609375 7.7623291015625
-21.875732421875 75.76220703125 14.488525390625
-14.20556640625 29.425537109375 -6.136962890625
16.487548828125 51.719482421875 -7.36279296875
73.81103515625 -82.2806396484375 -28.042724609375
30.83544921875 98.6270751953125 11.3585205078125
-62.98388671875 -133.2376708984375 6.011962890625
42.212158203125 -74.5247802734375 -13.9715576171875
-31.165771484375 34.3839111328125 -1.970703125
-54.744873046875 -61.883544921875 -9.494140625
-78.135498046875 -87.9835205078125 -3.7879638671875
65.327880859375 42.5372314453125 -9.060546875
-73.330078125 -80.4393310546875 -4.09326171875
39.714599609375 30.08349609375 -8.7154541015625
-64.18359375 -125.7510986328125 5.3829345703125
-20.373291015625 7.8779296875 -5.753662109375
-85.581298828125 16.6644287109375 -10.0926513671875
0.02099609375 -32.625732421875 -12.191162109375
-22.764404296875 30.341064453125 -6.08447265625
46.714111328125 -96.5067138671875 -19.553955078125
3.78564453125 -104.6512451171875 -11.692138671875
-61.40283203125 -23.0355224609375 -9.7578125
-26.787109375 -54.871337890625 7.8709716796875
-25.304443359375 -41.4097900390625 -20.1019287109375
-58.846435546875 -49.6861572265625 -10.0003662109375
-111.4345703125 31.659912109375 -6.6466064453125
44.39208984375 -68.6214599609375 -13.9622802734375
-26.547119140625 0.3548583984375 -3.1083984375
-19.386962890625 22.741455078125 -6.017333984375
74.125244140625 -93.8907470703125 -24.4620361328125
5.875732421875 -81.38818359375 -12.3360595703125
22.92529296875 -91.4228515625 -13.3726806640625
-69.576904296875 -69.9600830078125 0.4510498046875
-6.949462890625 75.9715576171875 13.898193359375
6.588134765625 72.6851806640625 6.16015625
-74.05126953125 -112.4398193359375 5.781494140625
-53.809326171875 -150.0614013671875 8.607177734375
12.046142578125 -48.279296875 -5.0318603515625
-34.896240234375 -55.066650390625 -14.7984619140625
12.068115234375 19.5467529296875 -7.5081787109375
2.113525390625 -52.6385498046875 -12.1727294921875
-89.898681640625 28.02685546875 -11.1683349609375
-35.033203125 -35.798095703125 -8.81689453125
19.749267578125 78.2379150390625 3.8494873046875
-12.0302734375 8.1165771484375 -6.2515869140625
30.69091796875 87.0560302734375 -16.995849609375
16.83642578125 75.349853515625 10.8463134765625
-91.23193359375 -56.397216796875 9.0491943359375
-63.936279296875 -37.80517578125 -9.7359619140625
29.874267578125 -95.511474609375 -20.15478515625
-66.244384765625 -78.952392578125 -3.6334228515625
-81.492431640625 -76.4461669921875 6.3961181640625
20.93505859375 55.4859619140625 -22.019775390625
-72.721435546875 -37.8905029296875 18.20849609375
23.867919921875 69.9775390625 -14.3170166015625
11.322998046875 -40.708740234375 -9.20556640625
-88.243408203125 -40.8629150390625 16.150390625
15.268310546875 -81.88671875 -12.48486328125
-91.56689453125 36.1668701171875 -7.53759765625
-28.7060546875 -30.2955322265625 -10.8231201171875
27.865966796875 72.2420654296875 -15.700927734375
3.723876953125 -88.764892578125 -12.6982421875
66.576171875 19.4903564453125 -25.85546875
-13.396240234375 53.0166015625 -2.0146484375
-18.32080078125 -11.9771728515625 -5.572265625
-65.962646484375 -78.3780517578125 -7.8492431640625
1.83203125 57.0804443359375 -5.225830078125
12.566650390625 53.831787109375 -7.130859375
-73.193359375 -89.7747802734375 -13.7015380859375
-76.4560546875 -57.0477294921875 6.08642578125
-72.74169921875 -71.5794677734375 2.7510986328125
73.472412109375 -88.8021240234375 -25.4229736328125
-65.124755859375 -3.703125 -9.7420654296875
-59.16015625 -67.4825439453125 -3.8670654296875
-87.059814453125 36.056396484375 -11.2740478515625
-3.47607421875 15.177978515625 -6.7384033203125
-27.623291015625 38.6209716796875 -3.906005859375
-6.87255859375 71.227783203125 8.7105712890625
-10.38916015625 49.0732421875 -6.368408203125
-71.4931640625 -80.6729736328125 -9.8150634765625
-28.641357421875 32.65283203125 -5.4249267578125
27.892578125 91.2781982421875 8.1300048828125
-12.477294921875 75.683837890625 13.92626953125
45.529296875 81.0355224609375 -17.406005859375
-7.6826171875 40.353515625 -6.6961669921875
-70.1181640625 -29.033447265625 -9.518310546875
-22.76611328125 -12.446533203125 -5.931884765625
-13.959716796875 47.0048828125 -6.152587890625
67.556396484375 -105.072998046875 -24.1929931640625
-3.806640625 52.4954833984375 -6.634521484375
22.850341796875 47.0858154296875 -7.86376953125
0.863037109375 7.907470703125 -6.85302734375
30.976806640625 32.7607421875 -4.817626953125
9.575439453125 66.883056640625 1.458984375
-15.401123046875 22.0804443359375 -6.2564697265625
-24.79345703125 79.1439208984375 20.5908203125
21.7763671875 82.8494873046875 -11.6976318359375
35.772216796875 -78.2955322265625 -13.8597412109375
-108.765625 37.0009765625 -10.76123046875
37.45556640625 106.9161376953125 16.9256591796875
26.7724609375 -55.2938232421875 -16.4840087890625
82.1572265625 -87.8846435546875 -31.6990966796875
8.16943359375 49.104736328125 -7.2117919921875
-78.05078125 17.0133056640625 -10.962158203125
-4.58349609375 -106.289306640625 -12.3946533203125
-28.543701171875 -38.83544921875 16.2420654296875
-19.1337890625 -19.36669921875 -7.508544921875
-98.85888671875 28.9495849609375 -9.42041015625
31.1083984375 -109.9556884765625 -39.67919921875
-48.738037109375 -76.728515625 -4.8104248046875
-66.6728515625 -14.6710205078125 -8.9278564453125
2.743896484375 -21.9093017578125 -9.6104736328125
26.70654296875 2.9935302734375 -7.830322265625
81.2529296875 -56.3294677734375 -22.201904296875
28.430908203125 -20.5616455078125 -9.6409912109375
-9.746826171875 -117.7261962890625 4.0296630859375
-15.078125 -39.2801513671875 -11.4996337890625
-56.8046875 -91.9661865234375 -19.053955078125
-0.136474609375 -105.0972900390625 -12.459228515625
24.22998046875 63.18994140625 -21.7515869140625
60.515625 16.149169921875 -23.3271484375
-44.144775390625 -66.310302734375 -10.8837890625
42.63525390625 -95.580810546875 -38.1234130859375
62.109619140625 24.4747314453125 -24.5147705078125
-54.142578125 -80.4398193359375 -6.4808349609375
-51.171630859375 -42.273193359375 -9.728759765625
-77.933837890625 -15.977783203125 -8.7088623046875
-75.671630859375 3.419677734375 -9.2861328125
-17.0830078125 9.9671630859375 -6.2601318359375
-46.007080078125 -88.7847900390625 -4.9390869140625
-69.803466796875 5.2808837890625 -10.26904296875
34.31201171875 -97.5364990234375 -25.8050537109375
-88.06201171875 19.7562255859375 -10.4510498046875
-82.803955078125 -46.1043701171875 13.107421875
-30.1171875 -38.9012451171875 -14.6302490234375
-27.780029296875 43.176025390625 -5.47216796875
-55.250244140625 -18.1383056640625 -9.10791015625
66.29296875 12.550048828125 -24.9503173828125
-71.764892578125 -50.5289306640625 10.689208984375
17.95068359375 -130.2017822265625 -5.2767333984375
-11.994873046875 80.524169921875 18.958251953125
39.729248046875 -99.8876953125 -23.0682373046875
-61.880126953125 -81.2177734375 -16.0352783203125
11.7939453125 77.9017333984375 1.9757080078125
-83.968017578125 -58.324951171875 8.3056640625
15.7763671875 -89.1475830078125 -12.894775390625
30.48876953125 -33.29150390625 -13.5592041015625
24.17333984375 -127.2408447265625 -6.816650390625
57.850341796875 -95.9803466796875 -14.6402587890625
-58.283935546875 -43.1241455078125 -9.8446044921875
-14.136474609375 -135.5081787109375 4.4239501953125
-36.03076171875 -44.85546875 -10.7030029296875
-54.9423828125 -29.663818359375 -10.115234375
-13.6025390625 -129.142333984375 4.2205810546875
19.712646484375 2.49267578125 -6.57666015625
52.0361328125 -84.993408203125 -14.9935302734375
-33.094970703125 -41.697265625 4.2379150390625
13.597900390625 -61.6719970703125 -12.98974609375
31.918701171875 42.1904296875 -7.7379150390625
10.2978515625 9.688232421875 -6.9547119140625
-25.88623046875 49.1455078125 -5.7747802734375
30.063720703125 88.4188232421875 -1.617919921875
33.046630859375 -94.691162109375 -33.8277587890625
-11.4658203125 -25.501708984375 -10.7525634765625
48.732666015625 -89.694580078125 -12.8895263671875
27.442138671875 -98.660888671875 -35.9534912109375
-15.341796875 -124.560791015625 4.4189453125
-21.4072265625 -139.961181640625 5.3121337890625
-71.16552734375 -65.901611328125 6.8953857421875
10.68310546875 71.2923583984375 -0.582275390625
-20.37646484375 -124.280029296875 4.5413818359375
-31.033447265625 0.8682861328125 -1.6519775390625
-15.11572265625 -17.792724609375 -7.050537109375
37.426025390625 42.19580078125 -7.747802734375
43.91650390625 -94.518798828125 -17.8968505859375
-24.615478515625 -8.0709228515625 -5.5452880859375
-3.71484375 -92.212890625 -12.2066650390625
30.296142578125 -117.56982421875 -3.494140625
-30.948974609375 -35.1630859375 -10.309326171875
-77.805908203125 -38.3486328125 18.237548828125
-11.98828125 -4.253173828125 -6.1563720703125
-1.400634765625 24.902587890625 -6.6649169921875
5.344482421875 -92.2984619140625 -12.5738525390625
55.45166015625 -91.2135009765625 -14.48193359375
-11.090576171875 56.8572998046875 -4.6802978515625
-69.959228515625 -36.4285888671875 -9.4879150390625
25.30126953125 -49.5224609375 -12.8040771484375
20.74267578125 66.0003662109375 0.1697998046875
23.745361328125 -12.0068359375 -7.287841796875
-23.174072265625 -44.93896484375 -17.3948974609375
-22.723876953125 -34.9951171875 -11.6392822265625
9.531005859375 -127.9739990234375 2.170654296875
81.412353515625 -81.744384765625 -29.2972412109375
26.936767578125 26.468017578125 -8.0025634765625
-65.413330078125 -87.3704833984375 -14.554931640625
49.001220703125 -64.4678955078125 -14.074462890625
18.76708984375 9.6502685546875 -7.6265869140625
-74.56298828125 -86.0137939453125 -14.0157470703125
0.615478515625 -77.0986328125 -12.0880126953125
-54.7041015625 -56.1982421875 -10.0953369140625
18.64453125 70.415283203125 -5.82421875
-80.078857421875 8.1170654296875 -9.6937255859375
19.839599609375 -18.246337890625 -8.34423828125
-25.642822265625 77.8831787109375 16.7857666015625
-81.8447265625 26.1748046875 -11.6683349609375
-48.371337890625 -71.428955078125 -7.30517578125
-12.286376953125 34.3170166015625 -6.287109375
-1.872802734375 57.2774658203125 -4.8065185546875
-76.919677734375 -30.7236328125 -9.5220947265625
-80.88623046875 14.6129150390625 -10.2449951171875
-8.796142578125 85.9429931640625 24.8702392578125
53.074462890625 -68.509765625 -14.2724609375
-2.508544921875 -56.293701171875 -12.203857421875
-101.960693359375 38.4964599609375 -8.199951171875
-25.100341796875 -36.1046142578125 -19.86181640625
79.57275390625 -69.16259765625 -24.77978515625
28.585693359375 -104.1624755859375 -36.8248291015625
-30.077392578125 44.5223388671875 -2.850341796875
35.746826171875 32.7109375 -8.3126220703125
-32.2099609375 -3.3392333984375 -4.5472412109375
-54.79052734375 -133.3909912109375 5.3568115234375
-1.60791015625 -69.8206787109375 -11.251220703125
10.66845703125 44.596435546875 -7.20703125
43.298583984375 -90.9754638671875 -13.8670654296875
11.622802734375 75.456298828125 10.243408203125
-4.8056640625 4.8182373046875 -6.26025390625
26.839599609375 -76.157470703125 -12.7781982421875
11.3564453125 36.94140625 -7.19384765625
-25.048583984375 -30.7711181640625 -10.9423828125
52.00341796875 -76.8310546875 -14.6798095703125
32.4375 -82.527587890625 -13.50146484375
-92.64404296875 -49.7998046875 11.7000732421875
7.51318359375 2.6881103515625 -6.7279052734375
-64.978271484375 -49.9423828125 -8.4652099609375
1.853271484375 -61.8079833984375 -12.283935546875
-70.27490234375 -113.8795166015625 6.399169921875
-6.310791015625 78.6080322265625 16.4423828125
1.1845703125 60.293701171875 -2.563232421875
-83.92431640625 -70.54833984375 6.994873046875
-8.220458984375 33.596435546875 -6.4609375
-19.34716796875 -29.5035400390625 20.4566650390625
-14.614013671875 2.170166015625 -5.92138671875
8.981689453125 -119.9718017578125 1.2579345703125
-3.466552734375 32.2703857421875 -6.6484375
28.607177734375 -5.2762451171875 -7.728271484375
5.42333984375 -57.1314697265625 -11.9287109375
81.046875 -77.84912109375 -28.933349609375
-84.46435546875 -66.7896728515625 7.1031494140625
36.164794921875 36.4664306640625 -8.2427978515625
5.03955078125 -98.403564453125 -12.4024658203125
23.158203125 68.8104248046875 -10.4415283203125
1.24755859375 -80.9603271484375 -11.9881591796875
6.530029296875 -44.8009033203125 -9.327392578125
20.69677734375 44.172607421875 -7.583740234375
-51.485595703125 -27.0252685546875 -9.56884765625
-7.49267578125 20.0302734375 -6.2882080078125
-52.129150390625 -81.4141845703125 -13.693359375
65.144287109375 -102.2403564453125 -23.33984375
-13.537353515625 70.386474609375 8.5286865234375
-85.1875 -5.4334716796875 -7.4677734375
-22.091552734375 -34.57763671875 17.5203857421875
-70.842041015625 19.4730224609375 -10.4803466796875
72.964111328125 -98.830322265625 -24.536376953125
31.367431640625 101.8201904296875 15.2386474609375
9.86962890625 -104.4871826171875 -12.9554443359375
7.38916015625 -124.6744384765625 3.4984130859375
57.5380859375 -74.66748046875 -15.3389892578125
-82.503173828125 22.1102294921875 -11.06982421875
-21.240234375 16.576171875 -6.1722412109375
-95.712646484375 -43.3062744140625 15.175048828125
28.41064453125 -54.5826416015625 -13.3431396484375
25.309814453125 -26.7899169921875 -12.32177734375
-24.989013671875 -29.7349853515625 20.32421875
-12.48583984375 16.7996826171875 -6.321533203125
9.5458984375 -49.5889892578125 -11.3912353515625
-23.201416015625 86.2320556640625 25.5279541015625
37.22509765625 19.9241943359375 -8.26123046875
-1.33154296875 -85.1519775390625 -11.70361328125
-62.59375 -73.56201171875 -4.4517822265625
34.903564453125 89.0643310546875 -15.868408203125
-55.64111328125 -24.6007080078125 -10.156005859375
22.986572265625 -34.4520263671875 -12.853759765625
8.372802734375 -1.25927734375 -6.91650390625
43.400634765625 -98.807861328125 -23.7210693359375
3.53076171875 67.3765869140625 4.1318359375
-62.898193359375 -79.851318359375 -4.9906005859375
-20.346435546875 41.7774658203125 -6.076904296875
32.972900390625 -60.6754150390625 -13.531982421875
31.258544921875 12.16357421875 -8.0323486328125
6.349365234375 -131.7603759765625 3.3421630859375
-1.59423828125 35.950927734375 -6.7042236328125
31.010009765625 -124.3560791015625 -5.6375732421875
66.67236328125 -4.613525390625 -24.046142578125
12.37841796875 -108.7130126953125 -12.2841796875
-80.745849609375 -84.681884765625 5.4136962890625
-54.36572265625 -73.6754150390625 -4.677490234375
11.109130859375 -53.620361328125 -13.3885498046875
32.76806640625 49.964599609375 -8.6087646484375
-14.087646484375 -112.530029296875 4.1773681640625
15.980712890625 31.0574951171875 -7.27490234375
-20.599609375 -131.664794921875 4.4918212890625
-75.64404296875 22.5845947265625 -11.942626953125
-64.65380859375 -91.7376708984375 -18.437255859375
-71.859375 -91.1844482421875 -8.2471923828125
76.734130859375 -57.8878173828125 -23.141845703125
-18.167236328125 83.5343017578125 22.3408203125
75.57177734375 -87.4736328125 -28.7100830078125
-53.815185546875 -66.2020263671875 -7.3033447265625
-68.455078125 -73.66796875 -3.685546875
-76.269287109375 -44.8160400390625 13.470458984375
-80.539794921875 -8.8538818359375 -7.5794677734375
26.146240234375 -110.74658203125 -33.6829833984375
25.608642578125 -110.0924072265625 -26.7371826171875
20.133056640625 80.7213134765625 -7.4664306640625
-6.19140625 -18.114013671875 -7.369140625
21.867431640625 61.17236328125 -17.933837890625
-83.720458984375 -13.1478271484375 -7.7591552734375
37.040771484375 99.2515869140625 7.307861328125
-80.927978515625 -92.1224365234375 5.8175048828125
38.819091796875 -97.1483154296875 -37.5677490234375
19.931396484375 83.0084228515625 -2.5823974609375
77.00439453125 -93.536376953125 -31.26904296875
-6.963623046875 -91.5994873046875 -10.9908447265625
-73.44091796875 -87.6993408203125 -10.8670654296875
22.4541015625 -5.4398193359375 -7.4482421875
-60.78173828125 -147.1322021484375 8.1195068359375
-78.229248046875 -74.6923828125 5.7764892578125
18.847900390625 -74.185791015625 -12.864013671875
73.9541015625 20.2857666015625 -26.62060546875
26.213623046875 -95.219970703125 -28.4951171875
-22.982177734375 -52.2093505859375 -19.86181640625
3.117431640625 -68.52880859375 -12.135986328125
-6.138916015625 -130.562255859375 3.9697265625
69.059814453125 17.2613525390625 -26.9090576171875
-14.966064453125 78.110107421875 16.6829833984375
7.9609375 17.5390625 -7.001220703125
-48.529541015625 -59.0780029296875 -10.3306884765625
-70.98095703125 -80.5487060546875 -13.78125
-73.9345703125 -88.49462890625 -5.1195068359375
-78.11328125 -83.0616455078125 -3.883056640625
13.412841796875 -35.3096923828125 -12.457275390625
63.416748046875 51.1925048828125 -18.7783203125
-3.93505859375 -47.5185546875 -12.12109375
23.473876953125 61.6815185546875 -2.5889892578125
41.066162109375 105.3529052734375 15.6304931640625
-82.74609375 -51.526611328125 10.2789306640625
-96.124755859375 -35.673095703125 20.384033203125
82.646484375 -34.6099853515625 -30.0057373046875
26.531494140625 -87.1231689453125 -13.0233154296875
-11.6083984375 62.5599365234375 0.6331787109375
-70.919921875 -54.1875 9.1588134765625
-17.771240234375 -31.935302734375 -11.763671875
29.00537109375 33.444091796875 -7.595947265625
20.978271484375 84.7342529296875 5.076171875
65.371337890625 1.1583251953125 -21.792236328125
14.136962890625 -48.4281005859375 -10.7037353515625
8.2236328125 76.6942138671875 13.626953125
4.2109375 -73.46728515625 -12.224853515625
-80.953369140625 -43.5894775390625 14.6103515625
-61.73486328125 -29.3338623046875 -10.251708984375
20.30322265625 71.512939453125 0.9093017578125
0.180419921875 -109.056884765625 -13.1436767578125
34.612060546875 73.526123046875 -18.6280517578125
22.34716796875 51.583984375 -7.9771728515625
-29.674560546875 -38.844970703125 -11.207763671875
-104.834716796875 34.486328125 -10.14599609375
-15.3642578125 -3.5845947265625 -5.9027099609375
5.702392578125 -18.471923828125 -7.9459228515625
-47.5517578125 -48.8099365234375 -9.6893310546875
60.983154296875 44.0791015625 -21.5389404296875
27.553466796875 -31.1680908203125 -13.3531494140625
-15.817138671875 59.9632568359375 4.2857666015625
-70.537841796875 -43.927978515625 13.805908203125
-80.296142578125 -24.293701171875 -8.74267578125
61.119140625 37.12353515625 -21.826904296875
-4.897216796875 25.6875 -6.5465087890625
-43.900146484375 -48.984375 -13.5009765625
-19.942626953125 -55.0645751953125 6.548583984375
-79.368408203125 33.1624755859375 -12.31787109375
50.844970703125 -92.933837890625 -13.787353515625
-79.001220703125 -92.6497802734375 2.2889404296875
-31.984130859375 73.2899169921875 12.86376953125
22.161376953125 86.5255126953125 -7.4912109375
36.500732421875 95.8201904296875 5.315673828125
77.480224609375 -104.1990966796875 -29.90234375
-6.56884765625 29.666015625 -6.5035400390625
40.392822265625 100.1239013671875 7.994140625
3.359130859375 -25.064697265625 -11.08544921875
38.7216796875 93.4110107421875 0.759521484375
-35.5009765625 -37.928955078125 8.029541015625
31.0078125 92.6683349609375 -7.3724365234375
-9.136962890625 1.4095458984375 -6.287841796875
8.248046875 74.70703125 2.288818359375
3.51025390625 28.2510986328125 -6.697265625
22.00439453125 -25.837890625 -11.8033447265625
7.093017578125 -106.078857421875 -11.7803955078125
-63.538330078125 -44.12646484375 -9.7327880859375
-86.451904296875 12.133056640625 -9.5596923828125
37.0283203125 86.8258056640625 -18.159423828125
19.853271484375 76.0740966796875 1.219970703125
-9.42919921875 23.150390625 -6.3477783203125
30.268310546875 -75.658203125 -35.8367919921875
3.881103515625 -123.8336181640625 3.513427734375
6.851806640625 25.4818115234375 -7.2979736328125
-14.449951171875 73.0784912109375 11.4188232421875
-29.1279296875 80.2618408203125 22.57568359375
25.884765625 37.8076171875 -7.34033203125
-6.22607421875 43.6165771484375 -6.501953125
1.544921875 -4.56005859375 -6.4749755859375
14.845458984375 -29.1878662109375 -12.433837890625
-91.7861328125 30.3665771484375 -9.6048583984375
-77.39892578125 -63.745361328125 6.3958740234375
-64.129638671875 -67.60693359375 4.56494140625
-4.046875 -43.200439453125 -11.96484375
-22.488525390625 -19.79052734375 -7.636962890625
4.529541015625 62.28271484375 -1.0013427734375
-19.278076171875 77.6854248046875 16.082763671875
-84.996337890625 -40.29931640625 16.9053955078125
-6.480224609375 11.6251220703125 -6.4102783203125
71.02685546875 -70.57373046875 -24.148681640625
-76.18701171875 25.9456787109375 -12.3243408203125
2.610107421875 -120.71240234375 3.6226806640625
-61.846923828125 -89.880859375 -18.3426513671875
28.208984375 66.6483154296875 -20.8619384765625
-78.4853515625 -54.00048828125 8.44189453125
-28.9267578125 3.68798828125 -4.5650634765625
14.108154296875 16.1373291015625 -6.97265625
10.474365234375 -24.3560791015625 -10.7698974609375
-18.8671875 -22.7496337890625 -9.1041259765625
19.206787109375 -55.607421875 -20.5872802734375
-16.662109375 87.4434814453125 26.2509765625
10.42529296875 30.7044677734375 -7.351318359375
-1.558837890625 -107.30322265625 4.4925537109375
-60.621826171875 -5.0357666015625 -8.3973388671875
-76.8935546875 7.0755615234375 -9.69482421875
1.50341796875 -113.0784912109375 4.060302734375
31.47412109375 4.293701171875 -9.019287109375
-31.50341796875 -31.8946533203125 18.16650390625
-77.84521484375 -77.1912841796875 -0.6806640625
-4.598876953125 -2.99755859375 -6.50732421875
-32.413818359375 70.156494140625 11.07421875
-27.103759765625 76.2904052734375 19.3292236328125
-26.53466796875 72.764404296875 12.04833984375
4.438232421875 42.2794189453125 -6.6866455078125
-52.117431640625 -54.0947265625 -10.135986328125
29.9306640625 15.2208251953125 -8.011962890625
-79.564453125 -57.716064453125 7.1434326171875
42.503173828125 24.1956787109375 -10.2410888671875
50.338134765625 -61.79052734375 -12.2518310546875
60.174560546875 42.82373046875 -18.566162109375
26.42431640625 52.0728759765625 -7.8502197265625
21.582275390625 23.2071533203125 -7.68896484375
-72.06640625 -84.4959716796875 -8.12353515625
-34.47802734375 74.9822998046875 16.0887451171875
-20.4921875 81.1727294921875 20.033203125
77.307373046875 -90.1265869140625 -31.0863037109375
57.77685546875 -87.68994140625 -15.4483642578125
35.7451171875 103.9293212890625 16.052490234375
19.35009765625 -2.43408203125 -7.52978515625
3.28125 -43.9510498046875 -11.9923095703125
-19.738037109375 -112.4080810546875 4.4400634765625
-1.099365234375 -135.171630859375 4.092041015625
-51.1884765625 -67.772216796875 -8.548583984375
-15.8662109375 -37.961669921875 15.6971435546875
33.104736328125 26.532958984375 -8.1424560546875
5.74609375 -62.2760009765625 -12.4864501953125
-47.529296875 -85.8662109375 -5.18603515625
-87.289794921875 -51.682861328125 10.1414794921875
29.56396484375 -48.8731689453125 -12.890869140625
45.722412109375 -64.1685791015625 -13.8587646484375
-57.025634765625 -77.76318359375 -17.3818359375
-47.703125 -41.842529296875 -8.96435546875
13.93798828125 -49.2073974609375 -17.2100830078125
-90.1513671875 -36.78369140625 18.7783203125
6.89013671875 -77.0279541015625 -11.4051513671875
26.235595703125 93.9117431640625 11.1015625
27.15673828125 -96.504638671875 -22.3267822265625
-86.251220703125 7.374267578125 -8.691650390625
-26.12744140625 -14.580810546875 -5.41455078125
-23.74609375 2.53515625 -3.968505859375
-100.750244140625 32.852783203125 -11.02490234375
-112.6884765625 33.1282958984375 -9.3011474609375
-13.647216796875 60.35205078125 -1.483154296875
50.355712890625 -94.02783203125 -38.09228515625
-24.364013671875 -39.161865234375 -17.58544921875
16.64013671875 33.8863525390625 -4.562255859375
32.217529296875 -96.736328125 -28.189453125
28.80859375 86.7215576171875 1.0003662109375
41.705078125 -71.083984375 -13.84619140625
-49.284423828125 -79.953369140625 -4.8326416015625
33.126953125 -84.49609375 -31.7969970703125
-29.796142578125 -57.2723388671875 -12.808837890625
80.302490234375 -56.389892578125 -28.1943359375
15.049560546875 -97.7518310546875 -12.89697265625
75.22216796875 -52.1473388671875 -21.8638916015625
-77.239013671875 -68.389404296875 6.11474609375
-70.1064453125 -47.5633544921875 11.9923095703125
-1.04345703125 -78.6981201171875 -9.1864013671875
-31.958984375 -41.8673095703125 -14.5478515625
75.95068359375 -110.123779296875 -27.9256591796875
21.031005859375 75.5032958984375 7.810791015625
-56.526123046875 -40.4019775390625 -10.5023193359375
-24.3974609375 -37.7099609375 -22.895263671875
-96.06982421875 26.91845703125 -7.4644775390625
56.030517578125 -69.8017578125 -14.689208984375
1.26025390625 65.4906005859375 2.787353515625
65.37060546875 4.97412109375 -26.9310302734375
25.32177734375 -19.90478515625 -8.993408203125
-54.9033203125 -77.8751220703125 -11.6236572265625
-73.626953125 -69.15380859375 6.1259765625
43.966064453125 -61.195068359375 -13.3751220703125
-5.427490234375 -116.181640625 3.8388671875
-29.948486328125 -49.173583984375 -14.6728515625
-17.732421875 -6.546875 -5.678466796875
31.6572265625 -6.802490234375 -7.8154296875
67.44677734375 -107.8121337890625 -25.9451904296875
3.329833984375 -49.649169921875 -12.1258544921875
22.7001953125 62.5020751953125 -15.114013671875
76.26806640625 -93.4979248046875 -19.830810546875
26.259033203125 65.98876953125 -7.3502197265625
-64.091064453125 -67.80517578125 -1.3507080078125
-8.82861328125 81.0345458984375 19.2017822265625
-32.586669921875 -39.44677734375 6.47802734375
38.0986328125 74.0921630859375 -18.8612060546875
-29.55419921875 19.2667236328125 -5.1221923828125
15.589111328125 13.085205078125 -7.3370361328125
-27.443603515625 -31.7689208984375 19.935791015625
-74.136962890625 -105.100341796875 5.2781982421875
13.15087890625 -17.9068603515625 -7.9063720703125
-111.135986328125 30.1387939453125 -9.4505615234375
2.552001953125 77.426025390625 14.992919921875
28.446044921875 -110.501220703125 -37.89892578125
5.73046875 57.2615966796875 -5.56689453125
16.049072265625 -92.8604736328125 -13.6507568359375
-72.7734375 -86.79931640625 -16.9921875
-22.24853515625 -0.570068359375 -5.697998046875
13.54296875 57.4564208984375 -5.79638671875
21.251953125 67.6585693359375 -4.4320068359375
53.569091796875 -82.2109375 -14.7147216796875
