53.196044921875 -101.510498046875 -27.0694580078125
23.85888671875 -76.0797119140625 -10.1676025390625
20.234130859375 53.55078125 -5.82666015625
6.310791015625 14.8389892578125 -4.483154296875
13.64892578125 -45.1064453125 -9.445556640625
24.558837890625 -37.397705078125 -11.56298828125
-64.2587890625 -29.0068359375 -7.1944580078125
31.416015625 -29.0299072265625 -10.8916015625
-51.880126953125 -22.316650390625 -7.4827880859375
30.650146484375 22.4293212890625 -6.05859375
31.566650390625 49.127685546875 -4.2283935546875
19.5009765625 3.9864501953125 -4.9080810546875
-2.402099609375 -93.6513671875 6.4805908203125
-10.40478515625 86.5272216796875 19.83251953125
45.7626953125 -70.4266357421875 -11.172607421875
31.91259765625 4.11083984375 -5.2301025390625
-48.7685546875 -106.5115966796875 -1.3421630859375
-59.7705078125 -108.4285888671875 9.7354736328125
80.521728515625 -59.733154296875 -26.57763671875
46.78662109375 -76.0540771484375 -31.343994140625
6.741943359375 -14.014404296875 -7.586669921875
23.7666015625 -67.7193603515625 -10.5557861328125
-10.931396484375 56.4014892578125 8.2841796875
13.35888671875 95.4652099609375 -9.3837890625
37.06396484375 47.4508056640625 -2.796875
-0.164794921875 -129.0509033203125 7.3765869140625
-3.39892578125 -23.195068359375 -9.432373046875
48.52392578125 -111.1666259765625 -25.188720703125
-27.7451171875 35.166015625 -3.4471435546875
8.24462890625 -101.43310546875 -9.2193603515625
16.28564453125 64.10791015625 -5.5888671875
5.340576171875 -107.962890625 6.337158203125
4.98095703125 94.8751220703125 -2.749267578125
14.379150390625 -70.041015625 -9.492919921875
-70.427001953125 -108.7520751953125 12.2879638671875
-67.89990234375 -15.5682373046875 -6.656494140625
-12.10205078125 68.2247314453125 17.5692138671875
18.83544921875 -100.984130859375 -10.537353515625
-80.1611328125 10.065185546875 -7.0401611328125
-59.0068359375 -129.15966796875 10.819580078125
-74.74072265625 -97.804443359375 13.9462890625
18.75390625 -29.517333984375 -10.240478515625
-50.473876953125 -73.7286376953125 -13.46533203125
-19.49658203125 76.095703125 17.1795654296875
10.051513671875 47.201904296875 -5.2303466796875
-69.64794921875 -64.5552978515625 10.302978515625
48.2421875 -109.3138427734375 -3.3804931640625
-71.972900390625 8.5455322265625 -7.5755615234375
23.123046875 22.9031982421875 -5.4471435546875
-70.02880859375 -88.9053955078125 6.02734375
8.773193359375 -80.90625 6.339599609375
-53.150390625 -109.239013671875 0.930908203125
-6.055908203125 49.03369140625 -4.3394775390625
46.325439453125 -64.8741455078125 -28.17431640625
41.83251953125 -81.537841796875 -33.346435546875
28.1982421875 80.6429443359375 -19.6640625
89.130859375 -68.95654296875 -27.041748046875
24.864990234375 -115.15478515625 3.988525390625
58.872314453125 -88.05859375 -37.6048583984375
50.755859375 -63.676513671875 -11.5361328125
-53.43701171875 -106.5899658203125 5.9974365234375
-34.471435546875 -131.62548828125 9.2740478515625
-66.93359375 -89.8558349609375 -0.4573974609375
15.73583984375 82.1168212890625 8.6912841796875
-24.501220703125 -136.5125732421875 9.03564453125
43.665771484375 -13.208984375 -8.221923828125
22.189208984375 14.4891357421875 -2.71435546875
36.134033203125 -121.98095703125 -5.6927490234375
-10.615234375 70.3956298828125 2.6185302734375
65.7353515625 -10.7137451171875 10.0048828125
27.991455078125 43.585205078125 -6.543701171875
-13.030029296875 -27.9744873046875 -11.7064208984375
-96.672119140625 25.2440185546875 -7.5230712890625
-56.543701171875 -77.165283203125 -13.15283203125
-61.367431640625 -65.5068359375 -0.8553466796875
-27.848876953125 -112.7398681640625 7.2440185546875
-50.2958984375 -117.46923828125 9.822509765625
2.46728515625 -75.310546875 6.365234375
96.255126953125 -73.1824951171875 -24.3719482421875
53.25341796875 -61.6103515625 -34.6798095703125
-97.578125 40.309326171875 -9.4654541015625
-61.681396484375 -73.8157958984375 -12.6002197265625
-105.216064453125 32.0621337890625 -7.8638916015625
-8.538818359375 -13.9913330078125 -6.333984375
-22.8466796875 -23.104736328125 -8.5386962890625
-57.6748046875 -100.644287109375 4.454345703125
-10.59765625 -103.8123779296875 6.7872314453125
-70.47265625 -51.6168212890625 12.6357421875
-49.274169921875 -69.103515625 -7.7298583984375
-15.911376953125 32.458984375 -3.8521728515625
-58.07958984375 -71.57763671875 -6.086181640625
5.98486328125 58.978271484375 -5.543212890625
2.4521484375 39.221435546875 -4.6474609375
-66.80810546875 -55.8331298828125 10.9083251953125
11.46826171875 -37.458984375 -9.801025390625
16.834228515625 -88.778564453125 3.1007080078125
10.74462890625 -4.9051513671875 -4.556884765625
-49.65234375 -123.6392822265625 9.354248046875
81.724365234375 -26.323974609375 9.2418212890625
-65.8408203125 -9.1217041015625 -5.91552734375
80.685302734375 -25.854248046875 2.137451171875
10.122802734375 -61.0673828125 -9.6552734375
-60.82421875 -22.20703125 -7.27880859375
-34.953369140625 79.441162109375 16.0789794921875
11.71142578125 -108.587890625 6.2093505859375
-62.30517578125 -62.466796875 3.60546875
-53.042724609375 -52.000732421875 10.669189453125
60.23974609375 -83.3834228515625 -28.854248046875
50.793701171875 -97.5875244140625 -38.230224609375
-2.763671875 78.354736328125 8.9727783203125
69.62890625 18.4630126953125 1.6268310546875
-28.53271484375 -43.034423828125 -11.41748046875
56.2373046875 -108.1470947265625 2.5665283203125
88.76220703125 -100.83349609375 -28.964111328125
88.05859375 -54.1446533203125 -24.31494140625
-3.739990234375 57.1181640625 -4.5152587890625
7.145263671875 -71.0565185546875 -10.019775390625
-5.12744140625 -69.2447509765625 6.9554443359375
-53.552978515625 -30.2470703125 -7.4888916015625
29.3720703125 -35.2645263671875 -10.7271728515625
43.640625 -59.837646484375 -30.888427734375
52.85595703125 -116.4486083984375 -4.6468505859375
55.0498046875 -71.2662353515625 -32.4407958984375
-61.754638671875 -120.256591796875 10.705078125
-49.72314453125 -44.1761474609375 12.5234375
-5.0693359375 -30.21044921875 17.522705078125
17.8203125 -83.51953125 5.8201904296875
38.8798828125 -62.1466064453125 -10.8228759765625
-12.25341796875 64.97314453125 4.4827880859375
-12.59765625 78.2662353515625 10.3582763671875
-74.260009765625 -42.5611572265625 17.1507568359375
-81.6689453125 15.4619140625 -7.3934326171875
-44.298095703125 -44.127685546875 -6.742919921875
-28.6962890625 23.499755859375 -2.1500244140625
39.232421875 -32.810791015625 -17.3114013671875
70.183349609375 7.7994384765625 5.8563232421875
8.2529296875 90.0650634765625 -9.3154296875
42.29296875 26.019775390625 -6.824951171875
-7.9716796875 41.78955078125 -4.314208984375
14.0166015625 75.9342041015625 -12.061279296875
-18.590576171875 -46.4912109375 -20.15087890625
-87.14208984375 23.05517578125 -8.0625
0.74365234375 66.617919921875 -2.5701904296875
-2.61572265625 -138.43994140625 9.000244140625
24.72216796875 90.6260986328125 -14.6624755859375
37.513427734375 -73.2958984375 -11.110107421875
-29.689208984375 -32.001708984375 -9.405029296875
-22.69482421875 -40.00830078125 -9.31689453125
44.796875 -89.8021240234375 -37.6951904296875
-63.14453125 0.2532958984375 -6.8558349609375
17.428955078125 -70.5511474609375 5.030517578125
12.993408203125 24.03369140625 -5.1463623046875
-9.96240234375 22.281982421875 -3.8673095703125
-55.25244140625 -115.992431640625 9.37744140625
24.08251953125 72.37451171875 -1.1702880859375
-62.253662109375 -81.2998046875 -8.77734375
42.587646484375 -27.5223388671875 -13.1962890625
69.3125 -1.1458740234375 10.982177734375
29.488525390625 -99.120849609375 -10.3529052734375
22.201416015625 29.349609375 -5.5263671875
-52.43603515625 -58.8563232421875 3.5213623046875
31.464599609375 15.42236328125 -5.59912109375
-72.4150390625 -75.1595458984375 11.1221923828125
41.025634765625 -117.6588134765625 -6.24853515625
-0.263916015625 -101.44189453125 6.3929443359375
8.6865234375 -67.7593994140625 5.78369140625
-78.138916015625 28.0555419921875 -9.64111328125
6.982421875 76.52734375 5.6500244140625
20.195556640625 80.2718505859375 -19.8941650390625
25.284423828125 60.1939697265625 -6.432373046875
72.01904296875 -1.580078125 6.2342529296875
88.405029296875 -89.2320556640625 -22.973388671875
-11.209716796875 -98.1258544921875 6.782470703125
27.67236328125 -50.0928955078125 -11.059814453125
-20.12109375 -28.0821533203125 -7.9324951171875
88.058349609375 -42.722412109375 6.947265625
50.656005859375 -80.3551025390625 -31.3577880859375
-10.06689453125 -122.4771728515625 7.249755859375
-10.962158203125 12.4840087890625 -3.3995361328125
23.530517578125 -84.73681640625 -10.0865478515625
64.62548828125 -12.022216796875 4.8870849609375
48.0751953125 -75.22314453125 -11.6387939453125
-70.281494140625 -69.6453857421875 -0.18798828125
-26.803466796875 76.914794921875 12.6370849609375
-51.9150390625 -68.405029296875 -14.6458740234375
47.212890625 -116.5054931640625 -20.8389892578125
53.990234375 -109.21484375 -25.7080078125
27.8017578125 -40.8331298828125 -18.296142578125
-15.443115234375 -133.810302734375 8.4927978515625
4.62646484375 -115.7447509765625 6.7550048828125
13.986572265625 -114.88134765625 6.2904052734375
63.106689453125 21.311767578125 4.06884765625
-76.85986328125 -11.986572265625 -5.0714111328125
28.014892578125 -59.8021240234375 -10.622314453125
49.36865234375 -101.041748046875 -23.802001953125
7.49658203125 31.8865966796875 -4.7564697265625
-11.599609375 -38.076416015625 -21.3526611328125
93.793701171875 -96.4290771484375 -36.0404052734375
21.857421875 -43.9173583984375 -17.4342041015625
53.0908203125 -81.7120361328125 -7.3818359375
26.342041015625 81.4847412109375 6.2095947265625
91.819580078125 -78.8599853515625 -28.4278564453125
45.3408203125 -80.800537109375 -6.5936279296875
22.177978515625 85.0069580078125 -17.2547607421875
15.517578125 72.356201171875 0.1033935546875
53.641845703125 -80.15087890625 -36.5328369140625
71.793701171875 -18.665283203125 9.4923095703125
26.12109375 12.8255615234375 -5.2972412109375
-26.786376953125 -54.380126953125 -9.0640869140625
5.1357421875 -90.08056640625 -8.9383544921875
57.576904296875 -70.671630859375 -11.9478759765625
-24.572998046875 -30.848876953125 -4.9866943359375
-65.60546875 -112.3331298828125 10.568603515625
-57.778564453125 -38.96533203125 -7.156494140625
-71.164306640625 0.3848876953125 -6.604248046875
58.268798828125 -50.093994140625 -11.8487548828125
28.45849609375 -125.170654296875 1.4400634765625
-70.207275390625 -38.7249755859375 17.9683837890625
82.1416015625 -14.75634765625 -1.36767578125
-52.18310546875 -66.0904541015625 -1.3682861328125
-15.91015625 -7.899169921875 -3.1806640625
60.260498046875 -77.223876953125 -30.338134765625
-15.1904296875 -32.211669921875 -21.4302978515625
17.18359375 -99.1697998046875 5.6578369140625
20.6005859375 -18.6942138671875 -10.11474609375
55.731689453125 -75.2852783203125 -11.944580078125
-56.76806640625 -41.1298828125 15.049560546875
-7.5771484375 -4.7220458984375 -3.37255859375
-5.05419921875 -81.5211181640625 6.5291748046875
-15.393310546875 -12.515869140625 -5.1815185546875
5.962158203125 21.5701904296875 -4.669921875
-0.239990234375 -121.49658203125 6.8790283203125
-59.304931640625 -87.9815673828125 -6.9132080078125
46.014404296875 47.3201904296875 -8.7606201171875
5.785400390625 -63.3111572265625 -9.314208984375
21.205078125 -49.9276123046875 -10.7977294921875
77.69091796875 -1.308349609375 -1.904541015625
37.884765625 0.126708984375 -5.7254638671875
-35.980224609375 -55.2969970703125 -8.150390625
67.35302734375 26.3431396484375 1.3887939453125
36.242919921875 -40.9764404296875 -11.28125
-30.743408203125 -128.62744140625 8.3458251953125
31.99609375 -8.6263427734375 -6.7545166015625
31.7998046875 31.3604736328125 -6.0750732421875
89.081298828125 -86.2813720703125 -14.428955078125
48.7685546875 -79.196533203125 -16.181396484375
48.789794921875 -97.26611328125 -3.0672607421875
-76.95751953125 -59.388916015625 14.4541015625
-59.15478515625 -82.5361328125 -14.1993408203125
60.838623046875 -60.818603515625 -12.1851806640625
-19.825439453125 10.4237060546875 -0.568359375
44.87939453125 -57.81640625 -11.197998046875
96.6025390625 -81.959228515625 -29.0926513671875
8.79296875 -124.7557373046875 6.98193359375
94.21728515625 -92.2447509765625 -30.808837890625
29.323486328125 -2.1558837890625 -4.9207763671875
-48.7861328125 -115.8006591796875 5.540283203125
2.658203125 47.48095703125 -4.816162109375
-77.074951171875 -0.2763671875 -5.285400390625
-23.666748046875 -45.0985107421875 -9.4600830078125
-21.6845703125 -36.8990478515625 -19.1319580078125
-65.36181640625 -46.431640625 13.407470703125
-12.375 -3.787353515625 -3.26171875
15.35302734375 72.1793212890625 -20.771484375
-64.328369140625 -76.934326171875 -2.728759765625
25.52490234375 -19.6947021484375 -10.450439453125
62.58203125 -117.4564208984375 -1.033447265625
-2.168701171875 -22.2774658203125 20.91650390625
38.80908203125 45.6929931640625 -6.9027099609375
-8.17626953125 84.3509521484375 16.1903076171875
-23.78173828125 84.0765380859375 18.6051025390625
13.496826171875 -79.2303466796875 -9.84619140625
-12.2919921875 -54.6156005859375 -8.8858642578125
25.838134765625 -95.927978515625 -11.0006103515625
45.667236328125 -69.787353515625 -30.99462890625
-66.7060546875 -65.7237548828125 6.1651611328125
75.532470703125 -8.060546875 1.4932861328125
18.519287109375 90.2489013671875 -10.353759765625
12.878662109375 -21.939453125 -10.0643310546875
-20.329345703125 -50.1783447265625 -9.4012451171875
-93.77392578125 31.0029296875 -6.458251953125
-11.42333984375 74.1297607421875 6.345703125
-74.215576171875 33.4647216796875 -10.739990234375
42.453369140625 -46.01025390625 -10.741943359375
43.55712890625 -80.3277587890625 -23.654541015625
-43.41796875 -27.07275390625 -7.6309814453125
14.845703125 58.3021240234375 -5.544921875
66.149658203125 11.6334228515625 10.0059814453125
-70.48193359375 17.1846923828125 -8.5419921875
-43.498779296875 -48.8665771484375 -7.4913330078125
12.714111328125 -72.2286376953125 6.7626953125
50.26220703125 40.5892333984375 -8.6851806640625
94.24267578125 -68.684814453125 -26.1717529296875
-73.90771484375 -82.200927734375 12.31640625
-2.51123046875 84.4537353515625 15.273681640625
10.028564453125 -89.358642578125 6.034423828125
-18.1865234375 46.2869873046875 -3.8751220703125
-13.39404296875 71.00830078125 9.677978515625
-20.606201171875 -103.54443359375 6.9176025390625
32.741455078125 -69.361328125 -10.841796875
84.935791015625 -105.9459228515625 -23.8277587890625
39.43408203125 -89.5726318359375 -30.53369140625
15.80029296875 15.3602294921875 -4.959716796875
-22.755859375 -73.7772216796875 7.1337890625
17.376708984375 38.0897216796875 -5.52294921875
-40.177734375 -39.974609375 -7.1607666015625
39.473876953125 -79.2738037109375 -28.1358642578125
-41.853759765625 -124.0772705078125 9.0521240234375
-72.7373046875 -20.4747314453125 -7.1522216796875
-3.850341796875 -110.141845703125 6.6702880859375
7.29541015625 65.4495849609375 -4.6015625
15.19189453125 6.0611572265625 -4.6322021484375
-47.5986328125 -52.78759765625 7.9696044921875
-57.906982421875 -32.7132568359375 -7.2452392578125
32.06005859375 56.6444091796875 -6.815185546875
44.82568359375 -120.31689453125 -6.572509765625
-39.056396484375 -60.4984130859375 -3.9815673828125
12.6435546875 80.9254150390625 -7.6246337890625
-83.198486328125 6.15087890625 -6.0738525390625
-34.702392578125 -41.833740234375 -13.9569091796875
-10.40673828125 64.8377685546875 13.95068359375
-86.20361328125 28.5589599609375 -8.7283935546875
46.15087890625 -90.8974609375 -6.3846435546875
-5.029296875 71.53271484375 2.740234375
101.1923828125 -74.4530029296875 -28.9810791015625
91.114013671875 -104.865478515625 -31.5885009765625
-11.77880859375 -20.937255859375 -8.7379150390625
-14.9970703125 -70.2060546875 6.6800537109375
-99.15576171875 34.9730224609375 -8.9051513671875
2.107177734375 55.7518310546875 -5.0098876953125
5.730224609375 73.0377197265625 2.9619140625
-48.982177734375 -32.9195556640625 -7.5306396484375
-18.89111328125 -108.9920654296875 6.7694091796875
0.196533203125 -88.146728515625 6.24951171875
-109.789306640625 30.45654296875 -4.06884765625
73.702880859375 0.686279296875 -0.502197265625
52.484130859375 -66.436767578125 -34.0601806640625
-44.264404296875 -81.7769775390625 -12.23046875
-27.95654296875 -108.04638671875 7.0169677734375
-73.20556640625 -89.212646484375 12.9017333984375
21.155029296875 -9.5887451171875 -6.4443359375
13.387939453125 -129.5877685546875 7.3046875
-25.58203125 -123.1259765625 7.6834716796875
13.90576171875 -40.779052734375 -7.8931884765625
-66.062744140625 16.5181884765625 -9.3353271484375
-23.237060546875 23.2716064453125 -3.54052734375
28.1337890625 -117.7552490234375 -0.81884765625
-59.738037109375 -9.826171875 -6.3843994140625
-69.377685546875 -69.336669921875 5.6085205078125
11.88623046875 89.3477783203125 12.737060546875
30.990966796875 -49.4996337890625 -14.41650390625
41.322509765625 -112.6409912109375 -5.10302734375
-10.351806640625 -113.81884765625 7.2095947265625
75.18408203125 -17.8675537109375 5.2607421875
13.9404296875 -26.7099609375 -10.24169921875
-23.992431640625 56.0550537109375 -3.38330078125
-48.501708984375 -102.02294921875 -1.7755126953125
2.62890625 -132.9207763671875 7.5689697265625
-53.72412109375 -86.3291015625 -13.614990234375
26.757568359375 35.92431640625 -5.9814453125
26.44921875 84.7767333984375 -19.439208984375
-74.983154296875 -71.4765625 12.7137451171875
2.617919921875 -111.7322998046875 6.646728515625
-56.974609375 -66.3092041015625 -1.29150390625
31.85009765625 -114.590087890625 -4.3115234375
9.027587890625 -97.8922119140625 6.1829833984375
-22.075439453125 -7.653564453125 -2.722412109375
-43.735107421875 -56.9847412109375 -4.8658447265625
59.9697265625 29.761962890625 -4.012939453125
27.110595703125 -27.203125 -10.5333251953125
-68.148681640625 -96.4091796875 10.120849609375
88.23828125 -100.443115234375 -24.555419921875
15.4365234375 -75.2369384765625 -10.21728515625
45.316650390625 -75.437255859375 -27.1856689453125
-18.139404296875 -51.8369140625 -12.9017333984375
-25.0595703125 -104.5740966796875 6.987548828125
-18.8056640625 1.7767333984375 -3.0201416015625
39.05029296875 9.1610107421875 -5.7421875
-12.092041015625 -47.4427490234375 -21.0111083984375
17.51318359375 32.591796875 -5.3863525390625
83.309814453125 -32.9024658203125 3.178955078125
-57.025390625 -100.501708984375 9.1019287109375
64.146728515625 -112.8768310546875 3.077392578125
-34.051025390625 -36.3912353515625 -8.11083984375
13.56201171875 85.6951904296875 -15.94140625
-17.916015625 -32.0750732421875 -16.0367431640625
-36.8447265625 -69.892578125 -2.01220703125
38.88720703125 -96.4940185546875 -26.95361328125
-82.174560546875 35.75537109375 -9.9903564453125
42.595703125 -84.52001953125 -5.5767822265625
-27.94677734375 -23.21923828125 -8.3731689453125
-32.867919921875 -118.7288818359375 7.953857421875
-63.664306640625 -86.96435546875 -0.982177734375
-105.14013671875 41.88330078125 -7.02734375
7.36181640625 -35.6302490234375 -9.4564208984375
-15.3291015625 57.2974853515625 1.0992431640625
-67.69970703125 -93.016845703125 3.1585693359375
-12.60791015625 -108.0694580078125 6.99560546875
-39.4296875 -44.1085205078125 -8.8936767578125
20.541015625 82.9073486328125 9.5352783203125
36.49072265625 33.262939453125 -6.403564453125
-91.00390625 39.6085205078125 -10.0098876953125
6.775146484375 90.9876708984375 -5.3109130859375
1.426513671875 -1.918212890625 -3.75732421875
44.15185546875 -18.0662841796875 -10.88427734375
-53.786376953125 -47.20654296875 -6.5899658203125
-32.420166015625 79.470458984375 20.6375732421875
-26.298583984375 14.903076171875 0.4461669921875
36.115478515625 -21.8704833984375 -10.77880859375
-27.073486328125 -34.9840087890625 -4.70703125
38.061279296875 -4.2093505859375 -5.9742431640625
23.121337890625 95.6009521484375 -8.8681640625
89.262939453125 -85.4403076171875 -27.8690185546875
20.7158203125 -41.0281982421875 -11.905517578125
9.68212890625 87.0115966796875 -12.0457763671875
-24.0283203125 -30.9378662109375 -13.007568359375
-50.528076171875 -79.234375 -13.46484375
-64.29931640625 -102.6358642578125 10.40869140625
-43.40283203125 -71.3203125 -3.7679443359375
18.479248046875 -96.0994873046875 -7.2869873046875
5.097900390625 1.89501953125 -3.8836669921875
9.811767578125 42.642333984375 -5.27392578125
-16.3896484375 79.3428955078125 12.16845703125
-71.557861328125 -82.31396484375 4.7220458984375
47.055908203125 -60.8748779296875 -34.8533935546875
32.467041015625 -24.84521484375 -10.867431640625
-52.497802734375 -113.4989013671875 1.12841796875
37.617919921875 -110.0311279296875 -3.1629638671875
-11.044189453125 50.8575439453125 -4.2728271484375
-20.43017578125 -128.48779296875 8.1754150390625
16.769775390625 69.7225341796875 -16.6591796875
-23.81201171875 46.7344970703125 -2.0439453125
76.22119140625 -12.7391357421875 1.5281982421875
89.246826171875 -84.162841796875 -21.524169921875
-30.94287109375 45.6568603515625 -3.5040283203125
38.155517578125 41.45068359375 -7.1748046875
0.68798828125 -31.1187744140625 -10.2156982421875
-26.322509765625 -131.60107421875 8.50537109375
52.21044921875 -88.93017578125 -4.8759765625
44.266845703125 -83.3326416015625 -36.96875
16.8818359375 44.8096923828125 -5.2960205078125
5.850341796875 -70.8619384765625 6.60107421875
67.565185546875 0.0594482421875 7.2669677734375
42.507080078125 -84.885009765625 -29.227294921875
-61.188720703125 -47.82666015625 12.800048828125
-9.0537109375 -73.525146484375 6.7742919921875
45.154296875 -79.904052734375 -13.915283203125
18.26953125 -45.449951171875 -9.3623046875
-53.333984375 -126.5244140625 10.1693115234375
67.13818359375 26.1715087890625 -4.0003662109375
39.078125 -14.063232421875 -10.23779296875
-6.55322265625 -105.1666259765625 6.6090087890625
-31.7294921875 -41.4560546875 -8.7454833984375
-28.68359375 83.7579345703125 22.4166259765625
66.029296875 5.987060546875 5.1787109375
-50.9462890625 -93.306640625 -2.048095703125
33.535400390625 -65.20703125 -10.4814453125
55.09765625 -55.8785400390625 -11.744140625
-65.650634765625 8.7364501953125 -8.1912841796875
79.965087890625 -21.204345703125 -0.0592041015625
-1.100341796875 -57.0196533203125 -9.0970458984375
49.0068359375 -81.96142578125 -4.8072509765625
-61.831298828125 -80.2010498046875 -4.3975830078125
20.429931640625 -112.3570556640625 5.8424072265625
-23.582763671875 -38.65283203125 -5.38330078125
16.28515625 78.6644287109375 -20.1090087890625
-1.43798828125 29.9078369140625 -4.1513671875
-58.968505859375 -104.2086181640625 9.7254638671875
-10.07568359375 -59.62939453125 -8.6959228515625
51.598388671875 -114.0499267578125 -25.55810546875
-17.0859375 -115.89794921875 7.08984375
-48.153564453125 -46.06494140625 7.03662109375
-21.95556640625 87.1260986328125 21.299072265625
-55.105712890625 -111.166748046875 9.3681640625
-45.560546875 -73.1126708984375 -15.46435546875
34.49755859375 -81.6722412109375 -8.6409912109375
-54.820068359375 -100.1466064453125 -2.7366943359375
0.619384765625 -97.3154296875 6.33837890625
-14.980224609375 85.7791748046875 18.3504638671875
11.43017578125 82.4398193359375 9.7896728515625
63.79736328125 -52.710693359375 -12.2535400390625
3.36865234375 -5.901123046875 -3.724853515625
-49.0068359375 -37.260986328125 -7.4102783203125
13.30615234375 -80.9971923828125 6.4691162109375
24.580810546875 92.0035400390625 -10.696533203125
85.134033203125 -66.3907470703125 -27.0533447265625
48.370849609375 -67.201904296875 -11.8082275390625
-17.83154296875 28.5142822265625 -3.5928955078125
27.812255859375 -11.431396484375 -7.7271728515625
17.1708984375 89.3262939453125 13.898681640625
-57.7763671875 -14.1893310546875 -7.112060546875
19.81787109375 -106.6357421875 3.226318359375
12.841552734375 28.6903076171875 -5.36572265625
-49.8818359375 -57.1019287109375 0.7130126953125
-58.079833984375 -2.631103515625 -6.9088134765625
16.80859375 -17.0439453125 -9.5042724609375
8.301513671875 -134.583984375 7.9410400390625
-91.81396484375 21.9755859375 -7.8558349609375
-2.832763671875 63.5474853515625 -3.8406982421875
35.713134765625 -125.593994140625 -3.64501953125
67.6376953125 18.816162109375 9.96630859375
-8.001953125 31.1754150390625 -4.2183837890625
-0.50439453125 7.041015625 -3.8795166015625
86.522216796875 -37.763671875 -0.62890625
6.790283203125 -80.3529052734375 -10.0234375
-51.492919921875 -8.8258056640625 -7.0640869140625
24.72119140625 -80.2303466796875 -9.9306640625
4.674560546875 10.72802734375 -3.95263671875
-11.576904296875 60.420654296875 9.14892578125
6.602294921875 -9.690673828125 -5.812255859375
46.3310546875 -108.4527587890625 -21.742431640625
-6.711669921875 -136.3258056640625 8.6966552734375
9.936279296875 -95.99755859375 -10.1395263671875
-7.663818359375 -88.6556396484375 6.591552734375
55.98095703125 -114.136474609375 -2.39794921875
-107.077880859375 36.14990234375 -8.2510986328125
71.102783203125 12.6124267578125 0.4710693359375
3.116455078125 80.3426513671875 9.8228759765625
25.10693359375 52.1513671875 -6.218994140625
6.753173828125 -28.7308349609375 -9.8084716796875
-78.01513671875 19.7052001953125 -8.306396484375
14.6484375 -65.31005859375 -7.8922119140625
25.5966796875 31.68798828125 -5.590087890625
-78.28466796875 32.163330078125 -9.9058837890625
77.4697265625 -5.4205322265625 -1.86083984375
-54.086181640625 -44.4364013671875 13.4654541015625
-103.76806640625 28.0308837890625 -7.843505859375
-68.890869140625 -60.117431640625 10.801513671875
15.661376953125 -11.353515625 -7.2818603515625
50.763916015625 -107.4732666015625 -0.4842529296875
13.567138671875 -87.39111328125 -9.96533203125
48.950927734375 -116.3177490234375 -6.6756591796875
50.947265625 -46.75146484375 -11.5364990234375
-57.348876953125 -37.544189453125 17.40966796875
-13.8203125 -101.150634765625 7.671875
-4.238525390625 3.6695556640625 -3.7999267578125
90.254638671875 -82.935546875 -17.676513671875
56.90673828125 -59.7333984375 -11.96533203125
75.4765625 11.200927734375 -1.68017578125
-72.84130859375 12.8204345703125 -7.9442138671875
38.387451171875 24.9305419921875 -6.3809814453125
23.48876953125 77.0545654296875 3.3902587890625
-55.8427734375 -23.2340087890625 -7.7628173828125
-59.48486328125 -123.607177734375 10.3291015625
83.595703125 -29.003173828125 2.07080078125
-9.819580078125 4.230224609375 -3.7530517578125
-35.169189453125 -50.08642578125 -10.5675048828125
-79.69189453125 -77.206787109375 16.2391357421875
29.52294921875 -122.7232666015625 -1.8511962890625
15.001220703125 20.5057373046875 -5.0762939453125
17.447265625 -123.7666015625 6.4776611328125
-52.1826171875 -47.9837646484375 11.7069091796875
-58.202880859375 -73.670166015625 -14.6712646484375
25.680908203125 -91.711669921875 -10.2401123046875
-73.12158203125 -64.3458251953125 12.3680419921875
2.677978515625 -79.6636962890625 -9.30517578125
-6.39501953125 -129.107421875 7.4100341796875
35.198486328125 10.352783203125 -5.6051025390625
61.541259765625 -81.1173095703125 -31.9256591796875
88.5458984375 -78.0872802734375 -25.0574951171875
26.0537109375 93.7095947265625 -16.9813232421875
-12.94677734375 70.825927734375 20.7506103515625
51.066650390625 -112.568603515625 -3.9063720703125
-47.2421875 -59.7940673828125 -1.8880615234375
-27.749267578125 11.3817138671875 -1.9307861328125
87.624755859375 -80.2261962890625 -21.0888671875
-27.39990234375 51.806640625 -3.3037109375
27.7880859375 -76.87255859375 -10.1512451171875
-28.146728515625 0.691650390625 -2.605712890625
20.365478515625 64.8751220703125 -5.7935791015625
-90.558837890625 31.5279541015625 -4.126953125
3.303955078125 -59.4833984375 -9.2198486328125
-20.1337890625 -60.22998046875 -8.584228515625
-57.3466796875 -52.507080078125 11.098876953125
19.113525390625 65.671142578125 -17.9254150390625
45.2177734375 -78.5894775390625 -10.138671875
14.785400390625 -92.15576171875 6.0926513671875
23.51220703125 -121.3876953125 5.1729736328125
59.853759765625 -66.062744140625 -12.2060546875
-69.4443359375 -45.948974609375 14.4892578125
-11.107177734375 62.53173828125 -3.848388671875
67.557373046875 -7.477294921875 11.466552734375
-18.458251953125 -20.4632568359375 -8.5712890625
13.814208984375 78.259765625 9.5869140625
32.456298828125 -37.8509521484375 -10.9473876953125
-74.03271484375 -93.86572265625 13.3428955078125
95.54931640625 -97.217041015625 -32.5552978515625
22.6611328125 -27.9732666015625 -10.013916015625
-68.358642578125 -84.3531494140625 -0.723876953125
4.244140625 29.5986328125 -4.6973876953125
54.435791015625 32.35791015625 -7.7833251953125
-4.68994140625 39.5528564453125 -4.15576171875
94.6767578125 -76.107421875 -28.6387939453125
-3.244873046875 18.0528564453125 -3.90966796875
40.20068359375 53.438232421875 -7.382568359375
33.2021484375 39.9005126953125 -6.4669189453125
-12.085205078125 -126.716064453125 7.4578857421875
-20.366455078125 53.984375 -3.845703125
28.076904296875 66.107421875 -7.1116943359375
21.36328125 -96.9180908203125 -10.0086669921875
-45.62158203125 -77.5614013671875 -11.95751953125
-70.005126953125 24.539794921875 -10.426513671875
34.105712890625 24.342041015625 -6.167724609375
9.2734375 88.3717041015625 -2.830810546875
37.4814453125 -83.865234375 -23.752197265625
63.601318359375 12.910888671875 2.6190185546875
-62.45361328125 4.0887451171875 -7.4420166015625
12.79296875 80.899658203125 -17.33251953125
-84.75537109375 19.9310302734375 -8.1976318359375
32.586669921875 -111.0947265625 -1.4090576171875
30.52783203125 -128.2886962890625 2.6312255859375
6.374267578125 94.2271728515625 1.1502685546875
-4.728271484375 -114.2467041015625 6.7244873046875
98.86474609375 -70.3096923828125 -28.8876953125
51.650634765625 -76.8349609375 -11.555419921875
6.501953125 -23.284912109375 -9.52978515625
-0.09521484375 -84.23876953125 6.3524169921875
-3.50537109375 12.728271484375 -4.0340576171875
-58.408447265625 -118.186767578125 10.1300048828125
35.36181640625 -118.1473388671875 -5.895263671875
-30.503662109375 -30.1654052734375 -3.9180908203125
-44.132080078125 -108.8555908203125 1.2073974609375
-0.275146484375 36.0999755859375 -4.817626953125
-18.470947265625 -14.81005859375 -6.1285400390625
-24.8349609375 -15.2431640625 -5.8974609375
24.84130859375 84.2777099609375 8.4998779296875
-18.29150390625 -37.2451171875 -16.2423095703125
-36.449462890625 -31.2315673828125 -8.032958984375
-20.586669921875 76.154296875 11.7733154296875
68.2734375 18.3995361328125 6.0662841796875
-14.093994140625 67.3350830078125 1.3323974609375
-62.22265625 -18.5701904296875 -7.1402587890625
8.443359375 -105.6099853515625 6.176513671875
-16.751708984375 -122.0211181640625 7.3773193359375
-64.980224609375 -33.9847412109375 -6.7197265625
-61.027099609375 -86.302734375 -10.145751953125
-65.474853515625 -38.233642578125 17.5384521484375
-81.05126953125 -67.8082275390625 17.27685546875
-1.37353515625 47.2318115234375 -4.6654052734375
-6.547119140625 77.163330078125 8.6533203125
-1.9736328125 -71.4654541015625 6.5228271484375
-62.024658203125 -97.816650390625 2.5443115234375
62.392822265625 12.807373046875 7.1343994140625
5.178955078125 -98.3955078125 6.474609375
-51.3037109375 -33.56396484375 18.73779296875
17.21435546875 -90.2786865234375 -10.2469482421875
-8.965087890625 65.588623046875 -2.560546875
17.35693359375 79.8056640625 6.0477294921875
-25.26416015625 58.62744140625 2.80078125
38.720703125 -35.6663818359375 -11.2666015625
-64.092529296875 12.8760986328125 -9.00927734375
-4.17578125 -97.52197265625 6.4056396484375
9.376953125 -54.1376953125 -9.5966796875
23.21875 -130.29296875 6.899658203125
-75.22607421875 -50.058837890625 18.2667236328125
24.0126953125 -48.241455078125 -12.835693359375
32.37451171875 0.176025390625 -5.253662109375
-78.115234375 24.260009765625 -8.976318359375
3.709228515625 -17.1549072265625 -8.9517822265625
36.330810546875 -31.024169921875 -10.89794921875
-74.602783203125 -7.6417236328125 -5.7423095703125
-24.87548828125 32.59619140625 -3.4962158203125
-14.76953125 43.3306884765625 -4.1103515625
-15.70068359375 -138.5927734375 8.9599609375
36.265380859375 -11.8017578125 -8.8128662109375
30.59326171875 -17.3250732421875 -10.4503173828125
-9.18408203125 -83.588623046875 6.3759765625
-70.619873046875 -88.6822509765625 10.1043701171875
15.3525390625 -102.1927490234375 -9.4454345703125
86.06298828125 -57.30322265625 -25.2205810546875
6.921142578125 -91.76611328125 6.1954345703125
-29.7060546875 -56.8084716796875 -8.4725341796875
87.618408203125 -45.4371337890625 4.262939453125
0.96142578125 -136.721923828125 8.661376953125
14.044189453125 75.0982666015625 2.3519287109375
17.5673828125 86.5162353515625 -15.70361328125
-67.764892578125 -26.121337890625 -7.3905029296875
-58.52294921875 -71.6956787109375 -9.8951416015625
57.326171875 -77.7203369140625 -16.336181640625
25.06884765625 -125.716064453125 4.85791015625
-19.42041015625 22.99951171875 -3.7220458984375
-49.514892578125 -129.6217041015625 10.0325927734375
23.37744140625 4.520263671875 -5.29052734375
34.53564453125 -57.014404296875 -10.67431640625
-63.0615234375 -25.31201171875 -7.38671875
47.957763671875 -60.0709228515625 -11.4718017578125
-43.219482421875 -82.2559814453125 -15.8775634765625
-77.554443359375 -89.180419921875 15.1815185546875
35.530517578125 -31.887451171875 -17.076171875
-18.950927734375 -74.09326171875 6.953125
-37.349609375 -124.3486328125 8.5584716796875
49.053466796875 -100.0089111328125 -27.466552734375
9.799072265625 -1.034912109375 -4.385009765625
-13.182861328125 73.0263671875 23.8629150390625
-42.152099609375 -129.8843994140625 9.3834228515625
-64.20654296875 -33.918701171875 20.5318603515625
-71.55712890625 -96.546630859375 12.2464599609375
88.393798828125 -64.996337890625 -25.5732421875
13.416748046875 -98.87744140625 6.13330078125
-55.53857421875 -95.93017578125 -1.4825439453125
-12.449951171875 39.182373046875 -4.264404296875
-23.66845703125 7.9595947265625 -3.13037109375
-61.123046875 -74.601806640625 -2.374267578125
-81.75439453125 27.132080078125 -8.9117431640625
-53.8125 -69.0738525390625 -10.335693359375
15.564208984375 -105.0831298828125 6.1204833984375
3.185302734375 -12.850341796875 -6.9512939453125
-72.12548828125 -35.441650390625 20.6368408203125
7.053466796875 -119.3927001953125 6.6666259765625
-59.535888671875 -88.5419921875 -3.175537109375
54.391845703125 -80.244140625 -18.3857421875
28.9365234375 -44.4412841796875 -18.3642578125
43.119873046875 -67.7239990234375 -11.106689453125
28.583251953125 39.2342529296875 -6.012939453125
46.259521484375 -79.7373046875 -31.9793701171875
-26.7890625 -9.255615234375 -1.89453125
44.589111328125 -110.167236328125 -3.7664794921875
-22.0478515625 -31.5438232421875 -17.4908447265625
-14.4990234375 74.9210205078125 16.294677734375
-28.228515625 -125.8543701171875 7.970947265625
-52.55615234375 -36.6104736328125 16.919921875
87.794921875 -73.7545166015625 -27.1881103515625
-48.81201171875 -87.0701904296875 -12.2659912109375
82.491455078125 -24.14599609375 -0.8829345703125
-35.545166015625 -135.2060546875 9.6826171875
-12.047119140625 68.1900634765625 13.505126953125
-17.720703125 81.5560302734375 14.89794921875
48.0693359375 -81.30419921875 -23.4471435546875
22.5703125 49.4210205078125 -3.599365234375
-27.072021484375 -104.102294921875 10.12158203125
-1.770751953125 -78.798828125 6.5963134765625
-1.751953125 -7.364501953125 -3.943115234375
16.330078125 -82.86865234375 -9.7266845703125
37.76904296875 -91.081298828125 -23.1688232421875
9.990234375 6.977783203125 -4.5980224609375
-77.474853515625 -80.875732421875 14.87255859375
-68.81103515625 -104.175048828125 11.4962158203125
10.592041015625 76.593994140625 4.6396484375
-85.829833984375 14.35888671875 -7.1685791015625
25.7880859375 87.0164794921875 -16.248291015625
31.845947265625 -78.3238525390625 -11.1595458984375
29.049560546875 -69.2418212890625 -10.208251953125
73.72314453125 -10.1929931640625 4.4466552734375
10.270263671875 50.9381103515625 -5.269287109375
85.941650390625 -51.05908203125 -24.2373046875
33.17578125 18.7479248046875 -5.72021484375
-4.455810546875 53.453125 -4.3310546875
-27.893798828125 75.05810546875 15.6927490234375
14.707275390625 2.3203125 -4.769287109375
-71.713623046875 -82.72509765625 -0.947509765625
-3.854736328125 -120.5533447265625 6.8707275390625
38.7119140625 -105.3699951171875 -3.0882568359375
8.720947265625 -86.8255615234375 -9.7178955078125
74.408935546875 -21.6121826171875 6.0653076171875
13.698974609375 37.460693359375 -5.5570068359375
27.528076171875 -111.2335205078125 1.9439697265625
64.76513671875 24.108642578125 5.8974609375
-47.989013671875 -96.472900390625 -1.9241943359375
-24.40625 36.9345703125 -3.2867431640625
-14.51123046875 48.547607421875 -3.98828125
-54.18798828125 -39.93603515625 -7.3055419921875
79.398681640625 -26.3148193359375 5.59912109375
66.627685546875 10.67529296875 3.83203125
-3.61865234375 -26.90576171875 -9.3948974609375
-70.51904296875 -6.6654052734375 -5.6717529296875
38.989990234375 -76.71875 -10.9437255859375
-66.54248046875 -122.769287109375 11.509033203125
-7.70361328125 -9.9002685546875 -4.392822265625
20.0810546875 -64.50341796875 -10.2291259765625
-17.56640625 -29.9061279296875 -19.026123046875
45.733642578125 -101.9903564453125 -22.0843505859375
36.4072265625 -53.820068359375 -10.7152099609375
4.608642578125 83.4432373046875 12.6873779296875
39.466064453125 -84.8265380859375 -32.1029052734375
6.348876953125 47.72216796875 -4.7333984375
-65.761474609375 -70.8170166015625 -0.951904296875
43.595947265625 -97.9580078125 -27.1461181640625
-3.43359375 -54.2144775390625 -8.508544921875
-9.514404296875 -28.874267578125 -9.7596435546875
-14.481689453125 36.0291748046875 -4.00830078125
-51.63623046875 -14.5335693359375 -7.6378173828125
23.7470703125 56.8431396484375 -6.2239990234375
-10.77001953125 67.8248291015625 -0.197021484375
2.005126953125 -126.07470703125 7.130615234375
73.0380859375 4.3336181640625 -0.0782470703125
10.691650390625 -70.1719970703125 -9.5086669921875
27.60546875 6.692138671875 -5.32763671875
-71.3046875 -16.989013671875 -6.6590576171875
47.79931640625 43.2401123046875 -7.97607421875
-81.03515625 -1.743408203125 -4.8736572265625
14.219970703125 9.593017578125 -5.00439453125
16.856689453125 -38.607177734375 -8.229736328125
-63.514404296875 -83.305908203125 -1.564208984375
-18.76904296875 42.6695556640625 -3.609619140625
-10.8759765625 -133.7579345703125 8.3466796875
-39.155029296875 -53.1494140625 -7.9364013671875
-4.450439453125 82.1343994140625 13.142578125
43.813232421875 38.5230712890625 -6.834716796875
-7.83447265625 37.6748046875 -4.0594482421875
-2.681640625 -19.615966796875 -9.12939453125
44.52001953125 -63.85009765625 -31.1895751953125
-7.36328125 13.03369140625 -3.7608642578125
-77.191650390625 -41.4483642578125 19.7401123046875
-16.78173828125 74.4066162109375 12.99267578125
45.67578125 -115.6689453125 -17.6295166015625
21.568603515625 -116.0369873046875 5.2908935546875
12.218994140625 83.6204833984375 -5.205078125
38.33642578125 -89.2330322265625 -17.0511474609375
12.22119140625 -76.017822265625 6.6199951171875
21.02099609375 0.3863525390625 -4.6845703125
14.3310546875 -88.5443115234375 6.0615234375
32.701904296875 52.6126708984375 -5.218505859375
15.625732421875 -120.21044921875 6.5130615234375
29.22509765625 19.0638427734375 -5.7586669921875
12.31787109375 -51.18896484375 -9.85302734375
-16.908935546875 -57.5706787109375 -8.4918212890625
-56.344970703125 -60.283935546875 2.709716796875
-72.052734375 -77.883056640625 4.64453125
-26.91748046875 48.209716796875 -3.239990234375
2.5849609375 69.633056640625 -0.0311279296875
64.653076171875 -60.4190673828125 -12.8973388671875
-25.398193359375 26.6201171875 -3.3858642578125
-41.1982421875 -32.90673828125 -7.865966796875
21.359619140625 -32.0362548828125 -10.2137451171875
45.1162109375 -105.16796875 -0.87353515625
27.330810546875 -23.3487548828125 -10.572021484375
6.197265625 -67.6192626953125 -9.3829345703125
-25.10595703125 -115.0997314453125 7.14208984375
-19.900634765625 -45.163330078125 -12.1492919921875
89.30712890625 -94.3350830078125 -27.5733642578125
42.104736328125 -90.6531982421875 -35.4434814453125
-2.952880859375 69.30078125 0.0350341796875
81.7783203125 -61.8885498046875 -23.9727783203125
91.20654296875 -61.1878662109375 -26.2196044921875
2.606201171875 -90.8284912109375 6.2445068359375
-55.79248046875 -8.759033203125 -6.556396484375
-19.116455078125 -112.753662109375 6.8111572265625
-18.270751953125 -136.076416015625 8.732666015625
-48.3134765625 -52.3695068359375 -5.6204833984375
92.400634765625 -89.1453857421875 -30.535400390625
35.33935546875 -7.3114013671875 -6.4840087890625
-18.40185546875 88.3626708984375 21.586669921875
-3.202392578125 75.331787109375 5.876220703125
-14.0654296875 -129.700927734375 7.789794921875
-46.845703125 -51.8326416015625 -0.4307861328125
-19.048828125 49.9163818359375 -3.7115478515625
22.247314453125 69.627197265625 -3.1339111328125
-12.93798828125 68.3758544921875 7.275390625
75.705322265625 7.5570068359375 -1.8485107421875
-76.511962890625 -45.35986328125 17.481201171875
10.501220703125 83.6461181640625 -10.8021240234375
28.159912109375 50.3001708984375 -5.8687744140625
19.0361328125 85.2686767578125 11.7738037109375
-52.1708984375 -102.8311767578125 -1.291259765625
25.733642578125 -70.7152099609375 -10.504638671875
-50.08056640625 -56.2762451171875 7.68798828125
-19.962646484375 -30.6588134765625 -13.4669189453125
-109.34521484375 38.17041015625 -6.3629150390625
69.27294921875 -4.7353515625 4.7501220703125
-72.670654296875 -67.8685302734375 11.9791259765625
20.408203125 88.3812255859375 9.898193359375
8.7783203125 -86.0172119140625 5.9234619140625
4.599853515625 -53.6634521484375 -9.85009765625
-19.84619140625 -41.8890380859375 -10.354248046875
69.522705078125 23.5477294921875 0.935302734375
-11.8486328125 -12.8790283203125 -5.6297607421875
-96.661865234375 29.2965087890625 -8.1373291015625
-22.497802734375 15.90625 -3.1004638671875
-60.250244140625 -76.7271728515625 -14.6033935546875
-48.51220703125 -21.2027587890625 -7.683837890625
-5.045166015625 -91.287109375 6.260986328125
-70.7822265625 -57.14990234375 11.422119140625
-8.501953125 26.2750244140625 -3.984375
-76.185791015625 -63.290283203125 13.8165283203125
29.48046875 -6.3643798828125 -5.679931640625
-20.32177734375 38.3387451171875 -3.618896484375
-54.018798828125 -73.7706298828125 -13.3211669921875
10.7197265625 21.2376708984375 -4.9259033203125
-10.47314453125 80.5247802734375 12.6312255859375
-26.9755859375 41.8651123046875 -3.310791015625
72.1005859375 19.24267578125 -2.0333251953125
50.678955078125 36.4561767578125 -7.2396240234375
-23.5029296875 -119.0123291015625 7.5689697265625
24.6396484375 -58.7354736328125 -10.749755859375
-54.515380859375 -103.3367919921875 6.8896484375
-11.829345703125 60.149658203125 -0.102294921875
52.9892578125 -66.681640625 -11.9210205078125
25.580078125 15.43994140625 -2.3822021484375
9.771728515625 -43.20458984375 -9.427001953125
42.949951171875 -94.00634765625 -36.6998291015625
83.465576171875 -32.54541015625 8.7315673828125
-20.5390625 -77.3839111328125 8.04833984375
29.422607421875 59.692138671875 -6.7701416015625
25.118408203125 -42.460205078125 -16.669921875
-0.59619140625 -11.7216796875 -5.999755859375
62.377197265625 -4.9989013671875 5.0916748046875
-23.605224609375 -2.5753173828125 -2.949462890625
43.490234375 -50.1123046875 -10.93115234375
-79.871337890625 -59.6666259765625 16.4156494140625
87.5224609375 -85.1473388671875 -17.8992919921875
32.525390625 -123.46142578125 -3.5361328125
-34.177978515625 -109.7008056640625 8.1436767578125
29.881591796875 -55.7884521484375 -10.577392578125
-3.455810546875 -60.076416015625 -8.504150390625
-67.0869140625 -0.0777587890625 -6.6881103515625
-68.036376953125 -92.81005859375 8.4591064453125
12.96044921875 44.5958251953125 -5.4644775390625
-37.181396484375 -60.7186279296875 -8.024169921875
2.126953125 16.0025634765625 -4.29638671875
-25.099365234375 81.4656982421875 15.8424072265625
37.798828125 17.6817626953125 -6.8638916015625
55.10498046875 -87.614990234375 -3.4036865234375
-30.706298828125 83.6246337890625 18.7579345703125
-98.348388671875 21.6195068359375 -6.4290771484375
-63.767822265625 -74.602294921875 -0.0853271484375
18.910400390625 71.9658203125 -0.6474609375
56.168212890625 -79.05078125 -30.427490234375
40.802001953125 34.32421875 -6.5755615234375
51.580322265625 -74.154541015625 -32.2708740234375
-71.33935546875 3.8580322265625 -6.951416015625
1.9228515625 23.082275390625 -4.354736328125
84.61669921875 -31.5169677734375 -0.19775390625
-10.53125 -91.4771728515625 6.79638671875
-13.22998046875 -79.0228271484375 6.7939453125
69.281982421875 -16.7410888671875 8.031494140625
-52.351318359375 -79.5872802734375 -10.5167236328125
78.61376953125 -14.89990234375 -0.8955078125
-59.5 -94.2598876953125 -1.1026611328125
-11.51708984375 -75.9932861328125 6.785888671875
-58.44677734375 -69.31494140625 -2.239013671875
16.827880859375 -127.2498779296875 6.807861328125
-35.10400390625 -121.474853515625 8.0101318359375
-69.010498046875 -77.9476318359375 -0.7662353515625
40.608154296875 -20.7877197265625 -10.3248291015625
19.662109375 22.7110595703125 -5.2630615234375
-76.7099609375 9.7091064453125 -7.06884765625
-16.647705078125 -27.3306884765625 -12.2762451171875
46.56396484375 29.7247314453125 -7.3519287109375
-29.434814453125 53.8663330078125 0.267333984375
27.009765625 -114.935791015625 1.2738037109375
-8.831787109375 -54.822998046875 -8.908447265625
21.46337890625 25.9754638671875 -5.2930908203125
38.63525390625 -93.1148681640625 -31.3311767578125
-65.062255859375 -115.744384765625 10.7728271484375
-46.257080078125 -45.970458984375 10.6358642578125
-47.066162109375 -89.132080078125 -14.995849609375
-60.160400390625 -98.8685302734375 6.06396484375
10.5419921875 35.5291748046875 -5.36572265625
22.436767578125 45.422607421875 -5.5374755859375
-66.71923828125 -62.96875 9.406494140625
40.9404296875 -70.3958740234375 -11.201171875
27.284912109375 23.0562744140625 -5.696533203125
-3.419921875 -103.31103515625 6.5013427734375
9.457763671875 -130.8045654296875 7.5089111328125
-63.651611328125 -57.123291015625 10.468505859375
-63.765625 -63.3392333984375 0.31396484375
30.863037109375 -107.7408447265625 -0.734130859375
-88.914794921875 31.0487060546875 -9.396484375
-37.95849609375 -47.49072265625 -10.996826171875
26.04931640625 -3.1475830078125 -4.64208984375
-17.10986328125 55.0687255859375 -3.8502197265625
-63.625244140625 -3.26220703125 -6.0732421875
-13.622314453125 -25.96240234375 -8.9886474609375
-109.39599609375 30.9051513671875 -7.4442138671875
23.1826171875 -88.1466064453125 -10.0936279296875
-56.957763671875 -125.920166015625 10.2421875
22.47509765625 17.3326416015625 -4.827392578125
-21.685302734375 -26.3038330078125 -5.4564208984375
-56.669189453125 -106.73046875 9.4246826171875
27.60888671875 62.6961669921875 -6.7010498046875
-71.33935546875 -73.241455078125 1.1173095703125
16.142578125 -33.2900390625 -10.8072509765625
53.482421875 -117.588623046875 -24.17626953125
-54.6435546875 -26.5589599609375 -7.5670166015625
42.838623046875 -60.559814453125 -11.2025146484375
-31.7724609375 80.986083984375 16.6875
20.509033203125 -75.4874267578125 -9.8316650390625
-86.560791015625 35.3135986328125 -9.9056396484375
62.3212890625 16.7645263671875 4.767822265625
-16.966552734375 72.4927978515625 7.1395263671875
78.8212890625 -22.6005859375 3.3946533203125
-31.750244140625 -41.9063720703125 -12.2467041015625
-47.94921875 -64.4534912109375 -1.828369140625
-53.18505859375 -18.5806884765625 -7.72119140625
59.20654296875 -109.8048095703125 2.7802734375
25.241943359375 39.792724609375 -5.6527099609375
-20.812255859375 -39.93115234375 -1.40087890625
-14.5576171875 -39.1773681640625 -19.6168212890625
35.509765625 -43.6876220703125 -14.53759765625
-26.20458984375 15.0069580078125 -2.95703125
49.3720703125 -53.6126708984375 -11.5711669921875
48.799560546875 -119.669921875 -22.15673828125
-79.97900390625 5.093017578125 -6.32568359375
-59.109375 -111.909912109375 10.026123046875
53.851318359375 -61.1160888671875 -11.421142578125
-16.341796875 16.640869140625 -3.4794921875
20.2314453125 -121.2431640625 6.0318603515625
23.440673828125 11.0306396484375 -3.175048828125
