-124.783935546875 59.7205810546875 -13.406005859375
146.525634765625 66.314697265625 41.4599609375
1.166748046875 73.077880859375 35.0206298828125
83.67138671875 5.2623291015625 67.0274658203125
-40.974365234375 55.2056884765625 -27.86572265625
134.54638671875 14.493408203125 57.6983642578125
9.60302734375 47.096435546875 -79.030029296875
11.90576171875 -16.6756591796875 -14.772216796875
-60.88134765625 31.8544921875 -0.18115234375
-135.494140625 -40.80859375 86.765625
-47.122802734375 -72.8472900390625 102.72314453125
-60.003173828125 10.838623046875 30.02783203125
-101.37353515625 -14.760498046875 58.584716796875
-77.293701171875 -30.0633544921875 76.635986328125
39.289794921875 -41.992919921875 23.7572021484375
-13.54541015625 55.269287109375 -9.005615234375
-38.681640625 -28.89501953125 75.2843017578125
-65.4296875 -16.498291015625 58.2913818359375
-7.763671875 -28.6968994140625 95.8712158203125
-23.611083984375 28.656982421875 13.1009521484375
106.055419921875 29.6036376953125 54.5096435546875
-18.828857421875 -41.2156982421875 23.8162841796875
136.01025390625 31.476806640625 46.7098388671875
-97.15283203125 58.198486328125 -26.77685546875
-123.241943359375 3.132568359375 -28.468505859375
-119.03271484375 28.6341552734375 0.6314697265625
22.749267578125 44.2159423828125 55.876708984375
-116.69580078125 -58.404052734375 111.3050537109375
-84.685791015625 25.1885986328125 16.895751953125
-110.25830078125 51.462646484375 -9.87109375
-22.475341796875 -20.407958984375 -5.6666259765625
6.83984375 18.0743408203125 76.0670166015625
-57.165771484375 -44.545654296875 106.4794921875
24.047119140625 30.8797607421875 -76.383056640625
-36.557373046875 -50.368896484375 127.8642578125
12.370849609375 60.189208984375 41.9898681640625
-114.377685546875 -6.758544921875 -18.1778564453125
-119.819091796875 -5.54736328125 25.9130859375
22.672607421875 -65.854736328125 55.726806640625
-96.064208984375 -25.751953125 71.3031005859375
66.165771484375 -11.1749267578125 95.5718994140625
128.419189453125 53.3631591796875 39.064697265625
23.778564453125 -51.8795166015625 31.5570068359375
-69.188720703125 -52.235107421875 131.59765625
-132.089111328125 9.8675537109375 10.410888671875
-68.11572265625 61.8026123046875 -33.3712158203125
1.388916015625 91.348876953125 21.89794921875
-56.792724609375 52.34716796875 -26.22119140625
-22.865966796875 -27.37451171875 74.5709228515625
-101.952392578125 -40.54345703125 98.6063232421875
-118.554931640625 -21.19873046875 31.1229248046875
-44.166259765625 21.6732177734375 16.4754638671875
-28.34130859375 -42.4039306640625 103.8909912109375
8.067138671875 7.6241455078125 88.1099853515625
66.843017578125 85.365966796875 -29.228515625
102.294189453125 12.42041015625 63.8994140625
-71.8388671875 40.3369140625 -8.9716796875
118.8544921875 6.9227294921875 72.254150390625
-94.917724609375 28.66748046875 3.2626953125
-85.820556640625 -47.3779296875 117.827880859375
-23.559814453125 -0.2353515625 20.6083984375
-136.693603515625 34.2200927734375 27.7708740234375
-135.909423828125 42.395263671875 57.1602783203125
-23.689453125 -13.1654052734375 33.2196044921875
82.671630859375 37.951171875 41.23193359375
15.707763671875 70.70556640625 -43.2230224609375
-141.56787109375 -4.3590087890625 22.6099853515625
68.679931640625 61.1934814453125 48.66162109375
-15.621337890625 -44.7698974609375 119.909423828125
54.72802734375 48.8577880859375 51.27978515625
79.464599609375 -16.2393798828125 99.966796875
-27.93603515625 35.7022705078125 -5.4298095703125
-45.99609375 -14.3289794921875 36.1536865234375
-108.742919921875 -50.4993896484375 127.85791015625
23.146728515625 25.5450439453125 73.1402587890625
42.185791015625 -57.69677734375 52.552490234375
88.410400390625 -37.64990234375 9.5250244140625
18.084716796875 2.4288330078125 -41.775146484375
17.427490234375 20.447021484375 -60.8106689453125
-70.491455078125 3.7337646484375 37.983154296875
98.29443359375 61.884521484375 1.8775634765625
90.827880859375 -4.8902587890625 82.046630859375
-124.509521484375 -31.01025390625 80.127685546875
-56.553466796875 -48.576904296875 120.4251708984375
-10.119873046875 36.6055908203125 -65.742431640625
88.662841796875 49.98681640625 35.0384521484375
105.4384765625 -9.2706298828125 87.6329345703125
-93.909423828125 16.759765625 25.4500732421875
66.760986328125 2.4208984375 73.985107421875
94.282470703125 92.3853759765625 -23.5810546875
-59.369140625 -35.221435546875 81.3138427734375
-12.9228515625 15.320556640625 -50.4261474609375
71.943115234375 67.0091552734375 -5.5673828125
-84.600341796875 2.58154296875 38.8720703125
131.223388671875 84.31982421875 46.6014404296875
125.553466796875 27.210205078125 55.2354736328125
77.10791015625 17.338134765625 55.8267822265625
-35.361328125 8.690185546875 22.10546875
-131.282958984375 -11.395263671875 14.6182861328125
1.41357421875 65.21142578125 -25.575927734375
-89.219970703125 -9.9471435546875 52.928466796875
-14.95654296875 -4.4189453125 -29.4384765625
-112.884033203125 -46.2557373046875 105.06982421875
-126.961181640625 -18.95703125 41.9832763671875
-124.3642578125 -27.37451171875 62.3282470703125
43.063720703125 -36.3994140625 89.0015869140625
42.1572265625 -26.09423828125 -5.490478515625
-72.230224609375 19.591796875 20.7393798828125
-84.481201171875 52.1810302734375 -25.5760498046875
19.884033203125 17.815673828125 -74.82275390625
116.73974609375 43.788818359375 37.3194580078125
141.98974609375 40.588134765625 13.0255126953125
-47.797119140625 -0.75 30.6142578125
66.7822265625 43.252685546875 48.240478515625
15.30810546875 -59.6810302734375 65.2720947265625
21.716796875 7.9632568359375 95.48876953125
29.37548828125 12.08740234375 -54.75048828125
149.410888671875 32.854736328125 42.2967529296875
59.90625 -72.2005615234375 70.4923095703125
119.92529296875 53.9482421875 11.3924560546875
108.883544921875 44.9921875 48.1817626953125
-72.8935546875 -43.2474365234375 103.585205078125
-113.8544921875 9.676025390625 -35.32080078125
-84.941650390625 39.192138671875 -7.00439453125
-14.257568359375 73.6468505859375 -32.6951904296875
-27.733154296875 -57.2293701171875 50.7042236328125
-82.4140625 -37.0732421875 89.307373046875
51.533447265625 85.309326171875 22.7806396484375
10.00830078125 41.1141357421875 58.21484375
91.44140625 74.257080078125 43.9647216796875
-19.7802734375 9.3216552734375 31.5634765625
-107.322265625 -17.4410400390625 36.5989990234375
103.86767578125 -23.2025146484375 115.261474609375
-127.77490234375 68.6519775390625 -22.2841796875
-37.960693359375 -64.560791015625 73.3402099609375
-71.37060546875 -24.364013671875 66.91943359375
53.811767578125 63.686767578125 -12.620849609375
88.24609375 28.4627685546875 47.7071533203125
-28.408935546875 55.6087646484375 -26.3880615234375
115.05322265625 66.528564453125 46.8583984375
-39.97265625 13.9302978515625 7.4522705078125
-139.522705078125 -13.7080078125 41.55615234375
94.7373046875 -19.556884765625 104.926025390625
15.080322265625 66.179931640625 -12.0595703125
-63.256103515625 -7.72216796875 49.7515869140625
-70.2822265625 27.01318359375 8.7047119140625
-106.836669921875 60.0137939453125 -18.1229248046875
-96.03271484375 -49.8599853515625 126.096435546875
-35.77880859375 -8.5474853515625 40.8375244140625
-137.572509765625 58.602294921875 -13.3023681640625
-109.896728515625 31.39208984375 9.321533203125
-131.237548828125 30.933349609375 -1.197998046875
-48.52490234375 33.8099365234375 -2.3095703125
117.115478515625 29.8302001953125 46.8209228515625
78.1103515625 -22.5364990234375 115.778076171875
67.566162109375 -62.755615234375 48.3629150390625
44.20849609375 -65.8861083984375 77.3876953125
-37.815673828125 40.516357421875 -10.575927734375
16.095947265625 -38.0498046875 7.91845703125
-112.65234375 -20.7208251953125 60.7620849609375
-136.0546875 14.010498046875 22.1334228515625
-41.345703125 -41.9442138671875 101.104248046875
-40.906005859375 -21.9996337890625 65.3785400390625
-39.28466796875 -35.1201171875 85.5191650390625
-61.26220703125 45.6341552734375 -14.3814697265625
65.435302734375 24.4686279296875 57.373291015625
127.618896484375 -0.590576171875 81.7823486328125
-106.86083984375 -31.3651123046875 81.0496826171875
-23.95751953125 15.114013671875 21.21826171875
21.480712890625 55.9376220703125 48.307861328125
21.721923828125 35.21533203125 63.7166748046875
19.690673828125 -12.090576171875 -22.43212890625
79.873046875 63.1217041015625 44.72021484375
-14.6845703125 -27.0078125 1.780029296875
-126.59033203125 -39.539306640625 94.3538818359375
131.64599609375 41.83349609375 43.2364501953125
-29.598388671875 -46.375732421875 115.7979736328125
-137.98681640625 44.32080078125 -2.08447265625
-127.899169921875 -27.952880859375 51.148193359375
21.330078125 45.2548828125 -80.5313720703125
99.789794921875 51.57958984375 38.696533203125
-93.67724609375 8.4622802734375 34.3974609375
64.7568359375 -5.087890625 84.2850341796875
-48.654296875 12.0096435546875 25.5584716796875
-23.28857421875 56.77880859375 -15.87255859375
-96.865234375 37.035400390625 -4.71240234375
-123.140869140625 -12.84423828125 -11.9608154296875
-42.008544921875 63.1676025390625 -36.42138671875
20.801025390625 -22.98193359375 -9.88330078125
-22.252197265625 47.6436767578125 -6.51708984375
-32.627685546875 21.5068359375 12.9609375
139.7529296875 75.4853515625 43.4395751953125
-82.21826171875 47.2044677734375 -15.492919921875
76.030029296875 -49.8360595703125 28.844970703125
82.810791015625 -10.2822265625 89.8934326171875
-43.046630859375 48.6265869140625 -18.1646728515625
102.546875 63.0328369140625 42.9422607421875
93.836181640625 3.3099365234375 71.587158203125
-136.33154296875 -28.3555908203125 59.1973876953125
127.898681640625 10.8369140625 66.062744140625
-48.27978515625 -33.8773193359375 78.3953857421875
104.5205078125 -15.5712890625 96.8924560546875
-106.018310546875 -7.3482666015625 51.5418701171875
13.336669921875 36.9320068359375 -76.192626953125
72.114013671875 -49.9208984375 113.2960205078125
39.107421875 -13.9444580078125 -21.0284423828125
-14.591064453125 34.8104248046875 11.408447265625
-47.614501953125 -7.7857666015625 48.558349609375
-58.240234375 -42.91015625 95.53955078125
-78.066650390625 -50.209228515625 125.46875
120.3583984375 61.0279541015625 38.833740234375
-25.676025390625 71.8157958984375 -33.1302490234375
-142.9072265625 8.6505126953125 11.4986572265625
-76.159912109375 -13.4530029296875 55.61328125
32.22998046875 -24.5130615234375 -1.3868408203125
-130.897216796875 51.39013671875 -7.6182861328125
114.427734375 -2.0089111328125 78.8656005859375
1.844482421875 81.382080078125 26.04931640625
-105.585205078125 0.997802734375 -13.575927734375
-101.27392578125 46.910888671875 -5.2371826171875
-12.024658203125 -36.8856201171875 104.251953125
-140.77001953125 25.247314453125 7.304931640625
-88.0498046875 -30.1605224609375 77.05517578125
-107.35546875 -15.8260498046875 11.9808349609375
-101.253662109375 68.390380859375 -26.79736328125
-111.123046875 -51.0274658203125 116.7535400390625
-52.818115234375 26.7099609375 4.5657958984375
-46.59619140625 -49.763916015625 124.4229736328125
-114.609375 43.940673828125 -2.3614501953125
10.41943359375 64.9683837890625 -35.5811767578125
-11.625 -45.5838623046875 130.031982421875
144.158203125 13.8662109375 53.5517578125
-22.98779296875 -12.379638671875 -12.413818359375
-55.74169921875 -20.7213134765625 61.8560791015625
-140.798095703125 -14.1312255859375 17.8778076171875
-40.474853515625 -0.5550537109375 20.310546875
-124.37158203125 -4.032470703125 -21.0072021484375
-135.21875 1.5904541015625 15.873779296875
-92.4208984375 -44.9102783203125 110.1177978515625
91.042724609375 10.513916015625 61.912353515625
83.81201171875 -0.7353515625 75.4935302734375
-66.684814453125 -31.693603515625 74.907470703125
107.483642578125 20.5804443359375 59.3248291015625
88.230224609375 59.0914306640625 0.87158203125
114.2734375 -14.5986328125 93.6878662109375
-75.734375 56.763671875 -28.5211181640625
-94.20849609375 63.9375 -35.4620361328125
115.953369140625 30.08544921875 57.311279296875
3.46533203125 101.096435546875 24.13720703125
17.0693359375 23.79931640625 82.1658935546875
31.783447265625 -0.3438720703125 -37.579345703125
19.174072265625 28.7447509765625 -67.5428466796875
24.406494140625 -58.7789306640625 44.4361572265625
-103.6064453125 2.3516845703125 38.0328369140625
64.097412109375 64.6785888671875 -11.562744140625
-70.62646484375 11.467041015625 29.94921875
-94.021484375 -19.7757568359375 63.3677978515625
-20.675537109375 -18.3037109375 55.1595458984375
-124.975341796875 -13.16748046875 33.8067626953125
91.204833984375 -32.286865234375 1.443359375
45.0625 -42.8406982421875 31.9876708984375
-26.10791015625 35.1259765625 5.7789306640625
-13.902587890625 61.767822265625 -17.171630859375
-49.859130859375 58.9124755859375 -31.7825927734375
-27.251708984375 -44.4345703125 31.05419921875
-113.39501953125 -11.9486083984375 30.857177734375
-94.133544921875 27.010986328125 13.089599609375
-100.29931640625 53.6583251953125 -12.544677734375
15.72412109375 1.0306396484375 99.4427490234375
137.229736328125 6.517333984375 63.0447998046875
73.929443359375 6.7857666015625 65.572509765625
-117.895263671875 62.7587890625 -20.02099609375
-120.09033203125 52.0614013671875 -8.6962890625
-103.53955078125 16.2781982421875 22.9769287109375
-24.063720703125 -35.9891357421875 17.2386474609375
23.1396484375 -61.49462890625 33.8043212890625
-106.042236328125 -8.4376220703125 -10.7218017578125
55.34912109375 83.2666015625 -22.336181640625
-52.29443359375 6.5797119140625 35.376953125
97.75439453125 32.02099609375 48.323486328125
-105.5087890625 -22.1473388671875 67.327392578125
14.270751953125 -62.309326171875 52.1466064453125
-60.792236328125 38.8060302734375 -7.3743896484375
-40.55517578125 -68.7689208984375 95.58740234375
140.1455078125 23.37255859375 50.2950439453125
-31.011474609375 -24.966796875 69.73291015625
84.650146484375 -20.124755859375 108.9508056640625
-133.197021484375 -36.2392578125 78.220458984375
-113.542724609375 -0.3031005859375 -25.4366455078125
-92.15478515625 -39.0382080078125 94.5950927734375
-47.19921875 -28.3961181640625 70.1826171875
-15.126708984375 26.6949462890625 19.3985595703125
-70.4931640625 31.6697998046875 -0.9892578125
-115.851318359375 -19.23583984375 40.704833984375
110.4951171875 9.017822265625 67.961669921875
-12.75390625 -30.7418212890625 10.4346923828125
65.63720703125 50.8724365234375 42.5389404296875
38.191162109375 -37.018798828125 15.3389892578125
36.122314453125 -49.4598388671875 71.9368896484375
13.74267578125 23.9847412109375 72.774658203125
-27.46875 62.2867431640625 -33.22119140625
-31.74951171875 -39.3631591796875 95.1268310546875
-125.082275390625 -26.32958984375 71.9447021484375
-16.319580078125 -20.1949462890625 -12.854248046875
27.683837890625 34.8970947265625 -85.337646484375
-26.4140625 -6.96923828125 26.725341796875
-130.708251953125 -6.321044921875 27.8157958984375
-103.934326171875 -35.8092041015625 89.067626953125
-117.25341796875 -40.8260498046875 98.820068359375
-59.849365234375 17.2025146484375 23.130126953125
-8.11865234375 -39.3944091796875 121.37744140625
-61.03271484375 4.1341552734375 37.5587158203125
-81.426025390625 -25.3282470703125 69.7391357421875
122.011474609375 48.4573974609375 44.5059814453125
15.426513671875 -68.6907958984375 60.8677978515625
-81.5341796875 -45.14697265625 109.8641357421875
146.230224609375 19.2542724609375 16.659423828125
-56.223388671875 -13.7198486328125 55.75390625
-84.6572265625 -3.708984375 45.6842041015625
49.050537109375 -53.3905029296875 48.0701904296875
-140.521240234375 -11.163818359375 31.1793212890625
-101.798828125 -52.2864990234375 133.6964111328125
125.95556640625 17.790771484375 58.5206298828125
-104.12353515625 -43.47216796875 107.093994140625
74.45361328125 42.1512451171875 43.2178955078125
-43.287353515625 -52.375 133.8582763671875
77.759033203125 60.584228515625 -2.41357421875
73.089111328125 -9.7679443359375 89.677734375
14.3134765625 50.720947265625 40.002197265625
-49.869873046875 -46.651123046875 114.42236328125
69.017822265625 71.4892578125 47.3853759765625
98.0166015625 24.46533203125 53.7608642578125
-78.6435546875 -40.4051513671875 97.0697021484375
80.361328125 24.6480712890625 51.40625
9.6064453125 18.9573974609375 -56.335205078125
56.59375 -71.47216796875 78.9351806640625
-30.12890625 -50.94775390625 44.0947265625
112.9609375 37.4913330078125 52.98193359375
-65.48974609375 54.91552734375 -26.3984375
-123.45263671875 10.3936767578125 -35.70849609375
11.021240234375 -9.53076171875 -22.7452392578125
-119.58154296875 -54.177490234375 103.853271484375
-52.03466796875 48.9815673828125 -18.9981689453125
-58.73779296875 60.4107666015625 -32.4810791015625
-32.6474609375 30.3258056640625 9.7198486328125
-101.25439453125 33.7276611328125 8.330322265625
137.1796875 53.4134521484375 41.0965576171875
-145.674560546875 61.251953125 -16.1370849609375
-29.669189453125 -31.1383056640625 79.057373046875
20.822265625 -76.150146484375 76.7127685546875
-36.928955078125 34.3792724609375 -3.912109375
-88.847900390625 32.974853515625 -1.9527587890625
-115.802734375 -31.31982421875 81.9473876953125
10.613037109375 1.3895263671875 -37.0594482421875
-113.455322265625 36.178955078125 2.414306640625
-61.32177734375 -51.01318359375 127.4725341796875
81.390380859375 11.4439697265625 60.843017578125
17.88330078125 47.8780517578125 48.193603515625
-64.50390625 -2.0157470703125 42.853759765625
13.778564453125 13.3446044921875 81.942138671875
-133.63232421875 -44.66015625 95.6680908203125
13.279296875 -39.7598876953125 17.808837890625
120.712158203125 58.57177734375 4.0010986328125
-34.670166015625 51.2183837890625 -22.13330078125
-84.069580078125 18.4141845703125 22.3956298828125
99.622802734375 -5.0419921875 82.6627197265625
140.6943359375 38.4205322265625 43.1885986328125
-39.416748046875 7.5704345703125 13.3990478515625
-31.9130859375 1.3370361328125 18.6683349609375
-14.1435546875 48.56005859375 -1.8377685546875
70.775146484375 -15.97216796875 102.2327880859375
-113.60302734375 -12.8419189453125 -11.5704345703125
-88.581298828125 58.753662109375 -31.3604736328125
-51.8125 26.7685546875 13.184326171875
20.423828125 -48.1558837890625 24.395751953125
-93.669189453125 51.6944580078125 -20.4439697265625
-13.270263671875 -41.2188720703125 112.392578125
-66.12158203125 -45.2696533203125 109.021484375
18.22216796875 9.75390625 -49.2789306640625
82.359130859375 55.701171875 39.74560546875
-109.430419921875 -18.033935546875 46.2972412109375
-121.538330078125 36.9459228515625 -1.6522216796875
-51.246826171875 19.5682373046875 20.8331298828125
21.091552734375 -15.9598388671875 -14.79150390625
-70.263427734375 -35.154541015625 83.01171875
-0.10302734375 95.958740234375 14.8385009765625
104.033203125 37.9564208984375 48.619384765625
127.656494140625 35.4886474609375 49.2314453125
23.502197265625 -59.0579833984375 25.6309814453125
-50.8203125 -44.406005859375 99.440185546875
-123.015380859375 -34.910888671875 87.71337890625
26.314697265625 24.7794189453125 -70.9327392578125
112.722412109375 74.6456298828125 47.6282958984375
65.332275390625 34.0675048828125 53.8076171875
-40.878662109375 27.4578857421875 10.968505859375
103.28125 -20.9884033203125 106.494384765625
-46.46044921875 -8.9725341796875 29.311279296875
-97.6328125 -8.169921875 51.4697265625
-133.76220703125 64.3045654296875 -18.2537841796875
127.75390625 54.8446044921875 7.1229248046875
-45.8056640625 13.5576171875 13.944580078125
-16.21484375 42.7127685546875 -70.2684326171875
76.0498046875 1.0521240234375 72.868896484375
139.084228515625 32.736572265625 13.5115966796875
-77.577880859375 27.8765869140625 12.7327880859375
117.33251953125 36.0162353515625 41.201416015625
16.343017578125 10.6309814453125 89.6678466796875
-87.2275390625 -49.8909912109375 125.65380859375
-116.017333984375 57.5323486328125 -13.801025390625
10.9833984375 6.22216796875 -43.87548828125
-31.45703125 -15.1646728515625 35.9906005859375
75.195068359375 84.6800537109375 -31.1566162109375
-63.4892578125 -23.291015625 63.4276123046875
-66.729248046875 -43.91748046875 98.076904296875
87.814453125 -17.043212890625 101.1151123046875
-47.62353515625 -5.207763671875 40.72998046875
-86.355224609375 26.5572509765625 4.6011962890625
-145.43017578125 42.9925537109375 1.100830078125
113.28857421875 58.7410888671875 9.641845703125
-77.4765625 35.6683349609375 -4.3455810546875
99.467529296875 18.09423828125 58.7105712890625
-97.25634765625 -30.4434814453125 77.90234375
-95.126220703125 -42.313720703125 102.84423828125
-39.20458984375 -48.270263671875 120.088134765625
-132.435302734375 -15.453857421875 36.2576904296875
75.962158203125 -19.605224609375 108.1158447265625
-76.85107421875 7.1351318359375 33.9339599609375
81.542724609375 45.7138671875 38.9501953125
-47.19287109375 -44.41455078125 107.0379638671875
1.949462890625 64.705810546875 -33.7078857421875
20.13427734375 36.517822265625 -82.68359375
-56.930908203125 -38.9849853515625 88.1199951171875
-17.813720703125 11.410888671875 -44.0064697265625
-75.29638671875 -19.1126708984375 62.12451171875
133.09130859375 22.844970703125 54.2823486328125
-95.494873046875 22.19873046875 19.484619140625
89.22998046875 42.956298828125 39.05517578125
-19.272216796875 -6.6673583984375 -22.9437255859375
-35.572265625 59.046630859375 -32.5477294921875
-24.726806640625 41.11279296875 -0.322265625
19.552001953125 -6.89990234375 -28.6455078125
126.80859375 4.451171875 74.7120361328125
19.13134765625 -1.5364990234375 -34.8084716796875
2.694091796875 63.541748046875 -16.9254150390625
-130.70068359375 7.8665771484375 -33.2244873046875
-74.5517578125 65.0926513671875 -36.9423828125
10.287841796875 24.5045166015625 -62.251708984375
85.070068359375 -38.33203125 16.824951171875
-62.937744140625 65.8255615234375 -38.0206298828125
28.9736328125 8.2923583984375 -47.5545654296875
105.259765625 66.213623046875 1.2396240234375
-24.47998046875 22.9688720703125 18.6649169921875
-114.575927734375 -54.3212890625 123.939453125
-10.17041015625 29.0352783203125 -60.88720703125
17.0810546875 -55.41552734375 36.4857177734375
72.4384765625 23.3892822265625 53.5452880859375
-76.763427734375 -0.6883544921875 41.86083984375
84.869873046875 69.7977294921875 43.7921142578125
-74.342529296875 45.504150390625 -15.0205078125
-132.298828125 38.7935791015625 -1.0601806640625
-105.529296875 -27.2939453125 74.23388671875
97.4697265625 68.84814453125 44.712158203125
-67.581787109375 24.41357421875 15.8565673828125
-93.594970703125 -52.3177490234375 133.55224609375
93.415771484375 67.687744140625 -0.7198486328125
102.28857421875 5.653076171875 69.6163330078125
120.1875 12.5660400390625 66.8756103515625
-107.6865234375 -2.954833984375 -20.0458984375
-109.432373046875 -39.1982421875 96.57421875
-40.779052734375 -38.7198486328125 92.873291015625
11.86962890625 -67.075927734375 68.3643798828125
2.21923828125 90.0562744140625 29.597412109375
-108.3369140625 7.361572265625 -30.2523193359375
-142.8876953125 16.63525390625 24.9161376953125
35.83056640625 -27.673095703125 4.91845703125
-11.04931640625 22.1297607421875 -56.1158447265625
-99.1904296875 58.1246337890625 -19.2259521484375
-88.796630859375 -23.465576171875 67.8673095703125
-23.858642578125 4.796630859375 14.6322021484375
-41.181640625 -19.162353515625 39.9725341796875
95.101318359375 -8.711669921875 87.8931884765625
107.174560546875 -4.3485107421875 80.692626953125
115.93505859375 43.384765625 45.2689208984375
13.079833984375 -23.1790771484375 -8.8729248046875
-62.986083984375 50.454833984375 -20.5316162109375
90.83251953125 34.4107666015625 43.427490234375
-93.5830078125 -47.033203125 117.8504638671875
17.544921875 15.101318359375 -55.1739501953125
-92.85986328125 2.3392333984375 39.791015625
68.42236328125 60.1112060546875 -5.1744384765625
-49.125 53.487060546875 -26.02978515625
-49.922119140625 -25.75439453125 63.4385986328125
-135.53564453125 40.11572265625 64.5379638671875
103.034423828125 45.9935302734375 42.9305419921875
117.873046875 51.3341064453125 38.66845703125
-35.644287109375 -43.4158935546875 106.1214599609375
93.693115234375 56.0579833984375 37.282470703125
-98.99072265625 12.5438232421875 29.39306640625
134.555908203125 39.74951171875 11.3485107421875
56.99853515625 43.7159423828125 56.5330810546875
13.312255859375 41.1055908203125 50.6761474609375
-141.511474609375 -6.89599609375 15.3997802734375
73.72119140625 57.1220703125 44.614990234375
-55.38525390625 -8.4769287109375 50.2618408203125
14.5498046875 38.7879638671875 63.8797607421875
7.212646484375 3.1153564453125 94.5897216796875
18.2822265625 29.232666015625 68.5838623046875
-88.25048828125 12.806640625 29.3341064453125
2.61865234375 81.2225341796875 33.614013671875
-47.6337890625 -1.337890625 22.7528076171875
-118.391845703125 -14.8060302734375 25.8896484375
-26.240966796875 41.4755859375 -10.7381591796875
80.0380859375 30.7271728515625 46.85888671875
62.107666015625 -69.8663330078125 63.6070556640625
-78.740966796875 -33.895263671875 83.470947265625
143.28515625 29.45556640625 46.0555419921875
-134.24072265625 -8.3707275390625 20.9031982421875
62.505615234375 69.64111328125 -6.0723876953125
-77.109619140625 -52.4373779296875 132.6341552734375
-55.863525390625 -32.09912109375 75.3853759765625
22.88720703125 18.8572998046875 77.479248046875
-135.068115234375 -20.2633056640625 43.5540771484375
111.87109375 2.9156494140625 73.749755859375
-64.0537109375 -48.613037109375 119.6856689453125
-120.516357421875 68.5186767578125 -24.173828125
-91.94677734375 40.8150634765625 -9.1077880859375
120.756103515625 71.2406005859375 45.6903076171875
-112.846435546875 -53.3184814453125 134.09814453125
-70.891845703125 -49.4739990234375 123.5162353515625
-53.430419921875 -50.734130859375 127.26806640625
112.9404296875 -7.972412109375 85.26171875
-89.039306640625 -15.152099609375 58.26171875
72.631103515625 12.6015625 60.775390625
-69.37255859375 -10.892333984375 52.5562744140625
59.046142578125 83.44482421875 -28.7867431640625
-64.23193359375 26.6058349609375 4.4046630859375
8.55126953125 70.2698974609375 -40.4337158203125
64.3984375 6.5086669921875 66.6329345703125
21.101318359375 10.7847900390625 -72.7801513671875
-39.740478515625 -11.52490234375 33.3223876953125
-120.5947265625 -27.81201171875 53.976806640625
-24.424560546875 -22.5469970703125 67.23486328125
-12.291015625 0.83251953125 -33.9310302734375
-32.57421875 14.769287109375 6.7625732421875
20.031494140625 21.4154052734375 -68.0823974609375
-58.32763671875 -46.4248046875 113.5338134765625
-136.75927734375 25.6802978515625 1.1185302734375
-16.931640625 34.162109375 -64.273681640625
121.247802734375 -4.99169921875 80.8170166015625
-122.9072265625 -23.4222412109375 46.238037109375
-23.136962890625 -32.9857177734375 82.0963134765625
-13.853759765625 70.2188720703125 -26.1854248046875
-130.08251953125 -12.4583740234375 -9.522216796875
42.96142578125 -60.3687744140625 59.370361328125
127.58056640625 60.8314208984375 40.159423828125
-26.774658203125 17.150390625 14.7550048828125
96.495361328125 -0.7646484375 77.603271484375
113.171630859375 50.8360595703125 44.2628173828125
-112.96435546875 -52.468994140625 109.1943359375
-138.146240234375 51.205078125 -6.669677734375
-109.65478515625 -16.5496826171875 55.5599365234375
111.64599609375 15.5860595703125 64.3638916015625
83.60009765625 -5.8221435546875 82.4034423828125
97.495361328125 -16.2728271484375 98.828857421875
-126.55029296875 -10.9744873046875 -21.1988525390625
-7.100830078125 -31.62646484375 103.2420654296875
-31.98974609375 30.17333984375 -0.670166015625
-81.451416015625 -9.6627197265625 52.415771484375
-45.7939453125 28.0091552734375 2.17919921875
-116.208740234375 5.0032958984375 -30.324951171875
-61.883056640625 -53.020751953125 134.391845703125
-86.799560546875 -33.6409912109375 83.244873046875
-79.12158203125 41.1424560546875 -10.7861328125
-136.428955078125 39.145751953125 50.7491455078125
120.031982421875 24.5050048828125 59.349609375
-36.003662109375 -18.326904296875 61.606689453125
-131.657958984375 -27.9693603515625 64.6483154296875
-142.25927734375 1.50244140625 14.424560546875
-24.99072265625 60.8057861328125 -21.7279052734375
-17.773193359375 -34.787841796875 13.5673828125
-108.34033203125 47.083740234375 -4.11181640625
108.172119140625 68.45556640625 46.9031982421875
131.6298828125 29.8046875 52.0941162109375
-78.695556640625 -47.719970703125 118.0914306640625
138.0498046875 82.2418212890625 44.983642578125
21.895263671875 -70.06103515625 63.5408935546875
41.04541015625 -54.2371826171875 45.4681396484375
112.602783203125 62.5819091796875 41.454345703125
121.342041015625 33.2337646484375 53.875
63.48095703125 28.0535888671875 50.4942626953125
7.83984375 65.1556396484375 -28.9608154296875
80.189208984375 -41.1151123046875 24.4385986328125
120.397705078125 1.0701904296875 75.9373779296875
14.750244140625 18.768798828125 77.4952392578125
70.683349609375 36.93408203125 46.6483154296875
-108.54052734375 -47.0089111328125 111.34326171875
19.5029296875 -63.38134765625 47.5052490234375
-35.470458984375 45.8572998046875 -15.16259765625
-103.4287109375 -48.7764892578125 123.5343017578125
26.94775390625 -51.121826171875 37.8121337890625
-85.397216796875 7.605224609375 33.98681640625
-17.02294921875 21.072998046875 -52.52001953125
89.867431640625 89.008544921875 -27.8822021484375
103.529296875 57.4754638671875 37.9375
-78.44482421875 22.0478515625 18.5877685546875
69.542236328125 18.42138671875 58.36376953125
-109.07763671875 27.182861328125 14.8726806640625
-115.895263671875 -23.039794921875 66.5330810546875
-66.76708984375 15.611572265625 25.8192138671875
69.050048828125 -1.8172607421875 79.063720703125
76.519287109375 -50.8743896484375 21.293212890625
-103.8935546875 -3.7012939453125 45.9613037109375
78.8720703125 67.229736328125 -4.2822265625
19.513427734375 37.2049560546875 -72.94189453125
73.3876953125 66.147705078125 46.34130859375
-129.545166015625 -36.564208984375 84.1514892578125
-51.126708984375 -36.9443359375 84.8458251953125
-20.685302734375 -46.33251953125 32.3165283203125
50.577392578125 91.8524169921875 24.9691162109375
-121.789794921875 -20.076171875 37.2139892578125
-64.19287109375 -37.946533203125 86.188720703125
-119.408935546875 -46.9073486328125 101.370361328125
-130.04345703125 -30.7598876953125 74.663818359375
83.912109375 16.1053466796875 55.957275390625
-27.327880859375 51.4468994140625 -20.975830078125
-43.83642578125 38.540283203125 -7.8167724609375
-98.5830078125 36.204345703125 2.4647216796875
-119.001220703125 -28.154296875 76.710693359375
-92.0244140625 -5.729248046875 48.2667236328125
-53.977294921875 37.933837890625 -7.784423828125
-19.9423828125 53.023681640625 -11.1805419921875
10.63330078125 -30.6953125 84.0528564453125
-81.313232421875 59.4991455078125 -31.46826171875
-47.741943359375 5.5272216796875 22.9456787109375
-26.656494140625 -18.9234619140625 39.1439208984375
32.648193359375 16.330078125 -60.3404541015625
40.988525390625 -39.68359375 83.124755859375
-79.59375 51.0135498046875 -20.9163818359375
123.3046875 64.087646484375 44.60986328125
-66.0068359375 7.92431640625 33.5501708984375
-88.88525390625 48.1920166015625 -16.64306640625
-64.3857421875 -28.6529541015625 69.2330322265625
30.589599609375 28.9403076171875 -76.2020263671875
-73.8388671875 -45.4254150390625 110.4246826171875
-89.932861328125 -36.195068359375 88.8060302734375
-116.21533203125 28.6173095703125 6.8397216796875
95.359375 7.7056884765625 66.6207275390625
-1.539306640625 82.1851806640625 20.2103271484375
17.656982421875 40.1383056640625 57.77392578125
-106.419189453125 -17.8143310546875 61.943359375
9.30859375 42.0557861328125 -74.3580322265625
-67.921875 35.9122314453125 -5.5958251953125
-30.634521484375 -60.083251953125 56.1002197265625
106.98974609375 60.0714111328125 3.4664306640625
-31.89208984375 -48.4775390625 121.790283203125
-25.59912109375 -39.6312255859375 22.7071533203125
46.135986328125 -66.898193359375 83.77099609375
135.577392578125 46.65966796875 40.6641845703125
33.864501953125 -12.8343505859375 -25.82421875
-95.08984375 -12.8206787109375 55.6080322265625
-131.89697265625 -14.6605224609375 20.53271484375
96.302001953125 -22.557373046875 112.2239990234375
19.038330078125 -33.826416015625 2.67578125
-124.987060546875 -6.94287109375 -14.988037109375
-106.68896484375 65.2144775390625 -22.910400390625
64.89208984375 -66.002685546875 53.5946044921875
99.914794921875 -12.6929931640625 92.9522705078125
-32.374267578125 6.337646484375 14.218994140625
15.153564453125 42.6424560546875 -80.72607421875
8.385009765625 66.0556640625 -12.00732421875
-36.97802734375 -68.3277587890625 78.7877197265625
72.675048828125 -13.762451171875 96.211181640625
-100.32861328125 7.7796630859375 34.241455078125
-49.852783203125 1.6793212890625 39.204345703125
-124.45703125 64.27783203125 -18.4898681640625
-17.2158203125 -45.501708984375 126.341552734375
-25.4296875 67.2586669921875 -28.270263671875
85.356689453125 -13.9261474609375 95.7601318359375
-76.4345703125 16.359130859375 24.761962890625
-91.397216796875 54.4068603515625 -27.1812744140625
-130.423828125 56.628662109375 -11.748779296875
145.896728515625 77.977783203125 43.7252197265625
34.5869140625 9.1868896484375 -50.9775390625
-24.103271484375 -53.6724853515625 43.6964111328125
-19.264892578125 4.8187255859375 36.3856201171875
113.08251953125 24.441650390625 59.2242431640625
-69.1015625 -5.1351318359375 47.0169677734375
13.6796875 3.908447265625 93.547607421875
94.6201171875 46.742919921875 38.7349853515625
-19.74267578125 70.6253662109375 -29.107421875
-54.93310546875 14.20068359375 27.50732421875
-37.983642578125 66.7701416015625 -40.3685302734375
4.118896484375 96.189453125 31.779052734375
-105.950927734375 -13.6884765625 49.84814453125
140.91796875 9.4476318359375 58.4886474609375
124.680908203125 49.7254638671875 9.8067626953125
149.514892578125 27.0291748046875 45.2667236328125
90.6005859375 66.6907958984375 43.2698974609375
-29.5224609375 -11.117919921875 31.09375
125.475341796875 43.019775390625 45.57958984375
-32.609130859375 -3.7392578125 23.3106689453125
16.2763671875 -22.824462890625 -14.5718994140625
-79.588623046875 -43.153076171875 103.979248046875
87.40673828125 23.0528564453125 51.23095703125
-113.67919921875 -17.893310546875 33.8919677734375
-47.859619140625 -19.64501953125 62.55859375
138.23046875 17.375 53.186279296875
17.010009765625 18.603759765625 86.0633544921875
58.452392578125 61.215576171875 -8.6312255859375
14.142333984375 -15.16357421875 -21.0823974609375
-42.672119140625 -5.3111572265625 25.5357666015625
90.72900390625 62.800048828125 -4.017578125
-38.668212890625 19.434326171875 11.8883056640625
-124.842529296875 31.3656005859375 -2.11865234375
128.43798828125 47.5211181640625 41.8572998046875
-19.87060546875 35.0291748046875 7.5064697265625
71.770263671875 -21.569091796875 114.9307861328125
-75.940185546875 27.0938720703125 5.5322265625
-143.39697265625 56.8419189453125 -11.130615234375
-106.439208984375 55.2247314453125 -13.8028564453125
-28.58544921875 -45.6859130859375 109.4423828125
-119.868408203125 47.9383544921875 -3.7379150390625
16.286376953125 54.9298095703125 44.476318359375
-44.024169921875 43.748046875 -13.45361328125
39.322021484375 -45.119140625 29.3707275390625
-75.877197265625 -36.582275390625 88.5433349609375
-71.210693359375 -27.92138671875 72.24365234375
-127.35205078125 9.3455810546875 -41.39697265625
116.1484375 -14.0587158203125 87.6004638671875
106.309326171875 51.3865966796875 40.266357421875
77.48193359375 36.3807373046875 45.4102783203125
78.6044921875 -12.8389892578125 93.9307861328125
132.40576171875 5.696533203125 67.1116943359375
66.18896484375 -7.687255859375 90.293212890625
-134.324951171875 -27.64453125 51.160888671875
-18.751953125 14.40869140625 27.9515380859375
-84.6552734375 -39.255615234375 95.4931640625
-46.9248046875 66.236083984375 -39.2481689453125
111.453125 -16.6456298828125 98.9442138671875
12.754638671875 64.690185546875 -41.4263916015625
70.3818359375 46.91162109375 43.7662353515625
-86.505615234375 43.445556640625 -11.3609619140625
40.17333984375 -9.496337890625 -25.903564453125
72.865966796875 -51.7864990234375 33.9061279296875
-43.673828125 -74.0224609375 97.02978515625
-125.46240234375 -43.306640625 99.2435302734375
-55.917236328125 33.6390380859375 -3.5513916015625
-124.07763671875 -8.943115234375 29.2774658203125
-66.083984375 42.3746337890625 -10.3143310546875
-98.097900390625 -37.8984375 93.03369140625
-62.073486328125 -12.1375732421875 54.0078125
37.36669921875 1.0987548828125 -39.9769287109375
108.572021484375 -12.3843994140625 92.4263916015625
-23.734375 -18.9503173828125 -11.5977783203125
22.492919921875 11.101318359375 88.765380859375
-89.3662109375 21.0682373046875 19.576904296875
137.168212890625 44.990234375 9.2159423828125
-136.690185546875 -7.919189453125 27.1143798828125
40.28564453125 -70.2659912109375 82.4691162109375
10.9189453125 -63.6080322265625 63.2374267578125
-129.331787109375 -23.6109619140625 46.9176025390625
90.5078125 -0.3397216796875 75.9659423828125
37.688232421875 -27.9722900390625 -1.595703125
-48.299560546875 7.4827880859375 29.805908203125
-11.500732421875 9.011474609375 -42.9415283203125
-42.45166015625 -31.9530029296875 79.3560791015625
146.4345703125 37.59716796875 39.6346435546875
-131.265380859375 46.71142578125 -2.419677734375
-101.939453125 28.5621337890625 12.75732421875
-33.4912109375 -35.890380859375 87.571044921875
-137.390625 35.3502197265625 -1.8189697265625
43.296875 -64.5291748046875 71.4429931640625
-100.2255859375 63.077392578125 -22.739990234375
145.23291015625 33.68603515625 12.1044921875
-137.5126953125 18.703857421875 18.432373046875
-110.99755859375 -34.2354736328125 86.5933837890625
-99.7138671875 -21.3033447265625 65.0850830078125
-65.56884765625 20.006591796875 19.62548828125
42.164306640625 -48.3052978515625 33.8787841796875
-68.238525390625 45.740234375 -15.540283203125
24.64697265625 -65.5816650390625 28.65966796875
8.633544921875 26.9984130859375 71.2635498046875
42.35986328125 -39.232177734375 19.2431640625
-34.24169921875 53.9915771484375 -27.568115234375
-101.693359375 -32.94189453125 83.9124755859375
86.502197265625 62.240966796875 42.42138671875
14.470703125 32.164306640625 -72.5491943359375
-19.61572265625 19.6685791015625 22.991943359375
-13.87109375 66.3994140625 -21.4334716796875
-45.12744140625 -36.6478271484375 87.8760986328125
-83.01318359375 -14.998291015625 57.47314453125
-100.30322265625 42.5045166015625 -1.17431640625
-68.88330078125 -19.748046875 62.078125
-143.236328125 47.42822265625 -2.408203125
31.5654296875 -3.7108154296875 -32.4007568359375
-21.38037109375 -12.9735107421875 57.9569091796875
-72.625 -40.55615234375 96.3770751953125
-97.6630859375 42.821533203125 -9.0308837890625
89.363525390625 -10.085205078125 89.2353515625
67.762451171875 56.5435791015625 43.782470703125
-98.35595703125 66.106689453125 -31.5797119140625
-107.566162109375 36.360595703125 6.21142578125
-124.693603515625 14.8775634765625 -40.2857666015625
87.838623046875 2.958984375 71.2269287109375
-28.75830078125 -47.981201171875 38.6300048828125
-137.636474609375 -28.146240234375 65.260986328125
-43.9443359375 50.716064453125 -24.755859375
-18.927490234375 44.9364013671875 -1.9039306640625
-16.041015625 -34.0343017578125 6.1285400390625
129.4169921875 -0.78564453125 76.0242919921875
84.73291015625 -22.421630859375 114.486328125
-120.87158203125 -37.7532958984375 94.2457275390625
93.343505859375 26.7230224609375 50.32373046875
-63.371826171875 -41.531494140625 92.807373046875
90.852294921875 -21.1695556640625 109.169189453125
-119.11962890625 -1.9864501953125 -22.9833984375
-108.889404296875 -7.9508056640625 -15.9459228515625
-26.758056640625 -40.4036865234375 98.229248046875
-34.827880859375 -32.5877685546875 81.67626953125
-57.354248046875 41.787109375 -11.2039794921875
132.782958984375 11.0201416015625 62.187255859375
-144.83837890625 29.0194091796875 3.528564453125
-47.712158203125 13.8753662109375 20.006591796875
22.208251953125 -57.2967529296875 39.1348876953125
-40.847412109375 -25.8873291015625 70.66796875
-111.687255859375 -28.97900390625 77.362548828125
-114.1611328125 48.7105712890625 -6.38134765625
-136.475830078125 6.6578369140625 12.7291259765625
-107.4189453125 -41.9034423828125 102.4495849609375
93.936767578125 14.916748046875 58.8067626953125
-54.239501953125 45.0062255859375 -15.048828125
144.0830078125 71.5279541015625 42.73388671875
-34.630859375 63.13623046875 -37.172119140625
-75.14794921875 61.0118408203125 -32.552001953125
-47.446044921875 -5.4869384765625 34.08544921875
-26.72705078125 69.089111328125 -38.3870849609375
-13.755615234375 -8.662353515625 -23.28662109375
-63.725341796875 27.4517822265625 12.63134765625
-17.072021484375 30.10009765625 15.026123046875
125.06298828125 8.2210693359375 70.4742431640625
-19.859375 -29.6654052734375 2.4822998046875
-19.228515625 61.8330078125 -19.662353515625
-34.64306640625 -41.40087890625 100.7139892578125
132.260009765625 36.5904541015625 45.771728515625
-41.899169921875 59.021728515625 -32.205322265625
-35.032958984375 9.450439453125 10.0098876953125
-34.7099609375 -45.38720703125 111.544921875
-41.864501953125 32.328125 -1.5582275390625
-58.912841796875 -5.3035888671875 46.6971435546875
2.857666015625 96.6248779296875 19.889404296875
87.5537109375 55.321044921875 37.11962890625
-73.3623046875 24.2659912109375 16.613037109375
144.87890625 19.9945068359375 49.9825439453125
-41.60791015625 -17.56005859375 60.2265625
-23.477783203125 -43.6900634765625 26.289306640625
-83.28955078125 34.1639404296875 -3.162109375
-44.20068359375 9.0570068359375 10.4544677734375
-138.09521484375 -14.7235107421875 35.248779296875
-16.65283203125 50.9130859375 -6.78466796875
118.30224609375 27.5810546875 52.64990234375
80.97021484375 50.8223876953125 36.2904052734375
-29.095458984375 26.8189697265625 13.0189208984375
-31.407958984375 39.0902099609375 -8.5767822265625
-125.392578125 48.964111328125 -5.080078125
-77.867919921875 -22.6246337890625 66.07958984375
-119.439208984375 -8.508056640625 -16.027099609375
-82.79443359375 -31.77587890625 79.531982421875
-10.51171875 41.906494140625 -70.5889892578125
17.68408203125 -26.79345703125 -6.5101318359375
-12.6962890625 -15.6966552734375 -13.5279541015625
-98.51171875 -44.7777099609375 110.6231689453125
107.887939453125 34.8028564453125 52.4659423828125
115.8095703125 11.7115478515625 70.5230712890625
57.32470703125 -68.40966796875 74.1099853515625
-17.253173828125 57.85498046875 -14.5963134765625
-0.8037109375 88.411376953125 17.4578857421875
-35.103271484375 -8.6083984375 35.0782470703125
6.157958984375 65.049560546875 -40.727783203125
68.5009765625 -57.190673828125 43.8858642578125
15.06884765625 -1.7537841796875 -38.8546142578125
-143.92919921875 24.9588623046875 12.8077392578125
85.18896484375 33.58447265625 43.996826171875
30.773681640625 3.369140625 -41.82666015625
-54.35595703125 56.92724609375 -28.8387451171875
-48.358642578125 -51.8116455078125 131.2720947265625
-70.262939453125 -0.3377685546875 41.993896484375
28.220458984375 31.1932373046875 -80.8946533203125
16.63525390625 45.1229248046875 53.0469970703125
-32.016845703125 -21.34814453125 65.0069580078125
-129.808349609375 -39.61328125 89.6365966796875
21.37158203125 -39.4439697265625 13.0489501953125
-97.9658203125 4.5487060546875 38.5302734375
-59.31396484375 -17.3489990234375 58.8870849609375
-49.692626953125 -11.8878173828125 53.8411865234375
-60.388671875 56.7310791015625 -28.1842041015625
-37.629150390625 4.0738525390625 17.5322265625
-129.967041015625 -11.5611572265625 30.97998046875
13.640869140625 27.4693603515625 -68.0223388671875
122.15087890625 53.304443359375 6.1707763671875
121.96728515625 16.01220703125 62.1602783203125
142.195556640625 24.9132080078125 15.213134765625
35.835205078125 -16.810302734375 -17.3753662109375
122.8994140625 55.951416015625 38.93603515625
83.368408203125 61.135986328125 -1.7410888671875
-107.7470703125 1.1431884765625 -23.9698486328125
76.2724609375 -44.93408203125 22.9400634765625
69.395263671875 5.2379150390625 68.98828125
-61.0048828125 -44.5015869140625 102.3154296875
-126.7197265625 -0.267822265625 -24.5164794921875
-25.862060546875 -37.8134765625 92.7308349609375
-109.711669921875 -49.7825927734375 122.339599609375
-42.160400390625 -50.8695068359375 128.279296875
-135.37109375 68.2303466796875 -21.9617919921875
14.68505859375 -10.92578125 -26.7921142578125
-113.257568359375 -20.176513671875 52.76904296875
-139.383056640625 40.2459716796875 1.5245361328125
-112.34326171875 61.9248046875 -20.1441650390625
9.032958984375 35.866943359375 -69.6859130859375
-87.808349609375 -26.7921142578125 72.26806640625
-72.265625 53.4180908203125 -25.0987548828125
-86.969970703125 -44.5247802734375 108.7227783203125
-89.51025390625 -0.81982421875 42.9490966796875
-51.02685546875 -48.10107421875 119.80712890625
-35.96826171875 -52.169189453125 133.1123046875
-72.111328125 -16.1395263671875 58.6407470703125
-98.650634765625 48.88037109375 -10.1859130859375
63.366943359375 58.6741943359375 -7.9453125
-106.696044921875 -47.8421630859375 118.0721435546875
-129.141357421875 62.114013671875 -16.03662109375
-14.80078125 38.8270263671875 7.0208740234375
14.1728515625 -28.051025390625 91.156005859375
-139.3525390625 -17.446533203125 45.720947265625
15.776123046875 5.101318359375 -46.43994140625
131.875732421875 57.629638671875 38.282958984375
-57.456298828125 50.71923828125 -20.84130859375
36.3427734375 -31.8377685546875 9.630859375
-64.445068359375 -46.93359375 114.0328369140625
12.937255859375 -57.567138671875 49.6131591796875
-82.246337890625 -28.6981201171875 74.5838623046875
76.99365234375 -49.8333740234375 115.8978271484375
96.484130859375 11.6134033203125 62.87744140625
89.347900390625 7.3138427734375 66.0875244140625
78.36962890625 4.24072265625 68.1961669921875
-36.604248046875 26.067138671875 14.1761474609375
-130.745361328125 -28.404296875 59.22265625
-17.768310546875 15.9373779296875 -47.8675537109375
-89.839111328125 36.9061279296875 -5.6898193359375
-58.08251953125 28.409423828125 3.0865478515625
58.3740234375 67.2789306640625 -8.8505859375
-55.276611328125 2.5308837890625 38.736572265625
-137.841064453125 -1.574951171875 19.54248046875
28.239501953125 40.508056640625 -92.1729736328125
71.365478515625 -6.1036376953125 84.2001953125
103.5732421875 -18.2740478515625 101.7115478515625
-124.730224609375 55.5404052734375 -9.8232421875
-70.31591796875 57.55615234375 -28.992919921875
-52.59619140625 10.6754150390625 31.72900390625
-97.846923828125 50.3853759765625 -17.1282958984375
-41.739990234375 -43.90283203125 106.8187255859375
-140.770263671875 -9.7657470703125 22.930419921875
22.146728515625 -72.5908203125 70.28076171875
128.280517578125 22.833740234375 57.060546875
17.32373046875 -66.475341796875 53.94384765625
2.249267578125 101.6142578125 15.67626953125
107.83935546875 60.7703857421875 39.478759765625
22.6640625 49.23876953125 53.7366943359375
-118.072265625 -9.4825439453125 29.5208740234375
-95.320068359375 33.0433349609375 -1.3341064453125
-140.302001953125 63.5164794921875 -17.50341796875
3.813232421875 78.8448486328125 38.362548828125
-20.6064453125 26.4544677734375 17.10205078125
-120.9052734375 7.0404052734375 -32.1475830078125
37.100341796875 -24.5428466796875 -6.7236328125
-20.50048828125 -16.3555908203125 -15.1446533203125
9.52880859375 47.4423828125 -73.6151123046875
97.73828125 61.2271728515625 44.6861572265625
-114.067626953125 -17.468017578125 27.7940673828125
-34.9443359375 -62.2996826171875 66.6719970703125
-118.2578125 -24.587646484375 71.290771484375
-88.364013671875 50.9100341796875 -21.2982177734375
77.40869140625 -7.7977294921875 86.2520751953125
-45.086181640625 26.5067138671875 14.2535400390625
-36.790771484375 -14.705810546875 36.673828125
-44.915771484375 -47.2225341796875 116.4832763671875
-99.177001953125 19.426025390625 22.6131591796875
10.369140625 0.691650390625 98.9398193359375
100.8505859375 29.4029541015625 51.8729248046875
-102.155029296875 -24.9061279296875 70.506103515625
-127.23681640625 36.1844482421875 -2.1002197265625
-120.457763671875 42.9779052734375 -1.3424072265625
