-8.035400390625 -29.604248046875 16.65234375
22.47021484375 34.35791015625 -13.666748046875
-28.351318359375 -4.58740234375 14.645751953125
28.63818359375 -1.94091796875 10.504638671875
-3.359619140625 43.872802734375 -12.179931640625
57.571533203125 -19.2841796875 15.96826171875
-10.728515625 -19.6171875 6.256591796875
-36.052490234375 55.971923828125 46.494140625
-15.98583984375 -1.742919921875 20.98779296875
-42.429443359375 22.088134765625 -5.232666015625
57.966064453125 -39.726806640625 13.24267578125
3.56103515625 -2.4150390625 11.19482421875
-24.535888671875 51.896484375 -11.623779296875
40.667724609375 -51.533203125 -27.215087890625
-34.9853515625 9.57373046875 42.55126953125
46.484619140625 -57.973388671875 -23.525634765625
6.9013671875 50.18310546875 -6.1689453125
-12.5419921875 -25.658203125 10.19091796875
33.721923828125 41.279296875 24.175048828125
-33.130859375 -19.956787109375 -0.9052734375
-7.644287109375 11.097900390625 35.554443359375
-23.321533203125 0.049560546875 26.3896484375
64.112060546875 -62.12255859375 13.571044921875
42.651123046875 24.2802734375 -13.706298828125
16.50634765625 43.905517578125 -8.090576171875
-47.63671875 -5.374267578125 3.5146484375
17.445556640625 -62.598388671875 17.687255859375
15.532470703125 -79.220947265625 -12.677490234375
41.6787109375 -6.446533203125 10.20263671875
57.243408203125 -29.703369140625 15.38720703125
9.975341796875 -17.45556640625 7.442626953125
58.0576171875 -0.87744140625 -11.511474609375
-32.941650390625 28.85302734375 51.932373046875
-1.84130859375 -20.071533203125 5.357177734375
10.85107421875 -68.996337890625 7.677490234375
-39.0439453125 57.718017578125 68.098388671875
-14.648193359375 52.6025390625 -11.033447265625
61.761962890625 -71.438720703125 4.63134765625
-4.24169921875 50.153564453125 -10.933837890625
20.180419921875 -42.864990234375 28.39208984375
38.063232421875 -73.512939453125 -26.607666015625
-53.40966796875 41.8583984375 -12.1396484375
20.951904296875 -24.241455078125 16.213623046875
-43.407958984375 56.1201171875 -11.420654296875
-0.62646484375 -11.69287109375 6.5498046875
-21.3125 53.6513671875 69.000244140625
-43.520263671875 44.216552734375 -15.813232421875
8.57275390625 -24.531494140625 10.540283203125
-7.83056640625 15.42626953125 46.64111328125
-24.692138671875 -23.697265625 6.381591796875
-30.2509765625 -1.1396484375 28.57373046875
58.7763671875 -45.5546875 9.52978515625
-32.613525390625 -23.118408203125 4.72705078125
7.990234375 -40.30615234375 23.947998046875
-36.79345703125 -0.94091796875 18.651123046875
23.642578125 61.00537109375 35.7578125
22.509521484375 50.919189453125 34.4921875
42.10546875 28.23046875 -7.274169921875
31.980224609375 24.76416015625 -15.756591796875
25.468994140625 -57.5322265625 19.81298828125
-31.07421875 43.51025390625 -16.046142578125
35.283203125 33.09228515625 -3.744384765625
52.5830078125 -37.254638671875 5.628173828125
25.15283203125 -38.15478515625 30.9765625
13.84033203125 -73.70458984375 -2.609130859375
-30.905029296875 35.81298828125 0.3916015625
-6.476318359375 -35.594970703125 23.086669921875
46.916259765625 41.724609375 34.4326171875
33.656494140625 -78.7548828125 -25.83837890625
57.675048828125 -57.7900390625 4.055419921875
25.334228515625 39.834716796875 -3.45166015625
-30.83154296875 16.437744140625 46.9814453125
-30.226806640625 -13.515380859375 5.10888671875
-7.717041015625 -1.723388671875 13.046630859375
-19.330078125 5.774658203125 31.033447265625
-42.56591796875 36.80615234375 -10.65380859375
-39.331298828125 -1.23828125 8.079833984375
-48.538330078125 47.125732421875 -13.8134765625
7.869140625 -1.673583984375 27.503173828125
47.05810546875 -79.168701171875 -20.672607421875
6.512451171875 39.599853515625 -13.4873046875
43.777587890625 -63.720458984375 -22.880615234375
-51.556884765625 -2.718994140625 7.068359375
59.80810546875 -61.94384765625 9.557373046875
-2.13916015625 -27.51611328125 10.57373046875
40.19775390625 -58.160888671875 5.40576171875
46.517578125 -37.722412109375 5.362060546875
-56.93408203125 53.190185546875 -11.101318359375
13.608154296875 -34.853515625 27.43701171875
-6.9189453125 -41.56689453125 21.89697265625
29.726806640625 41.5927734375 -7.364990234375
43.06396484375 -27.37841796875 6.5810546875
-5.89013671875 -9.2626953125 5.095703125
39.560546875 -66.223388671875 -27.26416015625
-14.1611328125 43.433837890625 -12.125
13.88427734375 -49.07421875 22.17333984375
-22.844970703125 39.039306640625 -8.037841796875
42.079345703125 -16.81494140625 7.72607421875
-30.398193359375 0.837158203125 15.216064453125
18.002685546875 -6.7548828125 9.935791015625
2.395263671875 47.667236328125 57.008544921875
-38.634521484375 17.77197265625 -5.988525390625
-47.129150390625 2.375732421875 12.613037109375
44.674072265625 50.93994140625 33.332275390625
-13.251953125 9.7421875 43.536376953125
37.980224609375 -11.90771484375 8.936767578125
-17.3291015625 -33.933837890625 10.619384765625
57.612548828125 6.40576171875 -17.598388671875
40.86181640625 -46.809326171875 4.26220703125
-25.4140625 0.058837890625 19.5791015625
5.0595703125 -56.33251953125 17.77685546875
62.5546875 -2.773193359375 -14.89892578125
23.23779296875 -53.403076171875 23.672607421875
28.625 -64.33935546875 30.798828125
5.23291015625 41.841552734375 59.13720703125
51.818603515625 -47.98388671875 2.845947265625
35.16259765625 -22.87451171875 10.385009765625
2.29736328125 33.7568359375 -9.216064453125
47.183349609375 -4.56982421875 11.164794921875
27.614990234375 -49.384033203125 27.00830078125
30.639404296875 47.66357421875 26.055908203125
26.307861328125 37.6572265625 28.298583984375
16.647705078125 -0.685546875 19.101318359375
34.9013671875 27.1298828125 20.453857421875
33.171142578125 14.42236328125 -12.2255859375
-21.300537109375 -28.342529296875 7.140869140625
-38.800537109375 -9.337890625 -0.21337890625
-30.39892578125 5.73095703125 42.933349609375
44.40380859375 -75.148681640625 -24.171630859375
60.432861328125 -51.39697265625 13.443359375
-39.28369140625 0.10400390625 13.55712890625
-17.779541015625 57.24365234375 71.285888671875
-35.68212890625 26.699951171875 -6.099609375
4.176513671875 0.09326171875 17.24365234375
2.284423828125 43.802734375 -13.328369140625
-8.04150390625 54.115234375 54.60009765625
-27.556884765625 31.5361328125 6.849365234375
16.32177734375 -71.048583984375 2.839599609375
26.244384765625 23.959228515625 -14.8876953125
-4.189453125 2.7607421875 36.837646484375
-39.456787109375 -22.853515625 -1.730224609375
-32.021728515625 26.31689453125 -1.13720703125
32.780517578125 -30.82763671875 15.3076171875
10.42724609375 -6.38037109375 9.68896484375
-19.958251953125 19.878173828125 49.095947265625
-60.32568359375 56.9033203125 -6.607421875
-25.340087890625 -29.746337890625 10.467041015625
52.951171875 -49.3837890625 10.9599609375
11.314453125 47.221435546875 -7.166015625
15.9140625 -16.053955078125 9.116455078125
36.166015625 -39.68408203125 10.201416015625
-9.42041015625 2.2705078125 38.08740234375
62.919189453125 -56.992919921875 14.706298828125
25.005126953125 56.10302734375 33.989990234375
-25.084716796875 7.06201171875 41.9443359375
47.562255859375 12.362548828125 -16.873291015625
17.5361328125 39.536376953125 -12.060546875
38.56494140625 43.5146484375 24.590576171875
-30.7900390625 56.173583984375 -12.14111328125
57.48974609375 -61.91015625 -22.717529296875
4.71240234375 -42.36474609375 15.9365234375
22.540283203125 27.750732421875 -14.9375
27.19970703125 35.550048828125 -11.623046875
48.45703125 -83.01171875 5.734619140625
25.292724609375 -80.3876953125 -20.759765625
50.322509765625 7.2734375 -16.021240234375
-38.576171875 13.311767578125 43.4873046875
17.103515625 -75.47021484375 -7.31640625
-39.629638671875 58.829345703125 -7.296142578125
49.70263671875 -68.04052734375 -24.1201171875
-41.178955078125 30.380615234375 -4.03515625
11.85595703125 3.375 42.281982421875
-20.478271484375 43.169921875 -12.01025390625
51.449462890625 -39.231689453125 10.340576171875
-15.887939453125 -17.351806640625 5.858642578125
35.375732421875 -32.25341796875 10.86572265625
-9.248046875 53.07958984375 -9.5078125
21.410400390625 -21.217529296875 11.71923828125
33.296630859375 30.078857421875 -13.30517578125
-42.907958984375 -13.298095703125 -3.7587890625
-16.625244140625 -1.826904296875 29.9365234375
-28.319091796875 26.958740234375 50.481689453125
-34.17431640625 -16.565673828125 3.706787109375
39.763916015625 -22.89697265625 8.004638671875
22.311767578125 -78.61669921875 -15.074951171875
24.60986328125 -1.452880859375 13.71435546875
35.880615234375 36.967041015625 22.333984375
-26.374755859375 47.53955078125 -13.676513671875
2.137939453125 52.0888671875 -7.05908203125
29.653564453125 56.541259765625 29.640625
10.774169921875 -44.449951171875 21.865478515625
50.5859375 -33.724365234375 11.820068359375
-8.123779296875 -28.350341796875 10.23681640625
-12.223388671875 -34.10986328125 17.822509765625
-40.0888671875 27.18310546875 -8.59375
-1.639404296875 -28.45068359375 15.544921875
-17.742431640625 4.155517578125 36.96484375
18.539306640625 -11.46630859375 8.126220703125
-12.339599609375 -2.26904296875 37.588134765625
54.959228515625 -80.299560546875 3.325927734375
-24.677734375 7.907958984375 13.449462890625
-20.31396484375 -10.161865234375 7.10302734375
-28.935791015625 38.462646484375 -8.9912109375
52.661865234375 -30.33544921875 8.49658203125
-27.642333984375 56.78369140625 -1.55419921875
40.708740234375 17.06494140625 -16.699951171875
23.374267578125 -65.339111328125 30.970458984375
64.341552734375 -70.62451171875 8.837646484375
0.877685546875 -34.6767578125 23.664794921875
14.0498046875 -2.702880859375 11.95654296875
30.906494140625 -58.0771484375 20.587890625
16.87255859375 -45.245361328125 23.899169921875
22.923828125 -61.88916015625 22.274169921875
-38.97021484375 22.1142578125 49.018798828125
37.7548828125 -3.478515625 10.812255859375
48.13427734375 4.93212890625 -12.064697265625
28.94140625 -6.824951171875 9.7685546875
-1.205810546875 -40.5478515625 13.251953125
-42.830810546875 -4.89453125 2.46533203125
13.20458984375 -57.960693359375 18.593017578125
-10.903564453125 8.383056640625 38.049560546875
56.277587890625 -40.98095703125 8.76904296875
1.145263671875 6.754638671875 42.057861328125
11.537353515625 32.21142578125 -13.287353515625
3.998291015625 -39.89306640625 20.421630859375
24.544921875 20.32421875 -12.111083984375
-49.518310546875 -9.436279296875 -1.40771484375
27.182373046875 -16.59228515625 9.641357421875
17.065673828125 -67.386962890625 12.280517578125
50.28173828125 -12.735107421875 11.5166015625
17.080810546875 -27.337646484375 28.517578125
-44.08740234375 27.056640625 -1.709228515625
-15.03515625 13.26953125 46.59521484375
43.4375 -55.451171875 -26.60400390625
-38.06787109375 -17.087646484375 -2.1669921875
-10.2421875 -13.47705078125 5.579345703125
-32.283447265625 57.8447265625 69.29296875
-18.145263671875 -3.47900390625 14.520263671875
32.348388671875 52.2119140625 27.279541015625
-11.916748046875 -36.280517578125 13.576416015625
29.86865234375 38.1064453125 25.156494140625
46.906982421875 -16.971435546875 8.263671875
6.580078125 46.578369140625 -11.16259765625
22.198486328125 -5.08154296875 11.718994140625
0.20458984375 -46.91748046875 16.953857421875
36.55322265625 25.703125 -15.02685546875
13.65771484375 -42.195556640625 14.716064453125
-17.3388671875 -26.447265625 10.123779296875
-7.957275390625 42.8603515625 -11.930419921875
64.330078125 -54.828369140625 -20.867919921875
24.115234375 -46.108642578125 26.68994140625
-31.6650390625 -5.0712890625 10.863037109375
66.88330078125 -65.794921875 12.413330078125
26.521240234375 45.920166015625 30.150390625
14.036376953125 -25.15283203125 20.450439453125
-32.63818359375 30.30859375 -3.549072265625
12.15380859375 -23.96337890625 13.477783203125
-27.073974609375 20.083740234375 48.163818359375
-35.2265625 58.25634765625 -8.960205078125
-12.57568359375 39.25732421875 -10.034423828125
42.308349609375 48.754638671875 28.184326171875
-16.38818359375 56.572265625 -5.159423828125
38.6201171875 31.76220703125 -8.36572265625
-23.27587890625 -6.714111328125 11.06494140625
38.54541015625 -42.13623046875 6.916259765625
62.93994140625 -65.1943359375 8.612060546875
50.78515625 -22.12109375 10.56982421875
-35.05419921875 -4.74072265625 7.390625
-13.461181640625 -5.9658203125 10.44384765625
8.77734375 -0.85986328125 19.771484375
9.387451171875 -74.375 -3.458984375
-38.385986328125 53.19677734375 67.757080078125
-34.59716796875 12.78369140625 45.79638671875
-23.03125 12.503173828125 45.751953125
-39.979248046875 52.025634765625 -15.156982421875
52.049072265625 -50.927001953125 -25.166748046875
-30.10009765625 20.587890625 -1.443359375
37.56201171875 -48.602783203125 8.818115234375
33.018310546875 -2.6669921875 11.603515625
-11.2509765625 54.6865234375 51.0595703125
62.9755859375 -77.7978515625 3.634765625
36.895751953125 -57.0517578125 -29.209716796875
-18.110107421875 7.750732421875 39.739501953125
-20.0322265625 52.056640625 46.7138671875
4.151611328125 -30.6591796875 22.43408203125
57.596923828125 -35.39697265625 14.52880859375
-41.376708984375 40.498046875 -14.383544921875
68.275146484375 -74.598876953125 10.88525390625
17.70263671875 -31.986083984375 32.31884765625
-26.21923828125 18.916015625 0.16064453125
-5.86083984375 -4.0283203125 9.466552734375
21.356689453125 -59.915283203125 17.225341796875
42.65625 11.895751953125 -15.6943359375
5.835693359375 -53.170654296875 21.503662109375
-27.087158203125 28.076904296875 4.003662109375
-2.01220703125 -2.339111328125 11.128662109375
-24.644287109375 56.35107421875 -5.85009765625
40.40087890625 -62.794189453125 -20.056640625
-23.172607421875 -19.09228515625 5.421142578125
-46.97509765625 -16.21533203125 -3.435302734375
-35.30322265625 24.361083984375 50.712646484375
-13.57763671875 -1.275634765625 10.5107421875
-6.494140625 -31.1220703125 22.75244140625
45.89111328125 -44.447509765625 3.317138671875
-27.4462890625 53.56201171875 67.41162109375
17.1142578125 -23.283203125 14.14404296875
-14.697265625 51.32421875 47.15234375
29.988037109375 36.681396484375 -5.94580078125
-31.363525390625 62.21142578125 -5.09130859375
-20.280029296875 1.9892578125 23.384765625
50.170654296875 -88.647216796875 6.554443359375
-34.419189453125 52.2265625 -15.246826171875
7.0634765625 -14.161376953125 6.804443359375
-2.8427734375 46.940185546875 52.522705078125
6.928955078125 -21.206298828125 8.111083984375
51.32568359375 33.3076171875 32.30908203125
55.0263671875 -23.119384765625 17.414794921875
42.670654296875 -33.00830078125 5.302734375
33.013916015625 60.436767578125 28.938232421875
-19.5224609375 51.658935546875 -11.489990234375
48.67236328125 37.55712890625 34.856201171875
12.93212890625 -33.711181640625 13.11669921875
-21.77099609375 10.009765625 41.318115234375
-26.080810546875 -14.853515625 4.59033203125
50.5869140625 -56.86328125 -24.60498046875
-19.089599609375 15.792236328125 46.1689453125
8.21484375 -48.697998046875 20.219970703125
8.87841796875 2.445068359375 26.41748046875
43.02197265625 -53.410888671875 2.728271484375
54.728515625 -17.668701171875 12.908935546875
2.728271484375 -6.196533203125 8.00732421875
17.19482421875 35.483642578125 -15.350341796875
-3.6845703125 13.22509765625 44.677734375
17.2568359375 25.62060546875 -12.701904296875
31.57470703125 29.282958984375 22.187744140625
-6.1591796875 -19.973388671875 5.390380859375
5.58837890625 35.473388671875 -12.6513671875
43.266357421875 42.296875 26.39208984375
56.800537109375 -50.502685546875 -23.40185546875
-32.8017578125 32.9150390625 -8.68115234375
49.214599609375 -72.125732421875 -22.858642578125
18.520751953125 -39.31396484375 25.51123046875
-45.207763671875 21.14990234375 -2.0947265625
-3.572021484375 9.73876953125 40.89404296875
58.2568359375 -53.41748046875 6.99365234375
-3.652099609375 38.074951171875 -10.587890625
-37.22216796875 31.140625 -5.543212890625
55.40673828125 -28.588134765625 11.2626953125
2.345703125 -27.379638671875 11.667724609375
50.406982421875 25.731201171875 32.048095703125
-32.383544921875 17.8232421875 -3.75439453125
15.71337890625 -52.419189453125 20.26416015625
-36.075439453125 30.73388671875 49.754638671875
57.51171875 -66.1806640625 -21.931640625
57.459228515625 2.5625 -15.79052734375
-14.721923828125 -29.215576171875 12.005126953125
47.980712890625 -64.172607421875 -24.064453125
-32.627197265625 39.975830078125 -13.646728515625
-18.237548828125 -3.548095703125 37.7412109375
12.901611328125 -62.343505859375 16.650634765625
43.19384765625 20.65283203125 -15.946533203125
26.217529296875 39.06640625 -7.4990234375
-34.6201171875 -8.74609375 0.50244140625
-50.74365234375 56.451171875 -7.66357421875
33.809814453125 -20.949462890625 6.387939453125
-22.541015625 -0.497314453125 15.799560546875
-38.476318359375 9.22998046875 40.272216796875
-1.428955078125 3.788818359375 40.063232421875
11.279541015625 -3.64892578125 41.798828125
7.529541015625 -29.815673828125 17.327880859375
22.337646484375 46.7265625 33.8828125
6.13671875 49.03515625 58.192138671875
33.18603515625 -72.341552734375 -28.29541015625
34.437255859375 17.671142578125 -15.043701171875
31.263916015625 -65.342041015625 -27.769775390625
-28.628662109375 51.37841796875 -12.038818359375
59.39111328125 -49.6337890625 9.208984375
48.525146484375 29.37548828125 32.525634765625
21.1162109375 -74.80810546875 -6.6083984375
-14.275634765625 -38.57421875 11.083740234375
10.960205078125 28.661376953125 -10.50048828125
29.613037109375 21.415771484375 -15.3515625
-49.49169921875 -0.03271484375 10.2626953125
53.403076171875 -76.7099609375 2.065673828125
6.9794921875 -3.974609375 39.275634765625
-40.497314453125 61.925537109375 -4.7421875
-34.25146484375 -12.081298828125 5.16357421875
-4.51318359375 7.080810546875 34.115966796875
41.551025390625 -59.177490234375 -22.426513671875
-43.05029296875 1.318359375 12.607666015625
38.35595703125 -55.59228515625 8.061767578125
-1.272705078125 52.424560546875 56.7177734375
46.292724609375 46.720947265625 34.556396484375
-42.405029296875 47.9990234375 -16.716796875
-53.066162109375 51.75341796875 -12.14111328125
46.83154296875 51.75341796875 40.30859375
-29.71240234375 33.86083984375 3.72509765625
-14.690673828125 47.843994140625 -12.031005859375
13.88525390625 -76.897705078125 -9.5439453125
58.14208984375 -39.32421875 17.240966796875
40.154541015625 -69.86279296875 -25.693115234375
39.578857421875 10.334716796875 -11.728271484375
2.725830078125 51.650634765625 57.045166015625
-38.78173828125 20.982421875 -8.35986328125
57.010498046875 -57.392578125 -23.164306640625
-10.022705078125 -9.279052734375 6.03662109375
-48.166259765625 18.499267578125 -2.395263671875
-10.088623046875 -24.085693359375 7.45947265625
-30.566650390625 13.7412109375 -3.81298828125
23.770751953125 -41.986572265625 29.822021484375
28.925048828125 -77.748046875 -28.279296875
14.3076171875 41.814697265625 -12.351318359375
-4.091064453125 -29.640380859375 18.410888671875
-30.277099609375 37.43310546875 -3.160888671875
-3.618408203125 -2.78466796875 38.712890625
-39.62548828125 44.788818359375 -15.957275390625
44.40478515625 51.898193359375 37.203125
-35.947265625 53.986328125 43.104248046875
14.299560546875 -69.4658203125 5.85400390625
14.876220703125 -1.10888671875 15.62158203125
25.182373046875 -58.49072265625 25.472900390625
-10.09130859375 12.3818359375 45.117919921875
15.555419921875 44.708740234375 -4.0341796875
19.79931640625 42.68115234375 -6.345947265625
-29.737548828125 -8.110595703125 9.057373046875
-30.011474609375 32.234375 -0.927734375
57.466064453125 -30.0595703125 19.27880859375
-47.485595703125 51.210205078125 -13.227294921875
33.5673828125 -10.812744140625 8.0537109375
-57.2890625 42.130615234375 -12.30126953125
-18.404052734375 53.53173828125 72.259033203125
-13.703125 -22.7060546875 7.815673828125
25.979736328125 32.669189453125 -14.852783203125
31.064697265625 -16.659423828125 6.98486328125
-25.750732421875 7.76220703125 17.164794921875
-1.105712890625 -15.347412109375 5.40380859375
42.368896484375 -10.430908203125 9.4287109375
13.081298828125 -67.419677734375 10.8564453125
54.32861328125 -9.915283203125 16.099853515625
27.36376953125 1.919921875 12.062744140625
-28.895751953125 -23.4423828125 5.638916015625
62.751708984375 -59.035888671875 10.941162109375
-32.438720703125 47.0908203125 -15.9130859375
-22.875732421875 46.37109375 -12.6328125
3.14013671875 -11.61279296875 5.165771484375
-21.490234375 -32.634033203125 11.158447265625
4.51171875 -48.80712890625 19.244384765625
20.451416015625 -46.644287109375 27.653076171875
-46.777587890625 -11.784423828125 -4.17626953125
-39.417724609375 -12.883544921875 -2.27001953125
-27.61962890625 14.981689453125 45.52197265625
6.618896484375 -6.19189453125 9.56494140625
40.352783203125 -30.024658203125 6.152099609375
34.16552734375 45.763916015625 25.4482421875
18.366455078125 -0.3115234375 22.928466796875
56.45458984375 -12.7646484375 18.87255859375
-35.921630859375 36.32373046875 -11.188720703125
-32.439697265625 -27.680908203125 1.51904296875
23.416015625 -12.975341796875 9.094482421875
7.697265625 -3.100830078125 11.858642578125
-1.839599609375 52.802001953125 -7.715576171875
-35.0478515625 21.113525390625 -7.84814453125
25.644775390625 48.52001953125 34.13623046875
-2.203369140625 -23.40966796875 7.071044921875
9.35302734375 -10.74072265625 7.5283203125
44.2861328125 -50.641845703125 -27.731201171875
40.53857421875 -63.15771484375 -24.7041015625
64.927490234375 -0.0615234375 -15.9638671875
-21.400390625 58.075927734375 70.751953125
30.36669921875 -68.85693359375 -28.69677734375
-7.843017578125 55.673095703125 -5.6728515625
31.7421875 35.608154296875 -2.53076171875
39.530517578125 -38.781982421875 5.508544921875
-7.5830078125 53.934814453125 50.898193359375
53.654296875 -66.067138671875 -22.3720703125
35.412109375 31.819580078125 -10.26513671875
-2.737548828125 -35.491943359375 24.068115234375
19.246337890625 32.382568359375 -15.15576171875
-26.587158203125 -0.10888671875 14.42626953125
53.3212890625 -14.067626953125 13.19580078125
34.1806640625 -14.45751953125 7.64208984375
-24.08154296875 54.560302734375 -9.05908203125
10.269775390625 38.99560546875 -13.810546875
16.25732421875 -31.8603515625 28.8974609375
14.41650390625 -6.292724609375 10.782470703125
-23.81591796875 -5.117431640625 14.367431640625
-42.10986328125 -3.201416015625 5.679443359375
30.1474609375 33.349853515625 -12.028076171875
27.180419921875 -11.840087890625 8.946044921875
-45.144287109375 40.8994140625 -15.9833984375
2.243896484375 -19.9140625 6.150390625
35.990234375 52.291259765625 27.9072265625
-32.182861328125 -2.110107421875 13.890380859375
20.87548828125 -30.68115234375 33.673828125
27.922607421875 -60.416748046875 27.204345703125
41.3720703125 -2.8857421875 11.2060546875
52.306884765625 -51.792236328125 3.18115234375
-46.906005859375 25.0166015625 0.221435546875
-15.52099609375 -8.370849609375 8.592529296875
63.31787109375 -60.7021484375 -20.433837890625
18.683349609375 -18.17578125 10.24755859375
-0.78564453125 48.584228515625 55.07275390625
-4.638671875 -38.990478515625 23.154052734375
-27.6650390625 5.833984375 14.71044921875
37.197021484375 -63.484619140625 -27.784912109375
-39.513427734375 38.313720703125 -12.12353515625
-17.513427734375 1.4404296875 31.304443359375
-36.70849609375 -0.666748046875 11.086181640625
-8.985595703125 -0.67333984375 40.19775390625
-10.81103515625 -36.212158203125 24.390380859375
60.36962890625 -54.7109375 -22.858642578125
54.826171875 8.9951171875 -17.698486328125
19.551513671875 -53.028564453125 20.62841796875
48.005615234375 -55.482177734375 2.82177734375
9.271240234375 -28.55224609375 11.658203125
30.022705078125 -54.570556640625 20.170166015625
-53.155029296875 -5.3583984375 3.88037109375
-46.23486328125 30.769775390625 -2.004150390625
1.83984375 -0.05517578125 14.46142578125
-1.376220703125 48.36572265625 -12.273681640625
20.8662109375 38.12060546875 -12.35595703125
35.118408203125 -28.60595703125 11.573974609375
10.84716796875 -20.31787109375 9.487548828125
-19.15576171875 -18.74951171875 5.15380859375
-39.126708984375 14.593994140625 -4.327880859375
-7.681396484375 7.51416015625 36.0419921875
36.833984375 -31.87158203125 7.578857421875
27.717529296875 48.659912109375 27.93359375
-42.024169921875 33.413818359375 -9.5458984375
31.19677734375 43.513671875 26.050048828125
-35.565673828125 43.261474609375 -15.262939453125
-26.5458984375 -5.283935546875 11.57470703125
12.9697265625 2.101806640625 45.46337890625
-19.079345703125 -30.65869140625 8.776123046875
-40.314208984375 55.10498046875 -12.953125
-34.5263671875 -16.642822265625 -0.8291015625
-10.906982421875 16.89453125 47.91796875
-16.03515625 1.057373046875 37.606689453125
-30.748779296875 -16.5595703125 2.6337890625
-31.564453125 10.99462890625 43.42822265625
13.473876953125 -75.31201171875 -6.232421875
-12.476318359375 -16.2802734375 6.036865234375
-35.40185546875 -22.501220703125 -1.978759765625
46.01220703125 -61.288818359375 -20.4326171875
17.130126953125 -73.82763671875 -3.999755859375
11.087646484375 -14.040283203125 7.74609375
3.6728515625 -37.90673828125 23.3720703125
19.915283203125 -0.266845703125 17.734130859375
-6.827392578125 50.508056640625 50.00341796875
-24.76904296875 -26.674560546875 8.3310546875
-11.910400390625 -40.632568359375 15.53515625
47.7939453125 -8.630615234375 10.84521484375
43.771484375 -78.1923828125 -22.450439453125
26.384765625 57.597412109375 31.078369140625
40.975830078125 -75.739013671875 -24.8779296875
48.14794921875 -75.508056640625 -22.90087890625
39.852294921875 35.347900390625 23.63720703125
55.59912109375 -54.06494140625 3.468505859375
-18.507568359375 -12.770263671875 5.543212890625
-35.33544921875 26.318603515625 -9.892333984375
44.005126953125 -65.758056640625 -25.75390625
15.83984375 -64.8310546875 15.4794921875
-47.083984375 43.9345703125 -14.177001953125
-46.141357421875 55.3583984375 -13.510986328125
34.88525390625 33.671630859375 21.5791015625
-28.505126953125 54.467041015625 -9.837158203125
28.1591796875 -20.2919921875 9.518310546875
48.147705078125 23.196044921875 31.150390625
22.840087890625 -56.5341796875 21.91064453125
12.4052734375 -48.496337890625 19.046630859375
39.749755859375 -55.4814453125 -27.922119140625
-50.232177734375 40.664794921875 -11.21484375
7.177978515625 2.486083984375 43.4677734375
-4.16552734375 11.245849609375 35.887939453125
-9.657470703125 -31.078369140625 21.267578125
-11.539306640625 51.147216796875 -11.614013671875
-51.966064453125 45.667236328125 -12.63525390625
50.982177734375 -27.183349609375 12.924560546875
-26.531982421875 -4.932861328125 17.58984375
48.685546875 15.63232421875 -17.25146484375
-1.894775390625 -43.944580078125 14.563232421875
25.135498046875 60.8173828125 32.580322265625
-1.082275390625 41.211669921875 -12.776123046875
-31.435546875 59.093017578125 -7.4658203125
-0.586181640625 35.669921875 -9.433349609375
-60.049560546875 54.642578125 -9.7763671875
54.7236328125 -46.17431640625 6.987548828125
-45.782958984375 48.19091796875 -15.60498046875
13.42431640625 -72.087646484375 0.768798828125
-17.31689453125 42.012451171875 -11.24609375
6.444091796875 -43.40234375 23.40869140625
24.41650390625 -49.8330078125 25.7919921875
-21.375732421875 -24.8935546875 7.17822265625
5.643798828125 -2.020751953125 14.952880859375
53.7734375 -21.34912109375 12.09814453125
-35.78759765625 55.51318359375 68.464599609375
-35.423828125 25.91650390625 -2.758056640625
-28.042236328125 60.719482421875 0.98876953125
48.63037109375 44.16015625 36.15576171875
21.91455078125 -38.181396484375 29.819091796875
-15.16455078125 -3.4150390625 18.101318359375
8.203125 -1.13525390625 24.12744140625
42.02392578125 -49.7763671875 3.001220703125
-30.3134765625 26.0654296875 1.8203125
2.628662109375 41.94775390625 56.681396484375
-35.713623046875 20.631591796875 47.54443359375
0.880615234375 -29.12158203125 17.75537109375
25.391357421875 -5.52197265625 10.579833984375
61.54248046875 -64.590087890625 12.229736328125
57.045654296875 -37.141357421875 10.698974609375
36.395751953125 -76.383056640625 -25.84765625
35.39990234375 -36.625732421875 11.47607421875
32.707275390625 1.35009765625 12.522216796875
16.791015625 -72.583251953125 -0.854248046875
38.42626953125 -51.91943359375 -29.73779296875
-31.054443359375 -20.24267578125 3.828125
-34.849609375 -8.92626953125 4.07958984375
-41.3154296875 29.19677734375 -0.868408203125
13.830078125 28.19775390625 -12.22802734375
23.185302734375 23.244384765625 -13.638671875
21.63330078125 53.7265625 36.257568359375
11.46923828125 -32.67724609375 28.87890625
23.426025390625 -22.84814453125 14.389892578125
47.034912109375 -52.259033203125 3.033447265625
-1.660888671875 -48.48388671875 19.280517578125
24.03857421875 37.037109375 -12.030029296875
37.69384765625 -45.326904296875 7.57373046875
-32.7109375 -24.271484375 -0.626708984375
43.773681640625 -36.060302734375 4.342529296875
-5.20703125 52.785888671875 -9.076416015625
57.395263671875 -31.1328125 12.19384765625
57.1435546875 -15.832275390625 15.247314453125
39.067626953125 23.515380859375 -15.416259765625
59.87158203125 -0.874755859375 -15.52587890625
50.511962890625 -82.061279296875 3.271240234375
45.281005859375 -40.821044921875 3.726806640625
34.3544921875 -25.08935546875 12.758056640625
7.375732421875 42.6083984375 61.586669921875
18.730712890625 -42.69384765625 25.001708984375
-23.756591796875 20.28662109375 47.814208984375
49.200439453125 -89.315185546875 9.841796875
-20.730712890625 -5.54541015625 12.8857421875
46.20068359375 -26.41552734375 7.20361328125
39.169677734375 -20.102294921875 6.287109375
-23.709228515625 -11.197265625 6.77099609375
19.29248046875 -14.9384765625 8.98046875
-15.554931640625 6.674072265625 42.186279296875
-42.274169921875 18.7841796875 -5.578125
28.5126953125 -65.991943359375 33.79931640625
51.931396484375 -27.3056640625 9.750732421875
-42.643798828125 58.41015625 -8.607177734375
38.343017578125 -6.718017578125 10.461669921875
-29.36328125 39.661865234375 -13.18994140625
25.835693359375 -53.202880859375 25.714599609375
-14.101318359375 54.868896484375 -8.68359375
-39.46826171875 -6.707275390625 1.76025390625
20.36572265625 -63.276611328125 16.29150390625
19.222900390625 -71.64111328125 1.36865234375
-6.87451171875 48.115234375 -11.748046875
-27.918701171875 -11.377197265625 6.123291015625
-39.185791015625 34.582275390625 -11.660400390625
-41.5791015625 -9.992919921875 -2.5400390625
63.103759765625 -61.9921875 9.39013671875
-18.557373046875 7.074951171875 34.721435546875
60.294189453125 -79.615966796875 3.025146484375
42.718505859375 -19.981689453125 7.075927734375
61.26123046875 -74.987548828125 3.51025390625
-37.97314453125 56.5361328125 43.59228515625
53.479736328125 -49.70654296875 5.439208984375
19.11669921875 -79.26904296875 -15.51123046875
22.029052734375 57.57666015625 35.824951171875
25.69921875 -63.084228515625 29.97412109375
21.1494140625 -8.963134765625 9.319091796875
2.39501953125 -40.518310546875 14.5390625
12.578125 -37.83349609375 26.55517578125
23.622314453125 -35.340087890625 31.64794921875
-21.127685546875 -1.28125 18.693359375
17.82421875 -76.687255859375 -10.26611328125
14.591064453125 32.86083984375 -14.262939453125
-42.2685546875 56.72802734375 67.810791015625
29.11767578125 -58.884765625 23.200927734375
39.333251953125 28.11376953125 21.0205078125
-23.2841796875 54.476318359375 48.4658203125
23.0859375 -80.111083984375 -18.293701171875
62.569580078125 -68.94873046875 6.670654296875
-3.771240234375 -11.71875 5.425537109375
-31.71826171875 53.880859375 -14.48291015625
0.5 -8.27392578125 6.85498046875
55.254150390625 -83.353271484375 2.239013671875
-12.78857421875 0.5966796875 39.0634765625
53.680908203125 -59.582275390625 -23.822509765625
53.540283203125 4.719970703125 -16.06591796875
5.51953125 43.51953125 -13.1630859375
17.462890625 -49.994873046875 21.845703125
17.53515625 -59.35888671875 18.816162109375
-39.1728515625 18.566162109375 48.333251953125
-46.2412109375 -6.121826171875 0.685302734375
-38.08935546875 24.716796875 -7.97216796875
-29.2431640625 45.011962890625 -13.843505859375
-34.769775390625 18.380615234375 -5.863037109375
59.5966796875 -57.56640625 7.2490234375
63.713623046875 -74.558349609375 5.94287109375
32.8798828125 35.943359375 22.952880859375
-19.192626953125 -1.56103515625 21.331787109375
49.626220703125 -60.892578125 -25.03857421875
25.0478515625 -18.95751953125 10.1650390625
-33.269775390625 18.5322265625 47.2626953125
8.638916015625 36.097900390625 -13.491455078125
58.1611328125 -42.26611328125 15.22119140625
35.94775390625 -60.31103515625 -27.98583984375
-28.064453125 53.052001953125 47.673583984375
-48.345458984375 -2.925537109375 6.912841796875
57.106689453125 -26.90380859375 18.175048828125
31.52490234375 -76.0322265625 -27.521240234375
-9.494140625 -17.10546875 4.698974609375
-29.506103515625 37.303955078125 2.851806640625
-30.115478515625 -2.875732421875 31.344482421875
51.397705078125 -34.78662109375 7.277099609375
5.218505859375 -25.167724609375 10.278076171875
53.8193359375 -27.078125 15.628173828125
30.390869140625 -80.9267578125 -25.351318359375
49.863037109375 19.743896484375 29.100830078125
-53.669921875 -1.446533203125 9.259033203125
58.17626953125 -21.713623046875 17.938720703125
43.908203125 -14.317138671875 8.478759765625
-23.0029296875 52.570068359375 44.220458984375
3.076416015625 -45.08984375 15.77685546875
-15.852294921875 11.463134765625 42.908203125
39.47998046875 -14.556884765625 8.017822265625
-10.029052734375 -37.329345703125 21.52197265625
-27.226318359375 4.752685546875 41.557861328125
-44.905517578125 38.26953125 -14.051025390625
44.946533203125 -6.661376953125 10.3369140625
-53.697021484375 55.635009765625 -9.191162109375
-38.06689453125 10.18115234375 43.5205078125
12.906494140625 -0.943359375 42.0966796875
33.15771484375 -58.082763671875 -28.2890625
-23.8916015625 43.427978515625 -11.888427734375
20.462646484375 -34.803466796875 32.079833984375
-49.126220703125 26.88232421875 1.49658203125
-10.821044921875 44.381591796875 -12.209228515625
36.764892578125 40.62255859375 23.618896484375
-0.068115234375 51.00341796875 -9.617431640625
36.409912109375 -70.366455078125 -26.80615234375
14.51513671875 -55.5849609375 20.18994140625
-31.6533203125 25.5869140625 49.254638671875
49.743896484375 36.373046875 38.86181640625
4.766845703125 49.53662109375 -9.096923828125
46.218017578125 -72.1923828125 -23.783447265625
33.2734375 34.842041015625 -6.028076171875
-28.127197265625 23.870849609375 50.016357421875
6.022705078125 -18.81298828125 6.31396484375
10.685546875 -70.457763671875 4.918212890625
-45.012451171875 -4.147216796875 5.01806640625
5.003662109375 44.888671875 59.7763671875
-38.96728515625 56.6142578125 -10.575927734375
-31.88037109375 29.58251953125 -0.351806640625
7.93359375 -57.154296875 18.658203125
7.335205078125 39.43701171875 62.19384765625
42.478515625 -71.83349609375 -25.052734375
9.58154296875 -62.499267578125 15.979736328125
13.477294921875 -26.5068359375 25.027099609375
-8.746826171875 -21.901611328125 5.523193359375
13.7783203125 -43.30908203125 23.85595703125
39.138427734375 -49.268310546875 5.0576171875
-2.493408203125 8.05419921875 44.017822265625
-3.24072265625 -7.592041015625 6.327880859375
-11.9892578125 -35.21728515625 10.512451171875
-50.294677734375 -7.271240234375 0.81591796875
34.671142578125 -65.527099609375 -28.732177734375
52.788818359375 -71.676513671875 -23.03955078125
49.562744140625 -18.263427734375 7.343994140625
-12.68505859375 -9.34033203125 7.85986328125
40.1611328125 44.18701171875 27.14013671875
18.2001953125 42.152587890625 -9.975341796875
-15.204345703125 -3.438720703125 38.267578125
-28.823486328125 58.91796875 -3.433349609375
19.56494140625 27.51318359375 -14.189697265625
2.419189453125 45.154052734375 55.23681640625
67.3369140625 -66.923095703125 15.2373046875
48.60498046875 -14.624267578125 9.76806640625
-57.038330078125 39.489501953125 -10.480224609375
15.845703125 -12.653076171875 8.998291015625
-36.200439453125 16.3916015625 -3.999755859375
-17.436279296875 18.298583984375 48.356201171875
60.12890625 -67.403564453125 -20.906982421875
-9.777587890625 -2.82958984375 11.0693359375
37.789794921875 16.7783203125 -15.82666015625
12.224853515625 -43.752685546875 19.264892578125
-27.16796875 34.22607421875 5.381591796875
34.193359375 27.599853515625 -15.387939453125
52.710205078125 -10.863037109375 13.697998046875
60.29443359375 -52.537109375 9.3603515625
51.091796875 -54.09130859375 -25.75439453125
7.28955078125 -37.452392578125 24.73828125
10.927001953125 -73.120849609375 -1.15625
66.63525390625 -72.041748046875 10.242431640625
8.60546875 48.383544921875 -7.9296875
22.62548828125 41.58056640625 -6.157470703125
28.29931640625 26.121337890625 -15.463623046875
4.6259765625 39.059326171875 60.18896484375
-4.3271484375 4.08544921875 33.664306640625
35.054443359375 -41.87744140625 11.97900390625
-51.150390625 48.668212890625 -13.816162109375
-19.730712890625 40.58740234375 -10.087646484375
37.350830078125 45.818115234375 26.25146484375
-3.474609375 1.534912109375 39.5107421875
-27.48291015625 19.646484375 -2.880615234375
44.438720703125 47.817626953125 30.48291015625
-31.212158203125 -25.433837890625 6.0732421875
41.14892578125 -55.231689453125 4.241455078125
-22.5712890625 2.9111328125 25.1171875
21.34228515625 -57.2705078125 18.923583984375
-14.54638671875 -33.490234375 11.686767578125
-7.65087890625 -12.574951171875 3.896240234375
-5.251953125 -0.610595703125 15.172119140625
25.1513671875 -81.21044921875 -23.65087890625
31.84375 16.568359375 -13.864990234375
13.714111328125 -18.018310546875 9.70361328125
-40.593017578125 24.36572265625 -9.595703125
44.9384765625 -29.55859375 5.71630859375
17.751953125 -20.9296875 10.98095703125
28.923095703125 39.345947265625 -5.083984375
-4.23779296875 48.7939453125 50.629150390625
30.39990234375 28.07958984375 -14.377197265625
26.01220703125 54.63671875 31.302001953125
-5.12451171875 40.518798828125 -11.485595703125
1.435546875 -31.841796875 22.8955078125
16.699462890625 -4.60302734375 11.716552734375
32.4189453125 -5.520751953125 10.896728515625
28.2333984375 54.05419921875 28.705322265625
-20.272705078125 -26.571044921875 9.5927734375
3.596435546875 39.0478515625 -13.213134765625
26.06494140625 40.525390625 29.055419921875
-15.846435546875 -0.3935546875 23.63671875
60.857421875 -68.088623046875 4.394287109375
-44.7373046875 35.18212890625 -11.8740234375
35.67919921875 33.556396484375 -7.87109375
-16.950439453125 -23.955078125 8.5615234375
-56.70263671875 50.863037109375 -12.923828125
-30.41552734375 23.398681640625 -0.558349609375
55.087890625 -38.3896484375 7.968017578125
36.947021484375 -9.162841796875 9.542236328125
-41.5546875 -8.28076171875 0.041748046875
-24.641357421875 40.843994140625 -10.653564453125
-8.59521484375 50.8603515625 -11.727783203125
-1.03564453125 -1.014404296875 13.970458984375
0.40966796875 -3.734375 10.1904296875
-40.064453125 -20.138427734375 -2.705322265625
59.990966796875 -49.4541015625 15.810302734375
15.861572265625 25.24072265625 -10.134033203125
-41.558349609375 -0.496337890625 10.83154296875
-5.74365234375 -6.265380859375 7.56201171875
39.150634765625 -1.03369140625 11.73193359375
42.601318359375 -51.498291015625 -25.005859375
45.49658203125 -33.691650390625 5.6953125
40.375 -26.978759765625 7.682861328125
29.945556640625 -10.4814453125 9.493896484375
33.639404296875 20.45849609375 -15.45458984375
11.003173828125 -3.818603515625 12.39501953125
-33.587158203125 -19.657470703125 1.968017578125
44.283203125 -3.083251953125 11.049560546875
43.32666015625 -24.48291015625 6.8447265625
-19.55078125 3.918212890625 25.44580078125
0.9306640625 10.20751953125 42.578369140625
-9.98681640625 -30.45556640625 9.209716796875
-35.44970703125 29.53515625 -1.46044921875
-24.755615234375 55.3291015625 69.49072265625
-16.494873046875 45.01953125 -12.841796875
-26.63330078125 26.3232421875 1.123046875
40.409912109375 27.210693359375 -12.78759765625
5.263427734375 -42.118408203125 19.0439453125
-27.580078125 -15.8447265625 2.306396484375
58.233642578125 -42.42431640625 12.203857421875
59.638916015625 -48.7314453125 12.6162109375
-34.109619140625 49.471435546875 -16.096435546875
-32.34814453125 57.18994140625 -9.919677734375
10.51171875 -26.664794921875 13.47314453125
4.084228515625 46.204345703125 -12.585205078125
37.127197265625 -24.578857421875 9.111083984375
35.0341796875 30.79296875 21.303466796875
25.392578125 26.712890625 -15.021240234375
8.126953125 44.34033203125 -12.2490234375
-3.885986328125 46.373291015625 -13.51171875
43.0908203125 -45.057861328125 3.0390625
29.804443359375 35.772216796875 -8.8076171875
65.1708984375 -67.179931640625 10.5615234375
-41.60498046875 0.590576171875 15.1845703125
-21.620361328125 -22.16015625 6.3251953125
48.327392578125 -54.83642578125 -25.51220703125
-28.956787109375 57.787109375 1.331787109375
-45.7724609375 57.639404296875 -10.846435546875
-36.92138671875 0.3095703125 16.07275390625
-18.509033203125 4.473876953125 28.126708984375
-30.073486328125 13.179931640625 44.5322265625
20.12353515625 -45.641357421875 24.988037109375
-57.7138671875 56.6474609375 -7.7548828125
-29.17333984375 56.62841796875 68.346923828125
-7.503662109375 9.19677734375 33.4169921875
18.86474609375 -27.205810546875 26.283935546875
-16.883056640625 55.521240234375 -7.7880859375
49.49462890625 -5.843017578125 12.2626953125
-20.952392578125 -7.976318359375 9.19140625
-17.068359375 53.6484375 -9.950927734375
-29.859619140625 19.4873046875 48.248046875
55.44091796875 -20.3662109375 14.189697265625
60.96044921875 -55.21728515625 13.642578125
36.83544921875 -35.81005859375 8.240234375
-29.51708984375 34.257080078125 -8.2744140625
20.143798828125 35.897705078125 -14.228759765625
23.77880859375 31.250732421875 -13.738037109375
-25.116943359375 -1.287109375 17.0908203125
-24.7783203125 -6.41943359375 8.62890625
-0.930908203125 45.56201171875 54.11474609375
28.67822265625 31.94775390625 -14.321533203125
-33.411376953125 37.650390625 -11.054443359375
3.9521484375 -39.15625 16.935302734375
46.180419921875 19.906982421875 -15.01220703125
-20.987060546875 22.94580078125 49.260009765625
-36.6982421875 -19.986083984375 -2.180419921875
-35.523193359375 27.90576171875 51.2470703125
-59.729736328125 52.736328125 -11.840087890625
13.593017578125 45.781982421875 -8.01953125
-36.6630859375 -14.16650390625 -1.161865234375
-39.398193359375 48.8251953125 -15.50341796875
-36.697021484375 50.5859375 -16.0185546875
-44.0830078125 61.79931640625 -4.36767578125
9.88916015625 46.5791015625 -9.6708984375
-37.310546875 14.94482421875 45.401123046875
51.891357421875 -42.251708984375 10.810791015625
64.525634765625 -64.81884765625 14.2626953125
11.5087890625 -56.279541015625 20.08203125
58.070068359375 -53.18896484375 -23.414306640625
43.504638671875 15.6474609375 -16.700927734375
-17.378662109375 9.272705078125 41.986083984375
-26.573974609375 17.604248046875 46.54296875
42.19775390625 -67.836669921875 -26.299072265625
7.623291015625 33.53662109375 -12.41845703125
-18.87646484375 8.687744140625 32.446044921875
-37.03125 -2.828857421875 16.588134765625
64.90478515625 -73.45947265625 8.548095703125
21.161376953125 -51.22998046875 22.948974609375
-4.59228515625 -17.496826171875 4.134521484375
0.3818359375 -22.338134765625 6.964599609375
32.016845703125 57.5517578125 28.08447265625
50.391845703125 -85.475341796875 4.649658203125
0.513671875 -39.2060546875 22.022705078125
-5.438232421875 -27.643310546875 9.90478515625
36.53369140625 -79.343505859375 -24.138427734375
-15.624755859375 -20.927490234375 6.736083984375
-28.7177734375 53.89404296875 -13.251220703125
25.6728515625 -57.395263671875 22.949951171875
-14.910888671875 -4.665283203125 12.445068359375
28.6572265625 -53.1796875 26.72314453125
29.817138671875 -71.9794921875 -29.43212890625
-51.19873046875 -11.005615234375 -2.98291015625
-36.70458984375 -1.543212890625 14.0087890625
52.318115234375 -68.407470703125 -23.25244140625
36.372314453125 -42.511474609375 9.61669921875
52.251708984375 -79.419677734375 2.181884765625
34.183349609375 -28.355712890625 14.17724609375
-21.61376953125 15.10107421875 47.095458984375
32.4951171875 38.69873046875 24.48388671875
6.847900390625 -31.274169921875 22.203369140625
-33.143798828125 31.80859375 -6.159912109375
-10.677978515625 41.04638671875 -10.9775390625
60.047119140625 -61.50244140625 -21.736572265625
13.134765625 -70.73486328125 3.658203125
-22.19384765625 56.9150390625 -7.004150390625
-23.368896484375 49.584716796875 -12.574951171875
-34.231201171875 24.57568359375 -5.107177734375
46.28759765625 9.352783203125 -15.745849609375
-9.039306640625 -32.02587890625 24.080078125
15.359130859375 -36.961669921875 27.69580078125
-54.77783203125 43.96533203125 -13.264404296875
12.1962890625 -1.367431640625 16.181396484375
-45.14892578125 18.796630859375 -3.51513671875
-26.546630859375 55.61962890625 -7.962646484375
50.36376953125 12.192138671875 -17.24853515625
4.178466796875 -46.040283203125 18.520263671875
-23.34228515625 -14.86083984375 5.739990234375
-3.854248046875 53.839599609375 54.12109375
7.144287109375 -1.052734375 17.576171875
-36.8798828125 52.8759765625 -14.231201171875
-42.0869140625 -1.447509765625 8.317138671875
27.326416015625 -44.73681640625 27.708740234375
45.87744140625 -19.4306640625 7.63671875
20.261962890625 24.65380859375 -13.352783203125
-10.85693359375 -27.77099609375 10.60302734375
-7.5244140625 -30.184814453125 19.810302734375
23.261474609375 -29.808837890625 34.67431640625
0.0078125 -42.2451171875 15.5341796875
-16.894287109375 -10.40673828125 7.401123046875
-26.07470703125 -21.810546875 4.976318359375
-25.500732421875 10.239501953125 44.87109375
-4.409423828125 -30.958740234375 24.99169921875
-14.3662109375 54.27587890625 49.11474609375
26.14697265625 -41.117919921875 30.818115234375
-15.01513671875 40.405029296875 -10.3818359375
40.365478515625 -60.837158203125 -18.171142578125
35.12744140625 14.794189453125 -14.07470703125
-2.509521484375 -33.040283203125 22.924560546875
-36.810546875 -7.824951171875 1.8095703125
-26.661376953125 45.005615234375 -12.601806640625
-54.3388671875 39.619140625 -10.677001953125
14.38330078125 -8.5908203125 9.35009765625
-30.14111328125 48.33251953125 -15.202392578125
3.987548828125 49.73828125 59.671630859375
47.247802734375 -60.491943359375 -22.926025390625
-15.935302734375 50.231201171875 -12.22119140625
41.55517578125 10.35693359375 -13.77392578125
64.973388671875 -64.38037109375 11.14208984375
33.533447265625 -33.054443359375 13.989013671875
-15.615234375 15.889892578125 46.841552734375
-2.95654296875 -44.14013671875 17.030517578125
21.54248046875 -49.01123046875 24.910888671875
-0.02783203125 44.82763671875 -12.4052734375
53.554443359375 -40.59912109375 7.865478515625
41.195068359375 -36.42724609375 5.013671875
-22.603515625 -30.361572265625 10.255859375
-28.078125 31.36669921875 4.219482421875
13.148681640625 45.850341796875 -4.376220703125
20.450927734375 50.720703125 36.204833984375
-25.566650390625 -18.24658203125 4.538818359375
-2.191162109375 4.9794921875 37.558349609375
-29.376220703125 36.1025390625 -10.214111328125
58.312255859375 -32.813720703125 14.56103515625
-34.899169921875 24.101806640625 -8.45166015625
1.489990234375 -14.706787109375 5.23876953125
-28.015380859375 53.960693359375 54.0771484375
-33.06689453125 -24.793701171875 1.971435546875
-40.44873046875 -16.24560546875 -3.043701171875
-17.69921875 2.870849609375 33.547607421875
-13.380126953125 -19.409912109375 6.395751953125
44.725830078125 -51.393310546875 2.031005859375
-10.400146484375 38.4150390625 -8.760009765625
14.202392578125 39.117919921875 -13.31982421875
40.25146484375 14.560302734375 -15.938720703125
-34.274658203125 -14.205810546875 2.489501953125
-30.615478515625 -11.155517578125 6.263427734375
-39.487548828125 -2.62548828125 5.822021484375
-33.05078125 15.003173828125 46.73046875
24.588134765625 -20.717529296875 12.594482421875
60.439453125 -70.5703125 2.50244140625
36.87841796875 -20.518798828125 7.5546875
40.615966796875 41.89599609375 25.040771484375
25.985595703125 50.373779296875 32.1240234375
32.322998046875 31.822021484375 22.212158203125
