2.187255859375 -50.71875 21.849365234375
-41.469482421875 34.712158203125 -9.9560546875
-48.545654296875 20.25439453125 0.0400390625
5.74267578125 41.91455078125 -11.13232421875
19.197021484375 23.763916015625 -10.81494140625
-30.834228515625 33.3994140625 -8.212646484375
22.024169921875 37.69775390625 -9.181396484375
11.782470703125 33.05322265625 -11.4931640625
-28.214111328125 56.71728515625 4.222412109375
6.802001953125 4.813720703125 45.83203125
41.420654296875 27.263427734375 -6.583984375
39.337646484375 -52.617919921875 6.81298828125
31.9052734375 28.054931640625 23.621826171875
0.070556640625 43.066162109375 56.34912109375
51.388427734375 37.3779296875 31.221435546875
4.701904296875 -35.54248046875 26.002197265625
-12.634765625 11.90087890625 47.214111328125
35.27978515625 57.5341796875 30.93896484375
15.606689453125 -12.01123046875 11.50634765625
22.360107421875 -79.2587890625 -12.60546875
-12.087158203125 -26.657958984375 11.879638671875
51.873291015625 -49.7548828125 12.302734375
-24.00244140625 40.7333984375 -8.7255859375
35.950927734375 15.871826171875 -13.015869140625
46.86767578125 24.9853515625 31.494384765625
34.55908203125 42.0458984375 26.7255859375
47.488037109375 -79.965576171875 -19.844970703125
-2.278564453125 7.209716796875 40.571533203125
-33.917236328125 -3.491943359375 13.761962890625
4.378173828125 -25.758056640625 11.942138671875
13.591796875 -37.973388671875 14.44873046875
44.44091796875 56.330810546875 40.892333984375
-56.17626953125 38.897705078125 -9.10888671875
37.02587890625 -41.328125 10.188720703125
2.921142578125 -39.55712890625 19.39892578125
-7.54638671875 -5.07470703125 10.853271484375
-23.8681640625 1.771484375 26.313232421875
37.753662109375 33.23095703125 24.76611328125
-33.029052734375 -26.8935546875 2.239501953125
15.0556640625 -1.718017578125 18.132568359375
-30.68212890625 47.788818359375 -13.574462890625
58.724609375 -47.647216796875 15.124755859375
-25.820068359375 57.528564453125 71.881591796875
-3.953125 -31.999755859375 26.66015625
9.833984375 -28.082763671875 23.73486328125
-50.456787109375 46.834228515625 -11.995361328125
-45.8955078125 -2.04296875 10.4658203125
-45.52099609375 31.827880859375 -4.197509765625
29.701171875 24.643798828125 -13.072021484375
16.927490234375 -28.444580078125 32.912841796875
26.8603515625 53.834716796875 31.739990234375
-36.93017578125 57.2080078125 71.143310546875
8.5634765625 -12.086181640625 8.978271484375
25.443359375 -57.885009765625 26.15185546875
-21.01513671875 -2.9560546875 21.360107421875
-2.850830078125 -15.153076171875 7.097900390625
54.261474609375 -84.725830078125 4.073486328125
46.89404296875 -51.01708984375 -24.377197265625
-42.591064453125 26.85595703125 0.40576171875
46.438720703125 47.989990234375 40.98974609375
10.44482421875 -50.445068359375 22.124755859375
-17.11328125 44.4921875 -10.923828125
-34.125244140625 24.154052734375 -1.328369140625
-11.824462890625 -33.90771484375 26.2822265625
45.8359375 -64.3720703125 -20.435791015625
-43.68017578125 -9.4677734375 1.369873046875
14.4423828125 -25.353759765625 18.40673828125
63.289794921875 -61.58935546875 13.260986328125
45.1494140625 43.65966796875 32.328369140625
-39.807373046875 10.069580078125 45.76611328125
3.528076171875 -2.776611328125 14.52197265625
46.79345703125 33.431640625 34.870361328125
39.217529296875 -29.13916015625 9.4541015625
-34.70849609375 23.031494140625 52.871826171875
-15.204833984375 51.2939453125 -9.348876953125
-17.0224609375 1.64404296875 39.033935546875
-18.111572265625 -14.21826171875 7.36865234375
-3.107666015625 -46.29931640625 19.65625
29.687744140625 -21.658935546875 8.0546875
-11.62841796875 -34.900390625 14.13818359375
-31.1435546875 15.087158203125 49.162841796875
21.02294921875 41.2763671875 -1.544677734375
44.762939453125 23.252197265625 -10.980712890625
32.64501953125 38.100341796875 -0.485107421875
6.78564453125 30.330078125 -7.470458984375
-42.622802734375 20.990234375 -3.2236328125
-1.341552734375 40.73486328125 -10.57421875
28.5126953125 35.423095703125 -7.270751953125
35.393310546875 -0.284912109375 15.245849609375
57.3310546875 -37.251708984375 13.4736328125
18.27099609375 32.78515625 -13.2490234375
-10.18212890625 -4.802978515625 37.6748046875
57.37353515625 -68.94873046875 -19.892333984375
9.88623046875 -1.177490234375 42.85595703125
35.30908203125 -72.970947265625 -26.0361328125
-21.55615234375 -6.86669921875 15.775146484375
13.490478515625 -33.751953125 29.459228515625
-28.4033203125 -6.7099609375 11.927001953125
-30.218505859375 57.463134765625 -7.470947265625
20.2890625 -44.709228515625 29.931396484375
-41.78271484375 41.995849609375 -13.216064453125
27.792724609375 -2.807373046875 12.082275390625
33.780517578125 -39.89306640625 15.76171875
-23.740234375 -17.654052734375 7.380615234375
65.64453125 -1.431640625 -13.620849609375
7.8857421875 -2.17578125 28.740966796875
60.757568359375 -67.98681640625 15.427001953125
12.861083984375 -69.2119140625 10.5439453125
-1.23974609375 -22.494140625 8.261474609375
-13.104736328125 -2.454833984375 21.557861328125
-16.633544921875 -8.73388671875 10.98095703125
46.817138671875 -4.8427734375 12.35693359375
-5.611328125 2.7392578125 36.52734375
14.38623046875 -60.4404296875 19.58642578125
43.9306640625 -74.913330078125 -22.996826171875
41.747314453125 18.061279296875 -14.7919921875
27.916259765625 -10.53759765625 10.7470703125
56.956298828125 -17.62841796875 15.8447265625
-15.380615234375 -4.224853515625 31.797119140625
17.3369140625 -73.078369140625 1.05712890625
23.71826171875 44.49365234375 36.2958984375
59.915283203125 -56.869873046875 10.06494140625
-21.616943359375 21.23291015625 50.912841796875
-21.255859375 -28.949951171875 8.729736328125
55.37060546875 1.701416015625 -13.147705078125
-36.982177734375 47.54443359375 -13.768310546875
40.321533203125 -61.473876953125 -21.27099609375
-43.468505859375 -18.383544921875 -1.551513671875
38.896484375 -9.903076171875 11.77197265625
-26.574951171875 6.434326171875 45.135986328125
51.3349609375 -41.6220703125 13.5615234375
52.193359375 -26.511474609375 12.2275390625
-40.36279296875 52.125244140625 70.25048828125
51.504150390625 -57.485107421875 -22.526123046875
41.939697265625 -16.453857421875 10.030029296875
60.951171875 -61.2880859375 -19.6806640625
53.620361328125 -27.721923828125 18.709716796875
-32.35302734375 -0.919189453125 20.230224609375
58.080810546875 -50.183349609375 9.60888671875
-0.32421875 50.95263671875 62.841064453125
9.220458984375 -22.18896484375 11.013671875
51.24853515625 -10.640625 14.059814453125
-15.526123046875 50.512451171875 49.2392578125
12.24951171875 -71.97216796875 4.422119140625
45.934326171875 -50.483642578125 4.227783203125
14.018310546875 44.521484375 -5.203125
-35.818603515625 17.264404296875 -3.841064453125
-27.715576171875 0.8173828125 16.564697265625
-12.97119140625 -18.669921875 8.059814453125
27.35791015625 -22.89892578125 13.417724609375
21.350830078125 -13.5234375 10.567626953125
-8.09716796875 50.143798828125 52.016357421875
-60.008056640625 52.03271484375 -9.814697265625
-20.878173828125 52.739990234375 71.363525390625
59.9931640625 -52.194580078125 -20.813720703125
41.171142578125 -52.2236328125 -25.125
21.036376953125 -37.012451171875 33.40087890625
-31.538818359375 30.31787109375 -3.021728515625
-30.646728515625 36.745849609375 3.522216796875
-40.447998046875 53.708740234375 -11.3037109375
48.646728515625 9.34814453125 -14.333740234375
-47.448974609375 51.77587890625 -10.865478515625
15.39990234375 -75.9619140625 -4.722900390625
65.605224609375 -70.60009765625 11.310302734375
47.753173828125 -69.05126953125 -23.34521484375
61.888916015625 -72.763916015625 6.939453125
-55.138427734375 58.976806640625 -6.50146484375
-29.273193359375 39.47509765625 -10.83203125
36.579833984375 -22.548583984375 9.021484375
-10.046875 -1.90673828125 16.669921875
37.933837890625 -46.838623046875 8.68701171875
40.920166015625 54.7099609375 32.619384765625
-36.045166015625 52.760986328125 44.2255859375
-5.22412109375 -8.9990234375 7.348876953125
44.7998046875 -28.815673828125 8.18408203125
-20.63818359375 53.001220703125 -8.091552734375
32.7607421875 -30.4287109375 17.086181640625
21.138427734375 -20.252685546875 12.523193359375
19.50537109375 -62.67822265625 18.33154296875
-35.200439453125 -18.076171875 0.2294921875
-34.8466796875 -8.453369140625 4.1767578125
-44.574462890625 1.767822265625 14.519775390625
3.08544921875 -12.14453125 7.01220703125
-4.55322265625 45.33642578125 -9.79296875
-28.078125 52.34814453125 -8.596435546875
-2.44140625 -41.60498046875 16.58056640625
-27.076904296875 17.01416015625 -1.273193359375
-35.092529296875 25.9775390625 -6.5732421875
53.44287109375 -22.560546875 16.04052734375
16.663330078125 -5.9296875 13.48095703125
-49.415771484375 56.212646484375 -5.287109375
-34.6328125 -16.21044921875 6.76025390625
20.212646484375 -81.919189453125 -17.2578125
-36.328125 36.468017578125 -8.635498046875
-26.901123046875 -12.71337890625 7.31005859375
28.385009765625 -64.8046875 31.98388671875
-27.938232421875 -23.095703125 7.033447265625
-38.931640625 -1.464599609375 12.513916015625
-20.034912109375 9.17431640625 37.784912109375
-45.065673828125 -5.9345703125 5.4033203125
63.820068359375 -77.903076171875 6.38134765625
-33.390380859375 -22.899169921875 6.010498046875
-37.870361328125 56.786865234375 -7.539794921875
31.42724609375 19.149169921875 -12.8251953125
26.41455078125 39.2587890625 30.193115234375
40.9326171875 -57.76416015625 5.961669921875
-51.845458984375 -3.14501953125 9.411865234375
50.263427734375 21.86767578125 34.3916015625
16.020263671875 28.094482421875 -11.64306640625
24.296875 22.176025390625 -11.7578125
40.65283203125 46.485107421875 31.227294921875
5.83056640625 43.2060546875 62.682861328125
-26.040771484375 2.035400390625 35.504150390625
0.1943359375 9.414794921875 44.86083984375
13.0966796875 -55.14453125 22.594482421875
57.123291015625 -57.695068359375 -21.01123046875
5.005615234375 36.248046875 -10.840576171875
1.22412109375 -39.93505859375 24.5244140625
4.516845703125 50.42919921875 -3.89892578125
-3.16748046875 47.519775390625 54.2626953125
-29.02734375 26.08837890625 52.275634765625
13.7314453125 -43.50634765625 27.8046875
-18.730224609375 13.72509765625 47.682861328125
28.900146484375 -73.728271484375 -25.98876953125
-34.26513671875 59.1328125 -4.185546875
4.439697265625 -45.512451171875 19.238037109375
50.8857421875 -36.47900390625 14.9912109375
45.959228515625 -40.5087890625 6.51171875
52.26171875 33.3115234375 34.562255859375
24.0869140625 -65.924072265625 27.684326171875
12.329345703125 -15.738525390625 9.671142578125
5.936767578125 -54.194580078125 23.11474609375
-1.914794921875 -4.07568359375 12.346923828125
-12.122314453125 40.493896484375 -9.0537109375
-10.1484375 51.79541015625 -8.093505859375
26.874755859375 -46.3359375 31.9921875
-44.004638671875 59.5673828125 -3.427001953125
-9.234375 -37.558349609375 23.5986328125
-35.753173828125 13.225830078125 47.579345703125
37.305908203125 -4.303466796875 12.536376953125
-36.47265625 55.532470703125 48.6142578125
28.78076171875 -54.55517578125 28.29931640625
-17.188720703125 -26.07763671875 11.2275390625
21.47314453125 -53.7880859375 25.8271484375
-26.902099609375 27.43505859375 6.110107421875
5.604248046875 -6.85205078125 11.769775390625
-31.261474609375 57.39501953125 71.1435546875
5.45458984375 46.48388671875 -8.853759765625
34.5810546875 -52.53125 20.39599609375
18.308837890625 41.3388671875 -7.529052734375
38.42919921875 -36.150390625 8.422607421875
53.88330078125 -38.002685546875 9.787841796875
-61.031982421875 41.7001953125 -10.34228515625
51.78369140625 -77.9833984375 -21.97021484375
-28.821533203125 56.32958984375 -2.24609375
9.427978515625 -2.15771484375 18.47900390625
23.023681640625 -59.16552734375 21.4638671875
-0.079345703125 49.100341796875 58.1416015625
-11.740478515625 16.009765625 50.39208984375
37.103759765625 -67.043212890625 -26.025146484375
-0.7392578125 52.689208984375 -4.57470703125
38.92333984375 -57.271484375 -26.828125
-12.851806640625 -35.4150390625 20.3056640625
26.2939453125 49.07666015625 33.29345703125
-24.735107421875 17.686767578125 49.166748046875
-54.1943359375 43.31103515625 -11.135009765625
-11.677978515625 -8.276611328125 10.3759765625
-33.6376953125 19.42333984375 49.4404296875
-26.30078125 52.5986328125 70.6259765625
30.166015625 58.162353515625 31.279541015625
-37.03955078125 28.360595703125 0.7685546875
31.081298828125 -14.39404296875 10.18310546875
19.104248046875 -77.218994140625 -7.803955078125
30.696044921875 -58.99853515625 23.875244140625
48.656494140625 -84.328125 7.6826171875
37.580810546875 30.95556640625 -5.91162109375
60.80078125 -2.01708984375 -14.56298828125
-13.650634765625 3.46923828125 43.234130859375
10.518798828125 37.822998046875 -11.87109375
-50.264404296875 -9.88818359375 1.064697265625
10.909912109375 -24.5439453125 15.013916015625
16.96728515625 -23.539794921875 14.5751953125
6.835205078125 -4.6474609375 41.1474609375
-40.81884765625 24.540283203125 -7.53369140625
32.598388671875 14.026123046875 -9.939208984375
53.98193359375 -78.87158203125 4.35302734375
-3.910888671875 -1.342041015625 40.908935546875
-31.327880859375 20.174560546875 -1.718505859375
57.805908203125 -42.033935546875 14.290771484375
-5.46044921875 50.400634765625 -8.420166015625
10.13134765625 43.531494140625 -9.277099609375
27.34521484375 -81.157470703125 -25.223388671875
-14.313232421875 -38.82421875 13.017578125
46.74462890625 -16.625 10.723388671875
37.7705078125 27.924560546875 -10.367919921875
5.198974609375 -31.466796875 23.45751953125
-43.449462890625 -13.181884765625 -1.842041015625
-27.229248046875 32.375244140625 6.875
52.708251953125 5.685302734375 -14.436279296875
24.128662109375 -66.1318359375 33.739990234375
12.028076171875 -45.931396484375 22.232421875
31.157958984375 45.063232421875 28.6103515625
-23.438720703125 -24.720947265625 8.349853515625
-28.232421875 45.18212890625 -10.417236328125
58.1982421875 -36.508056640625 18.101806640625
11.093505859375 3.02490234375 44.786376953125
-13.66552734375 -1.896728515625 40.361572265625
40.167724609375 9.168701171875 -9.029541015625
17.23291015625 36.865478515625 -11.04052734375
-27.263427734375 38.293701171875 -6.2294921875
-4.253173828125 10.166748046875 37.406982421875
57.439697265625 -14.986083984375 19.82275390625
39.275146484375 28.36328125 24.271484375
17.14208984375 -68.377685546875 12.397216796875
-4.4375 -30.65478515625 19.80078125
49.357421875 -61.690673828125 -22.82958984375
-24.490478515625 6.767333984375 12.70703125
-23.284912109375 -30.363525390625 12.76318359375
-31.129638671875 25.0576171875 2.974365234375
33.656005859375 37.514404296875 25.7646484375
24.56396484375 53.791748046875 36.845703125
-46.44189453125 42.630126953125 -13.454833984375
57.27978515625 -28.01806640625 21.65625
-26.040771484375 53.20849609375 49.220947265625
-45.30712890625 17.264404296875 -1.58642578125
-39.72021484375 22.09228515625 50.9150390625
52.43505859375 -67.0615234375 -21.318603515625
31.614990234375 -25.975830078125 17.816162109375
45.2880859375 6.528564453125 -10.434326171875
-37.1181640625 -1.81005859375 21.128173828125
-35.7119140625 51.80859375 70.61474609375
48.94921875 44.448974609375 39.338134765625
-46.6767578125 23.89697265625 2.226318359375
-34.082275390625 -6.37939453125 10.13720703125
-0.018310546875 -34.041015625 25.3154296875
-21.56982421875 54.241455078125 75.685546875
38.113037109375 -75.801025390625 -23.68896484375
35.48681640625 -28.182861328125 13.507080078125
29.21533203125 30.990478515625 26.092041015625
28.756591796875 31.953369140625 -11.64697265625
-7.1455078125 -15.61083984375 5.483154296875
52.171630859375 -52.06982421875 6.336669921875
17.643798828125 -81.23779296875 -13.497314453125
13.4833984375 -4.377685546875 45.070068359375
-15.4716796875 -30.140380859375 14.872314453125
8.943115234375 -1.81396484375 24.175537109375
11.895263671875 -9.178955078125 10.6865234375
-44.7109375 37.23583984375 -11.9873046875
43.24072265625 -80.912109375 -18.40869140625
-10.339599609375 -30.92626953125 12.2744140625
56.47314453125 -58.882568359375 6.65673828125
20.7568359375 53.783935546875 40.80810546875
-9.186767578125 -24.573974609375 9.057373046875
-12.36376953125 -38.668212890625 17.169189453125
-14.67626953125 8.52001953125 44.920166015625
-33.0126953125 -22.684814453125 0.5380859375
53.222412109375 -14.4921875 15.403076171875
-28.09765625 11.503173828125 46.86279296875
-7.454833984375 9.846435546875 44.86474609375
49.45263671875 29.782470703125 34.822998046875
17.405029296875 -32.906005859375 33.387939453125
-17.84228515625 2.876220703125 30.326171875
20.343994140625 28.078857421875 -12.886962890625
24.268798828125 -2.23974609375 14.809814453125
41.48193359375 -40.44287109375 6.249267578125
32.629638671875 -58.7373046875 -26.904296875
12.613525390625 -38.851806640625 28.236083984375
-28.468017578125 60.566650390625 1.963623046875
20.762939453125 -49.14892578125 26.4013671875
38.7958984375 12.435791015625 -12.765625
25.2255859375 34.4169921875 -10.474853515625
-19.779296875 -30.289794921875 16.0166015625
33.716064453125 26.516845703125 -13.58544921875
29.41064453125 49.868896484375 30.2177734375
69.01953125 -74.4404296875 14.1875
56.19287109375 -29.803955078125 13.5654296875
11.587646484375 -77.677734375 -6.2216796875
32.09423828125 34.344482421875 -3.0751953125
1.759521484375 44.4482421875 -10.22216796875
25.7890625 38.5927734375 -0.638427734375
35.12744140625 -80.772216796875 -22.0634765625
36.36083984375 53.03271484375 30.521728515625
-37.7353515625 12.90087890625 -0.350830078125
17.99560546875 -16.37646484375 10.8984375
-30.570556640625 43.3486328125 -13.6826171875
45.575439453125 -58.76171875 -20.14306640625
41.550048828125 -49.08984375 5.394775390625
41.57568359375 -6.439697265625 12.18408203125
18.556396484375 -51.177734375 22.907470703125
-17.860107421875 53.823974609375 50.90771484375
32.90380859375 61.55859375 31.6630859375
-30.30126953125 52.150390625 -12.338134765625
-18.456787109375 48.8759765625 -10.94140625
-21.859130859375 44.65234375 -10.5009765625
1.51708984375 0.08740234375 17.10400390625
19.82568359375 -1.199951171875 19.581787109375
12.19921875 -29.661865234375 32.659912109375
-59.314697265625 55.4755859375 -5.75048828125
-14.20263671875 -12.0400390625 8.80322265625
-17.011962890625 -2.862548828125 19.7294921875
32.274658203125 -64.560546875 -28.070068359375
20.412841796875 -40.465576171875 30.732666015625
38.181640625 38.54736328125 25.86767578125
38.524658203125 -55.915771484375 9.4736328125
-34.580078125 21.268798828125 -5.2177734375
-54.804443359375 49.84716796875 -10.85302734375
24.01220703125 39.015869140625 -5.595458984375
31.593017578125 -1.546142578125 13.6640625
-30.391845703125 34.348388671875 -1.388671875
60.240966796875 -53.1376953125 12.177490234375
10.694580078125 29.207275390625 -9.90869140625
-33.734130859375 27.47216796875 54.01220703125
4.693603515625 -42.599853515625 16.091796875
-7.738037109375 -33.599365234375 24.28759765625
33.273193359375 -19.341552734375 8.413330078125
45.505859375 52.19677734375 40.534912109375
45.63818359375 43.264892578125 36.904296875
-9.117431640625 55.482666015625 -3.051025390625
8.218994140625 -16.81787109375 9.2080078125
54.906005859375 -47.237548828125 8.340087890625
-19.4931640625 40.07373046875 -8.208740234375
56.742919921875 6.53076171875 -15.526611328125
17.123291015625 43.21044921875 -2.591552734375
42.377685546875 -65.29052734375 -22.91015625
-1.081787109375 -28.453857421875 16.73193359375
34.309814453125 -11.63037109375 10.1591796875
63.71435546875 -65.796142578125 11.6591796875
6.981201171875 -48.028564453125 21.680908203125
-0.19482421875 4.7392578125 43.320556640625
25.690185546875 26.022216796875 -13.188232421875
32.6328125 -35.89306640625 16.582275390625
29.851806640625 39.656005859375 27.693603515625
25.01171875 58.507568359375 35.916015625
41.282470703125 43.437744140625 28.35546875
-39.607177734375 -9.365966796875 2.490234375
-8.380859375 53.463623046875 54.611083984375
-36.662109375 -2.41455078125 16.78076171875
51.220703125 -87.247802734375 5.547607421875
-40.741943359375 56.26513671875 69.6142578125
-39.02294921875 38.6357421875 -11.025634765625
-43.676513671875 0.971923828125 20.20751953125
31.820068359375 53.305419921875 30.14599609375
46.59912109375 37.6083984375 35.028076171875
-18.47119140625 56.03076171875 -4.18408203125
-39.720947265625 -15.63330078125 -0.948486328125
-13.1435546875 -22.733642578125 9.025634765625
59.40869140625 -80.729736328125 4.13671875
-6.1982421875 6.385498046875 38.462890625
51.6552734375 13.124267578125 -14.530517578125
-25.82373046875 -6.635009765625 15.190673828125
33.6494140625 32.634765625 24.551513671875
-21.41748046875 10.42431640625 44.3935546875
1.1455078125 39.4228515625 58.00927734375
0.09033203125 -18.005615234375 7.63916015625
-34.08837890625 50.48974609375 -13.664306640625
-41.670166015625 32.28076171875 -6.624267578125
49.695556640625 -54.033447265625 -24.06591796875
11.87109375 -63.74658203125 17.739501953125
39.1015625 7.7265625 -5.322998046875
17.551513671875 -43.269287109375 26.303955078125
-0.738525390625 -11.423095703125 8.517578125
-30.78759765625 -1.9921875 16.592041015625
-20.517822265625 17.29248046875 50.60205078125
-29.229736328125 3.830322265625 43.334228515625
-11.3681640625 -4.26025390625 12.078369140625
49.201171875 -13.833984375 12.4287109375
47.062744140625 -20.59375 9.799072265625
-21.822509765625 57.60888671875 72.71044921875
59.2333984375 -61.968505859375 13.0869140625
25.881103515625 -61.67431640625 30.91357421875
-34.582763671875 -12.43798828125 4.9697265625
-19.729736328125 1.657958984375 25.93017578125
51.779296875 -75.87451171875 -18.04833984375
64.50537109375 -64.546875 16.87060546875
-5.0302734375 36.425537109375 -5.63818359375
10.20166015625 -28.8759765625 27.880126953125
2.14990234375 45.606689453125 58.699462890625
7.94580078125 -27.031005859375 13.33740234375
51.19921875 17.63671875 34.836669921875
0.250244140625 -42.531982421875 19.89697265625
35.33203125 -43.802490234375 12.8759765625
-11.775146484375 51.447265625 50.3642578125
43.812255859375 14.618408203125 -14.6689453125
-18.264404296875 -1.7197265625 37.23095703125
4.369384765625 -8.467041015625 8.29736328125
59.234619140625 -65.415771484375 -20.119873046875
-8.51513671875 42.789794921875 -10.23291015625
2.4736328125 39.337890625 -10.87890625
-39.747802734375 52.286865234375 42.819091796875
-32.613525390625 37.560791015625 -9.586669921875
-17.8369140625 -30.936279296875 9.240966796875
19.374755859375 -8.28955078125 11.134765625
30.75 39.697265625 -5.244873046875
-30.05322265625 35.125 7.391357421875
-49.56103515625 43.059814453125 -10.691162109375
28.34619140625 -55.83251953125 24.316650390625
59.523681640625 -60.712158203125 8.410888671875
19.10888671875 -3.549560546875 15.463134765625
36.2666015625 45.325439453125 28.09033203125
37.8642578125 20.009765625 -13.4169921875
7.058837890625 0.9326171875 45.231201171875
4.34619140625 3.276123046875 43.173583984375
-23.92333984375 -4.990478515625 19.232421875
59.9287109375 -51.65185546875 16.354736328125
-9.82958984375 5.487548828125 37.006103515625
18.040283203125 -36.32275390625 30.989990234375
36.88427734375 -32.68505859375 9.326171875
-18.743408203125 -18.026123046875 6.813720703125
-27.193603515625 25.278076171875 2.87939453125
38.796630859375 -18.72314453125 9.663818359375
19.324951171875 -28.412841796875 35.979248046875
-37.658203125 26.63037109375 -2.6572265625
-8.293701171875 -27.880859375 10.894287109375
52.30517578125 -44.3037109375 10.920654296875
23.284912109375 -0.363525390625 21.13916015625
36.19677734375 -37.028076171875 11.5048828125
3.836181640625 41.6005859375 59.7451171875
14.218017578125 -49.78125 22.687744140625
37.839599609375 -50.530029296875 9.851318359375
6.656982421875 -40.612060546875 25.79541015625
-48.38232421875 1.433349609375 15.1103515625
-27.71875 49.30810546875 -10.955322265625
46.938232421875 -32.02197265625 8.37548828125
12.86572265625 -32.996337890625 15.07763671875
-5.59716796875 10.03515625 41.017578125
39.649169921875 -64.093994140625 -25.35400390625
53.622802734375 -56.73388671875 3.72021484375
39.416015625 57.343505859375 35.8125
46.798583984375 -72.459228515625 -21.8427734375
46.71240234375 -86.906494140625 9.760498046875
-0.58349609375 -27.662841796875 12.981689453125
41.77294921875 -30.967529296875 7.21533203125
-37.0263671875 26.108154296875 52.59326171875
41.19140625 50.18505859375 32.07958984375
23.591064453125 -80.6396484375 -15.98486328125
-44.2578125 53.984619140625 -11.469482421875
5.261962890625 -0.30029296875 26.70068359375
-30.15966796875 -14.53857421875 6.527587890625
-32.916015625 28.90966796875 1.484375
-17.360595703125 -0.4423828125 32.13818359375
-2.6044921875 36.845458984375 -8.54638671875
23.055908203125 -9.827880859375 11.8359375
-13.7001953125 45.7490234375 -9.80126953125
46.734619140625 20.424072265625 -12.58984375
-8.894775390625 14.65185546875 48.2705078125
15.958740234375 24.9912109375 -9.25244140625
-46.6484375 -11.107421875 -0.33447265625
43.34912109375 -60.801513671875 -16.502197265625
-41.828369140625 56.30712890625 -8.544921875
-21.972900390625 -21.00341796875 7.59033203125
3.2919921875 -21.839599609375 8.95947265625
29.3447265625 36.88427734375 -1.88037109375
7.198486328125 -2.21484375 15.23876953125
-3.8544921875 8.71142578125 44.99609375
39.272216796875 -43.486572265625 7.581787109375
-3.030029296875 2.309326171875 40.5556640625
-46.96240234375 48.21923828125 -12.150146484375
-26.466064453125 17.4033203125 2.41748046875
-2.24365234375 6.411865234375 36.89697265625
-7.251220703125 -3.079345703125 14.46044921875
-40.136962890625 18.294921875 -4.01025390625
56.36376953125 -33.547119140625 13.456787109375
28.13134765625 20.916259765625 -12.614501953125
63.142578125 -59.40869140625 16.28662109375
-24.407958984375 52.862060546875 -8.168212890625
-30.375 -26.068359375 7.947509765625
-29.67333984375 35.191162109375 -5.1611328125
-18.28662109375 5.422119140625 40.017822265625
-41.813232421875 -6.283203125 3.663330078125
-30.541259765625 -5.1142578125 14.49755859375
35.376708984375 -50.984130859375 16.077880859375
42.118408203125 26.145263671875 -10.04541015625
40.819580078125 -12.94677734375 10.9189453125
43.677490234375 -78.39599609375 -21.08056640625
-52.47998046875 40.364990234375 -9.711669921875
-0.295654296875 -37.46337890625 26.80712890625
36.021484375 29.94384765625 23.561279296875
-19.56005859375 -11.205810546875 9.14306640625
25.7783203125 -7.20654296875 12.43017578125
-42.557861328125 -0.849853515625 12.59375
-15.999755859375 41.095703125 -8.72119140625
-33.95361328125 -15.9404296875 3.15966796875
-59.871826171875 38.680419921875 -8.607177734375
-43.38623046875 -3.70703125 8.365966796875
-21.75048828125 -14.14453125 7.8369140625
58.389404296875 -53.696533203125 8.596435546875
6.916259765625 33.034423828125 -9.94580078125
27.995361328125 -60.43408203125 26.788818359375
-13.8173828125 -32.08251953125 12.25048828125
38.328125 42.226318359375 26.576171875
47.130615234375 -76.4423828125 -20.738525390625
-51.30859375 51.9482421875 -9.729248046875
-29.637939453125 55.27587890625 -10.57568359375
-19.043212890625 -6.686279296875 13.13720703125
24.394775390625 -46.85302734375 29.37646484375
58.5234375 -44.10546875 18.0439453125
54.310791015625 -70.913818359375 -19.9599609375
-36.553955078125 -3.83154296875 9.352294921875
-38.617919921875 50.647216796875 -12.8251953125
27.35205078125 -49.86474609375 30.258056640625
44.273193359375 -54.50927734375 -24.42529296875
16.31201171875 -64.119873046875 19.258544921875
0.524169921875 -48.5595703125 19.4619140625
-36.059326171875 -24.642578125 0.503662109375
24.943603515625 -20.369384765625 12.49609375
24.692138671875 47.844482421875 37.241455078125
28.70458984375 28.5126953125 -12.737548828125
67.994384765625 -70.336669921875 14.3857421875
-25.966064453125 24.356689453125 53.0595703125
56.81591796875 -54.1533203125 -22.29736328125
-3.965087890625 -19.88623046875 6.8896484375
12.845703125 -3.91796875 15.051025390625
-16.200927734375 11.277587890625 46.987548828125
-38.066650390625 24.003173828125 -5.301025390625
-3.55810546875 43.9619140625 54.44580078125
42.23095703125 -53.091552734375 4.757568359375
60.948974609375 -56.95849609375 -20.720703125
-36.195556640625 33.06298828125 -7.537109375
28.625732421875 -19.32470703125 10.778564453125
-33.94287109375 55.05126953125 70.795166015625
2.641845703125 -4.878662109375 11.40869140625
-48.986083984375 -4.411376953125 7.677734375
-15.46435546875 15.532958984375 48.9775390625
40.6865234375 23.189453125 -12.296142578125
-23.337158203125 -7.79931640625 12.828125
-38.275146484375 42.5849609375 -13.490966796875
37.6748046875 -25.667724609375 10.358154296875
1.12255859375 -42.5615234375 16.4287109375
57.695068359375 -45.89501953125 10.89892578125
-30.697998046875 16.73486328125 -0.748291015625
-5.6552734375 -24.23974609375 8.80517578125
-44.70751953125 33.521240234375 -7.990478515625
53.790771484375 -24.014892578125 19.26318359375
21.882568359375 34.381591796875 -11.6748046875
-7.38525390625 -1.95166015625 40.505126953125
-26.00634765625 -20.212158203125 6.29150390625
50.616943359375 -21.8037109375 13.168212890625
29.921630859375 -5.63330078125 12.338134765625
44.042236328125 53.28173828125 36.567138671875
-45.4365234375 27.7548828125 2.314697265625
35.068603515625 26.6650390625 22.635986328125
19.211181640625 -71.9111328125 3.816162109375
-49.343505859375 -1.53662109375 11.318115234375
57.32080078125 -19.052490234375 19.0546875
5.95849609375 -51.45947265625 20.884521484375
24.502685546875 -37.63916015625 33.610595703125
-42.361083984375 29.629638671875 -1.75927734375
-18.2626953125 1.231201171875 35.30126953125
43.316650390625 -3.590576171875 13.31396484375
40.535400390625 -73.304931640625 -24.229736328125
5.192138671875 -42.325439453125 22.965576171875
32.7939453125 33.14208984375 -6.303955078125
-3.955810546875 -36.150146484375 25.36669921875
34.3935546875 22.29150390625 -14.2490234375
-11.344970703125 54.369140625 -5.49658203125
48.189208984375 -57.94580078125 -23.640380859375
-31.005126953125 23.399169921875 51.286865234375
14.87841796875 -74.517578125 -0.92919921875
-0.463623046875 -2.262939453125 14.928955078125
13.230712890625 -27.419921875 23.98974609375
-41.526611328125 58.158935546875 -5.626953125
-27.70068359375 -9.317626953125 9.754150390625
46.93798828125 28.201904296875 32.781494140625
-16.87060546875 54.250244140625 -6.684814453125
14.9208984375 -70.3251953125 7.40576171875
15.7041015625 -71.987060546875 4.2705078125
-26.895263671875 -15.9267578125 6.033935546875
4.646484375 -30.417724609375 20.211181640625
11.708740234375 -58.53857421875 21.493408203125
-17.9287109375 -2.1318359375 22.972900390625
48.267578125 13.001708984375 -15.164794921875
28.38720703125 -77.252685546875 -26.80078125
-32.521240234375 12.03662109375 47.732666015625
-33.46923828125 -19.453369140625 6.06396484375
-24.4404296875 -27.821044921875 10.468994140625
46.435302734375 -36.063720703125 7.474853515625
-41.02001953125 45.803955078125 -14.384521484375
56.569091796875 -39.769287109375 11.258544921875
-30.109130859375 33.59375 1.959716796875
64.169189453125 1.42578125 -14.82275390625
42.564208984375 -63.7431640625 -18.08642578125
-15.636962890625 -6.50732421875 13.499267578125
-38.451904296875 15.6552734375 -2.3447265625
6.604248046875 -20.7880859375 9.296142578125
-27.149169921875 54.640869140625 -6.225830078125
21.501220703125 21.3779296875 -9.950927734375
2.76171875 -15.5517578125 6.97216796875
15.776123046875 -56.595947265625 20.589111328125
-18.147705078125 -28.732421875 13.269775390625
33.721923828125 -4.3720703125 13.919921875
-40.64013671875 -11.40283203125 -1.045654296875
51.196533203125 -82.251220703125 4.587890625
-8.255615234375 -7.781494140625 8.9013671875
-52.729248046875 56.63037109375 -7.06591796875
-46.758544921875 -8.5966796875 2.546630859375
44.852294921875 46.89697265625 33.31298828125
37.780517578125 -70.997314453125 -24.801513671875
15.421142578125 34.044677734375 -11.5712890625
49.13232421875 -6.972900390625 13.62841796875
-14.832275390625 -15.844970703125 8.249267578125
-35.3837890625 44.3203125 -13.28662109375
19.699951171875 -60.71875 21.074951171875
-28.6494140625 17.82861328125 49.951904296875
32.26025390625 -71.8349609375 -26.921875
-28.71875 55.239501953125 70.642822265625
-21.589599609375 -0.91455078125 24.80712890625
-48.47998046875 54.383544921875 -7.9521484375
49.39794921875 -65.929931640625 -22.201171875
63.29541015625 -63.622314453125 -19.108642578125
14.848876953125 -30.379150390625 30.728515625
-12.48046875 49.4423828125 -9.98388671875
11.420654296875 -18.9013671875 10.322021484375
-45.33837890625 20.309814453125 1.021484375
10.8359375 -33.04833984375 31.385009765625
57.2265625 -31.562744140625 20.32666015625
50.095703125 25.21044921875 34.582275390625
6.475830078125 2.23388671875 30.46875
23.564697265625 -60.481201171875 25.19873046875
-14.095947265625 -2.34716796875 12.322998046875
15.4091796875 -52.966552734375 23.6279296875
22.5380859375 -17.4033203125 11.486328125
-19.761962890625 -4.3525390625 17.043701171875
-34.2099609375 57.28515625 -6.96533203125
32.03466796875 28.54833984375 -11.54248046875
59.39111328125 1.318359375 -13.875244140625
-18.17041015625 11.0947265625 44.132080078125
-31.587646484375 22.830810546875 0.3623046875
-44.335693359375 54.35546875 69.023193359375
24.527099609375 -13.868408203125 11.470947265625
62.325927734375 -70.087890625 11.233154296875
13.47021484375 44.521728515625 -1.11865234375
38.2568359375 -39.400146484375 7.78125
44.845947265625 -7.505859375 12.498779296875
52.196533203125 2.652587890625 -13.05859375
-4.669921875 -6.41845703125 9.9052734375
-8.884521484375 9.79443359375 38.112060546875
59.2080078125 -49.9833984375 12.705078125
39.78955078125 -59.745849609375 -24.833251953125
53.582275390625 -51.103271484375 9.830322265625
-25.134521484375 44.131591796875 -10.794677734375
46.053955078125 -47.331787109375 5.162841796875
-20.428955078125 -26.14599609375 10.236572265625
-33.973388671875 -5.838623046875 6.89501953125
40.876708984375 -26.358642578125 8.878173828125
22.09716796875 -56.65478515625 23.374267578125
34.05517578125 -56.1640625 -28.36865234375
4.06005859375 49.0517578125 -6.845947265625
21.071044921875 40.4462890625 -5.29638671875
25.026123046875 36.932373046875 -8.091552734375
54.18408203125 -10.348876953125 15.988037109375
23.49755859375 -44.250732421875 31.15869140625
60.321044921875 -70.093994140625 5.864990234375
19.633544921875 -48.139892578125 23.47509765625
-30.04541015625 27.401611328125 4.98193359375
49.820068359375 35.806396484375 33.621337890625
8.4931640625 39.981201171875 -10.495361328125
53.849365234375 -18.12744140625 14.978271484375
-49.45068359375 22.00244140625 2.64306640625
56.263427734375 -14.519287109375 16.816162109375
21.88818359375 25.291259765625 -12.21630859375
52.422607421875 -60.60595703125 -22.603759765625
56.5166015625 -51.385986328125 7.021240234375
-40.712646484375 -2.44482421875 9.724853515625
-34.274658203125 16.3291015625 48.660888671875
-39.118408203125 13.18994140625 46.371337890625
61.421875 -57.1806640625 13.54833984375
-7.958984375 48.804443359375 -9.755859375
44.542236328125 -70.36669921875 -22.8896484375
-8.638427734375 47.132568359375 50.90478515625
6.378662109375 -14.5712890625 7.7548828125
60.282470703125 -68.141845703125 -18.7099609375
-6.23095703125 0.983154296875 39.17626953125
31.471435546875 -10.006591796875 11.607666015625
-29.93017578125 7.53125 45.5
11.068603515625 45.728515625 -6.670166015625
-21.0849609375 53.697021484375 51.077392578125
55.755615234375 -65.7392578125 -20.354736328125
41.821044921875 -56.4677734375 -25.650390625
-9.59814453125 -17.305419921875 6.722900390625
-35.866943359375 8.57958984375 45.13525390625
-38.651611328125 27.0048828125 -6.320068359375
-14.423828125 -5.0263671875 40.104248046875
13.4736328125 -7.30859375 12.780517578125
35.498291015625 -77.56787109375 -24.318359375
-29.59814453125 58.87744140625 -4.049072265625
-37.986572265625 -19.41455078125 -0.654296875
12.60888671875 -1.260498046875 44.562744140625
-16.936767578125 5.013427734375 43.4873046875
-10.32080078125 -21.4833984375 8.15478515625
43.6845703125 -58.865966796875 4.744873046875
-29.027587890625 57.31201171875 1.18310546875
-10.802978515625 37.975830078125 -7.583740234375
37.59228515625 -13.5625 10.653564453125
-24.2041015625 8.881591796875 44.670654296875
2.93603515625 -32.095947265625 25.621826171875
39.877685546875 -2.24951171875 13.82080078125
36.630859375 48.5087890625 29.9814453125
-34.764404296875 13.23095703125 -1.460693359375
-28.037109375 15.408203125 47.972412109375
6.055908203125 -2.968994140625 38.5576171875
14.095458984375 37.158447265625 -11.48876953125
31.08984375 -81.11767578125 -23.87939453125
56.0078125 -29.296875 17.09326171875
35.0771484375 -69.46826171875 -25.493896484375
20.974365234375 31.256103515625 -12.556640625
18.460693359375 -11.1025390625 9.9677734375
-6.157470703125 -12.716552734375 6.35205078125
22.993896484375 -65.938720703125 30.777587890625
13.786376953125 -67.7861328125 13.778564453125
61.640869140625 -63.341796875 11.18994140625
-7.8984375 4.15966796875 34.84765625
43.98681640625 42.177490234375 29.77490234375
54.31787109375 -34.50439453125 11.228759765625
63.377685546875 -58.943603515625 -18.395751953125
-8.14990234375 11.686279296875 47.43115234375
-26.19287109375 52.901123046875 59.851318359375
-42.802490234375 51.727783203125 -13.150146484375
-60.329345703125 48.42333984375 -11.24365234375
48.160400390625 21.621826171875 32.043701171875
57.976806640625 -60.933349609375 -20.67919921875
37.981689453125 -54.18994140625 -26.614501953125
56.23583984375 -21.092041015625 16.132568359375
-13.59521484375 -35.435546875 11.7314453125
-57.888671875 41.8564453125 -10.5380859375
9.76171875 -53.490234375 21.698974609375
44.828369140625 -83.14404296875 -19.960693359375
-2.75439453125 48.966064453125 -9.135986328125
46.437744140625 -65.96142578125 -23.263671875
35.234619140625 -64.529052734375 -27.007568359375
38.909912109375 16.1982421875 -14.0263671875
-5.41748046875 48.46728515625 52.292724609375
27.932861328125 42.010009765625 28.4599609375
14.38232421875 -23.404296875 12.812255859375
4.089111328125 -38.518310546875 25.25244140625
40.27783203125 -22.255126953125 9.064697265625
39.3251953125 -59.337158203125 8.1337890625
65.615234375 -68.152587890625 13.255126953125
-21.430908203125 14.281494140625 49.152587890625
24.56689453125 -23.38232421875 14.730712890625
25.90478515625 -53.740966796875 27.417724609375
19.868896484375 -73.6025390625 -0.681396484375
25.958984375 56.5966796875 33.645263671875
43.379638671875 45.445556640625 30.141357421875
13.899169921875 30.36767578125 -11.528076171875
-21.023681640625 54.813720703125 -5.475341796875
42.2021484375 -10.072265625 11.759521484375
-14.279541015625 1.130615234375 40.6826171875
-33.2509765625 61.97998046875 -3.480712890625
26.443603515625 38.130126953125 -3.635009765625
-1.297607421875 50.853515625 -7.011962890625
7.24169921875 -37.212158203125 26.61083984375
32.12646484375 -75.47412109375 -25.767822265625
-11.529296875 43.432861328125 -9.9189453125
53.5849609375 -29.259521484375 11.90283203125
47.779296875 -9.812744140625 12.638671875
51.547607421875 8.475830078125 -15.10009765625
-37.989013671875 54.50390625 70.076416015625
-12.692626953125 -28.922119140625 14.287841796875
-62.310546875 53.48681640625 -8.3583984375
21.302490234375 -78.035888671875 -9.976806640625
-9.83056640625 2.9912109375 39.002685546875
39.821044921875 -61.94775390625 -16.7158203125
43.4892578125 -38.11328125 6.05712890625
-29.88232421875 -11.821533203125 8.35107421875
14.8115234375 -77.40771484375 -7.370849609375
3.312255859375 33.11572265625 -8.689697265625
31.705322265625 22.33740234375 -12.76806640625
35.974365234375 -7.559814453125 11.479736328125
-35.344482421875 -9.2431640625 8.639892578125
-5.67724609375 41.6767578125 -9.8955078125
14.64306640625 42.77978515625 -7.644287109375
65.052734375 -75.7841796875 8.3583984375
32.150146484375 16.291015625 -12.0048828125
-28.83544921875 14.593505859375 0.38671875
20.116455078125 -32.559814453125 34.969482421875
49.416259765625 -70.66162109375 -21.355712890625
1.75732421875 50.89892578125 -6.07177734375
-37.005859375 0.46875 17.7197265625
40.772216796875 -76.988525390625 -22.796630859375
47.339111328125 -61.3076171875 -20.58154296875
12.991455078125 -12.80029296875 10.090576171875
20.14892578125 -47.600341796875 29.000732421875
-54.89794921875 46.213623046875 -11.701416015625
1.9560546875 36.4296875 -10.1650390625
-45.566650390625 -15.87939453125 -2.029052734375
-61.085205078125 55.652099609375 -3.28857421875
20.400390625 -80.115966796875 -14.76171875
-4.942626953125 -3.859619140625 12.34765625
-33.576416015625 32.2275390625 -6.251708984375
60.30078125 -72.5625 4.100341796875
8.873291015625 35.307861328125 -11.505859375
-34.15087890625 -11.481201171875 2.130859375
-1.78564453125 -26.02392578125 10.7412109375
9.26025390625 -7.70751953125 10.86279296875
61.8818359375 -70.52587890625 14.190673828125
18.0322265625 -75.16455078125 -3.472412109375
67.231201171875 -73.195556640625 12.095458984375
-47.939453125 -6.44140625 4.643310546875
-1.845458984375 -44.543212890625 16.26904296875
20.859375 -53.97607421875 22.69189453125
-45.6162109375 45.52783203125 -13.46337890625
-38.281005859375 19.88134765625 -5.775634765625
18.962890625 42.62646484375 0.18505859375
15.944091796875 -9.02099609375 11.478271484375
0.150634765625 -14.056640625 6.991455078125
-36.520263671875 -5.724609375 5.122802734375
36.55224609375 30.024169921875 -8.59619140625
1.015869140625 -23.873291015625 9.687255859375
-5.88232421875 50.96484375 53.908203125
-35.49951171875 -21.049560546875 -0.05810546875
28.380615234375 0.04736328125 12.801513671875
-13.263916015625 53.239501953125 -7.5078125
18.85498046875 -79.041748046875 -11.8525390625
-29.8232421875 32.831298828125 5.342529296875
52.57177734375 -40.47021484375 10.86767578125
7.8544921875 5.1796875 31.667724609375
-18.214111328125 51.557861328125 -9.09375
-29.11474609375 37.614501953125 -8.491943359375
-15.562744140625 -20.166015625 8.09326171875
27.364013671875 47.6875 30.304443359375
-13.88623046875 37.927001953125 -8.531982421875
-10.52392578125 53.54736328125 52.329833984375
-19.016845703125 19.943359375 51.61083984375
-31.00390625 -8.170654296875 11.81103515625
-37.29931640625 55.2919921875 45.188720703125
21.988525390625 56.5361328125 38.53515625
34.320556640625 18.587890625 -13.265625
40.467529296875 20.742431640625 -14.7705078125
62.6396484375 -53.3212890625 -20.06982421875
-27.643798828125 33.322021484375 9.660400390625
62.544189453125 -3.761962890625 -12.90966796875
-33.082763671875 46.099609375 -13.92724609375
-9.52978515625 -36.3759765625 26.2900390625
-33.7607421875 -18.853759765625 2.708740234375
60.470458984375 -64.5693359375 13.737548828125
68.274658203125 -2.551513671875 -12.8818359375
-16.68310546875 -35.265869140625 11.731201171875
-3.434326171875 -12.275634765625 7.403076171875
-43.943115234375 36.1533203125 -9.0859375
34.004638671875 -32.537841796875 15.437744140625
22.403076171875 -62.51708984375 18.860595703125
9.577880859375 -44.62158203125 23.2158203125
-36.330810546875 61.947265625 -4.586181640625
-37.04541015625 -15.666015625 0.3505859375
-38.466552734375 58.59619140625 -4.45654296875
2.36767578125 50.447998046875 59.063232421875
14.38427734375 -44.14794921875 25.016357421875
43.720703125 -18.766845703125 9.757080078125
31.38818359375 -17.11279296875 9.138671875
-38.026611328125 34.46435546875 -9.93017578125
30.135009765625 33.707275390625 -9.00244140625
39.567138671875 35.293212890625 25.781494140625
44.993408203125 -14.282470703125 10.846435546875
54.7724609375 -81.572509765625 5.151611328125
5.090576171875 -0.2890625 23.783203125
65.63818359375 -63.359130859375 14.453857421875
30.1884765625 61.4013671875 32.725341796875
-28.637451171875 29.888427734375 5.928466796875
17.354248046875 -1.189697265625 21.1328125
25.4951171875 -4.435302734375 13.33056640625
-31.892578125 40.69580078125 -12.037353515625
31.348388671875 42.1875 28.1650390625
31.792724609375 1.304443359375 14.243896484375
40.827880859375 -37.28515625 6.910888671875
-20.120361328125 -8.974365234375 10.927734375
-41.148681640625 30.79296875 -4.1767578125
53.607421875 -47.647705078125 11.2890625
-2.39599609375 -8.911376953125 8.030029296875
-25.86328125 46.988037109375 -11.3525390625
36.462890625 12.8359375 -11.081787109375
51.538330078125 -37.754150390625 11.482421875
45.20556640625 46.877685546875 38.608642578125
-24.645263671875 2.643798828125 28.97021484375
-44.979736328125 39.45703125 -13.827392578125
-25.3544921875 10.290771484375 47.039794921875
-12.328857421875 -14.420166015625 8.523681640625
61.1513671875 -78.335205078125 5.351318359375
-45.26708984375 57.0810546875 68.763427734375
25.415283203125 -64.544189453125 31.5224609375
2.81494140625 -40.21875 16.380126953125
7.68994140625 -4.4404296875 13.461669921875
7.42431640625 44.2734375 -9.954833984375
23.68798828125 60.010498046875 37.994873046875
61.4970703125 -60.421142578125 11.326416015625
14.87255859375 -36.282470703125 29.501220703125
-22.94287109375 -31.5517578125 10.158935546875
-18.251953125 16.259765625 49.08251953125
64.019287109375 -72.199462890625 8.794921875
-15.420166015625 -3.3759765625 23.646484375
-39.35595703125 -0.61083984375 15.230712890625
57.93994140625 -0.75537109375 -11.615966796875
-12.03369140625 -32.816162109375 18.69384765625
25.35107421875 51.39404296875 35.46875
-2.412841796875 50.46826171875 56.399169921875
5.60546875 39.68310546875 62.168212890625
-35.1640625 29.50146484375 -1.084716796875
-0.39453125 46.33837890625 -10.024658203125
57.06640625 3.618408203125 -14.44384765625
-28.223876953125 42.3212890625 -10.27490234375
-36.650390625 19.626953125 50.180908203125
-45.797607421875 52.021240234375 -13.187744140625
4.14453125 -1.880615234375 17.166259765625
7.478759765625 47.422607421875 60.733154296875
-23.39306640625 53.97607421875 71.909912109375
-0.65625 46.51025390625 57.088623046875
43.09423828125 52.296875 32.623779296875
7.04541015625 -9.78515625 9.701416015625
8.76953125 28.353515625 -6.9560546875
54.60205078125 -55.908447265625 -22.648681640625
58.19384765625 -44.72900390625 15.120361328125
29.319091796875 16.227783203125 -9.943359375
-26.529541015625 1.283203125 14.022216796875
35.48095703125 -39.66162109375 13.49755859375
2.84912109375 -27.838623046875 13.122314453125
-10.427490234375 -32.494873046875 24.26025390625
-3.696533203125 39.703125 -9.38134765625
26.120361328125 -80.28759765625 -21.73193359375
44.9140625 -51.97021484375 -26.156982421875
61.00390625 -74.9716796875 5.4033203125
30.23486328125 55.233154296875 31.46923828125
-24.1162109375 -12.683837890625 8.3095703125
26.799072265625 36.89990234375 28.696533203125
-49.37451171875 -11.969482421875 -1.46142578125
34.2978515625 55.074462890625 29.978759765625
-47.88134765625 16.973388671875 -0.481689453125
11.390625 40.542236328125 -10.763916015625
44.62548828125 11.43701171875 -14.194091796875
-36.365234375 -9.486083984375 2.04638671875
21.813232421875 -3.65771484375 14.700927734375
18.6884765625 -35.55712890625 33.9248046875
-26.283447265625 4.035888671875 12.998046875
50.045654296875 -88.497314453125 7.7734375
-30.01708984375 31.265380859375 0.389404296875
16.46923828125 -3.576416015625 19.694580078125
33.9765625 36.408935546875 -2.81494140625
24.0009765625 19.93798828125 -10.093505859375
44.29638671875 -32.41943359375 7.1962890625
57.156494140625 -34.536865234375 16.40087890625
-18.228515625 51.7431640625 49.066162109375
-42.82373046875 0.32568359375 16.1650390625
50.62451171875 -20.864990234375 10.528076171875
-22.641357421875 38.632568359375 -7.472900390625
34.806884765625 33.026611328125 -4.366455078125
-26.924072265625 -25.41064453125 8.226806640625
11.698486328125 -73.406494140625 1.55419921875
8.107666015625 46.11865234375 -7.9716796875
-41.013671875 21.3603515625 -5.47314453125
-12.242919921875 9.41650390625 45.948974609375
51.60986328125 -77.63671875 3.560302734375
30.864013671875 33.6201171875 25.77880859375
42.2353515625 -51.5390625 -22.64794921875
