10.052001953125 -15.94287109375 13.89990234375
54.66064453125 -67.6884765625 3.12158203125
-35.98046875 43.57763671875 -8.77880859375
-27.7001953125 -2.2080078125 5.320068359375
-30.206298828125 28.4248046875 -5.22509765625
40.618408203125 -69.12841796875 -16.4677734375
31.630859375 24.412109375 -11.927734375
30.868896484375 -61.264892578125 -28.044189453125
-1.050048828125 44.40576171875 -10.615478515625
7.21044921875 -22.38037109375 23.324462890625
42.5498046875 -47.589111328125 -26.247802734375
21.878173828125 -43.498291015625 18.64013671875
44.45556640625 -26.560791015625 4.183349609375
-1.615478515625 -23.88037109375 23.283935546875
-17.934814453125 66.186279296875 -9.242431640625
33.177490234375 -10.754150390625 4.97509765625
70.657958984375 -59.680908203125 11.3193359375
20.633544921875 -14.23583984375 32.5986328125
-14.02685546875 56.8515625 -16.6962890625
12.6142578125 -49.980224609375 16.3486328125
3.75390625 -1.46240234375 4.243408203125
-39.20458984375 9.72265625 6.660888671875
-37.6123046875 44.856689453125 47.42138671875
31.989990234375 -13.135009765625 21.422119140625
-37.02685546875 -1.478271484375 -1.2421875
22.196533203125 32.446533203125 -14.543212890625
18.525146484375 -26.15380859375 25.787841796875
31.934814453125 -29.638671875 30.368408203125
58.073486328125 -9.83154296875 9.87646484375
-18.388671875 23.492431640625 38.61279296875
-5.368896484375 7.669189453125 9.560546875
-10.695556640625 -39.62109375 14.476318359375
-19.97021484375 48.314697265625 -9.74609375
21.933837890625 46.14990234375 -12.80859375
52.421630859375 -61.806884765625 -23.57080078125
61.599609375 -52.9130859375 2.249267578125
-22.21484375 48.511962890625 43.353271484375
4.322021484375 -26.27001953125 14.818359375
-7.451416015625 21.5888671875 34.382568359375
16.876220703125 -14.316650390625 19.378662109375
-9.67431640625 29.478759765625 46.542724609375
15.806396484375 29.647705078125 -2.745361328125
4.37255859375 -59.88720703125 6.05078125
49.087646484375 -50.836669921875 -23.405029296875
-14.337890625 35.92333984375 47.71142578125
8.147705078125 53.45068359375 -12.125244140625
30.916259765625 -0.752685546875 8.594482421875
42.1162109375 -10.796875 6.33642578125
53.65185546875 -26.87744140625 3.771240234375
61.523681640625 -46.60986328125 -24.90185546875
61.236572265625 -64.3955078125 0.487060546875
17.012451171875 -60.850830078125 -1.274169921875
-30.16259765625 -18.548095703125 1.960205078125
-11.046142578125 43.329833984375 50.44140625
-2.587646484375 64.150146484375 -9.696044921875
7.58056640625 -37.123046875 19.6591796875
-27.40478515625 41.0546875 2.634765625
-8.407470703125 -28.646240234375 19.408935546875
57.3701171875 -1.722900390625 8.74560546875
7.378662109375 7.283935546875 14.162109375
13.44921875 31.029052734375 46.176513671875
-33.429443359375 1.131103515625 10.13037109375
28.5947265625 -70.479736328125 -23.18505859375
-27.75537109375 56.85009765625 -18.26025390625
45.93896484375 -1.958740234375 7.519775390625
10.755859375 12.134521484375 19.27587890625
31.376708984375 -20.356201171875 34.224853515625
15.783447265625 47.91845703125 -16.56103515625
-34.500732421875 11.245849609375 12.542724609375
-11.122314453125 -21.49853515625 10.239501953125
-7.968505859375 96.738037109375 61.317138671875
17.111572265625 -26.164794921875 17.515380859375
-38.388427734375 28.9697265625 46.560546875
45.969970703125 18.757080078125 -16.998779296875
29.290283203125 -9.62060546875 12.45166015625
11.78466796875 58.846435546875 -8.750244140625
37.037353515625 48.681640625 20.158447265625
38.32275390625 -30.302734375 27.0380859375
18.052978515625 -36.918212890625 19.65234375
-14.912353515625 92.84326171875 62.41259765625
42.5224609375 -64.572998046875 -25.060546875
-36.181640625 19.263427734375 12.897705078125
-20.771240234375 -14.5771484375 6.7265625
-27.353271484375 47.21630859375 -13.657470703125
8.552734375 46.0927734375 -10.03271484375
1.44873046875 57.0478515625 -12.734375
15.2431640625 37.544677734375 -15.408203125
0.772705078125 -8.184814453125 6.05029296875
68.738037109375 -42.464599609375 -22.020751953125
-19.90625 59.091796875 -13.375
-29.433837890625 -23.041015625 13.37744140625
50.838623046875 11.19970703125 9.40234375
-24.86767578125 25.122802734375 44.466064453125
37.2216796875 12.328369140625 9.91748046875
20.158203125 20.188232421875 47.38916015625
-4.694580078125 48.965087890625 -14.46826171875
-30.364990234375 38.874755859375 49.022216796875
-31.177490234375 -7.60498046875 -1.04736328125
-26.621337890625 49.564208984375 37.810791015625
4.634033203125 -14.8203125 9.7626953125
55.926025390625 5.1796875 11.5537109375
-30.700439453125 67.9580078125 -11.80224609375
10.797119140625 17.197021484375 34.209228515625
-2.2958984375 -49.717529296875 16.580810546875
-4.963134765625 26.267578125 41.514404296875
58.2314453125 -75.108154296875 6.218017578125
-5.71142578125 -37.03125 18.3623046875
8.4658203125 49.34423828125 -17.48291015625
22.328125 -5.384033203125 9.118896484375
22.804443359375 -10.38671875 16.238037109375
-2.695068359375 1.130126953125 5.3642578125
8.709716796875 25.6416015625 45.374267578125
1.40576171875 -39.952392578125 19.93017578125
13.18310546875 -6.129150390625 7.972900390625
-8.175048828125 -11.093017578125 7.02197265625
37.229736328125 -59.42138671875 -28.163330078125
56.54150390625 -33.447265625 4.10498046875
24.381103515625 -64.7392578125 -10.1806640625
-13.01220703125 6.992431640625 12.98876953125
54.52978515625 12.02734375 -13.0751953125
69.51953125 -47.84619140625 -12.956298828125
-1.55859375 95.22412109375 62.430908203125
38.149658203125 -12.06201171875 30.76318359375
64.11865234375 -51.676513671875 -21.856689453125
12.760009765625 -19.1552734375 20.410400390625
34.671875 27.59521484375 -17.96923828125
23.790771484375 6.765380859375 12.85595703125
49.61376953125 -14.271484375 4.600830078125
0.99658203125 32.935302734375 49.753662109375
25.64990234375 36.88134765625 -18.625732421875
-8.464599609375 16.685546875 38.275390625
29.9697265625 14.32275390625 9.85498046875
11.3896484375 37.4580078125 -5.849853515625
28.955810546875 57.381591796875 24.5390625
47.504638671875 -70.395751953125 8.11279296875
39.40478515625 -16.3046875 7.559326171875
-23.992431640625 5.455810546875 13.91064453125
-27.57470703125 -0.102294921875 11.52734375
44.6982421875 7.568603515625 8.8544921875
-23.3193359375 45.83837890625 48.744140625
-39.78759765625 4.927490234375 2.3037109375
-29.488525390625 45.84765625 -0.792236328125
42.08837890625 18.482666015625 -12.298583984375
-21.286865234375 33.470703125 47.565185546875
3.698486328125 45.300048828125 -15.27880859375
-33.09912109375 -13.740966796875 -0.15625
26.297607421875 -29.823486328125 28.298828125
12.747802734375 4.09130859375 12.227783203125
-19.713134765625 89.529541015625 65.929931640625
-34.337646484375 47.23681640625 43.0107421875
19.088134765625 28.760498046875 -10.36669921875
-10.372314453125 51.890625 -15.686767578125
58.411376953125 -22.867431640625 8.82080078125
1.619873046875 -31.45751953125 13.885009765625
48.114013671875 -44.243896484375 -26.589111328125
40.23828125 -54.373779296875 -27.8095703125
-3.23681640625 11.821533203125 17.15185546875
49.289306640625 -22.0908203125 4.6240234375
51.98291015625 -4.011962890625 10.850341796875
25.931396484375 -18.689697265625 32.905029296875
-31.641845703125 35.873779296875 -8.001953125
-16.83349609375 45.108154296875 50.8125
0.745849609375 17.648681640625 36.30126953125
53.201416015625 -81.49267578125 7.143798828125
-23.29638671875 89.7509765625 58.33544921875
20.393310546875 -20.14453125 28.518798828125
-31.807373046875 -7.33203125 4.668212890625
67.546630859375 -54.111328125 3.09423828125
-27.448486328125 -16.8935546875 6.96435546875
-25.43701171875 27.21728515625 -2.277587890625
37.67724609375 -48.663330078125 -29.0673828125
50.12451171875 -63.606201171875 3.02099609375
-30.78369140625 41.345703125 -9.61279296875
-33.281494140625 31.5439453125 46.754638671875
-10.5478515625 -3.620361328125 5.648193359375
8.609619140625 -53.197509765625 13.698974609375
8.34521484375 -28.8671875 17.88623046875
18.327392578125 -47.806396484375 17.560546875
15.72509765625 -15.71435546875 13.769775390625
39.3232421875 18.526611328125 11.556884765625
-36.564697265625 29.385986328125 -6.08056640625
19.94873046875 -55.4765625 9.958251953125
71.586181640625 -64.8720703125 8.485595703125
11.447998046875 -11.186279296875 9.970947265625
9.28271484375 38.78076171875 -12.15478515625
-16.718994140625 2.544677734375 13.77001953125
31.16748046875 -67.01953125 -27.26806640625
-18.458740234375 -16.852783203125 13.581298828125
-29.14697265625 32.99365234375 -2.178466796875
-25.563720703125 51.780517578125 32.78662109375
-33.093994140625 -1.400634765625 4.085205078125
-6.331298828125 46.8837890625 -8.92333984375
13.82666015625 -63.656005859375 -4.879150390625
-27.9365234375 51.298095703125 -18.5859375
-32.677978515625 46.697998046875 -12.13671875
17.37548828125 -31.17724609375 23.7021484375
60.175048828125 -59.037109375 1.516357421875
55.32421875 -70.84423828125 8.281494140625
-14.7998046875 24.93994140625 43.640625
-8.280029296875 -34.921630859375 11.97314453125
-34.625244140625 65.78125 -15.488525390625
7.494140625 2.160400390625 6.097412109375
26.40283203125 28.554931640625 -12.846923828125
27.917724609375 -10.16650390625 18.31298828125
68.179443359375 -73.454345703125 2.8251953125
-20.076171875 18.444091796875 39.947265625
4.230712890625 20.082763671875 41.851806640625
-16.808349609375 50.603271484375 -14.2978515625
13.404296875 -59.134521484375 2.65576171875
57.332763671875 -15.232177734375 9.706298828125
-36.930908203125 38.24169921875 -8.19921875
13.022216796875 -34.988525390625 20.454345703125
-17.191650390625 50.190185546875 42.0908203125
-27.624267578125 62.464599609375 -17.790771484375
17.878662109375 -0.931396484375 9.445556640625
7.87939453125 -56.713623046875 8.690673828125
-1.761474609375 21.597412109375 33.575927734375
-30.646484375 49.870849609375 31.368896484375
-24.564453125 -4.077392578125 9.45556640625
-14.2236328125 17.541748046875 39.0234375
15.07763671875 19.171142578125 45.88720703125
26.791259765625 -64.63818359375 -16.4501953125
-15.21337890625 63.4033203125 -13.45849609375
3.063232421875 -50.685546875 16.29345703125
-11.66455078125 -17.297119140625 14.64892578125
12.338134765625 -24.54638671875 24.088134765625
15.747314453125 42.66552734375 -17.622314453125
47.64501953125 -64.81494140625 -23.185302734375
18.296875 6.1044921875 10.722900390625
73.263916015625 -71.35693359375 8.488037109375
-28.851806640625 20.173828125 44.0244140625
50.634765625 -55.714111328125 -24.792236328125
16.734619140625 -26.586181640625 12.245361328125
-33.012939453125 56.028076171875 -19.320068359375
-3.888427734375 59.65673828125 -12.218017578125
40.810302734375 0.794677734375 7.771728515625
4.28466796875 28.33056640625 46.340576171875
7.67138671875 -18.131591796875 18.04052734375
-32.466064453125 21.119384765625 8.487548828125
41.060302734375 -43.224853515625 -28.64697265625
-31.8076171875 -2.449462890625 -0.876708984375
2.4296875 14.344970703125 23.745361328125
9.084228515625 -2.703369140625 5.34716796875
-21.4296875 -18.683837890625 17.45556640625
-18.19873046875 95.62744140625 58.580078125
-7.337890625 -16.45166015625 10.469482421875
-16.591796875 -11.624267578125 7.2666015625
3.330322265625 -34.7998046875 17.40087890625
-33.5205078125 8.16943359375 8.56298828125
31.060302734375 -5.85595703125 8.303466796875
-16.749755859375 -1.126953125 8.430908203125
41.649169921875 -21.01123046875 7.182861328125
-0.937255859375 -17.111083984375 12.65087890625
19.9052734375 12.306396484375 15.971435546875
6.148681640625 58.406005859375 -11.397705078125
-1.86865234375 4.48095703125 11.3486328125
-7.791748046875 -22.2919921875 21.415771484375
-2.252197265625 34.511962890625 46.212890625
65.38525390625 -49.56689453125 3.597900390625
35.3759765625 1.369140625 7.5068359375
-25.121826171875 37.6923828125 49.02197265625
42.445556640625 -67.65234375 -21.05419921875
-20.991943359375 -9.64208984375 5.684814453125
64.67138671875 -68.706298828125 1.853759765625
26.94189453125 2.843994140625 8.95458984375
-24.566650390625 -5.969482421875 4.170654296875
-26.4716796875 -34.629638671875 -19.010009765625
37.252685546875 21.439208984375 -12.853515625
-14.768798828125 10.189697265625 21.489990234375
61.410888671875 -55.895263671875 -21.77978515625
35.274169921875 -64.033935546875 -27.9814453125
51.019775390625 14.373779296875 -15.775634765625
28.554443359375 24.781982421875 -7.82763671875
28.10205078125 9.908203125 14.424560546875
20.87451171875 -67.102294921875 -13.96142578125
42.87646484375 -5.8212890625 6.393798828125
-26.79736328125 -19.2109375 16.01416015625
-29.37158203125 -21.414306640625 7.716552734375
48.592529296875 -28.61181640625 2.373779296875
21.7578125 -59.9697265625 -0.197509765625
8.24462890625 -43.16845703125 19.225341796875
15.814208984375 -54.266357421875 12.642578125
-20.066162109375 64.218505859375 -13.25732421875
33.350830078125 -69.556396484375 -21.3701171875
16.355712890625 -14.531494140625 30.19921875
19.394287109375 -62.96337890625 -5.42578125
-28.50341796875 47.697509765625 42.45556640625
-33.285400390625 24.68798828125 -3.71337890625
22.0576171875 -39.336181640625 21.166015625
1.8330078125 -20.75390625 21.8486328125
-3.03369140625 -18.167724609375 18.512939453125
44.96728515625 -53.2265625 -24.32177734375
-7.474609375 -0.08642578125 6.838134765625
-38.482421875 15.365234375 14.58251953125
31.33984375 -24.9375 32.719482421875
34.19677734375 6.6953125 8.63037109375
-14.67626953125 15.09912109375 29.876708984375
-0.379150390625 -28.6865234375 17.669677734375
61.3857421875 -78.649169921875 2.65478515625
11.80859375 13.90966796875 23.577880859375
52.975830078125 -39.929443359375 -25.650146484375
-8.87646484375 101.37841796875 60.82470703125
-10.528076171875 59.027099609375 -14.325439453125
37.25830078125 -10.84521484375 7.410888671875
4.662841796875 9.738525390625 11.1318359375
4.01953125 49.897216796875 -12.295166015625
57.642822265625 0.144287109375 13.8125
-28.03125 36.72412109375 0.824951171875
65.737060546875 -47.120361328125 -22.40966796875
56.6875 -48.34423828125 -24.098388671875
44.797119140625 -48.623046875 -22.074951171875
31.82958984375 -14.790283203125 33.818603515625
32.343994140625 -12.427001953125 16.064208984375
54.377197265625 -12.2060546875 7.63671875
-4.310546875 -29.60400390625 22.20751953125
-23.699462890625 65.390625 -8.94775390625
32.9453125 -11.11279296875 9.6572265625
17.68505859375 -31.471923828125 19.029541015625
17.612548828125 -57.165283203125 5.892822265625
-14.549072265625 40.117919921875 49.77490234375
38.43115234375 -27.625 22.3974609375
58.353515625 -70.53857421875 3.185791015625
-33.917236328125 42.85986328125 49.429443359375
-0.628173828125 -44.440185546875 18.0771484375
-29.6376953125 41.124755859375 -3.934326171875
-21.9775390625 21.4580078125 42.93310546875
-8.716064453125 -41.05859375 19.81494140625
-28.87060546875 27.273681640625 45.079833984375
7.653564453125 -26.91796875 21.9736328125
-1.063720703125 -53.617431640625 12.558837890625
3.69775390625 42.031982421875 -12.111328125
-8.98828125 4.8056640625 11.560791015625
-1.697509765625 9.654296875 13.466552734375
19.6474609375 45.544677734375 -16.813720703125
46.395263671875 -9.3876953125 5.787841796875
-37.839111328125 -13.890869140625 -1.795166015625
-8.63427734375 91.817626953125 60.587158203125
-25.02978515625 59.334716796875 -13.679931640625
35.9775390625 -13.5634765625 26.84423828125
18.587158203125 -12.015869140625 15.896484375
3.98095703125 -17.048095703125 13.842041015625
60.249267578125 -51.130615234375 -24.11767578125
-3.262451171875 -9.923095703125 5.094970703125
-18.900634765625 91.22900390625 57.992919921875
18.84228515625 49.361083984375 -12.404296875
14.20654296875 29.605712890625 1.705078125
36.7001953125 -13.677490234375 21.5966796875
0.652587890625 -12.697998046875 6.781494140625
-31.151123046875 63.470458984375 -13.9736328125
-2.027099609375 54.4189453125 -16.63427734375
-36.19384765625 -21.18798828125 2.90234375
-25.60498046875 54.181396484375 -15.465087890625
29.738037109375 17.90087890625 12.44091796875
69.257568359375 -44.739501953125 -16.081298828125
50.258544921875 -3.07958984375 6.89892578125
5.050048828125 -6.505126953125 4.58935546875
-24.818115234375 48.223388671875 -9.603515625
-8.47802734375 -25.36181640625 10.495849609375
29.928466796875 27.719970703125 -15.336181640625
11.2626953125 22.181640625 44.539306640625
-30.80419921875 -12.72998046875 3.42236328125
18.372314453125 33.548583984375 -12.75048828125
6.403076171875 12.41259765625 15.7978515625
9.23828125 29.97607421875 46.6142578125
-6.8662109375 17.06884765625 34.240966796875
-12.420166015625 95.736083984375 60.175537109375
9.57958984375 -47.2099609375 17.772216796875
51.4326171875 -68.900390625 7.01416015625
13.015625 50.466796875 -12.709228515625
59.16064453125 -6.8076171875 12.78857421875
-27.540771484375 45.35205078125 4.075927734375
-24.19384765625 50.2431640625 -14.208984375
39.133056640625 -26.05029296875 27.02783203125
66.064208984375 -63.794189453125 2.84130859375
34.459716796875 15.5751953125 10.652587890625
55.81298828125 -63.059326171875 1.149169921875
-27.712646484375 42.98974609375 49.365966796875
33.5263671875 -57.5712890625 -29.369384765625
20.404541015625 37.5009765625 -15.9892578125
54.335205078125 -57.947998046875 -23.550048828125
10.73388671875 -21.48876953125 26.662841796875
53.821533203125 1.935791015625 9.6611328125
25.804931640625 -7.7080078125 10.803466796875
22.549072265625 -26.44775390625 27.28125
-13.06884765625 47.184326171875 50.681640625
-1.032470703125 -4.193115234375 4.501220703125
53.589111328125 -72.38623046875 4.667724609375
-8.11279296875 -31.389892578125 15.60693359375
-14.109130859375 31.672119140625 47.215576171875
4.296630859375 54.896728515625 -15.0810546875
-36.2607421875 68.57177734375 -11.0791015625
-10.568603515625 38.822021484375 49.0625
7.908447265625 -33.0810546875 18.167724609375
17.1474609375 -43.848876953125 18.539306640625
-14.16455078125 66.92431640625 -7.43896484375
41.870849609375 10.4775390625 10.073974609375
8.313720703125 3.483642578125 12.574951171875
-4.719970703125 31.17626953125 46.99169921875
-33.207763671875 40.24072265625 -6.3525390625
-13.572265625 -5.662109375 9.918212890625
56.129150390625 -83.783935546875 9.114990234375
-34.956787109375 -5.911865234375 -1.756591796875
11.885009765625 46.6396484375 -17.5224609375
28.386474609375 -66.27685546875 -24.224853515625
38.741943359375 -69.512939453125 -20.457275390625
-23.315185546875 -36.2294921875 -15.624755859375
-30.5703125 -33.451904296875 -14.73876953125
0.88037109375 61.8203125 -9.64501953125
12.19384765625 9.12939453125 15.665283203125
48.743896484375 -60.3564453125 -24.873779296875
67.27392578125 -39.74462890625 -24.80517578125
70.00537109375 -60.31201171875 5.6005859375
40.725830078125 -26.162841796875 5.9755859375
-22.6728515625 29.5419921875 46.1982421875
-4.83349609375 -17.612548828125 14.001953125
35.507080078125 -7.376708984375 5.62255859375
53.104736328125 -31.546630859375 2.6552734375
16.442138671875 30.2392578125 -6.803955078125
54.875244140625 -77.475830078125 6.756591796875
-41.843505859375 12.048095703125 8.8447265625
17.5966796875 -6.4609375 9.2314453125
44.388671875 -22.4267578125 4.24560546875
-17.79248046875 88.59375 69.468994140625
51.43212890625 -48.020751953125 -25.305908203125
74.646240234375 -67.449951171875 7.2646484375
-6.92333984375 -33.01806640625 19.19775390625
14.501708984375 -11.53271484375 13.1982421875
-31.932373046875 31.92724609375 -6.87353515625
36.3681640625 -23.83740234375 29.65966796875
-30.099853515625 50.03857421875 35.467529296875
-12.4921875 26.032470703125 46.856689453125
1.7900390625 -58.691650390625 9.002197265625
-11.63134765625 -8.912353515625 6.695068359375
-19.05908203125 15.128173828125 35.29345703125
-20.294677734375 5.3759765625 12.158447265625
-18.74267578125 48.52783203125 45.863037109375
46.081298828125 2.84326171875 8.5546875
-27.516845703125 66.03466796875 -15.827880859375
-3.912353515625 24.909912109375 37.82421875
-16.885009765625 93.1640625 65.953857421875
-18.059326171875 56.84228515625 -16.20947265625
14.66650390625 -38.7705078125 21.101806640625
-25.700927734375 46.999755859375 45.62841796875
-18.72265625 25.353759765625 42.701416015625
-23.87646484375 42.521484375 3.989501953125
-37.93408203125 41.021240234375 48.6865234375
20.865966796875 -13.222900390625 19.018798828125
25.351318359375 -14.698486328125 33.24560546875
7.421630859375 -50.329833984375 16.286865234375
-9.5185546875 -24.90185546875 18.394775390625
19.836181640625 -13.2919921875 23.193603515625
55.67236328125 -23.29296875 5.88037109375
0.101318359375 46.935791015625 -14.693115234375
18.96533203125 -58.820068359375 2.409912109375
65.1728515625 -43.42041015625 -23.76904296875
44.951904296875 -13.226318359375 4.955078125
-36.4912109375 1.90625 0.781982421875
-26.057373046875 91.616455078125 56.169921875
53.632568359375 -52.202392578125 -24.294677734375
40.561279296875 -61.2783203125 -27.059814453125
-31.199951171875 -24.5126953125 9.392578125
39.996337890625 -10.81103515625 10.281005859375
25.792236328125 33.145263671875 -17.310791015625
9.236572265625 -5.94775390625 8.188720703125
54.208251953125 -6.70458984375 8.182861328125
-21.173583984375 -15.96533203125 10.84619140625
11.9775390625 54.416259765625 -12.26611328125
7.239501953125 41.681884765625 -14.106689453125
21.836669921875 -9.5751953125 11.37158203125
15.456298828125 3.208984375 8.542724609375
5.1044921875 -30.4501953125 15.435302734375
-31.85546875 35.0009765625 47.995849609375
-21.94140625 49.701904296875 39.288818359375
46.072509765625 16.749755859375 -13.612548828125
0.48046875 -36.09375 19.821044921875
7.5244140625 -58.92041015625 3.904541015625
-27.50341796875 -22.260986328125 18.395263671875
-10.29150390625 34.9658203125 48.34765625
-2.735595703125 -40.851806640625 19.037353515625
-7.60205078125 27.037353515625 44.298583984375
-17.99609375 37.309814453125 48.890625
-31.52880859375 22.10400390625 41.94140625
-17.2578125 -15.439697265625 9.65771484375
58.23828125 -19.02099609375 9.520751953125
61.380615234375 -49.14306640625 3.216552734375
-7.521240234375 9.948974609375 13.7138671875
50.826171875 -17.95458984375 4.97265625
-15.352294921875 59.41796875 -14.0888671875
21.757080078125 -17.883056640625 31.84423828125
6.1396484375 6.263671875 9.173095703125
-30.160888671875 3.494140625 9.596435546875
-28.223876953125 -6.876220703125 3.240966796875
9.102783203125 61.6337890625 -8.4736328125
49.261474609375 -39.615234375 -26.712646484375
-30.77978515625 -0.32275390625 7.7138671875
-15.28173828125 22.47705078125 40.705322265625
10.694091796875 -57.857177734375 6.308349609375
57.01953125 -27.49365234375 5.55224609375
24.836181640625 -12.552490234375 18.69970703125
57.55712890625 -77.759521484375 3.50048828125
-26.93701171875 6.870849609375 15.94482421875
7.304443359375 48.15380859375 -13.283447265625
16.708984375 -22.37109375 27.53271484375
-19.84716796875 -5.783203125 5.97314453125
34.428955078125 25.105224609375 -15.060302734375
-8.63818359375 -23.523681640625 13.851806640625
12.185302734375 27.429931640625 45.981201171875
-3.958251953125 98.19091796875 62.292724609375
68.866943359375 -64.362548828125 5.36328125
32.200927734375 10.798583984375 9.656005859375
-35.083740234375 27.59765625 45.2646484375
-22.9052734375 56.81787109375 -15.939453125
-5.3955078125 3.889404296875 9.914306640625
-34.579345703125 -9.65869140625 -1.293701171875
-25.288330078125 3.19677734375 11.15234375
53.169921875 8.40869140625 10.47900390625
31.811767578125 2.90673828125 8.165771484375
-30.468994140625 60.00146484375 -18.18408203125
46.6416015625 -50.665283203125 -19.48193359375
5.37939453125 51.7080078125 -17.156494140625
60.79345703125 -68.76416015625 0.93408203125
-21.6015625 -19.7294921875 13.84814453125
-18.271240234375 90.267822265625 62.54541015625
-16.426025390625 48.014404296875 -8.568115234375
-35.830322265625 7.04736328125 4.9169921875
60.415771484375 -13.456787109375 10.8740234375
13.6748046875 -18.5146484375 16.84619140625
21.978759765625 9.391357421875 14.79296875
63.9716796875 -56.91748046875 2.82958984375
-5.66259765625 -26.142333984375 22.025390625
18.09521484375 23.168701171875 48.218994140625
-24.1640625 37.042236328125 1.189208984375
-6.56201171875 64.075439453125 -10.79345703125
21.442138671875 -28.961669921875 24.792724609375
-0.17529296875 7.9345703125 9.790283203125
-7.833740234375 48.453125 -12.56591796875
-7.637451171875 -35.227783203125 15.7626953125
47.406005859375 12.71435546875 11.726318359375
10.73291015625 16.641357421875 25.83349609375
46.461181640625 -31.757080078125 2.867919921875
28.615478515625 -16.74853515625 34.525634765625
-38.6650390625 10.477783203125 10.228759765625
42.29052734375 4.2392578125 8.50341796875
-38.858154296875 32.614013671875 46.277587890625
63.354248046875 -61.43798828125 2.01611328125
13.550537109375 36.8623046875 -12.20751953125
28.89697265625 35.146728515625 -18.320556640625
7.177978515625 -12.635986328125 8.255859375
47.746826171875 -66.858642578125 6.73779296875
59.425048828125 -21.901611328125 12.20849609375
26.37255859375 -68.660400390625 -20.912109375
-13.9443359375 52.6474609375 -15.30859375
-27.294677734375 44.913330078125 -9.810302734375
40.396728515625 47.341064453125 20.706298828125
-34.305419921875 10.251708984375 16.054443359375
42.066650390625 20.021240234375 -15.9462890625
49.07275390625 8.061279296875 10.023193359375
3.212646484375 11.012451171875 14.701416015625
23.043701171875 -31.182861328125 27.35107421875
50.823974609375 -65.0478515625 -21.4208984375
0.6767578125 16.61279296875 31.633544921875
12.9990234375 -45.9755859375 17.927490234375
33.09765625 -3.32275390625 6.67138671875
-10.603271484375 55.4111328125 -16.56689453125
-20.384765625 44.188720703125 50.109375
-32.079833984375 1.604248046875 2.20654296875
1.35009765625 30.401123046875 46.845458984375
-21.15966796875 15.807373046875 42.174560546875
-30.475830078125 48.90185546875 39.672607421875
-6.894775390625 52.853759765625 -15.93017578125
-17.47021484375 48.502197265625 49.528076171875
24.1728515625 -4.037109375 11.99072265625
8.7119140625 -14.7734375 10.72412109375
-2.3251953125 -20.80322265625 20.87158203125
-23.83984375 -17.637451171875 8.209228515625
16.922119140625 -50.8701171875 13.122802734375
18.856201171875 -16.9541015625 29.1884765625
-38.28369140625 11.780517578125 14.26953125
-28.329833984375 25.11767578125 -2.713134765625
11.918212890625 -54.203125 12.714599609375
4.068603515625 -9.431884765625 6.75244140625
-8.413330078125 -7.4345703125 6.101806640625
5.07177734375 -39.674560546875 19.377197265625
-5.063720703125 94.635498046875 61.31005859375
-30.5458984375 -3.788330078125 3.318359375
9.051513671875 27.123291015625 42.14599609375
-34.6494140625 38.627685546875 49.03759765625
-5.348876953125 -1.135009765625 4.175048828125
12.287353515625 49.908447265625 -16.161865234375
19.501220703125 -35.262939453125 22.4521484375
-29.013916015625 48.600830078125 -16.52783203125
-24.496826171875 41.550537109375 49.8076171875
37.507568359375 25.4765625 -17.73486328125
-30.971435546875 -21.480712890625 4.551513671875
-33.6552734375 71.743896484375 -8.64990234375
59.651611328125 -74.591552734375 3.010986328125
9.43408203125 52.05810546875 -15.119384765625
8.544189453125 12.957763671875 22.58642578125
-32.914794921875 46.108642578125 46.051513671875
-1.3232421875 -27.718017578125 20.941650390625
37.029541015625 -10.3525390625 25.799072265625
-29.0595703125 41.611572265625 -0.438232421875
48.93701171875 -47.253173828125 -22.9287109375
3.518310546875 -23.044921875 23.93115234375
47.56982421875 -6.076904296875 5.957763671875
-3.701171875 -35.0517578125 20.461181640625
17.368408203125 -34.56591796875 15.35693359375
48.00927734375 -25.212890625 2.987548828125
-34.48046875 36.348876953125 -9.9970703125
-8.09375 -19.618896484375 11.751708984375
3.80908203125 2.88330078125 6.837158203125
43.41162109375 -45.612548828125 -23.18115234375
45.393310546875 -61.1875 -25.7255859375
-12.03466796875 -12.019287109375 8.23193359375
-31.901611328125 52.412109375 -18.50390625
23.7392578125 5.232177734375 9.655029296875
-15.014892578125 48.727783203125 -11.67578125
38.2392578125 -10.6240234375 22.240478515625
-23.774658203125 -8.378662109375 7.34228515625
28.1455078125 -26.657958984375 29.5517578125
-8.30126953125 60.05712890625 -11.866455078125
41.70068359375 -57.801513671875 -27.075439453125
18.61181640625 32.107666015625 -8.765625
21.952392578125 30.713623046875 -10.2294921875
-6.996337890625 -40.205078125 16.931396484375
57.809814453125 -65.86328125 1.511474609375
14.769775390625 -29.955810546875 20.1171875
28.88818359375 -13.314697265625 19.898681640625
14.775390625 -18.855712890625 12.6318359375
-30.932861328125 34.535888671875 -4.83984375
10.5498046875 -38.82421875 20.1337890625
0.62353515625 1.956787109375 5.873291015625
53.33203125 -2.110107421875 8.141357421875
13.361083984375 41.91552734375 -14.94287109375
36.5107421875 -55.979736328125 -28.692138671875
-20.21044921875 -1.477783203125 8.18603515625
46.31787109375 -66.865478515625 -20.630615234375
-10.73779296875 93.19091796875 62.925537109375
34.959716796875 51.789794921875 21.52099609375
-17.93310546875 32.81201171875 47.396484375
57.055419921875 9.005615234375 -13.435302734375
12.088623046875 38.752685546875 -14.680908203125
23.373291015625 -20.70947265625 30.802734375
14.48095703125 -9.62060546875 9.830810546875
5.02685546875 -19.62353515625 21.412109375
16.25 -3.778076171875 7.606689453125
52.626953125 -15.316650390625 6.17333984375
24.747802734375 -9.68798828125 13.524169921875
12.3046875 -61.748779296875 -2.496826171875
-32.3427734375 2.572265625 6.830322265625
-8.127197265625 32.36279296875 47.46484375
-33.448974609375 -18.162841796875 1.178466796875
64.80712890625 -75.557861328125 1.480224609375
-9.144287109375 22.63671875 38.63720703125
-28.823486328125 24.19775390625 43.647705078125
-23.797607421875 15.032470703125 40.185791015625
-10.517822265625 8.177490234375 14.955078125
-10.4765625 -0.993896484375 8.11962890625
8.703857421875 44.672607421875 -13.51171875
51.22802734375 -59.744873046875 1.408203125
22.360107421875 -0.830810546875 8.692626953125
39.236328125 -64.28125 -26.286865234375
12.96240234375 -2.618896484375 8.572998046875
-15.14404296875 -16.21435546875 12.8896484375
12.740966796875 -15.531005859375 11.916259765625
49.521240234375 0.970458984375 8.235595703125
-26.83251953125 30.27734375 -2.2861328125
50.23828125 -72.150146484375 6.992919921875
5.9619140625 28.0224609375 43.444091796875
-6.902587890625 -23.099609375 24.55419921875
37.215087890625 -15.00390625 9.745849609375
51.960205078125 -23.95263671875 3.807861328125
10.565185546875 -20.93505859375 22.2109375
-32.73779296875 5.5009765625 10.427734375
29.107177734375 26.600341796875 -11.90869140625
68.94580078125 -56.7880859375 4.50732421875
9.804931640625 -32.715087890625 20.885009765625
24.962646484375 -65.948486328125 -13.989990234375
75.2021484375 -64.4833984375 8.678955078125
38.77392578125 -7.817138671875 6.088623046875
-8.2099609375 25.0947265625 41.66552734375
-11.485107421875 24.7451171875 43.4384765625
70.607421875 -51.99072265625 -14.43505859375
23.9130859375 40.28515625 -18.515625
0.724365234375 21.182373046875 36.141357421875
-28.88623046875 -20.3486328125 11.536376953125
-17.762451171875 92.930908203125 60.58935546875
-11.748779296875 61.104248046875 -11.950927734375
-14.848388671875 -16.4853515625 16.28271484375
21.35302734375 12.8916015625 18.877685546875
38.36474609375 -19.328369140625 6.752685546875
47.66943359375 -54.617919921875 -25.720947265625
-25.7177734375 28.140869140625 45.48583984375
-6.125244140625 -13.590576171875 7.662109375
-24.41748046875 -13.38720703125 5.599365234375
57.73046875 -6.607421875 9.312744140625
11.05029296875 6.57568359375 13.548828125
-29.772705078125 -14.894287109375 5.7861328125
-9.712158203125 -14.4296875 9.44677734375
43.219970703125 -53.166015625 -27.096435546875
1.203369140625 55.197021484375 -16.127685546875
59.212158203125 -3.56201171875 12.330810546875
-8.37060546875 -27.8583984375 16.229248046875
7.816650390625 -27.623046875 14.902099609375
47.6220703125 -18.3642578125 4.4384765625
-20.722412109375 49.16845703125 -12.81591796875
-1.140869140625 50.249267578125 -15.037353515625
-35.80908203125 21.273681640625 10.341552734375
-13.4208984375 -0.827392578125 10.5244140625
38.0244140625 -52.112060546875 -28.64111328125
-4.50244140625 46.70166015625 -12.1162109375
51.257080078125 -12.29443359375 6.618408203125
36.5712890625 8.836181640625 9.24951171875
71.33740234375 -71.222412109375 5.4765625
20.56396484375 -64.0888671875 -8.241455078125
-4.963134765625 18.7626953125 32.22607421875
60.2431640625 -25.936279296875 8.0361328125
-31.604248046875 -10.947021484375 -0.8466796875
59.01953125 -33.1845703125 6.18017578125
28.33544921875 -5.68505859375 10.8173828125
22.345703125 34.68310546875 -16.87939453125
-28.14599609375 65.379150390625 -12.662841796875
-18.17822265625 53.664306640625 -15.61669921875
4.92724609375 -56.523681640625 9.998046875
-15.072021484375 27.76904296875 45.9736328125
14.63330078125 22.72705078125 45.611083984375
51.958984375 -66.33447265625 4.258056640625
-4.661865234375 23.181640625 34.08544921875
1.455322265625 -15.058349609375 10.245849609375
40.27197265625 15.461181640625 11.28857421875
0.3896484375 -47.478759765625 17.795654296875
46.18115234375 10.61279296875 9.626220703125
1.749267578125 18.271240234375 39.2900390625
0.258056640625 -52.01611328125 15.4716796875
19.16552734375 -40.626220703125 20.655517578125
-2.15185546875 35.691162109375 49.191650390625
-22.924072265625 61.315185546875 -12.3017578125
41.01416015625 -49.752197265625 -28.03564453125
-32.4716796875 44.303466796875 -10.03369140625
-13.71630859375 2.6396484375 12.690673828125
3.916259765625 -12.6669921875 7.518798828125
39.241455078125 -67.193115234375 -24.434814453125
-37.7744140625 -4.713623046875 -2.654296875
3.234130859375 41.262451171875 -8.96337890625
19.810791015625 7.427001953125 13.197998046875
-33.087890625 27.1630859375 -5.73828125
34.6982421875 -49.487060546875 -29.81640625
8.414794921875 22.443359375 43.162353515625
-17.033447265625 19.016845703125 39.040771484375
-21.78271484375 91.8388671875 56.322998046875
37.588623046875 -0.87353515625 7.1982421875
10.6123046875 2.212890625 8.958984375
32.2333984375 -10.93115234375 12.732666015625
9.5927734375 10.910888671875 15.4560546875
-1.811767578125 5.908203125 8.007568359375
52.476318359375 5.387939453125 9.927001953125
16.00048828125 29.061279296875 -9.83349609375
-3.362548828125 25.82861328125 45.782470703125
-30.773681640625 69.662109375 -9.157470703125
10.9267578125 32.70751953125 47.011474609375
-23.167724609375 51.04931640625 35.59375
-11.8525390625 11.103271484375 22.213134765625
27.89111328125 12.616943359375 16.9736328125
15.53515625 -25.279296875 25.393798828125
72.312744140625 -68.45263671875 9.184814453125
30.58837890625 60.021240234375 24.915771484375
41.69970703125 -49.5546875 -20.67041015625
41.117431640625 -2.802734375 6.583251953125
30.77587890625 -64.487060546875 -29.046142578125
-11.334228515625 17.67724609375 40.18896484375
-28.69482421875 42.0068359375 -6.7705078125
-21.154296875 36.445068359375 48.485107421875
-8.2578125 40.046142578125 50.751953125
30.40625 -69.5712890625 -25.657958984375
47.068359375 5.560546875 9.705078125
3.7197265625 60.1123046875 -10.46923828125
43.651123046875 -44.711669921875 -27.78466796875
-26.968017578125 51.4228515625 -15.0927734375
15.68798828125 -49.6298828125 16.162109375
-10.4345703125 -16.093017578125 11.9580078125
-5.2724609375 100.9208984375 61.66650390625
7.716796875 12.651123046875 19.07470703125
-26.29248046875 21.7138671875 43.241943359375
34.23486328125 23.37353515625 -10.64013671875
-15.7021484375 6.98828125 14.497314453125
-14.456787109375 43.1552734375 50.876708984375
-5.308837890625 28.23046875 45.9638671875
-17.986328125 0.694580078125 10.82763671875
3.24755859375 34.261474609375 48.14697265625
27.98388671875 -21.959716796875 31.852783203125
-14.75732421875 -9.200439453125 6.867431640625
-10.541015625 -24.08056640625 23.283447265625
-32.77685546875 32.64599609375 -10.821044921875
68.728271484375 -44.462890625 -19.699462890625
-29.871337890625 45.5625 -12.56298828125
-38.975341796875 -20.430419921875 1.887451171875
-40.479248046875 9.181884765625 3.937255859375
4.57177734375 -33.991455078125 14.43994140625
57.07666015625 -60.292236328125 0.775146484375
-18.902587890625 91.575439453125 68.0400390625
26.666259765625 6.01171875 9.89697265625
64.3369140625 -46.963134765625 4.759033203125
-10.281494140625 98.66162109375 60.897216796875
6.697021484375 -0.26416015625 4.450439453125
23.326904296875 -24.403076171875 29.3916015625
-17.687744140625 -8.354248046875 6.310546875
63.870849609375 -65.5078125 1.630859375
46.51123046875 -45.875244140625 -24.59521484375
67.686767578125 -67.012451171875 2.988037109375
20.400634765625 -10.771728515625 13.7578125
-27.684814453125 68.224609375 -11.651611328125
-33.5146484375 67.076416015625 -12.500244140625
0.628173828125 -33.4365234375 17.5458984375
65.4423828125 -72.285400390625 2.257568359375
-25.0869140625 34.12353515625 47.614013671875
20.974365234375 -54.34423828125 12.59765625
-29.991455078125 37.552734375 -1.32763671875
14.3095703125 7.537353515625 12.669921875
16.6435546875 10.511962890625 16.940673828125
44.44140625 -66.309326171875 -22.9306640625
0.199462890625 59.589111328125 -11.55859375
13.66455078125 11.728515625 19.9501953125
39.5517578125 -46.324462890625 -28.769775390625
33.493408203125 -26.1328125 30.988037109375
0.65380859375 19.182373046875 33.19970703125
15.548583984375 5.0830078125 11.39697265625
-18.490966796875 -20.12890625 19.639404296875
5.340576171875 -48.4619140625 17.392333984375
-23.905029296875 29.831787109375 -1.765869140625
63.33349609375 -48.8515625 -24.04345703125
-35.534912109375 -15.4560546875 -0.66943359375
-17.6435546875 -2.06787109375 5.721923828125
-14.187744140625 -2.28857421875 7.381591796875
6.4150390625 44.14794921875 -15.831787109375
-0.698486328125 -1.214111328125 4.64208984375
-4.623779296875 2.4755859375 7.385498046875
19.13037109375 1.21142578125 7.764892578125
57.048828125 -69.482421875 5.66259765625
54.7734375 -47.060791015625 -26.311279296875
-3.552978515625 -12.655517578125 6.2763671875
-13.439208984375 -19.122802734375 16.232177734375
-22.515380859375 3.319580078125 12.2587890625
15.590576171875 -34.842529296875 18.939208984375
70.324462890625 -60.801025390625 8.5224609375
-11.925537109375 -20.18603515625 12.790283203125
-3.276123046875 20.39697265625 35.84130859375
23.78857421875 30.02734375 -12.470458984375
15.692138671875 -64.3193359375 -7.1015625
21.8291015625 -65.6455078125 -11.412109375
2.277099609375 -43.565673828125 18.6298828125
-2.942626953125 -37.7763671875 19.548095703125
36.896484375 20.1748046875 10.89013671875
43.543212890625 -0.335693359375 6.860107421875
10.569580078125 -18.1064453125 18.67236328125
-25.044189453125 -8.880126953125 4.48583984375
36.381103515625 4.05810546875 8.5078125
18.10595703125 35.423583984375 -15.03271484375
32.1279296875 55.34375 24.215087890625
56.125 -0.000732421875 10.809326171875
15.044677734375 -14.38330078125 16.322998046875
-1.849853515625 30.518310546875 46.70654296875
-13.487548828125 47.9326171875 -8.236083984375
10.6396484375 -51.07763671875 14.060546875
9.734130859375 57.611083984375 -10.4853515625
-3.732177734375 45.476806640625 -8.878662109375
-13.517822265625 9.57861328125 18.88623046875
-27.50390625 60.641357421875 -15.4716796875
-24.804443359375 -1.1044921875 11.35107421875
-36.664794921875 4.387939453125 2.36865234375
0.878173828125 -28.74609375 14.77734375
31.498291015625 19.0224609375 10.327392578125
-4.451904296875 -46.55322265625 17.73046875
-19.756591796875 96.657470703125 55.616943359375
-25.8896484375 48.69091796875 41.544189453125
-35.3583984375 33.58203125 47.157958984375
8.364501953125 -31.484619140625 14.74755859375
10.599365234375 -56.211669921875 9.727783203125
6.713623046875 10.10546875 13.1962890625
-27.42578125 48.171875 4.873779296875
17.194580078125 -55.959228515625 9.075439453125
10.472900390625 -9.591064453125 7.05322265625
-1.135498046875 57.217041015625 -14.108154296875
-30.621826171875 42.7265625 49.56787109375
-20.5244140625 88.759033203125 58.79345703125
-33.30078125 48.154541015625 39.728271484375
-26.423583984375 57.90673828125 -15.88623046875
-7.05029296875 58.348876953125 -14.419189453125
19.1884765625 -50.12548828125 16.01123046875
-32.930419921875 37.41650390625 -5.67041015625
-26.0283203125 88.84326171875 57.86669921875
39.9169921875 19.886474609375 -13.646728515625
42.356201171875 -49.171875 -23.56689453125
37.333740234375 15.5546875 11.122802734375
-11.30322265625 32.438232421875 47.151611328125
-5.98779296875 61.807861328125 -12.52294921875
29.0390625 -3.5625 13.13134765625
17.070556640625 -28.4345703125 24.73583984375
-29.645263671875 -19.183837890625 5.720458984375
-12.171142578125 50.414794921875 -13.958740234375
-19.444091796875 93.587646484375 56.4013671875
-20.178955078125 61.416015625 -11.384521484375
13.86083984375 -15.862060546875 29.633056640625
71.985595703125 -62.19287109375 10.83203125
-16.960693359375 16.839111328125 31.273681640625
-20.753173828125 46.89111328125 47.98828125
-33.531494140625 0.36181640625 0.0595703125
16.812255859375 39.5634765625 -16.719970703125
0.340576171875 28.6875 49.018798828125
19.90380859375 -4.246826171875 10.158935546875
-33.81982421875 62.429443359375 -13.79296875
-31.5927734375 26.41357421875 44.79296875
56.504150390625 -30.578857421875 4.133544921875
1.300048828125 64.322509765625 -8.306640625
48.175048828125 -11.598388671875 5.376220703125
14.435302734375 -58.0439453125 5.093994140625
55.82080078125 -82.365478515625 6.397216796875
39.2939453125 -23.53173828125 6.608642578125
20.023193359375 -23.89404296875 26.6826171875
-25.10498046875 -19.590576171875 19.15966796875
-3.794921875 93.921875 63.76416015625
-9.553955078125 94.615234375 60.26708984375
-19.10302734375 -17.085205078125 17.074462890625
22.5458984375 -35.749755859375 22.490966796875
-0.49169921875 -19.44921875 18.995849609375
-21.91796875 47.725341796875 -7.758544921875
53.19677734375 -63.744384765625 2.028564453125
27.838134765625 7.70068359375 12.053955078125
-31.708251953125 -5.7822265625 1.660400390625
-16.8193359375 9.442626953125 13.604248046875
22.809814453125 -58.89111328125 2.21044921875
23.273681640625 -63.638427734375 -7.53125
49.450439453125 -64.467529296875 6.353759765625
50.857177734375 -26.878662109375 3.308837890625
-34.571044921875 47.53759765625 -15.53076171875
36.97998046875 -14.479736328125 24.298828125
-30.6318359375 -14.9765625 0.4794921875
-15.4716796875 16.9013671875 27.843994140625
2.114501953125 21.802001953125 41.099365234375
-39.253173828125 2.482421875 0.979248046875
-26.28173828125 -1.777099609375 7.726806640625
-33.267822265625 24.07861328125 7.98193359375
-17.42529296875 39.852294921875 49.976318359375
-37.12451171875 -12.191650390625 -3.932861328125
-27.5712890625 39.236083984375 49.17431640625
55.6669921875 -17.61083984375 7.714599609375
23.52978515625 -3.078125 14.563232421875
2.899169921875 47.755126953125 -14.152587890625
-19.99267578125 21.838134765625 40.97216796875
-36.3583984375 9.648193359375 8.850830078125
-35.609619140625 31.484619140625 -7.6865234375
-29.678955078125 29.81201171875 45.97119140625
47.771728515625 16.5322265625 -15.8349609375
-34.63134765625 40.97509765625 -8.655029296875
-5.47021484375 34.5986328125 47.79736328125
35.640869140625 -10.72412109375 28.2041015625
-24.6826171875 47.5322265625 -6.016845703125
59.064453125 -17.009765625 11.640625
-35.4609375 -12.564208984375 -1.09326171875
17.137451171875 21.0537109375 46.654052734375
64.475830078125 -40.775390625 -24.356689453125
-4.3984375 -22.285400390625 22.008056640625
10.63330078125 -60.002685546875 1.968505859375
-5.744873046875 -20.616455078125 18.8603515625
-33.05224609375 -1.921142578125 7.92529296875
4.640869140625 31.084716796875 46.55517578125
34.0693359375 30.23681640625 -17.3271484375
-26.975830078125 45.917724609375 48.30859375
-21.426025390625 -17.033447265625 14.5068359375
15.144775390625 -1.38037109375 6.73974609375
26.443359375 26.92919921875 -9.561279296875
-8.740478515625 -22.684326171875 11.184814453125
54.955810546875 -74.284912109375 6.162353515625
40.171630859375 -29.78662109375 22.413818359375
52.619384765625 -78.762451171875 5.78515625
-30.989013671875 47.193603515625 -14.50244140625
-39.9404296875 15.338134765625 12.228271484375
21.75439453125 -55.745849609375 7.880126953125
-16.9814453125 4.270751953125 11.627197265625
50.864501953125 -30.455078125 1.459716796875
-30.5966796875 47.0068359375 44.656494140625
31.614990234375 28.7587890625 -17.25927734375
4.471923828125 -52.20068359375 14.466064453125
-24.031494140625 -33.647216796875 -14.965576171875
59.101806640625 -62.71337890625 0.9560546875
-30.427001953125 -9.337158203125 3.372314453125
7.129638671875 -55.5576171875 11.34716796875
-28.65966796875 44.711669921875 -3.1630859375
36.7119140625 23.5380859375 -15.952392578125
-30.146240234375 31.632568359375 -4.34375
33.536865234375 -68.412841796875 -25.473388671875
-24.158203125 -5.019775390625 6.91455078125
13.4072265625 -17.22314453125 14.4482421875
56.98583984375 -50.987548828125 -23.478759765625
-32.763427734375 5.695068359375 5.211181640625
25.125244140625 -9.4130859375 17.296142578125
25.7353515625 8.935302734375 15.374267578125
-6.55126953125 -30.2041015625 20.769775390625
51.079345703125 -45.33984375 -25.66015625
53.241943359375 -54.897216796875 -24.1455078125
58.806396484375 -56.328125 -22.46240234375
51.730712890625 -58.380859375 -24.232666015625
46.269287109375 -42.35888671875 -27.281982421875
48.39111328125 -57.67578125 -25.228271484375
5.374755859375 4.022216796875 10.522705078125
56.331787109375 -3.9345703125 9.953125
-9.21826171875 19.154541015625 39.136474609375
4.291015625 56.599365234375 -12.221435546875
22.302001953125 -13.261962890625 16.71044921875
21.093505859375 4.560791015625 9.980224609375
-27.201416015625 51.343505859375 29.19677734375
9.665283203125 -2.199462890625 7.949462890625
-27.5888671875 35.25341796875 47.982177734375
12.4736328125 24.93115234375 44.9873046875
-7.640380859375 8.974609375 11.194091796875
61.688232421875 -55.781005859375 1.9326171875
52.10595703125 -20.47216796875 4.935791015625
40.8203125 7.399169921875 9.259033203125
12.25537109375 56.65478515625 -10.3330078125
37.210693359375 -62.109130859375 -27.91162109375
-27.220947265625 -14.06640625 6.075439453125
7.2041015625 -26.569580078125 18.717041015625
58.5322265625 -47.029052734375 -25.55224609375
-3.35302734375 52.099609375 -16.305419921875
-8.3291015625 -26.508544921875 22.019775390625
23.38720703125 12.150146484375 15.935791015625
17.348388671875 -19.659423828125 28.326416015625
-19.482666015625 -11.6474609375 6.635009765625
38.8583984375 -13.713134765625 7.968017578125
15.86865234375 -41.504638671875 19.9931640625
31.06982421875 -9.59228515625 8.5
2.4814453125 8.2236328125 9.65478515625
54.23779296875 -69.892333984375 5.38720703125
-33.556396484375 29.81884765625 -7.123291015625
-21.0966796875 24.145751953125 42.9208984375
4.596923828125 -28.464111328125 17.147216796875
2.134765625 -3.564208984375 3.994384765625
70.759033203125 -66.708740234375 6.267578125
16.128662109375 -17.2529296875 29.51416015625
28.76025390625 61.94677734375 25.1025390625
-17.84228515625 49.130859375 -12.33740234375
-34.290771484375 -3.2978515625 -1.317626953125
-11.392333984375 -22.789306640625 12.673828125
-27.903564453125 4.1025390625 10.860107421875
31.947265625 -7.51171875 6.427001953125
74.634033203125 -69.6123046875 9.94091796875
49.75048828125 -63.36181640625 -23.880126953125
30.15380859375 -11.56396484375 18.05615234375
-2.34228515625 18.7314453125 32.592529296875
-1.15380859375 3.515869140625 8.925537109375
51.485595703125 -5.564697265625 7.156982421875
-32.07177734375 -5.05615234375 -1.204345703125
-1.635498046875 -7.399169921875 5.3056640625
-4.451904296875 -7.451904296875 4.528076171875
12.426025390625 36.39306640625 -8.029052734375
