-59.06787109375 54.955078125 37.99609375
4.04833984375 53.899658203125 56.337158203125
-24.3251953125 18.013427734375 39.927490234375
0.18115234375 -36.077392578125 16.7861328125
50.85791015625 -7.753173828125 5.68212890625
35.454833984375 -65.722900390625 -29.078369140625
-38.4453125 -7.87744140625 -4.28466796875
7.618896484375 -47.29150390625 16.353271484375
39.739013671875 22.5380859375 20.3154296875
38.132080078125 -3.17724609375 5.467041015625
-51.7353515625 48.69677734375 -11.585693359375
44.51513671875 -25.742431640625 12.574462890625
1.0830078125 25.877685546875 43.0400390625
-36.590576171875 64.81005859375 -17.314208984375
10.848876953125 30.843994140625 46.041259765625
46.2470703125 11.9033203125 9.94775390625
-37.579345703125 7.4560546875 0.93408203125
54.88134765625 -45.919677734375 -27.13623046875
23.12744140625 -4.780517578125 8.26318359375
-20.68798828125 25.505126953125 38.889404296875
39.181396484375 19.551513671875 15.31298828125
4.683349609375 43.553466796875 -13.677490234375
-16.8642578125 -13.710205078125 6.88623046875
-29.198486328125 -2.158203125 1.62890625
-0.200439453125 20.03125 31.96533203125
-18.11474609375 -0.626953125 4.918212890625
-34.18212890625 41.032470703125 -4.451416015625
-5.484130859375 -11.3642578125 2.9541015625
16.727783203125 -48.025634765625 16.60498046875
50.6552734375 12.361083984375 -13.53857421875
-30.54541015625 64.814697265625 -17.282470703125
32.375732421875 -3.397216796875 5.1875
-8.788330078125 40.929443359375 49.706298828125
-3.947265625 -48.2490234375 15.814208984375
-9.26953125 -30.835693359375 16.842041015625
-45.40576171875 -9.489013671875 -4.916259765625
11.75 48.646484375 -18.05810546875
-55.638916015625 -1.336669921875 -3.59423828125
-38.042724609375 47.564453125 -13.778076171875
39.863037109375 -42.200927734375 -31.248291015625
-17.01123046875 20.305419921875 31.31103515625
-10.745361328125 -3.3515625 4.707763671875
-30.6376953125 -19.64990234375 1.780029296875
-1.80908203125 60.915283203125 -14.983154296875
-42.036865234375 1.136474609375 -2.1015625
21.049072265625 33.42041015625 -15.390380859375
-18.14892578125 42.15234375 50.014892578125
46.484130859375 26.647216796875 21.2119140625
51.050537109375 2.3056640625 7.862548828125
-45.758056640625 51.39794921875 -14.7080078125
-16.876220703125 4.5478515625 8.017822265625
10.7294921875 36.328125 -11.689208984375
44.35009765625 -60.31787109375 -28.018798828125
-22.50048828125 22.5654296875 43.227783203125
24.070068359375 -21.476318359375 31.110595703125
-68.941162109375 56.071533203125 34.570556640625
-27.537109375 -19.523193359375 11.31103515625
24.607421875 2.614501953125 11.5078125
28.941162109375 39.075927734375 25.595458984375
17.7421875 -18.2587890625 27.8603515625
-7.948486328125 47.361083984375 -10.559814453125
-16.8134765625 17.109375 26.9091796875
-28.953857421875 39.838134765625 48.7578125
-48.541015625 45.423095703125 0.810546875
41.67236328125 -22.369140625 9.455322265625
-27.797119140625 46.371337890625 46.87939453125
-32.586669921875 -11.656005859375 -1.791259765625
18.85693359375 -13.103515625 23.618896484375
30.197265625 27.359619140625 -15.531005859375
-0.887939453125 -8.625732421875 2.7314453125
-34.881103515625 -16.6748046875 -0.284912109375
-46.851318359375 57.560791015625 -16.558349609375
-13.0634765625 49.89111328125 -12.7880859375
-20.56201171875 34.281005859375 47.294921875
-52.747802734375 39.892578125 60.822021484375
52.0537109375 -56.57568359375 -26.24951171875
11.3486328125 -4.9072265625 6.200927734375
7.393798828125 48.868896484375 61.375244140625
-9.801025390625 -18.66650390625 10.04541015625
-3.267822265625 64.981689453125 49.748779296875
-78.598388671875 51.5029296875 36.225830078125
7.01416015625 -30.385498046875 17.87744140625
-18.65771484375 57.43408203125 44.085205078125
51.686767578125 -41.506591796875 -28.686279296875
36.246337890625 22.3955078125 -14.82177734375
-30.080322265625 -8.764404296875 2.798828125
-47.01953125 37.435302734375 -0.025634765625
-48.5146484375 5.71435546875 1.727783203125
-26.1259765625 27.1171875 44.414306640625
-33.884521484375 27.3662109375 3.310302734375
-29.406005859375 27.984130859375 -4.0537109375
9.333251953125 -24.4248046875 22.91162109375
2.87255859375 2.14013671875 3.686279296875
10.03466796875 57.46728515625 -14.462890625
-56.8359375 5.834716796875 1.940673828125
-6.48486328125 10.241455078125 14.76318359375
-9.2421875 -39.980224609375 14.05419921875
-39.50244140625 42.39453125 -4.328369140625
-39.091796875 70.355224609375 -10.642333984375
41.770751953125 9.553466796875 9.017578125
-6.74560546875 56.51123046875 -17.104736328125
43.234619140625 25.887939453125 16.8046875
8.489990234375 7.05078125 8.997802734375
44.64404296875 16.559814453125 -13.82421875
0.355712890625 -20.395751953125 20.4609375
-31.82666015625 24.264892578125 43.684814453125
-58.338134765625 46.60107421875 -5.196044921875
-8.359619140625 24.607421875 38.51806640625
-22.802001953125 15.76171875 35.640869140625
-26.43896484375 48.93310546875 -13.95556640625
-9.564453125 -22.80615234375 17.16943359375
-21.286865234375 57.66357421875 -17.058837890625
-57.618896484375 -7.47705078125 -7.201416015625
-7.68115234375 1.835693359375 3.616943359375
53.4462890625 -15.053955078125 7.455078125
-41.4072265625 30.283203125 -4.810546875
-24.644287109375 52.31298828125 28.721923828125
-20.931396484375 48.648193359375 42.95458984375
-15.360107421875 -22.105712890625 10.704345703125
-36.311279296875 27.575439453125 46.428466796875
-11.33837890625 -8.11962890625 6.081787109375
-20.008056640625 -10.1494140625 5.303466796875
17.09814453125 -42.668701171875 18.793212890625
-16.900390625 27.974365234375 41.96728515625
-33.33447265625 33.240478515625 -11.264404296875
38.756103515625 -10.8310546875 9.672607421875
63.9892578125 -49.390380859375 -24.319580078125
48.519287109375 -21.746826171875 7.328857421875
-26.8408203125 -18.12890625 6.6162109375
-42.896728515625 47.370849609375 -14.92138671875
13.439208984375 -27.471923828125 17.0634765625
3.242431640625 63.364501953125 54.8828125
8.878662109375 19.03173828125 28.540771484375
-22.8984375 39.4560546875 48.7607421875
45.611328125 -6.828369140625 5.048583984375
-17.974853515625 47.9189453125 -8.050048828125
27.11767578125 -12.78515625 35.88037109375
8.665771484375 1.9365234375 8.56591796875
-6.98193359375 6.1943359375 5.68701171875
6.834716796875 -51.6689453125 14.406494140625
5.448486328125 27.30517578125 41.3232421875
2.6494140625 -32.6103515625 10.5205078125
38.451904296875 -61.93359375 -29.015869140625
12.65283203125 -34.44287109375 19.5859375
37.232666015625 -48.45166015625 -31.306884765625
22.4169921875 -38.15478515625 21.564453125
-24.163330078125 40.7216796875 2.455322265625
-25.804931640625 48.47412109375 -6.147216796875
51.890380859375 19.19140625 15.2705078125
17.867431640625 6.88134765625 11.08984375
-9.456298828125 63.17822265625 46.009521484375
-38.392333984375 34.5126953125 -10.2421875
-26.991455078125 -12.65771484375 4.66943359375
22.0380859375 -0.3193359375 7.041259765625
-2.462158203125 56.9697265625 48.809814453125
57.24755859375 -54.95654296875 -25.37548828125
10.637939453125 -17.36572265625 15.434814453125
1.219970703125 -46.00341796875 16.886474609375
-30.138427734375 55.9638671875 -19.029541015625
-24.55908203125 53.4375 9.40380859375
-43.28076171875 33.72705078125 47.297119140625
-14.92236328125 32.356689453125 47.0244140625
50.660888671875 -18.918212890625 3.54541015625
26.4921875 33.945556640625 -18.222412109375
-20.550537109375 51.84912109375 34.768798828125
-13.5751953125 62.699951171875 -16.044189453125
7.447509765625 -42.212890625 18.909423828125
14.67431640625 -12.814453125 11.5146484375
-38.9873046875 55.453125 -19.55859375
-39.840087890625 -18.64892578125 -0.419189453125
13.20849609375 1.052490234375 6.976318359375
-18.01416015625 65.068603515625 42.310791015625
22.614990234375 -12.29248046875 14.101806640625
43.6142578125 20.077392578125 13.97412109375
-19.29248046875 80.8857421875 68.02783203125
-27.00341796875 31.529296875 45.578125
-1.942138671875 -26.904541015625 17.85595703125
-73.14990234375 57.483642578125 32.663818359375
-20.8427734375 51.5078125 -14.454833984375
-62.04248046875 56.755615234375 34.932373046875
60.08642578125 -45.468994140625 -26.234130859375
21.0625 -46.990234375 17.81591796875
7.656982421875 -12.103759765625 6.43212890625
50.98876953125 7.03173828125 8.57373046875
-34.87109375 45.95654296875 -10.852783203125
49.168212890625 -3.0693359375 6.23828125
16.030517578125 49.110595703125 -16.462890625
-47.899658203125 10.80517578125 3.2255859375
1.5771484375 56.6103515625 51.944580078125
-1.104248046875 24.15283203125 33.83447265625
23.73388671875 -9.072265625 9.84228515625
31.374267578125 -14.748779296875 17.122802734375
-78.14208984375 55.440673828125 33.98193359375
-1.5712890625 -40.918701171875 17.64404296875
56.492431640625 -58.6064453125 -0.7568359375
61.5771484375 -40.529296875 -25.57958984375
-43.9736328125 44.272216796875 2.06884765625
16.920654296875 -8.044189453125 8.059326171875
22.816162109375 26.5234375 -15.55615234375
42.2587890625 -51.157958984375 -24.2666015625
-30.7158203125 -23.869384765625 11.02392578125
-43.438720703125 44.20361328125 -3.046875
57.770751953125 -20.562255859375 8.370849609375
46.17529296875 1.869140625 7.15576171875
4.125244140625 -28.765625 13.176513671875
-48.384521484375 39.746826171875 51.513427734375
-44.032470703125 42.0517578125 47.059814453125
-31.39697265625 34.41259765625 -7.388671875
-26.90283203125 45.05859375 -11.51904296875
-26.82568359375 49.183837890625 3.083251953125
-21.228759765625 55.489501953125 37.257568359375
3.15771484375 -14.306884765625 8.155029296875
-21.259765625 -3.19140625 2.4208984375
30.316650390625 2.472412109375 7.458251953125
-7.2822265625 67.18798828125 46.315673828125
-21.254638671875 79.067138671875 61.707763671875
-37.56689453125 59.708984375 -19.200927734375
21.816650390625 -23.270751953125 26.8046875
1.955078125 42.053955078125 -10.53466796875
-7.1533203125 -19.340087890625 13.51611328125
27.867919921875 35.015380859375 26.954345703125
-19.06640625 -17.06982421875 9.484130859375
-27.63427734375 43.96240234375 1.854736328125
-43.708740234375 44.43408203125 -11.505126953125
-23.40185546875 -18.35498046875 15.24951171875
33.28466796875 29.243408203125 23.114501953125
52.42138671875 -25.23046875 5.303955078125
-33.92919921875 -23.086181640625 5.20166015625
-6.188232421875 30.406005859375 47.130126953125
-30.8427734375 1.804443359375 2.397705078125
-1.366455078125 25.99072265625 39.43701171875
53.557861328125 -12.919189453125 13.29052734375
-32.10009765625 -2.060546875 -1.9951171875
44.540771484375 -22.427734375 3.6279296875
-37.593017578125 25.940185546875 -0.533447265625
15.18798828125 41.19482421875 -17.923828125
-34.9052734375 31.59716796875 45.75
-44.00927734375 53.71142578125 -18.2373046875
43.93310546875 19.020751953125 -17.287841796875
44.073974609375 -45.557373046875 -28.786376953125
-24.392578125 31.64404296875 -2.281494140625
19.896728515625 -11.3681640625 29.89306640625
-3.719970703125 63.777587890625 -12.428466796875
42.830810546875 -13.31787109375 13.031005859375
9.78125 40.0283203125 -13.609130859375
41.699951171875 -39.686767578125 -28.31982421875
1.908203125 52.849853515625 -17.557373046875
-28.344970703125 51.31640625 -16.9326171875
41.11279296875 -53.101318359375 -29.2568359375
-27.1474609375 43.75634765625 -3.522705078125
37.353515625 30.0 19.015625
-6.863037109375 -22.273681640625 20.408935546875
63.78857421875 -53.1318359375 4.892333984375
-29.0615234375 26.49072265625 -0.095458984375
1.76904296875 50.4794921875 53.90673828125
8.791748046875 -8.46630859375 4.5732421875
-6.3671875 54.768798828125 49.982666015625
-41.212646484375 62.441162109375 -18.985595703125
-43.5712890625 -12.926513671875 -3.274169921875
-51.131591796875 -10.703125 -5.478515625
-47.50048828125 -4.065673828125 -6.017822265625
46.33349609375 -64.49853515625 -26.066162109375
35.856201171875 26.068115234375 20.4296875
36.751708984375 -52.9169921875 -30.52978515625
17.904296875 -33.02880859375 20.668212890625
-45.411376953125 3.476318359375 -1.19677734375
33.40234375 35.409423828125 22.2451171875
13.181396484375 15.765869140625 26.861328125
-2.683837890625 -17.965576171875 14.307861328125
16.288330078125 -35.8125 15.86083984375
-32.333251953125 46.900634765625 46.27490234375
1.479248046875 -18.60791015625 16.85205078125
21.470947265625 29.622802734375 -12.873291015625
15.29638671875 11.6171875 20.287109375
-34.72802734375 76.450439453125 -6.560546875
-12.83056640625 39.5419921875 49.308349609375
36.36962890625 -18.75732421875 9.1083984375
12.571044921875 -47.845947265625 16.62109375
-15.759033203125 53.21875 46.215087890625
-12.67822265625 53.4296875 -14.932373046875
-24.475830078125 53.53271484375 23.9970703125
28.2451171875 -8.03564453125 34.08642578125
1.48974609375 46.4267578125 -14.83984375
62.1650390625 -57.40380859375 -22.4326171875
31.69482421875 -7.0712890625 6.970703125
4.277099609375 -36.081787109375 17.352294921875
-12.849365234375 -12.728759765625 7.74267578125
46.784912109375 -19.217041015625 2.15771484375
-2.520751953125 7.2021484375 6.620361328125
-61.102294921875 -0.70068359375 -2.757080078125
24.45068359375 10.2548828125 17.107177734375
13.12060546875 -40.036376953125 19.7705078125
54.538818359375 1.03662109375 9.644775390625
32.32958984375 -9.145263671875 10.903564453125
7.119873046875 -26.46923828125 19.141357421875
47.32275390625 -51.592529296875 -24.904541015625
-37.853515625 28.222412109375 -4.78662109375
16.493408203125 33.106201171875 -10.93603515625
-1.3564453125 -37.49658203125 20.290771484375
-60.75927734375 46.476318359375 -8.806884765625
43.927001953125 -47.552490234375 -25.2021484375
7.274169921875 -4.85595703125 3.426025390625
46.893310546875 17.939208984375 11.546630859375
8.73681640625 59.845947265625 55.742431640625
-16.677734375 -19.086669921875 14.127197265625
54.46337890625 6.771240234375 10.652099609375
-3.597412109375 -0.9814453125 2.7001953125
21.56787109375 -29.612060546875 23.6201171875
7.74267578125 3.0830078125 4.5390625
46.09375 -11.009033203125 4.427734375
-34.1083984375 42.925537109375 -8.332763671875
-16.856201171875 46.021484375 50.001220703125
14.546630859375 -29.588134765625 13.50634765625
14.34765625 45.6171875 -18.27001953125
-46.17919921875 60.281982421875 -19.39892578125
47.6103515625 -57.793701171875 -27.0009765625
-20.21240234375 58.226806640625 28.435546875
24.891357421875 -15.240966796875 33.706298828125
-66.335693359375 58.748046875 33.19775390625
7.25927734375 56.2373046875 56.437744140625
-31.65185546875 38.122314453125 -5.355224609375
9.74755859375 52.194091796875 -16.747314453125
-38.527099609375 3.668701171875 0.308349609375
9.052978515625 -32.62939453125 20.639404296875
-16.98974609375 49.8857421875 -12.453125
38.26220703125 -7.01318359375 4.62939453125
-23.72021484375 75.433349609375 62.43408203125
-51.63134765625 -1.309814453125 -4.081787109375
58.04345703125 -54.44384765625 -0.24462890625
26.55322265625 3.55517578125 7.38916015625
0.833984375 -24.177490234375 18.5185546875
61.34326171875 -54.169677734375 -24.8017578125
-38.946533203125 35.102783203125 46.52783203125
-25.63671875 60.185791015625 -15.5068359375
-26.176513671875 38.069580078125 0.424072265625
-49.169921875 47.359130859375 -8.135498046875
-35.058837890625 -5.415283203125 -3.10400390625
-45.4521484375 29.665771484375 -2.658935546875
-44.182861328125 33.713623046875 -1.6728515625
-30.583251953125 -17.234619140625 6.115478515625
-29.41259765625 37.13916015625 -2.109375
-5.42578125 67.294189453125 53.302978515625
1.5517578125 63.913330078125 51.437744140625
-17.05322265625 60.687744140625 42.7197265625
37.4189453125 5.134033203125 7.375
-33.578125 39.587646484375 48.640380859375
-9.19189453125 -41.3955078125 17.8173828125
-9.008544921875 59.37255859375 46.5126953125
-50.638427734375 58.059814453125 -17.0771484375
-26.64990234375 4.675537109375 9.199462890625
-42.454345703125 43.212646484375 -8.003662109375
19.248779296875 -26.5322265625 24.6240234375
41.531982421875 18.32861328125 -9.234375
6.86572265625 45.308837890625 -16.317138671875
-1.5712890625 -30.865234375 16.52197265625
-54.950927734375 47.225341796875 -9.298095703125
-24.55859375 50.04931640625 6.26513671875
-23.239501953125 53.22119140625 2.18359375
-17.55322265625 58.482666015625 -16.70263671875
37.900390625 -25.88525390625 9.9580078125
-31.60986328125 30.50048828125 -5.93212890625
13.467041015625 38.542236328125 -15.225341796875
-44.450439453125 10.819091796875 4.897705078125
2.41015625 56.635498046875 -16.365234375
-8.197509765625 -33.89990234375 14.283203125
-3.8310546875 52.940673828125 -16.4130859375
-8.724853515625 8.25537109375 9.4619140625
56.12109375 -4.73046875 9.78515625
-60.01171875 61.235595703125 35.22216796875
31.672119140625 -13.776123046875 12.554931640625
-0.099853515625 -33.146728515625 13.755615234375
4.810546875 -45.059326171875 17.672607421875
41.4375 -5.119384765625 5.469970703125
15.753173828125 -22.276123046875 10.928955078125
50.01904296875 12.08837890625 9.868896484375
-17.550537109375 2.93896484375 3.8291015625
-26.844482421875 0.73779296875 3.694091796875
52.604248046875 -9.6953125 11.21875
24.56640625 -8.76123046875 32.7978515625
45.374267578125 -23.015625 9.378662109375
11.208740234375 -14.9375 10.0078125
-34.612548828125 49.764404296875 -17.29052734375
5.93017578125 -17.349365234375 13.556884765625
36.318603515625 -10.960693359375 6.6181640625
51.510986328125 -47.491455078125 -27.56396484375
28.351318359375 -4.244384765625 6.9697265625
34.732177734375 33.230224609375 24.971923828125
-4.494384765625 -13.232177734375 6.373046875
-5.021240234375 34.00048828125 47.76904296875
-25.794921875 48.75048828125 38.009521484375
21.14111328125 43.006103515625 -18.87109375
-7.397216796875 65.101806640625 49.3798828125
-20.833740234375 1.875 5.200927734375
-19.797119140625 -6.274169921875 3.86083984375
-26.277587890625 65.88525390625 -17.27587890625
10.764404296875 27.226806640625 44.259521484375
-9.559326171875 29.596435546875 45.83740234375
20.59521484375 -7.619140625 8.555419921875
-5.53857421875 -27.920166015625 20.885986328125
-52.1513671875 5.704345703125 2.303955078125
-18.74658203125 77.251220703125 68.172119140625
17.170166015625 -52.08203125 14.4453125
26.780029296875 -10.748291015625 11.7060546875
31.874755859375 29.07080078125 -18.317138671875
-42.0859375 -7.91650390625 -4.922119140625
-24.52783203125 55.308349609375 16.40087890625
-26.4892578125 42.590576171875 49.791748046875
-73.79541015625 61.430908203125 32.472412109375
32.459716796875 -48.63037109375 -30.11865234375
52.62548828125 14.388916015625 15.8408203125
12.47900390625 13.617919921875 23.715087890625
-42.05615234375 37.14990234375 47.436767578125
55.36865234375 -25.404296875 7.676513671875
-15.466064453125 -3.44775390625 4.925048828125
-23.1787109375 46.6162109375 46.998046875
-33.7919921875 72.087890625 -11.07421875
62.5244140625 -57.12060546875 5.1083984375
0.62353515625 61.978515625 -12.530029296875
-17.010498046875 24.303466796875 38.835205078125
-20.799560546875 50.4072265625 38.071044921875
-40.7958984375 46.5673828125 -11.4482421875
-61.549072265625 5.572021484375 1.72314453125
-2.055908203125 27.851806640625 42.704345703125
5.73046875 11.436279296875 16.13916015625
-30.794189453125 -15.8623046875 0.13720703125
-22.654296875 -17.656982421875 8.552001953125
21.44482421875 3.13623046875 7.826904296875
-9.699462890625 -24.9462890625 23.90673828125
-2.018310546875 -51.148193359375 14.936279296875
-35.562255859375 56.512451171875 -19.694580078125
-5.098876953125 -39.894287109375 16.2822265625
-41.854736328125 37.454345703125 -1.258056640625
0.39111328125 53.003173828125 56.0244140625
8.289306640625 53.642333984375 58.661376953125
-37.175048828125 38.211181640625 -9.004638671875
-26.13232421875 57.46533203125 -18.1962890625
8.080078125 -19.564697265625 20.13427734375
27.721923828125 26.89306640625 -13.016845703125
-53.8203125 50.604736328125 -13.745361328125
-6.810791015625 -32.30322265625 19.390380859375
-56.8876953125 2.73974609375 -0.203369140625
40.492431640625 -18.5400390625 9.101806640625
47.514404296875 14.493896484375 -14.119873046875
-21.35400390625 54.132568359375 29.991943359375
-29.3056640625 59.377685546875 -19.49560546875
32.66796875 -63.732177734375 -30.61572265625
55.60595703125 -9.828857421875 13.651123046875
53.749755859375 -59.366943359375 -24.879150390625
-5.36474609375 48.41845703125 -12.73779296875
3.881591796875 -19.89453125 19.855712890625
-38.474365234375 67.261962890625 -15.595703125
18.73486328125 -14.659423828125 29.331298828125
-36.569091796875 -10.54638671875 -2.9287109375
-40.635009765625 -10.97412109375 -3.493896484375
-31.8154296875 -4.456787109375 2.209228515625
0.07275390625 -0.112060546875 3.195556640625
49.234130859375 -50.187744140625 -27.64794921875
17.412353515625 -14.382568359375 19.826904296875
-32.2421875 74.481689453125 -9.004638671875
-30.479736328125 -18.760498046875 9.286376953125
7.892333984375 48.70849609375 -17.599853515625
-32.404052734375 27.03662109375 -5.619384765625
30.829345703125 36.231201171875 24.789794921875
-26.61962890625 44.64697265625 -7.47314453125
55.494384765625 -49.604736328125 -26.184326171875
-8.96923828125 37.5771484375 48.72021484375
21.867919921875 35.816650390625 -17.8037109375
-11.58447265625 -22.845703125 9.114013671875
7.8203125 19.929443359375 31.746337890625
41.8544921875 25.73583984375 20.550537109375
36.169921875 22.68896484375 21.236083984375
-10.2783203125 55.7431640625 -16.416748046875
-31.389404296875 46.103759765625 -10.9833984375
53.820068359375 -16.63525390625 4.373046875
-21.2353515625 54.115234375 -16.727783203125
33.807373046875 -56.851806640625 -30.953369140625
47.921630859375 -43.835693359375 -29.0380859375
-10.509033203125 60.579833984375 -16.06884765625
8.250244140625 24.054443359375 33.8359375
25.15966796875 -12.882568359375 16.495849609375
-10.5419921875 -26.743408203125 10.62060546875
-56.392822265625 9.4208984375 4.17724609375
-26.50048828125 34.1376953125 -1.14794921875
-54.221435546875 -8.047119140625 -7.046875
28.129150390625 -8.144287109375 37.5732421875
0.075927734375 -15.6142578125 8.94921875
15.7607421875 -16.39013671875 12.7353515625
49.516357421875 -12.6572265625 6.32763671875
-48.97509765625 3.403564453125 -0.77197265625
-20.18310546875 30.69775390625 48.125732421875
-45.667236328125 -1.5908203125 -3.9267578125
20.429931640625 -12.884765625 17.025390625
25.514404296875 -18.7822265625 32.65771484375
-29.253173828125 33.706298828125 46.96923828125
-3.003173828125 -34.552978515625 19.728271484375
0.045654296875 4.540283203125 4.82421875
-24.76171875 51.895263671875 -14.267333984375
-24.972412109375 -4.006103515625 2.06689453125
-23.187255859375 26.03173828125 45.755126953125
16.345947265625 -0.380615234375 6.044677734375
-30.970703125 41.8310546875 -5.241455078125
-23.936767578125 -10.41259765625 4.01806640625
35.570556640625 -16.075927734375 11.608154296875
-41.795166015625 -1.8359375 -3.98779296875
-19.20068359375 22.44873046875 32.77197265625
44.520751953125 14.890625 10.38623046875
-33.6328125 -8.593994140625 -3.1484375
-39.0869140625 -4.81103515625 -5.5712890625
-19.689697265625 45.881103515625 48.109130859375
11.644775390625 18.174560546875 30.294921875
-0.2607421875 44.18798828125 -8.31494140625
-31.561767578125 68.411376953125 -12.3115234375
53.327880859375 11.767333984375 -15.52685546875
49.173828125 -54.81103515625 -27.299560546875
-6.75830078125 -16.234619140625 7.453125
-3.126708984375 -21.841552734375 20.913330078125
4.354248046875 -48.091796875 16.073974609375
39.017333984375 -65.462890625 -27.70556640625
19.789794921875 -39.430908203125 19.889404296875
21.264892578125 -19.530517578125 29.864501953125
29.470947265625 24.749755859375 -8.584228515625
14.701904296875 -32.512451171875 15.155517578125
-24.69482421875 -17.773681640625 11.670166015625
42.95458984375 -57.3759765625 -28.83447265625
-10.084228515625 66.95166015625 48.609130859375
38.123046875 25.62548828125 -19.09716796875
-11.819580078125 66.50537109375 -9.2900390625
29.5087890625 -14.701416015625 37.222900390625
45.381591796875 23.794677734375 19.772216796875
1.3095703125 30.96142578125 46.070068359375
-34.204345703125 62.5166015625 -17.75830078125
-6.904052734375 -1.345703125 2.41650390625
-14.685302734375 -9.704833984375 6.087646484375
1.759521484375 59.8291015625 -15.649169921875
42.536376953125 -21.811279296875 6.28125
40.08642578125 0.094970703125 6.2392578125
-4.186767578125 20.167724609375 34.04248046875
12.826416015625 -7.591552734375 7.4912109375
-14.8564453125 56.518310546875 45.937744140625
-5.53662109375 59.60400390625 -17.213623046875
-1.127197265625 -4.824951171875 3.42626953125
28.90576171875 30.430419921875 -17.748779296875
-37.19287109375 40.90673828125 -6.1796875
-59.075927734375 57.95361328125 35.823974609375
-39.513427734375 33.096435546875 -7.4697265625
-18.18017578125 50.794921875 44.865966796875
-2.554931640625 -45.43115234375 16.83056640625
49.648681640625 20.226318359375 13.0771484375
55.022705078125 -56.997802734375 1.71875
-22.953857421875 31.921630859375 45.95263671875
-29.3076171875 5.9794921875 7.52099609375
5.0302734375 51.889404296875 58.7470703125
-65.368896484375 56.110107421875 35.196044921875
-68.26318359375 53.18896484375 35.998046875
-2.171875 60.13623046875 47.034423828125
-25.772216796875 21.219482421875 41.77490234375
-13.43505859375 -0.8662109375 4.98876953125
11.77490234375 24.130859375 43.86474609375
-18.865478515625 39.00146484375 49.452880859375
-33.8349609375 -19.73681640625 1.072509765625
-27.80078125 -18.863525390625 15.703857421875
61.17333984375 -54.723876953125 3.33447265625
-21.142333984375 0.605712890625 -0.37109375
-80.068603515625 57.727783203125 32.1484375
-26.019775390625 7.384765625 15.038818359375
-48.844482421875 50.40380859375 -14.3564453125
-29.16748046875 22.630859375 42.403564453125
-36.86181640625 42.12890625 48.315185546875
6.8798828125 -34.221435546875 16.76904296875
-11.4423828125 25.740966796875 44.3916015625
7.8251953125 42.44970703125 -14.548583984375
49.311279296875 -9.40185546875 8.01904296875
57.53662109375 -43.60498046875 -26.97802734375
36.167724609375 -41.887939453125 -32.030029296875
-29.532958984375 44.259765625 48.608642578125
2.37109375 -6.942626953125 3.008544921875
-27.56689453125 -6.7451171875 2.648193359375
0.460205078125 -11.08203125 4.583740234375
11.757568359375 -26.3466796875 21.477783203125
40.861572265625 -45.096435546875 -30.24609375
-27.280517578125 54.811279296875 -19.964111328125
5.04248046875 -0.2314453125 3.623046875
44.631591796875 -52.18505859375 -22.158935546875
-35.015869140625 5.232177734375 1.376708984375
-56.228515625 48.540283203125 -3.754150390625
-23.1884765625 48.778076171875 40.679443359375
-9.11572265625 49.826171875 -13.260986328125
-36.12646484375 25.56396484375 -4.33349609375
25.1865234375 5.7333984375 10.420166015625
-5.552978515625 57.78759765625 47.943359375
52.518310546875 -27.4208984375 7.6123046875
24.935546875 -9.497802734375 35.871826171875
-39.8759765625 65.167236328125 -18.039306640625
7.30029296875 -27.4873046875 16.139404296875
5.738037109375 51.1689453125 -17.580078125
40.73291015625 6.327392578125 7.512939453125
50.6865234375 14.032470703125 -16.707763671875
36.336181640625 -59.819091796875 -30.063720703125
-18.676025390625 18.54443359375 29.03369140625
-24.422119140625 47.4560546875 44.207275390625
-11.715576171875 42.344970703125 50.274658203125
54.291259765625 -7.603759765625 7.7275390625
-56.2177734375 -3.8076171875 -5.47998046875
-7.6708984375 -11.28369140625 5.228515625
42.63525390625 -10.1298828125 8.59716796875
-47.707275390625 -7.208740234375 -6.199951171875
-8.012939453125 -37.082275390625 13.84130859375
-9.38134765625 3.92333984375 5.26171875
0.87890625 44.754150390625 -11.759033203125
39.515380859375 27.49951171875 18.918212890625
-46.371337890625 46.271728515625 3.983154296875
-23.04345703125 52.0771484375 31.65771484375
-46.933349609375 40.96923828125 47.572021484375
-19.65673828125 -18.123779296875 13.918701171875
-38.130615234375 51.989013671875 -18.943115234375
-6.526611328125 -8.462890625 3.5107421875
-19.888671875 56.311279296875 41.432861328125
-12.3173828125 62.072265625 44.27099609375
46.392822265625 -48.77880859375 -23.71875
-46.765625 -12.192626953125 -4.126953125
-47.6953125 54.5859375 -16.09814453125
3.352783203125 -34.702880859375 13.454345703125
-34.62841796875 47.38916015625 -13.620361328125
44.533203125 21.56884765625 16.56005859375
-8.989990234375 -32.0380859375 11.907470703125
-26.11962890625 47.618408203125 -9.91943359375
33.792724609375 24.312744140625 -14.8603515625
-39.85205078125 37.728271484375 -5.44189453125
51.27001953125 -22.3046875 4.948486328125
10.014404296875 25.908447265625 38.606689453125
-51.33154296875 1.4453125 -2.685546875
-15.41015625 1.367431640625 5.847900390625
-42.23388671875 8.348388671875 3.596923828125
-37.25927734375 0.7802734375 -2.304931640625
-7.315185546875 -20.546142578125 16.362548828125
-49.117431640625 40.189697265625 56.0400390625
-28.13623046875 -20.223876953125 20.744140625
-12.427734375 35.487548828125 47.887451171875
45.966552734375 -14.154296875 5.27880859375
-12.32666015625 -16.048583984375 9.6171875
37.225341796875 -12.6630859375 11.608154296875
-57.87548828125 0.228515625 -2.189453125
18.773681640625 -13.278564453125 14.474365234375
37.597900390625 -44.5107421875 -31.33740234375
-24.2412109375 49.892333984375 -3.92431640625
3.065185546875 59.18798828125 51.226318359375
10.50537109375 45.673583984375 -17.813720703125
-41.914306640625 67.750244140625 -14.270263671875
3.08056640625 -11.935546875 6.2216796875
-20.635498046875 80.237060546875 65.355712890625
35.578369140625 -1.5458984375 5.890625
-17.599365234375 14.915283203125 24.8115234375
-15.821044921875 30.160400390625 45.098388671875
18.23681640625 36.00341796875 -16.055908203125
-27.251953125 30.69482421875 -2.78173828125
41.90478515625 -47.993896484375 -21.942138671875
5.92236328125 57.49560546875 -15.03955078125
-32.115966796875 40.4970703125 -2.27978515625
-61.7177734375 53.494873046875 37.668701171875
-34.34814453125 27.030517578125 44.173583984375
41.748779296875 -61.8603515625 -28.31396484375
62.6103515625 -46.853271484375 -25.2529296875
-15.588134765625 51.97216796875 43.45458984375
42.807861328125 -26.083251953125 10.0908203125
18.638916015625 33.54638671875 -13.55419921875
13.673828125 -21.85400390625 13.092041015625
-69.980712890625 58.364990234375 32.89501953125
-25.78271484375 -21.18798828125 13.125244140625
31.325927734375 -0.195068359375 6.460693359375
64.44189453125 -50.97314453125 -21.788818359375
-52.3359375 60.505615234375 -16.204833984375
-23.8603515625 62.55322265625 -16.093017578125
50.353515625 -64.76806640625 -25.103271484375
-9.172607421875 -5.7724609375 5.572998046875
30.2451171875 -11.64306640625 10.97802734375
-29.115478515625 36.5517578125 47.93994140625
35.33935546875 -6.33154296875 4.84033203125
52.540283203125 4.55908203125 9.28955078125
-18.138427734375 55.36572265625 46.201416015625
8.17578125 5.582275390625 6.397705078125
-9.994873046875 0.86083984375 6.494140625
43.672607421875 3.844482421875 7.29833984375
35.252685546875 -24.062744140625 11.10107421875
-9.94482421875 3.185791015625 2.182861328125
38.40234375 -20.953857421875 9.31884765625
-31.599853515625 51.67041015625 -17.651123046875
57.84130859375 -21.741455078125 11.1259765625
-16.326171875 80.55810546875 67.789306640625
13.769775390625 34.9951171875 -12.145751953125
-2.37451171875 46.86572265625 -12.63623046875
11.341796875 5.406005859375 7.5478515625
-2.808837890625 21.42529296875 31.5322265625
-72.2138671875 62.42138671875 34.845947265625
55.62255859375 -18.24560546875 6.12353515625
8.952880859375 17.055908203125 25.978759765625
10.391845703125 -16.7275390625 12.2421875
13.86962890625 -3.337158203125 6.052734375
37.605712890625 20.45458984375 -13.02734375
6.093017578125 41.459228515625 -12.116943359375
23.807861328125 1.612060546875 8.83251953125
-42.77587890625 3.4111328125 0.163330078125
17.461669921875 5.0830078125 8.76806640625
38.6875 22.81591796875 -17.442138671875
-41.33251953125 -16.35986328125 -1.561279296875
-24.460205078125 77.975830078125 61.110107421875
42.391357421875 17.81640625 -12.29443359375
-15.396484375 41.107666015625 50.29248046875
20.05859375 -20.90185546875 26.989501953125
2.168212890625 51.235595703125 59.114013671875
14.326904296875 -37.755615234375 17.59619140625
-75.215576171875 55.580078125 33.634033203125
47.324951171875 -16.770263671875 4.235595703125
3.587646484375 27.08154296875 44.010009765625
-50.353271484375 37.65966796875 52.16650390625
-28.400146484375 -15.32861328125 5.60791015625
-46.609375 8.213134765625 3.742919921875
19.62890625 -36.592041015625 20.637451171875
8.983642578125 -44.384521484375 17.6591796875
1.385986328125 50.07373046875 -16.759521484375
-12.822021484375 -5.424560546875 4.7861328125
12.945068359375 -23.580322265625 19.42578125
-71.775146484375 55.35107421875 34.74755859375
49.476806640625 8.414306640625 10.6630859375
-22.20263671875 60.433349609375 -17.243896484375
-19.947021484375 -15.07568359375 7.5380859375
-10.583984375 46.36669921875 -8.22607421875
-15.443115234375 62.97021484375 43.573486328125
20.9814453125 -13.62451171875 21.22119140625
8.40185546875 -21.66455078125 23.086669921875
4.981689453125 -39.257568359375 18.35302734375
-3.8935546875 -15.818115234375 7.80712890625
7.139404296875 60.306396484375 -12.974365234375
52.60888671875 13.0322265625 12.545654296875
-0.615234375 -48.776123046875 15.94482421875
6.710205078125 -30.67626953125 13.02197265625
-44.174072265625 41.303955078125 1.714111328125
-25.705078125 38.7265625 48.9453125
48.2080078125 14.930419921875 11.03173828125
-26.84375 -9.946533203125 3.659912109375
-12.4208984375 -20.52490234375 10.627197265625
9.180908203125 -27.882568359375 21.775634765625
-36.343994140625 72.049072265625 -9.71484375
10.29150390625 -39.248046875 19.131591796875
-58.447265625 -2.257568359375 -4.087646484375
15.67919921875 -45.53759765625 17.627685546875
-31.994384765625 -1.0244140625 0.69482421875
-31.737060546875 -9.06396484375 -0.6083984375
-0.303955078125 63.630615234375 -10.36083984375
13.44140625 -30.9912109375 19.60205078125
53.901611328125 -43.4609375 -28.251220703125
49.263671875 -24.6416015625 7.753173828125
-16.76318359375 61.587890625 -16.883544921875
-20.616455078125 16.359375 33.88818359375
-31.96337890625 -21.44921875 3.9140625
-28.69287109375 26.042236328125 43.7666015625
-48.293212890625 60.02734375 -16.530517578125
15.046875 -10.984375 9.354736328125
48.33349609375 -60.899169921875 -26.803955078125
-20.745361328125 23.02587890625 37.485595703125
47.358154296875 -22.071044921875 3.8349609375
1.612060546875 65.46484375 55.89697265625
-21.829833984375 41.83837890625 49.8857421875
-27.907470703125 41.078857421875 1.64794921875
2.21630859375 -23.45703125 22.138671875
16.7236328125 38.78857421875 -17.060302734375
-2.77685546875 54.8076171875 50.611083984375
21.866455078125 4.91943359375 10.135986328125
14.856689453125 3.62890625 6.970458984375
18.580078125 -45.64306640625 17.687744140625
22.358642578125 -13.453125 33.290771484375
32.718505859375 -10.512451171875 8.468994140625
-34.963134765625 -0.81787109375 -2.643798828125
47.7119140625 21.162109375 14.995361328125
-26.666259765625 50.30810546875 0.50634765625
53.068359375 -13.45458984375 10.57275390625
-16.23583984375 21.75927734375 39.7509765625
10.235595703125 -49.240478515625 15.90576171875
19.61376953125 -1.67529296875 6.616455078125
-28.351318359375 31.45068359375 -5.36328125
56.969970703125 -51.986083984375 -25.997314453125
-22.67529296875 80.099365234375 59.301513671875
-0.73291015625 28.288330078125 45.1396484375
-3.115234375 58.392333984375 -16.48828125
-23.80712890625 49.84912109375 -12.62109375
-75.834716796875 51.87939453125 36.371826171875
-39.8623046875 41.7802734375 -7.696533203125
0.29541015625 -38.974365234375 18.59228515625
-29.41259765625 -11.467529296875 3.951171875
-18.71484375 55.30908203125 -16.732177734375
25.74658203125 -3.43603515625 7.54248046875
-44.734375 49.19970703125 -13.334716796875
56.843017578125 -14.409423828125 13.2783203125
9.122802734375 55.357666015625 -16.035888671875
2.245361328125 -30.463134765625 14.333251953125
-30.793701171875 35.50146484375 -4.90234375
50.39453125 0.017822265625 6.44384765625
41.236328125 -48.20751953125 -25.147705078125
-43.87939453125 63.1787109375 -18.8720703125
-2.896484375 66.22509765625 52.4794921875
-15.6357421875 25.905029296875 40.621826171875
-49.0029296875 48.76171875 -12.001953125
20.183837890625 -49.24169921875 15.871337890625
-41.389892578125 41.22900390625 47.84765625
15.790283203125 -28.68896484375 11.21044921875
-30.716796875 31.776123046875 45.624267578125
11.99853515625 -18.974609375 17.324462890625
-32.782958984375 -24.101318359375 7.49267578125
-45.31494140625 -15.250244140625 -2.698974609375
57.757080078125 -47.652587890625 -25.958740234375
-1.15673828125 -17.02490234375 10.967529296875
-24.08251953125 57.99560546875 16.024658203125
-17.99951171875 34.03173828125 48.25390625
54.710205078125 -54.320556640625 -26.2138671875
50.517578125 -44.597900390625 -28.564697265625
4.189697265625 24.87939453125 41.051513671875
-2.018310546875 -18.715087890625 17.305419921875
12.040283203125 -23.53564453125 22.013671875
4.138427734375 45.969970703125 -15.37451171875
-38.346923828125 62.9384765625 -18.487548828125
-1.0380859375 -33.577392578125 16.29150390625
-25.76708984375 24.681396484375 43.22021484375
-25.17626953125 -15.239990234375 6.322265625
-23.48974609375 19.725341796875 41.968017578125
-16.975341796875 47.84619140625 43.969970703125
48.0810546875 -5.658447265625 5.04443359375
-9.824951171875 -21.98486328125 14.3916015625
38.988525390625 -51.3671875 -30.300048828125
-7.724365234375 -34.461181640625 17.989990234375
-34.7724609375 45.828857421875 46.8642578125
60.1083984375 -57.07421875 -24.194580078125
39.9638671875 -59.664794921875 -29.054443359375
50.411376953125 -15.129150390625 5.629638671875
45.504150390625 -3.873291015625 5.888916015625
20.07958984375 -31.634765625 22.578369140625
-18.245361328125 53.791015625 42.6904296875
-50.81640625 7.83544921875 3.309326171875
56.045166015625 -57.9375 -25.013916015625
-43.57080078125 50.951416015625 -16.236572265625
-34.230224609375 65.923828125 -16.61474609375
14.460205078125 -14.163330078125 15.06787109375
-19.1337890625 53.473388671875 36.39697265625
-5.38525390625 50.18115234375 -14.7841796875
7.777587890625 -30.012451171875 20.441162109375
-43.641357421875 31.5888671875 -3.245849609375
-5.506103515625 -45.709716796875 16.91259765625
33.403564453125 22.78662109375 -12.394287109375
-26.8994140625 27.09765625 -3.614013671875
-22.467529296875 55.31103515625 22.9033203125
-26.665771484375 46.361572265625 1.11181640625
6.703369140625 -23.748046875 23.228515625
-31.40087890625 41.11083984375 49.065185546875
-27.798583984375 43.62109375 -0.916748046875
-31.44873046875 -7.0673828125 1.223876953125
55.284912109375 15.226318359375 18.269287109375
-14.895263671875 56.371826171875 -16.797607421875
-31.12939453125 38.318359375 48.333984375
14.770751953125 -49.79541015625 16.10302734375
28.33056640625 35.46630859375 -19.450927734375
29.241455078125 33.218017578125 -17.451904296875
-49.28466796875 -2.517333984375 -4.560791015625
27.082275390625 36.4638671875 29.06884765625
25.594970703125 -12.533447265625 13.875
38.836181640625 25.039794921875 20.6357421875
-5.351806640625 -24.165283203125 21.577392578125
-20.611572265625 49.63525390625 -11.619384765625
-35.04248046875 35.718994140625 -10.102783203125
-14.970947265625 48.20361328125 -9.887939453125
-20.22021484375 2.168701171875 2.61328125
48.543212890625 -8.486328125 4.559814453125
-28.793212890625 -21.034423828125 18.285888671875
0.041748046875 -42.969970703125 18.209228515625
-38.833984375 69.114990234375 -12.99169921875
-28.57666015625 47.350341796875 -13.73388671875
-51.8251953125 47.149658203125 -7.99755859375
-35.460693359375 29.418212890625 -5.860595703125
-67.611572265625 60.932861328125 32.338623046875
42.85400390625 -41.81591796875 -30.859375
-45.21728515625 -6.029541015625 -6.204345703125
64.279296875 -46.25048828125 -23.19482421875
59.355224609375 -41.830322265625 -26.193359375
-14.578857421875 43.615966796875 50.506103515625
22.39599609375 -8.609130859375 35.4423828125
8.77783203125 -6.8076171875 6.635498046875
-0.7060546875 52.791015625 -17.15625
27.69384765625 38.767578125 27.922607421875
-57.58837890625 47.41162109375 -9.308349609375
-48.681640625 38.341552734375 49.29638671875
43.1728515625 7.244384765625 7.93896484375
19.044921875 -5.210205078125 7.69580078125
-40.0888671875 6.64794921875 0.79296875
-8.970947265625 58.621337890625 -16.93896484375
-24.218994140625 47.646728515625 5.23095703125
39.578369140625 -10.161376953125 6.897216796875
4.060302734375 -15.850341796875 10.0927734375
16.031005859375 -13.84814453125 29.968505859375
24.03564453125 32.107421875 -15.833984375
11.334716796875 -20.8486328125 23.300537109375
-5.43115234375 65.783447265625 51.144775390625
-53.460693359375 11.257080078125 5.778564453125
-2.826904296875 -7.10986328125 1.804931640625
-33.158447265625 -14.7353515625 -0.717041015625
-37.901123046875 -20.16455078125 0.50732421875
-79.7119140625 53.45849609375 34.868408203125
19.685546875 -43.34912109375 18.344482421875
-21.671142578125 -12.21337890625 5.452880859375
42.512939453125 1.00390625 6.662353515625
52.217041015625 -9.206787109375 7.802734375
-35.1953125 37.42626953125 47.9462890625
-59.477783203125 -5.565673828125 -7.085205078125
-33.649658203125 26.311279296875 0.91455078125
-19.240478515625 54.561279296875 38.77392578125
55.845947265625 -52.678466796875 -1.46533203125
20.092529296875 31.781982421875 -12.287353515625
-35.93310546875 33.0234375 -11.13134765625
-20.2470703125 47.931396484375 -9.3359375
48.32958984375 25.14697265625 20.1416015625
41.0576171875 -2.54931640625 5.25146484375
-6.259765625 3.93212890625 4.613037109375
50.888671875 21.187744140625 16.60986328125
-3.01513671875 -10.5693359375 3.093017578125
-50.17626953125 -8.003662109375 -6.338623046875
-37.35009765625 -17.469482421875 -0.423583984375
42.063232421875 21.019775390625 15.97412109375
-8.69140625 -0.3857421875 4.626708984375
-28.045166015625 48.52685546875 -15.985107421875
-43.210693359375 27.515380859375 -4.076416015625
-43.252685546875 44.569091796875 47.26953125
0.748291015625 54.593994140625 54.020751953125
-7.235107421875 -18.4111328125 9.896728515625
42.63232421875 -11.23046875 11.525634765625
-22.72314453125 50.76513671875 36.388671875
-14.5908203125 -19.31396484375 12.51708984375
-35.931396484375 69.524658203125 -10.837646484375
-30.515869140625 -17.196044921875 2.548583984375
-52.48046875 39.262451171875 58.122802734375
-17.599365234375 22.110107421875 35.687744140625
4.891357421875 -32.292236328125 11.803466796875
-39.365966796875 25.6591796875 -3.553955078125
-48.864501953125 46.172607421875 3.390625
61.936767578125 -43.78369140625 -25.6953125
-43.96728515625 56.19921875 -18.83349609375
-40.1171875 59.8291015625 -19.356689453125
-59.105224609375 7.4462890625 3.383544921875
0.60498046875 6.755859375 5.968994140625
-38.443359375 45.94921875 -10.440185546875
3.228515625 62.300048828125 52.563232421875
46.28076171875 -1.1181640625 6.3076171875
63.16162109375 -52.422119140625 -24.01611328125
-8.1015625 -30.118896484375 19.187255859375
17.51904296875 -20.82275390625 26.8564453125
-9.199951171875 -16.444580078125 8.963623046875
9.6904296875 -18.51953125 18.289794921875
9.544677734375 -10.54638671875 7.355712890625
-63.630615234375 58.27392578125 33.659423828125
-24.2392578125 42.50341796875 4.284912109375
34.63623046875 -46.906982421875 -31.79931640625
-18.051025390625 30.990478515625 46.784912109375
42.2861328125 -46.883056640625 -27.036865234375
-51.2568359375 50.698486328125 -15.076171875
-30.236572265625 -21.037841796875 10.3720703125
-0.405517578125 56.458251953125 50.198974609375
34.994140625 -49.612548828125 -31.545654296875
-9.562744140625 -19.860595703125 12.939697265625
42.621337890625 18.8505859375 11.9951171875
12.272216796875 51.553466796875 -16.724609375
36.716796875 -55.57275390625 -30.221923828125
-7.731201171875 -23.273193359375 22.563720703125
-29.82470703125 62.507080078125 -18.014404296875
-36.67626953125 27.607421875 5.582763671875
-41.649169921875 53.49072265625 -17.38330078125
34.98193359375 4.6630859375 6.94873046875
21.809326171875 -11.464599609375 11.427978515625
-20.47998046875 37.270263671875 48.601806640625
49.849853515625 4.50537109375 7.6474609375
6.71826171875 23.205810546875 37.319091796875
54.34765625 -5.091796875 7.44091796875
-75.133544921875 53.255126953125 38.444580078125
6.693359375 -10.46484375 4.792724609375
12.25634765625 28.77099609375 45.9013671875
25.235107421875 6.80810546875 17.6826171875
14.63818359375 -51.891357421875 14.738525390625
41.906005859375 20.48583984375 -17.254638671875
-25.41552734375 -18.919189453125 9.5673828125
33.2509765625 32.1259765625 23.2890625
-42.2880859375 -19.059326171875 -0.701171875
-61.560546875 59.46337890625 34.392822265625
54.447509765625 -1.385498046875 10.217529296875
-3.85009765625 23.984375 34.170654296875
18.6572265625 43.182373046875 -18.888427734375
23.303955078125 -2.578125 7.114990234375
10.028564453125 -46.837646484375 16.7783203125
11.3955078125 40.38720703125 -15.467529296875
50.279541015625 -16.347900390625 3.466552734375
40.79931640625 -20.179443359375 6.982666015625
-58.20703125 46.81298828125 -2.724365234375
-18.0703125 50.635986328125 42.302490234375
8.46337890625 51.89111328125 60.412353515625
-11.5400390625 47.95751953125 -9.87353515625
-45.345947265625 0.3251953125 -2.384765625
39.70947265625 -47.7841796875 -30.132080078125
29.83251953125 25.9599609375 -5.815185546875
-11.22021484375 58.337890625 46.099853515625
-3.13232421875 -37.078857421875 18.6162109375
21.62890625 39.29833984375 -19.012451171875
-76.66943359375 54.07373046875 35.58935546875
5.623779296875 -14.334228515625 8.438232421875
-3.4609375 5.365478515625 5.254638671875
9.1845703125 59.013427734375 -12.458740234375
42.224609375 -50.31494140625 -26.590576171875
-22.4453125 81.088623046875 62.487548828125
52.09375 -5.615478515625 5.746826171875
15.19677734375 -41.359130859375 19.971923828125
-11.458740234375 65.517822265625 46.412841796875
60.671630859375 -59.41259765625 -22.7783203125
-21.298583984375 63.920654296875 42.572509765625
16.1103515625 43.943603515625 -18.64306640625
-37.037841796875 30.516357421875 45.174560546875
-54.5146484375 5.106201171875 1.583740234375
-0.58740234375 63.134765625 50.51806640625
-32.854736328125 0.944091796875 -1.237060546875
-38.8994140625 50.324951171875 -15.8544921875
-32.079833984375 35.331787109375 -11.49462890625
-16.414794921875 58.387451171875 44.328125
-23.539306640625 36.66748046875 47.876953125
-34.063232421875 27.038330078125 5.7294921875
-16.643310546875 -16.159912109375 9.91357421875
-1.15869140625 -22.943603515625 21.862060546875
23.783935546875 35.430908203125 -19.275146484375
-24.6044921875 -1.002685546875 1.839599609375
-11.45166015625 -10.886962890625 6.947998046875
16.377197265625 -13.413330078125 13.754150390625
-75.826904296875 57.454833984375 32.195068359375
-17.0556640625 -18.06689453125 11.943115234375
-34.620849609375 31.8798828125 -9.4248046875
-35.33740234375 35.068603515625 46.984130859375
-18.481689453125 51.614501953125 37.82470703125
6.4990234375 8.2001953125 8.201904296875
-23.961669921875 56.757568359375 -16.5009765625
-5.108642578125 -18.045166015625 13.731689453125
34.030517578125 29.906494140625 -19.05712890625
-38.466552734375 31.28369140625 -6.240478515625
38.8935546875 -54.298583984375 -29.6181640625
4.331787109375 55.647216796875 54.677001953125
26.719482421875 3.804443359375 11.431884765625
-30.265625 53.629150390625 -18.16015625
10.15234375 -13.12890625 8.789306640625
10.524658203125 -35.57763671875 19.80810546875
8.529541015625 -18.5537109375 15.5107421875
51.30419921875 10.069091796875 9.506103515625
-45.986083984375 39.52587890625 0.621826171875
-80.97216796875 56.072998046875 33.848876953125
54.582763671875 6.3828125 13.037353515625
-33.29736328125 33.7353515625 46.436279296875
