17.805908203125 1.404052734375 10.328857421875
3.745361328125 -0.7783203125 -29.132080078125
14.09521484375 -13.21923828125 -14.96875
3.69482421875 15.46875 7.9140625
15.902587890625 -22.98046875 17.80859375
-0.576416015625 16.14501953125 0.72021484375
-7.704345703125 11.212158203125 -29.350830078125
0.9892578125 14.043212890625 -24.275146484375
-0.135986328125 12.70849609375 -0.3798828125
-7.852783203125 -0.40087890625 -27.309326171875
5.037109375 21.5185546875 -1.77734375
9.3310546875 -11.06201171875 13.926513671875
10.202392578125 -14.195556640625 -15.434814453125
-0.984130859375 14.642333984375 -1.43212890625
18.445556640625 -13.145751953125 -0.037353515625
9.501220703125 -3.570556640625 -23.377685546875
17.9150390625 0.681884765625 13.549560546875
7.06591796875 17.647705078125 -23.777099609375
-14.635498046875 8.288330078125 -26.502685546875
2.546630859375 14.618896484375 3.71044921875
4.0595703125 13.83203125 -17.420166015625
18.45654296875 -21.7177734375 0.87890625
16.9423828125 -12.843994140625 21.943115234375
18.708740234375 -22.849365234375 3.737060546875
-9.29833984375 2.568359375 -27.18505859375
18.2109375 -12.913818359375 -4.72705078125
-0.55029296875 10.843017578125 -2.334716796875
-0.179931640625 12.639892578125 -23.090576171875
3.6845703125 14.476318359375 -24.97998046875
0.1318359375 8.78955078125 -26.92041015625
5.290283203125 22.0224609375 4.4140625
10.22802734375 -10.6123046875 -16.336669921875
-10.52197265625 8.885498046875 -28.56591796875
18.18212890625 -16.850341796875 -0.002197265625
11.9384765625 13.85595703125 -15.042724609375
-7.673828125 12.023681640625 -27.52880859375
1.7783203125 7.2470703125 -28.558837890625
3.30517578125 14.744873046875 -5.39599609375
17.487548828125 -9.888427734375 -17.24365234375
12.85546875 11.822509765625 9.4033203125
17.415771484375 5.14892578125 8.91748046875
18.10595703125 -4.97412109375 -10.515869140625
3.514404296875 11.332763671875 -32.913330078125
-10.6376953125 -5.259765625 -25.7421875
17.847900390625 -7.8291015625 6.631103515625
-9.09375 -5.078369140625 -23.6259765625
4.442138671875 13.4560546875 -22.689453125
-12.84912109375 1.858154296875 -27.865478515625
17.98193359375 -3.341552734375 5.57275390625
4.254638671875 19.58251953125 -0.575927734375
17.9375 -8.100830078125 12.535400390625
17.64599609375 -22.78173828125 18.708740234375
17.515869140625 -9.179443359375 -21.27197265625
5.208251953125 13.078857421875 -20.199951171875
-0.624267578125 14.096435546875 -4.767333984375
18.12255859375 -9.256103515625 23.47802734375
14.6064453125 -9.250244140625 14.01416015625
6.75390625 13.440673828125 -16.462158203125
-4.392822265625 0.082763671875 -26.968505859375
5.2119140625 1.406982421875 -29.22705078125
6.597412109375 -16.058837890625 -19.788330078125
4.883056640625 17.5947265625 -30.06982421875
11.43896484375 -10.482177734375 -18.5859375
17.37939453125 8.224609375 31.267578125
4.85546875 17.317626953125 5.3603515625
-16.5146484375 5.1611328125 -30.664306640625
16.68505859375 -9.097412109375 20.427734375
-0.591552734375 10.57080078125 -19.831298828125
18.4677734375 -19.039306640625 -1.309326171875
9.022216796875 15.172119140625 8.55029296875
6.904541015625 17.96875 -3.325927734375
18.029541015625 -2.74560546875 16.69970703125
8.508056640625 20.134521484375 -24.08056640625
15.0478515625 -11.613037109375 -16.072021484375
-0.136962890625 13.299560546875 -6.3740234375
-1.298583984375 0.494873046875 -26.846923828125
3.684814453125 14.60400390625 -9.580078125
-15.417724609375 0.262939453125 -29.44873046875
-3.489990234375 0.042724609375 -25.353271484375
-0.283935546875 11.802978515625 -3.677001953125
20.685302734375 2.198974609375 28.748779296875
19.06982421875 -4.002685546875 19.56005859375
4.189208984375 4.29736328125 0.68994140625
4.000732421875 9.77392578125 7.193603515625
5.654296875 17.294189453125 -31.68359375
18.419189453125 -19.950439453125 5.212890625
-1.99853515625 11.9638671875 -32.208984375
4.3544921875 7.4599609375 4.926025390625
3.758056640625 20.24072265625 2.199951171875
13.68408203125 -15.786865234375 -14.9423828125
2.568603515625 16.299072265625 -0.11669921875
18.472412109375 -15.360595703125 -2.892333984375
18.13818359375 -13.054931640625 4.859619140625
0.851318359375 10.92041015625 4.98388671875
-0.375244140625 8.9033203125 -24.82666015625
18.294189453125 -5.01025390625 17.31103515625
-9.377197265625 -0.454833984375 -27.165283203125
18.20068359375 -13.39501953125 -3.24853515625
-4.438720703125 -2.48046875 -24.889404296875
15.88232421875 -23.2421875 20.910888671875
7.2724609375 4.847900390625 6.523681640625
18.25537109375 -14.778076171875 7.562744140625
2.64599609375 13.709228515625 -27.743408203125
7.359619140625 20.329345703125 -29.034423828125
5.324462890625 0.204345703125 -24.499267578125
21.291748046875 -5.15283203125 24.354248046875
17.921875 -7.30712890625 -21.488037109375
14.5791015625 -9.328369140625 18.69384765625
0.852783203125 13.65283203125 -26.24755859375
-3.07421875 2.133544921875 -28.646728515625
20.582763671875 1.54833984375 25.841796875
9.960205078125 -11.999267578125 19.76904296875
13.232666015625 13.5439453125 -12.9912109375
20.98876953125 -2.507568359375 26.92822265625
-15.8388671875 3.025634765625 -30.630615234375
-14.794677734375 3.853759765625 -28.49755859375
7.56591796875 -12.3486328125 -20.914794921875
13.043212890625 -10.18701171875 -17.6708984375
0.567138671875 11.686767578125 -24.88134765625
7.1474609375 -14.26953125 -20.06787109375
17.93896484375 -4.5771484375 11.55712890625
18.15869140625 -7.41455078125 18.303466796875
-6.479248046875 -1.64404296875 -27.1767578125
11.701171875 -11.0810546875 12.701904296875
9.32861328125 13.754638671875 -11.789306640625
17.82763671875 -0.048828125 7.74658203125
21.000732421875 -0.59716796875 24.601318359375
7.634521484375 -10.152587890625 15.8291015625
9.457275390625 -10.38134765625 16.875732421875
18.840087890625 -22.7275390625 21.289794921875
17.7861328125 -2.308837890625 13.748046875
-4.546142578125 -1.27294921875 -26.07177734375
0.401123046875 15.56640625 -9.267333984375
14.271484375 -10.628662109375 -21.401611328125
15.016845703125 -13.37841796875 10.963134765625
18.09326171875 -1.948974609375 8.11865234375
-14.455078125 6.1669921875 -26.611572265625
18.83447265625 -7.264404296875 -16.867919921875
17.650146484375 2.208251953125 13.387451171875
-6.01025390625 -3.796630859375 -25.767333984375
2.0205078125 13.051513671875 6.173828125
1.87841796875 13.4765625 -20.63525390625
-11.723876953125 1.374267578125 -26.798095703125
18.230224609375 -9.019775390625 9.385009765625
18.05517578125 -11.998291015625 -2.1865234375
0.79541015625 15.48779296875 2.293701171875
19.9609375 -7.16357421875 25.42333984375
18.251953125 -19.49609375 9.211181640625
-0.2685546875 13.437744140625 -10.3212890625
19.05810546875 -14.08154296875 24.587890625
4.44580078125 14.130126953125 -12.748779296875
8.675537109375 14.62158203125 -6.6572265625
6.452880859375 19.498046875 -31.866455078125
15.207763671875 -10.3017578125 -19.953369140625
-7.438720703125 -4.526611328125 -26.5068359375
9.998046875 13.41455078125 -19.0205078125
-5.75 -4.229736328125 -22.802001953125
3.935302734375 4.56689453125 3.005859375
6.57958984375 -0.540283203125 4.001220703125
-6.396240234375 2.165283203125 -28.22705078125
0.697509765625 4.208984375 -28.858154296875
19.385986328125 -21.569580078125 20.177001953125
18.455322265625 -20.2705078125 0.619873046875
-0.86279296875 3.4326171875 -28.29443359375
17.68798828125 -10.5341796875 10.7099609375
18.433349609375 -19.789794921875 3.326171875
6.258056640625 13.0625 -33.23779296875
11.1435546875 -13.074951171875 -15.056396484375
7.099609375 -11.0859375 18.52001953125
1.16064453125 15.182861328125 -3.42236328125
5.100341796875 5.67626953125 4.853759765625
4.275146484375 0.978515625 3.1669921875
1.917724609375 15.22900390625 -5.16748046875
21.142822265625 -3.438232421875 25.11669921875
-7.33642578125 10.52978515625 -28.11376953125
-0.097900390625 15.547119140625 -6.0380859375
7.68603515625 21.798828125 5.5263671875
-0.12451171875 13.22412109375 0.991455078125
8.949462890625 13.917724609375 -14.456298828125
18.546875 -5.333251953125 19.04248046875
-0.644287109375 12.062255859375 2.647705078125
3.448974609375 15.96533203125 4.450927734375
18.153564453125 -15.7431640625 3.50634765625
16.9248046875 -11.59033203125 -14.00732421875
6.18017578125 22.5751953125 3.408203125
-13.708740234375 -2.183349609375 -26.03466796875
4.246826171875 19.09912109375 4.188720703125
21.873046875 -4.286376953125 18.810791015625
5.13037109375 17.026611328125 -25.895751953125
2.9326171875 15.08935546875 6.489013671875
-0.30810546875 11.057373046875 -9.461181640625
-15.969970703125 6.447265625 -30.110107421875
18.35498046875 -18.686767578125 -4.412353515625
-0.51513671875 14.462890625 -15.849853515625
-0.17724609375 11.453125 -10.936767578125
4.56640625 14.51611328125 8.94677734375
7.268310546875 13.849609375 -13.665771484375
4.481689453125 16.401611328125 -29.05419921875
6.576171875 12.867431640625 10.107177734375
12.483154296875 13.405029296875 -20.406494140625
5.4736328125 16.160888671875 6.70849609375
16.1748046875 -12.018310546875 -23.351318359375
-0.139404296875 14.4306640625 -17.845947265625
17.951904296875 -6.16796875 10.197509765625
4.833251953125 14.7158203125 -7.704345703125
7.27880859375 -13.624755859375 -16.365234375
19.611572265625 -2.44775390625 17.634765625
5.38232421875 8.05126953125 6.04541015625
9.15673828125 -11.6494140625 -16.652587890625
18.27880859375 -19.373046875 23.17919921875
-0.525634765625 13.528076171875 -13.014892578125
6.612548828125 16.046142578125 7.59423828125
17.869873046875 -11.737548828125 22.30712890625
20.8369140625 0.2109375 27.618896484375
12.3271484375 -10.787109375 20.12158203125
-8.827392578125 1.264892578125 -27.428955078125
18.51953125 -18.8203125 -8.056396484375
16.107421875 8.0185546875 8.15283203125
7.617919921875 -12.15966796875 15.320556640625
5.879150390625 15.245361328125 -22.577880859375
5.247314453125 17.831787109375 -1.970947265625
17.357666015625 -23.301513671875 2.67724609375
7.419189453125 20.33935546875 5.499755859375
-9.689697265625 -2.630126953125 -27.43505859375
-14.63427734375 1.52685546875 -30.240478515625
18.542724609375 -17.6376953125 6.10595703125
18.228515625 -8.051513671875 -8.205078125
-0.71484375 10.052978515625 -13.6884765625
2.757080078125 3.314208984375 -29.46630859375
18.00439453125 -14.63623046875 22.82080078125
10.867919921875 -13.33251953125 20.46337890625
3.9990234375 18.89111328125 -27.79248046875
7.21337890625 -13.1181640625 17.357421875
0.390380859375 15.052001953125 -10.65625
5.853759765625 14.83837890625 -5.167236328125
18.491943359375 -20.59228515625 -3.997314453125
18.468994140625 -22.31005859375 -0.5732421875
11.3330078125 15.52734375 7.724609375
18.2666015625 -15.7255859375 6.356689453125
6.197509765625 20.42041015625 -26.423828125
18.39111328125 -12.218994140625 23.94287109375
17.966064453125 -11.995849609375 9.62890625
3.177734375 15.001953125 -27.185546875
-2.620849609375 5.537841796875 -28.032958984375
5.3173828125 -0.781494140625 -28.655517578125
18.003173828125 -7.697265625 -14.166015625
10.10107421875 -11.305908203125 -19.408935546875
17.68896484375 2.370361328125 8.10986328125
-13.01025390625 4.59375 -26.9443359375
8.99365234375 -15.470947265625 -16.1044921875
6.64404296875 6.271728515625 6.149169921875
18.2109375 -7.908447265625 -5.912841796875
17.968505859375 -8.075439453125 8.43359375
15.54736328125 -11.35107421875 11.66796875
20.786376953125 -12.0947265625 24.9775390625
18.28369140625 -17.52587890625 22.052490234375
17.870849609375 -8.958251953125 3.788330078125
11.44775390625 14.292236328125 9.512939453125
18.98974609375 -21.83642578125 2.321044921875
2.17724609375 15.292724609375 2.468994140625
17.8974609375 -18.861328125 20.242919921875
18.061279296875 -2.347900390625 12.4169921875
16.951904296875 -15.8720703125 20.88525390625
18.478515625 -20.37744140625 -2.318359375
-7.44580078125 11.88720703125 -31.1064453125
7.135986328125 14.431884765625 -8.763671875
3.42578125 14.297119140625 -14.896484375
5.291015625 -0.4609375 0.9375
-10.979736328125 10.56884765625 -29.1337890625
17.026611328125 6.14208984375 8.03466796875
3.9267578125 13.441162109375 -19.384521484375
15.35302734375 -14.175048828125 21.05517578125
2.312744140625 8.613525390625 -32.122802734375
17.7333984375 -14.310302734375 -13.0654296875
2.91650390625 14.34033203125 -12.23486328125
18.289794921875 -17.257568359375 3.710693359375
5.46923828125 14.253173828125 -10.20361328125
17.8017578125 -1.416748046875 11.47119140625
18.26806640625 -15.494384765625 -11.60205078125
12.220703125 -8.67822265625 16.626708984375
-3.816650390625 -3.692626953125 -23.545166015625
5.305419921875 -1.48828125 -24.691650390625
17.956298828125 -10.83203125 -25.487548828125
13.873291015625 -12.65380859375 -23.514892578125
17.859375 -13.43896484375 -11.88037109375
17.903564453125 -8.95947265625 -18.716796875
17.51416015625 -6.74609375 15.4990234375
2.4970703125 12.378173828125 -30.3408203125
4.40771484375 11.933349609375 9.510498046875
18.0654296875 -17.989501953125 -2.208984375
18.541015625 -20.193603515625 7.04052734375
-5.278076171875 0.72314453125 -27.7626953125
3.818359375 15.147705078125 -2.644287109375
18.27783203125 -14.87548828125 4.662109375
2.715576171875 9.638427734375 -31.28515625
8.38134765625 -13.3740234375 19.497314453125
4.58056640625 13.875732421875 -31.1630859375
8.03271484375 13.704345703125 -10.173828125
18.37841796875 -14.283203125 8.932373046875
-0.04443359375 10.61328125 0.230712890625
18.095947265625 -5.769287109375 8.688720703125
18.6875 -5.87890625 -15.77587890625
-16.614990234375 9.14306640625 -29.341064453125
6.19677734375 -15.7158203125 -16.663330078125
8.6318359375 -11.476806640625 -18.70751953125
18.372314453125 -13.778076171875 -7.911376953125
1.212890625 12.330810546875 -28.677978515625
18.387939453125 -12.3837890625 7.19970703125
18.353515625 -12.197265625 -5.85546875
18.387451171875 -15.048828125 -9.564208984375
11.958984375 -11.39404296875 -16.09423828125
18.55029296875 -10.125 -14.370849609375
18.12158203125 -9.33935546875 6.162353515625
18.035400390625 -15.8154296875 1.2763671875
20.4013671875 -4.467529296875 19.43408203125
23.6259765625 -3.8388671875 17.243408203125
18.127685546875 -7.14306640625 4.83984375
18.216064453125 -16.096435546875 -4.6357421875
-0.54541015625 13.255615234375 -20.274169921875
7.285888671875 -13.405517578125 -18.883544921875
18.022216796875 -10.965087890625 1.938720703125
18.388671875 -5.695068359375 -12.087646484375
19.667724609375 -21.6298828125 18.828125
18.326904296875 -15.388427734375 -1.574462890625
17.987060546875 -4.681640625 5.214599609375
4.88427734375 -3.931640625 -25.31201171875
18.098388671875 -9.335205078125 -8.529296875
18.7421875 -10.495361328125 -4.205322265625
12.084228515625 13.793701171875 -18.582763671875
16.185546875 -7.67041015625 15.9052734375
-13.670654296875 -0.29833984375 -28.290771484375
1.4365234375 10.246337890625 -29.4111328125
18.262451171875 -8.552490234375 22.369873046875
18.180419921875 -4.345703125 14.6923828125
11.849365234375 -10.869140625 -21.087158203125
8.331298828125 22.83154296875 4.4150390625
18.262451171875 -19.016357421875 7.73583984375
2.572021484375 16.46484375 1.463623046875
8.747314453125 -12.828857421875 -16.234130859375
21.421630859375 -2.396240234375 23.130126953125
0.26513671875 15.361328125 -13.0107421875
20.883544921875 -6.42529296875 26.008544921875
4.4453125 3.135498046875 -24.28955078125
12.078125 -9.43408203125 18.340576171875
10.500732421875 -10.447998046875 17.84814453125
17.932373046875 -5.35888671875 12.613037109375
3.45947265625 7.26318359375 2.3349609375
2.6435546875 12.405029296875 8.885498046875
0.341552734375 12.33447265625 -13.0068359375
-0.369873046875 2.060791015625 -27.922607421875
17.922119140625 4.560546875 11.75
6.566162109375 -1.66796875 5.25732421875
5.145263671875 20.438232421875 4.926513671875
11.553955078125 13.89892578125 -16.49462890625
-0.444091796875 10.25390625 -7.174072265625
4.26416015625 19.614990234375 -26.69970703125
18.39501953125 -17.50341796875 -9.928466796875
8.516357421875 20.381591796875 -26.533935546875
-16.5830078125 9.662841796875 -27.934326171875
0.60986328125 13.896484375 -20.430908203125
18.531005859375 -6.225341796875 21.31982421875
7.789794921875 13.5732421875 -17.362060546875
18.238525390625 -16.19677734375 -7.576904296875
18.36474609375 -14.950439453125 -6.61962890625
17.80322265625 6.17724609375 9.71337890625
18.166259765625 -6.269775390625 17.02490234375
4.546142578125 2.00830078125 1.2001953125
-5.058349609375 5.099365234375 -28.671630859375
3.46435546875 17.119873046875 2.626220703125
-0.09326171875 10.34521484375 -24.14794921875
-4.802001953125 11.669677734375 -32.031982421875
1.04541015625 15.646240234375 -0.79638671875
-6.0283203125 -4.986328125 -23.903076171875
3.604248046875 8.59326171875 4.82373046875
-0.551025390625 11.07763671875 -4.73681640625
18.384521484375 -16.169677734375 -8.904541015625
-7.489501953125 4.193359375 -27.87353515625
5.810791015625 0.20947265625 4.721923828125
4.2060546875 5.6513671875 0.44189453125
7.07421875 -13.818115234375 18.459716796875
20.37158203125 -8.011962890625 24.4990234375
20.022216796875 1.50341796875 29.657958984375
1.67041015625 15.416748046875 -2.26806640625
2.868408203125 10.474609375 7.07470703125
-13.9677734375 2.2841796875 -28.319580078125
5.66015625 -1.92822265625 3.24462890625
-0.589111328125 15.8134765625 -2.435546875
13.110107421875 -12.349853515625 20.47998046875
15.355224609375 -10.900634765625 -22.125732421875
-9.7431640625 4.924560546875 -27.56005859375
-13.245849609375 9.59033203125 -28.40673828125
16.255615234375 -11.076416015625 -14.9658203125
-1.084228515625 15.91259765625 -0.427490234375
18.505126953125 -17.163330078125 -6.622314453125
15.4912109375 -10.769775390625 20.612060546875
-16.33935546875 8.99951171875 -26.04345703125
3.89306640625 20.919189453125 1.131591796875
1.016845703125 7.9833984375 -27.76953125
18.095458984375 -10.444091796875 -7.873291015625
18.13134765625 -12.16796875 -12.243896484375
6.5712890625 -12.0546875 17.783935546875
18.35546875 -6.0927734375 -7.690673828125
-0.284423828125 12.038818359375 -6.08056640625
3.672607421875 13.801025390625 8.3798828125
7.530029296875 -15.2099609375 -16.25439453125
4.36328125 17.28125 -27.154541015625
0.107177734375 13.0478515625 -8.685546875
5.242919921875 15.78173828125 -24.109130859375
18.70751953125 -21.400634765625 3.474365234375
18.24609375 -9.986328125 -10.04248046875
13.966796875 -12.025634765625 -15.558837890625
18.10302734375 -6.075927734375 -9.863525390625
18.56103515625 0.433837890625 15.5068359375
18.4619140625 -17.652099609375 -0.9345703125
6.34765625 -1.96826171875 -22.907958984375
13.417724609375 -14.5615234375 -14.8388671875
6.073974609375 20.675048828125 -28.19921875
-0.167724609375 12.86376953125 -18.6298828125
18.24365234375 -7.513671875 -10.309814453125
-8.188232421875 -4.705810546875 -22.837890625
7.323486328125 22.552978515625 0.3291015625
4.793212890625 22.3779296875 0.682373046875
-0.000244140625 13.39013671875 -1.45361328125
-6.5888671875 9.98193359375 -27.267578125
5.33203125 0.550537109375 -28.24560546875
17.580322265625 -2.080810546875 5.697998046875
5.853515625 0.81005859375 -23.51416015625
16.29736328125 -9.059814453125 18.96875
0.092041015625 10.827392578125 3.939208984375
-8.716796875 5.63330078125 -27.66015625
11.96533203125 -9.333251953125 14.33740234375
16.5478515625 -10.109375 21.14697265625
14.306884765625 -10.623779296875 19.6845703125
5.7373046875 2.210205078125 -23.051025390625
4.197998046875 4.11865234375 -25.825439453125
10.639892578125 -10.0546875 16.35546875
0.6484375 1.100341796875 -28.2216796875
14.3310546875 -8.58837890625 16.12939453125
8.284423828125 -10.796142578125 14.568115234375
19.242431640625 -20.477294921875 20.79345703125
4.639404296875 18.9345703125 -25.45654296875
3.942626953125 14.909423828125 -4.292724609375
7.190185546875 22.155029296875 1.786376953125
2.4111328125 6.22900390625 -25.57373046875
12.609130859375 14.932373046875 9.379150390625
17.9462890625 -2.043701171875 10.0166015625
9.41845703125 -14.735595703125 19.529052734375
9.24755859375 -16.8017578125 -14.946044921875
18.08154296875 -7.703125 11.02685546875
13.14990234375 -14.97509765625 11.020263671875
5.30224609375 22.889892578125 2.21337890625
8.972412109375 14.2900390625 -21.607666015625
9.989990234375 -10.16845703125 14.61572265625
10.675048828125 13.50048828125 8.888427734375
7.36328125 20.452880859375 -30.264404296875
0.027099609375 10.216796875 -27.072021484375
-1.672607421875 8.393310546875 -28.697509765625
-4.6533203125 6.237548828125 -29.072509765625
17.771484375 -1.45556640625 15.531982421875
12.18408203125 13.41064453125 -12.094482421875
17.961669921875 -4.29443359375 8.4794921875
17.6689453125 4.169921875 10.465576171875
17.92822265625 -6.81201171875 13.497314453125
-4.98974609375 7.988525390625 -27.460693359375
6.865234375 -15.64306640625 -18.449951171875
17.875 -8.514892578125 20.9111328125
3.928466796875 3.299560546875 -29.838134765625
2.71435546875 8.630615234375 3.226806640625
17.614501953125 -10.0810546875 -16.037841796875
10.09765625 13.7294921875 -9.511962890625
17.15966796875 4.0439453125 8.06591796875
10.515380859375 -11.044189453125 13.0087890625
0.33056640625 12.050537109375 -16.83740234375
0.143310546875 8.965576171875 -21.809326171875
-0.591064453125 10.45263671875 -18.612060546875
16.985595703125 7.38916015625 32.070556640625
7.13671875 13.80078125 -12.387939453125
-15.334716796875 6.147216796875 -27.590087890625
17.943603515625 0.005615234375 9.9267578125
18.308837890625 -17.040771484375 1.1982421875
9.9365234375 17.111572265625 6.6865234375
13.126708984375 13.45166015625 -18.046875
21.01025390625 -1.9208984375 24.27587890625
21.31884765625 -4.87158203125 21.29931640625
-9.355712890625 -4.64697265625 -26.584228515625
18.16845703125 -3.791748046875 16.087646484375
18.524658203125 -11.146728515625 -10.770263671875
2.461669921875 10.0224609375 -33.6357421875
20.844970703125 -2.54443359375 28.1904296875
8.0234375 17.236083984375 6.9287109375
6.852294921875 -4.2861328125 -23.76416015625
1.6298828125 13.849365234375 -19.50244140625
6.75390625 -13.193359375 -17.376220703125
1.7890625 8.017578125 -29.59326171875
-12.3583984375 10.48388671875 -29.657958984375
4.5439453125 1.89404296875 2.41357421875
17.91796875 3.1318359375 12.624755859375
21.13134765625 -4.994873046875 27.22705078125
23.47314453125 -4.294921875 19.361572265625
17.47607421875 -23.5966796875 5.142822265625
-0.096435546875 14.655517578125 2.91845703125
-0.781982421875 11.90966796875 -1.65625
20.998291015625 -3.835205078125 26.606201171875
8.400146484375 -11.25537109375 18.7802734375
5.961669921875 14.665283203125 8.921142578125
5.162109375 19.4345703125 -30.20361328125
-6.669921875 6.7587890625 -28.266845703125
16.7255859375 -12.97900390625 -24.453857421875
3.4326171875 14.7939453125 -6.6572265625
6.25634765625 18.100830078125 5.501953125
7.41259765625 13.857177734375 -21.264404296875
0.0810546875 5.94775390625 -28.753662109375
8.337158203125 15.473388671875 -22.94775390625
-17.553466796875 9.884765625 -27.23876953125
17.7998046875 -9.91455078125 -22.87744140625
-0.637451171875 13.8779296875 -9.153076171875
9.64990234375 17.398681640625 -23.388916015625
3.485107421875 18.660888671875 3.359130859375
9.5908203125 -11.836669921875 13.03662109375
12.88427734375 -13.494140625 -15.02734375
9.56884765625 -11.871826171875 -21.038818359375
-6.2958984375 11.8798828125 -28.01416015625
16.409423828125 -9.506103515625 -17.7958984375
8.41845703125 14.99267578125 -5.54248046875
5.071044921875 3.082763671875 4.151123046875
18.350830078125 -9.71875 -6.1328125
6.84033203125 -11.886962890625 14.025390625
-0.431640625 12.663330078125 -21.74755859375
11.132080078125 -15.189208984375 -15.017578125
18.183837890625 -12.874267578125 -1.176513671875
11.910888671875 14.189453125 -8.333251953125
6.841064453125 13.76806640625 9.362060546875
-11.2587890625 0.070556640625 -27.040771484375
-7.669189453125 -3.241943359375 -27.624267578125
13.632080078125 -14.748046875 20.38623046875
8.1689453125 16.060546875 -4.85302734375
-9.749267578125 -5.603759765625 -24.5380859375
-0.125244140625 13.637939453125 -3.19384765625
10.380859375 13.6044921875 -16.5498046875
1.00341796875 14.43310546875 -18.192626953125
-4.03466796875 11.763916015625 -30.98388671875
0.478515625 13.85693359375 -22.60107421875
-5.321533203125 -1.36474609375 -27.13232421875
2.15869140625 14.70361328125 -11.280517578125
10.328369140625 17.942626953125 5.8876953125
18.26806640625 -16.634765625 23.842529296875
10.500244140625 13.291748046875 -14.156005859375
9.205810546875 13.1904296875 -15.37890625
4.56787109375 13.264404296875 -21.524658203125
19.016357421875 -6.090576171875 -23.0771484375
17.139404296875 -8.977294921875 12.510009765625
-12.579833984375 -2.2060546875 -26.395751953125
4.952880859375 4.04443359375 5.37548828125
5.727783203125 13.77978515625 -16.99560546875
-9.776123046875 8.278564453125 -27.1123046875
-2.064208984375 1.11865234375 -28.32666015625
8.20556640625 -0.06640625 -22.56982421875
6.52490234375 19.564453125 5.528564453125
6.946533203125 11.6708984375 9.993408203125
18.3720703125 -19.220703125 -6.50537109375
19.50830078125 -6.295654296875 -16.77978515625
6.47509765625 -2.59912109375 -24.423095703125
12.237548828125 15.732177734375 6.92333984375
17.5068359375 -9.292236328125 -20.000244140625
4.4560546875 3.843994140625 -28.2294921875
20.6416015625 -6.352783203125 23.280517578125
15.79833984375 -8.3037109375 14.2734375
5.97900390625 13.79931640625 -12.04833984375
-10.442138671875 2.28759765625 -27.22900390625
5.8642578125 15.99072265625 -3.599365234375
-0.161376953125 12.91552734375 -15.801513671875
7.0791015625 -13.912109375 15.631103515625
5.365234375 3.87158203125 -23.7060546875
6.820068359375 22.6650390625 -1.03173828125
10.75146484375 -11.130615234375 19.79443359375
3.859619140625 18.35107421875 1.025146484375
-13.083740234375 11.31689453125 -30.093505859375
-11.904052734375 3.877685546875 -26.8935546875
18.4541015625 -7.05517578125 -20.26806640625
20.84619140625 -1.108154296875 27.298828125
8.796142578125 1.592529296875 6.1708984375
15.169189453125 -16.050537109375 -14.7890625
6.452392578125 20.445556640625 -24.9189453125
1.017822265625 15.0 -13.966064453125
-2.723876953125 0.005615234375 -26.55712890625
-5.494873046875 -4.49462890625 -21.691162109375
-9.984619140625 10.22900390625 -28.620849609375
-0.23193359375 14.212890625 1.607177734375
15.706787109375 -15.04931640625 -14.0048828125
18.29638671875 -18.26708984375 3.121826171875
15.305419921875 -13.6875 -14.474609375
5.036376953125 -0.06787109375 2.05126953125
6.494140625 -13.127197265625 -20.1845703125
18.035888671875 -14.0146484375 0.797607421875
0.50732421875 8.098876953125 -25.669189453125
3.964111328125 16.72265625 3.602294921875
5.552978515625 -3.11328125 -27.5185546875
8.29443359375 3.847412109375 6.912109375
3.937255859375 4.68212890625 1.797119140625
2.90234375 13.61767578125 -25.0048828125
3.43115234375 14.7392578125 -26.082763671875
4.841064453125 14.52880859375 -22.47998046875
3.8056640625 13.93310546875 -23.607666015625
16.843994140625 -10.095458984375 -21.997802734375
18.291259765625 -13.28515625 2.525146484375
2.89990234375 13.37744140625 -22.5537109375
-0.3076171875 10.939453125 -8.25390625
-0.464111328125 10.144775390625 -16.23681640625
-0.6015625 15.4208984375 -5.00537109375
4.40625 21.7138671875 3.04638671875
10.495849609375 13.756103515625 -12.129638671875
4.271240234375 20.89697265625 -0.818603515625
19.227294921875 -23.126708984375 7.0703125
11.395263671875 13.951416015625 -9.508056640625
-6.44091796875 11.488525390625 -29.98291015625
1.4580078125 9.58154296875 1.371337890625
-11.755615234375 9.25390625 -27.7392578125
-0.644287109375 13.768310546875 -11.35400390625
5.029541015625 10.883544921875 9.67431640625
9.61279296875 13.45751953125 -20.473876953125
7.146728515625 -0.78857421875 -22.47021484375
5.109375 14.881103515625 -31.01025390625
7.234375 0.58203125 5.68896484375
0.498291015625 12.4599609375 4.89453125
18.5927734375 -22.298095703125 18.28515625
-14.95849609375 10.82080078125 -29.959228515625
16.83251953125 -23.027587890625 19.474609375
18.320556640625 -23.084716796875 1.1962890625
5.1787109375 12.77978515625 9.53515625
18.57275390625 -6.622314453125 -18.226806640625
2.683837890625 15.34765625 5.40576171875
18.140625 -10.530517578125 3.935546875
0.665283203125 14.97509765625 4.93701171875
3.56005859375 5.0244140625 -27.581298828125
12.90087890625 -10.90185546875 -16.544921875
7.591064453125 18.646484375 -23.628662109375
-9.432861328125 7.067626953125 -27.292236328125
4.916259765625 20.4375 -28.854736328125
-12.13818359375 -4.646240234375 -25.401123046875
-8.35693359375 10.28857421875 -29.4384765625
20.006103515625 -3.45654296875 18.533447265625
6.201171875 20.215087890625 -30.919921875
10.285888671875 15.634521484375 -22.863037109375
0.346923828125 12.4462890625 -10.796142578125
12.238525390625 14.501220703125 -23.17529296875
17.945556640625 -3.795654296875 10.501708984375
14.957275390625 -12.613037109375 -23.82275390625
19.4814453125 -0.570068359375 16.581787109375
17.712646484375 -6.71142578125 6.64453125
17.710205078125 -0.46435546875 5.7802734375
-0.351318359375 9.9599609375 -21.98046875
-16.283447265625 7.421630859375 -27.50341796875
5.548095703125 19.946533203125 -24.477783203125
3.67431640625 13.670654296875 -30.30322265625
7.3955078125 17.98828125 6.385986328125
1.396728515625 13.5205078125 5.249755859375
2.28955078125 14.176025390625 6.4111328125
9.52587890625 14.19580078125 8.765869140625
1.490966796875 11.37255859375 6.466552734375
3.635009765625 10.669677734375 -33.804931640625
17.694580078125 1.408935546875 7.5400390625
0.6884765625 11.3818359375 -25.963134765625
1.648681640625 7.0263671875 -25.40673828125
19.79248046875 -22.564208984375 20.47265625
17.793701171875 0.21142578125 12.209228515625
0.2158203125 12.524169921875 -14.159912109375
8.230712890625 -12.695556640625 -21.861572265625
3.78271484375 12.071533203125 -31.804443359375
4.620361328125 18.462890625 -1.305908203125
0.541748046875 15.75830078125 -2.157958984375
-0.741943359375 14.275390625 -2.52734375
-11.720703125 -3.146484375 -26.01123046875
5.140869140625 17.95556640625 -25.291015625
6.45703125 -10.7841796875 15.960205078125
-12.310302734375 -1.234375 -27.75439453125
7.585205078125 22.94482421875 -1.781982421875
-16.049072265625 4.1689453125 -30.5078125
4.9599609375 14.256591796875 -13.801025390625
-15.755615234375 7.947509765625 -25.942138671875
4.705078125 2.917236328125 -27.314697265625
-1.218994140625 15.23388671875 0.641357421875
22.529052734375 -4.116943359375 19.9462890625
-15.243896484375 5.5478515625 -29.06591796875
-6.9501953125 5.551513671875 -27.9296875
-0.175048828125 13.28955078125 -26.354736328125
19.597900390625 -4.728515625 20.1875
17.87255859375 -16.52587890625 -13.08349609375
0.552001953125 16.14990234375 0.40576171875
6.52880859375 3.022705078125 -22.404296875
18.3720703125 -21.04638671875 -6.03369140625
-6.38134765625 8.2578125 -28.197265625
-3.795166015625 10.799072265625 -29.47314453125
8.552490234375 19.316650390625 5.82666015625
20.296630859375 1.11181640625 28.57763671875
18.375 -18.095703125 -7.168212890625
18.495361328125 -17.272216796875 -5.35595703125
18.267822265625 -17.311767578125 -11.13916015625
18.392333984375 -18.629150390625 -9.26708984375
22.511474609375 -3.2001953125 21.11474609375
7.5341796875 13.54443359375 -18.870361328125
17.67236328125 2.497314453125 10.33740234375
18.47900390625 -16.369384765625 -3.490966796875
18.491455078125 -15.1416015625 -5.415771484375
18.249267578125 -13.90380859375 -9.529296875
4.33544921875 5.694091796875 -0.824462890625
18.501708984375 -12.854248046875 -7.366943359375
13.04736328125 -10.44482421875 -18.71875
8.7744140625 20.7568359375 -25.23193359375
18.113525390625 -12.0185546875 -9.932373046875
4.71337890625 5.3642578125 3.634521484375
17.99072265625 -8.91845703125 -12.25048828125
4.18505859375 13.64111328125 -16.260986328125
5.921875 21.385009765625 -2.373779296875
18.357177734375 -10.7158203125 -6.733154296875
18.677734375 -5.992919921875 -14.51318359375
4.34619140625 6.697021484375 2.554443359375
-15.05908203125 3.820556640625 -29.995849609375
18.236328125 -11.894775390625 -8.3173828125
4.090576171875 6.664794921875 1.06689453125
-3.427001953125 3.725341796875 -28.66943359375
14.957763671875 -11.855224609375 21.095947265625
7.703125 16.88330078125 -23.264404296875
18.751708984375 -22.748291015625 -1.735107421875
13.326171875 -10.4375 -20.7431640625
-2.853759765625 6.690185546875 -27.912841796875
2.417724609375 14.89990234375 -8.192626953125
9.322509765625 14.387451171875 -8.158447265625
18.21923828125 -8.1640625 -6.948974609375
5.419677734375 -3.150146484375 -26.20068359375
18.943115234375 -21.243896484375 7.9482421875
-16.885009765625 8.24365234375 -28.607421875
4.809326171875 0.73876953125 -26.7412109375
18.083740234375 -11.025390625 -24.272705078125
6.491943359375 13.97607421875 -10.27099609375
18.532958984375 -17.74560546875 7.3583984375
18.521484375 -16.79296875 8.56494140625
4.831787109375 14.76513671875 -4.897216796875
18.1376953125 -11.634765625 4.598388671875
18.209228515625 -11.857177734375 -4.757568359375
16.023681640625 -16.24853515625 20.071533203125
18.12890625 -13.164794921875 6.107177734375
-13.38232421875 0.85498046875 -28.015380859375
16.842529296875 -22.55029296875 18.006591796875
18.24462890625 -12.045654296875 8.277099609375
19.209716796875 -17.5712890625 23.71142578125
-9.957763671875 11.742431640625 -30.65478515625
7.61376953125 -0.355712890625 5.957763671875
18.2763671875 -8.9091796875 -14.268310546875
-3.48095703125 0.986572265625 -28.2431640625
18.68359375 -7.83837890625 19.322021484375
8.570068359375 13.324462890625 -19.56591796875
16.44287109375 -7.937744140625 17.0263671875
19.84228515625 -6.918701171875 23.642578125
18.831787109375 -8.374755859375 -16.21630859375
2.28515625 6.53759765625 -27.985107421875
10.7333984375 -14.236572265625 19.95947265625
19.5859375 -11.635986328125 24.4296875
17.07470703125 -10.843505859375 21.77734375
20.758056640625 -8.77685546875 26.40576171875
-0.0703125 11.337158203125 -20.697509765625
7.6142578125 -12.267822265625 16.540283203125
18.44775390625 -19.62890625 1.4365234375
2.22265625 11.227783203125 -30.620849609375
18.27880859375 -23.184814453125 6.652099609375
1.417724609375 14.961181640625 3.81005859375
18.048828125 -14.220947265625 -0.864013671875
17.759521484375 -22.7548828125 21.5361328125
18.390380859375 -6.742431640625 -12.06494140625
14.33642578125 -8.840576171875 15.12548828125
21.168701171875 -4.601318359375 22.9609375
5.92626953125 18.497802734375 -32.01953125
-12.025634765625 8.350341796875 -27.001708984375
18.566650390625 -19.694580078125 20.827392578125
17.611328125 -15.70166015625 22.026611328125
-5.235107421875 2.803466796875 -28.39111328125
18.65576171875 -15.44580078125 8.242919921875
-1.246337890625 11.06103515625 -31.155029296875
-16.8203125 7.01025390625 -30.279296875
18.4013671875 -15.298583984375 23.50732421875
16.962646484375 -17.498291015625 19.53955078125
10.74267578125 14.478515625 -7.60205078125
17.913330078125 -1.417724609375 14.2578125
18.548828125 -6.364013671875 19.096923828125
18.04931640625 -15.65185546875 -0.6083984375
-5.037353515625 -0.25537109375 -26.23779296875
18.29248046875 -3.981689453125 17.2587890625
-9.868896484375 -5.63818359375 -23.243896484375
-0.37548828125 9.021240234375 -26.05517578125
16.787841796875 -12.940673828125 -13.70703125
17.838134765625 -2.34814453125 6.820068359375
-10.695556640625 -2.32568359375 -27.3408203125
20.90185546875 -9.8369140625 25.80615234375
7.13623046875 14.66162109375 -7.76171875
-0.83935546875 9.9482421875 -11.8115234375
5.470458984375 12.256591796875 -33.884033203125
-7.961669921875 -5.353271484375 -25.01171875
1.415771484375 8.887939453125 -29.199462890625
18.517333984375 -9.910400390625 24.1611328125
19.052490234375 -7.7353515625 23.00634765625
2.512939453125 13.180419921875 -21.550537109375
18.35009765625 -8.74755859375 -23.9990234375
-6.433349609375 -5.66748046875 -24.943603515625
4.5849609375 15.95703125 7.50341796875
-0.8896484375 14.494873046875 -13.859619140625
2.546142578125 14.938232421875 -6.050537109375
20.724853515625 0.514892578125 25.24755859375
20.8564453125 -1.353271484375 26.309326171875
16.58984375 -7.485595703125 14.91259765625
17.68017578125 2.254638671875 9.333740234375
9.34521484375 13.65234375 -17.48876953125
7.33544921875 -14.178466796875 16.74755859375
10.62158203125 -11.276123046875 -15.67626953125
-9.6630859375 -1.615966796875 -27.44140625
16.787109375 -16.507080078125 -13.4248046875
0.1376953125 8.789306640625 -23.4404296875
2.010009765625 5.4931640625 -29.50439453125
18.39599609375 -15.3125 -10.61279296875
17.974853515625 -10.4716796875 8.1220703125
4.990478515625 15.827392578125 -29.71630859375
18.212890625 -7.23876953125 -24.160888671875
18.683837890625 -1.8564453125 17.3876953125
-0.89990234375 12.15087890625 -0.01708984375
20.444091796875 0.851318359375 26.939453125
17.860595703125 -14.502197265625 -11.857421875
6.49169921875 13.171630859375 -15.52197265625
18.4755859375 -21.50439453125 -1.65185546875
18.006591796875 -11.232421875 -13.88623046875
11.084716796875 16.423095703125 6.8046875
18.39697265625 -11.325927734375 -11.755615234375
-0.661865234375 11.198486328125 1.48974609375
-8.244140625 9.39892578125 -27.87109375
-13.701171875 -1.305419921875 -28.285400390625
18.39990234375 -10.212890625 -12.410888671875
-1.090576171875 15.687255859375 -1.4091796875
5.782470703125 20.197509765625 -2.675537109375
5.95947265625 2.095458984375 5.195556640625
4.2099609375 15.25830078125 -29.33203125
3.075439453125 16.42626953125 -1.144775390625
4.97412109375 16.133056640625 -2.997314453125
3.42626953125 14.39794921875 -29.357177734375
-0.395751953125 14.16357421875 -16.912841796875
4.6669921875 22.286376953125 -0.8388671875
18.82470703125 -21.69677734375 5.937255859375
7.574462890625 23.017578125 3.75830078125
18.109130859375 -4.201904296875 6.573974609375
0.379638671875 14.8349609375 -15.071044921875
6.17724609375 22.453125 4.595458984375
-0.179443359375 12.401611328125 -20.64990234375
18.195556640625 -8.5224609375 -21.602294921875
18.55029296875 -18.2744140625 5.297607421875
7.423828125 -13.58154296875 -21.88720703125
17.78662109375 -22.966064453125 -0.247314453125
18.22021484375 -19.674560546875 -4.322265625
-0.4208984375 13.54296875 -23.9921875
0.572265625 11.80029296875 -22.639892578125
4.529541015625 -0.66845703125 -24.524658203125
18.174560546875 -18.02294921875 1.29248046875
17.82080078125 -11.815673828125 -25.413818359375
14.40673828125 11.195068359375 9.756103515625
18.01904296875 -12.0712890625 2.600830078125
9.65673828125 0.0654296875 -22.6455078125
-17.282958984375 4.71923828125 -31.501220703125
12.4697265625 12.677734375 9.733642578125
18.791259765625 -13.18896484375 24.23974609375
-0.4580078125 10.377685546875 -15.229736328125
18.224609375 -9.6142578125 -25.202392578125
16.696533203125 -9.8125 -20.24267578125
-0.732421875 15.38330078125 -7.13623046875
18.144775390625 -17.28369140625 5.021240234375
18.162841796875 -15.63427734375 2.252685546875
-11.0625 7.073486328125 -27.08740234375
-0.807861328125 11.10693359375 -6.8203125
17.9873046875 -13.258544921875 -10.893310546875
0.15673828125 15.813232421875 -6.95947265625
7.554443359375 0.675537109375 -22.468994140625
8.35009765625 1.549072265625 -22.443603515625
8.852294921875 -16.448486328125 -16.0244140625
4.417236328125 0.591064453125 -29.8779296875
-0.324951171875 10.067626953125 -9.436767578125
18.282958984375 -13.025634765625 3.554443359375
-0.052490234375 11.7958984375 -15.23583984375
19.35595703125 1.00048828125 15.142333984375
17.727294921875 -6.177978515625 4.567138671875
15.740234375 -10.049072265625 -18.73486328125
17.770751953125 -19.04296875 19.281982421875
0.090576171875 12.062255859375 -8.660400390625
-5.7705078125 -4.724365234375 -24.855712890625
4.693603515625 3.715087890625 3.495849609375
19.1201171875 -20.97900390625 19.434326171875
18.282958984375 -8.11279296875 -15.335693359375
18.254638671875 -13.35498046875 7.2978515625
18.207275390625 -17.644287109375 -3.120361328125
12.610107421875 13.566650390625 -19.443359375
18.57177734375 3.0 13.35986328125
18.836669921875 -22.663330078125 4.718505859375
18.1572265625 -17.706298828125 21.09423828125
17.340576171875 -13.81494140625 22.237548828125
4.65380859375 -1.428466796875 -28.32958984375
18.14892578125 -10.78759765625 2.90966796875
6.69287109375 18.90869140625 -24.21435546875
17.988525390625 -10.305419921875 6.259521484375
18.0947265625 -5.822021484375 -8.825927734375
-3.115478515625 -0.59814453125 -24.714111328125
12.04833984375 -14.412109375 20.223876953125
18.156494140625 -14.630615234375 2.84130859375
13.984375 -10.063232421875 -17.90673828125
17.702392578125 -0.218505859375 6.79150390625
8.411865234375 -11.490234375 13.73388671875
18.543212890625 -15.463134765625 5.397216796875
18.137451171875 -16.648681640625 5.828857421875
4.57861328125 14.68798828125 -9.193359375
3.371826171875 10.340087890625 -32.227783203125
11.845703125 -10.296875 -19.62060546875
8.6533203125 -12.13623046875 19.119140625
10.237548828125 -12.53369140625 -22.40576171875
18.94775390625 -3.0908203125 17.947265625
19.7138671875 -9.636474609375 24.259033203125
-0.7236328125 10.40966796875 -20.783203125
-14.656005859375 4.017578125 -27.547119140625
18.147705078125 -17.76171875 -13.184814453125
21.091796875 -0.770263671875 29.17578125
18.050048828125 -3.183837890625 14.0830078125
17.627685546875 -11.6650390625 0.89697265625
5.224609375 13.57763671875 -32.10205078125
-1.24365234375 9.466552734375 -18.087890625
17.1162109375 6.320556640625 32.089599609375
11.969482421875 15.0556640625 8.658447265625
16.923095703125 -15.52197265625 -13.5078125
4.53271484375 -0.49609375 -26.396484375
18.08203125 -21.792236328125 -3.56640625
11.126220703125 -16.249755859375 -14.997802734375
-0.425048828125 10.654541015625 -1.19091796875
-0.195556640625 11.053466796875 -16.9814453125
18.113525390625 -8.79736328125 -10.636962890625
9.92822265625 -15.4072265625 -15.70703125
11.699462890625 -8.9248046875 15.445068359375
17.818603515625 -0.163818359375 8.973876953125
18.188232421875 -7.893798828125 -20.76318359375
-0.49609375 14.968017578125 -11.0400390625
5.3037109375 -1.73583984375 -25.73046875
-1.492919921875 4.1611328125 -28.185791015625
17.98779296875 -7.486083984375 5.735595703125
18.16748046875 -8.861572265625 -17.789794921875
22.6865234375 -3.6044921875 17.217529296875
17.607666015625 -8.3779296875 3.05908203125
18.72509765625 -5.791259765625 -20.62451171875
12.050048828125 14.007080078125 -10.62255859375
18.27490234375 -5.5966796875 19.978515625
18.071044921875 -3.6240234375 11.456787109375
21.554443359375 -5.72607421875 25.087646484375
-0.2822265625 11.1572265625 2.907470703125
18.221923828125 -8.765380859375 10.401123046875
0.19287109375 12.313232421875 -25.515380859375
18.888916015625 -6.267333984375 -24.070556640625
17.224853515625 -9.61572265625 -18.3876953125
15.8388671875 10.050048828125 9.386474609375
6.424072265625 17.770751953125 -24.486572265625
6.283935546875 16.7890625 -23.80224609375
1.618408203125 13.57666015625 -26.82861328125
3.53955078125 13.252197265625 -21.84375
17.949462890625 -6.965576171875 -25.306640625
17.96142578125 -2.901123046875 8.21630859375
4.17333984375 12.26953125 -32.82373046875
2.47509765625 9.588134765625 5.095703125
5.931640625 -15.81494140625 -17.583740234375
18.1884765625 -4.594970703125 13.6865234375
8.89599609375 -11.378662109375 -17.78759765625
-8.76220703125 -1.18701171875 -27.271728515625
18.530029296875 -14.019287109375 23.786865234375
-0.616943359375 14.02783203125 -0.79052734375
-11.697998046875 -2.02197265625 -27.2470703125
1.490966796875 13.52783203125 -25.539794921875
-1.101806640625 14.9384765625 -0.394287109375
14.559326171875 -14.99658203125 20.416015625
7.421142578125 7.068603515625 6.777099609375
20.542724609375 -2.318115234375 17.439453125
2.408447265625 14.513427734375 -14.215576171875
10.90771484375 -10.42041015625 -19.383056640625
10.372802734375 -11.355224609375 -20.7978515625
18.544677734375 -18.173583984375 -11.457763671875
17.677978515625 4.286376953125 9.24560546875
9.03759765625 19.99951171875 -29.0380859375
-6.65625 -4.6591796875 -22.974609375
4.582763671875 15.731201171875 6.52490234375
20.818115234375 0.471435546875 14.954833984375
-10.86279296875 10.614990234375 -30.412841796875
1.241943359375 13.78125 -23.17578125
-6.889404296875 -2.73583984375 -27.390869140625
4.697265625 2.128173828125 -29.8046875
17.302001953125 2.0517578125 6.872314453125
7.426025390625 -12.48876953125 -18.33154296875
-2.89208984375 11.762451171875 -31.35205078125
1.8681640625 13.201904296875 -27.97509765625
18.54833984375 -16.67236328125 -12.33740234375
18.252197265625 -19.673095703125 -8.54443359375
18.406005859375 -4.645263671875 19.8720703125
8.049560546875 5.3515625 6.763671875
13.262451171875 -9.1611328125 18.43212890625
18.462158203125 -21.288818359375 0.024169921875
18.225830078125 -19.24560546875 -5.17724609375
1.4609375 3.403564453125 -29.03173828125
16.765869140625 7.0009765625 7.70849609375
18.30419921875 2.075927734375 14.123291015625
18.32470703125 -19.759033203125 -0.17578125
17.45556640625 -3.2822265625 4.77880859375
3.30078125 5.049560546875 -29.73046875
18.56396484375 -20.30029296875 4.12158203125
18.091064453125 -8.417236328125 -25.78515625
18.549560546875 -20.46044921875 6.008056640625
4.56103515625 1.85546875 -25.998779296875
0.049560546875 16.0234375 1.4287109375
4.39697265625 19.955810546875 -27.579833984375
14.323974609375 -8.698974609375 17.35302734375
5.218017578125 2.01220703125 -28.397216796875
18.4482421875 -7.482177734375 -19.416748046875
-14.789794921875 0.131591796875 -28.744873046875
-10.2763671875 -0.8837890625 -27.334716796875
18.166015625 -17.758056640625 2.328125
18.353271484375 -13.99853515625 -5.38623046875
12.088134765625 13.58984375 9.462890625
15.724853515625 -10.95849609375 -16.400146484375
18.237060546875 -13.205322265625 9.564697265625
16.40380859375 -9.932861328125 -16.945556640625
-12.9970703125 9.85400390625 -29.341552734375
2.08349609375 1.650634765625 -29.137451171875
0.492431640625 -0.621826171875 -27.111572265625
-4.57763671875 -3.178466796875 -23.790283203125
-14.761962890625 1.191162109375 -29.36083984375
0.319580078125 11.5869140625 -18.85546875
18.104248046875 -9.195556640625 8.42236328125
18.167236328125 -5.646728515625 -18.472412109375
4.818115234375 1.588623046875 -24.8798828125
18.560302734375 -6.0546875 -16.761474609375
-15.743408203125 9.22216796875 -28.97216796875
10.118896484375 -9.994140625 15.564208984375
18.403564453125 -6.94091796875 -13.739013671875
18.392333984375 -7.792236328125 -12.042236328125
0.55322265625 3.268798828125 -28.789794921875
18.03857421875 0.49169921875 14.716796875
17.772216796875 -15.9150390625 0.356689453125
12.2158203125 -12.7197265625 -14.936767578125
-0.173583984375 12.6328125 -19.63916015625
7.268310546875 -15.461669921875 -19.484375
18.0439453125 -22.763671875 19.569091796875
18.442138671875 -22.74560546875 20.429443359375
6.62109375 14.76416015625 -5.718017578125
7.0107421875 -14.81982421875 -20.838134765625
18.861083984375 -22.398193359375 1.56103515625
3.48974609375 9.537841796875 6.037353515625
18.47119140625 -7.56884765625 -22.37841796875
18.065673828125 -6.218994140625 -22.834716796875
2.922119140625 14.678466796875 -9.025146484375
2.202880859375 9.8701171875 -30.410400390625
18.197509765625 -14.5087890625 -2.587158203125
18.75244140625 -6.07470703125 -6.832763671875
16.955810546875 -22.895751953125 21.05859375
-0.4404296875 11.192138671875 -13.4287109375
-12.8193359375 2.859619140625 -27.871337890625
7.944580078125 -14.1787109375 -18.97998046875
9.831298828125 -10.63037109375 -17.1943359375
7.817138671875 -12.89453125 -16.629638671875
15.708740234375 -17.12744140625 -14.599365234375
18.48876953125 -5.127197265625 -7.777099609375
-0.04638671875 11.790283203125 -11.808837890625
2.46630859375 9.007080078125 4.32275390625
14.08837890625 -17.417724609375 -15.525390625
