-5.7880859375 -1.320556640625 -8.15283203125
18.27685546875 -7.74560546875 14.9619140625
-5.283203125 6.792236328125 1.2265625
-31.59033203125 12.021240234375 -23.330810546875
5.46875 -10.183837890625 10.959228515625
-26.430419921875 13.244384765625 -46.077880859375
-2.492431640625 -4.54248046875 10.82568359375
-5.6083984375 -3.60693359375 16.950927734375
-5.310546875 7.83203125 -19.77197265625
9.84326171875 -7.674072265625 12.0224609375
-4.050048828125 9.272216796875 4.737060546875
-21.596923828125 5.139404296875 -35.67919921875
-25.48974609375 6.713134765625 -42.60888671875
-15.6865234375 -5.600830078125 21.721435546875
1.306884765625 -4.38671875 7.53369140625
-25.7265625 8.445556640625 -40.96826171875
5.0419921875 -1.548095703125 21.30517578125
-9.6787109375 6.591064453125 -0.474365234375
11.3193359375 -8.09619140625 13.7197265625
-29.78076171875 17.605224609375 -33.019775390625
9.298828125 -3.503173828125 17.810302734375
-31.08203125 15.626953125 -26.78369140625
-4.61474609375 -3.153564453125 18.1552734375
18.614501953125 -12.9853515625 14.200927734375
-28.31591796875 12.1826171875 -30.723388671875
-41.517822265625 4.568115234375 -39.5625
7.5244140625 -6.338623046875 22.197021484375
-9.293212890625 2.721435546875 -3.91943359375
-27.5810546875 8.11083984375 -35.60107421875
11.512451171875 -3.36865234375 17.803466796875
-27.414794921875 14.251953125 -37.399658203125
17.811279296875 -6.45361328125 16.0693359375
-4.89306640625 11.276611328125 3.347412109375
-34.072509765625 14.55712890625 -16.01806640625
0.468505859375 -3.560302734375 4.974365234375
-4.5390625 -0.19580078125 7.54296875
-5.705810546875 -0.359375 -3.2294921875
7.094970703125 -1.72607421875 22.14111328125
15.026123046875 -14.960205078125 11.863525390625
8.9599609375 -17.06298828125 26.618896484375
-19.578857421875 0.64111328125 -33.801025390625
-6.45751953125 0.4873046875 -7.0322265625
-21.72216796875 0.69921875 -6.133544921875
-27.254638671875 9.709716796875 -43.996337890625
-29.18896484375 3.233642578125 -22.889892578125
0.52880859375 -4.979736328125 16.2724609375
-15.653564453125 1.63671875 -9.81591796875
-29.43115234375 6.080810546875 -20.4921875
-27.58642578125 7.54541015625 -32.231201171875
-23.89111328125 5.59375 -39.572265625
-19.633544921875 1.74267578125 -3.2255859375
-13.128662109375 -4.5546875 16.596923828125
-32.391845703125 12.81787109375 -19.2177734375
-12.046630859375 0.612548828125 -9.6669921875
-1.60107421875 -3.677978515625 9.101806640625
-18.473388671875 1.546875 -37.975830078125
-30.453857421875 13.591796875 -30.0205078125
-30.71435546875 14.345458984375 -27.556396484375
-19.200927734375 4.04638671875 -38.05859375
-12.925048828125 1.26806640625 -5.5615234375
5.6357421875 -8.1962890625 13.278076171875
-3.07763671875 -1.975830078125 1.07568359375
-8.421142578125 -3.572021484375 19.434814453125
-7.340087890625 -9.724365234375 -8.951904296875
-29.651123046875 4.529296875 -20.852294921875
-7.474853515625 1.9375 -2.58935546875
-4.089599609375 2.505615234375 3.620361328125
10.034423828125 -4.05126953125 16.63427734375
-3.062255859375 -9.499755859375 -4.24609375
-27.226318359375 3.400390625 -46.034423828125
1.099853515625 -10.147705078125 3.405029296875
-6.159423828125 4.609619140625 0.96142578125
-5.445068359375 -8.1025390625 -7.321044921875
-1.6171875 -2.54638671875 2.383544921875
9.576904296875 -14.654052734375 23.866943359375
1.25634765625 -11.819091796875 4.787353515625
-23.101318359375 0.895263671875 -41.5634765625
1.251708984375 -5.971435546875 19.680908203125
-8.24462890625 0.714599609375 -5.42626953125
-19.8662109375 1.712890625 -36.36328125
-21.51220703125 2.5556640625 -40.66552734375
2.4208984375 -6.559814453125 11.453857421875
0.284912109375 -4.417236328125 2.551025390625
-22.59716796875 0.957763671875 -4.9091796875
10.880859375 -8.31494140625 12.498779296875
-32.314208984375 15.541748046875 -22.251708984375
-25.780029296875 8.99560546875 -43.491943359375
-20.34130859375 0.7998046875 -5.690673828125
-10.584716796875 -4.79443359375 17.463623046875
-4.64892578125 5.102783203125 -20.042236328125
-24.902587890625 -0.250732421875 -42.9091796875
-26.378173828125 10.369384765625 -38.5234375
-30.552734375 18.43798828125 -36.390625
-4.304931640625 -5.032470703125 15.4267578125
-29.49609375 4.69970703125 -22.117919921875
-29.227783203125 2.687744140625 -26.248291015625
-30.198486328125 19.413818359375 -34.741455078125
0.2265625 -3.321044921875 3.296875
-10.37548828125 4.446533203125 -3.64111328125
7.081298828125 -7.510986328125 15.2939453125
7.74755859375 -0.23388671875 20.763671875
15.552490234375 -12.037109375 13.27099609375
0.630126953125 -4.658203125 9.619384765625
1.604248046875 -6.134521484375 6.018798828125
1.595947265625 -3.12646484375 17.75439453125
-29.621826171875 -3.26513671875 -25.623046875
-6.374267578125 -17.701171875 40.26220703125
-15.594970703125 1.08349609375 -7.27685546875
-4.34375 5.050537109375 3.01220703125
-24.6171875 2.5810546875 -42.086669921875
-14.59375 -3.56689453125 17.75390625
-3.96044921875 3.199951171875 6.038330078125
-28.312744140625 9.981201171875 -24.80419921875
5.10400390625 -3.172119140625 17.356689453125
-4.038818359375 -18.823486328125 39.1015625
-15.455322265625 1.65283203125 -5.640380859375
-4.772705078125 -15.6669921875 41.668701171875
12.21826171875 -11.680908203125 6.1728515625
-31.860595703125 12.645751953125 -21.6962890625
-4.128662109375 -1.739013671875 -1.862060546875
-30.02197265625 8.859375 -20.21533203125
4.957275390625 -9.15869140625 11.282958984375
-20.243408203125 1.084716796875 -34.683349609375
0.880615234375 -13.18408203125 9.497802734375
-31.901611328125 17.77392578125 -26.89208984375
-21.2783203125 1.4775390625 -7.849853515625
-3.83154296875 10.231689453125 7.515625
-32.603515625 15.0859375 -20.99365234375
-13.99365234375 1.373046875 -9.342529296875
-27.141357421875 11.51318359375 -47.35498046875
-29.29541015625 -0.126220703125 -23.181396484375
-17.40380859375 1.312744140625 -5.660400390625
-27.085205078125 6.402587890625 -33.858154296875
-25.7431640625 10.48388671875 -40.58349609375
-0.803466796875 -4.218017578125 7.081787109375
-27.34814453125 13.02490234375 -32.7900390625
-14.171875 1.196533203125 -7.66845703125
-4.38427734375 -5.622314453125 20.0556640625
-35.826171875 14.9453125 -14.421142578125
-6.4482421875 -4.3232421875 18.678955078125
-0.785400390625 -7.450927734375 14.833251953125
-26.18798828125 7.975830078125 -44.33984375
9.447509765625 -9.275390625 8.84765625
-26.690185546875 13.571044921875 -39.43212890625
6.77880859375 -8.6552734375 6.281494140625
-32.1689453125 16.9833984375 -36.015625
-3.273193359375 -3.18505859375 17.747314453125
-29.7412109375 15.778564453125 -40.035888671875
-26.89794921875 11.2724609375 -45.667724609375
1.59423828125 -12.89599609375 6.96875
-25.62060546875 11.986083984375 -38.934814453125
-29.59765625 11.822509765625 -27.425537109375
-5.772705078125 1.126953125 0.39404296875
6.140869140625 -7.005615234375 19.375
3.05419921875 -4.80126953125 19.15625
-1.4599609375 -4.2392578125 17.438232421875
-1.114013671875 -3.5615234375 2.0517578125
-7.98291015625 -5.452880859375 21.703125
7.7998046875 -12.451416015625 23.229248046875
-22.661376953125 3.050048828125 -40.73046875
1.372802734375 -10.382080078125 4.679443359375
-26.922119140625 13.554443359375 -43.190673828125
-8.29736328125 4.784423828125 0.91455078125
-16.23486328125 3.164306640625 -4.50390625
9.98095703125 -12.24951171875 3.694091796875
12.92041015625 -12.821533203125 9.175048828125
-12.002197265625 1.025390625 -7.60791015625
9.948974609375 -3.936767578125 18.673583984375
-28.847900390625 5.786376953125 -24.6630859375
1.11669921875 -10.1669921875 10.085205078125
-28.360595703125 7.528564453125 -27.228271484375
-3.593017578125 0.164306640625 -5.29150390625
12.329833984375 -3.62646484375 17.011962890625
1.71728515625 -6.243896484375 3.538330078125
-4.646240234375 8.642578125 3.14453125
-1.22998046875 -7.258544921875 16.061279296875
17.81982421875 -9.219482421875 13.861083984375
-29.22509765625 17.44140625 -35.892578125
-6.520751953125 -4.884521484375 16.2353515625
8.2802734375 -3.2919921875 21.478759765625
-31.078125 18.990966796875 -31.04296875
-8.851806640625 6.329345703125 -1.265380859375
11.2392578125 -15.033203125 23.072021484375
-1.4521484375 -0.8359375 -3.527587890625
17.058837890625 -11.461669921875 13.231201171875
8.47216796875 -13.8818359375 25.037353515625
13.50732421875 -9.349853515625 13.020751953125
-10.398193359375 -5.0498046875 19.993896484375
8.43603515625 -4.899658203125 16.29638671875
-16.916748046875 -4.416015625 20.34521484375
14.41748046875 -6.53955078125 14.83203125
-13.8037109375 -3.70703125 18.605224609375
-37.400390625 5.259521484375 -40.2265625
-30.751220703125 13.39111328125 -26.69091796875
1.090576171875 -7.375 13.590576171875
3.962158203125 -3.6630859375 18.635498046875
1.767333984375 -7.23779296875 10.6767578125
-10.139404296875 1.081298828125 -8.3994140625
-32.109130859375 12.71630859375 -17.118408203125
12.01123046875 -9.894775390625 6.031005859375
-39.244384765625 4.25830078125 -40.72509765625
12.416748046875 -9.13330078125 10.930908203125
-5.742431640625 -2.77197265625 10.231689453125
10.34130859375 -7.851318359375 9.978515625
-29.056884765625 4.36962890625 -24.1953125
-29.17578125 2.128662109375 -23.68994140625
-26.604248046875 -0.529541015625 -47.24072265625
-1.4267578125 -3.041259765625 -3.796630859375
4.54296875 -1.908935546875 20.110107421875
12.259521484375 -6.395751953125 15.629150390625
-27.619873046875 7.21240234375 -49.0341796875
-4.2119140625 0.417724609375 6.25732421875
-0.92138671875 -5.955322265625 19.26171875
1.8876953125 -9.591796875 8.3779296875
-28.029296875 9.335693359375 -49.0673828125
-5.113037109375 9.73779296875 -17.391357421875
-3.915771484375 6.466796875 5.368896484375
-6.356201171875 2.35009765625 10.616455078125
-27.932861328125 5.90771484375 -46.094482421875
-5.3740234375 9.99755859375 2.622802734375
-6.7109375 5.826904296875 10.724853515625
-35.244140625 15.043701171875 -15.66015625
10.802734375 -9.8427734375 4.769287109375
-30.847900390625 14.442626953125 -24.6513671875
14.3515625 -12.26318359375 10.385986328125
-9.427978515625 5.137939453125 0.045654296875
-17.291015625 3.008544921875 -10.35302734375
-25.656982421875 10.504638671875 -41.832763671875
14.368408203125 -14.521240234375 10.990234375
-31.530517578125 10.391845703125 -21.58837890625
-16.013427734375 -4.666259765625 18.693603515625
-2.666259765625 -8.439208984375 -3.887451171875
-25.976806640625 7.161865234375 -38.8623046875
-9.2666015625 -3.5830078125 18.60205078125
-27.540771484375 8.8525390625 -45.679443359375
-21.362060546875 2.123779296875 -31.393798828125
8.066162109375 -5.937255859375 15.9794921875
8.520751953125 -7.783935546875 11.608642578125
-14.386474609375 2.11328125 -5.230224609375
-29.253173828125 14.486328125 -35.408935546875
-2.548583984375 -1.17626953125 -2.284912109375
-4.085693359375 6.42626953125 7.827392578125
-30.5087890625 17.34423828125 -30.55517578125
-5.720703125 11.37939453125 -17.89697265625
-30.7041015625 18.65673828125 -32.259765625
14.314208984375 -4.217041015625 16.25634765625
-7.690673828125 2.521240234375 11.8291015625
-10.343017578125 -3.756591796875 13.19580078125
-7.964111328125 -4.304931640625 14.509765625
-33.976806640625 13.8935546875 -15.147705078125
-29.09326171875 -1.908935546875 -24.377685546875
-33.91650390625 15.53759765625 -18.559814453125
-25.6181640625 -0.086669921875 -45.068603515625
7.2626953125 -15.528076171875 20.62060546875
-5.88525390625 8.705810546875 2.30419921875
-25.927978515625 7.041259765625 -40.53662109375
-0.318603515625 -5.811279296875 10.537353515625
-17.439208984375 1.73779296875 -9.4482421875
-28.475830078125 7.1044921875 -28.477294921875
-0.53466796875 -3.935546875 18.653076171875
-26.296630859375 8.477294921875 -38.902099609375
-25.406494140625 1.483642578125 -44.649658203125
-3.933349609375 8.616943359375 5.606689453125
-26.52099609375 12.6650390625 -41.4912109375
10.343505859375 -8.39794921875 6.71923828125
9.505615234375 -15.669189453125 26.053466796875
2.08544921875 -13.240234375 11.18896484375
-30.7880859375 12.4345703125 -25.822998046875
-25.42431640625 3.5615234375 -44.250732421875
-12.902099609375 -4.528564453125 20.358642578125
17.579345703125 -12.482177734375 12.91162109375
-1.29638671875 -1.09521484375 -0.612548828125
1.411865234375 -13.637451171875 5.347900390625
9.074462890625 -14.47509765625 25.929443359375
-4.629638671875 -2.7763671875 -7.622314453125
12.850830078125 -10.584716796875 9.404296875
-7.9453125 -15.99365234375 40.073486328125
-14.57763671875 -2.584228515625 16.824951171875
-5.59326171875 12.734130859375 -17.95654296875
-3.086669921875 -5.636962890625 13.409423828125
-4.373291015625 -2.09521484375 6.870361328125
-9.67822265625 5.110107421875 -3.2587890625
-7.790283203125 2.55859375 -0.569091796875
-7.723876953125 1.21044921875 -3.373779296875
-24.523681640625 4.076416015625 -32.8447265625
-8.85791015625 3.887939453125 -3.160888671875
-5.17822265625 -4.34521484375 12.449462890625
-7.966064453125 -15.716796875 42.146728515625
-27.532470703125 6.59619140625 -32.62255859375
6.730712890625 -0.556396484375 21.204833984375
-29.25732421875 6.122314453125 -23.009521484375
-25.639892578125 8.46630859375 -42.22119140625
1.85400390625 -10.013916015625 6.32666015625
-6.41015625 -15.26953125 41.644287109375
-25.916259765625 5.416015625 -45.13916015625
2.635009765625 -8.336181640625 11.193115234375
-25.197021484375 2.072509765625 -43.799560546875
-19.634521484375 0.636474609375 -3.5703125
-8.12158203125 -0.628173828125 -9.081787109375
-9.95556640625 -4.67138671875 15.3671875
-27.45751953125 8.66748046875 -33.513427734375
-27.224609375 10.0732421875 -34.376220703125
9.841552734375 -7.12890625 15.27294921875
6.2294921875 -10.162353515625 5.9775390625
-4.151123046875 5.19677734375 7.92822265625
-22.221435546875 4.224609375 -39.466796875
15.935546875 -13.509033203125 12.5751953125
1.994873046875 -5.929931640625 8.08056640625
-24.470458984375 6.453857421875 -38.7763671875
-27.385498046875 7.232666015625 -45.235595703125
0.977783203125 -8.5234375 15.355712890625
-27.09619140625 9.8046875 -31.019287109375
-10.443603515625 11.85595703125 -2.498291015625
18.66552734375 -11.572021484375 14.4873046875
-3.82275390625 7.698486328125 4.86376953125
-31.74853515625 17.9384765625 -28.135986328125
-14.091064453125 -5.029541015625 21.663330078125
-10.79345703125 0.955322265625 -5.911865234375
-6.107421875 11.3212890625 -19.133544921875
-3.09130859375 0.121337890625 -6.519287109375
-28.353515625 13.807861328125 -32.854736328125
-31.916748046875 10.991455078125 -18.28173828125
-28.927001953125 8.915771484375 -22.69287109375
5.86669921875 -7.730224609375 12.41064453125
-4.768798828125 -0.62451171875 1.36474609375
-14.00146484375 3.138916015625 -4.456787109375
-24.637451171875 3.68212890625 -41.260498046875
16.267822265625 -7.434326171875 14.5126953125
13.43359375 -6.864501953125 14.856201171875
-31.422119140625 18.526611328125 -28.9716796875
-3.697021484375 -2.93408203125 4.870849609375
-27.062744140625 13.48193359375 -34.0380859375
-32.864990234375 13.82080078125 -18.862548828125
-9.101318359375 5.611572265625 -2.044189453125
1.475341796875 -11.7890625 8.55224609375
-6.62451171875 -4.501220703125 20.359375
-28.456787109375 14.895263671875 -37.8779296875
-18.85595703125 0.2216796875 -4.364990234375
-3.4169921875 7.468017578125 -17.23095703125
-4.36767578125 7.043212890625 -18.884033203125
16.993408203125 -6.061767578125 17.665283203125
-17.68994140625 1.275634765625 -8.5908203125
5.031494140625 -11.394287109375 10.6416015625
-14.492431640625 4.14892578125 -4.11767578125
-27.1103515625 9.744140625 -46.083740234375
-4.67529296875 4.179443359375 2.661865234375
-30.0400390625 16.39013671875 -37.98291015625
-4.93310546875 1.2685546875 2.05078125
-3.09814453125 -10.77880859375 -4.584716796875
-33.115234375 15.1328125 -19.76416015625
-20.326171875 3.2763671875 -32.641357421875
-27.307861328125 7.876220703125 -34.324951171875
-2.1767578125 -2.517578125 4.444580078125
-28.025390625 10.442626953125 -26.06396484375
-24.86328125 6.0947265625 -35.010986328125
-31.9482421875 14.259033203125 -23.017822265625
-29.318359375 7.335693359375 -20.543701171875
-30.054931640625 12.700927734375 -28.307861328125
-19.7275390625 1.04931640625 -6.531005859375
-3.906494140625 3.080322265625 4.40234375
-15.6806640625 2.29931640625 -4.852783203125
-19.546142578125 4.530029296875 -36.408935546875
-25.67041015625 7.49951171875 -41.3701171875
-17.510009765625 0.884521484375 -6.889892578125
-27.271728515625 9.7998046875 -35.626220703125
-5.4921875 -17.814453125 39.841796875
-16.323974609375 -3.3505859375 25.260498046875
-2.125 -10.177490234375 -2.0869140625
9.476806640625 -14.10009765625 21.731689453125
-29.750732421875 13.85009765625 -32.082763671875
-30.64111328125 16.246337890625 -29.28076171875
1.1787109375 -11.143798828125 10.167724609375
-8.772705078125 -3.329345703125 12.3349609375
3.842529296875 -4.367431640625 16.228759765625
-11.026123046875 -4.463623046875 19.5185546875
-32.29541015625 13.787841796875 -20.926513671875
-17.097412109375 -4.595703125 22.04052734375
-16.826171875 -3.71337890625 23.626220703125
-13.802001953125 1.254150390625 -5.99609375
-7.550537109375 -5.349365234375 15.440673828125
-15.41748046875 -4.716796875 23.307861328125
-19.78173828125 0.052734375 -34.637939453125
-4.08251953125 -3.567626953125 6.991943359375
-27.80810546875 0.02880859375 -31.183349609375
-25.8056640625 2.53125 -45.527099609375
13.232666015625 -10.5146484375 10.64208984375
-26.0634765625 4.77880859375 -32.509521484375
-29.318359375 0.442626953125 -26.1708984375
1.27490234375 -4.665771484375 6.313232421875
1.664794921875 -7.23779296875 5.27490234375
-1.423095703125 -7.416748046875 11.080322265625
12.88134765625 -8.770263671875 12.55322265625
4.32373046875 -7.18310546875 12.3515625
-25.96923828125 3.59912109375 -42.591796875
-28.2451171875 7.796875 -49.492919921875
-18.90576171875 0.365966796875 -39.2373046875
-1.817138671875 -4.0830078125 -4.152099609375
1.582275390625 -5.5947265625 9.706787109375
-10.509765625 7.41015625 -3.017333984375
-10.3173828125 -5.876708984375 20.4931640625
-1.520751953125 -2.95556640625 5.3154296875
-29.184326171875 10.240478515625 -23.592041015625
-4.28857421875 -0.778564453125 -7.31982421875
-28.925048828125 10.69482421875 -24.436279296875
-20.2158203125 0.5205078125 -31.720703125
-24.627197265625 5.71826171875 -34.152099609375
-5.4111328125 5.416259765625 1.32568359375
-25.952392578125 6.6025390625 -35.91162109375
-21.152587890625 4.37939453125 -33.545166015625
14.4013671875 -13.24169921875 10.8828125
-23.98193359375 5.970458984375 -35.3876953125
-25.4736328125 6.018798828125 -40.497314453125
-3.82763671875 -0.159912109375 -3.619873046875
-30.755615234375 10.80078125 -23.670166015625
8.6767578125 -2.390869140625 20.5693359375
-8.75927734375 -4.331787109375 19.925048828125
-30.039794921875 11.195068359375 -24.913818359375
-27.640625 2.361083984375 -46.89453125
12.025146484375 -14.585693359375 20.119140625
10.264892578125 -14.94775390625 25.143798828125
-19.086669921875 1.297607421875 -37.1591796875
-5.212646484375 -5.086669921875 22.496337890625
-8.060302734375 2.79052734375 -1.830810546875
-26.944580078125 5.106689453125 -45.612548828125
-13.608642578125 -5.07861328125 20.8310546875
-1.13037109375 -7.533447265625 19.830322265625
-27.700439453125 12.42138671875 -31.53857421875
-4.06494140625 -5.40966796875 16.2939453125
0.3134765625 -7.23779296875 12.7421875
-5.335693359375 -4.927001953125 11.250732421875
-6.86279296875 -1.0390625 10.90380859375
16.591064453125 -5.02978515625 16.341064453125
1.751708984375 -4.7646484375 19.150634765625
-2.790771484375 -5.15771484375 11.706787109375
-12.513916015625 2.302001953125 -5.202880859375
-3.79052734375 7.0205078125 6.963134765625
-3.45751953125 -3.31005859375 5.7333984375
-4.1611328125 0.162353515625 3.798095703125
1.721435546875 -3.52783203125 20.268310546875
-5.816650390625 -0.251708984375 -0.751220703125
-28.309814453125 14.50390625 -35.78271484375
15.28125 -10.268798828125 13.938232421875
-33.377685546875 13.867431640625 -17.630126953125
7.80908203125 -7.22412109375 12.380859375
-28.60546875 8.166015625 -26.00244140625
17.97265625 -8.226806640625 17.053466796875
7.396728515625 -6.6171875 15.626708984375
-4.98876953125 -0.6484375 -2.366943359375
-0.829833984375 -4.088623046875 8.314697265625
-24.13427734375 4.836181640625 -33.68798828125
9.319091796875 -13.560546875 20.43115234375
-2.43212890625 -3.416748046875 9.90087890625
-39.293212890625 3.26953125 -39.857666015625
-8.76806640625 10.788818359375 -1.166748046875
-40.727294921875 4.14697265625 -40.36962890625
-30.503173828125 17.514404296875 -36.782470703125
-0.064453125 -3.01220703125 16.9130859375
7.435546875 -9.093505859375 7.153564453125
7.7353515625 -9.18212890625 8.822021484375
-2.854736328125 -3.626220703125 8.25537109375
-7.471435546875 -17.193603515625 39.370849609375
-30.913818359375 18.479248046875 -30.1923828125
2.1181640625 -6.607421875 8.967041015625
-6.107666015625 3.6650390625 1.031005859375
-19.388916015625 0.964111328125 -5.261962890625
5.965087890625 -8.14111328125 15.345947265625
-21.14599609375 2.3134765625 -4.1298828125
14.96240234375 -4.649658203125 17.116943359375
-4.0419921875 -2.555908203125 -1.389404296875
-4.684814453125 -7.258544921875 -6.935302734375
-26.608642578125 14.017578125 -44.84521484375
8.56298828125 -12.38671875 4.515869140625
-28.62255859375 15.0244140625 -41.632568359375
0.556396484375 -8.27685546875 2.423828125
-32.864013671875 17.073486328125 -23.995849609375
-3.892822265625 5.39013671875 5.044189453125
17.690185546875 -13.44482421875 12.5830078125
-15.861572265625 -5.06787109375 20.829345703125
13.91455078125 -10.807373046875 11.912353515625
-28.259521484375 8.64404296875 -28.100830078125
-9.786376953125 0.733642578125 -9.2021484375
-2.60302734375 -6.255126953125 15.962646484375
-9.1650390625 -4.67333984375 17.03955078125
-29.851806640625 15.7119140625 -31.308837890625
-27.569580078125 4.65576171875 -31.3076171875
-30.296630859375 16.713623046875 -31.357177734375
-28.2470703125 15.074462890625 -39.95068359375
-31.9677734375 16.01025390625 -24.337158203125
-16.707275390625 -4.229736328125 18.230712890625
-24.825927734375 1.99365234375 -42.93408203125
-28.940673828125 4.3974609375 -25.87744140625
17.81787109375 -7.969482421875 14.159912109375
-26.96533203125 11.87060546875 -32.741943359375
-15.832763671875 1.4599609375 -8.14013671875
-25.682373046875 5.437255859375 -41.339599609375
-30.260498046875 17.6591796875 -32.212646484375
-13.037353515625 -5.680419921875 22.146728515625
4.77587890625 -5.872802734375 20.088623046875
-29.783447265625 18.41162109375 -34.283935546875
3.19482421875 -6.697021484375 12.30078125
-25.047607421875 3.014892578125 -31.99658203125
-30.638916015625 19.6044921875 -33.52490234375
-0.40234375 -10.8525390625 1.7607421875
-12.2392578125 -4.970947265625 21.238525390625
-31.931640625 19.379638671875 -29.02001953125
-12.2236328125 -4.666748046875 15.7744140625
-7.534423828125 0.15478515625 -6.205810546875
-13.50146484375 -3.93505859375 19.4638671875
-13.6591796875 -3.67236328125 16.512451171875
-25.403076171875 6.73388671875 -43.86474609375
-1.5068359375 -0.71484375 -1.8828125
-2.166259765625 -2.947509765625 8.621337890625
-2.610107421875 0.475341796875 -4.876953125
-19.056884765625 1.312255859375 -8.20703125
10.884521484375 -8.9990234375 8.4267578125
-11.884765625 -4.041015625 14.46484375
-31.713134765625 9.392578125 -18.618408203125
-10.8916015625 -4.703857421875 15.783447265625
-22.476318359375 5.262939453125 -35.302978515625
-31.16943359375 9.353759765625 -20.27490234375
6.572021484375 -15.093017578125 20.15966796875
-18.40966796875 1.13525390625 -5.252197265625
-12.110595703125 -3.958984375 18.6328125
-20.34619140625 3.97216796875 -34.7568359375
-24.90869140625 6.781494140625 -36.70654296875
-12.801513671875 -3.524169921875 18.172119140625
-24.102294921875 6.374267578125 -37.91845703125
-21.89892578125 5.366943359375 -36.536376953125
-23.0517578125 5.7255859375 -37.436279296875
-14.66796875 -4.56591796875 19.52392578125
-24.097900390625 5.01220703125 -40.412841796875
-11.640625 5.7265625 -3.338134765625
-12.151123046875 0.85595703125 -6.3515625
-20.33740234375 4.674072265625 -37.286865234375
-22.05810546875 3.529296875 -32.30322265625
13.15087890625 -9.001953125 13.81201171875
-4.418701171875 -1.10693359375 -0.252197265625
8.85986328125 -14.366943359375 23.006591796875
-25.864501953125 9.93115234375 -42.67138671875
-26.911865234375 10.577880859375 -43.15185546875
11.34130859375 -15.727294921875 24.39013671875
-2.8232421875 -6.281982421875 12.219970703125
-6.794921875 -3.9443359375 12.403076171875
-0.039794921875 -7.870361328125 14.459228515625
-6.32373046875 -4.72802734375 21.213623046875
-29.354248046875 11.581787109375 -25.738037109375
10.9384765625 -14.806396484375 22.2177734375
-5.072265625 -5.189453125 19.5966796875
-7.13623046875 -3.89013671875 18.219970703125
1.410888671875 -8.282470703125 9.93017578125
-6.1474609375 -4.550048828125 19.532958984375
-29.0283203125 11.7900390625 -29.48876953125
10.493896484375 -14.614013671875 23.44580078125
-2.18994140625 -6.591796875 14.331787109375
-4.992431640625 -4.599609375 14.968017578125
-27.2578125 11.87646484375 -42.768798828125
-3.51123046875 -17.281005859375 40.1689453125
0.1328125 -7.8291015625 11.960693359375
-4.617919921875 -4.97119140625 20.822509765625
-2.664306640625 0.59619140625 -3.233154296875
-4.13916015625 -4.42236328125 9.554443359375
-8.8720703125 -6.595458984375 21.400390625
-4.0654296875 -4.567138671875 14.55419921875
-10.421142578125 -4.210693359375 18.660400390625
-34.59423828125 15.28759765625 -16.903076171875
-4.09765625 10.46044921875 6.2724609375
-26.03564453125 12.18505859375 -38.125244140625
-29.792236328125 14.526123046875 -33.768798828125
12.32177734375 -12.5078125 6.65380859375
-31.899658203125 15.343017578125 -23.060791015625
1.904052734375 -6.360595703125 6.8701171875
-28.6533203125 14.033935546875 -33.7060546875
-2.577392578125 -9.269775390625 -3.412841796875
7.17724609375 -9.292724609375 10.0693359375
-5.406005859375 -1.881591796875 10.573486328125
-7.2880859375 0.050048828125 -3.703125
-3.630615234375 -5.169677734375 10.86962890625
-29.097900390625 15.634765625 -44.161865234375
-7.297119140625 0.479736328125 -7.880859375
-27.156982421875 14.3134765625 -41.132080078125
-2.231201171875 -3.82861328125 18.225341796875
-26.34423828125 13.615234375 -37.336181640625
-28.24072265625 15.24462890625 -46.193115234375
2.637451171875 -6.53271484375 15.1826171875
-27.6416015625 14.792724609375 -44.491943359375
-28.51171875 15.477294921875 -47.45849609375
-28.983154296875 15.662109375 -45.82080078125
4.421875 -7.59375 15.288330078125
4.15087890625 -7.361083984375 14.02294921875
-27.37060546875 14.559814453125 -43.226806640625
-26.84423828125 13.793212890625 -35.283935546875
-29.33642578125 15.835205078125 -38.769775390625
-0.0546875 -4.22705078125 9.16259765625
1.270751953125 -5.397216796875 15.900146484375
-3.49169921875 -1.777587890625 1.883544921875
-2.2490234375 -10.622802734375 -2.898193359375
6.280517578125 -7.9287109375 11.60302734375
1.932373046875 -4.96728515625 8.00146484375
-6.551513671875 -4.184814453125 14.09033203125
0.763916015625 -4.0576171875 4.1884765625
-0.90185546875 -2.834716796875 3.243896484375
-0.829345703125 -2.52001953125 -2.98974609375
-4.991943359375 0.05078125 -4.89990234375
-7.06005859375 1.0419921875 -0.86376953125
8.906005859375 -8.67333984375 7.137451171875
-12.7314453125 5.134765625 -4.1474609375
6.340576171875 -7.094482421875 15.66552734375
-16.018798828125 1.71484375 -10.66455078125
-3.95849609375 8.7412109375 6.8212890625
-8.526611328125 3.80322265625 -1.9091796875
5.56201171875 -5.57373046875 16.34765625
3.07470703125 -3.958251953125 17.0126953125
9.046630859375 -7.27197265625 13.219482421875
1.894287109375 -3.3515625 18.6015625
-4.94189453125 1.237060546875 9.072998046875
-3.440185546875 -4.30859375 13.288818359375
-31.597412109375 19.713623046875 -31.913818359375
-16.432861328125 -4.46533203125 19.511962890625
11.731689453125 -8.293701171875 12.91552734375
-0.8076171875 -3.8388671875 16.57470703125
-29.25048828125 4.05615234375 -23.346923828125
3.6640625 -3.438232421875 17.78955078125
-7.08056640625 -15.689208984375 42.550048828125
-30.728759765625 11.62890625 -25.373291015625
-16.835693359375 1.282958984375 -7.735107421875
12.22509765625 -7.92529296875 14.122314453125
-4.257080078125 6.11865234375 -19.66162109375
1.246826171875 -8.572509765625 3.70654296875
-6.2783203125 7.69873046875 1.96435546875
10.055908203125 -7.919677734375 14.108642578125
-4.1904296875 8.42529296875 8.47802734375
-3.92724609375 5.11865234375 3.833740234375
-3.281005859375 -2.159423828125 3.15869140625
6.779541015625 -3.279052734375 17.782470703125
-28.147216796875 14.41357421875 -39.101806640625
-9.22119140625 7.618408203125 -0.950927734375
0.716064453125 -4.6376953125 8.375732421875
-9.86328125 0.983154296875 -6.30908203125
10.601318359375 -4.91064453125 16.30615234375
-9.139404296875 0.828125 -4.621826171875
-29.122802734375 15.5888671875 -36.67626953125
-4.412109375 1.20068359375 7.4306640625
-29.04833984375 7.532470703125 -23.47900390625
-3.162109375 5.75927734375 -18.37548828125
8.1669921875 -4.1279296875 18.27783203125
-7.725341796875 -3.97607421875 12.815673828125
-33.5283203125 16.9560546875 -21.52197265625
7.8701171875 -13.427978515625 23.328369140625
8.26708984375 -2.194580078125 21.36865234375
-5.599853515625 8.318603515625 -18.9814453125
-32.728515625 16.552001953125 -22.723876953125
-5.05224609375 6.521240234375 9.8583984375
-22.618408203125 4.26318359375 -32.76708984375
-11.083984375 1.45166015625 -5.1181640625
-8.573974609375 -3.174072265625 17.31640625
-29.971435546875 13.538330078125 -30.832763671875
2.061279296875 -8.013916015625 8.251220703125
-5.36572265625 7.94921875 10.142578125
17.2431640625 -5.731201171875 15.59130859375
-28.97216796875 -2.73046875 -24.76708984375
15.213134765625 -4.320068359375 15.043701171875
-4.817626953125 9.514892578125 -16.552490234375
-11.275390625 -4.359375 17.0029296875
-8.396728515625 1.109619140625 -7.529541015625
-1.600830078125 -7.7333984375 11.93896484375
17.646240234375 -6.764404296875 16.91552734375
-2.2470703125 -1.2666015625 -0.6171875
-9.07861328125 12.07666015625 -1.67138671875
-0.3916015625 -3.442138671875 5.367919921875
-4.096923828125 4.256103515625 8.006591796875
13.38623046875 -4.12109375 17.8798828125
7.29833984375 0.77783203125 20.254638671875
2.1142578125 -5.492919921875 8.874755859375
-30.774658203125 20.121826171875 -34.784912109375
14.510986328125 -12.79931640625 11.674560546875
-31.24267578125 13.70166015625 -23.803466796875
-3.974853515625 5.502197265625 7.0849609375
-4.219970703125 10.852783203125 3.79638671875
-10.15087890625 7.33154296875 -2.181640625
-23.560302734375 1.928466796875 -41.601806640625
-32.478759765625 17.677490234375 -25.665771484375
2.33642578125 -6.443603515625 13.515625
-33.143310546875 15.939208984375 -20.63330078125
17.63720703125 -14.8671875 12.291748046875
18.53759765625 -14.5498046875 13.5126953125
-28.455322265625 11.32958984375 -27.3642578125
-25.604248046875 5.32275390625 -43.437744140625
3.458740234375 -2.383544921875 20.5673828125
-4.255859375 7.203125 8.579833984375
12.250732421875 -9.859375 9.338134765625
-5.98681640625 14.92626953125 -18.07177734375
0.5634765625 -4.10546875 7.088623046875
0.29345703125 -3.08837890625 17.747314453125
11.651611328125 -9.134765625 9.272216796875
14.869384765625 -11.60693359375 12.815185546875
7.5107421875 -6.72607421875 13.160888671875
-3.41162109375 -2.028076171875 -0.999267578125
8.221923828125 -6.87646484375 14.829345703125
-30.522216796875 14.649658203125 -28.391845703125
-29.10400390625 1.034423828125 -25.33740234375
-5.273193359375 15.82568359375 -16.46728515625
-33.469970703125 17.779052734375 -23.630615234375
-26.322998046875 9.427978515625 -38.921142578125
-31.39111328125 16.918212890625 -26.841796875
-19.61328125 2.71240234375 -33.4345703125
-32.34375 18.772216796875 -26.944580078125
-4.810546875 6.05419921875 2.929443359375
14.978271484375 -11.1669921875 13.603271484375
-8.867919921875 -4.330078125 14.507080078125
-22.521484375 3.485107421875 -39.88916015625
-7.21337890625 -4.587890625 14.955810546875
5.739501953125 -0.872802734375 21.237060546875
-27.133544921875 8.9130859375 -44.39990234375
-3.94482421875 7.27734375 4.076904296875
-7.3818359375 -2.2412109375 11.41845703125
-5.59033203125 -4.009521484375 14.080078125
-26.010498046875 8.9404296875 -40.15283203125
-6.63671875 0.176513671875 -6.187255859375
10.77978515625 -3.090087890625 17.36572265625
-29.531005859375 6.755615234375 -21.364990234375
18.166015625 -6.79833984375 15.28466796875
12.17138671875 -10.704345703125 5.68212890625
9.23291015625 -8.48095703125 10.020751953125
-2.046142578125 -7.540771484375 13.168701171875
-5.908447265625 -9.31787109375 -7.678955078125
-29.37353515625 -0.416015625 -24.020751953125
3.0517578125 -6.731201171875 14.374267578125
-31.9765625 10.5849609375 -20.3564453125
-7.0068359375 0.921142578125 -2.511474609375
7.6650390625 -8.626953125 6.29052734375
-27.53662109375 5.630615234375 -32.17578125
-21.2236328125 4.66259765625 -37.747802734375
8.591552734375 -8.885498046875 10.876220703125
-5.630859375 0.3291015625 0.03955078125
9.490234375 -8.41943359375 6.296875
-28.29833984375 6.7138671875 -26.777587890625
-32.58544921875 12.511474609375 -18.374755859375
-26.150146484375 1.641357421875 -46.384033203125
-8.665283203125 4.595947265625 -1.553466796875
10.837646484375 -14.2529296875 20.0849609375
-6.99365234375 0.86474609375 11.152587890625
7.2978515625 -12.41162109375 24.472412109375
-9.5380859375 -0.879150390625 -9.518310546875
-21.996337890625 0.934814453125 -7.41357421875
-9.26513671875 -5.10595703125 15.82763671875
-4.464111328125 -5.369140625 22.939697265625
-8.18603515625 -5.74755859375 15.8916015625
-25.738525390625 5.38916015625 -33.352783203125
-5.094970703125 -3.619873046875 8.647216796875
-19.337890625 3.61328125 -38.895751953125
-26.430908203125 5.824951171875 -33.814453125
1.63916015625 -8.365234375 5.778076171875
11.981689453125 -9.764404296875 7.2607421875
12.715087890625 -9.358154296875 11.778076171875
-5.816650390625 -3.927978515625 18.226806640625
-6.50537109375 0.04443359375 -2.028076171875
-3.080810546875 -5.363037109375 15.047119140625
-20.361328125 1.49853515625 -7.829833984375
-2.903076171875 -5.95068359375 -5.721923828125
-18.71875 1.22705078125 -6.938232421875
16.56689453125 -6.547607421875 14.84423828125
-12.7919921875 1.031982421875 -9.293212890625
7.9150390625 -12.008056640625 24.014404296875
1.170654296875 -6.510986328125 10.609619140625
1.433837890625 -10.091064453125 5.492919921875
-28.707275390625 7.049072265625 -25.1259765625
-31.986328125 9.627197265625 -19.89501953125
1.280029296875 -9.55224609375 4.19775390625
6.992431640625 -8.90185546875 8.376708984375
-5.33251953125 -2.864501953125 17.296630859375
-9.836181640625 -5.21533203125 17.088134765625
-3.81103515625 -3.801025390625 8.259765625
-5.633544921875 14.846923828125 -17.243408203125
-26.643798828125 13.841064453125 -38.186767578125
-1.759765625 -4.013427734375 16.587646484375
7.37890625 -1.122802734375 21.261474609375
1.794677734375 -8.764404296875 7.89306640625
0.110107421875 -3.484130859375 4.1357421875
-36.40478515625 15.662109375 -14.47509765625
-9.743896484375 1.1455078125 -7.1474609375
12.283935546875 -13.6484375 7.573974609375
-19.720458984375 3.38818359375 -34.29541015625
-26.101318359375 6.999755859375 -38.025634765625
-9.399169921875 5.836181640625 -2.8896484375
-29.18359375 16.3857421875 -37.11181640625
-18.805419921875 2.873046875 -38.01708984375
-20.295654296875 2.184326171875 -4.1044921875
-3.5390625 7.0458984375 -18.035888671875
16.211181640625 -10.088623046875 13.92822265625
-19.589111328125 2.05322265625 -9.100830078125
-4.43115234375 2.424072265625 8.56640625
1.35888671875 -4.78125 4.251953125
-5.11376953125 -4.058349609375 13.256103515625
-32.22998046875 19.604736328125 -29.8671875
-27.394287109375 15.10986328125 -46.146240234375
-4.02001953125 -1.6064453125 4.349365234375
-25.89013671875 13.1669921875 -40.634521484375
-8.0205078125 5.510009765625 1.278076171875
-29.169677734375 13.133544921875 -32.03759765625
9.17919921875 -11.98291015625 4.078369140625
-31.206787109375 15.46826171875 -25.951171875
-7.25390625 -4.760498046875 21.63330078125
-30.244384765625 14.97412109375 -30.471435546875
-3.803955078125 4.721923828125 6.329345703125
14.405517578125 -11.9736328125 11.189453125
-26.5849609375 12.481689453125 -34.407958984375
13.498046875 -3.95947265625 17.047119140625
-5.721923828125 3.827880859375 10.0830078125
-3.8720703125 -6.23388671875 22.195556640625
-5.657470703125 11.65283203125 -17.090576171875
1.89501953125 -6.114990234375 15.554931640625
-9.5537109375 -5.175048828125 20.007080078125
-13.328369140625 1.068359375 -7.64111328125
-3.911865234375 1.986328125 4.487060546875
-40.7861328125 4.1328125 -39.519287109375
0.189453125 -6.695556640625 11.0322265625
-28.53662109375 15.044921875 -42.876953125
-9.499755859375 -3.88232421875 13.21240234375
-29.501220703125 17.119384765625 -33.82373046875
-5.55712890625 13.8056640625 -18.4130859375
11.787353515625 -16.059814453125 22.343017578125
11.58837890625 -4.588134765625 16.280029296875
-3.901123046875 4.170654296875 4.318115234375
-29.39306640625 -0.692138671875 -25.70849609375
-4.927001953125 6.714111328125 2.057861328125
-37.342041015625 5.2734375 -41.0732421875
-4.043212890625 -5.598876953125 -6.603759765625
-27.168212890625 0.214111328125 -47.70166015625
-4.5927734375 7.7099609375 3.21630859375
-8.852783203125 0.896728515625 -8.773193359375
9.90576171875 -3.114013671875 17.365234375
-26.678955078125 7.8583984375 -37.2314453125
10.485595703125 -17.757568359375 26.26953125
18.684326171875 -8.918701171875 15.48046875
3.08935546875 -5.7685546875 19.66357421875
-5.498291015625 -15.2353515625 41.625732421875
3.273681640625 -11.31005859375 11.03564453125
-3.633056640625 -3.108642578125 16.910400390625
-26.50146484375 2.969482421875 -45.991455078125
-2.447509765625 -2.28515625 3.18017578125
11.889892578125 -16.755126953125 23.661865234375
-19.0947265625 -0.521240234375 -35.014892578125
-0.28125 -3.6865234375 2.07373046875
-18.725341796875 -0.02734375 -37.536376953125
-18.7763671875 0.095703125 -35.856689453125
-19.469970703125 0.5322265625 -36.319580078125
-27.910400390625 10.47021484375 -27.73095703125
-20.250732421875 0.9482421875 -35.5224609375
1.422119140625 -12.797607421875 10.30859375
-22.5390625 0.9716796875 -5.74853515625
15.015380859375 -4.3671875 17.90771484375
-23.383544921875 3.4794921875 -40.7734375
-21.209228515625 2.3271484375 -39.804931640625
-15.359619140625 -4.702880859375 22.46875
-0.508056640625 -3.60546875 6.207763671875
-10.154052734375 9.357666015625 -2.731689453125
2.835205078125 -13.662109375 10.81298828125
1.07373046875 -12.558349609375 3.165283203125
1.2587890625 -12.954345703125 4.8740234375
-25.692138671875 6.664794921875 -39.678955078125
-26.01025390625 6.5888671875 -35.074462890625
-26.6728515625 7.031005859375 -35.954345703125
1.619873046875 -11.754638671875 6.46044921875
4.439208984375 -7.018798828125 11.509765625
-5.922119140625 -17.89697265625 39.013671875
8.422119140625 -7.9208984375 5.4169921875
-29.96435546875 8.873046875 -21.0517578125
-20.777099609375 4.46923828125 -38.98095703125
-21.872314453125 4.807373046875 -33.587646484375
-23.85791015625 6.1328125 -36.224609375
-19.60400390625 4.51611328125 -35.57373046875
-4.1494140625 -7.968505859375 22.78759765625
-10.400634765625 -3.770263671875 14.031005859375
-20.264892578125 4.957275390625 -36.45166015625
3.882080078125 -4.92529296875 19.169677734375
-14.837646484375 1.50146484375 -9.37060546875
-13.98779296875 1.508544921875 -8.5166015625
-30.079833984375 8.845458984375 -19.379150390625
-31.995849609375 11.533203125 -20.399169921875
-16.59228515625 1.609130859375 -9.419921875
-15.65283203125 1.069580078125 -6.4423828125
-13.8076171875 1.11865234375 -6.821533203125
-3.757568359375 -9.20263671875 -5.53759765625
-25.753662109375 9.39599609375 -40.984619140625
9.148193359375 -9.049560546875 7.998291015625
-15.711181640625 1.623046875 -8.981689453125
-16.374267578125 -5.025634765625 22.083251953125
-29.707763671875 18.30224609375 -36.348876953125
-25.1904296875 6.8818359375 -38.819091796875
11.40380859375 -10.70703125 4.014892578125
-11.13232421875 0.904541015625 -7.996337890625
-2.716064453125 -7.127685546875 19.37255859375
-17.1552734375 -4.609619140625 22.880615234375
-13.93603515625 1.386962890625 -10.17578125
-32.758056640625 13.28857421875 -17.166015625
-5.962890625 -4.343017578125 10.779296875
9.94970703125 -14.146484375 20.905029296875
-6.7373046875 -3.930419921875 11.56982421875
-23.261962890625 5.54248046875 -35.34521484375
-3.610595703125 -3.292236328125 -5.903564453125
-6.662841796875 -4.07568359375 16.57568359375
11.383056640625 -14.998779296875 20.98974609375
-20.915771484375 4.002685546875 -32.686279296875
10.585693359375 -8.77392578125 7.57861328125
-5.033447265625 -4.77197265625 21.63330078125
-29.997314453125 12.714599609375 -29.14013671875
-5.270751953125 -3.79736328125 10.32275390625
7.083740234375 -12.025634765625 23.18701171875
-4.855224609375 -3.99658203125 9.51220703125
-27.251220703125 11.411376953125 -31.490234375
-26.7861328125 7.6044921875 -44.787109375
1.732177734375 -9.192138671875 6.260498046875
-2.95458984375 -4.788818359375 16.65576171875
-2.843505859375 -6.782958984375 -4.83349609375
-2.34716796875 -7.3134765625 12.3134765625
-30.79052734375 14.456298828125 -25.48193359375
-0.37841796875 -4.847412109375 10.454833984375
-8.248779296875 0.57958984375 -6.248046875
-29.355712890625 15.1865234375 -43.337158203125
-5.29443359375 0.141357421875 -6.56982421875
1.452880859375 -5.46435546875 5.549560546875
-27.404296875 13.995849609375 -39.474365234375
-29.470458984375 15.1591796875 -41.67724609375
-6.148681640625 -1.463623046875 10.9462890625
-1.517578125 -3.79345703125 7.03955078125
2.482421875 -3.1025390625 17.75439453125
5.578369140625 -8.2099609375 14.107666015625
-7.16943359375 0.212646484375 -4.541259765625
-25.938720703125 13.284912109375 -38.974365234375
-30.957275390625 15.785400390625 -27.61572265625
-34.06787109375 16.996337890625 -19.8798828125
-27.870849609375 14.738037109375 -41.17431640625
-27.828857421875 14.450439453125 -36.59130859375
-28.35546875 15.217041015625 -44.534423828125
-3.98681640625 -2.760498046875 17.704833984375
3.679443359375 -7.17626953125 15.66064453125
-29.2255859375 15.90185546875 -47.500732421875
-4.12548828125 -1.603515625 -1.04150390625
-6.077880859375 -4.37060546875 12.445556640625
5.1533203125 -7.30615234375 12.368408203125
-4.205078125 -1.353271484375 1.84130859375
-31.7080078125 16.457763671875 -25.176025390625
12.2734375 -11.39111328125 6.979736328125
-1.946533203125 -6.832275390625 16.018798828125
-1.463623046875 -2.94189453125 4.48681640625
-11.80859375 -4.186767578125 19.490478515625
-4.75 -0.188720703125 -3.22216796875
-29.536376953125 16.1728515625 -32.969970703125
-16.23681640625 1.930419921875 -5.674560546875
0.343017578125 -3.158203125 2.458740234375
-31.142333984375 17.233642578125 -28.5029296875
-29.02734375 15.35400390625 -39.99365234375
-2.857666015625 -3.762451171875 7.436767578125
-3.6923828125 -6.76318359375 23.080810546875
10.193603515625 -14.5263671875 21.774169921875
-14.95263671875 1.473876953125 -7.703369140625
-9.663818359375 4.0234375 -3.59912109375
-1.44970703125 -0.701171875 -2.70947265625
-2.10400390625 -0.264404296875 -3.578369140625
1.564208984375 -3.404052734375 16.542724609375
10.255615234375 -7.871826171875 11.217529296875
-6.564697265625 2.493896484375 0.696044921875
5.7177734375 -5.8330078125 19.260498046875
11.0234375 -8.281005859375 10.43359375
8.3359375 -6.84912109375 13.17724609375
11.705810546875 -8.71044921875 10.888671875
9.9990234375 -7.933349609375 14.9345703125
-31.859130859375 19.693359375 -35.236328125
-26.123291015625 0.669677734375 -46.374755859375
-11.94482421875 1.039306640625 -8.43994140625
-30.275146484375 19.14111328125 -35.56591796875
7.356201171875 -5.51513671875 15.937255859375
-9.9208984375 5.44775390625 2.902587890625
-5.018310546875 2.07763671875 1.576904296875
-3.96533203125 -6.068115234375 10.527099609375
-4.103515625 -0.656982421875 4.689208984375
18.476318359375 -11.046142578125 13.6162109375
17.058349609375 -10.202880859375 13.5322265625
17.003173828125 -9.098388671875 13.84521484375
-10.306640625 1.17529296875 -5.083984375
-4.01708984375 3.186279296875 6.861572265625
6.72265625 -3.292724609375 18.605224609375
-3.62744140625 -5.032958984375 11.689453125
9.737060546875 -17.33642578125 26.64501953125
-5.763671875 6.675048828125 -20.147705078125
-7.239990234375 0.493408203125 -8.71044921875
-6.5126953125 -0.2255859375 -3.669189453125
-3.903564453125 3.213623046875 5.215087890625
-8.13818359375 -2.9345703125 11.888916015625
-11.402587890625 3.999755859375 -4.460205078125
-5.68505859375 -2.75830078125 9.400634765625
-29.097900390625 2.416259765625 -22.853515625
-5.9892578125 7.212158203125 1.184814453125
17.4541015625 -8.3291015625 17.88134765625
-4.122314453125 7.887451171875 -17.272705078125
-4.4912109375 -2.25830078125 7.71142578125
-5.652099609375 9.252197265625 -19.025390625
-0.82763671875 -3.95263671875 9.132080078125
-19.700927734375 1.5859375 -32.569091796875
15.917236328125 -4.73876953125 15.08544921875
-9.739501953125 11.437255859375 -2.45654296875
-5.521484375 9.93359375 -16.593994140625
6.04248046875 -2.999755859375 17.343017578125
-2.244384765625 -2.101806640625 1.098388671875
-25.518798828125 4.375244140625 -44.2646484375
-0.648681640625 -1.9375 -2.197265625
-19.571533203125 0.77783203125 -32.962646484375
-2.29150390625 -2.08544921875 -5.12060546875
2.9970703125 -4.81494140625 19.983154296875
8.677490234375 -9.002197265625 8.817138671875
8.63427734375 -7.07421875 14.0244140625
-19.620361328125 2.57666015625 -34.27099609375
-15.330078125 4.3115234375 -11.2099609375
-27.59033203125 6.58251953125 -31.784423828125
-15.970458984375 3.92529296875 -10.78857421875
-29.411865234375 8.96826171875 -21.87451171875
14.192138671875 -8.38671875 14.586669921875
8.45068359375 -3.5205078125 17.3994140625
-20.333984375 0.93603515625 -4.86083984375
-31.83837890625 11.271484375 -17.45703125
-29.0556640625 9.57861328125 -23.142822265625
6.69580078125 -7.57958984375 14.057861328125
-17.9921875 0.93505859375 -6.067138671875
-27.451171875 7.445556640625 -35.159912109375
-10.483642578125 5.245849609375 -3.696533203125
12.3310546875 -3.760986328125 16.2060546875
-27.58740234375 9.33056640625 -33.955078125
-27.3466796875 10.511474609375 -44.010498046875
-33.50244140625 14.524169921875 -18.082275390625
-27.381591796875 8.94873046875 -32.68017578125
-27.18798828125 10.60546875 -31.046875
-32.449462890625 13.62158203125 -19.673583984375
-5.314697265625 -6.671630859375 -7.404052734375
-30.478271484375 11.94921875 -27.046142578125
-7.121337890625 6.0234375 11.525634765625
-34.040771484375 16.19189453125 -19.010498046875
-28.0859375 1.31103515625 -47.335205078125
-5.083984375 2.031982421875 9.417236328125
-25.563232421875 11.999755859375 -39.765869140625
-31.879638671875 13.588623046875 -21.7373046875
-28.9580078125 6.724365234375 -23.443359375
-3.79345703125 6.888916015625 6.155517578125
8.42333984375 -0.792724609375 20.41064453125
-29.869140625 14.249267578125 -34.597900390625
-4.112548828125 8.997314453125 3.94140625
-26.360107421875 4.17431640625 -32.0849609375
-29.246826171875 15.430419921875 -35.846923828125
-27.071044921875 14.333984375 -42.376220703125
-5.869384765625 -0.369384765625 -7.79638671875
-10.847412109375 3.1396484375 -4.80712890625
-25.34130859375 3.01171875 -42.129638671875
-28.307861328125 8.76416015625 -26.431884765625
-23.603271484375 4.09521484375 -32.805419921875
-5.35107421875 13.434814453125 -17.166748046875
-18.610595703125 2.21728515625 -38.415283203125
-31.24365234375 20.3056640625 -33.15625
-1.328369140625 -7.967529296875 13.211181640625
-4.9326171875 6.677978515625 -19.297119140625
-5.946044921875 -4.501953125 16.6181640625
