9.260009765625 -9.350341796875 10.690673828125
11.14697265625 -10.150390625 10.724853515625
-3.9765625 -1.47021484375 4.059326171875
-27.066162109375 15.826171875 -38.54833984375
2.630859375 -7.0673828125 10.216796875
-30.35107421875 10.60107421875 -18.87060546875
-29.00732421875 13.95751953125 -28.58544921875
-22.056884765625 7.16796875 -35.632080078125
2.276611328125 -5.817626953125 11.322265625
13.70947265625 -5.880615234375 18.30712890625
-14.31884765625 1.21435546875 -4.2265625
5.346923828125 -13.670166015625 11.676025390625
-4.38525390625 -4.15869140625 -7.206298828125
-27.627197265625 12.58984375 -34.69921875
-31.5341796875 15.92333984375 -20.878173828125
-0.1982421875 -8.8662109375 2.22998046875
-28.921142578125 16.763916015625 -38.200439453125
-5.80615234375 0.791259765625 -1.859375
8.7578125 -9.001708984375 15.57763671875
-31.498291015625 16.72509765625 -22.165283203125
-29.287841796875 1.101806640625 -22.416748046875
-24.284912109375 -3.244140625 -3.68310546875
-9.765625 -4.19287109375 20.56591796875
-18.14892578125 0.203125 -4.079345703125
-15.402099609375 -6.217041015625 18.51953125
-2.372802734375 -3.557861328125 6.694091796875
-0.145263671875 -4.370849609375 20.242431640625
13.17626953125 -12.64794921875 10.11767578125
-19.471923828125 0.217529296875 -6.13671875
18.80029296875 -7.306640625 19.513916015625
10.679931640625 -4.50341796875 20.275634765625
-3.101806640625 -6.527099609375 10.726806640625
-7.037841796875 11.9189453125 -0.025146484375
-9.373291015625 12.577880859375 -1.658935546875
-5.113525390625 5.591796875 7.0419921875
-5.448486328125 -9.092529296875 -7.61376953125
-9.48046875 2.468017578125 -4.0
-19.87158203125 4.077392578125 -37.5458984375
-4.53759765625 -0.142578125 11.306640625
-6.7255859375 -16.769287109375 42.027587890625
5.678466796875 -10.855224609375 13.830810546875
0.911865234375 -9.265869140625 14.620361328125
-31.2490234375 13.812744140625 -22.390380859375
6.239501953125 -12.2255859375 6.960205078125
-28.277099609375 12.9384765625 -25.63623046875
2.4462890625 -4.683349609375 20.187255859375
-2.457763671875 -4.745849609375 -5.120361328125
-29.831298828125 16.5888671875 -29.9697265625
-32.9326171875 16.89208984375 -19.704833984375
-30.590576171875 19.424560546875 -29.716552734375
-6.312255859375 6.15673828125 -1.118896484375
-1.552001953125 -1.993408203125 -4.9599609375
10.048095703125 -16.10546875 24.18212890625
-7.599365234375 -6.001953125 13.687255859375
-26.669189453125 16.916015625 -44.75439453125
-3.3359375 7.530029296875 10.030029296875
1.493408203125 -6.1591796875 4.40234375
-25.635986328125 1.892578125 -42.1376953125
2.212646484375 -10.731201171875 10.6201171875
-3.911865234375 -18.786865234375 40.509765625
-18.580078125 3.03271484375 -36.6533203125
-4.8349609375 4.7392578125 1.021240234375
2.304443359375 -5.08544921875 8.37548828125
-6.561279296875 3.215087890625 -20.083740234375
11.672119140625 -17.383544921875 25.515869140625
-28.534423828125 0.476318359375 -25.7353515625
-27.12158203125 15.011474609375 -36.8671875
-27.02978515625 8.818115234375 -31.195068359375
-0.425048828125 -6.71337890625 -0.03173828125
-29.366455078125 8.814453125 -20.826171875
-29.412109375 19.62060546875 -32.58837890625
17.142578125 -7.227783203125 17.5390625
-2.1201171875 -1.7890625 -0.048095703125
6.765380859375 -11.70751953125 11.0126953125
12.71630859375 -4.078125 19.341064453125
-7.78125 -6.923828125 17.931884765625
-33.376708984375 15.589599609375 -15.491943359375
-9.48779296875 9.6611328125 -2.604248046875
-29.8662109375 11.24609375 -21.81298828125
-10.1171875 0.913818359375 -7.968994140625
-23.290283203125 5.631591796875 -37.65576171875
-27.91015625 8.67578125 -34.933837890625
18.345458984375 -13.625732421875 15.39404296875
1.50390625 -13.96240234375 12.229248046875
9.820556640625 -17.2890625 27.22705078125
-6.718017578125 -3.377197265625 -8.4814453125
8.6162109375 -15.35009765625 23.318359375
-6.43505859375 12.345458984375 -19.879150390625
-4.820556640625 -4.47509765625 20.83349609375
-8.853515625 -6.7080078125 -9.016845703125
-19.76025390625 2.10791015625 -31.62939453125
-7.71533203125 4.211669921875 -2.546630859375
11.303466796875 -15.4873046875 22.822998046875
0.0146484375 -4.19384765625 7.93115234375
-6.91357421875 5.341064453125 -18.587890625
-2.623779296875 -5.6455078125 9.7958984375
-4.473388671875 4.1298828125 6.771240234375
-16.665283203125 0.98779296875 -7.068115234375
-23.217041015625 -1.246337890625 -3.45751953125
-27.29833984375 11.06396484375 -28.830322265625
-26.128662109375 0.201171875 -29.486083984375
12.33935546875 -18.0615234375 23.926513671875
16.2666015625 -12.208251953125 16.1142578125
-25.341064453125 3.263916015625 -42.600830078125
2.501220703125 -12.247802734375 8.293212890625
9.814208984375 -12.385986328125 6.890869140625
-5.4775390625 -7.31689453125 13.770263671875
-27.89599609375 16.691162109375 -41.064208984375
-28.89794921875 -2.888671875 -26.80615234375
-5.981201171875 -5.736328125 11.54638671875
-7.9150390625 -6.169677734375 19.087158203125
-26.341064453125 -5.260009765625 -3.474853515625
-4.91552734375 -7.964111328125 -6.8828125
-27.984619140625 1.373779296875 -27.043701171875
-2.088623046875 -6.171875 12.71826171875
-2.81201171875 5.71630859375 8.1865234375
-4.37255859375 7.97607421875 7.583984375
-19.802734375 5.51953125 -31.801513671875
-1.81396484375 -6.012939453125 18.858154296875
1.68994140625 -10.602783203125 13.509521484375
-26.504150390625 15.626220703125 -43.47265625
-2.0419921875 -0.932861328125 -2.586669921875
12.67236328125 -11.05908203125 7.505859375
2.330810546875 -5.176025390625 6.745361328125
-25.66259765625 8.126708984375 -39.03857421875
-6.07958984375 4.27734375 3.12890625
-22.286376953125 3.93359375 -38.404052734375
-24.48974609375 -5.517333984375 -5.16162109375
-4.24658203125 -0.498779296875 0.28125
-28.47216796875 14.719970703125 -31.097412109375
2.168701171875 -8.26220703125 7.47705078125
2.407958984375 -9.794921875 5.979736328125
2.25732421875 -8.7265625 10.81591796875
-25.378173828125 -0.31884765625 -42.89453125
-27.739501953125 6.149169921875 -26.896728515625
-12.9912109375 -6.9765625 18.94287109375
-20.1640625 1.4892578125 -29.934326171875
-27.95849609375 8.43798828125 -25.36767578125
-1.21484375 -11.428466796875 -3.31640625
2.4267578125 -14.9140625 12.306640625
-6.78857421875 1.677734375 -22.448486328125
-29.643310546875 7.47607421875 -20.73779296875
-0.7880859375 -10.347900390625 -0.9306640625
-25.982177734375 8.560546875 -36.984130859375
-2.980224609375 0.69677734375 6.27294921875
17.08740234375 -6.118896484375 20.239990234375
-6.304931640625 -9.046875 -8.85595703125
-12.545654296875 -6.322509765625 16.361328125
3.330078125 -5.5263671875 21.891845703125
-27.216552734375 -4.380859375 -5.6416015625
-2.545654296875 -1.303466796875 4.829833984375
-6.677001953125 -6.032958984375 -8.265380859375
-32.8359375 16.350341796875 -18.021240234375
-29.796875 14.7529296875 -33.17138671875
-2.898681640625 -0.7802734375 8.467529296875
15.52685546875 -9.813720703125 17.084228515625
-18.752685546875 4.55810546875 -35.47705078125
-6.2578125 -6.708251953125 17.44287109375
-3.084228515625 -6.9501953125 -5.335205078125
-19.756591796875 0.583740234375 -28.633056640625
-14.80322265625 0.856689453125 -8.3212890625
-25.498291015625 7.90478515625 -34.457763671875
-5.68212890625 -0.255859375 4.386962890625
-29.33544921875 10.6181640625 -20.116943359375
-19.18310546875 2.107177734375 -34.121826171875
-10.542724609375 6.725341796875 -3.134765625
-19.501953125 5.97802734375 -33.064453125
-25.817138671875 8.55029296875 -41.135009765625
-25.697021484375 11.58837890625 -37.52587890625
-24.6259765625 4.63330078125 -30.129150390625
-3.392333984375 -6.681640625 15.697265625
-3.505859375 -3.765869140625 9.20849609375
0.0576171875 -10.18115234375 2.764404296875
-6.815185546875 3.483154296875 -21.741455078125
-27.2412109375 13.66064453125 -29.384765625
0.742919921875 -3.794189453125 6.23291015625
7.32080078125 -10.66259765625 9.65234375
-25.78564453125 6.865234375 -41.487060546875
-6.25146484375 -0.67578125 -19.826416015625
-5.447265625 -1.85546875 12.340087890625
-1.824462890625 -2.748779296875 3.31787109375
-28.53271484375 17.657958984375 -46.87158203125
15.499755859375 -14.022705078125 14.709228515625
-29.996337890625 14.9326171875 -25.7587890625
-27.9521484375 17.15966796875 -44.7861328125
-29.6767578125 15.197998046875 -29.89404296875
3.824462890625 -9.920654296875 14.193603515625
2.390380859375 -11.8994140625 4.12353515625
-29.821533203125 15.120849609375 -27.41748046875
-30.176025390625 16.90380859375 -28.754638671875
5.656982421875 -6.2861328125 22.71484375
-1.544189453125 -9.28125 17.99951171875
-6.49267578125 5.1630859375 -19.803955078125
7.244873046875 -10.59619140625 12.1123046875
14.30078125 -10.090087890625 21.638427734375
-30.640869140625 17.15478515625 -25.481201171875
-1.644775390625 -6.669189453125 -3.31494140625
-9.614990234375 -6.894287109375 17.57568359375
-5.1162109375 -6.3916015625 16.131103515625
11.62109375 -13.450439453125 6.13330078125
10.845947265625 -11.1669921875 6.74169921875
-5.2587890625 -0.752685546875 -22.29541015625
-27.65185546875 13.868408203125 -39.712890625
-0.738037109375 -1.851806640625 -0.88720703125
-3.876708984375 -4.57568359375 19.169189453125
3.244873046875 -12.130615234375 13.633056640625
-2.07861328125 -7.607421875 17.409423828125
-22.250732421875 7.06494140625 -32.313232421875
-6.502685546875 10.436767578125 -20.156494140625
-6.36865234375 -6.255615234375 14.50439453125
-7.823974609375 1.228271484375 -3.505859375
13.925048828125 -4.213623046875 20.930908203125
15.75048828125 -5.235595703125 19.372802734375
-24.732666015625 7.69384765625 -32.780029296875
10.94091796875 -9.856689453125 8.243408203125
16.60302734375 -5.47412109375 17.755126953125
-3.095458984375 -1.50830078125 -6.211181640625
-2.941162109375 -1.418701171875 1.982421875
3.958740234375 -9.424072265625 16.599609375
2.505859375 -12.460205078125 5.83203125
-5.462890625 9.880615234375 2.5634765625
0.1064453125 -8.670654296875 18.696044921875
0.321044921875 -7.74462890625 2.936767578125
11.13916015625 -7.543212890625 18.186279296875
-27.203369140625 13.48876953125 -32.67431640625
-26.65380859375 15.238037109375 -33.57958984375
-20.145751953125 5.345947265625 -37.18798828125
-6.14404296875 11.006103515625 0.0439453125
-9.900146484375 -0.188720703125 -4.582763671875
-19.677734375 4.0732421875 -30.8974609375
7.922607421875 -5.43115234375 21.708740234375
-25.134033203125 -5.03271484375 -6.455078125
-29.703369140625 18.406982421875 -30.887451171875
19.26318359375 -14.56298828125 15.471923828125
-6.36669921875 8.127197265625 -19.187744140625
-20.537109375 0.063232421875 -5.27783203125
17.40478515625 -12.7021484375 15.7265625
-13.804931640625 1.791259765625 -9.235107421875
-23.599609375 7.777587890625 -36.091552734375
-10.26318359375 0.734619140625 -6.716796875
-2.896728515625 -0.984375 6.033935546875
-28.15185546875 5.5341796875 -25.195556640625
-9.642333984375 -8.28271484375 -9.298828125
-7.2333984375 -4.663330078125 20.94384765625
-31.49072265625 11.11962890625 -18.90234375
-6.536865234375 9.42919921875 -20.902099609375
18.230712890625 -9.818603515625 16.589111328125
-23.66796875 7.83984375 -33.607177734375
-12.680908203125 -0.251220703125 -5.775390625
-18.22802734375 -0.041748046875 -5.301513671875
-20.886474609375 6.163330078125 -31.42822265625
-28.384033203125 6.919921875 -24.0302734375
-24.57763671875 8.674560546875 -34.899169921875
-6.520263671875 0.29833984375 -23.597900390625
-5.4580078125 8.49560546875 7.15283203125
1.5263671875 -12.895751953125 12.94091796875
3.66357421875 -6.06591796875 18.675537109375
-4.93701171875 6.285400390625 0.46923828125
-28.364013671875 7.92822265625 -22.430419921875
2.865478515625 -10.983642578125 13.929443359375
-26.546630859375 11.947998046875 -35.071533203125
-6.72412109375 -0.93212890625 -22.697265625
14.676025390625 -14.087158203125 12.281494140625
-4.013671875 0.849853515625 10.775146484375
-0.062744140625 -11.399658203125 2.4697265625
-28.262451171875 16.4013671875 -36.118896484375
-25.404052734375 4.140625 -40.96142578125
2.429931640625 -7.68408203125 18.500244140625
-5.336669921875 0.943115234375 -0.2431640625
10.544677734375 -16.873046875 25.49560546875
-28.459228515625 14.535888671875 -33.97412109375
-28.46826171875 -2.047119140625 -26.00927734375
-30.956298828125 18.1708984375 -26.77490234375
-27.613037109375 -1.49609375 -27.72119140625
-15.75 0.252685546875 -4.5341796875
-8.704345703125 3.98876953125 -3.7373046875
-28.807373046875 2.672607421875 -24.608154296875
-20.869873046875 2.84423828125 -29.59423828125
-10.125732421875 -5.9326171875 19.13525390625
11.802490234375 -8.311279296875 15.402099609375
-27.435302734375 9.82470703125 -42.454833984375
-9.14990234375 -6.2294921875 14.586669921875
-25.821533203125 2.49755859375 -29.6064453125
-1.30322265625 -9.699951171875 -3.052490234375
17.939697265625 -6.357421875 18.6220703125
17.467529296875 -8.49072265625 17.271240234375
-4.5625 0.140380859375 -6.33154296875
13.280517578125 -11.11279296875 13.6318359375
-20.2666015625 6.08642578125 -35.977783203125
-6.35888671875 -0.4208984375 -3.382568359375
-22.269287109375 5.85546875 -36.40576171875
6.818603515625 -6.66552734375 23.125732421875
-28.295654296875 8.95947265625 -21.66650390625
-6.927734375 9.41259765625 -1.004638671875
-6.414306640625 7.804443359375 -22.018310546875
-3.5361328125 -0.421875 -4.6572265625
-2.7626953125 2.12890625 7.343017578125
-1.346435546875 -8.2412109375 14.57421875
-7.74365234375 -5.557861328125 22.308349609375
-5.52099609375 -16.193603515625 42.295166015625
-0.5654296875 -7.704833984375 13.2548828125
14.76513671875 -11.7197265625 14.472412109375
-21.010498046875 4.59521484375 -37.58251953125
12.76806640625 -11.626708984375 9.6103515625
-6.20166015625 10.3818359375 4.55078125
-30.252685546875 12.933837890625 -23.9873046875
-5.10205078125 -10.257080078125 -7.522216796875
13.996337890625 -4.17578125 19.71142578125
-27.48974609375 11.658447265625 -27.6240234375
-31.028564453125 11.75146484375 -21.4306640625
-31.53271484375 13.75732421875 -16.194091796875
7.365234375 -9.807373046875 7.508056640625
-27.955810546875 10.441650390625 -32.943359375
-8.32763671875 7.488525390625 -2.42626953125
-6.19873046875 3.71142578125 -0.893798828125
-2.68896484375 -6.91015625 18.171630859375
0.671630859375 -9.499755859375 17.5390625
0.20361328125 -4.48486328125 21.470947265625
-24.158447265625 5.6884765625 -38.918212890625
-5.636962890625 8.404541015625 -0.529296875
-27.235107421875 12.68212890625 -31.3955078125
5.91650390625 -9.046142578125 17.722412109375
-0.718017578125 -9.549560546875 17.17822265625
8.520263671875 -9.872802734375 11.5869140625
-32.879638671875 14.853515625 -14.6162109375
-2.848388671875 7.489990234375 8.80810546875
-2.17724609375 -9.7734375 -5.1064453125
-7.51904296875 -6.805419921875 -8.60791015625
13.970947265625 -14.709716796875 11.54833984375
13.451171875 -9.443603515625 17.109619140625
-7.089111328125 12.10302734375 -18.240478515625
-6.07470703125 7.177978515625 5.68408203125
-26.168212890625 5.16259765625 -43.51806640625
-25.894775390625 2.166015625 -43.8291015625
-5.58203125 10.013671875 6.9970703125
-3.113037109375 2.546142578125 9.751220703125
-26.178955078125 12.240234375 -40.0400390625
-29.282958984375 14.907470703125 -31.9375
9.030029296875 -9.0693359375 8.61962890625
-0.697021484375 -5.301513671875 11.760498046875
-14.469482421875 -4.271240234375 20.330078125
-24.0146484375 6.96533203125 -36.890625
-5.70458984375 11.135498046875 2.04150390625
-21.67138671875 5.656494140625 -30.57861328125
-16.006591796875 0.5234375 -6.20947265625
-21.4716796875 6.665771484375 -33.530029296875
10.506591796875 -5.013916015625 18.720458984375
6.2080078125 -9.720458984375 14.098876953125
-29.46533203125 13.33056640625 -26.074951171875
-13.99609375 0.675537109375 -7.4892578125
-5.14013671875 9.45751953125 0.575927734375
1.763671875 -5.073974609375 10.436767578125
-4.058349609375 -6.83935546875 18.62158203125
-20.2353515625 6.301513671875 -33.915283203125
6.62109375 -4.413818359375 21.22509765625
12.994140625 -12.3408203125 7.219970703125
-28.915283203125 16.861572265625 -36.969970703125
-2.192138671875 -1.827392578125 1.1865234375
11.1455078125 -10.768310546875 14.47607421875
-2.366943359375 -0.804931640625 -4.2314453125
-28.139404296875 15.872802734375 -34.858642578125
10.90087890625 -17.825927734375 28.0771484375
5.31005859375 -11.693115234375 13.111328125
1.866455078125 -5.33251953125 5.13232421875
-6.64990234375 5.58154296875 -21.8759765625
9.006591796875 -7.81005859375 22.77734375
-25.737060546875 10.578857421875 -38.725341796875
-25.61181640625 14.3896484375 -35.998291015625
-30.13232421875 16.2392578125 -27.482666015625
-3.43994140625 -0.37060546875 -6.30322265625
-5.664306640625 5.7001953125 -0.2744140625
-5.247802734375 3.01171875 0.786865234375
-8.043212890625 0.399658203125 -8.363037109375
-3.110595703125 -7.147705078125 14.505126953125
-11.268798828125 14.079833984375 -25.2587890625
-8.3134765625 10.271484375 -1.058837890625
-7.763671875 5.889892578125 -2.697998046875
-4.31689453125 -0.843505859375 -2.146484375
-7.364990234375 2.18212890625 -2.778564453125
7.145263671875 -11.291015625 6.84326171875
0.033203125 -4.900146484375 10.055419921875
-6.747314453125 -8.04150390625 -8.516357421875
11.19921875 -8.4423828125 17.47509765625
15.25634765625 -15.645263671875 13.66748046875
-12.492431640625 -5.98193359375 19.22265625
-6.127685546875 4.352294921875 5.16015625
6.2314453125 -4.42822265625 19.613525390625
-11.759521484375 -6.513916015625 17.602294921875
-7.366943359375 -6.18115234375 17.005126953125
-6.330810546875 -6.43359375 22.36376953125
-24.486572265625 0.656494140625 -39.97607421875
14.676513671875 -10.827392578125 15.5986328125
-16.41357421875 -5.214599609375 21.343505859375
-0.757568359375 -2.171630859375 -4.135986328125
12.53515625 -5.515869140625 18.304443359375
13.388427734375 -8.54345703125 17.82080078125
17.42431640625 -10.596435546875 16.705810546875
-1.3916015625 -7.979248046875 -2.78955078125
-1.724365234375 -4.84228515625 8.864501953125
-23.567138671875 3.269287109375 -39.22900390625
11.92919921875 -17.02783203125 23.401611328125
0.261962890625 -6.109619140625 12.232177734375
-28.55712890625 -3.01953125 -25.109619140625
18.7802734375 -12.63623046875 15.675537109375
-10.401611328125 12.34228515625 -2.02294921875
2.546142578125 -11.174072265625 8.593994140625
-27.582275390625 15.361328125 -32.359130859375
-11.46337890625 -6.0439453125 16.29443359375
1.764892578125 -11.6103515625 11.1396484375
-0.666748046875 -9.132080078125 -0.630126953125
-9.544677734375 5.950927734375 -3.489990234375
-29.746826171875 16.4443359375 -34.077880859375
8.67333984375 -3.987548828125 20.285400390625
-27.271484375 3.3681640625 -29.24365234375
-9.413330078125 -4.515625 19.35498046875
-27.520263671875 -0.424072265625 -27.360107421875
5.630859375 -5.478515625 21.800048828125
-29.191162109375 18.182373046875 -34.9775390625
15.96533203125 -8.833984375 17.36181640625
-27.734375 8.655029296875 -27.8701171875
8.512451171875 -9.6640625 14.022705078125
10.007568359375 -9.12109375 16.77734375
-3.351806640625 8.216796875 7.93603515625
-30.431640625 18.140625 -28.413818359375
-11.095458984375 2.013671875 -4.345947265625
-26.2490234375 -6.038818359375 -4.250244140625
-27.35546875 11.749267578125 -41.2802734375
13.439697265625 -11.96875 11.2666015625
-5.803466796875 8.41455078125 3.525634765625
-27.96337890625 9.4287109375 -23.3544921875
-28.201904296875 12.38037109375 -23.53857421875
-26.14208984375 0.815673828125 -44.208251953125
-25.509521484375 10.894287109375 -39.976806640625
-27.547607421875 7.95458984375 -30.322998046875
-5.86376953125 -0.255126953125 -2.17333984375
11.732666015625 -4.220458984375 19.798095703125
2.3603515625 -10.75927734375 6.90380859375
-25.246337890625 -0.762939453125 -40.352783203125
-26.333984375 7.474609375 -31.536376953125
-32.152099609375 15.025390625 -18.34326171875
-27.0654296875 7.015625 -43.180908203125
-26.755859375 5.953369140625 -30.212646484375
-27.474609375 1.334228515625 -28.296875
1.76220703125 -8.68994140625 12.060546875
-24.6435546875 3.014892578125 -39.65234375
-3.796630859375 -1.47021484375 10.611572265625
-13.246826171875 2.38916015625 -3.934326171875
-31.233154296875 17.83544921875 -24.70166015625
-3.012451171875 3.606201171875 9.22802734375
-7.0400390625 10.157470703125 -21.76220703125
-31.6484375 11.828369140625 -16.881103515625
-27.0341796875 10.507080078125 -31.2822265625
-6.72119140625 -2.77294921875 -22.996337890625
-5.21875 1.716796875 6.222900390625
-21.370849609375 -0.376708984375 -2.31494140625
-32.001220703125 13.62744140625 -18.24658203125
-28.57470703125 5.817626953125 -22.713134765625
-32.624755859375 15.17919921875 -16.290771484375
2.4931640625 -7.45654296875 9.02978515625
-27.322998046875 -5.263671875 -3.03857421875
-4.49951171875 -0.434326171875 -3.8212890625
-7.305419921875 3.22265625 -2.464111328125
-7.97900390625 -11.51513671875 12.230712890625
1.10107421875 -4.423583984375 1.368408203125
8.99169921875 -6.066162109375 21.340576171875
-25.388671875 5.15625 -39.330810546875
-28.398681640625 -0.986083984375 -25.22900390625
-19.210693359375 -0.765869140625 -2.31591796875
-6.145751953125 6.941650390625 4.4921875
-5.916748046875 1.54248046875 -1.10693359375
14.497802734375 -10.09228515625 17.150634765625
-29.508544921875 17.542236328125 -36.184326171875
-12.716796875 9.67626953125 -13.5576171875
-15.672607421875 0.496826171875 -3.315673828125
-1.327880859375 -4.226318359375 -3.947021484375
-6.8203125 7.29052734375 -18.7216796875
-27.41357421875 10.013427734375 -28.773193359375
-30.36572265625 15.236083984375 -24.129638671875
-27.521728515625 10.84814453125 -26.33740234375
-31.88525390625 17.704345703125 -22.228271484375
-2.792236328125 1.203857421875 7.847900390625
-5.45458984375 -6.885498046875 18.26220703125
5.15869140625 -10.0009765625 14.162109375
-5.505126953125 0.955322265625 3.85302734375
-13.055908203125 -5.464111328125 16.693603515625
-28.3369140625 -5.386474609375 -3.433349609375
13.528076171875 -9.50927734375 14.6689453125
-20.0419921875 2.36669921875 -32.8935546875
-27.634033203125 7.0087890625 -29.441650390625
10.79150390625 -8.575439453125 15.05615234375
-13.88916015625 0.12255859375 -5.79052734375
-27.8212890625 11.617431640625 -43.355224609375
-23.017333984375 6.470947265625 -33.1201171875
-9.773193359375 -6.361572265625 16.69091796875
-2.924560546875 6.45458984375 8.9208984375
-25.158203125 -1.638671875 -42.42333984375
-2.406982421875 -8.33837890625 -4.811767578125
-11.262451171875 -5.417236328125 19.11328125
-25.548828125 5.480224609375 -42.683349609375
-28.208740234375 -3.45361328125 -27.615478515625
15.04296875 -11.974853515625 15.71826171875
-6.75390625 2.607177734375 -22.917724609375
6.801513671875 -6.167236328125 18.579345703125
-2.5615234375 -4.571044921875 20.763427734375
-15.835205078125 -4.184326171875 20.3681640625
-29.8212890625 17.3759765625 -30.833984375
-8.952392578125 -0.189208984375 -5.0087890625
-27.7451171875 9.544921875 -27.0908203125
-27.876953125 10.367919921875 -24.24072265625
-7.707275390625 5.72265625 -16.9755859375
-27.962646484375 16.75048828125 -38.598876953125
-28.11474609375 -2.375 -27.25341796875
-27.63330078125 14.857177734375 -38.10302734375
-4.6708984375 2.817626953125 6.50439453125
2.33203125 -8.79248046875 8.351318359375
-1.59765625 -4.55517578125 19.906982421875
-5.1279296875 -0.165283203125 -7.529541015625
6.522216796875 -8.809814453125 16.85546875
2.72265625 -4.01611328125 21.3203125
9.193359375 -4.92919921875 18.756103515625
-9.564453125 7.73583984375 -2.834716796875
-2.979736328125 -0.932861328125 -2.1611328125
-30.748291015625 16.31591796875 -22.962158203125
1.869873046875 -9.16259765625 4.279052734375
-31.244873046875 17.048828125 -23.8310546875
-25.445556640625 6.835205078125 -38.566650390625
-0.60400390625 -4.442626953125 -1.88330078125
-2.5029296875 -2.19873046875 4.0986328125
9.466064453125 -9.644287109375 13.173095703125
-2.51123046875 -6.2001953125 11.498779296875
-25.11328125 0.228271484375 -42.06884765625
8.759033203125 -11.73193359375 6.849365234375
-26.33642578125 13.0439453125 -36.77099609375
-29.813232421875 16.50390625 -31.611083984375
-10.166015625 -6.988037109375 18.433349609375
5.145263671875 -4.828125 19.292724609375
-28.52490234375 4.1318359375 -23.4423828125
-27.888427734375 6.67626953125 -27.759765625
-27.5712890625 5.53271484375 -27.6943359375
4.3994140625 -4.4208984375 20.08544921875
-8.206787109375 -4.783203125 20.58154296875
-29.56591796875 16.35107421875 -39.840087890625
4.619384765625 -14.190185546875 12.166259765625
-6.686279296875 -1.83203125 -23.4677734375
1.98046875 -14.117431640625 10.159423828125
-4.74072265625 -0.460205078125 1.51708984375
-27.641357421875 15.139404296875 -33.995361328125
-28.125732421875 9.0498046875 -24.574951171875
-24.94140625 1.540283203125 -40.4365234375
8.684814453125 -9.6787109375 9.922119140625
-27.8662109375 10.56787109375 -21.770751953125
2.3388671875 -8.876708984375 17.822265625
-16.112548828125 1.0771484375 -7.91015625
-3.351318359375 -5.32568359375 8.9580078125
-12.187744140625 0.621826171875 -6.681884765625
-18.7314453125 0.20849609375 -35.280029296875
-24.54296875 7.6962890625 -37.34423828125
12.465576171875 -10.84765625 14.444580078125
-31.20458984375 11.561279296875 -19.76171875
-31.52783203125 13.47314453125 -20.302734375
-3.0537109375 -9.741455078125 -5.927490234375
-1.831298828125 -3.466796875 5.85107421875
-11.66064453125 0.902587890625 -4.65185546875
-27.753173828125 12.213623046875 -25.178955078125
-13.978515625 -7.099609375 18.575439453125
-25.84716796875 8.224853515625 -33.23095703125
10.464111328125 -7.712158203125 21.48828125
-31.37060546875 15.321044921875 -21.66259765625
-26.54052734375 8.474853515625 -36.15625
-6.40771484375 10.781494140625 -18.151123046875
-3.76123046875 9.189697265625 7.84375
-6.771728515625 0.372314453125 -5.910400390625
-19.712158203125 3.75439453125 -34.20458984375
-29.26611328125 19.108642578125 -31.741455078125
-29.219482421875 12.265380859375 -23.531982421875
-27.8984375 13.427978515625 -28.138427734375
-20.073974609375 0.204833984375 -3.219482421875
-0.0771484375 -9.4033203125 14.666259765625
-12.229736328125 3.43115234375 -4.042236328125
-28.73681640625 0.267578125 -23.623779296875
2.632080078125 -6.2421875 8.898193359375
2.493408203125 -5.702392578125 7.615478515625
-29.615966796875 16.918212890625 -42.335693359375
-5.6337890625 -0.332275390625 2.343017578125
-29.959228515625 16.640869140625 -37.796630859375
-26.873291015625 2.35791015625 -29.18701171875
-29.185302734375 18.279541015625 -33.75048828125
8.675048828125 -6.043212890625 18.5
-12.3935546875 1.019775390625 -7.950439453125
-4.375732421875 -8.704833984375 -6.41259765625
-19.009033203125 4.828857421875 -37.151611328125
2.5 -13.086181640625 9.622314453125
-12.19140625 -5.198974609375 21.602294921875
-5.394775390625 0.4072265625 5.542724609375
1.121337890625 -9.6669921875 15.8955078125
-2.2783203125 -10.87451171875 -4.59521484375
-6.08349609375 -8.585693359375 13.1015625
-9.962646484375 3.321533203125 -4.06787109375
-31.80029296875 13.232421875 -16.98046875
1.848388671875 -11.15869140625 3.649169921875
-3.96142578125 -6.78759765625 16.964111328125
-22.94140625 7.313720703125 -35.233642578125
-7.109619140625 -0.2158203125 -5.033203125
-7.294189453125 -6.142333984375 15.75927734375
-29.34521484375 9.81787109375 -19.234619140625
-26.55419921875 8.875244140625 -41.989990234375
0.92919921875 -10.212646484375 3.576416015625
14.45361328125 -5.25390625 18.20703125
-4.145751953125 -3.6162109375 -6.429931640625
-6.623046875 4.189697265625 -17.69091796875
-28.583984375 16.943115234375 -43.966796875
-25.77099609375 10.3662109375 -40.78857421875
14.63525390625 -13.162841796875 12.59130859375
2.526611328125 -13.1796875 7.97509765625
16.902099609375 -14.891845703125 14.76416015625
14.840576171875 -6.37255859375 17.92138671875
15.18017578125 -12.843994140625 13.76806640625
-18.90771484375 1.64306640625 -35.346923828125
-26.056640625 -0.775634765625 -44.153564453125
2.288818359375 -7.265625 5.31640625
8.263427734375 -8.861572265625 18.03125
3.308837890625 -4.821533203125 19.764892578125
-6.942138671875 8.819091796875 -18.826171875
16.638916015625 -11.3642578125 16.4130859375
-9.84423828125 10.76025390625 -2.292724609375
-6.2763671875 0.333740234375 -7.14599609375
-27.512451171875 14.7080078125 -31.501953125
-8.529296875 9.764404296875 -2.224609375
-18.50244140625 4.083984375 -36.282958984375
-7.2431640625 0.525634765625 -3.86328125
9.511474609375 -9.59765625 22.980712890625
-6.3076171875 2.947021484375 -18.42578125
-3.491943359375 -7.79833984375 -5.67138671875
8.459228515625 -16.493896484375 25.116943359375
-5.58154296875 -5.638427734375 -7.482177734375
-1.47998046875 -6.763916015625 13.177490234375
-11.4912109375 -4.820068359375 20.703857421875
-8.897216796875 11.742919921875 -1.590087890625
-2.813720703125 -2.570556640625 7.013671875
-4.427001953125 6.953125 7.2880859375
-25.5576171875 6.47900390625 -40.635986328125
1.580810546875 -5.3662109375 21.937255859375
-28.2763671875 15.5146484375 -36.490966796875
-0.67333984375 -2.427001953125 1.623291015625
12.082275390625 -18.41845703125 26.04345703125
-6.715576171875 3.536865234375 -1.685302734375
9.622802734375 -9.880859375 7.050048828125
-2.16748046875 -3.251220703125 -5.253173828125
-27.19091796875 14.592529296875 -40.972900390625
19.220947265625 -9.450927734375 18.135986328125
-5.1123046875 -1.07373046875 -7.865234375
-6.61572265625 6.600341796875 -21.12451171875
-29.088623046875 2.322509765625 -22.49365234375
1.991455078125 -8.867919921875 15.365234375
-7.06396484375 -4.469482421875 19.267578125
-4.732177734375 0.3564453125 0.2099609375
-27.564697265625 2.099853515625 -27.501953125
-3.547607421875 -2.8662109375 9.93505859375
-6.642578125 8.380615234375 -20.42578125
-27.5146484375 13.151611328125 -41.3359375
-19.986328125 5.828857421875 -34.71923828125
-8.101318359375 3.4033203125 -3.285400390625
4.780029296875 -9.691162109375 15.782470703125
17.09912109375 -6.323486328125 17.838623046875
-26.86669921875 8.105224609375 -33.234375
2.55322265625 -13.273193359375 6.326904296875
2.236083984375 -9.780029296875 10.10546875
-3.040771484375 6.09375 7.34228515625
-27.852783203125 12.7587890625 -26.862548828125
-6.721923828125 5.543212890625 -20.646484375
-4.447265625 -1.41943359375 4.885009765625
-3.870361328125 -7.880615234375 12.958984375
-29.56396484375 13.875244140625 -27.758056640625
-5.05224609375 -0.933349609375 3.209716796875
-1.796142578125 -8.073974609375 16.218017578125
-7.7802734375 -4.75537109375 21.798828125
-6.84423828125 0.027587890625 -8.346435546875
-28.378173828125 4.2099609375 -25.95263671875
-27.253662109375 16.035400390625 -42.67626953125
-6.09375 5.171875 3.4482421875
-30.27685546875 16.162353515625 -25.009521484375
15.281494140625 -14.573486328125 13.957763671875
-5.06396484375 5.118408203125 0.17578125
-5.400390625 9.023681640625 1.432373046875
1.186767578125 -4.45654296875 20.205078125
-5.543212890625 1.541259765625 0.9326171875
-3.545166015625 0.79833984375 9.951171875
-27.021728515625 11.40478515625 -30.914794921875
10.00634765625 -16.971435546875 26.35400390625
-0.730712890625 -1.23876953125 -4.6279296875
13.234130859375 -13.45361328125 10.6123046875
-27.29638671875 16.107666015625 -40.62109375
-24.69384765625 6.109375 -31.8701171875
-5.71630859375 3.0634765625 1.607666015625
-19.816650390625 0.74658203125 -2.44189453125
-5.439453125 -8.150634765625 -7.69140625
12.346923828125 -9.14453125 14.664306640625
-25.0498046875 -2.82666015625 -2.87060546875
-5.917236328125 6.364990234375 2.919677734375
1.694580078125 -13.645263671875 11.360595703125
-25.66796875 3.600341796875 -41.78173828125
12.77294921875 -12.89013671875 6.460693359375
-3.0302734375 4.49951171875 9.538818359375
-2.23974609375 -7.0771484375 16.529541015625
-2.9541015625 5.540771484375 9.4248046875
-3.154052734375 -0.30859375 9.241943359375
8.101806640625 -4.3076171875 19.53271484375
-5.985595703125 -17.19970703125 41.635498046875
-3.392333984375 -4.525634765625 8.463623046875
1.386474609375 -6.620849609375 12.255859375
-23.146240234375 5.498779296875 -31.411376953125
-2.049560546875 -7.515380859375 -3.647216796875
3.835693359375 -12.84521484375 13.28173828125
-10.94384765625 1.08154296875 -8.385009765625
-29.503173828125 11.825439453125 -22.677490234375
-9.222900390625 -6.268310546875 15.834716796875
-5.8916015625 -3.543212890625 -8.064453125
12.66748046875 -10.95458984375 8.723388671875
-5.01318359375 -4.784912109375 21.7001953125
-5.9482421875 -4.066162109375 19.591552734375
-28.0458984375 13.946044921875 -28.992431640625
-28.49951171875 2.425048828125 -23.755615234375
-27.466552734375 14.041015625 -30.23095703125
-4.62841796875 -4.16552734375 19.9677734375
2.452880859375 -8.728271484375 6.282958984375
1.117431640625 -12.7265625 2.98779296875
-5.45458984375 -7.22412109375 -7.3525390625
-30.873779296875 18.6181640625 -34.193115234375
3.51025390625 -9.257568359375 18.238525390625
-15.09521484375 -6.4638671875 19.36962890625
-28.69873046875 16.976806640625 -40.676025390625
-14.238525390625 -4.66015625 21.197265625
-26.864990234375 8.807861328125 -35.344482421875
-8.646728515625 1.395751953125 -3.918212890625
-24.2451171875 4.63671875 -39.293701171875
-5.392333984375 -0.408447265625 -4.22021484375
-21.782958984375 -0.389404296875 -3.971923828125
-28.143310546875 6.343505859375 -26.076416015625
-27.407470703125 8.14306640625 -42.809814453125
-30.8310546875 14.512451171875 -22.847900390625
-1.75537109375 -5.576416015625 11.82080078125
-0.538330078125 -12.40234375 2.159912109375
-2.50830078125 -9.435302734375 -4.301025390625
-1.374267578125 -4.95654296875 10.099609375
-16.9404296875 0.537353515625 -6.1982421875
-18.58154296875 2.11962890625 -37.02978515625
-13.405517578125 -4.9306640625 20.371826171875
-22.5419921875 4.097412109375 -30.087158203125
-0.306396484375 -3.24560546875 4.97314453125
-8.782958984375 -7.059326171875 17.981201171875
4.17919921875 -14.44921875 8.8935546875
4.79052734375 -14.940185546875 10.586181640625
-15.07421875 0.509521484375 -6.220947265625
-6.727294921875 -10.818603515625 12.951171875
-0.997802734375 -9.945068359375 -2.206787109375
-19.468994140625 3.8837890625 -38.36376953125
-18.421875 1.796142578125 -33.68359375
-2.772705078125 -1.3291015625 -0.898681640625
-22.952880859375 6.30712890625 -36.84912109375
-10.985595703125 -6.09423828125 15.45654296875
-2.563720703125 -3.86669921875 7.5517578125
2.542724609375 -6.604736328125 6.88671875
-17.11328125 0.343994140625 -4.52197265625
-22.78857421875 4.783203125 -38.029541015625
-6.867919921875 -6.42724609375 13.299560546875
-25.521728515625 8.59423828125 -36.14990234375
5.707763671875 -13.3701171875 6.67626953125
7.609619140625 -6.944091796875 22.72265625
-1.10693359375 -3.7861328125 6.686767578125
-31.8134765625 11.45166015625 -18.095703125
12.42724609375 -11.082275390625 12.8359375
11.218994140625 -10.112060546875 9.490966796875
0.203857421875 -3.88525390625 7.07470703125
11.792236328125 -17.946044921875 27.2314453125
-21.326171875 6.7431640625 -36.019287109375
-19.58447265625 5.6357421875 -35.53515625
-22.129638671875 7.12939453125 -34.387451171875
-21.568603515625 6.614013671875 -31.87060546875
-10.240966796875 -4.142333984375 21.40185546875
-5.517578125 -6.19873046875 16.946533203125
-18.750732421875 5.465087890625 -35.103759765625
8.920654296875 -15.594482421875 24.161376953125
10.449462890625 -16.29833984375 23.366943359375
-0.088623046875 -4.2607421875 -1.087158203125
0.68310546875 -3.5263671875 0.061767578125
-1.340576171875 -6.91357421875 -2.472412109375
-11.28564453125 0.594970703125 -6.279296875
-30.962646484375 12.674072265625 -21.904296875
-5.21044921875 -3.9931640625 -7.62255859375
-3.022705078125 -1.968505859375 8.186279296875
-12.877197265625 1.7763671875 -9.244140625
-7.216796875 -11.82421875 12.6591796875
7.089111328125 -4.566162109375 19.19287109375
-8.34375 -6.511962890625 14.18017578125
-8.220947265625 -6.133544921875 15.78759765625
-27.39599609375 12.307373046875 -32.616943359375
-27.740478515625 10.06982421875 -43.299560546875
2.26953125 -10.187744140625 4.7841796875
-24.176025390625 8.4814453125 -35.715087890625
-5.974609375 0.803466796875 2.240234375
-29.6162109375 13.154296875 -24.826171875
-26.0009765625 11.83251953125 -38.3671875
-27.734130859375 5.148681640625 -28.9248046875
-8.758056640625 0.118408203125 -5.861328125
-5.82177734375 2.200927734375 4.553955078125
-28.9765625 8.809326171875 -18.75244140625
-5.120849609375 -1.9970703125 -7.788818359375
-0.08447265625 -2.41357421875 -1.256591796875
-31.782470703125 14.721435546875 -19.97314453125
9.55712890625 -4.92724609375 20.773681640625
-6.106689453125 -0.49609375 -21.074951171875
12.005615234375 -17.72265625 24.721435546875
2.575927734375 -8.5390625 16.13134765625
-29.310791015625 14.201171875 -29.425537109375
1.242431640625 -9.6025390625 13.823974609375
-30.144775390625 10.904541015625 -19.72021484375
-27.796875 16.150146484375 -39.39501953125
0.136474609375 -4.832763671875 19.06005859375
-32.47314453125 15.354736328125 -17.540771484375
-3.793701171875 -10.364013671875 -6.697021484375
-5.918701171875 -6.214111328125 15.311279296875
-28.94970703125 14.775146484375 -30.279052734375
-8.06689453125 0.48876953125 -6.724853515625
-32.2060546875 16.4697265625 -20.08984375
-5.669189453125 3.491455078125 5.644287109375
-5.012939453125 -1.72705078125 3.697265625
-29.71875 10.72412109375 -20.951171875
-10.99951171875 -6.822998046875 18.027587890625
-0.993896484375 -4.337890625 8.382080078125
-0.5302734375 -3.37548828125 -1.9814453125
-5.94970703125 0.205322265625 -5.4970703125
-2.613525390625 -7.1845703125 13.257568359375
-10.693359375 -4.1826171875 20.597900390625
7.66064453125 -9.1181640625 8.25
2.675537109375 -6.009521484375 10.51220703125
-10.531494140625 -6.052734375 16.265625
-29.257568359375 18.07958984375 -46.4873046875
-3.766845703125 -0.038818359375 -5.507080078125
-14.1416015625 0.59814453125 -5.00146484375
1.16552734375 -3.97314453125 5.01220703125
-26.349853515625 15.685546875 -34.831787109375
-3.339599609375 -1.22705078125 2.791748046875
-3.944091796875 -0.741455078125 1.117919921875
11.24169921875 -10.71728515625 12.830322265625
-28.1767578125 17.538330078125 -45.6259765625
13.741943359375 -12.21142578125 12.103271484375
-28.8349609375 17.900634765625 -47.708251953125
6.35107421875 -8.07373046875 18.412353515625
-6.728515625 -4.307861328125 -8.405517578125
8.45556640625 -8.759033203125 14.7412109375
-27.5546875 4.735107421875 -27.232421875
-29.092529296875 19.294677734375 -33.38916015625
-3.91943359375 -0.830810546875 -0.513916015625
9.494140625 -9.73583984375 11.544677734375
16.13427734375 -13.54638671875 15.454345703125
12.245361328125 -10.77587890625 9.943359375
-1.13623046875 -1.660400390625 -0.07861328125
-1.0400390625 -1.609130859375 -1.72314453125
-27.431884765625 9.011474609375 -30.3779296875
-2.271484375 -2.582763671875 4.95166015625
-2.33544921875 -2.006591796875 2.4365234375
-6.42138671875 11.466552734375 -20.225341796875
-2.990234375 -1.342041015625 4.024658203125
-27.9482421875 7.757080078125 -34.8916015625
7.244140625 -8.405517578125 15.148193359375
-10.65380859375 0.11962890625 -5.0107421875
-19.784912109375 2.906005859375 -32.085693359375
-6.3037109375 1.12744140625 -18.712158203125
-14.2685546875 0.225830078125 -6.621337890625
-6.347900390625 -1.034912109375 -21.865234375
-5.500244140625 -4.026123046875 20.392822265625
-30.382568359375 14.345703125 -24.487060546875
-8.961669921875 -4.47509765625 20.158935546875
13.150146484375 -9.20166015625 16.2763671875
12.103515625 -8.552978515625 16.2353515625
14.697509765625 -10.281005859375 20.832763671875
13.627197265625 -9.64501953125 21.201416015625
-28.19677734375 7.314697265625 -23.222900390625
4.952392578125 -4.1123046875 21.249755859375
2.320556640625 -12.98876953125 4.231689453125
-25.9873046875 8.459716796875 -38.225830078125
-7.0908203125 5.445068359375 -2.261474609375
16.24755859375 -10.23291015625 16.7021484375
-28.399658203125 7.713134765625 -24.494384765625
-3.94921875 -4.6142578125 20.408203125
8.07568359375 -7.711669921875 24.43212890625
9.05810546875 -9.160888671875 6.989990234375
-6.57177734375 2.30029296875 -20.02294921875
10.094482421875 -10.116943359375 14.43505859375
-2.734375 3.151611328125 8.04931640625
-25.30322265625 8.71044921875 -39.887451171875
10.50341796875 -9.8994140625 7.43994140625
0.086181640625 -6.81787109375 18.88818359375
-6.208740234375 2.800048828125 -0.80908203125
-25.367919921875 7.46826171875 -31.94384765625
-1.5693359375 -5.594482421875 -3.410888671875
-7.45263671875 8.344970703125 -1.707275390625
-2.2998046875 -1.68701171875 -5.385986328125
18.795654296875 -10.533447265625 16.653564453125
-31.21728515625 12.346435546875 -20.22802734375
-5.537109375 7.064453125 2.436767578125
-6.18896484375 4.62060546875 -0.978515625
12.7822265625 -11.404052734375 11.63330078125
-30.64697265625 17.05712890625 -26.708984375
-26.184326171875 4.434326171875 -29.711669921875
-24.71337890625 6.90234375 -32.32568359375
18.85205078125 -8.31494140625 18.01416015625
-4.503662109375 8.10693359375 1.50244140625
0.851806640625 -5.064453125 10.460693359375
0.81689453125 -3.85888671875 3.779541015625
1.410888671875 -5.679443359375 11.74169921875
-27.8876953125 11.25341796875 -23.468017578125
0.76220703125 -4.499755859375 8.353759765625
-6.8525390625 4.26904296875 -22.20166015625
9.56982421875 -9.16357421875 15.97900390625
11.484375 -4.666015625 20.67138671875
14.71240234375 -4.59228515625 19.33203125
-3.585205078125 -6.88916015625 17.78759765625
1.48974609375 -4.10009765625 6.655517578125
16.4189453125 -5.67724609375 19.806396484375
17.80322265625 -6.535400390625 19.860595703125
-6.306396484375 9.3388671875 5.063720703125
-6.284912109375 4.8701171875 4.296875
-9.79052734375 0.580810546875 -8.769287109375
0.6123046875 -2.642578125 1.208740234375
7.1171875 -9.726318359375 14.072021484375
-27.01708984375 9.72021484375 -30.826904296875
-6.3564453125 8.829345703125 -21.677001953125
-10.842041015625 13.121826171875 -25.606689453125
1.965087890625 -8.776123046875 17.000732421875
8.19873046875 -9.108154296875 16.835205078125
-29.7314453125 19.9462890625 -31.787841796875
-5.784912109375 10.20556640625 3.3466796875
-6.266845703125 2.063232421875 2.533447265625
-27.09423828125 11.3662109375 -29.6728515625
-6.04052734375 7.595947265625 -0.8515625
-31.739990234375 15.624267578125 -20.0341796875
-28.7880859375 16.645263671875 -43.135986328125
-6.520263671875 0.50244140625 -21.13916015625
-5.620361328125 3.114501953125 -0.0322265625
-29.26123046875 17.390625 -44.40625
12.302978515625 -10.95947265625 6.685791015625
12.082763671875 -10.35205078125 7.85693359375
10.470703125 -9.70361328125 10.2861328125
11.9404296875 -8.745849609375 17.8935546875
-3.164306640625 1.306396484375 7.031005859375
7.522216796875 -4.423828125 21.193115234375
-5.2255859375 3.52734375 6.445068359375
-27.83447265625 15.250244140625 -39.35888671875
13.14794921875 -4.03857421875 20.129638671875
-29.81103515625 15.53125 -33.622314453125
-7.311767578125 7.33056640625 -17.499267578125
-18.832275390625 -0.157958984375 -3.6220703125
-32.0791015625 14.468505859375 -16.242431640625
-0.58984375 -7.1162109375 -0.81640625
-4.39306640625 7.370361328125 0.760498046875
16.14404296875 -5.4248046875 18.5732421875
-30.023193359375 18.733642578125 -30.086181640625
-29.176513671875 17.409912109375 -34.530029296875
12.5771484375 -16.6513671875 22.9189453125
-4.970458984375 -0.281005859375 -1.776123046875
-26.521484375 16.4013671875 -43.911376953125
1.263671875 -4.02490234375 2.14697265625
-6.57421875 10.39892578125 -18.935546875
-28.647705078125 -5.136962890625 -4.29345703125
-1.956298828125 -4.456787109375 8.008544921875
13.89453125 -11.80712890625 12.873046875
15.609619140625 -12.69482421875 15.782470703125
9.16796875 -8.8681640625 18.00146484375
-6.04638671875 5.397216796875 5.05224609375
-25.451171875 0.359130859375 -43.760009765625
-25.44873046875 3.006103515625 -43.430908203125
-22.648193359375 3.239990234375 -38.797607421875
-19.089599609375 0.11376953125 -5.302734375
10.66162109375 -16.701416015625 24.645263671875
-8.343017578125 -4.760009765625 13.158203125
-27.0390625 15.246337890625 -35.641357421875
-28.67919921875 2.8408203125 -25.455078125
-0.880126953125 -9.017333984375 16.297119140625
0.29833984375 -9.504150390625 15.49072265625
-16.970458984375 1.232666015625 -7.91259765625
-25.009765625 2.31787109375 -40.048828125
-27.8046875 3.39501953125 -27.575439453125
2.615478515625 -10.0908203125 8.479248046875
-2.680908203125 -4.738525390625 21.6083984375
-2.391357421875 -6.031982421875 10.654052734375
-0.578125 -5.1337890625 10.91796875
6.639404296875 -8.6416015625 16.012939453125
13.128662109375 -13.834716796875 9.01318359375
-28.050048828125 2.15283203125 -26.669189453125
-6.8642578125 -5.01318359375 -24.519287109375
5.50244140625 -12.31884765625 12.350341796875
10.190673828125 -10.06591796875 12.7890625
-24.8203125 5.943115234375 -31.031005859375
-25.6220703125 5.44140625 -41.431396484375
11.03125 -10.31884765625 11.564697265625
6.89990234375 -12.79443359375 6.58984375
-23.551025390625 5.09521484375 -38.46923828125
-4.265869140625 -6.543212890625 16.121337890625
-9.267578125 0.759033203125 -7.966552734375
-3.84033203125 -6.72314453125 14.891845703125
-0.187744140625 -3.078857421875 4.134521484375
-8.10302734375 -0.34326171875 -5.007568359375
-27.137451171875 8.56494140625 -32.01318359375
-0.6953125 -11.13330078125 -1.275634765625
-9.784423828125 -5.64697265625 14.54052734375
-27.181640625 13.019775390625 -39.672119140625
-0.792236328125 -2.593505859375 2.461181640625
-18.455322265625 3.199462890625 -37.490234375
-27.94873046875 7.968994140625 -43.646484375
-4.165283203125 -4.93701171875 21.687744140625
-4.201416015625 0.036376953125 5.552001953125
-1.31787109375 -1.35400390625 -2.97021484375
-27.235107421875 5.823974609375 -43.559814453125
-27.032470703125 14.27197265625 -37.657958984375
-26.38330078125 13.71240234375 -38.038330078125
10.794677734375 -4.337890625 19.440673828125
-4.6357421875 -19.306640625 40.62255859375
3.932861328125 -13.6318359375 12.9521484375
-29.02880859375 16.51708984375 -39.01513671875
11.9765625 -17.628173828125 26.359130859375
-2.96337890625 -1.635986328125 -0.046630859375
-27.840087890625 8.010986328125 -34.0703125
0.152099609375 -4.73291015625 9.214111328125
-30.767333984375 16.9931640625 -24.6494140625
-0.6142578125 -4.320556640625 21.07177734375
-5.92041015625 -6.341552734375 -7.834228515625
-2.44677734375 4.61083984375 7.88818359375
18.912841796875 -7.140869140625 18.681640625
4.17041015625 -9.09912109375 15.3232421875
0.3515625 -2.98828125 3.29443359375
0.550537109375 -11.996826171875 2.928955078125
-4.163330078125 1.980712890625 6.170166015625
-13.779296875 -6.78515625 17.70068359375
1.678955078125 -5.418212890625 19.076416015625
-11.603759765625 9.15478515625 -2.521484375
-30.968994140625 18.9423828125 -27.230224609375
-6.170654296875 -7.802978515625 13.431640625
-25.670166015625 9.818115234375 -39.107421875
-30.581787109375 10.28466796875 -17.60498046875
-27.171142578125 10.354736328125 -41.639404296875
0.843994140625 -3.026123046875 2.0595703125
-30.716552734375 19.263916015625 -28.88818359375
-26.289306640625 14.837158203125 -36.437744140625
-29.238525390625 10.669677734375 -21.7763671875
-26.418701171875 -4.681396484375 -5.626953125
8.818359375 -10.65234375 6.738037109375
8.0927734375 -14.489990234375 23.643310546875
-6.830810546875 6.38623046875 -18.65966796875
-6.702880859375 0.911865234375 -22.81201171875
19.375 -15.342529296875 15.148193359375
5.690185546875 -6.583251953125 18.667236328125
10.103515625 -9.06982421875 15.134033203125
-15.85205078125 -0.0048828125 -5.33837890625
7.920654296875 -8.8525390625 15.5869140625
-6.668212890625 1.84326171875 -23.28125
-5.618896484375 10.2939453125 0.505615234375
-6.48583984375 1.4345703125 -21.610595703125
3.7275390625 -9.141845703125 14.520263671875
-28.70703125 8.349609375 -19.966552734375
-1.6357421875 -8.500732421875 18.3232421875
5.787109375 -4.26318359375 21.237548828125
