67.551513671875 -42.061279296875 6.49072265625
-27.61328125 -10.6484375 11.8994140625
-4.428955078125 29.97900390625 53.908935546875
-1.37158203125 7.214111328125 17.223388671875
42.24755859375 16.06298828125 14.745849609375
51.047607421875 -31.150146484375 6.510009765625
-59.448974609375 62.231689453125 -8.4443359375
128.20556640625 -42.1376953125 45.138916015625
98.33203125 -135.145263671875 17.473876953125
-33.07470703125 16.834716796875 17.4775390625
54.00048828125 56.075927734375 23.148681640625
123.8544921875 -67.802978515625 33.631591796875
-74.353759765625 -3.68017578125 9.287353515625
82.84814453125 -59.909423828125 79.12353515625
-77.471923828125 -41.77880859375 135.404541015625
25.692626953125 -30.529541015625 32.349609375
84.257080078125 -13.1630859375 74.60107421875
-78.1240234375 -16.603759765625 20.03369140625
69.904052734375 -43.891357421875 52.4697265625
-9.824951171875 15.783935546875 23.3251953125
3.32470703125 38.010986328125 56.893798828125
125.324951171875 -114.687744140625 14.855712890625
74.667236328125 -145.95068359375 -11.6064453125
-46.481201171875 -14.29443359375 4.992431640625
31.36962890625 14.008056640625 18.826416015625
-88.510498046875 -17.24755859375 18.755615234375
48.904052734375 83.64404296875 106.609130859375
-8.905029296875 -23.128662109375 35.52197265625
13.7919921875 37.442138671875 0.740478515625
85.160400390625 -55.78759765625 68.6123046875
-77.200927734375 72.296630859375 -2.1591796875
3.6259765625 106.36083984375 22.0419921875
124.177490234375 -106.685546875 28.09130859375
-67.38916015625 54.47900390625 39.67138671875
67.76025390625 -144.98828125 23.816162109375
0.02978515625 103.493408203125 -12.594970703125
72.373779296875 -106.35986328125 11.53173828125
-33.22802734375 -3.760498046875 4.4111328125
73.868408203125 -54.56103515625 63.364501953125
68.57373046875 -58.706298828125 8.827392578125
65.715576171875 -80.405517578125 6.86767578125
-90.750732421875 59.98583984375 1.345703125
87.773681640625 -120.908447265625 10.316650390625
71.42138671875 14.91162109375 69.21240234375
-17.002685546875 96.48876953125 67.550048828125
-26.824462890625 9.08642578125 8.104736328125
43.73046875 -4.281982421875 10.722900390625
64.442626953125 1.93115234375 68.875244140625
24.542236328125 -48.980224609375 34.721435546875
60.866455078125 -96.35546875 19.174072265625
74.764404296875 -76.78076171875 9.61279296875
71.412841796875 -39.16943359375 -20.68017578125
-50.138671875 57.235107421875 140.268310546875
1.873779296875 97.52783203125 69.743896484375
10.232666015625 59.28369140625 -4.919677734375
62.70703125 -22.1552734375 12.021484375
89.910888671875 -140.415771484375 9.822998046875
61.280517578125 -8.008056640625 16.384521484375
52.484619140625 5.668701171875 12.163818359375
130.72705078125 -119.979248046875 21.023681640625
5.57421875 -7.998779296875 19.229248046875
32.82763671875 -10.308837890625 41.249755859375
-23.083740234375 61.169921875 -8.76953125
43.08935546875 49.863037109375 24.98583984375
89.73876953125 12.01220703125 -11.068115234375
57.19921875 -10.97314453125 59.442138671875
8.338623046875 -52.427490234375 40.33837890625
-52.2666015625 -25.98681640625 31.65478515625
21.8837890625 -3.25341796875 15.83349609375
51.524169921875 -56.8984375 15.456787109375
-20.883056640625 4.806884765625 17.7919921875
-56.38525390625 -12.1748046875 4.711181640625
56.2626953125 6.9375 66.30859375
78.733642578125 25.640625 -10.966552734375
-63.134521484375 -59.619140625 127.81982421875
81.476806640625 -132.5263671875 10.599609375
44.993408203125 -19.291259765625 18.337890625
47.786865234375 66.79736328125 28.8046875
2.407470703125 71.9736328125 3.123779296875
59.82568359375 -26.206787109375 53.33984375
64.55517578125 -156.1435546875 -10.89453125
-41.66015625 56.672119140625 -6.46875
-94.54296875 -16.160888671875 11.727783203125
13.919677734375 22.94873046875 51.457275390625
14.07568359375 17.0615234375 23.037109375
-59.519775390625 12.294189453125 11.533447265625
-56.7041015625 70.36376953125 -5.05419921875
40.7939453125 23.33056640625 -1.985107421875
13.939453125 43.423583984375 -6.2255859375
74.50244140625 -37.760986328125 57.822265625
10.743408203125 68.206787109375 -1.826416015625
-61.830322265625 -48.38427734375 135.494384765625
-13.15380859375 -11.534912109375 25.1025390625
73.79541015625 -134.76611328125 15.412353515625
-26.75537109375 110.724365234375 -17.63818359375
-15.32763671875 38.661376953125 59.0869140625
7.256591796875 -28.986083984375 39.83544921875
1.908935546875 -45.79638671875 28.823974609375
36.09228515625 -8.07861328125 22.1533203125
78.4208984375 7.699462890625 80.144287109375
54.70654296875 -82.253173828125 17.06494140625
29.507080078125 -51.08837890625 42.31689453125
-41.06494140625 55.202392578125 140.718017578125
27.30712890625 86.444580078125 35.70361328125
78.61767578125 -28.713134765625 64.341796875
63.9658203125 -50.07080078125 7.458251953125
127.9140625 -75.8984375 31.214599609375
46.74267578125 -44.90771484375 8.351318359375
66.814453125 24.8837890625 -12.259765625
-67.0419921875 7.994873046875 20.30810546875
70.27783203125 -15.770751953125 64.566162109375
-67.18212890625 58.307861328125 -7.263916015625
9.873291015625 -22.142578125 35.0751953125
53.60986328125 -39.61181640625 5.727783203125
88.91259765625 -36.98486328125 69.837890625
-15.842529296875 108.79541015625 67.08447265625
-30.677978515625 104.3076171875 67.336181640625
75.438232421875 -71.509765625 16.446533203125
136.167724609375 -111.502197265625 4.3779296875
55.74560546875 -169.044189453125 -2.927734375
46.81884765625 -13.0068359375 9.70947265625
-34.991455078125 98.8818359375 16.2197265625
21.69970703125 56.41064453125 -6.14794921875
-5.017822265625 52.689208984375 -3.3486328125
73.756591796875 15.020263671875 78.25146484375
20.629638671875 12.587890625 19.691650390625
76.60009765625 -8.2490234375 71.595458984375
-50.538818359375 1.049560546875 2.30908203125
96.024658203125 -125.022216796875 14.669921875
35.04248046875 44.21044921875 -7.383056640625
50.305419921875 24.01318359375 -13.473876953125
-4.62890625 60.58154296875 -8.998046875
-88.15283203125 52.03125 4.232177734375
57.512451171875 -66.6962890625 14.32763671875
-29.39697265625 117.3369140625 -55.13330078125
11.691650390625 36.187255859375 57.224609375
-82.72705078125 60.158935546875 -0.966552734375
23.007568359375 30.6708984375 60.6396484375
40.653564453125 33.12353515625 -10.4345703125
32.140380859375 6.9208984375 13.217041015625
-62.976318359375 -15.3720703125 17.312744140625
-0.871337890625 22.513427734375 54.54833984375
48.239501953125 -32.204345703125 14.225341796875
-14.43798828125 12.30908203125 17.467041015625
55.044189453125 30.61279296875 -10.1171875
8.47509765625 109.07958984375 74.735595703125
39.382568359375 67.892578125 28.88134765625
-15.556884765625 51.8818359375 93.8984375
52.023681640625 87.60205078125 100.174072265625
134.896240234375 -60.3837890625 36.38916015625
77.255126953125 -63.674072265625 5.385986328125
59.018798828125 -149.474365234375 -1.87744140625
0.36572265625 -16.209228515625 36.8505859375
1.934814453125 -51.7822265625 35.3544921875
86.217529296875 -97.866943359375 18.841064453125
128.56787109375 -101.60888671875 50.266845703125
74.250732421875 12.83984375 -9.358642578125
91.509033203125 -30.173095703125 79.25048828125
-31.442626953125 2.66943359375 9.818359375
14.244140625 -47.273681640625 105.26318359375
5.44775390625 97.697509765625 -2.65185546875
-72.97314453125 54.50927734375 -3.108642578125
-7.432861328125 -8.481689453125 17.89013671875
-58.712646484375 6.63037109375 4.598876953125
55.171142578125 -158.96142578125 2.90185546875
72.116943359375 -1.602294921875 71.94970703125
122.16162109375 -86.195068359375 28.804443359375
58.87060546875 -15.178466796875 12.826416015625
59.99267578125 10.132080078125 20.177978515625
80.468505859375 -89.417236328125 11.180908203125
8.28125 106.70166015625 28.534912109375
83.294677734375 11.141845703125 85.461181640625
-35.185302734375 -26.49560546875 25.283935546875
-39.904541015625 133.479736328125 -18.159423828125
12.37890625 -36.853515625 30.097900390625
59.1748046875 15.81640625 -9.036376953125
131.67041015625 -106.732421875 30.642822265625
-51.79248046875 63.74560546875 -7.155517578125
16.690673828125 103.8173828125 78.82080078125
-48.871826171875 -23.004150390625 20.728515625
-24.610107421875 116.9462890625 8.390625
29.18310546875 35.308349609375 -9.6162109375
35.181884765625 74.915283203125 32.197509765625
-30.8662109375 54.785400390625 -4.04833984375
-16.052978515625 23.210693359375 51.39892578125
-5.757080078125 -41.181640625 28.936767578125
-74.595458984375 -13.8017578125 12.375
-41.283447265625 119.569580078125 7.501708984375
-66.24365234375 -3.954345703125 9.93798828125
15.82177734375 -50.672119140625 37.517333984375
16.759033203125 4.38818359375 13.79248046875
133.71923828125 -108.371826171875 15.024658203125
-13.641845703125 63.701171875 -9.44287109375
127.447265625 -99.7607421875 29.853515625
22.493408203125 48.74462890625 -11.177978515625
-57.595947265625 54.752685546875 -1.328369140625
-8.05029296875 3.08203125 13.991455078125
-50.877685546875 -6.56640625 3.302978515625
67.09814453125 -56.3740234375 66.519287109375
120.609130859375 -109.90283203125 21.0380859375
-40.7421875 64.46875 -7.83837890625
68.66455078125 -122.674560546875 17.710205078125
43.742431640625 94.762939453125 95.409423828125
78.61376953125 -120.476806640625 9.329833984375
48.718505859375 58.58544921875 28.054443359375
-31.020751953125 -18.020751953125 14.028076171875
7.13037109375 49.818115234375 -7.9228515625
-37.447998046875 13.749267578125 11.462646484375
66.622314453125 -163.3310546875 -11.98681640625
-21.49951171875 54.87255859375 99.086669921875
-37.08154296875 99.50244140625 64.0419921875
91.595947265625 -45.926513671875 75.956298828125
60.540771484375 -67.25341796875 6.80810546875
120.82275390625 -128.634521484375 28.552001953125
11.5361328125 96.666748046875 77.769287109375
16.337158203125 -11.76904296875 38.46923828125
62.447998046875 -7.452392578125 63.486572265625
15.909912109375 -6.835693359375 18.61767578125
128.4013671875 -49.469482421875 39.48046875
72.632080078125 -23.263671875 63.045654296875
-82.9921875 5.45166015625 16.486083984375
73.975830078125 -97.112548828125 7.453125
3.733154296875 -4.13427734375 13.008056640625
58.96435546875 0.888671875 15.770263671875
56.98291015625 -26.9638671875 8.589599609375
-1.64892578125 -30.870361328125 32.248779296875
-39.357177734375 2.27783203125 2.613525390625
-38.397216796875 -9.218505859375 3.790771484375
38.66845703125 -41.10107421875 35.251953125
-45.269287109375 6.706298828125 3.980224609375
65.6787109375 -91.538330078125 15.8837890625
29.444091796875 44.256103515625 -12.155029296875
27.156005859375 -15.35302734375 38.282470703125
88.0283203125 -113.316162109375 12.437744140625
76.27880859375 21.027587890625 -16.113037109375
8.445068359375 -42.60986328125 27.869384765625
48.260986328125 11.841064453125 14.495849609375
84.927734375 -19.90673828125 71.947021484375
-51.60546875 14.51318359375 13.880615234375
80.903076171875 -106.02294921875 9.143798828125
-60.40283203125 -15.09814453125 10.52392578125
-25.6611328125 10.204345703125 17.127685546875
-29.454345703125 49.893798828125 1.079833984375
79.588134765625 -43.73095703125 61.916748046875
-71.853271484375 -45.725341796875 133.184814453125
128.0234375 -91.158447265625 30.29443359375
54.689453125 13.726806640625 67.986572265625
-22.660400390625 47.58984375 -4.6630859375
122.531982421875 -121.233154296875 24.0224609375
49.884521484375 35.790283203125 -8.808349609375
-23.59375 97.231201171875 64.95703125
29.744873046875 -44.96142578125 37.451904296875
20.084228515625 -8.65869140625 24.92236328125
40.8330078125 40.488525390625 -9.047607421875
-38.457275390625 19.8701171875 22.5625
71.646484375 -57.01806640625 15.54052734375
-56.8125 -62.188232421875 129.678466796875
-91.494140625 -1.6640625 14.258056640625
8.608642578125 115.04443359375 34.5625
-9.8642578125 33.6083984375 56.54248046875
-86.7421875 -6.2890625 8.73828125
-26.39208984375 49.9228515625 100.140380859375
100.126708984375 -141.989990234375 18.2783203125
-6.9091796875 107.51806640625 70.11767578125
63.63037109375 30.912841796875 -9.969482421875
26.331787109375 -22.706787109375 35.70166015625
85.671142578125 -146.46044921875 10.699951171875
33.37939453125 -7.834228515625 28.584716796875
60.796875 -40.509521484375 7.326416015625
4.653564453125 11.709228515625 19.735595703125
90.310302734375 -15.384765625 80.258056640625
43.819091796875 -94.95654296875 87.009521484375
50.694580078125 -49.09765625 13.67431640625
86.803955078125 -2.706298828125 81.099365234375
65.23876953125 -30.174072265625 55.285888671875
-4.782470703125 -52.810302734375 36.6630859375
-5.23388671875 97.862548828125 67.272705078125
19.79150390625 38.884033203125 -4.13427734375
20.400390625 -43.55126953125 35.47314453125
-54.41943359375 -21.95849609375 16.85009765625
76.846923828125 -151.75146484375 -16.050048828125
-3.84521484375 13.0380859375 19.741943359375
69.696533203125 14.728759765625 62.62939453125
63.984130859375 -102.19970703125 15.190185546875
24.730224609375 -38.768798828125 32.3623046875
2.0322265625 3.256103515625 12.8984375
-29.804443359375 66.68994140625 -4.580322265625
14.32763671875 29.665283203125 57.735595703125
68.05322265625 -150.587646484375 -12.415283203125
-31.117919921875 -10.91259765625 6.15478515625
-10.41064453125 26.954345703125 53.26708984375
79.119384765625 -82.833251953125 12.7255859375
-73.952392578125 -39.314697265625 141.16259765625
17.556396484375 -47.41748046875 30.47705078125
33.0498046875 52.83251953125 -2.094970703125
82.24609375 -126.0673828125 8.78759765625
-32.6796875 28.51611328125 16.274658203125
62.52978515625 -80.0654296875 13.334228515625
67.0283203125 -87.69189453125 8.21728515625
-20.7529296875 -9.05908203125 12.9697265625
93.091552734375 -151.211181640625 11.671630859375
-18.54052734375 56.29150390625 -6.47119140625
6.94873046875 104.07373046875 68.947509765625
-28.693359375 15.731689453125 22.331787109375
83.16259765625 12.247802734375 -9.7607421875
-86.898681640625 54.42626953125 -2.017822265625
47.044677734375 -23.445556640625 10.114013671875
64.205322265625 -145.29931640625 8.042724609375
70.256591796875 -103.874755859375 17.271240234375
35.766845703125 17.3017578125 14.83837890625
-69.228515625 0.10498046875 15.14697265625
7.090576171875 -32.374755859375 33.3515625
127.502197265625 -130.705810546875 30.29541015625
-61.423828125 -8.451416015625 10.7001953125
70.091064453125 -146.1591796875 30.088623046875
95.661376953125 -138.117919921875 12.29150390625
-39.52685546875 -21.916748046875 21.731689453125
90.35205078125 -52.214599609375 70.345947265625
-20.126708984375 -12.717529296875 27.06787109375
-89.596435546875 -12.16796875 10.035400390625
-62.638427734375 -53.28515625 131.2783203125
-70.176513671875 65.2216796875 -6.7705078125
-40.0830078125 70.927734375 -4.688232421875
127.5869140625 -110.354736328125 23.95263671875
53.144775390625 -11.5888671875 9.874267578125
73.1728515625 -51.12451171875 56.374755859375
-42.98291015625 11.409912109375 9.0341796875
27.9521484375 0.902587890625 14.25244140625
38.0888671875 -0.95068359375 11.291748046875
56.3681640625 -17.366943359375 58.52099609375
39.06005859375 -19.8095703125 15.86474609375
-0.6044921875 -7.55810546875 17.436767578125
-80.116943359375 66.711669921875 -3.972412109375
43.99658203125 47.20166015625 -7.93603515625
128.728759765625 -64.0458984375 35.497314453125
32.2939453125 -27.189453125 36.752685546875
63.7919921875 -74.27783203125 6.574951171875
-29.625 -4.5908203125 11.1552734375
52.7646484375 53.8291015625 29.543212890625
30.596435546875 -34.655029296875 32.04296875
66.808349609375 13.947265625 75.391357421875
74.32373046875 -69.37451171875 10.52587890625
-79.61181640625 56.270751953125 -4.97021484375
1.019287109375 50.60888671875 -3.11474609375
-69.298583984375 -15.909423828125 17.955078125
8.61572265625 55.915771484375 -10.086669921875
51.99462890625 -61.025146484375 10.592041015625
59.966552734375 -162.65380859375 -7.940185546875
64.1162109375 -42.616455078125 50.143798828125
-16.712890625 70.32958984375 -8.02587890625
132.4736328125 -54.74169921875 38.197265625
31.62744140625 79.82421875 34.29833984375
20.75634765625 -34.044677734375 30.53955078125
68.42626953125 -109.588623046875 15.272705078125
89.735595703125 -111.34423828125 18.330810546875
64.067626953125 -62.083251953125 5.94580078125
67.03515625 -24.50439453125 58.546142578125
66.771728515625 13.642822265625 -1.2744140625
-5.091552734375 67.010986328125 -5.915283203125
-7.041748046875 100.194580078125 -63.764404296875
-77.1357421875 8.121826171875 20.717529296875
49.6484375 -38.245361328125 13.185546875
65.71630859375 -114.096923828125 18.70703125
18.727783203125 27.517333984375 52.8232421875
-15.731689453125 -10.18408203125 18.5888671875
66.03076171875 -145.181396484375 -0.20166015625
83.6240234375 -7.34033203125 76.801025390625
-77.941162109375 -0.454345703125 14.634765625
-2.944580078125 103.54931640625 66.059326171875
75.9853515625 -121.012939453125 15.9130859375
65.443603515625 7.392822265625 71.729248046875
79.261962890625 -53.57861328125 66.33203125
4.59716796875 61.43896484375 -6.398193359375
-31.3935546875 12.720947265625 12.39453125
82.5927734375 -145.6142578125 -9.618408203125
27.2109375 70.5048828125 33.5166015625
83.635009765625 -145.570556640625 2.3740234375
-44.409423828125 -18.100341796875 9.38818359375
1.5498046875 31.59912109375 54.489013671875
123.60546875 -115.161376953125 22.151611328125
5.63037109375 96.645263671875 76.053466796875
82.211669921875 -25.27099609375 67.95166015625
59.1298828125 -53.72021484375 6.417236328125
-26.228271484375 -12.95263671875 17.423583984375
76.12646484375 -59.78564453125 78.56494140625
62.127197265625 -4.69140625 21.47119140625
-2.982177734375 94.11328125 71.5634765625
-37.698486328125 7.997314453125 13.5556640625
-82.599609375 -17.68115234375 24.068359375
66.941162109375 14.106201171875 -9.20263671875
29.42578125 -38.863037109375 37.1435546875
37.86328125 -7.287841796875 14.019775390625
-49.203369140625 -20.35546875 13.884521484375
64.1953125 20.580810546875 -16.0009765625
-14.584228515625 104.899658203125 62.546142578125
42.598876953125 -17.624755859375 11.385986328125
40.08154296875 80.44970703125 32.550537109375
63.969482421875 -13.16162109375 61.947265625
-45.031982421875 54.11572265625 -2.083740234375
36.313232421875 -50.260986328125 43.972412109375
20.850830078125 -25.317626953125 34.195068359375
81.67431640625 14.582763671875 80.710205078125
75.153564453125 -114.463134765625 11.293212890625
32.7705078125 89.608642578125 35.6796875
54.731689453125 19.302001953125 -11.2763671875
28.79931640625 30.983642578125 -1.078369140625
79.747802734375 -14.8466796875 70.908935546875
-93.557861328125 -28.0341796875 122.45654296875
2.058837890625 -30.896240234375 37.035400390625
118.470458984375 -108.686767578125 28.103515625
-100.320068359375 -21.480712890625 114.428955078125
55.7138671875 -142.544677734375 7.631591796875
84.49462890625 -31.790283203125 66.700927734375
71.19189453125 -64.0146484375 10.005126953125
-46.650390625 60.638427734375 -7.608642578125
89.382568359375 -23.72998046875 75.37548828125
124.18603515625 -80.809326171875 30.57470703125
87.224609375 -41.00927734375 64.90625
-36.169677734375 66.385986328125 -4.28759765625
133.287841796875 -44.24169921875 42.739990234375
67.621337890625 -37.088623046875 53.610107421875
40.862548828125 22.287841796875 15.48828125
-11.724853515625 -31.896240234375 35.645751953125
52.712158203125 -72.486083984375 12.686279296875
15.722900390625 56.413818359375 -6.20263671875
44.218017578125 -29.139404296875 17.404541015625
12.052490234375 -17.06787109375 37.335693359375
-83.448486328125 -16.5234375 15.6982421875
49.13232421875 51.326904296875 25.50732421875
65.701416015625 -48.3203125 50.73291015625
38.095458984375 27.913818359375 -8.53662109375
81.03955078125 -57.171630859375 72.623291015625
47.879638671875 22.079833984375 -7.8447265625
-37.332763671875 -19.7783203125 15.24853515625
56.06494140625 -34.2587890625 6.319580078125
36.360595703125 11.513427734375 13.851318359375
-3.95263671875 34.859619140625 57.52978515625
-8.364013671875 -17.17578125 36.942138671875
-61.718994140625 56.48095703125 -6.043701171875
-78.113037109375 -8.16796875 10.572998046875
5.10986328125 6.135498046875 17.92724609375
43.628173828125 28.67333984375 -12.841064453125
42.196533203125 97.79931640625 103.98486328125
83.59326171875 -95.064208984375 14.409423828125
129.762939453125 -37.419921875 42.02880859375
61.371337890625 -152.667724609375 -6.186767578125
87.096435546875 -57.196533203125 74.36083984375
-13.8203125 45.0654296875 94.773193359375
43.935546875 -31.244873046875 10.399169921875
-71.814697265625 70.06494140625 -3.954345703125
-35.943359375 57.2998046875 -7.457763671875
80.307373046875 -85.5048828125 18.38916015625
75.705810546875 2.53662109375 75.99072265625
78.424560546875 -137.383056640625 11.5263671875
69.513671875 -76.01611328125 6.62939453125
-88.3447265625 3.34130859375 15.697509765625
75.4599609375 -103.169677734375 7.7919921875
-9.40380859375 -2.735107421875 12.464111328125
84.335693359375 -138.8525390625 9.628173828125
68.513916015625 -52.8828125 9.6845703125
34.500732421875 -45.44189453125 33.898193359375
7.3642578125 -10.814697265625 24.182861328125
81.59765625 2.38623046875 79.678466796875
49.41650390625 -6.813232421875 9.7763671875
8.643310546875 15.77392578125 21.598876953125
-51.13720703125 -24.501708984375 25.813232421875
-27.817626953125 72.26318359375 -1.171875
71.58349609375 -144.327392578125 -7.033203125
-14.94091796875 3.34326171875 16.07373046875
54.217041015625 84.08203125 104.1494140625
-61.93310546875 55.125244140625 38.017822265625
-25.163330078125 56.340087890625 -6.47998046875
10.819091796875 111.7646484375 29.438232421875
52.835205078125 28.698486328125 -15.57958984375
-37.9716796875 104.3017578125 16.78857421875
-3.231201171875 -36.63623046875 31.310791015625
-61.820556640625 66.450439453125 -4.75830078125
75.927001953125 -91.860107421875 8.536376953125
51.477783203125 -24.895751953125 6.82568359375
8.036865234375 1.4853515625 11.847900390625
74.7626953125 -14.599609375 67.886962890625
48.201904296875 17.508544921875 15.11279296875
-19.697265625 -3.108154296875 12.491455078125
62.181396484375 -2.128662109375 65.59326171875
17.919921875 45.6025390625 -9.957275390625
75.875732421875 -32.55078125 61.199951171875
42.284912109375 10.420166015625 14.285888671875
-61.684326171875 14.997802734375 16.005859375
13.997314453125 -43.127197265625 28.802734375
27.998291015625 10.264892578125 16.26416015625
-24.23876953125 5.1611328125 11.239990234375
-6.03076171875 -27.491943359375 33.361328125
-19.300048828125 65.32763671875 -8.20458984375
21.395263671875 -14.2685546875 37.98486328125
-7.53076171875 7.7421875 18.424560546875
16.436279296875 -0.70703125 11.471435546875
75.104248046875 -44.154052734375 56.013671875
73.06982421875 26.43896484375 -10.814453125
-38.437744140625 18.374267578125 17.047607421875
-8.6376953125 -30.843994140625 26.4892578125
70.24853515625 -93.011962890625 8.137451171875
6.451416015625 -17.88232421875 36.169677734375
65.282958984375 -36.591796875 10.5009765625
54.156982421875 -52.37060546875 10.796875
28.17431640625 -4.247802734375 16.8486328125
-32.788330078125 2.68896484375 4.421630859375
84.92919921875 -102.807861328125 12.6650390625
-45.78857421875 60.677001953125 140.27294921875
-51.416015625 54.327392578125 0.4638671875
-4.03369140625 -20.571533203125 36.148193359375
-72.685546875 -8.95556640625 9.8583984375
-88.00341796875 62.267333984375 -2.873779296875
68.23291015625 -47.138916015625 9.3798828125
70.92041015625 21.964599609375 -15.17236328125
-11.7607421875 97.61572265625 66.259521484375
-48.52734375 18.0078125 16.8740234375
76.550048828125 -109.21240234375 8.030517578125
131.806396484375 -73.290771484375 35.0419921875
75.869873046875 15.017333984375 -14.143798828125
-56.08154296875 2.02392578125 1.324951171875
122.22998046875 -72.8525390625 31.906494140625
60.2529296875 27.021484375 -11.84228515625
-55.017333984375 58.3828125 -6.944580078125
44.82958984375 36.126953125 -12.31787109375
-74.515380859375 52.744384765625 1.839599609375
43.833984375 56.20458984375 25.976318359375
51.907958984375 -44.086181640625 9.913330078125
-25.78564453125 102.475341796875 65.790283203125
25.510498046875 35.373046875 -4.9404296875
89.505126953125 -32.61474609375 72.994384765625
58.671875 13.0771484375 -4.385009765625
16.380126953125 9.32177734375 17.184326171875
33.681640625 -15.954345703125 39.095703125
-44.67333984375 -9.1904296875 4.962646484375
56.404052734375 8.76904296875 16.3642578125
57.824462890625 -21.47216796875 54.9736328125
34.813720703125 36.865478515625 -8.489501953125
91.754638671875 -120.586669921875 13.93115234375
-19.25927734375 9.486328125 19.90478515625
128.3984375 -70.49609375 31.9521484375
63.130126953125 16.4697265625 -12.695068359375
-86.526611328125 51.34423828125 9.315185546875
-33.003662109375 23.69775390625 18.646728515625
46.0830078125 -55.0986328125 15.215087890625
-31.3544921875 10.87353515625 19.212158203125
-92.8115234375 -19.465087890625 21.069091796875
91.42578125 10.899169921875 -6.010498046875
64.70263671875 -41.901611328125 11.024658203125
25.531982421875 13.931884765625 21.33544921875
-23.837890625 -5.914306640625 9.95947265625
94.726318359375 -133.01953125 14.17919921875
31.260009765625 -53.87353515625 46.504638671875
44.010986328125 -8.967529296875 13.23876953125
-51.909912109375 -17.78955078125 6.21630859375
86.4931640625 -133.647705078125 9.21826171875
63.458740234375 -56.625244140625 7.482177734375
-3.5517578125 -45.76123046875 27.428466796875
30.50439453125 17.412841796875 22.79248046875
-61.310546875 -0.80419921875 9.09765625
0.279541015625 27.037109375 52.053466796875
8.675048828125 23.34619140625 52.01708984375
31.411865234375 -5.34228515625 21.7333984375
131.908447265625 -118.67724609375 14.949462890625
-74.302978515625 -17.63427734375 23.53955078125
-36.740966796875 95.6865234375 67.685546875
43.919189453125 62.46484375 28.05712890625
125.679443359375 -119.54296875 19.541015625
70.886474609375 -82.084228515625 7.719482421875
-5.388916015625 23.680908203125 52.105712890625
12.140869140625 47.49853515625 -9.0283203125
77.075439453125 -131.031005859375 13.06298828125
70.4091796875 -127.53125 16.705810546875
-65.312744140625 63.3662109375 -7.44775390625
80.711669921875 14.996826171875 88.07763671875
63.927734375 -84.978271484375 14.484619140625
23.509521484375 -6.99072265625 19.877197265625
92.484619140625 -146.010009765625 10.8642578125
11.662353515625 4.8330078125 14.856689453125
16.83837890625 97.873779296875 80.068115234375
48.973388671875 -61.438720703125 15.242919921875
56.5185546875 -60.523193359375 13.318359375
-67.4248046875 -48.440673828125 132.82373046875
67.363037109375 -96.038818359375 17.875732421875
87.7216796875 -126.09814453125 10.032958984375
-54.088623046875 53.157470703125 142.501220703125
-70.952392578125 56.230224609375 36.20654296875
54.776611328125 35.883544921875 -10.53662109375
88.935791015625 -18.615966796875 76.124267578125
19.72509765625 15.968017578125 23.521240234375
46.69384765625 86.223388671875 102.688720703125
67.581787109375 -18.794921875 61.32861328125
34.6787109375 31.556640625 -9.916015625
55.92236328125 -163.90087890625 -3.5263671875
48.61328125 90.6171875 97.70361328125
70.9501953125 -101.083251953125 10.66162109375
58.13037109375 -82.507568359375 12.1259765625
14.561279296875 -24.1865234375 34.287841796875
8.235107421875 32.42333984375 55.917236328125
2.550048828125 101.995361328125 67.193603515625
67.193359375 -2.853515625 68.291748046875
62.234619140625 -94.826171875 13.875
39.3173828125 53.098388671875 26.362548828125
94.339599609375 -121.908935546875 19.0986328125
10.82080078125 -6.723388671875 17.829833984375
1.251708984375 101.982666015625 -7.826904296875
47.27978515625 71.879638671875 29.4365234375
58.0576171875 -21.4111328125 9.950927734375
73.24755859375 9.911376953125 78.016357421875
9.228515625 -27.107666015625 33.933837890625
33.925048828125 49.19873046875 -7.82763671875
-80.595458984375 -3.769287109375 9.69921875
131.410888671875 -112.31494140625 12.70556640625
100.18115234375 -148.684814453125 16.6123046875
13.037353515625 43.42626953125 -1.190673828125
0.73193359375 60.0302734375 -9.552978515625
7.16015625 99.0634765625 69.899658203125
63.379638671875 -27.846923828125 10.1435546875
54.1728515625 -155.99609375 10.5634765625
90.634521484375 -41.629638671875 73.384521484375
-3.39111328125 55.387939453125 -7.35693359375
59.4970703125 3.03564453125 65.763427734375
13.030517578125 107.26318359375 77.98193359375
-28.4365234375 61.178955078125 -8.622802734375
69.383056640625 -53.76708984375 60.652099609375
-51.531982421875 70.7138671875 -5.509765625
23.3935546875 51.621337890625 -6.231201171875
-88.296630859375 -16.59033203125 13.730224609375
78.006103515625 -144.616943359375 -7.70263671875
24.05419921875 -41.83984375 27.543701171875
52.803466796875 0.62060546875 12.39892578125
46.700927734375 -39.86962890625 8.830078125
-47.204345703125 13.032958984375 11.9013671875
34.667236328125 -37.241455078125 33.506591796875
46.78369140625 -40.280029296875 16.788818359375
0.77734375 67.65625 -9.61767578125
68.587646484375 2.63232421875 71.6181640625
-49.1328125 54.27099609375 144.177734375
23.032958984375 8.27783203125 20.54443359375
57.681396484375 -7.540283203125 12.9404296875
-52.44384765625 -64.2392578125 130.989501953125
-0.149658203125 -11.24560546875 37.1669921875
11.578125 28.54248046875 53.61865234375
53.023193359375 81.26220703125 108.111328125
13.845703125 -52.01025390625 41.885986328125
84.600830078125 -108.461181640625 11.408203125
60.125244140625 -31.352783203125 51.14794921875
-8.80224609375 64.54736328125 -8.124267578125
-83.722900390625 63.104736328125 -5.256591796875
83.89453125 -117.2841796875 9.59619140625
32.651611328125 -48.90673828125 38.21337890625
16.93212890625 -8.814208984375 28.741943359375
129.3818359375 -46.912109375 44.537109375
3.813720703125 22.8408203125 52.77197265625
5.446044921875 69.57470703125 0.051025390625
52.69970703125 58.109619140625 32.499755859375
62.552490234375 -12.766845703125 16.005859375
66.02197265625 -145.140625 19.196044921875
14.791748046875 12.9755859375 20.08837890625
-34.204345703125 6.75048828125 9.953369140625
78.977294921875 -147.647705078125 -14.344482421875
85.778564453125 -50.947998046875 67.928466796875
36.360595703125 3.851806640625 11.5595703125
-57.773681640625 -16.704833984375 6.02294921875
20.7255859375 -50.361328125 37.65234375
27.129150390625 -41.43603515625 41.328857421875
-50.333740234375 5.915283203125 2.939697265625
9.56396484375 -46.267333984375 104.193359375
8.23193359375 111.088134765625 25.32861328125
134.273193359375 -66.108642578125 37.766845703125
-38.046142578125 -18.1884765625 10.6669921875
10.322998046875 -50.63671875 36.112060546875
71.6591796875 -56.74951171875 69.047607421875
-0.631103515625 -50.28515625 31.478759765625
13.916259765625 63.940185546875 -2.4404296875
82.036865234375 20.990478515625 -14.6416015625
-72.115478515625 58.009765625 -6.396240234375
97.63623046875 -130.322021484375 17.300048828125
-51.6650390625 -13.309326171875 4.273681640625
90.151611328125 -0.578125 83.9306640625
1.017578125 -8.54443359375 22.87890625
-17.4580078125 60.82861328125 -8.4736328125
-5.0537109375 15.22021484375 24.0546875
42.989013671875 23.95263671875 -6.275146484375
-56.550537109375 9.845703125 8.572021484375
68.36083984375 -158.644775390625 -12.56884765625
-9.6728515625 53.679931640625 -2.444091796875
69.71240234375 -49.541748046875 53.146240234375
91.482421875 -135.285400390625 10.80078125
50.365478515625 62.355712890625 31.138671875
69.424072265625 -33.27685546875 56.6513671875
5.371337890625 -49.195068359375 30.927978515625
-67.547607421875 4.74169921875 16.784912109375
131.333984375 -105.89208984375 36.75244140625
-24.077880859375 65.5673828125 -7.09033203125
-18.0556640625 99.991943359375 64.42626953125
-96.297607421875 -1.873291015625 14.35791015625
88.330810546875 -10.957275390625 78.544189453125
46.911865234375 -30.9306640625 20.95947265625
-11.879638671875 8.04638671875 16.402099609375
45.130615234375 45.720458984375 -3.513916015625
0.0849609375 -41.361083984375 29.00634765625
-44.130126953125 -21.909912109375 20.375732421875
-9.8447265625 -10.445556640625 21.537353515625
61.2353515625 7.677978515625 69.454345703125
-29.485107421875 -6.171630859375 6.634521484375
-4.104736328125 92.158447265625 61.079345703125
16.70068359375 60.927734375 -4.911376953125
63.795654296875 -149.443603515625 -1.56298828125
85.801025390625 14.079345703125 -13.91162109375
0.05517578125 71.427978515625 -0.994384765625
127.642578125 -104.2470703125 31.455322265625
3.866455078125 110.10693359375 28.010986328125
80.37255859375 -10.411865234375 73.540283203125
71.78076171875 -121.7744140625 13.807861328125
76.44384765625 11.76318359375 81.645751953125
-19.867919921875 111.82080078125 7.76416015625
-71.50048828125 -42.845458984375 137.029541015625
8.52978515625 46.150146484375 -5.2451171875
72.205078125 -152.34912109375 -13.911376953125
7.583251953125 64.6806640625 -4.6240234375
-37.865478515625 -3.251708984375 3.525390625
27.834228515625 39.687255859375 -10.85791015625
-55.71337890625 -7.525146484375 4.084716796875
-95.546875 -17.595458984375 17.36962890625
38.807373046875 -5.47119140625 9.747802734375
-17.864501953125 15.965087890625 24.340576171875
125.887939453125 -88.773681640625 26.8056640625
78.6025390625 -38.55224609375 60.053955078125
-33.466552734375 114.8154296875 -54.2978515625
-28.181640625 54.3046875 -0.056396484375
61.735595703125 -17.86376953125 15.461181640625
-2.61279296875 2.91943359375 12.09228515625
-28.051513671875 98.604736328125 63.478515625
-11.433349609375 -13.766357421875 38.07080078125
-6.845703125 -6.689208984375 12.80224609375
77.2353515625 -77.385498046875 14.90185546875
55.26513671875 -15.92236328125 9.525146484375
-40.509765625 -14.40625 6.00341796875
63.03857421875 -45.425537109375 8.370361328125
4.943115234375 108.81640625 71.32861328125
12.231201171875 51.18701171875 -6.09912109375
73.583984375 -110.832275390625 13.84765625
5.40234375 -26.210205078125 36.519287109375
72.110107421875 -61.6357421875 14.81005859375
-52.14892578125 121.454833984375 -19.956298828125
128.405029296875 -122.0791015625 25.60107421875
-37.67529296875 54.36572265625 -2.482421875
57.42626953125 -6.220703125 61.133544921875
-66.21044921875 -55.392578125 129.087646484375
39.001708984375 47.161865234375 -6.177490234375
19.175537109375 31.335205078125 65.16455078125
40.0537109375 38.319580078125 -13.12255859375
37.57275390625 63.5771484375 28.834716796875
-43.91552734375 1.23291015625 2.763671875
3.901611328125 -53.0830078125 41.666015625
-8.735107421875 13.262451171875 19.541259765625
4.020751953125 96.433837890625 -6.921142578125
66.2802734375 -10.156494140625 64.723388671875
62.4345703125 -23.219482421875 56.689697265625
-31.709228515625 -14.31591796875 9.283203125
27.7841796875 -50.529296875 38.0263671875
-78.24560546875 -39.35205078125 139.302978515625
-29.299560546875 117.519287109375 8.761474609375
31.817138671875 71.837158203125 33.095947265625
77.981689453125 -24.422607421875 66.22265625
71.53271484375 13.54052734375 74.4599609375
59.39599609375 4.71435546875 18.35546875
-61.567626953125 4.81640625 8.49169921875
18.54052734375 52.971435546875 -8.89453125
77.620849609375 -67.454345703125 16.130126953125
-6.73486328125 70.4462890625 -3.306640625
-92.50732421875 51.305419921875 5.577392578125
-31.133544921875 111.528564453125 -18.99755859375
17.422607421875 35.807861328125 -1.654541015625
16.207275390625 48.2412109375 -6.599853515625
-67.72216796875 54.903564453125 -3.572509765625
67.84521484375 -104.296142578125 11.75634765625
136.24267578125 -106.8232421875 5.114013671875
-64.915283203125 -16.98388671875 21.20751953125
-75.654052734375 67.51025390625 -4.6875
27.56201171875 -10.60693359375 40.668701171875
-45.841064453125 65.737060546875 -6.174560546875
47.610107421875 -18.92236328125 9.659423828125
-29.46826171875 9.115234375 14.83251953125
-26.715576171875 53.58642578125 103.15234375
82.274658203125 -52.8681640625 70.62060546875
58.90087890625 -70.927734375 13.3046875
-79.978759765625 -15.2626953125 12.967529296875
60.982421875 -158.296630859375 -8.832275390625
50.391845703125 -36.833984375 7.373291015625
-17.693359375 34.677734375 57.251953125
22.8740234375 0.627197265625 13.66455078125
44.908935546875 20.577880859375 16.68408203125
59.697998046875 -3.754638671875 16.07080078125
-64.114990234375 -45.0673828125 137.609130859375
42.391357421875 0.522705078125 11.24755859375
32.009521484375 84.903564453125 34.828857421875
28.626220703125 47.267822265625 -8.67236328125
126.07080078125 -96.10693359375 27.55712890625
51.17529296875 66.904296875 31.803466796875
21.134521484375 60.502197265625 -2.09228515625
82.46142578125 7.380859375 87.833740234375
-33.96142578125 70.657958984375 -5.508056640625
75.909912109375 -82.090576171875 9.628662109375
76.60498046875 -55.97607421875 69.09423828125
123.91162109375 -102.203125 27.5927734375
76.755615234375 -51.885986328125 59.016357421875
12.728271484375 -7.833740234375 22.440185546875
48.005615234375 -27.772216796875 9.302734375
-43.21533203125 -23.642578125 24.428466796875
46.149658203125 38.977294921875 -8.65185546875
48.357666015625 28.60888671875 -11.784423828125
128.265869140625 -54.493408203125 39.76171875
-39.396240234375 99.47216796875 16.8896484375
-39.1337890625 60.266845703125 -8.556396484375
72.125 -10.87255859375 67.814697265625
16.101806640625 -4.061767578125 14.437255859375
-32.80810546875 100.763671875 64.587158203125
-71.462890625 8.086181640625 19.545166015625
-7.611328125 57.289306640625 -7.787353515625
35.398193359375 68.287353515625 30.891845703125
-53.669921875 -2.710693359375 2.220703125
67.81640625 -146.461181640625 -10.703857421875
58.759765625 18.6787109375 -13.106201171875
-16.107177734375 54.85595703125 -3.013916015625
61.119384765625 -73.215576171875 10.072998046875
72.743408203125 -6.45458984375 70.24609375
54.45361328125 -77.40185546875 14.251708984375
16.21923828125 -34.720947265625 30.8720703125
130.51904296875 -103.353271484375 44.698974609375
-11.69775390625 -9.0654296875 15.62939453125
64.757568359375 -89.180908203125 11.73779296875
9.623291015625 99.01025390625 73.6748046875
26.75048828125 82.045654296875 35.984619140625
-90.68212890625 -3.22900390625 10.181640625
56.235107421875 4.65771484375 14.712158203125
3.77001953125 -13.545654296875 37.83203125
-89.952392578125 67.88427734375 -0.663330078125
30.01220703125 32.716552734375 -6.1181640625
61.74853515625 -0.38037109375 19.109130859375
-29.108154296875 -16.26123046875 17.89892578125
-34.633056640625 -22.13134765625 25.005126953125
-23.422607421875 72.423095703125 -0.9296875
3.0146484375 -20.5087890625 35.362548828125
2.93798828125 -32.822998046875 31.973876953125
6.526123046875 35.958251953125 59.099365234375
70.949951171875 -39.735107421875 54.713134765625
68.293701171875 -144.537841796875 -4.019287109375
56.98486328125 -44.729248046875 5.1650390625
-73.353515625 -15.51953125 16.331787109375
-79.032958984375 61.26220703125 -4.239013671875
24.29638671875 57.523193359375 -2.81201171875
130.58251953125 -109.958984375 20.794677734375
-12.972412109375 30.954345703125 54.012939453125
122.62646484375 -124.942138671875 27.07470703125
-78.365478515625 5.2685546875 16.752685546875
-15.90576171875 6.130126953125 19.291015625
-72.238037109375 -1.12353515625 12.12158203125
8.18994140625 -5.40771484375 14.438720703125
-13.504150390625 100.8818359375 63.831787109375
-90.382568359375 53.10009765625 0.648193359375
-54.85791015625 66.603271484375 -3.872802734375
16.17724609375 40.113037109375 -1.726318359375
-2.60888671875 108.710205078125 70.46630859375
84.848388671875 -129.694580078125 9.95361328125
-27.012451171875 -10.064208984375 7.292724609375
33.289794921875 21.1904296875 16.3916015625
54.18603515625 -65.1142578125 12.029296875
59.746337890625 32.57763671875 -10.96533203125
69.026611328125 10.160888671875 75.5283203125
71.870361328125 -129.414306640625 12.52001953125
-64.156005859375 -14.144775390625 13.07373046875
28.86328125 -26.4970703125 34.197998046875
-60.51953125 18.6337890625 19.089599609375
-31.09716796875 3.400390625 14.254150390625
78.953857421875 -6.09765625 74.5146484375
71.3115234375 -42.552734375 -15.711669921875
45.574462890625 24.529541015625 -10.545654296875
0.757568359375 -1.03662109375 12.640869140625
-55.893798828125 14.80322265625 14.211181640625
74.12646484375 -19.407958984375 65.516845703125
64.47802734375 -151.181884765625 -10.084228515625
-77.125732421875 54.19140625 -2.00634765625
20.421875 -29.0556640625 32.113037109375
-11.44580078125 37.55810546875 57.160888671875
91.656005859375 -50.544677734375 74.69287109375
65.107666015625 -84.338623046875 10.09033203125
62.09521484375 24.91943359375 -15.29052734375
60.436279296875 -15.27587890625 58.603271484375
-22.10498046875 1.440673828125 13.02001953125
17.6533203125 41.627685546875 -7.3828125
-51.0302734375 59.57275390625 -7.936767578125
88.70361328125 -108.89306640625 14.055908203125
68.602294921875 28.400146484375 -10.61328125
75.508544921875 -3.820068359375 73.41748046875
67.77880859375 -100.189697265625 15.0029296875
-18.384033203125 50.72509765625 96.880859375
91.201416015625 -34.0029296875 77.406494140625
-18.834228515625 68.13427734375 -4.1376953125
4.890380859375 -10.521484375 40.612548828125
-94.142333984375 -12.473388671875 9.637939453125
74.068603515625 -28.393310546875 61.836181640625
-54.479736328125 6.36181640625 4.29345703125
10.7705078125 -32.74072265625 31.260498046875
90.716064453125 -116.55126953125 13.123046875
18.1669921875 99.604248046875 76.42724609375
82.360107421875 6.795166015625 81.4345703125
24.318603515625 -51.896240234375 41.435791015625
74.952392578125 -116.532470703125 15.060791015625
-40.5595703125 59.964111328125 140.90283203125
22.564697265625 -46.5732421875 31.849853515625
13.51513671875 99.754638671875 75.648681640625
0.50927734375 12.45166015625 20.198974609375
60.935302734375 -146.1015625 1.156494140625
126.671630859375 -101.129638671875 54.017578125
87.731689453125 -32.976806640625 69.151611328125
63.296142578125 14.33544921875 -7.0693359375
29.12060546875 -38.00634765625 28.641845703125
83.0341796875 -41.514404296875 62.954345703125
-11.11865234375 48.613525390625 96.014892578125
-54.260986328125 12.373291015625 11.0634765625
79.357666015625 -93.89306640625 9.918701171875
-62.019775390625 54.524169921875 -1.730224609375
57.781982421875 10.89453125 68.460205078125
-44.851806640625 55.2822265625 142.578369140625
-59.308349609375 -9.629150390625 6.363525390625
45.819580078125 -33.391845703125 17.718505859375
24.54248046875 44.45556640625 -11.04150390625
-34.41796875 11.86572265625 9.23095703125
-46.48095703125 55.947998046875 -5.56884765625
12.166259765625 -11.533935546875 38.855712890625
-49.3759765625 67.479248046875 -3.9541015625
56.684814453125 27.47607421875 -14.480712890625
-82.77099609375 -16.891845703125 19.810546875
-39.50341796875 -26.8828125 24.4033203125
-10.260498046875 106.0224609375 62.710205078125
-12.96240234375 20.563232421875 50.474609375
-30.654052734375 57.38623046875 -7.30419921875
-67.868408203125 -44.589599609375 135.850341796875
16.32177734375 105.47216796875 82.62939453125
51.091796875 -52.6826171875 15.7646484375
64.54931640625 -145.43115234375 3.686767578125
-50.62158203125 -19.042236328125 10.191162109375
-21.188232421875 -12.098388671875 15.788818359375
4.5810546875 105.613037109375 26.954833984375
129.311767578125 -80.375244140625 33.134765625
91.473388671875 -126.554931640625 12.11083984375
59.8681640625 -63.183837890625 6.245361328125
-42.0107421875 67.25927734375 -4.309326171875
-4.4560546875 -15.43896484375 37.771484375
123.605712890625 -108.310302734375 24.308349609375
-4.342041015625 5.251953125 15.077880859375
75.826904296875 -63.353759765625 9.38134765625
3.939208984375 48.328369140625 -1.1484375
50.934326171875 20.881591796875 -10.695068359375
48.81201171875 6.96728515625 13.598388671875
42.88525390625 100.0029296875 108.44091796875
-46.6826171875 -21.3466796875 17.13720703125
11.916015625 32.12060546875 60.047119140625
119.131103515625 -121.68359375 26.34423828125
35.01123046875 -6.219482421875 17.246826171875
89.82763671875 -28.823974609375 74.6298828125
77.45751953125 -86.9853515625 9.709228515625
-47.40380859375 -25.69384765625 24.477294921875
87.190673828125 -101.569091796875 17.2177734375
39.585205078125 72.70166015625 30.27001953125
-85.13525390625 -14.767578125 11.78857421875
58.97412109375 -167.6025390625 -5.066650390625
122.48681640625 -90.309326171875 28.640869140625
52.95849609375 9.86279296875 14.376953125
-37.50927734375 118.2392578125 8.591796875
-19.458984375 46.669921875 -2.233642578125
-27.24658203125 12.247314453125 20.670654296875
7.985595703125 -37.61328125 29.765380859375
-1.5107421875 99.108154296875 66.020263671875
129.353271484375 -115.869873046875 12.9736328125
75.706298828125 -73.007080078125 11.861572265625
78.79736328125 -116.453125 8.52587890625
78.807861328125 -75.18017578125 18.465087890625
62.052490234375 -143.0947265625 11.17529296875
-70.166259765625 -5.01025390625 10.482666015625
52.6474609375 -48.235107421875 10.176513671875
-88.757080078125 58.07666015625 -2.1240234375
96.30517578125 -142.12939453125 12.99462890625
67.88134765625 13.18994140625 -5.324951171875
46.0625 -35.718505859375 12.19287109375
31.71435546875 39.329345703125 -9.516357421875
-46.727783203125 10.11279296875 8.02685546875
10.75244140625 -48.443359375 107.578125
67.4775390625 -92.874755859375 12.468017578125
126.210693359375 -85.42529296875 29.12060546875
21.98876953125 -43.14697265625 40.182861328125
121.79931640625 -131.955322265625 30.710205078125
80.02392578125 13.04248046875 -12.744873046875
12.463134765625 -9.22802734375 30.51025390625
-40.608642578125 6.831787109375 3.589111328125
-26.158447265625 68.447998046875 -3.4775390625
24.513916015625 -19.08349609375 35.972900390625
-15.385009765625 66.737548828125 -6.6708984375
-59.3603515625 -57.465576171875 131.033447265625
13.985595703125 -49.605224609375 34.060302734375
31.19775390625 75.733642578125 34.0302734375
72.085205078125 -72.286376953125 8.81298828125
25.194580078125 37.439697265625 -8.762939453125
99.641357421875 -138.6728515625 15.9755859375
99.890869140625 -146.082763671875 19.70166015625
74.966064453125 23.44921875 -12.776123046875
15.6533203125 -18.787841796875 35.498291015625
-29.49267578125 0.515869140625 5.2978515625
32.172607421875 -30.87939453125 35.10546875
78.59765625 -125.3515625 11.656982421875
-58.915283203125 -51.08251953125 134.748291015625
85.62548828125 -93.795654296875 17.660888671875
130.46044921875 -59.916748046875 35.5419921875
38.646728515625 -45.4521484375 35.133056640625
-47.427734375 -4.057373046875 3.76708984375
42.07763671875 90.718017578125 96.245849609375
-2.665283203125 -23.94873046875 34.428466796875
-0.25 -53.23291015625 38.409912109375
10.329345703125 105.971435546875 72.975341796875
9.050537109375 111.46435546875 36.3466796875
19.396240234375 -48.468017578125 33.896484375
31.63916015625 2.17041015625 15.240478515625
29.31201171875 91.2138671875 37.05908203125
-70.445556640625 -13.518798828125 12.497314453125
-55.80029296875 63.99609375 -7.338134765625
77.7509765625 -80.064697265625 19.473876953125
130.2265625 -108.353271484375 27.259765625
83.882080078125 -121.281005859375 9.206298828125
-32.4921875 53.610595703125 -0.570556640625
65.971435546875 12.4326171875 71.771728515625
-9.4541015625 -30.301513671875 30.93212890625
-35.978515625 4.8037109375 3.232177734375
43.74462890625 43.2373046875 -8.885498046875
-34.255126953125 -8.82080078125 4.808349609375
-23.142578125 113.197998046875 10.92724609375
57.203369140625 16.727783203125 -5.1103515625
-1.512939453125 62.8115234375 -7.757080078125
-78.10693359375 -12.573974609375 10.634765625
32.16552734375 12.428955078125 15.2392578125
-9.952392578125 23.367919921875 51.561279296875
128.63427734375 -88.161865234375 34.5224609375
