4.197021484375 45.346923828125 -63.77978515625
11.63720703125 3.610107421875 -3.80126953125
-12.157470703125 8.99951171875 -49.790283203125
7.09375 23.58740234375 1.908935546875
11.5185546875 6.478515625 -10.45849609375
3.184326171875 49.48583984375 -51.341552734375
7.345947265625 29.681884765625 -25.19677734375
-18.1865234375 11.691650390625 -51.189453125
2.180908203125 38.850830078125 -20.05078125
-0.45751953125 33.88134765625 -60.9716796875
11.29052734375 17.971435546875 -53.344970703125
6.554931640625 35.468994140625 -31.7744140625
10.613037109375 14.782470703125 -28.9130859375
8.022705078125 30.05078125 -36.06494140625
3.46240234375 44.048828125 -33.419189453125
10.42822265625 13.74853515625 -22.03271484375
-10.25048828125 8.0927734375 -48.984619140625
13.301513671875 1.8544921875 -24.7216796875
6.796875 27.08984375 -5.9228515625
0.360107421875 28.666259765625 -0.883056640625
12.5830078125 -21.74462890625 75.239013671875
9.1865234375 11.617431640625 9.367919921875
-21.929931640625 17.40283203125 -45.113525390625
-15.415283203125 12.953857421875 -44.618408203125
0.789306640625 31.072265625 -4.724365234375
9.52783203125 24.56982421875 -42.23974609375
-6.654296875 -31.675537109375 49.927734375
-20.4130859375 17.270263671875 -42.1708984375
10.05908203125 -0.141845703125 23.71337890625
8.247314453125 21.237060546875 -10.140625
-18.928466796875 13.64892578125 -49.39404296875
11.002685546875 2.330078125 13.873291015625
13.369140625 -22.37841796875 64.8798828125
-10.784423828125 -31.4228515625 49.547119140625
6.344970703125 36.739501953125 -27.516357421875
10.2685546875 6.987060546875 8.61181640625
-15.61767578125 5.22119140625 -56.31982421875
11.2265625 12.978515625 -35.574462890625
6.033935546875 31.983642578125 -7.569091796875
7.88623046875 26.57958984375 -23.868408203125
-14.993896484375 9.568359375 -51.78515625
-17.630615234375 15.223388671875 -39.235595703125
-4.0458984375 -31.3408203125 56.81884765625
6.7626953125 36.984375 -39.081298828125
13.070068359375 -1.027099609375 -9.130126953125
-16.164306640625 11.097412109375 -50.591552734375
7.51416015625 34.98486328125 -43.200927734375
12.728759765625 -8.552734375 22.7177734375
10.019775390625 25.852783203125 -56.934814453125
5.1630859375 39.96435546875 -22.44775390625
6.227783203125 41.960205078125 -50.757568359375
13.421875 -9.33447265625 16.302490234375
-4.504638671875 -27.701904296875 61.61865234375
12.30419921875 2.830078125 -8.507080078125
0.2314453125 -32.168212890625 56.4189453125
12.30517578125 -1.269775390625 1.45556640625
10.5400390625 20.307373046875 -43.192626953125
13.40380859375 -15.62744140625 40.9658203125
6.887451171875 43.493896484375 -62.285400390625
3.84375 38.432861328125 -15.91845703125
6.113037109375 40.714111328125 -44.459228515625
7.39990234375 34.07373046875 -41.043701171875
-6.2041015625 -33.003662109375 54.280517578125
-16.630615234375 14.383056640625 -43.35546875
9.32275390625 24.966796875 -39.0126953125
11.5615234375 7.2763671875 -15.346923828125
12.201171875 0.958984375 -2.454833984375
9.593017578125 30.224853515625 -64.8505859375
12.248779296875 3.400390625 -12.579833984375
7.62353515625 24.365234375 -9.520263671875
-16.35595703125 12.474365234375 -46.985595703125
-18.28955078125 14.073974609375 -47.261474609375
11.295166015625 6.0078125 -5.364990234375
5.902587890625 40.466064453125 -40.56298828125
7.7919921875 21.259033203125 -1.668701171875
9.073486328125 27.71337890625 -45.9892578125
12.30615234375 3.90185546875 -28.4375
12.139892578125 0.065673828125 3.33642578125
0.591064453125 45.05029296875 -41.233154296875
-13.19677734375 10.24462890625 -47.509765625
7.995361328125 31.1162109375 -41.7431640625
9.3193359375 12.607666015625 4.135498046875
7.556884765625 34.18115234375 -45.4658203125
4.287109375 30.063232421875 -0.097900390625
-0.53759765625 -33.61962890625 52.628173828125
-1.735595703125 -32.285888671875 54.6396484375
-3.26806640625 26.667724609375 -0.646728515625
8.418212890625 16.749755859375 4.13134765625
5.330078125 35.818603515625 -13.42919921875
12.869140625 -2.39697265625 -4.4267578125
7.258544921875 36.967529296875 -66.0576171875
12.137451171875 -13.608642578125 51.063720703125
11.33251953125 18.662841796875 -57.72900390625
7.07080078125 31.420654296875 -22.777099609375
5.99658203125 35.46435546875 -21.76953125
4.026123046875 48.685791015625 -60.810302734375
6.496337890625 29.840087890625 -11.44970703125
-0.829833984375 -33.92724609375 70.219970703125
9.2685546875 16.76904296875 -10.27880859375
7.2353515625 32.72607421875 -53.031005859375
11.260498046875 2.841552734375 6.451416015625
8.062744140625 19.68310546875 0.40869140625
9.691162109375 21.37060546875 -37.42041015625
13.358642578125 -5.257568359375 1.190673828125
9.623046875 13.876708984375 -5.33984375
8.98046875 28.86376953125 -47.922607421875
8.676513671875 34.397705078125 -64.496826171875
0.583740234375 -29.150634765625 57.191162109375
9.091064453125 18.57763671875 -13.142578125
10.478271484375 7.421630859375 4.0986328125
-22.97265625 6.9326171875 -55.9716796875
6.292236328125 27.668212890625 -0.17626953125
7.364501953125 32.92236328125 -34.666259765625
8.97802734375 29.377685546875 -51.60498046875
-14.91552734375 12.0703125 -37.185302734375
6.771484375 39.67431640625 -52.137451171875
8.529541015625 27.55322265625 -36.747314453125
9.77880859375 9.10498046875 10.692138671875
6.538330078125 34.86279296875 -67.610595703125
13.1669921875 -16.25244140625 49.790283203125
5.397216796875 37.750244140625 -20.3193359375
4.38134765625 50.110595703125 -55.8642578125
13.303955078125 0.930908203125 -27.080322265625
-4.42236328125 -32.601318359375 53.177490234375
7.765869140625 28.331298828125 -27.906005859375
-20.03173828125 17.314208984375 -37.826416015625
9.521484375 2.59521484375 20.049560546875
10.298095703125 18.029541015625 -27.414794921875
-1.52294921875 28.13525390625 -2.0947265625
6.491455078125 42.297607421875 -55.232421875
6.9052734375 38.900634765625 -48.036376953125
10.7294921875 7.92333984375 -1.796630859375
8.13134765625 21.1103515625 -6.6884765625
11.657470703125 2.1376953125 2.697265625
11.517333984375 9.384765625 -22.9951171875
13.05712890625 -17.53125 52.69873046875
-23.72265625 19.6611328125 -42.67529296875
-23.17431640625 18.783203125 -32.353515625
5.490234375 40.7294921875 -32.869873046875
3.10595703125 40.344970703125 -22.898681640625
-20.1904296875 5.239013671875 -56.129150390625
9.642822265625 5.44921875 16.17236328125
-11.30859375 4.647705078125 -55.52734375
-20.6767578125 16.080322265625 -46.44140625
6.5634765625 35.95703125 -35.557861328125
1.45751953125 46.682861328125 -61.7158203125
12.95263671875 -23.5966796875 77.82861328125
5.541748046875 34.072265625 -52.32080078125
-21.24267578125 14.258544921875 -49.63427734375
-6.419921875 -33.542236328125 56.286376953125
5.852783203125 47.901611328125 -61.27099609375
7.5615234375 40.129638671875 -64.192626953125
-22.522216796875 12.96630859375 -51.445068359375
13.11669921875 -8.362548828125 19.25732421875
7.58251953125 26.170166015625 -17.0263671875
11.681640625 -1.8837890625 14.256103515625
11.689208984375 11.1904296875 -31.975341796875
6.46142578125 34.707763671875 -28.393310546875
-15.6875 13.54443359375 -39.53759765625
7.8310546875 26.59326171875 -21.27783203125
12.148193359375 -6.603271484375 23.609375
9.8828125 14.855224609375 -17.7314453125
5.8701171875 43.796630859375 -51.85302734375
6.317626953125 44.996337890625 -60.150146484375
5.984619140625 37.74462890625 -30.968505859375
6.736572265625 44.39404296875 -55.402099609375
-13.066650390625 -34.6240234375 58.262939453125
0.204345703125 -29.0126953125 66.193603515625
5.642333984375 40.043212890625 -37.130126953125
-22.7607421875 19.748779296875 -38.4814453125
5.7197265625 35.78369140625 -17.72802734375
12.814697265625 2.373046875 -16.36376953125
9.689453125 24.130615234375 -44.172607421875
-13.63037109375 -35.929931640625 63.30615234375
1.706787109375 49.0576171875 -58.51806640625
10.946533203125 8.276123046875 -8.862060546875
5.39306640625 40.301025390625 -25.923828125
10.846435546875 21.35498046875 -54.685302734375
13.0244140625 -20.492919921875 61.545654296875
-18.4609375 9.259765625 -53.46142578125
-16.141845703125 8.64892578125 -53.220703125
8.15771484375 30.671630859375 -43.66064453125
9.224365234375 23.39990234375 -34.202880859375
10.535888671875 24.775390625 -60.90380859375
12.62841796875 -12.313720703125 38.68115234375
-4.09423828125 -29.986328125 47.330322265625
10.395263671875 22.62890625 -50.786865234375
8.644287109375 31.521484375 -51.042236328125
7.4404296875 33.6103515625 -38.575439453125
5.9267578125 38.55419921875 -55.482421875
6.838134765625 25.83544921875 -2.354736328125
9.333251953125 29.427978515625 -54.4384765625
-1.5087890625 -26.66357421875 58.545166015625
12.2978515625 7.356201171875 -26.086181640625
-6.52685546875 -32.514404296875 64.573486328125
3.169189453125 38.67529296875 -18.208984375
9.496337890625 25.804443359375 -46.111572265625
7.102294921875 42.49169921875 -64.0673828125
-19.03173828125 6.83544921875 -55.383544921875
-22.51611328125 9.8564453125 -53.37646484375
-21.6953125 11.3525390625 -52.214111328125
12.379150390625 -14.756591796875 53.411865234375
6.75732421875 37.3818359375 -43.35791015625
9.83935546875 25.610595703125 -52.50341796875
-10.5224609375 -34.01416015625 56.8212890625
13.24169921875 -18.883056640625 55.991943359375
9.581787109375 15.282958984375 -8.321044921875
-18.517822265625 14.907470703125 -35.02978515625
11.462890625 -21.167724609375 79.058349609375
2.837646484375 44.95263671875 -37.00732421875
8.1435546875 24.386474609375 -19.849365234375
9.823974609375 -20.275634765625 76.362060546875
12.529541015625 -10.78466796875 35.3447265625
1.578369140625 47.306640625 -44.75732421875
-3.14599609375 -27.6845703125 58.1513671875
12.84814453125 -14.369873046875 47.2998046875
2.547607421875 43.666015625 -64.785400390625
13.0732421875 -19.371826171875 59.4990234375
-10.800048828125 -37.923583984375 70.098388671875
6.967041015625 33.990966796875 -36.2265625
13.42822265625 -6.693603515625 9.139404296875
5.7509765625 47.953369140625 -57.741455078125
-6.25537109375 -30.629638671875 47.533935546875
11.921142578125 5.680419921875 -18.018798828125
12.011962890625 8.08203125 -29.091552734375
-15.5634765625 11.41748046875 -48.389404296875
-5.3681640625 4.119384765625 -51.944091796875
7.20166015625 39.0126953125 -65.8017578125
12.8818359375 -21.872802734375 68.53173828125
7.141357421875 37.42041015625 -46.834716796875
-23.52197265625 18.49658203125 -44.526611328125
6.155517578125 29.432373046875 -3.769775390625
11.39501953125 10.589111328125 -25.710693359375
9.020751953125 32.998046875 -66.38427734375
12.6298828125 -18.73779296875 62.9990234375
7.59033203125 24.396484375 -7.53662109375
13.121337890625 -10.9716796875 28.732421875
11.751220703125 5.611572265625 -29.410888671875
10.658203125 -15.989013671875 63.28369140625
2.112060546875 36.314453125 -12.39990234375
4.0380859375 43.55908203125 -31.6455078125
9.814697265625 23.099609375 -41.055419921875
9.1845703125 27.255859375 -57.9228515625
5.21875 44.427978515625 -41.17626953125
12.49609375 -5.71630859375 16.4423828125
10.930908203125 15.37841796875 -35.76025390625
5.761474609375 31.361328125 -5.7314453125
6.52001953125 40.611572265625 -58.962158203125
8.168212890625 29.392822265625 -40.3623046875
10.594482421875 -17.093017578125 66.904296875
13.192138671875 0.838623046875 -18.4326171875
10.558837890625 8.367919921875 0.32421875
-1.3779296875 38.02392578125 -59.419921875
9.625732421875 29.872802734375 -60.181640625
12.439453125 -16.4609375 57.0146484375
8.458740234375 21.589599609375 -14.405517578125
13.049072265625 -21.36865234375 66.5205078125
11.880615234375 -8.006591796875 38.239013671875
-19.949951171875 8.25146484375 -54.474853515625
7.495361328125 30.587890625 -29.352294921875
-18.99560546875 15.332763671875 -45.99755859375
12.87890625 -3.9736328125 2.841552734375
-19.709716796875 11.3173828125 -52.247802734375
5.2880859375 42.481689453125 -65.179931640625
0.226806640625 -27.299072265625 57.828369140625
10.474853515625 15.920166015625 -30.905517578125
-21.984130859375 8.180419921875 -54.375732421875
-12.67431640625 8.2216796875 -51.4267578125
5.452880859375 40.25341796875 -28.443359375
-13.28515625 6.29345703125 -54.559814453125
10.949951171875 -0.24609375 21.787841796875
-12.59619140625 11.229248046875 -46.009033203125
5.75244140625 41.67822265625 -38.855712890625
7.354736328125 36.1103515625 -52.132080078125
12.545166015625 1.702880859375 -11.848876953125
11.7958984375 -5.71826171875 28.117431640625
6.506591796875 36.689453125 -33.836669921875
10.475830078125 24.051513671875 -57.14697265625
12.072998046875 -11.050048828125 44.96826171875
12.497314453125 -0.741455078125 -0.327392578125
5.636962890625 30.921875 -67.4794921875
6.217529296875 40.837158203125 -46.394287109375
5.98583984375 41.25634765625 -42.637451171875
12.499755859375 -22.959716796875 81.447021484375
-8.154541015625 -35.4404296875 62.42578125
12.94677734375 -22.63525390625 73.470947265625
8.0107421875 30.061767578125 -68.004638671875
7.8837890625 31.028564453125 -38.55078125
-4.382080078125 23.696533203125 -0.306884765625
3.4150390625 -28.279296875 62.094970703125
-13.90380859375 -37.378173828125 68.034912109375
-18.614990234375 15.0791015625 -44.028076171875
0.29541015625 -27.841552734375 64.09130859375
4.40283203125 45.925537109375 -40.457275390625
-10.267822265625 -37.43408203125 68.400146484375
9.794189453125 27.860107421875 -63.489013671875
12.474853515625 -12.68994140625 44.233642578125
10.943359375 3.737548828125 8.67626953125
-16.919921875 6.376220703125 -55.50244140625
7.8662109375 34.73583984375 -49.5498046875
6.74072265625 27.330322265625 -67.06298828125
-18.395751953125 13.364501953125 -31.833740234375
8.0078125 32.397705078125 -45.652587890625
10.97509765625 18.998779296875 -46.510986328125
5.48486328125 30.5849609375 -56.817626953125
6.61962890625 38.67529296875 -41.08544921875
-22.7294921875 19.497314453125 -35.45947265625
12.994140625 -0.50390625 -13.8408203125
10.762451171875 10.8583984375 -15.2421875
8.684326171875 14.27587890625 6.532958984375
11.936767578125 -9.639404296875 41.68603515625
9.434326171875 17.804931640625 -15.336669921875
12.240478515625 -5.48486328125 20.264404296875
13.058837890625 -10.3046875 24.264404296875
4.591796875 37.540283203125 -67.364013671875
7.341552734375 23.33203125 -0.339111328125
8.62939453125 17.90380859375 -1.172119140625
12.11865234375 -7.444580078125 31.135009765625
10.76171875 -14.772216796875 59.58935546875
12.498779296875 -3.213134765625 7.273681640625
7.67333984375 31.37353515625 -57.4169921875
1.0107421875 49.007080078125 -54.78271484375
12.931884765625 -3.0263671875 -1.614990234375
7.434814453125 35.20654296875 -47.3193359375
8.33740234375 36.408935546875 -64.45556640625
3.124755859375 47.759521484375 -45.678955078125
12.5458984375 -2.218505859375 5.525146484375
8.61962890625 18.550048828125 -3.9931640625
9.840576171875 27.01904296875 -66.86083984375
9.446533203125 27.47265625 -54.174072265625
10.0341796875 -17.766357421875 70.3330078125
11.169921875 10.188232421875 -19.5107421875
11.8564453125 1.09814453125 6.84619140625
11.791015625 6.946533203125 -19.48486328125
11.796875 2.47705078125 0.36474609375
10.20849609375 22.418212890625 -45.06689453125
5.92578125 37.236572265625 -25.853271484375
9.43017578125 18.227294921875 -22.50390625
9.96826171875 9.49462890625 6.893798828125
11.310791015625 3.810302734375 4.72021484375
11.327392578125 1.400634765625 10.24462890625
12.60107421875 -0.530517578125 -3.922119140625
12.3671875 -16.6279296875 61.02587890625
-17.162109375 13.847412109375 -35.921630859375
6.880126953125 34.212890625 -30.054931640625
9.35888671875 -22.6328125 80.38525390625
13.32080078125 -14.990966796875 35.67333984375
9.276611328125 18.916015625 -16.715087890625
11.37158203125 -0.885009765625 18.5810546875
-13.192626953125 -38.071044921875 70.38720703125
8.4775390625 23.489501953125 -23.861328125
11.436279296875 4.822509765625 -1.858642578125
3.352783203125 41.46826171875 -65.95849609375
12.232421875 -18.908203125 69.1064453125
11.56005859375 -18.96044921875 72.477294921875
-7.208984375 -34.321533203125 68.490478515625
10.62939453125 14.135498046875 -26.234130859375
1.843017578125 38.362060546875 -63.508544921875
1.231689453125 44.697998046875 -61.630126953125
9.66796875 17.442626953125 -19.418212890625
8.8173828125 17.358154296875 -5.8974609375
6.676025390625 40.677490234375 -54.5537109375
9.3369140625 13.4287109375 2.51904296875
11.409912109375 7.78515625 -12.654052734375
-20.6533203125 15.07666015625 -31.166259765625
6.246337890625 39.9091796875 -67.036865234375
13.07861328125 -2.74267578125 -7.98779296875
8.13037109375 18.5703125 6.664794921875
7.89990234375 24.080810546875 -13.687744140625
-4.1259765625 -29.21044921875 45.625244140625
-0.259765625 -30.6943359375 57.38232421875
5.98583984375 37.892333984375 -29.171875
8.913330078125 20.94384765625 -19.972412109375
9.873291015625 19.051025390625 -30.883056640625
-13.76953125 12.02783203125 -44.68994140625
-1.91015625 -28.667724609375 62.11572265625
8.789794921875 26.6044921875 -38.699462890625
11.724853515625 -3.392333984375 20.308837890625
-6.4169921875 5.226318359375 -50.832763671875
10.028564453125 13.078125 -11.59130859375
8.908447265625 27.498291015625 -42.103759765625
11.65869140625 4.39453125 -8.072021484375
5.24755859375 42.809814453125 -35.46435546875
9.15771484375 21.21923828125 -27.337646484375
5.34033203125 35.333740234375 -10.1318359375
6.799560546875 27.225830078125 -4.01220703125
9.88623046875 10.688232421875 0.562255859375
10.868896484375 -6.5009765625 34.7685546875
3.1455078125 46.688232421875 -42.5390625
7.784423828125 39.414794921875 -62.623291015625
8.805908203125 27.8681640625 -43.869384765625
10.771240234375 23.16552734375 -60.29345703125
12.269287109375 4.8818359375 -21.53271484375
13.13037109375 -12.806640625 30.06591796875
7.58642578125 21.74169921875 2.4453125
10.779296875 -5.015380859375 31.484619140625
8.454833984375 24.021728515625 -27.11181640625
9.2509765625 28.97607421875 -57.76953125
9.1357421875 25.065185546875 -66.184814453125
5.69482421875 36.035888671875 -23.382080078125
13.083740234375 -6.761474609375 12.436279296875
10.080322265625 12.51708984375 -8.877685546875
9.467529296875 21.173583984375 -29.61962890625
-1.447021484375 -32.5126953125 51.25439453125
-21.888916015625 5.3232421875 -55.872314453125
13.216796875 -2.415283203125 -11.61865234375
5.764892578125 33.393310546875 -10.166259765625
6.135498046875 44.780517578125 -57.01513671875
10.54443359375 17.202392578125 -25.631591796875
7.98388671875 32.073486328125 -59.699462890625
-15.611083984375 13.533447265625 -41.45263671875
7.4599609375 26.252197265625 -10.4716796875
10.088134765625 11.139404296875 -2.525390625
3.770751953125 42.9921875 -29.9443359375
11.487548828125 -3.91748046875 27.23095703125
7.879150390625 23.311279296875 -12.160400390625
11.26708984375 13.233154296875 -32.549560546875
10.60009765625 9.9541015625 -5.5478515625
10.649658203125 3.884765625 12.488525390625
11.114990234375 9.304931640625 -16.6015625
13.331787109375 -12.23974609375 26.686279296875
8.762939453125 15.843994140625 -0.085693359375
0.9716796875 32.1328125 -7.1904296875
12.121826171875 -1.5390625 11.44287109375
12.075439453125 6.76025390625 -24.350830078125
8.572509765625 26.209716796875 -35.256103515625
11.3798828125 0.806640625 14.525146484375
11.76025390625 9.8232421875 -29.829345703125
10.9287109375 -13.389892578125 55.01025390625
7.31103515625 23.493408203125 3.62939453125
8.10400390625 26.844482421875 -29.2265625
8.395263671875 31.06005859375 -47.649169921875
12.093017578125 2.27734375 -6.0556640625
-22.636474609375 18.955322265625 -41.505859375
-9.2080078125 6.917724609375 -50.68017578125
10.1904296875 -1.49658203125 25.39599609375
2.541015625 -27.055908203125 60.593017578125
10.6806640625 19.465087890625 -51.6767578125
8.76611328125 33.29541015625 -62.66943359375
-20.974365234375 16.906494140625 -33.54296875
-16.77978515625 12.106689453125 -33.62841796875
8.33837890625 20.17578125 -4.736083984375
-8.89453125 -38.132080078125 71.398681640625
8.068603515625 28.85400390625 -32.768798828125
12.1728515625 -9.898681640625 39.960693359375
7.033935546875 35.429931640625 -39.676025390625
7.322998046875 36.16064453125 -50.338134765625
6.422607421875 31.099609375 -12.975830078125
-7.84033203125 4.149658203125 -54.31591796875
12.67919921875 -19.54541015625 65.572265625
11.46240234375 -2.325439453125 21.747314453125
5.927001953125 45.751953125 -63.7763671875
-12.167236328125 -37.226318359375 67.10498046875
6.263671875 47.007568359375 -59.912353515625
11.19921875 13.18212890625 -29.28955078125
7.03271484375 29.49462890625 -15.27197265625
9.637451171875 26.00537109375 -49.342529296875
12.07958984375 4.57666015625 -13.99560546875
11.648193359375 -3.482177734375 25.4267578125
10.200439453125 22.29443359375 -46.846923828125
13.242431640625 -16.103515625 42.859130859375
10.759765625 19.7802734375 -50.0390625
-1.0126953125 35.42578125 -59.406494140625
10.626953125 18.34033203125 -39.78369140625
12.680908203125 5.05859375 -27.297119140625
9.35498046875 31.221435546875 -62.430419921875
-4.8466796875 -30.71533203125 59.275146484375
10.20703125 12.16259765625 -6.30712890625
8.710693359375 27.84521484375 -40.104248046875
10.330322265625 26.523681640625 -60.406005859375
-0.183349609375 -28.404052734375 61.105224609375
8.954833984375 19.88720703125 -12.021728515625
4.249267578125 43.986572265625 -64.72021484375
10.69921875 22.8017578125 -63.064697265625
8.690673828125 20.5146484375 -16.357421875
10.720458984375 6.4541015625 5.4169921875
12.762451171875 -5.0693359375 9.560791015625
1.060546875 37.04345703125 -62.862548828125
11.05029296875 19.61962890625 -53.984619140625
3.17529296875 48.6865234375 -59.168212890625
6.657958984375 36.85107421875 -37.1044921875
12.5400390625 -3.898193359375 10.89990234375
7.572509765625 23.75439453125 -4.065673828125
6.290771484375 30.341064453125 -7.452880859375
-7.918701171875 -36.529052734375 65.560791015625
-22.5625 16.9443359375 -30.3447265625
10.6044921875 12.693115234375 -20.061767578125
11.963623046875 -17.783935546875 67.4970703125
-1.455078125 -28.2255859375 63.63232421875
-8.8974609375 -34.017578125 57.61376953125
11.318603515625 17.47021484375 -49.047119140625
9.53369140625 26.37646484375 -51.08251953125
-3.195068359375 -31.081787109375 48.6884765625
9.405029296875 21.61474609375 -32.76708984375
3.755615234375 49.103271484375 -49.106201171875
12.43896484375 -20.226318359375 71.6806640625
-20.62548828125 17.49951171875 -35.908203125
12.21826171875 2.5146484375 -10.3017578125
1.239501953125 49.289306640625 -51.118408203125
5.288818359375 41.3994140625 -27.28955078125
6.366943359375 33.939697265625 -24.9814453125
12.33447265625 -14.869384765625 55.041015625
9.733154296875 24.841796875 -47.40966796875
5.263671875 31.60888671875 -54.98486328125
11.807373046875 0.1162109375 8.59326171875
12.9208984375 -8.9248046875 21.1396484375
11.675048828125 7.038330078125 -30.30078125
6.33251953125 36.47998046875 -67.648193359375
12.6376953125 -11.369384765625 36.86279296875
10.640869140625 9.87353515625 -10.216064453125
10.85009765625 -14.536865234375 57.840576171875
-2.16455078125 -29.603759765625 57.41015625
-9.902587890625 -34.8955078125 60.072021484375
-12.871337890625 -31.754638671875 50.2734375
12.18408203125 -0.62646484375 5.542236328125
11.006103515625 3.095703125 10.165283203125
10.44091796875 -12.06591796875 52.197509765625
12.45263671875 3.0732421875 -14.748046875
3.310302734375 41.428955078125 -25.288818359375
8.614990234375 15.711181640625 5.518310546875
7.91455078125 36.8740234375 -62.291015625
8.624755859375 15.046142578125 8.41064453125
8.54052734375 17.01611328125 2.54345703125
9.755126953125 29.1005859375 -65.99365234375
11.230712890625 -21.86865234375 80.48876953125
12.47314453125 -22.062744140625 77.918212890625
11.033203125 -0.048095703125 20.19384765625
10.336669921875 12.200927734375 -13.728271484375
7.946533203125 22.81591796875 -10.17333984375
7.43310546875 31.685546875 -54.244140625
10.865234375 12.49169921875 -22.9306640625
5.368408203125 43.5302734375 -39.3818359375
12.036865234375 -8.501708984375 36.720703125
12.045654296875 2.295654296875 -27.6923828125
10.13330078125 7.543701171875 10.685302734375
5.110595703125 46.7333984375 -44.506591796875
10.6884765625 16.001220703125 -41.78955078125
-1.814453125 34.6162109375 -60.55810546875
12.97509765625 -12.3154296875 31.577880859375
5.9951171875 29.23583984375 -0.22998046875
7.731689453125 20.672607421875 5.234375
7.743896484375 32.69970703125 -41.7783203125
13.419921875 0.503662109375 -23.881591796875
-7.147705078125 18.8916015625 2.70947265625
6.3359375 34.275390625 -19.4091796875
10.06787109375 21.521728515625 -39.79443359375
6.432861328125 44.03076171875 -58.388671875
7.156005859375 25.644287109375 -6.64990234375
13.092041015625 0.635986328125 -14.9462890625
-22.1474609375 16.679443359375 -46.521484375
13.41015625 -24.224609375 71.04443359375
5.260498046875 49.06494140625 -54.48388671875
2.112548828125 48.39208984375 -48.004638671875
10.755126953125 20.677734375 -47.811767578125
5.3115234375 44.25732421875 -37.687744140625
13.029541015625 -13.948486328125 37.941650390625
11.18505859375 -16.2939453125 64.9501953125
10.125244140625 8.973876953125 4.1181640625
8.94873046875 22.8662109375 -29.97900390625
9.285888671875 17.563720703125 -11.8271484375
6.792724609375 25.175048828125 1.850341796875
-9.24853515625 -32.474853515625 52.277099609375
5.293212890625 48.6630859375 -52.14208984375
12.055419921875 -1.81298828125 8.8427734375
7.1083984375 33.087158203125 -22.63427734375
13.0810546875 -15.598876953125 45.906982421875
2.669921875 49.7158203125 -56.45751953125
9.2822265625 31.531494140625 -65.86083984375
10.54345703125 18.233642578125 -37.176025390625
-4.477294921875 -27.694091796875 60.040283203125
12.7080078125 -6.84033203125 19.337890625
-3.8076171875 25.197265625 -0.82763671875
5.336181640625 47.086669921875 -62.721923828125
11.5234375 -20.028564453125 75.328125
6.92578125 28.60791015625 -12.330810546875
7.179931640625 27.55810546875 -14.945556640625
4.897705078125 39.080810546875 -67.45849609375
4.388916015625 44.231201171875 -34.67724609375
12.603515625 -17.8759765625 59.615966796875
7.49462890625 28.62548828125 -23.873046875
8.94384765625 20.919189453125 -21.91748046875
10.324951171875 16.431884765625 -28.312255859375
-13.724853515625 9.2568359375 -50.901123046875
9.23486328125 24.024658203125 -37.44970703125
8.53857421875 29.38623046875 -44.467041015625
6.761962890625 38.389404296875 -49.507080078125
10.305908203125 15.85107421875 -22.416259765625
11.278564453125 21.526611328125 -60.019775390625
8.87744140625 24.94189453125 -31.641845703125
-7.944091796875 5.65869140625 -51.4287109375
6.542236328125 31.910400390625 -17.16650390625
-18.76953125 16.056396484375 -38.571044921875
-19.5283203125 16.563720703125 -36.501953125
7.494873046875 30.206298828125 -23.654052734375
12.809326171875 3.823974609375 -24.57275390625
6.900634765625 34.0859375 -32.504150390625
-10.064697265625 -32.87646484375 53.538330078125
-20.366943359375 17.73876953125 -39.296875
-10.54052734375 5.307861328125 -54.180419921875
2.8720703125 37.44580078125 -14.3525390625
9.1318359375 12.98486328125 5.630859375
-12.133544921875 7.283203125 -52.5400390625
12.5390625 -9.84912109375 33.544189453125
7.384033203125 31.7255859375 -30.721435546875
-9.685791015625 15.41064453125 4.370849609375
-20.919921875 17.217041015625 -43.93505859375
12.084228515625 0.6572265625 -0.851806640625
-23.800537109375 15.8583984375 -48.53955078125
11.06884765625 0.875 17.736083984375
13.2353515625 -7.245361328125 10.97509765625
12.18408203125 -3.912109375 17.00732421875
8.649658203125 26.534912109375 -33.587158203125
13.42578125 -17.43505859375 46.074462890625
8.096923828125 18.293701171875 3.4404296875
9.612060546875 12.433837890625 0.4228515625
11.057373046875 5.598876953125 2.48974609375
-17.33251953125 14.690673828125 -37.690185546875
5.791259765625 34.69873046875 -14.378662109375
11.153564453125 -10.96435546875 47.0087890625
5.518798828125 42.75146484375 -52.924560546875
12.87158203125 -12.593994140625 34.01513671875
9.58984375 9.48291015625 12.2099609375
-12.44873046875 -35.453125 62.27392578125
2.54248046875 39.7080078125 -21.3701171875
12.612548828125 4.31103515625 -17.926513671875
10.986083984375 12.719970703125 -25.710205078125
8.64453125 24.460693359375 -28.724365234375
8.41845703125 22.805419921875 -19.163818359375
12.30810546875 -3.6171875 13.93017578125
13.21435546875 -21.873779296875 63.351806640625
12.22314453125 -7.181640625 28.7265625
6.257080078125 36.876220703125 -32.3359375
-10.844482421875 -36.401123046875 64.97509765625
6.187255859375 38.764892578125 -34.5234375
12.030517578125 -7.641357421875 34.237060546875
7.985107421875 33.732177734375 -67.5068359375
-3.136962890625 -31.58740234375 55.618896484375
0.85107421875 38.947998046875 -20.79150390625
5.08984375 34.501953125 -68.00830078125
9.563232421875 10.862548828125 6.35693359375
6.96826171875 31.646728515625 -26.439697265625
-3.12109375 36.868408203125 -60.472900390625
11.5751953125 0.405029296875 11.595947265625
10.44873046875 -4.210693359375 30.236572265625
-0.197265625 37.513671875 -60.2314453125
13.415771484375 -20.314453125 55.509033203125
10.697021484375 15.2607421875 -24.062744140625
3.730224609375 45.710205078125 -38.939453125
8.355224609375 26.66845703125 -30.7568359375
10.424560546875 25.849365234375 -63.31298828125
-9.269287109375 -33.3408203125 54.85986328125
5.484130859375 34.51318359375 -54.095947265625
-10.218994140625 -35.65185546875 63.07666015625
10.6083984375 5.34912109375 7.958740234375
-11.52783203125 -34.834716796875 60.0185546875
11.4482421875 11.4580078125 -28.552978515625
-7.60986328125 -33.271240234375 54.80810546875
10.227294921875 24.271484375 -54.503173828125
-8.67822265625 5.0341796875 -53.427978515625
12.905517578125 -17.04345703125 51.218017578125
10.726318359375 18.58056640625 -24.958251953125
9.57373046875 20.95361328125 -24.668701171875
5.7490234375 46.81005859375 -54.640869140625
12.453125 -9.219970703125 31.2646484375
9.068603515625 8.0390625 14.075927734375
5.422119140625 49.25927734375 -57.017333984375
10.718505859375 14.929443359375 -32.241455078125
10.976806640625 16.96142578125 -39.301025390625
9.7236328125 15.9765625 -19.105224609375
-18.3916015625 16.0224609375 -40.84912109375
-2.763671875 -27.37939453125 61.34375
10.4033203125 -7.818115234375 38.080322265625
-12.5166015625 -32.48193359375 52.269775390625
10.5546875 18.83544921875 -41.64990234375
2.82177734375 49.74267578125 -53.229248046875
10.599609375 3.04150390625 17.69677734375
11.245361328125 8.76171875 -18.584716796875
8.268798828125 17.2333984375 5.534912109375
-14.5927734375 12.536376953125 -40.7236328125
6.9443359375 37.776123046875 -44.87939453125
13.406982421875 -15.635498046875 39.476318359375
12.07177734375 -5.883056640625 24.91064453125
5.00146484375 48.1962890625 -48.7744140625
-6.48046875 -33.57373046875 59.452880859375
6.4619140625 40.649169921875 -47.846435546875
7.049560546875 41.882568359375 -61.033203125
-3.402587890625 37.86083984375 -57.43310546875
2.841064453125 47.583740234375 -61.365234375
-4.38525390625 -33.7353515625 69.74658203125
7.9296875 24.7919921875 -16.48486328125
11.94921875 5.120361328125 -11.987548828125
8.91552734375 24.85693359375 -34.76611328125
5.348876953125 41.349365234375 -29.798583984375
-12.335205078125 -38.41748046875 71.646240234375
5.140625 37.386474609375 -16.122802734375
9.795166015625 14.89599609375 -11.7783203125
8.26220703125 32.655029296875 -51.975830078125
8.32470703125 24.013427734375 -21.262939453125
6.3583984375 37.016357421875 -52.80322265625
9.372314453125 14.895263671875 -3.966064453125
-16.18603515625 12.670166015625 -35.7041015625
10.354248046875 11.68505859375 -7.6953125
7.93994140625 20.7783203125 -3.05029296875
5.466552734375 44.9013671875 -43.3798828125
3.075439453125 37.37744140625 -12.715087890625
8.1279296875 34.57177734375 -61.533935546875
7.37060546875 27.8564453125 -18.462890625
2.51513671875 -27.17724609375 59.130859375
-5.0546875 -32.37890625 57.051025390625
-7.18505859375 -34.575927734375 61.548095703125
13.287109375 -3.8251953125 -5.263916015625
11.53759765625 5.0439453125 -4.0791015625
6.6357421875 44.910400390625 -62.81103515625
2.967529296875 36.462158203125 -11.0556640625
12.417236328125 3.677001953125 -19.458740234375
6.63720703125 31.2607421875 -19.014892578125
12.662841796875 -14.901123046875 50.0234375
12.74951171875 -1.0078125 -5.338134765625
-12.22900390625 -36.543701171875 65.41357421875
5.712890625 45.721923828125 -49.737060546875
-15.619384765625 13.318359375 -43.220458984375
7.96728515625 29.223388671875 -34.5693359375
-9.72998046875 -31.2802734375 48.0439453125
10.6005859375 -20.84814453125 77.821533203125
6.045166015625 34.3662109375 -17.78662109375
-0.450927734375 35.31103515625 -61.23583984375
9.241455078125 13.93017578125 1.1591796875
7.525634765625 29.30859375 -26.588134765625
10.168212890625 14.110595703125 -15.972900390625
11.108642578125 15.01513671875 -37.153564453125
12.830810546875 -4.800537109375 12.174560546875
12.7001953125 0.443359375 -11.044189453125
10.652099609375 20.5537109375 -44.614501953125
4.7939453125 49.54638671875 -58.55224609375
-3.0703125 -31.60693359375 50.19775390625
-2.9453125 -32.995849609375 54.28515625
7.6513671875 22.447265625 -2.481689453125
7.757568359375 27.9912109375 -20.914306640625
12.4794921875 -12.701904296875 42.74072265625
12.631103515625 -16.826416015625 58.4072265625
12.75830078125 -2.56787109375 1.902587890625
8.740966796875 13.666748046875 7.99462890625
5.306640625 41.0263671875 -66.064453125
11.091064453125 7.07421875 -6.725830078125
12.93310546875 -17.894775390625 54.539794921875
6.60498046875 39.130615234375 -44.14892578125
-11.893310546875 -34.15283203125 57.246337890625
2.90576171875 46.15283203125 -63.435791015625
11.440185546875 4.04296875 0.3916015625
12.844482421875 -16.23388671875 53.286376953125
6.548583984375 33.445556640625 -67.3642578125
-23.87060546875 10.102294921875 -52.959228515625
9.971435546875 -11.665283203125 48.966064453125
6.282470703125 35.08251953125 -27.0166015625
6.242431640625 37.886962890625 -38.010498046875
8.27392578125 17.356201171875 7.51123046875
6.260009765625 40.561279296875 -51.085205078125
9.186279296875 29.108642578125 -53.0009765625
0.597900390625 48.4482421875 -56.431396484375
-9.1279296875 -34.618896484375 58.8974609375
8.147216796875 19.839111328125 -1.078857421875
10.844482421875 22.026123046875 -56.60791015625
3.1982421875 44.596435546875 -35.602783203125
6.487548828125 41.998779296875 -58.62353515625
8.718017578125 22.68017578125 -22.074462890625
13.1435546875 -1.721435546875 -10.37451171875
10.72119140625 10.04638671875 -11.689697265625
9.870361328125 28.177001953125 -61.903076171875
8.697021484375 18.583984375 -7.39599609375
5.805419921875 37.021240234375 -24.402099609375
10.46435546875 11.103271484375 -9.001708984375
12.796875 -23.083251953125 76.2568359375
0.96142578125 29.43798828125 -1.91357421875
-21.669189453125 18.81787109375 -39.072998046875
12.777099609375 -12.784912109375 40.11474609375
7.528076171875 25.443603515625 -13.558837890625
10.05908203125 14.687744140625 -14.68359375
-2.372314453125 29.031494140625 -1.19482421875
10.41796875 17.36962890625 -31.1875
-21.67822265625 18.4619140625 -35.98046875
7.778076171875 30.31982421875 -22.180419921875
7.805419921875 19.982666015625 4.003662109375
-13.036865234375 9.78076171875 -48.833984375
11.408935546875 9.959228515625 -21.710205078125
10.29345703125 19.786376953125 -39.684814453125
1.48388671875 45.3779296875 -40.096435546875
6.783203125 27.751220703125 -7.389404296875
-17.379150390625 11.4677734375 -32.142333984375
-2.632568359375 25.10546875 -2.38134765625
-5.81298828125 -32.005859375 51.130859375
13.080322265625 -6.74267578125 13.840087890625
10.2783203125 18.169189453125 -23.61962890625
11.291015625 12.54150390625 -31.150146484375
11.8486328125 6.364990234375 -16.796875
9.70166015625 26.358642578125 -58.987060546875
13.1982421875 -5.647705078125 5.66357421875
-0.817138671875 -29.47119140625 56.98876953125
-9.55224609375 -36.46875 65.51025390625
10.75927734375 17.760009765625 -42.897705078125
9.926025390625 28.92919921875 -64.443115234375
12.979248046875 -7.0009765625 16.177001953125
12.943115234375 -14.16845703125 41.109130859375
1.634033203125 43.973388671875 -36.408203125
5.72705078125 33.15234375 -11.963134765625
-23.86767578125 6.97509765625 -54.900634765625
12.5439453125 -9.03466796875 26.729248046875
12.1552734375 7.10888671875 -21.314208984375
6.85205078125 36.205078125 -42.617431640625
2.882568359375 38.001220703125 -17.024658203125
4.42041015625 39.008056640625 -18.720458984375
8.73876953125 19.40087890625 -9.64306640625
8.177978515625 31.89404296875 -48.741943359375
10.156005859375 8.351806640625 7.665283203125
-20.770263671875 16.09619140625 -32.430419921875
12.3466796875 -13.027099609375 47.534912109375
11.51953125 7.205078125 -13.95849609375
-22.07470703125 17.84521484375 -32.9482421875
-11.648681640625 -31.951171875 50.905517578125
7.343017578125 32.199951171875 -33.240966796875
9.7158203125 26.614990234375 -55.522705078125
9.212890625 30.408203125 -57.42724609375
7.95166015625 28.62255859375 -31.32421875
13.25439453125 -24.6845703125 77.022705078125
13.03662109375 -22.3798828125 70.076171875
-16.191650390625 7.671142578125 -54.202392578125
-7.890625 -32.3388671875 51.8603515625
10.75927734375 21.307373046875 -50.97021484375
-14.251708984375 11.209716796875 -47.571044921875
8.425537109375 24.916748046875 -24.158935546875
6.60498046875 30.72119140625 -14.392578125
9.351806640625 24.935302734375 -40.8759765625
5.70166015625 46.142578125 -52.711181640625
10.599609375 11.999267578125 -16.63330078125
-18.135986328125 12.665771484375 -50.2109375
3.392333984375 42.14599609375 -28.021484375
8.36767578125 22.062255859375 -15.697509765625
5.89111328125 38.92919921875 -31.7451171875
6.71923828125 28.232177734375 -9.376220703125
10.637939453125 15.846435546875 -25.4091796875
9.8525390625 19.721923828125 -32.271728515625
-0.33251953125 -26.986083984375 59.284912109375
9.578125 16.613525390625 -14.5595703125
7.456298828125 26.1181640625 -12.36181640625
8.675537109375 17.95947265625 -2.576904296875
2.42431640625 -30.379638671875 58.8427734375
9.378173828125 16.18994140625 -11.572265625
8.731689453125 21.31591796875 -18.550048828125
6.045166015625 42.031494140625 -44.074951171875
13.228759765625 -6.4296875 7.24609375
-7.9208984375 -31.609375 49.4033203125
10.94970703125 23.59228515625 -61.780029296875
-2.571533203125 -27.650146484375 64.25146484375
10.941650390625 9.7822265625 -13.227783203125
10.407958984375 4.21484375 16.890625
11.790771484375 7.66455078125 -22.913818359375
11.4814453125 -0.669921875 14.85107421875
6.18994140625 32.60400390625 -15.614013671875
5.835693359375 43.347412109375 -47.62841796875
13.010498046875 -2.8271484375 -3.139892578125
11.01611328125 11.4384765625 -18.988037109375
-6.317626953125 -30.87548828125 46.194091796875
9.150390625 25.817138671875 -42.64111328125
6.714111328125 37.501220703125 -40.339111328125
-10.906982421875 6.7978515625 -52.171142578125
-12.105224609375 5.6357421875 -54.706787109375
-17.46875 15.267822265625 -42.46728515625
9.61376953125 13.178955078125 -1.8037109375
-12.203369140625 -33.285888671875 55.118408203125
10.1181640625 9.01123046875 5.4736328125
12.468505859375 -18.23291015625 64.59326171875
-18.194580078125 10.81884765625 -52.236572265625
-23.7412109375 13.51904296875 -51.2314453125
-22.37353515625 15.085693359375 -48.974365234375
-23.791259765625 16.729248046875 -47.494384765625
12.741455078125 -0.211669921875 -7.572265625
11.890625 5.709716796875 -14.708251953125
10.767578125 15.814453125 -33.776123046875
9.867919921875 20.48876953125 -33.724853515625
7.762939453125 33.767333984375 -48.614501953125
9.804931640625 11.421875 3.148193359375
8.543212890625 22.693603515625 -26.89453125
7.9599609375 31.560546875 -55.478271484375
4.40625 37.197509765625 -12.560546875
13.4091796875 -20.310302734375 58.593994140625
10.152099609375 18.164794921875 -32.28564453125
-13.797607421875 9.92822265625 -35.118408203125
10.010009765625 21.2265625 -42.10205078125
12.21435546875 -5.51123046875 22.444091796875
12.31005859375 -6.9873046875 25.658203125
13.429443359375 -10.173095703125 20.11767578125
8.663330078125 19.783203125 -13.54345703125
13.43017578125 -18.338623046875 51.69580078125
13.1640625 -15.364990234375 44.20361328125
7.5712890625 32.11328125 -21.74658203125
10.978759765625 -8.798583984375 41.282470703125
-6.012939453125 21.021240234375 1.283447265625
10.91162109375 6.819091796875 0.29736328125
12.599853515625 -2.203857421875 -0.038330078125
11.199951171875 -1.2587890625 23.185791015625
11.030517578125 20.89990234375 -58.39404296875
9.0927734375 19.698974609375 -22.435546875
9.2294921875 14.595458984375 -1.691162109375
5.74951171875 37.4228515625 -54.444091796875
11.7666015625 -12.80615234375 52.060791015625
8.092529296875 29.394775390625 -37.22216796875
7.435791015625 31.560791015625 -35.044189453125
-19.026123046875 15.221435546875 -33.839599609375
12.49169921875 -5.696044921875 17.854736328125
11.675537109375 -3.4599609375 23.240478515625
6.918212890625 31.51318359375 -67.47412109375
2.646240234375 -27.642822265625 62.97265625
13.015869140625 -15.76904296875 48.32080078125
-0.965087890625 -32.92138671875 53.763916015625
10.862548828125 4.473388671875 11.3173828125
4.51171875 49.48779296875 -51.31396484375
8.874267578125 29.929931640625 -50.402587890625
5.2919921875 38.866455078125 -21.714599609375
12.45947265625 -10.927001953125 39.174072265625
5.480712890625 37.31787109375 -19.068603515625
6.196533203125 32.02783203125 -53.9111328125
5.6298828125 33.23046875 -7.37255859375
10.940673828125 8.3125 -7.53759765625
-20.158447265625 17.37060546875 -40.6982421875
9.89111328125 28.650146484375 -67.23193359375
13.414306640625 -1.054443359375 -16.2451171875
10.30322265625 24.4111328125 -55.816650390625
-12.98046875 6.484619140625 -53.168701171875
1.535400390625 -27.237060546875 58.24462890625
12.544677734375 -13.405029296875 45.88671875
5.697265625 43.807861328125 -46.377197265625
-17.2421875 13.042236328125 -47.784912109375
-22.55029296875 19.37890625 -39.882080078125
10.84521484375 20.51171875 -55.70068359375
8.955322265625 31.008544921875 -60.139404296875
10.039306640625 23.894775390625 -51.79833984375
12.946044921875 -4.63525390625 4.323974609375
11.98681640625 8.082763671875 -27.140869140625
8.30810546875 25.224365234375 -26.59375
11.952880859375 -19.716064453125 73.774658203125
-19.872314453125 16.332275390625 -43.28369140625
13.41748046875 -1.07958984375 -17.563720703125
11.490966796875 5.57177734375 -9.50537109375
12.668701171875 -9.543701171875 28.891845703125
4.6162109375 30.873046875 -1.4345703125
10.812744140625 22.101318359375 -53.605224609375
5.640625 44.72998046875 -50.594482421875
11.577880859375 -2.12841796875 16.581298828125
4.93994140625 47.447998046875 -47.368896484375
13.168701171875 -4.11572265625 -2.30224609375
6.688720703125 38.028564453125 -42.221923828125
10.23876953125 2.9033203125 18.946533203125
12.545654296875 -7.263916015625 22.552734375
6.48486328125 41.33203125 -49.198974609375
7.295654296875 35.666748046875 -46.052978515625
-3.121826171875 -30.50634765625 57.53515625
-0.510498046875 -32.482421875 55.272705078125
11.51416015625 -4.709228515625 28.896728515625
11.783203125 -15.516357421875 59.915771484375
11.38232421875 6.885009765625 -11.709228515625
13.120361328125 -8.37939453125 17.836669921875
5.329345703125 45.715087890625 -46.322265625
5.458251953125 42.00146484375 -34.343505859375
9.456787109375 30.676513671875 -63.6103515625
10.7646484375 19.261962890625 -45.078857421875
6.2451171875 40.85546875 -55.778076171875
-13.822509765625 -36.406494140625 64.50048828125
6.851318359375 39.78759765625 -53.429931640625
11.4228515625 3.21923828125 3.378662109375
-9.005615234375 -35.101318359375 61.192626953125
13.3349609375 -8.717041015625 14.107421875
6.572265625 32.300048828125 -23.58984375
9.6943359375 15.9921875 -17.136474609375
11.796142578125 -6.5458984375 32.01171875
6.613037109375 34.10498046875 -21.613525390625
10.239990234375 14.88330078125 -21.435302734375
12.030029296875 2.15771484375 -3.91845703125
6.943115234375 29.0830078125 -17.582275390625
4.069580078125 50.13330078125 -54.328369140625
12.737060546875 -9.407958984375 25.140380859375
10.918212890625 14.075927734375 -27.872802734375
13.3046875 1.826416015625 -26.0146484375
5.18603515625 47.749267578125 -51.233642578125
12.80419921875 -3.26904296875 4.108642578125
12.15576171875 -6.496826171875 27.150146484375
11.85205078125 -12.57666015625 50.34228515625
8.024658203125 30.564697265625 -39.840087890625
7.720947265625 29.48193359375 -20.626220703125
7.023193359375 33.03955078125 -30.56884765625
13.3994140625 -5.165771484375 -0.262939453125
8.23828125 21.287841796875 -8.841552734375
11.837158203125 9.992919921875 -31.242919921875
7.278564453125 28.804443359375 -67.43017578125
0.673828125 31.428955078125 -5.954833984375
5.640869140625 45.08154296875 -54.72021484375
6.4189453125 44.45458984375 -61.311279296875
6.67919921875 26.373779296875 0.33203125
-9.993896484375 -31.883056640625 50.85693359375
-5.72265625 -33.35791015625 57.546630859375
12.619873046875 -21.6171875 76.722412109375
12.484130859375 -4.862548828125 15.48291015625
7.153076171875 35.883544921875 -66.861572265625
4.362060546875 45.326171875 -37.89013671875
10.327392578125 9.433837890625 1.00048828125
13.20263671875 -23.847412109375 74.37158203125
9.59326171875 11.00927734375 7.629638671875
5.59130859375 32.55224609375 -4.54736328125
12.630615234375 0.3740234375 -6.244384765625
10.13330078125 6.76611328125 12.99462890625
11.214111328125 18.027587890625 -47.820556640625
5.19970703125 39.906005859375 -24.334716796875
11.27783203125 1.346923828125 13.10400390625
11.013916015625 15.49365234375 -38.3857421875
9.617431640625 21.003662109375 -26.003173828125
8.404296875 35.7763671875 -65.56298828125
6.171875 42.67919921875 -49.08740234375
6.42236328125 37.11669921875 -35.043212890625
11.714599609375 -2.54248046875 19.3408203125
10.40234375 17.999267578125 -33.82470703125
10.17626953125 17.109619140625 -22.57080078125
12.383544921875 0.440673828125 -8.611328125
8.128173828125 25.595947265625 -25.19482421875
-15.430419921875 12.832763671875 -38.51318359375
-15.07080078125 10.23681640625 -50.6015625
11.004638671875 6.9296875 -3.8955078125
10.381103515625 6.39453125 7.26904296875
12.8857421875 4.005615234375 -26.01318359375
-16.87060546875 14.27587890625 -38.801025390625
7.05078125 31.77734375 -27.82275390625
10.0 12.503662109375 -4.132568359375
11.852294921875 -9.86083984375 43.36962890625
10.340087890625 21.8349609375 -48.135009765625
5.60888671875 40.7841796875 -36.05810546875
12.455810546875 5.3798828125 -23.20849609375
11.01953125 7.587646484375 -10.09228515625
10.44384765625 26.517822265625 -65.791015625
12.356689453125 -0.31494140625 -1.619140625
-5.1005859375 -31.866943359375 50.091064453125
7.96875 25.443115234375 -20.52783203125
12.452880859375 6.103271484375 -26.6162109375
11.308349609375 13.294189453125 -33.87646484375
9.553466796875 10.14111328125 9.99853515625
8.696533203125 31.2783203125 -67.371826171875
6.10400390625 40.404541015625 -39.017822265625
8.83349609375 31.03955078125 -54.724609375
-9.013427734375 -31.142333984375 47.01025390625
11.06591796875 1.6806640625 15.384033203125
10.732421875 18.533447265625 -26.22216796875
8.06689453125 37.777587890625 -65.519287109375
6.769775390625 38.177734375 -52.40380859375
12.750244140625 -4.22314453125 8.621826171875
8.959716796875 11.88916015625 10.9638671875
10.651123046875 3.090576171875 14.818603515625
8.8095703125 24.015380859375 -30.702880859375
9.80908203125 14.238525390625 -8.992919921875
10.83642578125 24.671875 -64.1875
10.36767578125 16.488525390625 -29.64501953125
4.42724609375 49.1591796875 -59.712158203125
8.2255859375 31.56298828125 -44.550048828125
-18.480712890625 13.753173828125 -33.029541015625
10.86962890625 8.243408203125 -4.09033203125
