-6.2138671875 -35.22998046875 69.356201171875
-9.35595703125 12.88330078125 21.769287109375
-5.227294921875 -0.51025390625 26.9267578125
-4.091552734375 -17.4111328125 12.705078125
-9.788818359375 30.22216796875 -42.30419921875
-1.13427734375 -27.68115234375 74.378662109375
-6.906494140625 -28.222900390625 49.09521484375
-3.047607421875 -16.02294921875 59.629150390625
-4.580078125 -1.28271484375 2.74072265625
-7.335693359375 17.075439453125 -27.302734375
-1.478759765625 -24.114013671875 58.7861328125
-9.34130859375 23.1806640625 0.32470703125
-11.23828125 -1.4208984375 -40.820556640625
-1.81640625 -29.58544921875 63.31640625
-3.55908203125 -3.595947265625 -12.2431640625
-9.5859375 25.15673828125 -10.205078125
-2.673095703125 -16.62548828125 53.404541015625
-3.59228515625 -9.0234375 -10.33984375
-1.82568359375 -20.4755859375 51.309326171875
-7.04736328125 13.45654296875 -11.685302734375
-3.035400390625 -18.247314453125 72.24267578125
-2.976318359375 -9.260009765625 3.70361328125
-5.9609375 6.45263671875 11.3740234375
-3.576171875 -8.721435546875 27.89306640625
-14.076416015625 0.146728515625 -33.6259765625
-7.807373046875 20.608642578125 -37.012451171875
-4.589599609375 -1.06689453125 15.51904296875
-12.4990234375 40.964599609375 -28.711181640625
-11.708740234375 39.949462890625 -41.97265625
-22.28857421875 8.32080078125 -30.1748046875
-8.533447265625 19.15087890625 -4.85693359375
-10.108642578125 19.2216796875 -46.205810546875
-22.029052734375 -30.25390625 51.901611328125
-4.14208984375 -5.582275390625 24.15234375
-4.892333984375 -3.110107421875 33.372314453125
-13.982177734375 1.566650390625 -43.10400390625
-9.745361328125 10.529296875 -27.45068359375
-7.482666015625 13.751708984375 4.53759765625
-6.349609375 -16.48291015625 3.993408203125
-12.632080078125 41.528564453125 -23.246826171875
-5.8095703125 7.951416015625 -23.5810546875
-11.760009765625 -1.975341796875 -36.70068359375
-13.49462890625 48.32958984375 -43.77685546875
-3.258544921875 -11.3525390625 34.98486328125
-11.26904296875 -31.6953125 51.572509765625
-10.493896484375 32.512451171875 -46.876708984375
-8.731689453125 26.232666015625 -43.620361328125
-5.957275390625 7.458740234375 0.943603515625
-11.358154296875 33.08154296875 -11.558349609375
-9.656005859375 25.856689453125 -16.236328125
-4.544921875 -10.07080078125 59.169921875
-1.392333984375 -26.037109375 69.938720703125
-10.635009765625 32.823486328125 -31.193359375
-5.0751953125 0.728271484375 10.679443359375
-2.33984375 -24.04345703125 42.546630859375
-5.56005859375 5.634521484375 -2.79150390625
-9.168701171875 20.5869140625 8.884521484375
-3.002685546875 -9.29931640625 13.0029296875
-19.86181640625 4.008056640625 -29.027587890625
-19.66357421875 -34.081787109375 50.74658203125
-7.22509765625 14.8759765625 -19.79052734375
-8.41259765625 24.75341796875 -47.422607421875
-9.67236328125 27.62060546875 -23.35400390625
-2.37353515625 -11.8984375 19.52294921875
-21.857421875 9.87841796875 -36.408935546875
-5.7880859375 2.60302734375 23.185546875
-12.78564453125 44.224609375 -42.197509765625
-3.471435546875 -5.563232421875 -3.32763671875
-5.26806640625 4.67724609375 -12.538330078125
-12.0263671875 40.6708984375 -46.3310546875
-3.302978515625 -13.072998046875 45.702880859375
-14.9228515625 49.278076171875 -36.303466796875
-9.614501953125 28.792236328125 -36.70849609375
-8.54443359375 2.37109375 -19.669921875
-2.7900390625 -22.5244140625 36.147705078125
-4.189208984375 -11.046142578125 67.987548828125
-8.993408203125 22.132080078125 -7.8828125
-2.099609375 -18.184326171875 42.669189453125
-2.86865234375 -17.229736328125 18.478515625
-3.335205078125 -18.062744140625 79.336181640625
-10.44287109375 33.4443359375 -15.770263671875
-4.8603515625 -23.87548828125 32.937255859375
-4.53173828125 -13.785400390625 0.32958984375
-3.791015625 -4.770751953125 5.512939453125
-6.640380859375 9.2900390625 4.428466796875
-11.809326171875 38.08837890625 -21.730224609375
-10.30029296875 27.928955078125 -1.17529296875
-3.968505859375 -5.743408203125 20.3818359375
-4.228271484375 -0.66943359375 -8.92333984375
-6.870361328125 14.90673828125 -30.313232421875
-9.80419921875 -27.937744140625 44.729248046875
-3.795654296875 -20.7578125 24.382080078125
-11.191162109375 35.42724609375 -28.65283203125
-4.016357421875 -2.6494140625 -0.6279296875
-4.069580078125 -9.615966796875 48.327880859375
-7.52783203125 12.59326171875 11.58837890625
-9.77685546875 25.025390625 8.171630859375
-5.52978515625 7.41357421875 -19.506591796875
-10.30712890625 32.054443359375 -35.151611328125
-10.282470703125 27.997314453125 -5.154052734375
-6.322265625 -10.398681640625 -15.32275390625
-1.15087890625 -28.228271484375 67.087890625
-12.03759765625 41.074951171875 -34.9560546875
-4.576904296875 -5.536376953125 44.93994140625
-7.658447265625 -14.001220703125 -5.55908203125
-13.402587890625 46.1533203125 -35.473876953125
-11.195068359375 33.98046875 -23.23486328125
-3.97119140625 -0.653076171875 -16.34814453125
-6.23779296875 4.550048828125 -21.962890625
-8.62646484375 20.208984375 -1.41455078125
-6.3046875 6.3408203125 16.437744140625
-9.88525390625 18.788330078125 -41.78125
-4.774169921875 -20.079345703125 19.423095703125
-5.158447265625 -13.106689453125 -3.028076171875
-2.208740234375 -23.22607421875 81.5888671875
-6.50244140625 6.282958984375 22.60107421875
-8.369873046875 20.307373046875 -21.071533203125
-2.493408203125 -17.582275390625 49.40380859375
-10.388916015625 13.0908203125 -30.135986328125
-3.35791015625 -4.958251953125 -16.2333984375
-7.007568359375 12.256591796875 19.31640625
-1.3505859375 -26.61767578125 61.343017578125
-3.075439453125 -8.88818359375 -6.96337890625
-10.723876953125 34.551025390625 -41.624267578125
-2.000732421875 -22.204833984375 68.5107421875
-6.594482421875 11.943115234375 -16.47119140625
-1.963134765625 -33.340087890625 72.91796875
-3.230224609375 -17.0400390625 69.0908203125
-8.0908203125 14.4248046875 14.447265625
-12.144287109375 38.11474609375 -17.602783203125
-5.984619140625 0.336669921875 -20.42138671875
-4.72021484375 -5.68603515625 41.33984375
-8.24560546875 -12.9482421875 -9.484619140625
-1.955078125 -18.3408203125 36.91162109375
-3.05517578125 -10.3779296875 16.6298828125
-8.54052734375 22.424560546875 -29.036865234375
-2.20361328125 -14.227783203125 23.01513671875
-14.503662109375 -29.628173828125 52.537353515625
-3.3515625 -30.943603515625 60.584716796875
-9.062255859375 24.078857421875 -23.2578125
-7.136962890625 12.506591796875 -2.041259765625
-4.964599609375 2.7470703125 -4.404296875
-3.125 -12.86962890625 39.230712890625
-8.267333984375 18.117431640625 -13.435302734375
-9.9814453125 25.4013671875 2.596923828125
-3.5546875 -9.797119140625 32.177001953125
-10.926025390625 17.1767578125 -38.1904296875
-8.607421875 22.97900390625 -17.137451171875
-4.736083984375 -27.370849609375 46.62451171875
-3.764892578125 -12.569580078125 60.973876953125
-9.744384765625 28.680419921875 -29.212890625
-1.545654296875 -25.06201171875 76.11279296875
-7.762939453125 16.88916015625 -35.345458984375
-6.483154296875 12.70849609375 -22.582275390625
-4.662353515625 -5.268310546875 51.373291015625
-10.219970703125 -5.05908203125 -36.42431640625
-7.078125 -32.808349609375 55.86962890625
-1.84326171875 -24.2958984375 50.207275390625
-4.324951171875 -8.897216796875 56.2763671875
-1.72119140625 -26.732177734375 55.291015625
-9.426513671875 -3.432373046875 -42.376708984375
-3.697265625 -13.696044921875 52.53369140625
-9.105712890625 8.734619140625 -24.77587890625
-11.441162109375 32.34814453125 -6.427001953125
-8.36328125 23.738037109375 -41.2880859375
-5.00830078125 -0.11181640625 35.226318359375
-4.905517578125 2.536865234375 -15.56005859375
-2.62060546875 -32.545166015625 68.337158203125
-13.25048828125 44.980712890625 -28.16552734375
-9.94091796875 -34.202880859375 52.7412109375
-2.986328125 -11.954345703125 6.69482421875
-5.31201171875 1.6552734375 5.095458984375
-2.428955078125 -19.78564453125 29.516357421875
-3.022705078125 -17.173828125 64.225830078125
-2.951171875 -11.34375 1.47314453125
-5.2080078125 1.591552734375 19.62060546875
-2.3515625 -14.7138671875 33.5068359375
-7.49267578125 -34.504150390625 58.348876953125
-12.1279296875 40.63720703125 -31.6962890625
-6.74755859375 -36.526123046875 72.032470703125
-4.502197265625 -25.413818359375 38.771728515625
-4.660400390625 0.5771484375 -0.101806640625
-10.1689453125 27.377685546875 -12.49462890625
-3.38720703125 -9.054931640625 19.299560546875
-5.826904296875 7.3447265625 -7.647705078125
-8.905029296875 -29.923583984375 52.045166015625
-4.82861328125 -17.1123046875 9.3798828125
-7.55322265625 19.615478515625 -39.802734375
-8.287109375 10.46826171875 23.1318359375
-9.5283203125 28.507568359375 -39.89453125
-9.7470703125 25.4013671875 -7.266357421875
-4.69189453125 -2.575927734375 18.051025390625
-11.115478515625 35.972412109375 -35.082763671875
-15.109375 1.980224609375 -35.8984375
-5.003662109375 -31.021240234375 57.94775390625
-3.239990234375 -29.3125 55.20849609375
-3.93994140625 -18.529052734375 16.114013671875
-1.809326171875 -30.833251953125 65.9892578125
-1.91162109375 -21.497802734375 43.845947265625
-10.229736328125 26.82666015625 5.091796875
-4.907470703125 2.07763671875 -9.46923828125
-8.01220703125 15.541748046875 0.99462890625
-7.585205078125 12.81591796875 8.72509765625
-18.6357421875 4.943115234375 -32.820556640625
-2.9013671875 -16.12158203125 56.22216796875
-12.044677734375 36.407470703125 -10.463134765625
-5.46044921875 -11.027099609375 -11.186767578125
-9.42236328125 24.518798828125 -13.110595703125
-3.457275390625 -15.390869140625 66.640869140625
-2.72119140625 -15.54833984375 47.041748046875
-8.491943359375 17.9208984375 5.9794921875
-23.66015625 8.198974609375 -26.26318359375
-2.243896484375 -20.7861328125 74.083251953125
-6.89599609375 10.093505859375 17.50244140625
-11.65869140625 38.11328125 -29.384033203125
-6.326904296875 7.390625 6.4873046875
-6.063232421875 9.154296875 -16.878662109375
-5.77490234375 3.947265625 10.113037109375
-10.703125 30.921142578125 -17.613525390625
-5.20166015625 -8.115966796875 -17.046142578125
-16.103271484375 3.7763671875 -38.71435546875
-7.780517578125 12.713134765625 -28.84521484375
-7.93994140625 19.303466796875 -28.948974609375
-13.75634765625 51.626220703125 -35.35986328125
-6.917724609375 -22.02734375 24.763427734375
-5.550048828125 7.124267578125 -11.250244140625
-23.66552734375 10.69287109375 -30.61328125
-19.008056640625 6.699951171875 -36.22216796875
-5.888427734375 3.491455078125 16.7041015625
-6.777587890625 12.430419921875 -9.134765625
-0.92431640625 -29.793212890625 77.583740234375
-9.1806640625 25.467041015625 -30.146728515625
-2.285888671875 -19.001708984375 59.5166015625
-7.29248046875 14.9716796875 -24.05078125
-2.820556640625 -14.98095703125 12.450927734375
-9.853515625 27.6650390625 -18.303466796875
-2.43603515625 -11.7646484375 11.921630859375
-4.615966796875 -3.0693359375 25.162841796875
-12.781005859375 42.45166015625 -25.832275390625
-8.299072265625 23.30419921875 -37.184814453125
-17.522705078125 -33.145263671875 52.184326171875
-10.08251953125 32.3603515625 -44.175048828125
-22.166748046875 -32.838134765625 52.792724609375
-7.8564453125 20.142578125 14.56689453125
-11.249267578125 35.299072265625 -25.92236328125
-3.462646484375 -31.767333984375 63.361083984375
-14.30810546875 48.7470703125 -33.694091796875
-3.61328125 -15.640625 72.824462890625
-5.479736328125 -28.9912109375 51.975830078125
-8.8935546875 20.850830078125 1.677001953125
-1.99072265625 -16.055419921875 30.107421875
-11.316162109375 37.263916015625 -41.70849609375
-2.603515625 -19.600341796875 69.783447265625
-9.07275390625 19.123046875 11.1748046875
-8.114990234375 17.39404296875 -6.88818359375
-10.1416015625 4.681640625 -20.9443359375
-2.495849609375 -16.049072265625 44.2841796875
-21.9248046875 9.33642578125 -32.655517578125
-6.92919921875 6.681884765625 -25.684814453125
-7.3359375 16.305908203125 -32.571044921875
-4.085205078125 -4.39404296875 13.944091796875
-15.066650390625 50.7607421875 -40.396484375
-3.069580078125 -18.591064453125 75.655029296875
-1.5419921875 -25.113037109375 73.419921875
-7.98681640625 20.872802734375 -33.718994140625
-4.181640625 -10.362548828125 51.031982421875
-2.299072265625 -15.78515625 25.583984375
-6.637451171875 11.733642578125 -13.67626953125
-5.080810546875 -1.17041015625 30.4404296875
-7.874267578125 20.65185546875 -46.223388671875
-9.25146484375 27.050048828125 -34.360107421875
-7.341064453125 -23.164794921875 29.492919921875
-13.78466796875 43.67626953125 -22.24169921875
-10.951416015625 30.421630859375 -0.62158203125
-3.6064453125 -11.075439453125 42.81787109375
-3.835205078125 -4.12255859375 2.092041015625
-6.333984375 -18.665771484375 12.16455078125
-15.08056640625 -32.220947265625 52.003173828125
-2.53369140625 -13.649658203125 28.171630859375
-6.79052734375 8.91552734375 11.553466796875
-3.252685546875 -6.463623046875 -5.76123046875
-4.916748046875 -5.971435546875 54.90087890625
-12.155517578125 -0.378662109375 -43.121337890625
-6.95703125 9.786376953125 -25.778076171875
-4.46533203125 -3.623046875 22.021240234375
-10.76025390625 31.7197265625 -21.939453125
-11.663818359375 39.438232421875 -39.407958984375
-12.821533203125 -29.18798828125 50.651611328125
-17.6875 5.7626953125 -38.41015625
-7.700927734375 -27.8662109375 46.171875
-13.53173828125 0.003662109375 -36.208740234375
-11.775634765625 34.925537109375 -46.3359375
-4.782470703125 1.5009765625 2.266357421875
-5.5908203125 6.441162109375 -16.138916015625
-3.308837890625 -22.21875 31.79150390625
-4.134521484375 -6.538330078125 30.845703125
-21.52880859375 6.849853515625 -28.150634765625
-2.09814453125 -17.83642578125 40.154296875
-6.58251953125 9.770751953125 -0.790771484375
-10.04248046875 -3.223388671875 -38.21533203125
-13.0537109375 44.71240234375 -37.827392578125
-5.179443359375 -16.404052734375 6.243408203125
-8.249267578125 23.050537109375 -44.95751953125
-10.47705078125 49.04443359375 -31.961669921875
-5.70068359375 -7.4345703125 61.05078125
-4.262451171875 -5.0625 26.6728515625
-4.114013671875 -10.25 54.15478515625
-5.8310546875 6.287841796875 -5.36181640625
-4.34521484375 -10.319580078125 64.17919921875
-4.740966796875 1.819580078125 -6.836181640625
-3.685546875 -34.69970703125 71.678955078125
-7.753173828125 17.27490234375 -19.37548828125
-6.18310546875 6.19775390625 13.958740234375
-4.9072265625 -26.213134765625 41.119140625
-9.192626953125 13.643310546875 -32.850341796875
-3.7685546875 -2.507568359375 -5.959228515625
-5.9599609375 -15.343994140625 1.837646484375
-1.1328125 -30.731689453125 72.48974609375
-11.094970703125 31.704345703125 -8.980712890625
-3.014892578125 -8.74462890625 6.5986328125
-12.415771484375 -0.53076171875 -38.75830078125
-11.90283203125 37.988037109375 -46.339111328125
-14.69921875 2.46630859375 -40.955810546875
-3.321044921875 -5.49658203125 -10.745849609375
-4.6240234375 -1.234375 12.038818359375
-5.6630859375 4.39599609375 3.623291015625
-4.33837890625 -0.378662109375 -18.7275390625
-3.125732421875 -8.591796875 0.404541015625
-6.9130859375 11.65234375 3.46533203125
-5.35400390625 -3.394775390625 45.725341796875
-1.659423828125 -23.123291015625 65.5
-10.47216796875 -5.697021484375 -33.555419921875
-4.96826171875 -1.081298828125 23.65673828125
-7.977783203125 15.48828125 6.127197265625
-2.159912109375 -15.54736328125 20.034423828125
-8.941650390625 22.307861328125 -10.7255859375
-7.41796875 10.4296875 -28.034912109375
-5.288818359375 3.289306640625 -1.841552734375
-1.512451171875 -26.26220703125 57.614501953125
-10.13818359375 31.01123046875 -29.4658203125
-8.735595703125 18.96826171875 -43.8525390625
-6.393310546875 10.19921875 -6.63671875
-10.722412109375 29.906494140625 -6.479248046875
-5.173095703125 1.423095703125 8.427734375
-9.972412109375 28.89501953125 -26.876220703125
-8.10009765625 22.008056640625 -19.224853515625
-5.08837890625 0.84716796875 13.02685546875
-2.715576171875 -17.2353515625 61.902099609375
-3.690185546875 -5.477294921875 7.745849609375
-10.638427734375 15.76220703125 -36.316162109375
-3.35400390625 -32.5927734375 65.89697265625
-3.557373046875 -2.916259765625 -14.4736328125
-1.80322265625 -21.1513671875 58.3935546875
-10.27294921875 29.994384765625 -23.4150390625
-3.25048828125 -6.897216796875 2.74658203125
-12.137939453125 42.372314453125 -44.7626953125
-12.763671875 0.505859375 -41.068359375
-3.67236328125 -8.81103515625 25.581787109375
-14.978759765625 51.87451171875 -37.397216796875
-12.49560546875 -2.215087890625 -33.930419921875
-4.0859375 -8.783447265625 37.02880859375
-7.228759765625 13.1640625 -4.234375
-9.935791015625 25.833251953125 -2.025390625
-5.101806640625 -0.224609375 32.87255859375
-3.26416015625 -14.47412109375 54.63818359375
-5.884521484375 9.967529296875 -22.51025390625
-1.490478515625 -22.471923828125 56.14306640625
-4.5703125 -7.537109375 47.541015625
-4.734130859375 -2.953369140625 27.703369140625
-3.8046875 -11.753173828125 47.47998046875
-7.014892578125 -24.31884765625 33.45947265625
-2.05859375 -17.648681640625 32.07666015625
-13.182373046875 46.9580078125 -45.541015625
-6.127685546875 6.702880859375 8.625244140625
-10.02001953125 31.2041015625 -40.06787109375
-2.604736328125 -23.2880859375 39.069580078125
-4.370361328125 -21.952880859375 26.250732421875
-2.787353515625 -20.231689453125 79.443115234375
-8.446533203125 13.95263671875 19.574951171875
-6.62255859375 8.099853515625 18.479736328125
-4.044189453125 -6.890380859375 22.299560546875
-1.66455078125 -24.575927734375 78.942626953125
-8.260498046875 -17.27978515625 4.818603515625
-2.330322265625 -17.8671875 24.496337890625
-3.086669921875 -10.75244140625 28.65673828125
-5.400634765625 1.075927734375 17.4697265625
-10.4736328125 -2.358154296875 -44.038330078125
-6.356201171875 -33.140625 62.846923828125
-8.699462890625 24.630859375 -35.30078125
-1.24755859375 -27.637939453125 77.209228515625
-8.471435546875 -31.587646484375 54.18505859375
-3.869384765625 -20.014892578125 21.437255859375
-4.26708984375 -7.061767578125 38.400146484375
-13.198974609375 45.61083984375 -40.327880859375
-7.726318359375 15.29248046875 -8.30908203125
-23.501708984375 9.23876953125 -28.58154296875
-9.827880859375 27.478271484375 -20.496826171875
-9.22412109375 21.1875 6.020751953125
-4.02001953125 -4.266845703125 16.81640625
-4.563720703125 -6.19677734375 49.38525390625
-12.228271484375 36.311279296875 -15.808349609375
-15.080078125 52.506103515625 -42.00244140625
-12.873779296875 43.748046875 -35.864990234375
-7.363525390625 18.607421875 -37.864013671875
-9.543701171875 23.51171875 9.73681640625
-4.319580078125 -2.363037109375 40.761474609375
-2.02197265625 -20.0029296875 53.43603515625
-3.39892578125 -7.381103515625 10.421142578125
-6.045166015625 7.33154296875 -1.2373046875
-2.673828125 -15.85595703125 50.81396484375
-10.145263671875 -29.139892578125 49.579833984375
-8.140869140625 21.48095703125 -30.96435546875
-11.55322265625 36.0390625 -22.43505859375
-9.16455078125 19.798828125 -48.085693359375
-2.61669921875 -15.315673828125 14.594970703125
-10.824951171875 32.75439453125 -27.826416015625
-6.5947265625 8.633544921875 13.70458984375
-8.29541015625 -10.7607421875 -14.490234375
-5.6708984375 1.57763671875 27.321533203125
-6.436279296875 10.28271484375 -11.6083984375
-3.67529296875 -15.547119140625 7.547607421875
-4.474365234375 -0.11865234375 -5.90673828125
-2.046142578125 -33.75439453125 75.046875
-10.703857421875 29.42578125 -12.053466796875
-12.3173828125 38.8017578125 -14.71875
-2.40234375 -19.044677734375 26.42822265625
-8.458984375 20.08740234375 -8.330322265625
-7.370361328125 13.4765625 0.427734375
-1.77001953125 -22.711181640625 45.62353515625
-4.501708984375 -7.269287109375 43.666748046875
-2.503662109375 -13.316162109375 13.81005859375
-8.0830078125 19.157958984375 -15.3056640625
-20.8818359375 6.705322265625 -30.326171875
-6.229736328125 -11.103759765625 -13.18896484375
-8.16943359375 15.753173828125 4.00830078125
-2.088134765625 -20.992919921875 65.2587890625
-13.601806640625 45.923828125 -30.5361328125
-11.905029296875 12.4541015625 -28.7021484375
-1.791259765625 -28.780517578125 59.98779296875
-4.912841796875 -2.166748046875 35.8203125
-20.32275390625 8.6181640625 -37.20654296875
-10.114990234375 27.34423828125 -8.09814453125
-2.640625 -12.1708984375 23.402587890625
-2.814453125 -14.941162109375 39.590576171875
-3.65087890625 -6.440185546875 13.569580078125
-3.3818359375 -14.39013671875 57.35302734375
-14.4951171875 46.361572265625 -27.06005859375
-11.066650390625 32.840087890625 -18.430908203125
-3.621826171875 -23.81689453125 34.649658203125
-9.1162109375 24.646240234375 -25.914306640625
-2.650390625 -17.345947265625 57.923583984375
-10.492919921875 28.965576171875 -3.290771484375
-2.4189453125 -18.270263671875 55.1083984375
-4.692138671875 -3.6171875 31.33642578125
-4.702392578125 -0.361328125 5.125
-8.01318359375 -15.765625 1.648193359375
-4.506103515625 -5.150390625 34.26025390625
-5.36376953125 -1.192626953125 38.756591796875
-3.61767578125 -22.2724609375 29.691162109375
-9.302734375 26.894775390625 -31.675048828125
-4.860595703125 1.27001953125 -2.194580078125
-1.3076171875 -26.072998046875 67.84765625
-3.379150390625 -6.400146484375 -13.413818359375
-17.505615234375 -34.023193359375 50.28955078125
-9.181640625 20.48193359375 12.990478515625
-11.678955078125 39.735595703125 -44.04833984375
-10.860107421875 34.107177734375 -34.19677734375
-4.546875 -9.967529296875 -14.32861328125
-10.212890625 -26.341552734375 -3.109375
-7.8017578125 18.87353515625 -24.254638671875
-4.189697265625 -0.810546875 -11.7294921875
-6.311767578125 -23.932861328125 31.45849609375
-4.018310546875 -3.449951171875 8.00537109375
-21.061279296875 4.515869140625 -27.42138671875
-4.09033203125 -11.991455078125 -5.26708984375
-10.26513671875 28.643798828125 -16.3046875
-11.536865234375 37.963134765625 -34.77197265625
-6.38916015625 9.49462890625 1.30126953125
-9.88037109375 25.997802734375 -4.911865234375
-5.932373046875 6.35595703125 2.675048828125
-9.001708984375 21.636962890625 -3.92431640625
-1.583740234375 -23.0625 48.59033203125
-11.01416015625 32.439208984375 -14.078857421875
-8.29638671875 14.969970703125 16.41015625
-6.895263671875 13.39208984375 -18.41943359375
-8.311279296875 17.53662109375 0.648193359375
-6.3076171875 6.576416015625 20.588623046875
-7.9326171875 17.136962890625 -15.921875
-3.763427734375 -6.572265625 -17.4130859375
-7.28759765625 16.87744140625 -29.997802734375
-8.485107421875 17.11279296875 11.816162109375
-3.61865234375 -11.976806640625 40.990478515625
-9.03662109375 -6.628173828125 -36.925537109375
-11.195068359375 36.0166015625 -38.664794921875
-8.380859375 23.527587890625 -39.1962890625
-4.84521484375 2.681884765625 -12.87646484375
-11.0478515625 14.132568359375 -32.20703125
-11.899169921875 37.081298828125 -19.97802734375
-13.375 46.692626953125 -37.611083984375
-8.33056640625 19.51171875 -10.6611328125
-1.6484375 -25.498779296875 53.229248046875
-10.0205078125 -2.94287109375 -40.315185546875
-17.17626953125 3.67138671875 -34.0927734375
-3.693115234375 -3.568115234375 -3.18212890625
-4.59033203125 -0.57080078125 9.06396484375
-10.083984375 31.153076171875 -32.168701171875
-12.8916015625 42.918701171875 -28.953369140625
-8.328125 21.26611328125 -23.8466796875
-4.481689453125 -9.528076171875 62.337646484375
-5.57763671875 3.435302734375 8.1865234375
-3.886474609375 -13.48291015625 59.197021484375
-3.31396484375 -6.74951171875 6.251953125
-12.23681640625 39.562255859375 -23.00439453125
-4.60107421875 1.52978515625 -19.63330078125
-9.393310546875 11.1005859375 -30.456298828125
-4.78369140625 -7.927734375 59.359375
-4.2275390625 -14.51611328125 2.328125
-4.99755859375 -30.204345703125 55.324951171875
-11.2646484375 -4.2119140625 -34.980224609375
-7.758056640625 16.25048828125 -11.650390625
-2.863525390625 -28.482421875 53.45849609375
-7.421142578125 6.81689453125 -23.6142578125
-4.20751953125 -4.58544921875 18.804931640625
-3.59814453125 -14.802001953125 5.708251953125
-2.020751953125 -16.71630859375 35.68359375
-3.772216796875 -8.230224609375 29.9091796875
-8.79638671875 22.34326171875 -15.2861328125
-23.916259765625 -32.46923828125 51.490478515625
-1.458251953125 -23.6484375 60.695556640625
-20.717041015625 -31.94677734375 51.8125
-1.96435546875 -19.67919921875 49.522705078125
-2.484130859375 -19.30712890625 64.3388671875
-3.418212890625 -15.489990234375 63.306396484375
-8.8857421875 6.77099609375 -24.908203125
-12.499267578125 48.063720703125 -31.637451171875
-1.71923828125 -23.413818359375 51.9453125
-6.60693359375 -13.258056640625 -7.189453125
-8.1875 18.182861328125 15.5791015625
-9.093994140625 26.423583984375 -37.095458984375
-20.85791015625 8.759521484375 -35.16650390625
-8.606201171875 17.6640625 -40.835693359375
-6.96923828125 13.2275390625 -15.060302734375
-11.1064453125 10.475341796875 -28.837646484375
-7.521728515625 12.56201171875 17.469482421875
-4.490234375 -2.885498046875 20.227294921875
-13.97119140625 49.086181640625 -40.7998046875
-2.509521484375 -33.37646484375 70.897705078125
-5.693603515625 2.528564453125 29.73828125
-8.870849609375 21.053466796875 -6.281982421875
-7.881103515625 -34.541015625 55.5634765625
-9.778076171875 25.23974609375 0.68310546875
-7.298583984375 -12.2080078125 -10.996337890625
-2.283935546875 -12.776611328125 17.682373046875
-3.123291015625 -5.8017578125 -8.708984375
-7.87744140625 16.413818359375 -3.71337890625
-18.425048828125 5.61474609375 -34.6123046875
-5.140625 3.580078125 -10.962158203125
-1.34228515625 -27.853515625 64.0029296875
-5.46728515625 -11.73291015625 -8.93408203125
-10.738525390625 34.66259765625 -36.4248046875
-2.1083984375 -17.6962890625 45.173583984375
-11.205322265625 36.441650390625 -30.2724609375
-1.550048828125 -22.75341796875 62.72802734375
-1.5458984375 -24.302734375 70.717041015625
-1.262939453125 -24.811767578125 66.420654296875
-5.5771484375 3.65478515625 12.25439453125
-9.6376953125 -28.73193359375 47.72998046875
-8.23388671875 16.0185546875 -36.9658203125
-1.1064453125 -26.96484375 65.66357421875
-2.97509765625 -10.0419921875 14.763916015625
-4.150146484375 -28.14794921875 49.798583984375
-3.026123046875 -10.47705078125 24.9521484375
-3.701904296875 -10.41650390625 37.908935546875
-7.9990234375 14.7060546875 12.578857421875
-9.536376953125 22.531494140625 2.259765625
-6.546875 -20.52392578125 18.93603515625
-1.9375 -16.7724609375 33.747802734375
-10.39990234375 33.782470703125 -45.479248046875
-5.240478515625 0.516845703125 22.68408203125
-8.037353515625 20.209716796875 -27.295166015625
-17.952880859375 6.04541015625 -40.256591796875
-2.57421875 -12.68896484375 8.610595703125
-9.51806640625 23.330078125 7.3935546875
-3.813232421875 -13.807861328125 62.387939453125
-13.0126953125 42.257080078125 -20.205810546875
-1.14697265625 -29.39990234375 75.13671875
-9.42919921875 29.18359375 -45.152587890625
-2.777587890625 -10.607421875 10.483154296875
-9.50048828125 26.005615234375 -19.123046875
-3.638671875 -10.8623046875 -6.882568359375
-6.851806640625 -31.929931640625 57.512939453125
-8.475341796875 17.2333984375 7.724853515625
-10.070556640625 25.282958984375 6.14453125
-2.736572265625 -10.803466796875 5.239990234375
-7.322998046875 14.742431640625 -10.355224609375
-2.856201171875 -9.841064453125 -0.9560546875
-7.495361328125 13.0986328125 6.883056640625
-3.784423828125 -8.866943359375 34.847900390625
-6.593994140625 8.79443359375 9.60546875
-7.213623046875 16.015380859375 -25.77490234375
-8.801513671875 19.803466796875 3.917236328125
-5.356689453125 0.232421875 25.224365234375
-3.3291015625 -16.918701171875 15.407958984375
-6.971923828125 10.624755859375 12.84521484375
-2.7900390625 -13.9462890625 7.147705078125
-13.37744140625 -33.8837890625 52.094970703125
-3.4541015625 -7.10986328125 -11.657958984375
-10.809814453125 30.37646484375 -10.322021484375
-7.229248046875 2.672119140625 -20.94091796875
-6.052734375 5.116943359375 23.96923828125
-3.914306640625 -13.658935546875 67.10791015625
-12.125732421875 41.3857421875 -43.19677734375
-5.33740234375 -35.189208984375 70.984130859375
-7.763671875 14.122802734375 10.02099609375
-2.07421875 -25.174560546875 48.597412109375
-16.27490234375 1.783203125 -32.73681640625
-8.048583984375 23.49169921875 -48.7138671875
-13.355224609375 -32.181396484375 51.364013671875
-4.953125 -0.0869140625 18.822509765625
-3.1455078125 -12.931396484375 37.39404296875
-3.27685546875 -8.028076171875 14.4140625
-4.31884765625 -11.10986328125 66.1572265625
-8.66943359375 17.4990234375 17.29248046875
-7.909423828125 -14.696533203125 -2.46923828125
-5.27978515625 -19.382568359375 15.197998046875
-5.95166015625 -14.619140625 -0.474365234375
-2.873779296875 -10.6904296875 8.263427734375
-3.7568359375 -10.538330078125 46.1123046875
-5.403564453125 6.330078125 -17.954833984375
-4.255615234375 -7.16162109375 35.914794921875
-7.6875 19.56640625 -35.517822265625
-11.144287109375 37.44189453125 -39.802978515625
-6.06982421875 8.427734375 -2.953369140625
-8.448486328125 18.907470703125 -2.675048828125
-3.32080078125 -30.134765625 57.2705078125
-2.359375 -17.953369140625 51.178466796875
-2.9453125 -20.251953125 27.668212890625
-2.064697265625 -20.9462890625 67.2099609375
-14.197509765625 47.73876953125 -32.17431640625
-9.417724609375 24.3017578125 -5.86669921875
-2.86474609375 -19.13427734375 23.319580078125
-4.20361328125 -2.55810546875 1.26513671875
-5.097412109375 -1.255615234375 28.63525390625
-4.15283203125 -6.612548828125 29.041015625
-1.039794921875 -28.615966796875 69.624755859375
-2.861328125 -20.3125 76.14990234375
-8.525146484375 21.8037109375 -22.0625
-4.3837890625 -1.09033203125 -1.451171875
-3.917724609375 -18.88671875 17.877197265625
-6.140625 9.759033203125 -13.534423828125
-2.0361328125 -22.503173828125 74.576416015625
-3.1708984375 -13.434814453125 47.46533203125
-19.0498046875 2.41357421875 -29.17578125
-7.80517578125 17.977783203125 -25.82568359375
-13.396484375 45.718505859375 -32.3056640625
-2.04541015625 -21.12353515625 42.10009765625
-13.175048828125 43.90966796875 -30.853271484375
-7.49609375 14.57470703125 -1.1943359375
-3.436767578125 -15.33203125 68.601318359375
-1.291748046875 -31.580322265625 74.054931640625
-7.992431640625 21.678955078125 -47.681396484375
-6.758056640625 11.745849609375 -7.453857421875
-22.083984375 9.998046875 -34.64111328125
-8.3828125 22.67333984375 -35.51806640625
-4.05126953125 -12.267333984375 -1.91650390625
-4.603271484375 -1.556396484375 13.78759765625
-4.216796875 -10.157958984375 -9.12158203125
-3.03076171875 -17.099853515625 66.86962890625
-1.8857421875 -20.385009765625 38.155029296875
-3.828857421875 -11.1533203125 52.581298828125
-3.0263671875 -8.963134765625 11.2607421875
-11.11328125 35.015869140625 -16.2822265625
-18.977783203125 -30.618408203125 51.13134765625
-8.6044921875 25.283935546875 -45.744384765625
-6.759521484375 11.601806640625 -3.51513671875
-9.5283203125 29.410400390625 -38.373046875
-9.318359375 25.58154296875 -24.1494140625
-4.263427734375 -8.63330078125 40.94970703125
-4.7890625 -15.664794921875 4.09033203125
-4.85986328125 3.046142578125 -20.526123046875
-3.62109375 -6.03125 4.23828125
-4.561767578125 -3.885009765625 44.227294921875
-3.422119140625 -7.04931640625 8.688720703125
-4.77587890625 -5.44775390625 47.054931640625
-8.860595703125 23.146728515625 -25.026123046875
-4.05078125 -0.956787109375 -14.614990234375
-3.758056640625 -12.468017578125 51.273681640625
-11.886962890625 39.61328125 -33.988037109375
-9.65771484375 -32.48681640625 52.994140625
-8.7509765625 -33.729736328125 53.94482421875
-1.818603515625 -21.680908203125 53.91259765625
-4.095947265625 -8.84423828125 46.426025390625
-3.6552734375 -11.80078125 -0.068603515625
-4.0400390625 -3.126708984375 6.281005859375
-7.771728515625 20.6630859375 -41.19287109375
-7.416748046875 15.008056640625 -17.978759765625
-6.7021484375 8.315673828125 22.134033203125
-9.3994140625 24.167724609375 -2.495849609375
-3.08349609375 -12.7451171875 42.9267578125
-15.31103515625 1.303955078125 -34.1201171875
-12.6240234375 40.90673828125 -21.608154296875
-2.214599609375 -21.978515625 78.82275390625
-13.58935546875 47.752685546875 -42.125732421875
-2.216552734375 -15.8427734375 23.692626953125
-2.2255859375 -14.28564453125 21.24658203125
-4.974853515625 -3.853759765625 35.338623046875
-4.601806640625 -8.678955078125 50.802734375
-11.333984375 34.984375 -20.978271484375
-11.911865234375 39.599853515625 -30.267822265625
-4.781005859375 -2.92236328125 37.5615234375
-1.822265625 -18.7080078125 38.6376953125
-11.860107421875 39.78369140625 -36.116943359375
-4.302978515625 -10.437255859375 60.859130859375
-6.952392578125 -14.34326171875 -4.00146484375
-5.992919921875 3.533447265625 25.172119140625
-10.732421875 31.522705078125 -24.1162109375
-9.19580078125 27.140380859375 -42.208251953125
-4.375732421875 -7.2001953125 45.411376953125
-6.32373046875 4.97314453125 21.26611328125
-7.0927734375 18.724853515625 -41.2216796875
-20.816650390625 -33.671875 51.990234375
-7.751953125 13.28564453125 15.9072265625
-6.7685546875 11.096923828125 -5.176025390625
-6.79443359375 -22.39794921875 26.4541015625
-2.5693359375 -12.0595703125 15.004638671875
-2.311279296875 -15.2490234375 16.62646484375
-12.932373046875 0.324951171875 -44.502685546875
-3.69677734375 -3.458984375 -9.3427734375
-2.911376953125 -14.383056640625 44.055419921875
-6.76513671875 13.99609375 -26.65625
-1.69287109375 -19.362060546875 45.402099609375
-2.656494140625 -12.625244140625 10.436279296875
-3.6787109375 -10.7666015625 39.761474609375
-15.580322265625 3.178955078125 -42.257080078125
-6.45166015625 -35.251220703125 67.64794921875
-17.76416015625 3.382080078125 -32.497802734375
-5.44921875 5.053466796875 1.09228515625
-2.44140625 -18.32177734375 53.20751953125
-3.695068359375 -8.470703125 23.787353515625
-6.39208984375 12.20361328125 -24.26416015625
-5.28369140625 -21.6044921875 24.205810546875
-11.620361328125 5.512451171875 -20.654541015625
-8.260986328125 22.5263671875 -32.475830078125
-12.588134765625 42.3759765625 -33.97509765625
-14.393310546875 46.562255859375 -28.764404296875
-6.983154296875 -31.1025390625 55.69287109375
-12.5107421875 41.969970703125 -30.33349609375
-11.1728515625 -29.989501953125 51.39697265625
-11.1630859375 -1.70361328125 -38.810791015625
-8.4814453125 24.766845703125 -42.76416015625
-3.927978515625 -33.45458984375 67.26513671875
-3.23779296875 -7.34912109375 -7.977783203125
-8.873046875 25.324951171875 -40.885498046875
-4.914306640625 -18.609619140625 13.611083984375
-3.14404296875 -11.443603515625 32.406005859375
-2.91796875 -34.660888671875 73.4404296875
-5.388427734375 4.365234375 -4.04248046875
-8.837646484375 18.9306640625 8.610107421875
-8.2275390625 15.4228515625 11.03173828125
-2.666748046875 -17.164306640625 20.638916015625
-13.74267578125 49.78662109375 -44.63720703125
-3.57421875 -9.864990234375 30.368408203125
-3.98193359375 -10.6103515625 55.951171875
-13.687255859375 44.276123046875 -23.9765625
-5.44384765625 7.30859375 -21.210693359375
-8.01318359375 22.255615234375 -40.51806640625
-8.129150390625 22.052734375 -38.332763671875
-1.630859375 -22.398681640625 59.543212890625
-7.921630859375 14.823974609375 -31.968994140625
-5.806396484375 -27.4169921875 45.3017578125
-9.130615234375 21.451171875 4.1865234375
-4.9365234375 -9.4140625 65.491943359375
-4.080078125 -7.17578125 25.352783203125
-2.28955078125 -15.193359375 18.376220703125
-3.77099609375 -26.5283203125 45.507080078125
-3.2705078125 -11.504150390625 30.71240234375
-2.73388671875 -13.089111328125 32.634765625
-9.13720703125 24.0888671875 -18.30810546875
-3.078369140625 -25.295166015625 43.423828125
-4.338623046875 -3.958984375 23.697509765625
-2.238525390625 -15.8974609375 21.921630859375
-15.007080078125 2.274169921875 -37.56494140625
-10.583740234375 28.863037109375 0.2099609375
-5.38720703125 -0.445068359375 36.8916015625
-10.12451171875 27.603515625 -9.772216796875
-17.383056640625 -31.433837890625 51.324462890625
-4.440185546875 -7.89013671875 49.31298828125
-11.0419921875 -1.510986328125 -42.53662109375
-13.93310546875 48.60107421875 -38.219970703125
-8.638427734375 19.17529296875 0.913818359375
-6.880859375 11.063232421875 6.911376953125
-23.446044921875 11.57568359375 -35.05908203125
-10.75927734375 32.25732421875 -20.335205078125
-3.637451171875 -6.673828125 17.690673828125
-2.49609375 -21.945556640625 80.521728515625
-6.80615234375 13.273681640625 -20.13134765625
-2.82958984375 -10.638916015625 20.554443359375
-8.17724609375 19.2763671875 -19.045166015625
-8.233642578125 11.623046875 21.83056640625
-2.260498046875 -14.518310546875 26.69921875
-6.052978515625 9.64794921875 -15.26513671875
-5.172607421875 4.843505859375 -16.48388671875
-2.35546875 -13.933349609375 19.583984375
-12.67626953125 43.769775390625 -39.17431640625
-6.409423828125 -27.819091796875 47.25439453125
-4.72705078125 -26.994140625 44.079833984375
-8.176513671875 14.66748046875 18.073974609375
-2.33203125 -13.197998046875 5.492431640625
-3.370849609375 -6.26416015625 -1.140869140625
-8.56494140625 16.549560546875 15.447021484375
-3.120849609375 -7.631103515625 4.361572265625
-3.44921875 -27.32373046875 47.703857421875
-6.238525390625 5.805908203125 7.03662109375
-4.62744140625 -4.017822265625 41.169921875
-6.364990234375 8.394775390625 3.03515625
-7.062744140625 13.74072265625 -13.33837890625
-7.5380859375 5.301025390625 -22.906494140625
-7.1865234375 -28.627685546875 50.6982421875
-5.8837890625 4.58349609375 14.297607421875
-4.035888671875 -8.74609375 -13.227783203125
-4.52685546875 -10.29638671875 -12.685302734375
-8.54248046875 19.02880859375 -6.5283203125
-3.46533203125 -7.94873046875 16.376708984375
-4.760009765625 -3.25732421875 39.41552734375
-4.73779296875 -25.033203125 37.157958984375
-3.572509765625 -33.859130859375 68.85009765625
-9.350341796875 21.91015625 10.18359375
-14.9052734375 2.566650390625 -39.224609375
-8.1357421875 18.466064453125 -8.58642578125
-3.32861328125 -16.9072265625 73.878173828125
-4.269287109375 -5.2431640625 22.474853515625
-10.1494140625 27.980224609375 -14.743408203125
-6.240234375 7.68408203125 4.657958984375
-4.54443359375 1.004638671875 -14.7568359375
-5.57275390625 -33.9404296875 66.56884765625
-12.439697265625 39.91552734375 -19.572509765625
-10.588134765625 30.26220703125 -16.055908203125
-7.772216796875 16.529296875 -13.30517578125
-4.13720703125 -8.566650390625 42.68359375
-3.421142578125 -12.943359375 1.44482421875
-4.51416015625 -5.4609375 36.74951171875
-1.107421875 -27.304443359375 70.98388671875
-10.380615234375 29.304931640625 -17.860595703125
-10.11083984375 30.974365234375 -38.420654296875
-11.3544921875 33.231201171875 -9.900634765625
-9.456298828125 17.064208984375 -39.005126953125
-10.311279296875 27.05322265625 2.865478515625
-6.623779296875 8.9912109375 6.1513671875
-8.955078125 19.222900390625 6.9794921875
-11.22119140625 31.667724609375 -4.9306640625
-3.681640625 -14.733154296875 74.210693359375
-3.1396484375 -15.5361328125 61.67333984375
-7.59814453125 15.113525390625 -5.06787109375
-3.07275390625 -22.592041015625 33.384765625
-13.927490234375 48.002685546875 -36.636474609375
-13.237548828125 50.5517578125 -34.218017578125
-13.115478515625 -1.09912109375 -34.97802734375
-4.46923828125 -1.00146484375 0.3349609375
-9.69921875 30.4521484375 -43.9345703125
-5.47021484375 -19.739013671875 17.180908203125
-4.822021484375 1.983154296875 -11.21435546875
-1.975830078125 -17.702392578125 30.156982421875
-9.85888671875 29.3310546875 -30.722412109375
-8.824951171875 25.809326171875 -48.616455078125
-11.70068359375 38.2470703125 -31.99951171875
-4.142822265625 -3.2294921875 12.78564453125
-1.967041015625 -18.905029296875 46.95654296875
-9.43408203125 26.24072265625 -25.67578125
-3.982666015625 -12.75341796875 68.47705078125
-9.263427734375 24.279296875 -16.006591796875
-2.19970703125 -19.329345703125 31.07568359375
-4.5654296875 -23.08984375 30.751953125
-6.84326171875 10.67919921875 20.396728515625
-5.463134765625 5.57373046875 -10.721435546875
-2.760986328125 -20.618896484375 81.469970703125
-9.525390625 23.78369140625 -7.42236328125
-4.772216796875 -9.240478515625 -15.78125
-12.224365234375 41.5615234375 -41.5693359375
-2.454345703125 -21.298583984375 35.112060546875
-7.15185546875 -34.051513671875 59.886962890625
-1.4443359375 -28.322509765625 61.521240234375
-4.795166015625 -32.66552734375 62.982666015625
-1.930419921875 -19.4072265625 43.783203125
-16.925537109375 4.9033203125 -39.576416015625
-1.82958984375 -24.984130859375 80.51904296875
-10.92529296875 31.0400390625 -11.900390625
-3.913818359375 -8.51806640625 33.131591796875
-5.5078125 2.16064453125 7.006591796875
-5.053955078125 -1.401123046875 25.567138671875
-8.856689453125 24.01025390625 -28.801513671875
-6.118408203125 8.91796875 -7.97802734375
-13.5048828125 46.34130859375 -33.811767578125
-9.64208984375 25.201416015625 -14.576904296875
-4.276611328125 -11.224853515625 62.82275390625
-14.551025390625 49.6904296875 -39.26318359375
-3.401611328125 -6.07958984375 -15.05224609375
-7.6552734375 3.781982421875 -22.197265625
-12.110107421875 39.40087890625 -28.480712890625
-5.427001953125 3.2724609375 28.204345703125
-11.43310546875 38.12109375 -44.719482421875
-1.281494140625 -26.420166015625 72.491943359375
-3.75634765625 -15.892578125 9.3828125
-10.43701171875 31.194580078125 -27.5966796875
-5.92138671875 9.36279296875 -19.7470703125
-8.35888671875 16.0009765625 13.488037109375
-4.055908203125 -12.4296875 65.242919921875
-3.5830078125 -2.2119140625 -16.1201171875
-3.302734375 -12.487548828125 3.019287109375
-8.712646484375 17.82568359375 10.270751953125
-12.146728515625 42.973876953125 -46.3115234375
-8.125 19.953369140625 -25.59912109375
-11.56005859375 33.961181640625 -6.37255859375
-2.88916015625 -12.384033203125 29.114501953125
-10.99609375 35.09765625 -32.002685546875
-5.8369140625 5.67724609375 4.8994140625
-5.507568359375 0.390625 28.40576171875
-12.68310546875 40.564208984375 -17.18115234375
-6.318359375 -20.890625 20.49267578125
-9.352783203125 23.462158203125 -21.337158203125
-1.560791015625 -27.0888671875 59.00146484375
-3.597900390625 -2.6806640625 -17.724853515625
-7.99462890625 16.70556640625 -5.297607421875
-3.430419921875 -16.979736328125 71.323974609375
-2.42138671875 -13.37841796875 11.969970703125
-1.220458984375 -26.15625 63.13525390625
-7.882080078125 18.230224609375 -17.10791015625
-13.9423828125 49.614990234375 -42.910888671875
-4.259033203125 0.89990234375 -16.674072265625
-1.464111328125 -25.43798828125 56.232177734375
-10.626708984375 32.580810546875 -29.601806640625
-6.926513671875 13.954833984375 -21.66650390625
-11.24560546875 35.4501953125 -24.32080078125
-16.86328125 4.63330078125 -37.5458984375
-10.90478515625 -3.510498046875 -36.37939453125
-11.787353515625 37.952392578125 -27.12548828125
-7.940185546875 9.3466796875 -26.968994140625
-1.954833984375 -27.992919921875 56.256103515625
-6.598876953125 -34.427001953125 63.8349609375
-3.61474609375 -7.00830078125 19.460205078125
-1.808349609375 -21.454833984375 63.633544921875
-9.997802734375 30.33251953125 -36.937744140625
-11.06396484375 33.76318359375 -25.50146484375
-8.018310546875 16.868408203125 -8.639892578125
-13.11181640625 46.79052734375 -43.546630859375
-2.045166015625 -19.648193359375 34.595703125
-12.41357421875 42.1787109375 -32.019775390625
-19.8603515625 6.564453125 -32.302001953125
-6.076171875 6.015625 17.986572265625
-12.8935546875 44.841796875 -43.66796875
-15.4658203125 -30.95751953125 51.103515625
-5.314453125 5.8369140625 -19.6533203125
-7.857666015625 20.011962890625 -44.68359375
-8.224853515625 20.84130859375 -29.271728515625
-5.258056640625 -1.4013671875 34.319091796875
-5.286865234375 3.505126953125 2.1298828125
-6.9072265625 11.397216796875 -0.527099609375
-4.43798828125 -3.132568359375 14.85205078125
-3.368408203125 -4.876220703125 -5.70703125
-7.673583984375 19.300537109375 -33.948974609375
-9.756103515625 28.227294921875 -25.448486328125
-8.39697265625 17.78466796875 -1.550048828125
-18.98681640625 3.9169921875 -30.351318359375
-8.53173828125 22.550048828125 -27.453125
-2.260498046875 -15.599365234375 31.604736328125
-13.000732421875 45.79248046875 -42.063720703125
-10.003173828125 -6.152099609375 -35.015869140625
-3.06689453125 -8.334228515625 -3.0634765625
-1.951416015625 -23.298583984375 77.881103515625
-8.71142578125 24.886474609375 -36.866455078125
-7.870361328125 19.412353515625 -42.599365234375
-7.272705078125 9.219970703125 23.304443359375
-9.9853515625 26.94775390625 -3.151611328125
-6.28857421875 -36.067138671875 73.47802734375
-3.234375 -24.533935546875 39.818359375
-4.82177734375 0.162841796875 7.535400390625
-6.9873046875 -0.38134765625 -19.4296875
-8.820068359375 26.3173828125 -47.117919921875
-10.522216796875 33.61279296875 -43.314208984375
-10.488525390625 32.656494140625 -37.098876953125
-10.579345703125 34.393310546875 -39.1630859375
-22.296630859375 -34.1494140625 51.710205078125
-2.75048828125 -19.51416015625 73.294677734375
-4.616943359375 -6.987548828125 50.751953125
-9.165283203125 22.27099609375 -0.954833984375
-10.302001953125 32.725341796875 -40.38720703125
-5.82568359375 5.198974609375 25.5302734375
-13.59521484375 -30.475341796875 51.562255859375
-8.281494140625 19.69580078125 -13.482666015625
-4.368408203125 -2.195556640625 8.898193359375
-2.320556640625 -18.916015625 62.818603515625
-2.207275390625 -17.408447265625 26.15234375
-12.42626953125 39.05322265625 -16.27294921875
-11.00244140625 34.758056640625 -14.73095703125
-3.417724609375 -23.765625 36.8896484375
-2.91357421875 -12.03515625 27.3076171875
-3.595947265625 -5.38134765625 9.96533203125
-8.208251953125 13.3095703125 -31.644287109375
-10.00146484375 31.77685546875 -42.17138671875
-12.3369140625 36.566650390625 -17.3583984375
-5.330322265625 -34.34814453125 68.28466796875
-10.826171875 30.881103515625 -13.649169921875
-7.98828125 14.433349609375 8.4951171875
-9.66015625 -4.751953125 -37.986328125
-5.800537109375 5.064208984375 8.35205078125
-2.616455078125 -20.266845703125 77.881591796875
-1.615234375 -32.047607421875 71.78173828125
-9.011962890625 27.74462890625 -43.937744140625
-9.884521484375 29.6884765625 -35.449951171875
-9.37744140625 28.64306640625 -42.61572265625
-8.681396484375 20.779541015625 -9.810302734375
-8.5908203125 21.0390625 -11.57470703125
-7.221435546875 15.514892578125 -27.3505859375
-9.193115234375 20.760986328125 11.234619140625
-12.4248046875 42.46337890625 -36.748779296875
-3.291259765625 -15.005615234375 65.11083984375
-2.291015625 -23.23583984375 41.209228515625
-3.001953125 -30.914306640625 62.13525390625
-2.684814453125 -20.9873046875 31.0615234375
-6.19189453125 10.626708984375 -18.447509765625
-13.7939453125 51.922607421875 -39.512451171875
-11.660888671875 39.594970703125 -37.857177734375
-5.146728515625 4.59326171875 -20.850830078125
-16.19921875 -33.11669921875 51.362060546875
-12.135986328125 39.38671875 -24.708984375
-10.369384765625 30.1494140625 -21.709228515625
-3.1962890625 -8.950439453125 -8.513916015625
-1.651123046875 -22.8662109375 57.63818359375
-9.7607421875 26.06201171875 -8.954833984375
-2.161376953125 -16.96630859375 41.438232421875
-2.065673828125 -27.189453125 53.77587890625
-3.6708984375 -3.888427734375 -1.496337890625
-2.905029296875 -8.1337890625 1.87060546875
-4.623046875 0.348876953125 3.29345703125
-2.248046875 -29.62646484375 61.205322265625
-13.939453125 49.339111328125 -35.105224609375
-2.0498046875 -17.04052734375 38.82421875
-14.593994140625 50.941162109375 -41.86181640625
-7.424560546875 15.274658203125 -14.146484375
-5.480712890625 6.098388671875 -8.500732421875
-4.3876953125 -5.260498046875 31.681640625
-1.99853515625 -19.954833984375 55.3369140625
-1.970458984375 -23.39697265625 73.191650390625
-5.00830078125 1.826416015625 0.771240234375
-2.865478515625 -18.285888671875 70.70654296875
-3.857177734375 -3.80029296875 0.3916015625
-22.841796875 10.554931640625 -32.405517578125
-22.870361328125 7.709228515625 -27.4970703125
-15.662841796875 53.119384765625 -40.468994140625
-9.123291015625 14.466796875 20.86376953125
-8.31494140625 16.253173828125 -33.7626953125
