-23.093505859375 -9.71826171875 18.927490234375
3.374755859375 22.553955078125 -44.9765625
-10.58203125 30.675048828125 -49.12646484375
-22.641845703125 -24.08349609375 42.932373046875
-22.586669921875 -16.7490234375 -6.173095703125
-16.603515625 -27.992431640625 45.959228515625
-22.197021484375 -10.80517578125 2.073486328125
-20.466552734375 -28.24951171875 48.534912109375
-14.684814453125 -28.911376953125 49.19140625
-22.845703125 0.499267578125 -6.18359375
-2.6572265625 -25.577392578125 46.51513671875
-11.5205078125 29.013427734375 -50.933349609375
-14.185791015625 -30.012451171875 55.85107421875
-20.400390625 43.62353515625 -39.197509765625
-5.057373046875 19.154541015625 -56.52978515625
-22.0693359375 10.479248046875 -0.66748046875
-22.642578125 -23.092529296875 39.7431640625
-22.58447265625 -5.10546875 -5.7626953125
-23.322509765625 8.682373046875 -7.02294921875
-18.66259765625 -28.130859375 47.376953125
-15.38134765625 -31.37451171875 53.8291015625
-22.5341796875 -22.5849609375 37.7353515625
-22.544677734375 -25.283935546875 37.15673828125
-2.262451171875 17.932373046875 -57.2451171875
-22.161376953125 -18.984130859375 -1.91162109375
8.148193359375 18.115234375 -45.842529296875
-22.028564453125 -13.40869140625 1.958984375
-7.65771484375 11.934326171875 -59.431396484375
-22.392333984375 -19.138427734375 4.708251953125
-15.7939453125 19.650390625 -55.1162109375
5.68310546875 -18.8505859375 -16.748291015625
-22.654052734375 5.32373046875 10.505126953125
-22.7666015625 0.062255859375 0.6826171875
9.056396484375 16.8203125 -51.25048828125
-9.455322265625 -24.0556640625 45.748046875
-13.591796875 35.80615234375 -44.131103515625
2.18115234375 23.433837890625 -42.405029296875
-18.22509765625 34.55029296875 -47.68603515625
-22.2138671875 -25.103515625 47.64794921875
1.495361328125 23.886474609375 -40.77490234375
-23.607666015625 35.9140625 -47.58154296875
-18.004638671875 24.169189453125 -53.425537109375
2.342529296875 21.596923828125 -35.09765625
-22.44580078125 -26.85595703125 44.697265625
-2.949951171875 11.93212890625 -60.661376953125
-22.766845703125 8.279296875 -4.062744140625
4.16552734375 9.185302734375 -62.832763671875
5.1279296875 20.028564453125 -50.0517578125
-22.286376953125 -15.4033203125 15.84716796875
-20.781494140625 40.124755859375 -43.605224609375
-0.38818359375 24.056640625 -50.155029296875
2.287109375 23.34814453125 -45.634521484375
11.299560546875 14.925048828125 -46.413330078125
-15.52978515625 -33.821044921875 45.616943359375
2.051025390625 21.5419921875 -37.51123046875
-22.732177734375 -30.728759765625 37.421142578125
5.818359375 16.672119140625 -38.038818359375
-22.421142578125 -27.9697265625 36.44873046875
12.0400390625 -15.8173828125 -12.568359375
-22.974609375 4.416259765625 3.72705078125
-22.867919921875 1.8037109375 6.016845703125
-22.6474609375 -2.58837890625 12.39990234375
-22.36669921875 -16.710205078125 14.739013671875
-5.26123046875 17.94287109375 -57.367431640625
-22.462890625 0.494873046875 13.380859375
-23.272705078125 9.522705078125 -9.360595703125
10.068359375 -17.86767578125 -16.315673828125
-5.343505859375 13.12841796875 -59.77294921875
-22.421630859375 -25.048095703125 45.28515625
-16.273681640625 32.40869140625 -49.22412109375
3.388427734375 22.205322265625 -42.889404296875
13.054931640625 -18.561279296875 -16.832763671875
6.533935546875 18.400390625 -51.72216796875
-22.167236328125 -22.318359375 -7.03759765625
0.089111328125 22.393310546875 -52.5859375
1.598876953125 14.721435546875 -59.31884765625
-9.808837890625 34.048583984375 -45.113037109375
9.813720703125 12.24169921875 -39.3271484375
3.466796875 21.4638671875 -40.314208984375
-7.56787109375 29.833740234375 -48.460693359375
-22.340576171875 -27.8955078125 49.105712890625
-16.101318359375 28.248291015625 -51.896728515625
-22.884033203125 7.882080078125 0.677978515625
-20.568603515625 22.1611328125 -53.437744140625
-15.40771484375 -33.97607421875 50.001953125
-22.24169921875 -11.60498046875 -3.0986328125
6.16357421875 18.62109375 -41.007080078125
-22.5390625 -0.363037109375 -2.9912109375
-13.727783203125 29.04150390625 -51.223876953125
-15.533203125 -30.8212890625 50.72607421875
-5.16650390625 21.984619140625 -54.9482421875
-18.806884765625 20.093505859375 -54.28369140625
9.165283203125 8.8310546875 -62.3896484375
-15.418212890625 -30.249755859375 47.37451171875
-22.1015625 -16.40283203125 -0.84228515625
-9.814697265625 25.2861328125 -53.289794921875
-22.0419921875 -16.35546875 -3.209716796875
4.980712890625 19.06005859375 -39.467529296875
-22.4169921875 -29.692626953125 47.92041015625
-22.20263671875 -15.466552734375 -4.807373046875
6.656982421875 16.6474609375 -39.293701171875
7.911376953125 -33.010986328125 10.70849609375
-8.03759765625 22.818603515625 -54.687744140625
-23.3623046875 13.406982421875 -8.19580078125
-22.517822265625 45.43994140625 -37.49169921875
1.365478515625 24.609619140625 -43.82861328125
-0.6552734375 15.922119140625 -58.519287109375
-21.802734375 -22.443603515625 -1.603759765625
1.84326171875 13.128173828125 -60.50439453125
-17.738525390625 -30.766357421875 45.853759765625
-11.0029296875 21.625 -55.36474609375
2.1865234375 16.72802734375 -57.293212890625
-22.27490234375 29.1904296875 -51.150146484375
-6.887451171875 -23.94580078125 45.69677734375
-22.26806640625 -17.076171875 11.06787109375
-1.916015625 27.006591796875 -45.810302734375
9.100830078125 16.397216796875 -52.821044921875
9.418212890625 16.870849609375 -48.463623046875
-15.08837890625 33.666015625 -47.59423828125
10.70166015625 15.672607421875 -49.021484375
3.206787109375 15.117431640625 -59.1162109375
8.616943359375 15.80419921875 -41.5029296875
-23.208251953125 11.6845703125 -8.306884765625
-14.474609375 -29.4736328125 52.875
4.22509765625 13.532470703125 -59.925048828125
-22.676513671875 -28.5986328125 41.762939453125
-22.3056640625 -10.454833984375 8.633056640625
-22.555908203125 -7.444091796875 14.179931640625
-22.27490234375 -11.727783203125 5.672119140625
-22.058837890625 -18.507568359375 -3.741455078125
-22.543212890625 -25.65576171875 50.5654296875
-22.82470703125 1.36865234375 9.530029296875
-22.822021484375 7.86474609375 -1.698486328125
-22.314208984375 -13.321044921875 -4.163330078125
-14.8828125 26.174072265625 -52.841552734375
-22.627685546875 -11.0380859375 19.118408203125
-22.239013671875 -18.667724609375 3.390869140625
-22.464111328125 -27.807861328125 46.010498046875
-23.800537109375 -32.563720703125 36.5947265625
0.253173828125 15.1181640625 -59.243896484375
-22.8330078125 3.9970703125 8.31494140625
6.029296875 17.156005859375 -54.8671875
-19.336181640625 41.093994140625 -39.502685546875
9.980224609375 9.622314453125 -61.565673828125
11.406005859375 13.775146484375 -43.8828125
-22.509521484375 -4.74462890625 5.78564453125
-23.03076171875 3.987548828125 6.13330078125
-22.569580078125 43.186279296875 -41.14404296875
-23.1962890625 3.5126953125 -6.489990234375
-22.835205078125 9.570556640625 -4.595703125
10.5673828125 15.6396484375 -50.96826171875
-1.4892578125 11.93408203125 -60.82470703125
-7.115966796875 25.2626953125 -52.900146484375
0.844482421875 21.994384765625 -35.946533203125
-22.80224609375 5.713134765625 1.217529296875
-22.649658203125 0.061279296875 3.496337890625
-22.53759765625 -25.423828125 42.214111328125
-22.444091796875 -9.112548828125 5.7880859375
-22.875 -31.016845703125 45.824462890625
-22.353271484375 -12.65771484375 9.30029296875
7.59423828125 17.184326171875 -53.10546875
-22.923095703125 -32.578125 38.2646484375
-22.830322265625 2.235595703125 1.87451171875
-20.9365234375 36.27783203125 -47.102294921875
-22.86962890625 5.700927734375 -1.046875
-22.60009765625 -7.76171875 1.2255859375
-22.261474609375 -13.88330078125 3.92919921875
-1.266357421875 25.731201171875 -47.895751953125
-21.96337890625 -17.7568359375 1.96142578125
2.6650390625 18.743896484375 -55.1689453125
-22.58984375 -5.15625 1.762939453125
-22.163818359375 -2.947998046875 -3.864501953125
-22.748779296875 0.931640625 -0.5078125
-23.31298828125 11.2744140625 -6.49462890625
-22.51025390625 -5.55126953125 -3.521484375
-22.38525390625 -0.796142578125 -1.387451171875
-22.592041015625 -29.5830078125 44.24365234375
-22.93310546875 8.721435546875 -2.768310546875
-16.8291015625 36.662353515625 -45.1796875
-22.634765625 11.309814453125 -3.6455078125
-22.667724609375 -31.36962890625 43.069580078125
-21.764404296875 -23.584716796875 -7.374267578125
-19.0849609375 27.4755859375 -52.097412109375
-22.552001953125 -7.261962890625 -5.761474609375
-22.964111328125 -30.87451171875 41.443603515625
-22.64208984375 5.25244140625 -4.70654296875
-22.03662109375 -23.248779296875 -4.27099609375
3.970703125 16.7333984375 -56.724365234375
10.25146484375 13.98291015625 -56.2998046875
-15.479248046875 -32.25146484375 52.640625
0.88330078125 19.629638671875 -32.7333984375
-15.631591796875 37.518798828125 -43.538818359375
-22.5146484375 -4.79296875 13.5048828125
8.48095703125 13.160888671875 -58.869873046875
-22.28173828125 -14.90966796875 12.83837890625
-13.39404296875 13.552490234375 -57.44580078125
-20.78759765625 -31.8876953125 47.623291015625
-22.513671875 -6.101318359375 11.731201171875
-12.88916015625 28.19677734375 -51.885986328125
-7.35498046875 28.162109375 -50.1669921875
-3.399658203125 21.572509765625 -54.842529296875
5.134765625 11.15966796875 -61.6396484375
13.2333984375 11.24853515625 -56.727294921875
-11.91259765625 30.683837890625 -49.603271484375
-22.901611328125 -13.702392578125 18.806884765625
7.8349609375 10.783203125 -61.3271484375
-12.94873046875 32.374267578125 -48.267333984375
-22.73291015625 3.961669921875 -2.879638671875
-3.50537109375 26.943603515625 -48.650634765625
-9.24365234375 31.9716796875 -46.0732421875
-22.678466796875 -17.658447265625 17.4482421875
-22.878662109375 -31.12939453125 35.68310546875
-0.439697265625 23.251953125 -34.858154296875
-22.4521484375 -12.274658203125 12.957275390625
-22.240478515625 -15.908935546875 19.434326171875
-22.39892578125 -7.89697265625 15.842529296875
3.83740234375 19.16650390625 -53.588623046875
-13.62255859375 22.064208984375 -54.819091796875
-5.603515625 -24.822998046875 46.964111328125
-23.220458984375 23.029052734375 -52.39794921875
-22.674560546875 0.054931640625 9.41162109375
-22.555419921875 -9.519775390625 2.96142578125
-20.408447265625 25.850341796875 -52.57958984375
-22.154052734375 -9.0888671875 4.350830078125
-22.582275390625 -6.0849609375 9.415283203125
-15.68212890625 -28.8681640625 46.333251953125
-22.564697265625 -5.198974609375 8.201904296875
1.037109375 23.2529296875 -49.777587890625
-22.81640625 -2.156005859375 13.74462890625
13.015625 -25.312744140625 46.123779296875
-22.49853515625 -9.19287109375 12.955322265625
-22.627685546875 -3.908203125 12.400634765625
-5.432373046875 29.018310546875 -47.607177734375
-22.2109375 -17.71044921875 -0.7265625
-21.897216796875 -18.29931640625 7.19091796875
-22.567626953125 -2.536376953125 -0.62060546875
-22.67626953125 2.246337890625 8.197265625
-22.264404296875 -5.56494140625 -0.848876953125
-22.603271484375 3.104248046875 -0.08740234375
-22.1337890625 -18.03076171875 -5.98095703125
11.7294921875 -17.397216796875 -16.180908203125
-20.550048828125 33.32763671875 -48.936767578125
-9.299072265625 19.9873046875 -56.194091796875
0.679443359375 25.154052734375 -39.03857421875
-22.833984375 -32.7275390625 42.616455078125
-21.52294921875 32.09130859375 -49.707275390625
-23.843994140625 -33.362060546875 46.1748046875
0.03125 18.728271484375 -56.57666015625
-16.461181640625 18.0263671875 -55.5927734375
-16.385498046875 35.797607421875 -46.051025390625
7.740966796875 18.48974609375 -47.060791015625
0.5576171875 25.442138671875 -43.1572265625
-23.234130859375 -2.527099609375 -6.37353515625
-21.798095703125 -18.158203125 0.65380859375
-23.332275390625 6.093017578125 -7.550537109375
-18.13623046875 21.723876953125 -53.805419921875
-22.33837890625 20.961181640625 -53.0634765625
12.3623046875 -16.575927734375 -15.102294921875
-18.912109375 32.0380859375 -49.705078125
-19.70849609375 38.38818359375 -44.9736328125
7.552490234375 18.441162109375 -49.4892578125
-9.177734375 29.837158203125 -49.220703125
-22.141845703125 -20.283203125 -1.91064453125
-17.435546875 38.8154296875 -43.138916015625
4.353759765625 17.543701171875 -55.524658203125
11.96533203125 8.083740234375 -61.175048828125
-8.15185546875 10.735595703125 -59.52978515625
12.4912109375 13.351806640625 -45.855712890625
-23.629150390625 -5.123291015625 -6.563720703125
4.563720703125 21.283447265625 -47.52490234375
-6.627197265625 17.9501953125 -57.287841796875
-2.827880859375 14.72412109375 -59.28125
-22.39990234375 -8.29052734375 11.062744140625
7.501220703125 18.1708984375 -43.200439453125
-17.413330078125 33.262451171875 -48.8408203125
-22.10009765625 -21.215087890625 37.923095703125
-21.19091796875 23.402099609375 -52.9638671875
-23.009033203125 7.91748046875 5.469482421875
5.051513671875 20.59326171875 -42.71044921875
5.033935546875 20.9453125 -44.79443359375
-23.583251953125 25.919921875 -51.63232421875
-22.23095703125 -17.48974609375 9.85107421875
-22.343017578125 -10.0322265625 9.8466796875
-0.8271484375 23.218505859375 -51.842529296875
-22.810302734375 7.46435546875 2.951171875
-22.01611328125 12.205078125 -1.31884765625
-17.2939453125 39.28662109375 -41.677734375
-15.200927734375 24.94189453125 -53.60107421875
-19.940185546875 42.324951171875 -40.08740234375
-22.99072265625 -27.052001953125 35.1025390625
3.08349609375 22.047119140625 -49.400390625
-13.3046875 -28.9658203125 52.974365234375
2.86474609375 21.208251953125 -51.26953125
9.340576171875 13.430908203125 -39.98876953125
-13.83447265625 -26.067138671875 46.358154296875
-1.35791015625 21.166748046875 -54.4560546875
-22.801513671875 -24.90087890625 39.29296875
-22.545166015625 -6.910400390625 3.50048828125
-22.694580078125 -22.096435546875 35.996337890625
-22.2490234375 -8.61279296875 0.341552734375
-5.75048828125 10.33837890625 -60.423095703125
-7.756103515625 14.334228515625 -58.87744140625
-10.40771484375 14.751953125 -57.790283203125
-9.14794921875 28.59130859375 -50.264404296875
-12.620361328125 15.568603515625 -57.064208984375
-21.891845703125 27.94775390625 -51.4365234375
-22.313232421875 -6.84765625 -3.101318359375
-21.942626953125 39.6943359375 -44.76904296875
5.9990234375 20.1337890625 -45.081787109375
0.72314453125 25.8837890625 -41.726318359375
-10.927734375 34.495849609375 -44.723388671875
-2.845458984375 25.27001953125 -50.7236328125
7.869384765625 15.559814453125 -55.86328125
13.6142578125 45.203369140625 -55.466064453125
-3.084716796875 22.810791015625 -53.067626953125
-22.37255859375 -9.432861328125 -4.165771484375
-22.435302734375 -25.76416015625 38.318359375
2.9814453125 21.21142578125 -34.04052734375
6.7412109375 9.985595703125 -62.428955078125
-22.224609375 -10.723876953125 -4.278564453125
12.419921875 13.22802734375 -54.5458984375
-22.14599609375 -6.872314453125 0.22509765625
-22.329345703125 -17.126220703125 13.51220703125
12.14990234375 14.485595703125 -49.2060546875
-6.26904296875 30.30126953125 -45.891357421875
-13.714599609375 23.69384765625 -54.254150390625
-22.2822265625 -14.213134765625 -2.448974609375
-22.855224609375 4.382568359375 -5.655517578125
6.263427734375 14.7392578125 -58.0751953125
10.912109375 12.39794921875 -57.841796875
-2.4052734375 9.5517578125 -61.56982421875
-14.45068359375 29.884033203125 -50.654541015625
13.4423828125 12.868896484375 -52.340087890625
0.102294921875 25.369384765625 -45.91162109375
-13.916015625 19.2255859375 -55.573974609375
11.94970703125 -15.454345703125 -10.2314453125
-16.305908203125 15.59765625 -55.684814453125
-22.532958984375 -23.57177734375 40.91064453125
0.360595703125 23.604248046875 -36.618896484375
-8.820068359375 24.462158203125 -53.566650390625
-17.168701171875 20.886962890625 -54.558349609375
-4.224365234375 28.61376953125 -47.039306640625
-22.923095703125 -33.599609375 41.4453125
-15.3759765625 -31.56396484375 46.068359375
-12.522216796875 24.906494140625 -53.68115234375
-0.679931640625 13.921875 -59.9892578125
1.55029296875 18.330810546875 -56.2861328125
-22.509521484375 -10.52978515625 14.181884765625
-14.7783203125 21.668212890625 -54.921142578125
-23.205078125 -7.698974609375 -6.900390625
-22.56591796875 -17.615966796875 15.53662109375
-22.478271484375 -0.3583984375 -5.347900390625
0.97216796875 21.205078125 -34.977294921875
-20.492919921875 41.850830078125 -41.750244140625
-11.6494140625 13.1474609375 -57.80224609375
1.5966796875 24.171875 -45.06396484375
-4.655029296875 24.84716796875 -52.325927734375
-6.567626953125 11.53515625 -59.787841796875
-1.711669921875 25.28759765625 -49.593017578125
-22.275146484375 -10.43896484375 7.42236328125
-7.645263671875 20.380859375 -55.993408203125
-22.316162109375 -13.07666015625 8.088134765625
-18.58154296875 -31.723876953125 46.067626953125
-22.762939453125 -6.588134765625 16.762939453125
-22.771240234375 -2.561279296875 4.8154296875
-17.08935546875 25.384033203125 -53.136474609375
-8.2919921875 26.51123046875 -51.9638671875
-20.67236328125 43.695556640625 -37.91064453125
1.165771484375 22.001953125 -51.928466796875
-17.9404296875 36.6630859375 -45.852783203125
2.0537109375 9.964111328125 -62.140869140625
8.813232421875 15.571044921875 -55.1220703125
5.239013671875 19.6064453125 -51.169189453125
-22.20654296875 8.344970703125 3.565673828125
-22.83544921875 -32.451171875 47.734375
-13.42138671875 17.603271484375 -55.945556640625
-22.46142578125 -3.85693359375 3.382080078125
0.81884765625 23.561279296875 -38.0751953125
-22.697998046875 -1.241455078125 1.2216796875
12.1845703125 12.973876953125 -44.5439453125
9.0908203125 11.9765625 -59.86083984375
-15.451904296875 -34.075439453125 52.641845703125
0.79931640625 24.716552734375 -40.193115234375
-10.8076171875 23.2529296875 -54.518310546875
-22.55615234375 0.053955078125 12.278076171875
4.23193359375 21.74169921875 -45.169189453125
5.296875 18.364501953125 -53.76513671875
4.05126953125 20.39453125 -51.7314453125
-13.0546875 20.022216796875 -55.755859375
-22.679443359375 -1.70361328125 10.62890625
-22.884521484375 -0.381591796875 5.474609375
-15.691650390625 -33.4287109375 47.056396484375
-22.89111328125 -0.824462890625 8.4365234375
9.4658203125 15.001953125 -41.699462890625
-22.740478515625 4.4404296875 9.408935546875
-22.46826171875 10.02978515625 -2.04345703125
9.071044921875 16.94482421875 -44.52978515625
-22.69677734375 -3.00634765625 7.10888671875
-22.155517578125 -14.333984375 5.013427734375
-22.607666015625 0.93408203125 -3.525390625
-22.9990234375 4.8447265625 1.989013671875
7.1533203125 18.418212890625 -50.69921875
11.095947265625 13.396728515625 -42.562255859375
-22.510009765625 -26.935546875 47.32666015625
-19.704345703125 39.68994140625 -43.416748046875
10.034423828125 14.78515625 -55.11279296875
-22.2724609375 -19.359130859375 -4.691650390625
-23.080810546875 7.016357421875 1.448486328125
9.202392578125 13.97265625 -56.94873046875
-22.57763671875 -23.68994140625 45.418212890625
-20.1591796875 29.983642578125 -50.761474609375
-22.667236328125 -24.574462890625 44.24072265625
-22.626953125 -26.303466796875 41.04443359375
-23.0302734375 -27.639404296875 39.557373046875
-22.79345703125 -34.4267578125 39.429931640625
-23.291259765625 8.672607421875 -8.193115234375
-19.6298828125 -30.009765625 47.72802734375
-16.484375 -30.684326171875 45.24169921875
6.091552734375 15.946044921875 -56.42919921875
-22.864501953125 5.72509765625 3.609619140625
6.255126953125 -18.01611328125 -16.165771484375
8.28076171875 -17.93505859375 -16.34619140625
-22.168212890625 -16.015869140625 1.53759765625
-22.25634765625 36.72216796875 -47.099609375
-21.54052734375 34.60888671875 -48.16455078125
-0.30908203125 26.2333984375 -44.010009765625
-22.121337890625 -13.8291015625 0.88232421875
-22.12255859375 -20.32275390625 -0.1884765625
-6.128173828125 24.44091796875 -53.177001953125
1.767822265625 23.6962890625 -47.80419921875
12.576904296875 12.033447265625 -56.1875
-22.09375 -14.16552734375 -4.921630859375
-17.001708984375 34.952880859375 -47.110107421875
12.1181640625 10.040771484375 -59.820556640625
1.850830078125 23.0966796875 -40.010986328125
-2.546630859375 24.4453125 -51.473876953125
-14.98828125 -32.30029296875 54.747802734375
-15.518798828125 -33.9384765625 48.82177734375
-14.154541015625 -27.46875 47.3447265625
-22.41845703125 -22.2021484375 40.778076171875
-22.419189453125 2.23291015625 -4.286376953125
-9.402587890625 10.330810546875 -59.545166015625
-22.527587890625 -29.203125 46.736328125
-10.869140625 32.38330078125 -46.834716796875
-19.478271484375 31.21240234375 -50.28125
1.8408203125 20.8125 -34.116943359375
-22.246826171875 30.433837890625 -50.669921875
1.007568359375 21.17431640625 -53.326171875
-7.215087890625 15.938232421875 -58.315185546875
2.0859375 19.56591796875 -35.382568359375
12.5126953125 11.23486328125 -57.642822265625
-16.372314453125 -32.919189453125 44.52490234375
-19.29345703125 34.97705078125 -47.877685546875
-22.80078125 -8.978271484375 -7.2373046875
-15.44189453125 -31.70263671875 50.00048828125
-11.301025390625 33.23681640625 -45.970947265625
-9.225830078125 31.528564453125 -47.125244140625
-18.177978515625 31.18701171875 -50.279296875
4.840576171875 20.841796875 -49.305419921875
-23.199462890625 10.4716796875 -0.81982421875
-10.85498046875 -25.4716796875 45.906982421875
10.45947265625 15.720947265625 -46.22412109375
-1.063720703125 22.470947265625 -33.77392578125
-15.494384765625 27.41259765625 -52.369873046875
-6.568359375 23.626953125 -53.83544921875
-2.28955078125 19.54248046875 -56.227294921875
-11.312255859375 29.846923828125 -50.078125
-1.121337890625 9.947998046875 -62.09912109375
8.728515625 13.845703125 -38.934326171875
-22.44580078125 -28.462890625 37.739013671875
-6.031005859375 27.753662109375 -49.692138671875
13.412109375 12.890380859375 -50.775634765625
-4.650390625 -24.323974609375 46.6201171875
-18.3095703125 18.864501953125 -54.65966796875
-11.006591796875 26.941650390625 -52.35205078125
7.537353515625 18.536865234375 -44.805419921875
-15.232421875 23.71533203125 -54.07421875
6.836669921875 11.96142578125 -60.526123046875
-23.480712890625 41.009033203125 -44.078369140625
-0.51806640625 17.927001953125 -57.1357421875
2.307373046875 15.918701171875 -58.39404296875
-9.959228515625 12.338134765625 -58.623046875
-19.03662109375 40.564208984375 -41.859619140625
-22.799072265625 -11.148681640625 -6.063720703125
2.602783203125 22.281005859375 -40.1142578125
-22.4912109375 -9.245849609375 17.755859375
-21.67138671875 26.289306640625 -52.106201171875
-19.80908203125 19.69970703125 -54.004150390625
5.3310546875 13.534912109375 -59.819580078125
-10.203125 19.184814453125 -56.482177734375
-9.891357421875 20.80419921875 -55.731201171875
-22.463134765625 -13.61572265625 14.18359375
-22.57568359375 -6.12158203125 14.17919921875
8.81640625 16.580078125 -42.736083984375
-22.48193359375 -7.392578125 8.75
-22.438720703125 -5.247802734375 15.8408203125
-22.38427734375 -3.4765625 15.163818359375
-22.6025390625 3.133056640625 12.276123046875
-10.973876953125 17.1748046875 -56.8623046875
-1.472900390625 27.82470703125 -45.147216796875
-7.0966796875 21.590087890625 -55.42919921875
4.494873046875 20.632080078125 -41.183349609375
-23.446533203125 -33.71484375 43.869873046875
-5.19384765625 14.325927734375 -59.40234375
8.267333984375 11.5732421875 -60.6875
-5.809326171875 19.95849609375 -56.44384765625
-22.6416015625 -31.888916015625 44.967529296875
-22.750732421875 -5.65966796875 10.7509765625
-22.467529296875 -17.0400390625 8.87451171875
4.395751953125 21.5634765625 -35.808349609375
-15.419921875 -31.65625 48.68603515625
1.574462890625 22.742431640625 -38.1806640625
-22.6376953125 -29.01025390625 40.4619140625
-23.040771484375 -30.342529296875 38.976318359375
-22.758544921875 3.56640625 10.625732421875
-0.982666015625 22.386962890625 -53.24365234375
-23.484619140625 45.87548828125 -37.777099609375
7.293212890625 17.796630859375 -41.967041015625
-22.196533203125 -13.361328125 -1.3798828125
-22.75244140625 -3.456787109375 9.532958984375
13.37353515625 12.55322265625 -46.6044921875
3.5771484375 -18.12255859375 -15.959228515625
5.98486328125 20.087646484375 -47.151611328125
-7.60546875 18.359375 -57.018310546875
-22.76904296875 1.80615234375 7.106201171875
-12.060546875 19.607421875 -56.029541015625
-22.812255859375 -13.565673828125 10.325927734375
-22.2333984375 -23.2001953125 -6.39501953125
-22.38818359375 -14.454345703125 11.736083984375
-22.4228515625 -6.8662109375 -1.26904296875
-22.038818359375 -12.17138671875 6.642578125
-22.598876953125 5.7509765625 8.07666015625
-2.84033203125 18.73876953125 -56.7880859375
-22.56298828125 -13.234375 17.880615234375
0.646728515625 11.14404296875 -61.52490234375
11.71240234375 14.02685546875 -53.450927734375
-4.085205078125 18.7451171875 -56.799560546875
5.5771484375 18.78515625 -52.4677734375
-22.284912109375 -15.618408203125 3.38916015625
-22.764892578125 5.273193359375 0.026611328125
-3.405517578125 15.525146484375 -58.827392578125
-22.564208984375 -25.23291015625 35.290283203125
6.070556640625 17.84228515625 -39.861328125
-22.494873046875 -8.204833984375 2.30419921875
-22.802490234375 6.56494140625 -1.69775390625
-6.58837890625 29.4384765625 -47.70068359375
-22.85986328125 0.9296875 1.336181640625
4.62158203125 -17.28271484375 -14.683837890625
-14.86083984375 -30.417724609375 53.283447265625
-22.859619140625 8.307373046875 -0.51220703125
-22.61962890625 -6.457763671875 1.224853515625
-14.846435546875 -29.917724609375 51.96044921875
-22.529541015625 -3.846435546875 1.107421875
-22.450439453125 -2.544921875 2.1845703125
11.000244140625 15.29931640625 -47.718994140625
0.62109375 16.718505859375 -58.04541015625
-23.11572265625 10.8173828125 -8.946044921875
-22.511474609375 3.09716796875 -3.640625
-4.47021484375 8.35302734375 -61.41650390625
-14.138427734375 -28.97021484375 51.875
-22.114990234375 -11.70458984375 4.3525390625
6.976806640625 17.1669921875 -54.123779296875
-22.602783203125 -4.6923828125 -2.87451171875
-22.462890625 -10.755615234375 -2.336669921875
-7.16455078125 27.33349609375 -50.828125
-22.8837890625 -32.98291015625 36.97265625
-5.182373046875 28.169189453125 -48.840087890625
-15.322021484375 -32.988525390625 47.964111328125
12.503662109375 8.869140625 -60.626953125
7.644287109375 14.74462890625 -57.695068359375
10.989013671875 14.81298828125 -53.36328125
8.477294921875 14.757568359375 -56.864501953125
4.484619140625 15.1240234375 -58.643798828125
-22.194091796875 -15.55029296875 -0.19140625
1.0751953125 12.334228515625 -60.880126953125
-22.15087890625 -17.659423828125 -3.094970703125
-22.05615234375 -21.953125 -4.271728515625
-22.74755859375 6.983154296875 -4.06201171875
-14.654296875 36.233642578125 -44.31884765625
-13.53857421875 34.4970703125 -46.25244140625
-15.36572265625 -33.0849609375 50.59228515625
-23.553466796875 -32.2001953125 39.5029296875
1.3984375 9.170166015625 -62.605712890625
-15.00439453125 -26.11572265625 46.251708984375
-1.406005859375 24.03515625 -51.37646484375
9.812255859375 11.197509765625 -59.941650390625
-22.73193359375 34.6328125 -48.26025390625
-22.452880859375 -32.921630859375 48.650390625
-11.835693359375 -25.07275390625 46.251220703125
12.509765625 10.4443359375 -58.639892578125
11.895263671875 -24.479736328125 46.01953125
2.592041015625 11.150634765625 -61.5869140625
-23.48681640625 -33.30810546875 45.181640625
-21.786376953125 -18.418212890625 13.03076171875
-22.584228515625 31.6962890625 -49.900634765625
-20.0478515625 -29.13037109375 48.131103515625
4.192138671875 11.551025390625 -61.38134765625
-7.196533203125 30.713134765625 -46.175048828125
-23.202392578125 7.93505859375 8.003173828125
10.245361328125 -18.666259765625 -17.024658203125
-16.109130859375 30.73681640625 -50.37158203125
-22.328125 -16.77734375 18.31787109375
-2.07958984375 17.125732421875 -57.89013671875
-19.406982421875 32.87939453125 -49.321533203125
-5.9912109375 26.0830078125 -51.767333984375
-20.350341796875 28.32568359375 -51.6240234375
-22.317138671875 -15.42626953125 17.080322265625
-14.0458984375 -29.045166015625 54.385009765625
1.279296875 20.014892578125 -33.619384765625
-22.84130859375 -10.13037109375 16.886962890625
-22.73876953125 -5.23193359375 12.521728515625
-6.980712890625 9.13916015625 -60.439208984375
11.195068359375 11.8251953125 -41.050048828125
-22.03955078125 11.785888671875 -0.132080078125
-3.876220703125 25.678466796875 -50.9140625
-22.45068359375 -14.856201171875 9.420654296875
-22.129638671875 -12.226318359375 10.277099609375
-22.693115234375 -7.918701171875 17.3203125
-16.673095703125 29.91455078125 -50.945556640625
-22.50830078125 -11.452392578125 17.2001953125
-22.36962890625 -16.12451171875 6.998779296875
-22.176513671875 -18.27783203125 5.67626953125
-3.83837890625 20.763427734375 -55.4970703125
-22.592529296875 -8.3212890625 13.627685546875
-14.649658203125 -28.3740234375 46.572509765625
-21.627197265625 -30.128662109375 48.430908203125
-22.090087890625 -16.143310546875 8.517822265625
-22.666015625 4.8251953125 -3.52783203125
-22.788330078125 2.247314453125 10.07763671875
-22.415283203125 -11.400146484375 13.5087890625
-22.87939453125 -1.274169921875 13.191650390625
-22.480224609375 -15.811279296875 13.632080078125
-21.36376953125 9.616455078125 -0.70556640625
-22.5146484375 -28.80517578125 48.64794921875
-15.6181640625 -27.9365234375 45.613525390625
-12.68994140625 -27.0009765625 49.0771484375
-22.756591796875 1.37060546875 11.8466796875
-22.656005859375 -14.387451171875 7.234130859375
-22.969970703125 10.83544921875 -7.36181640625
-22.5615234375 -16.527099609375 4.823974609375
-12.722900390625 23.67578125 -54.531005859375
-22.701416015625 -30.110107421875 46.2802734375
-17.90576171875 -32.121337890625 45.40087890625
-21.895263671875 -22.852783203125 -2.672119140625
4.427734375 18.6923828125 -37.926025390625
-23.05712890625 -24.832763671875 36.38818359375
2.96875 22.474609375 -48.275146484375
6.412353515625 19.360107421875 -43.85595703125
-22.971435546875 6.617919921875 7.221435546875
3.936767578125 21.239501953125 -49.586669921875
-22.791015625 -0.37451171875 1.8759765625
-22.701904296875 -29.095458984375 43.068359375
-22.606689453125 -6.9326171875 5.904541015625
1.6416015625 19.955810546875 -54.343505859375
-22.208251953125 -9.55419921875 6.7587890625
-12.791748046875 34.51708984375 -45.29248046875
-22.48046875 -9.98095703125 5.245361328125
-3.709228515625 16.72998046875 -58.092041015625
5.48681640625 9.192626953125 -62.9013671875
-22.23876953125 -25.598388671875 48.968994140625
-22.693603515625 -14.5390625 16.211669921875
-22.769775390625 3.539794921875 1.21875
-10.293212890625 26.1083984375 -52.915283203125
-22.28955078125 -11.228515625 0.996337890625
-21.93017578125 -31.504150390625 48.109130859375
-22.30029296875 -21.5791015625 -2.330078125
-22.75048828125 3.0986328125 -1.69580078125
-22.446533203125 -25.54150390625 46.599853515625
-22.584228515625 -3.885009765625 8.201171875
-22.37353515625 -12.998046875 2.846923828125
4.739501953125 21.315673828125 -46.114501953125
9.625732421875 -25.879150390625 45.242431640625
-23.33984375 -32.90673828125 46.954345703125
-15.25439453125 -33.12158203125 51.7763671875
-22.644775390625 1.366455078125 -2.343994140625
-12.769775390625 14.35693359375 -57.43994140625
7.5126953125 15.840087890625 -39.494140625
8.12890625 17.37060546875 -43.2041015625
-16.19140625 31.572265625 -49.79833984375
-13.732421875 15.979248046875 -56.699462890625
-22.873046875 -24.520263671875 41.892822265625
-21.708251953125 -17.617919921875 17.149658203125
-23.405029296875 44.51611328125 -39.954345703125
12.751220703125 13.68310546875 -50.223388671875
-14.048583984375 -28.447265625 49.83203125
-22.685546875 6.122314453125 -3.528564453125
-22.559814453125 1.797607421875 -5.8798828125
-22.61474609375 -5.114013671875 -4.5869140625
1.768798828125 17.97265625 -34.015869140625
12.78173828125 13.713134765625 -48.185302734375
-22.54833984375 -4.24462890625 -5.232421875
-22.8408203125 -23.494140625 37.416748046875
-22.640380859375 10.427490234375 -5.3544921875
-18.2802734375 28.289306640625 -51.713134765625
-15.21630859375 -31.16259765625 47.8291015625
-5.636962890625 22.79736328125 -54.578125
-22.458740234375 -28.85693359375 35.87060546875
10.587646484375 15.340087890625 -45.28759765625
10.866455078125 13.99853515625 -55.289306640625
-22.5234375 -27.939208984375 35.2919921875
-22.603271484375 -18.895263671875 -6.701904296875
-14.482177734375 -28.421142578125 48.333984375
-14.825927734375 -30.479248046875 55.2060546875
-15.48828125 -32.933837890625 46.202392578125
-22.348876953125 -8.987060546875 -5.3427734375
10.625 14.579345703125 -43.219482421875
-12.859130859375 33.220458984375 -47.31005859375
-9.40087890625 16.35546875 -57.593994140625
-9.123291015625 -24.950439453125 46.066162109375
-22.711181640625 -33.103759765625 40.59619140625
13.308837890625 12.451171875 -54.265380859375
-13.122314453125 25.73486328125 -53.212158203125
-18.89794921875 24.591064453125 -53.239990234375
11.91943359375 14.1337890625 -46.414794921875
11.303955078125 12.805419921875 -56.65478515625
-7.950439453125 9.1357421875 -60.1748046875
-15.326904296875 -33.32666015625 44.76611328125
-23.0029296875 5.676025390625 -5.54296875
-8.272216796875 -25.806640625 45.85546875
-8.0400390625 -23.99169921875 45.59033203125
-5.38037109375 15.131591796875 -58.757568359375
7.045654296875 13.14697265625 -59.706298828125
-22.553955078125 -9.6630859375 15.410400390625
-22.849365234375 -29.50146484375 41.310546875
-6.245361328125 -24.38427734375 46.330322265625
-15.2802734375 -29.8896484375 50.45556640625
-3.862060546875 9.149169921875 -61.407958984375
-4.9541015625 -25.224853515625 46.304443359375
-11.247802734375 24.890869140625 -53.674072265625
3.19580078125 17.932861328125 -35.786376953125
-3.807861328125 -25.177490234375 46.40966796875
-21.599365234375 -16.785400390625 20.060791015625
-15.84521484375 37.078369140625 -44.409912109375
-6.013671875 9.142578125 -60.70263671875
-8.12939453125 12.735595703125 -59.066650390625
-22.385009765625 -23.15625 42.666259765625
12.12109375 14.45361328125 -51.24072265625
-14.79296875 35.361572265625 -45.766845703125
-22.793701171875 -14.523681640625 15.1015625
-22.780029296875 -0.388427734375 11.29736328125
-22.431396484375 -22.609619140625 38.89794921875
-22.790283203125 5.300537109375 5.897216796875
-23.62255859375 38.038330078125 -46.027587890625
-22.65869140625 -26.6494140625 37.2880859375
9.123046875 -25.034912109375 45.759765625
-0.05419921875 9.556396484375 -62.447265625
-23.5888671875 -29.768798828125 34.467041015625
-21.11279296875 40.994873046875 -42.822021484375
-22.668212890625 -30.639404296875 34.845703125
-22.9521484375 -2.142822265625 9.103271484375
-22.823486328125 0.053955078125 7.77099609375
-12.20361328125 26.134521484375 -52.924072265625
-22.500732421875 -1.243408203125 3.38037109375
4.297607421875 19.478515625 -38.88525390625
10.640625 11.21044921875 -59.115478515625
-4.545654296875 30.2919921875 -45.230224609375
6.7724609375 -25.578857421875 45.6806640625
-22.393798828125 -13.650390625 16.523193359375
-20.304443359375 23.79541015625 -53.15087890625
7.142333984375 17.98193359375 -52.73828125
-21.606689453125 -19.029052734375 1.076416015625
-8.031494140625 31.967529296875 -45.503173828125
-1.60693359375 8.76123046875 -62.19775390625
5.484130859375 19.037353515625 -40.4287109375
-18.556884765625 35.816162109375 -46.9140625
-22.285400390625 -9.476318359375 -0.195068359375
-22.42529296875 -28.222412109375 44.697998046875
-9.144775390625 23.64208984375 -54.320068359375
-22.321533203125 -10.338623046875 -0.73095703125
-5.188720703125 17.135498046875 -57.9228515625
-22.48583984375 -4.707275390625 -0.082763671875
-22.287841796875 -15.75830078125 11.067138671875
-15.382568359375 31.9765625 -49.4150390625
-22.729248046875 -0.369873046875 -0.5068359375
-21.9072265625 -18.3623046875 10.161376953125
-22.504638671875 -4.697021484375 -1.8056640625
-22.5673828125 -9.93505859375 1.22705078125
-8.709228515625 22.01123046875 -55.16064453125
-4.00537109375 29.04052734375 -46.1845703125
5.86083984375 19.395751953125 -42.336181640625
-21.58984375 -24.09912109375 -4.0791015625
-22.905517578125 4.830810546875 -1.58203125
-3.352294921875 27.788818359375 -47.230712890625
-22.6025390625 9.148681640625 -3.644287109375
-22.38818359375 -11.217041015625 -0.078857421875
-22.53076171875 -2.96435546875 -1.806640625
-22.588134765625 0.496826171875 5.782470703125
-22.56201171875 -1.250244140625 5.783447265625
-22.4794921875 -20.640625 -5.640380859375
2.9951171875 9.96630859375 -62.3984375
-12.39990234375 26.96484375 -52.2626953125
-22.887939453125 39.296630859375 -45.056640625
-15.21484375 17.204345703125 -56.05419921875
-22.13671875 -12.0498046875 -2.0302734375
0.315185546875 22.808349609375 -36.0361328125
-22.490478515625 1.371337890625 3.919921875
-22.403564453125 -2.0849609375 -4.815673828125
-22.33544921875 -17.97119140625 11.73828125
13.175537109375 -16.96435546875 -14.733154296875
-23.38623046875 4.37158203125 -6.90771484375
-14.25 31.12744140625 -49.796142578125
-22.149658203125 -12.457763671875 -3.7451171875
-2.138916015625 13.923583984375 -59.824462890625
12.154541015625 10.63134765625 -41.342041015625
-22.699462890625 23.84423828125 -52.30029296875
-22.15478515625 -20.676025390625 -3.626220703125
-22.58935546875 8.755859375 0.984130859375
-22.6904296875 -9.849853515625 -6.17724609375
-3.15576171875 23.625 -52.506591796875
-22.41748046875 -21.5146484375 -5.108642578125
0.01904296875 19.542724609375 -55.5595703125
-22.749755859375 2.65673828125 -6.2978515625
-12.446044921875 29.019775390625 -51.220458984375
-20.9716796875 35.438720703125 -47.585693359375
-7.072509765625 -24.874755859375 46.5419921875
3.023193359375 21.0986328125 -38.87109375
-21.2421875 -18.699951171875 6.6015625
-7.377197265625 -25.77783203125 46.2255859375
2.84375 13.13232421875 -60.30810546875
-22.7236328125 -33.490234375 38.7158203125
-2.154052734375 21.562255859375 -54.833740234375
-22.54248046875 10.43896484375 -4.291259765625
-22.258544921875 0.07568359375 -4.3984375
-1.68310546875 20.3564453125 -55.20166015625
-4.27685546875 19.954833984375 -56.151611328125
-22.572998046875 -11.15478515625 -5.114990234375
1.599853515625 24.228515625 -42.97314453125
-21.884033203125 -16.3251953125 -4.502197265625
-22.876953125 -5.97265625 -6.06689453125
3.153076171875 22.587158203125 -43.7431640625
-22.480712890625 -12.00634765625 -5.758544921875
-2.869873046875 29.46142578125 -45.046630859375
-21.982421875 -16.308349609375 -5.564453125
-23.1640625 1.356689453125 -6.488525390625
-23.61474609375 7.815673828125 -7.32666015625
-12.11181640625 -24.188720703125 46.516357421875
3.0859375 21.6240234375 -50.42919921875
-11.239990234375 15.966552734375 -57.14501953125
-7.260498046875 28.99658203125 -49.2197265625
8.6259765625 17.65771484375 -48.83642578125
-15.28271484375 20.457763671875 -55.0185546875
-23.323974609375 27.97314453125 -51.34423828125
-22.376220703125 -12.747314453125 15.290771484375
-18.345947265625 32.864013671875 -49.12890625
-14.724365234375 15.98583984375 -56.42626953125
1.02099609375 24.506591796875 -47.70947265625
-14.797607421875 19.63818359375 -55.392333984375
5.91796875 19.635009765625 -49.677490234375
-22.9033203125 42.74560546875 -41.92724609375
-22.21435546875 -12.722412109375 13.94140625
-5.211669921875 26.9169921875 -50.35205078125
8.83349609375 17.3271484375 -45.375244140625
4.6259765625 18.7744140625 -53.213623046875
3.217041015625 19.91943359375 -37.429443359375
-1.7783203125 15.92236328125 -58.624267578125
-22.646240234375 3.11328125 4.03564453125
9.727294921875 16.5166015625 -46.12841796875
-18.490478515625 29.536376953125 -51.045166015625
-22.689697265625 46.755615234375 -36.298583984375
-0.355224609375 -18.26416015625 -16.312744140625
9.121337890625 17.24267578125 -49.766357421875
-10.468994140625 17.977294921875 -56.7646484375
-20.0341796875 25.022216796875 -52.864013671875
3.50732421875 18.340576171875 -55.34716796875
-21.360107421875 38.400390625 -45.744140625
-16.47119140625 29.075927734375 -51.612548828125
2.694091796875 -17.74658203125 -15.721923828125
3.82177734375 22.089111328125 -47.43017578125
11.677001953125 12.212646484375 -42.0
-16.658203125 27.021240234375 -52.469482421875
11.34130859375 14.841064453125 -51.6123046875
-17.6337890625 23.345458984375 -53.70849609375
12.607177734375 11.8017578125 -43.325439453125
-18.507568359375 22.546875 -53.5224609375
-14.209228515625 27.393310546875 -52.36474609375
6.842041015625 19.30517578125 -46.308349609375
5.192138671875 17.556884765625 -54.688720703125
-5.841064453125 12.331298828125 -59.871337890625
-3.78955078125 11.53564453125 -60.489013671875
9.258056640625 12.7763671875 -58.496826171875
-20.406005859375 37.9755859375 -45.4560546875
6.551513671875 18.6015625 -41.866455078125
12.1953125 12.824951171875 -55.3701171875
9.428466796875 -16.681640625 -15.18408203125
9.8720703125 10.411865234375 -60.483642578125
-22.4736328125 -12.072509765625 -1.151123046875
10.859130859375 -25.82275390625 45.218017578125
-16.829833984375 18.843017578125 -55.3125
-22.358154296875 -13.142333984375 12.2861328125
-22.677734375 -27.291259765625 43.654541015625
-22.273681640625 -10.05810546875 12.1640625
-21.2548828125 10.914794921875 -0.8212890625
-2.064208984375 22.805419921875 -52.875732421875
-22.93505859375 2.667236328125 0.796630859375
5.458251953125 11.95263671875 -60.908935546875
-22.729736328125 -1.275390625 14.850830078125
-12.625732421875 21.6455078125 -55.0947265625
4.677490234375 17.4990234375 -37.062744140625
-22.276611328125 -7.2685546875 -4.280517578125
-22.80517578125 -28.056884765625 38.712646484375
9.872802734375 15.757080078125 -44.1572265625
4.160400390625 14.326171875 -59.378662109375
-13.763671875 30.29345703125 -50.177001953125
-22.6396484375 -4.33837890625 10.630615234375
-22.928466796875 33.372314453125 -49.1298828125
-23.524658203125 18.945068359375 -52.10888671875
13.01806640625 -16.186767578125 -12.913818359375
-22.6201171875 -27.061767578125 35.99951171875
-23.04443359375 12.551025390625 -7.891357421875
-22.79345703125 3.521728515625 -5.123779296875
0.79248046875 25.090576171875 -41.247802734375
-23.552734375 30.048095703125 -50.672119140625
-22.15234375 -7.724365234375 -1.497802734375
-22.52734375 -11.428955078125 15.411376953125
1.2333984375 -18.209228515625 -16.070068359375
6.158447265625 13.940185546875 -58.989013671875
-22.392578125 -12.97216796875 1.113037109375
2.589599609375 20.362548828125 -53.595947265625
-21.526611328125 42.310791015625 -41.447509765625
-16.265380859375 -34.364501953125 47.00390625
-21.968994140625 -13.369384765625 -0.423095703125
-21.412353515625 18.91015625 -53.249267578125
-22.07568359375 -13.03857421875 6.098876953125
-21.34326171875 30.001708984375 -50.860107421875
-19.8076171875 43.21875 -38.612548828125
-10.564453125 27.761962890625 -51.6884765625
-20.98046875 43.200439453125 -39.78173828125
-22.567626953125 40.559326171875 -44.278564453125
-15.884521484375 -31.562744140625 45.2958984375
-1.508544921875 26.5732421875 -46.66552734375
-9.17041015625 27.334716796875 -51.7783203125
-23.046142578125 -32.20166015625 40.275146484375
3.628662109375 19.11376953125 -37.241943359375
-20.01904296875 17.670166015625 -53.813720703125
-20.159423828125 39.261474609375 -44.095947265625
-12.408447265625 -26.941650390625 47.50244140625
0.619140625 24.935302734375 -46.859375
-16.631103515625 23.32763671875 -53.987548828125
-22.38232421875 -7.400146484375 9.844970703125
-9.075927734375 14.3427734375 -58.3349609375
-17.890380859375 38.38818359375 -43.816650390625
-7.7939453125 24.856689453125 -53.373291015625
-0.63623046875 14.718994140625 -59.530029296875
-22.711181640625 37.593505859375 -46.224853515625
-4.61279296875 22.792236328125 -54.384765625
-0.7236328125 13.125244140625 -60.447998046875
-18.59228515625 26.642822265625 -52.47705078125
-2.54736328125 27.38623046875 -46.852783203125
-0.49462890625 23.633544921875 -51.0927734375
-22.99951171875 -32.04345703125 35.8134765625
1.55419921875 13.926025390625 -59.777099609375
-18.265625 39.232666015625 -43.523193359375
-0.1884765625 25.79638671875 -45.151611328125
-22.229248046875 44.534423828125 -38.781982421875
-22.573974609375 -21.185302734375 35.865966796875
-22.134521484375 -11.68115234375 2.613525390625
-22.781494140625 44.055419921875 -40.45361328125
0.9033203125 24.968994140625 -45.535400390625
-16.030029296875 -27.06103515625 46.01220703125
-4.258056640625 21.9833984375 -54.662109375
2.119384765625 22.435546875 -50.150634765625
-20.23974609375 36.6904296875 -46.619873046875
-18.291748046875 20.904052734375 -54.18603515625
-18.775146484375 41.031494140625 -40.490966796875
10.705078125 11.835205078125 -40.09716796875
-6.111083984375 31.119873046875 -45.510498046875
-22.82666015625 4.42431640625 5.354248046875
-22.692626953125 -24.389404296875 37.286865234375
1.93994140625 23.732177734375 -46.389892578125
-19.613037109375 33.72705078125 -48.64794921875
-21.81494140625 24.646484375 -52.489013671875
-15.899658203125 22.09130859375 -54.55078125
-0.331298828125 20.3681640625 -54.26318359375
-21.609619140625 40.1318359375 -43.99072265625
-15.36767578125 -32.287353515625 53.829833984375
-9.503173828125 21.60791015625 -55.541015625
-10.7109375 -26.363037109375 45.775146484375
-0.8466796875 27.84765625 -44.10302734375
1.463134765625 19.1865234375 -34.303466796875
-10.849365234375 33.65869140625 -45.300537109375
-22.40771484375 -25.95947265625 45.28564453125
-22.426513671875 -8.22607421875 4.58447265625
9.870849609375 14.20751953125 -41.512939453125
-15.702880859375 32.8251953125 -48.649169921875
-22.165283203125 -8.140625 -3.214599609375
-12.64453125 33.655029296875 -46.447021484375
-13.3994140625 31.953125 -48.9365234375
1.84033203125 17.524169921875 -57.020751953125
9.84716796875 14.988037109375 -42.5537109375
-22.3466796875 -2.1015625 0.33740234375
-13.83544921875 32.806396484375 -48.0751953125
-8.537353515625 9.93408203125 -59.7197265625
-22.524169921875 -26.33251953125 42.21484375
7.113037109375 18.86865234375 -48.08935546875
-19.089599609375 37.529296875 -45.461181640625
-10.846923828125 22.43701171875 -54.98828125
-22.758056640625 -2.0888671875 -5.651611328125
-17.451171875 -28.4921875 46.1728515625
2.235595703125 20.740966796875 -37.127197265625
-21.828857421875 -14.980712890625 17.826904296875
-11.37158203125 31.9462890625 -47.98193359375
0.634521484375 24.362060546875 -38.459228515625
-5.963134765625 15.936279296875 -58.301513671875
-22.62890625 -23.9990234375 39.74365234375
7.9638671875 8.822998046875 -62.408935546875
-22.93017578125 4.4013671875 -0.394775390625
-22.334716796875 -18.48583984375 -5.223876953125
1.32421875 22.83203125 -50.526611328125
3.421630859375 21.983154296875 -35.5029296875
-10.59619140625 29.0068359375 -50.646728515625
-22.448974609375 -24.859375 38.317626953125
-23.14794921875 41.447998046875 -43.297607421875
-13.84814453125 -25.162841796875 46.357421875
-13.82080078125 -26.971435546875 46.358642578125
-9.3330078125 18.775634765625 -56.6611328125
-22.645263671875 -27.553466796875 37.28857421875
-23.518798828125 35.066162109375 -48.1630859375
-3.770263671875 23.204833984375 -53.538818359375
-22.429443359375 -17.108154296875 12.40869140625
-22.391845703125 -9.643310546875 14.060302734375
-13.896240234375 21.252685546875 -55.103515625
-13.6142578125 -28.473876953125 51.33349609375
-13.34912109375 22.875732421875 -54.53466796875
-17.119873046875 24.154052734375 -53.611083984375
-22.365234375 -3.387939453125 -3.103515625
-3.0283203125 28.64599609375 -45.42626953125
-10.11474609375 11.533203125 -58.99658203125
-11.84521484375 23.258544921875 -54.71337890625
-22.29052734375 -12.25048828125 11.614990234375
-16.081298828125 24.957763671875 -53.416015625
5.284912109375 12.744384765625 -60.275146484375
-7.728271484375 26.92236328125 -51.39599609375
-7.600341796875 15.137939453125 -58.5048828125
-18.88330078125 36.675537109375 -46.139892578125
-22.761474609375 -0.390869140625 13.070556640625
-0.2646484375 27.0517578125 -43.5341796875
-22.2578125 0.9384765625 12.588134765625
-15.5068359375 22.901611328125 -54.359375
7.703125 13.545654296875 -59.243408203125
-2.671630859375 27.82568359375 -45.712646484375
