42.3515625 7.099853515625 -44.06005859375
6.35009765625 15.9677734375 -33.745361328125
-14.092529296875 -47.853759765625 40.2021484375
-22.700927734375 -45.33740234375 35.340576171875
-0.4892578125 -4.293701171875 54.7939453125
-6.202880859375 -0.624267578125 60.374267578125
24.347900390625 8.137939453125 -36.78466796875
6.88525390625 28.7353515625 -32.31787109375
13.29150390625 20.570068359375 -33.508056640625
-7.93310546875 25.328369140625 -19.279052734375
3.1005859375 -35.982666015625 28.882568359375
-13.493408203125 -21.163330078125 62.918212890625
23.1640625 -20.237548828125 -2.832763671875
20.900634765625 1.935791015625 -39.74951171875
-13.545654296875 -41.772216796875 33.811767578125
-14.897216796875 -53.6767578125 42.247802734375
-36.194580078125 1.239501953125 19.097900390625
-13.06103515625 11.21728515625 -46.1533203125
-28.844482421875 -22.13330078125 3.517578125
18.31396484375 -16.979248046875 6.251953125
19.27001953125 -22.50732421875 0.009521484375
33.240234375 27.178466796875 -26.39111328125
-5.61328125 3.3486328125 -31.99609375
-29.135986328125 -14.31787109375 8.45751953125
-11.676513671875 5.356201171875 22.3447265625
-0.87646484375 8.716796875 -46.9609375
-1.984130859375 8.84521484375 -43.846923828125
26.051025390625 28.130859375 -29.0810546875
21.915283203125 -18.153076171875 2.685546875
2.828125 6.87158203125 -47.675048828125
-1.952880859375 6.39794921875 -30.37890625
-12.447509765625 -24.640869140625 45.6328125
-28.884765625 -19.446533203125 7.22021484375
12.5107421875 29.28076171875 -33.57763671875
-42.0693359375 11.3671875 25.45947265625
-13.80517578125 27.953125 -31.97412109375
-1.446533203125 23.82568359375 -23.732666015625
-11.57763671875 9.547607421875 11.29248046875
-14.30224609375 -28.713134765625 49.896484375
-33.9384765625 -1.203369140625 22.74267578125
-17.068115234375 -44.912109375 37.003173828125
32.466064453125 18.14404296875 -25.000244140625
-14.53076171875 -30.038330078125 46.79248046875
7.334228515625 33.278564453125 -25.64794921875
17.548583984375 7.0068359375 -42.467041015625
-0.4775390625 -26.648681640625 33.038330078125
-20.4599609375 -52.491943359375 42.423828125
15.79541015625 6.934326171875 -45.954833984375
-12.9931640625 -20.075439453125 49.236328125
18.732666015625 31.495361328125 -27.082763671875
26.197265625 13.4140625 -38.056884765625
24.615234375 28.0283203125 -18.380126953125
-5.24169921875 -9.09619140625 49.710205078125
30.590576171875 26.042236328125 -31.97314453125
-21.33203125 -23.713623046875 52.09130859375
-32.53271484375 -21.635986328125 8.398193359375
-12.98486328125 -36.47119140625 35.781982421875
-14.9560546875 -40.4208984375 39.566162109375
-6.5712890625 -0.019775390625 65.51953125
-40.291259765625 -0.358154296875 18.589111328125
8.324951171875 5.6943359375 -40.255615234375
1.39453125 -15.978271484375 44.255859375
7.91357421875 33.423583984375 -29.048095703125
-6.553955078125 -44.226318359375 41.671142578125
-7.529052734375 -38.544677734375 40.93603515625
30.0146484375 25.96044921875 -19.7060546875
-26.173095703125 -46.093994140625 43.700927734375
-13.519775390625 12.121337890625 9.287353515625
-12.1240234375 22.099365234375 -19.22998046875
15.43310546875 30.320068359375 -30.697021484375
-21.892578125 32.541748046875 -21.893310546875
37.0966796875 28.171875 -29.598388671875
-30.399658203125 -11.784423828125 11.70947265625
-6.65673828125 -10.1142578125 60.2666015625
-15.56201171875 -50.498779296875 43.78857421875
-10.6083984375 29.92236328125 -25.45458984375
-22.8369140625 -20.37939453125 54.66162109375
2.749755859375 -31.00146484375 31.350830078125
-0.423828125 -12.026123046875 46.27978515625
-7.003662109375 29.125 -27.66455078125
-9.2138671875 7.108154296875 -36.5927734375
-10.9951171875 -12.90576171875 59.66064453125
1.900146484375 26.068115234375 -30.852294921875
20.37109375 7.004638671875 -42.90478515625
-8.089111328125 29.238525390625 -15.599365234375
7.7744140625 6.7509765625 -45.803466796875
-18.173095703125 33.407958984375 -28.367431640625
20.992919921875 6.8818359375 -47.99853515625
39.28515625 5.76513671875 -40.747314453125
-6.389892578125 -13.907470703125 52.883056640625
-0.539306640625 28.29638671875 -17.813232421875
27.2841796875 8.83642578125 -47.4638671875
-14.98193359375 -43.37744140625 31.9609375
22.997314453125 3.876220703125 -34.015625
-29.3642578125 -25.449462890625 4.0146484375
-0.974609375 -18.860107421875 39.852294921875
-13.422607421875 -38.926025390625 43.567138671875
5.546630859375 -39.0 26.4384765625
9.675537109375 -34.581298828125 28.630615234375
3.740234375 7.2841796875 -42.264404296875
36.36328125 10.5986328125 -40.705322265625
-38.87841796875 7.417236328125 25.454833984375
26.06005859375 15.65771484375 -33.59619140625
8.630859375 -37.506591796875 26.1689453125
21.925048828125 8.1943359375 -44.978759765625
33.38720703125 25.88818359375 -32.75830078125
-43.129150390625 -19.57861328125 52.627685546875
-3.486083984375 24.66357421875 -20.0009765625
-37.472412109375 -0.583251953125 17.434814453125
22.067626953125 -20.482421875 -0.297119140625
-9.21484375 21.190185546875 -21.059326171875
25.771728515625 21.32470703125 -24.893310546875
11.6923828125 5.42529296875 -48.515380859375
-39.2998046875 7.037841796875 22.37353515625
8.27001953125 -0.311279296875 -35.405517578125
-13.8154296875 -32.104248046875 41.2880859375
-9.215087890625 -2.108642578125 68.484375
-11.90380859375 15.64013671875 2.85498046875
1.79541015625 9.024658203125 -28.734619140625
-10.28369140625 -13.99951171875 49.134521484375
37.398681640625 4.240234375 -31.07373046875
28.1611328125 4.46435546875 -51.10791015625
16.07666015625 28.04833984375 -24.01611328125
-11.666015625 7.782470703125 17.924072265625
24.57275390625 27.52978515625 -31.2841796875
-35.92578125 -8.704833984375 12.824951171875
20.33447265625 28.89404296875 -27.955078125
-11.601318359375 -32.8798828125 38.05419921875
-4.04150390625 4.267822265625 -36.811279296875
33.678466796875 9.223388671875 -38.587890625
-36.6318359375 3.734130859375 21.814208984375
22.8525390625 20.7294921875 -23.252197265625
5.126708984375 31.55322265625 -26.183837890625
-15.099853515625 8.152099609375 -37.3740234375
-9.88134765625 -9.591796875 44.84521484375
-13.690185546875 -18.802490234375 61.494384765625
29.682861328125 15.287841796875 -36.330322265625
-9.3173828125 -5.510009765625 64.853271484375
-10.865234375 -16.691650390625 60.589111328125
-2.181884765625 -5.916259765625 53.522216796875
39.646240234375 6.736328125 -43.198974609375
-24.328857421875 -33.469482421875 1.408935546875
-7.703857421875 6.680419921875 -51.74462890625
-29.94140625 -31.022216796875 1.508056640625
22.970947265625 9.474365234375 -39.621826171875
-12.970703125 -8.944091796875 44.269287109375
2.41015625 29.059326171875 -16.41845703125
18.2939453125 -20.466064453125 1.384033203125
32.087158203125 21.50341796875 -25.367919921875
2.8837890625 20.98046875 -33.7900390625
-14.239990234375 32.17041015625 -24.16943359375
12.9013671875 34.71533203125 -29.618408203125
40.078125 8.3037109375 -39.78662109375
-27.21826171875 -47.646240234375 41.8466796875
-8.310791015625 -12.135498046875 58.25634765625
-39.701904296875 9.642822265625 26.590087890625
13.1103515625 5.87158203125 -40.7373046875
-20.58447265625 -45.328125 33.61572265625
-13.022705078125 -44.59912109375 30.03515625
8.534423828125 -31.339599609375 33.1328125
3.911376953125 0.82177734375 -34.25732421875
-2.28515625 5.4384765625 -54.883544921875
-0.09130859375 5.3427734375 -51.027099609375
-10.343994140625 -10.023193359375 62.68505859375
-6.9560546875 24.020263671875 -23.316162109375
2.68115234375 -19.81298828125 40.0712890625
25.693359375 14.838623046875 -30.01318359375
-19.073486328125 29.393310546875 -19.2939453125
21.37158203125 5.712890625 -38.888427734375
9.279296875 28.58984375 -23.24853515625
21.69482421875 2.89892578125 -51.675048828125
3.08154296875 -37.835693359375 27.0830078125
-6.34228515625 8.1630859375 -47.601318359375
-12.16455078125 -28.244384765625 41.33984375
25.922119140625 23.796630859375 -20.94384765625
-0.394775390625 -8.332275390625 50.8125
19.27294921875 -17.686767578125 3.87109375
0.368408203125 -30.4755859375 29.123291015625
27.973876953125 10.3310546875 -39.37939453125
-13.24267578125 19.38671875 -16.20751953125
10.341796875 32.93603515625 -30.15185546875
13.049560546875 6.548828125 -46.66162109375
-14.70947265625 32.0517578125 -27.142333984375
-6.6357421875 -19.17919921875 44.483154296875
-13.8642578125 23.272216796875 -6.00244140625
-12.418212890625 10.099609375 13.955322265625
17.39404296875 28.956787109375 -31.717529296875
-6.826904296875 -41.526123046875 40.254150390625
-28.83984375 -26.50732421875 0.438720703125
-13.988525390625 14.854736328125 -15.245849609375
4.929931640625 26.49072265625 -21.060791015625
30.600341796875 29.517822265625 -14.79931640625
-38.353759765625 -4.43505859375 15.315185546875
26.959716796875 16.92431640625 -22.47216796875
-17.406494140625 32.89404296875 -21.978759765625
-31.60986328125 -24.29541015625 6.74560546875
32.58642578125 28.74462890625 -28.46142578125
-10.687744140625 26.548583984375 -11.8154296875
-12.5712890625 25.62060546875 -16.615966796875
4.350830078125 22.80224609375 -32.840087890625
37.30712890625 8.44189453125 -45.25732421875
-6.108642578125 -49.592529296875 42.331787109375
-6.44580078125 -19.0234375 39.440673828125
28.509033203125 16.78662109375 -33.34912109375
-21.82861328125 -22.31689453125 58.90380859375
-13.4677734375 -6.103271484375 38.7412109375
30.032470703125 28.4208984375 -18.09423828125
-13.559814453125 9.63037109375 -39.0732421875
-17.796630859375 -44.250244140625 32.98388671875
30.34326171875 15.127685546875 -32.04736328125
-36.850341796875 -14.91357421875 7.76220703125
8.48974609375 15.091796875 -36.396240234375
-5.359619140625 25.91796875 -18.99462890625
-38.07763671875 -9.69482421875 15.41943359375
-3.705810546875 22.48974609375 -21.266357421875
3.07763671875 -15.65185546875 46.279541015625
-43.963134765625 10.76708984375 24.005859375
28.02392578125 28.339599609375 -27.603515625
7.862548828125 26.684814453125 -33.263916015625
-11.60986328125 -10.407958984375 48.720703125
5.309326171875 33.200927734375 -28.243896484375
6.2119140625 2.968017578125 -32.51416015625
37.55419921875 6.711181640625 -35.666259765625
-3.54150390625 7.935302734375 -29.33837890625
-6.12060546875 -8.50830078125 52.450439453125
13.643310546875 26.12158203125 -21.8642578125
-13.625732421875 21.152099609375 -14.130126953125
-21.40087890625 30.86083984375 -20.201171875
-32.607421875 -2.421875 18.56396484375
-6.570556640625 -14.010986328125 47.5068359375
-0.830322265625 21.98974609375 -21.61865234375
-10.85302734375 5.774169921875 15.111328125
-32.571044921875 -4.08837890625 20.872314453125
3.9248046875 5.41015625 -31.5361328125
-15.136962890625 10.829345703125 -41.078857421875
32.805419921875 14.8583984375 -33.221923828125
-10.483154296875 -6.11181640625 41.209716796875
-6.957275390625 -0.468017578125 63.181396484375
21.52392578125 1.933837890625 -35.0048828125
-1.82470703125 7.494140625 -49.189208984375
16.685302734375 25.404052734375 -20.662841796875
24.179931640625 12.85302734375 -33.3037109375
-2.050537109375 28.68603515625 -14.060546875
-17.559814453125 -19.434814453125 55.32568359375
32.0185546875 29.616943359375 -17.4970703125
-41.07568359375 3.614013671875 19.45458984375
1.802978515625 -38.256103515625 25.014404296875
32.8525390625 11.705810546875 -38.0068359375
-6.33837890625 -4.83447265625 60.6083984375
1.990478515625 24.12255859375 -23.802490234375
-26.609130859375 -22.9228515625 2.7998046875
29.636474609375 9.57177734375 -44.03857421875
21.967529296875 5.5146484375 -36.123779296875
-11.964111328125 -19.880859375 66.82373046875
-1.45654296875 28.8466796875 -26.56689453125
-18.58154296875 -45.655517578125 38.877197265625
16.6005859375 -22.15869140625 -0.025634765625
24.24365234375 8.6513671875 -44.269775390625
26.022216796875 15.3427734375 -36.671142578125
-9.99365234375 9.66162109375 -39.130615234375
31.24560546875 9.888427734375 -42.133056640625
20.501708984375 0.951904296875 -37.28271484375
-28.338134765625 -18.4990234375 5.021240234375
-12.004150390625 -15.099609375 51.863037109375
-41.47119140625 7.92626953125 22.201171875
32.53271484375 9.1044921875 -46.400634765625
-20.88525390625 -21.768310546875 53.3271484375
-0.412109375 26.33251953125 -19.09033203125
-26.412353515625 -31.74853515625 1.174560546875
21.610107421875 24.912353515625 -20.26806640625
-37.6396484375 5.43603515625 26.23974609375
-13.8681640625 -18.462158203125 58.896240234375
-14.669189453125 -19.876220703125 50.8515625
-24.755859375 -23.010986328125 55.259521484375
-14.23291015625 -17.866943359375 52.900634765625
27.42333984375 25.364990234375 -19.99365234375
-24.535400390625 29.82080078125 -18.921142578125
-5.205322265625 28.68115234375 -24.62060546875
-12.129150390625 -15.584716796875 56.552978515625
-14.669189453125 -44.10595703125 35.9873046875
-4.435546875 -4.737548828125 56.911376953125
19.168212890625 -13.664794921875 9.8564453125
12.891357421875 -5.34423828125 -39.024169921875
4.157958984375 30.336181640625 -30.183349609375
-4.93212890625 21.072021484375 -22.61865234375
-7.382080078125 -5.166748046875 63.55615234375
23.881591796875 27.870849609375 -26.744140625
0.7041015625 7.011474609375 -30.082275390625
-17.955810546875 -45.905517578125 30.271484375
-13.793701171875 -23.436279296875 63.053466796875
38.280517578125 2.47265625 -34.098876953125
25.947998046875 19.951416015625 -22.422119140625
9.031982421875 6.86962890625 -43.881103515625
12.652099609375 6.85888671875 -44.33154296875
-13.09521484375 -27.430908203125 44.544189453125
15.240966796875 34.82421875 -28.53271484375
6.252685546875 -34.356689453125 31.575439453125
-9.498046875 9.29248046875 -49.1689453125
-6.16552734375 -20.460693359375 37.23486328125
38.224365234375 27.88134765625 -33.017578125
-6.60791015625 28.331787109375 -13.9794921875
-2.938232421875 28.63134765625 -17.0771484375
-7.533203125 -16.32275390625 50.93408203125
-7.42333984375 27.49658203125 -30.1259765625
-15.948974609375 -52.5625 44.650146484375
4.2646484375 -18.914306640625 43.2392578125
-4.04052734375 -6.544677734375 54.886962890625
21.294921875 8.238037109375 -40.667236328125
3.1015625 29.23876953125 -26.283203125
-6.08251953125 -9.553466796875 57.239501953125
32.501220703125 15.409912109375 -35.604248046875
34.904541015625 27.756103515625 -28.764892578125
27.4208984375 18.9453125 -23.871337890625
4.212890625 27.989013671875 -18.19580078125
-9.118896484375 11.39013671875 -45.463134765625
10.848388671875 29.81201171875 -32.09814453125
39.54638671875 5.78369140625 -35.21484375
-13.805908203125 28.13134765625 -21.074462890625
10.70556640625 18.545654296875 -34.432861328125
-37.813232421875 3.345703125 19.90283203125
5.064697265625 -35.08740234375 29.57373046875
-9.28955078125 -11.109375 39.417236328125
17.789306640625 29.909423828125 -16.2734375
7.63720703125 35.6298828125 -28.531494140625
-5.439697265625 -17.72998046875 41.258056640625
-15.42529296875 29.899658203125 -30.648681640625
-13.83154296875 -48.096435546875 45.9189453125
-10.586181640625 27.25341796875 -14.1865234375
-23.4345703125 -20.919189453125 58.1328125
-0.806640625 27.3671875 -30.572021484375
10.40283203125 28.2509765625 -17.902587890625
7.080322265625 28.92578125 -17.57861328125
-13.7783203125 -17.383056640625 56.9658203125
-0.142578125 20.708984375 -23.39306640625
30.18408203125 5.952880859375 -49.669677734375
-6.484130859375 -10.093505859375 54.058349609375
32.0791015625 19.509521484375 -23.20947265625
16.2666015625 -5.409423828125 -37.87060546875
-8.132568359375 23.035400390625 -20.524169921875
17.94873046875 27.241455078125 -23.181640625
22.861572265625 7.211669921875 -49.228759765625
-17.93359375 -20.13232421875 52.137939453125
-9.39111328125 -17.157470703125 51.944091796875
-12.806396484375 -11.03662109375 45.96826171875
-18.1533203125 -44.261962890625 35.14404296875
23.280517578125 23.32666015625 -21.2470703125
-12.60009765625 11.53955078125 -42.3330078125
-18.735595703125 30.65576171875 -31.805419921875
20.47802734375 30.086181640625 -16.31787109375
-7.957275390625 9.698486328125 -47.6787109375
32.204345703125 25.34130859375 -20.035400390625
30.04638671875 12.788330078125 -38.0595703125
15.41357421875 -18.85546875 4.894287109375
14.61962890625 28.545654296875 -17.97607421875
13.6865234375 29.530029296875 -31.728271484375
-9.053955078125 -8.695556640625 61.540771484375
-1.56396484375 -10.6904296875 47.626708984375
-22.157958984375 -46.549560546875 30.818115234375
5.60205078125 30.22509765625 -24.532470703125
-13.38671875 -35.95361328125 39.951416015625
27.489501953125 29.009033203125 -17.382080078125
-35.214599609375 -13.0927734375 6.657958984375
-11.606201171875 31.532470703125 -29.74072265625
-19.570556640625 -19.640380859375 56.610107421875
-17.210205078125 8.636474609375 -37.38427734375
29.654052734375 7.73046875 -48.211181640625
11.4287109375 35.94091796875 -27.86083984375
-13.9072265625 -25.300048828125 47.873779296875
18.12890625 27.327880859375 -18.61767578125
-12.263427734375 -34.0029296875 36.148681640625
24.37890625 -18.553955078125 -2.246337890625
-13.294677734375 -38.88916015625 35.400634765625
-1.932373046875 -7.1181640625 51.751708984375
-4.050537109375 24.72119140625 -23.806640625
-29.669921875 -13.458740234375 10.356689453125
23.84619140625 5.2275390625 -50.683837890625
7.19873046875 18.455322265625 -33.60791015625
2.876220703125 29.07373046875 -23.616943359375
-6.6845703125 8.8642578125 -41.443359375
-11.785888671875 -0.616943359375 32.73828125
-1.36376953125 -28.389404296875 31.685302734375
-11.4033203125 -3.06103515625 37.294677734375
2.274658203125 7.67529296875 -45.775634765625
24.9169921875 11.366943359375 -36.6884765625
20.50244140625 -4.46240234375 -38.415283203125
-6.515380859375 -3.108154296875 67.554931640625
-31.22021484375 -20.091552734375 7.739990234375
2.834228515625 10.712890625 -40.192138671875
-2.36279296875 -12.727294921875 45.59326171875
12.2890625 15.7509765625 -36.1240234375
-11.49267578125 30.60791015625 -23.64453125
-18.87158203125 33.552490234375 -25.76904296875
-14.802001953125 -18.71728515625 54.7646484375
1.984375 23.153564453125 -21.400390625
-29.353759765625 -17.093017578125 8.4912109375
3.33154296875 26.28271484375 -32.407470703125
17.300048828125 -17.599365234375 8.010009765625
-13.337890625 14.15380859375 6.99365234375
-4.034912109375 -1.425537109375 57.741943359375
1.018798828125 8.91064453125 -48.171875
35.104736328125 8.49560546875 -31.066162109375
-17.279052734375 -23.21630859375 50.329833984375
7.126953125 27.975830078125 -23.15576171875
24.927001953125 16.421630859375 -35.203369140625
-4.0810546875 7.016357421875 -38.999755859375
-13.496826171875 -33.666015625 39.909423828125
8.537353515625 -35.42626953125 27.074462890625
19.706298828125 -19.33251953125 2.456298828125
17.93115234375 -24.034912109375 -1.852294921875
17.4912109375 6.529052734375 -47.129150390625
-34.77685546875 0.455810546875 20.43701171875
25.36962890625 8.6015625 -46.6318359375
-28.988525390625 -27.414306640625 2.644775390625
20.34716796875 4.993896484375 -48.641845703125
-5.3154296875 -12.482177734375 46.759521484375
-20.00732421875 -21.090087890625 58.627685546875
-24.86767578125 -20.752197265625 54.31201171875
6.282470703125 7.92578125 -44.304931640625
1.677490234375 3.22412109375 -32.4765625
-7.2880859375 5.46337890625 -29.434326171875
-3.525634765625 -16.87451171875 41.919677734375
15.75830078125 6.367919921875 -41.603759765625
7.4111328125 24.4033203125 -32.655517578125
-19.701416015625 -43.609375 32.4267578125
24.906005859375 14.5166015625 -31.91650390625
-17.384033203125 -23.021728515625 60.382080078125
-11.046875 6.607177734375 -35.742431640625
25.53759765625 26.336181640625 -19.327392578125
1.920166015625 7.85009765625 -43.447265625
22.332275390625 27.16357421875 -31.21923828125
-0.218994140625 -18.222412109375 41.809814453125
0.0205078125 9.498291015625 -39.27099609375
30.845703125 23.387451171875 -20.94287109375
-37.52978515625 -2.500244140625 15.77783203125
-12.322021484375 9.6357421875 -47.98291015625
19.424072265625 1.026123046875 -33.304931640625
17.57470703125 4.68994140625 -39.925048828125
-13.96435546875 -49.12939453125 47.883544921875
-30.599365234375 -29.345458984375 5.01806640625
-9.1591796875 7.809814453125 -50.62548828125
-33.888671875 -2.359375 16.951416015625
0.30517578125 27.103515625 -24.501708984375
-33.54736328125 -1.51904296875 20.401123046875
-8.973388671875 25.662353515625 -23.482421875
-4.06982421875 -10.526611328125 48.80908203125
-21.112060546875 33.55029296875 -24.62744140625
5.124755859375 -40.85205078125 25.48193359375
26.602294921875 5.574462890625 -50.364501953125
14.698974609375 25.55419921875 -19.8974609375
-9.364013671875 -15.143798828125 54.809326171875
17.311767578125 7.4794921875 -44.45654296875
16.637451171875 -17.2216796875 5.0537109375
-1.554931640625 7.948974609375 -39.50634765625
-3.396728515625 4.239501953125 -50.895263671875
-29.775390625 -23.389892578125 4.947509765625
-8.8359375 28.937744140625 -26.494140625
34.670654296875 24.371826171875 -33.77587890625
-13.73486328125 17.041259765625 -14.36767578125
28.166015625 12.263427734375 -38.765869140625
6.403076171875 0.654296875 -34.277587890625
-16.212158203125 -46.4384765625 39.041748046875
-0.98095703125 5.981689453125 -38.960693359375
33.155517578125 21.16796875 -22.24951171875
-8.465576171875 -3.614013671875 67.25
7.568603515625 -32.8408203125 31.288330078125
24.907470703125 29.681884765625 -17.064208984375
-0.358154296875 -15.92724609375 42.984130859375
7.530029296875 25.84130859375 -19.865234375
35.701904296875 9.2705078125 -38.622314453125
-14.587890625 -22.12939453125 61.458740234375
-6.837646484375 -12.516357421875 50.482421875
0.231689453125 28.228759765625 -27.65185546875
-40.4326171875 9.794189453125 29.307861328125
-27.702392578125 -44.929443359375 44.317138671875
20.671142578125 3.87060546875 -40.300048828125
36.670166015625 9.46337890625 -42.578369140625
0.92822265625 -14.054931640625 45.4951171875
-8.564453125 -7.031494140625 63.603759765625
22.60302734375 -16.50146484375 0.78125
-6.52783203125 -1.883544921875 64.77685546875
-16.35986328125 -21.4619140625 52.037353515625
-3.9921875 29.24609375 -28.842041015625
-10.49560546875 -7.2939453125 65.708251953125
-7.263427734375 27.252685546875 -18.382568359375
-23.34130859375 33.62353515625 -22.75146484375
15.372802734375 32.321533203125 -26.38134765625
-38.1064453125 0.746337890625 18.78857421875
-29.713623046875 -8.807373046875 14.854248046875
-13.3896484375 23.177978515625 -14.39453125
-10.925048828125 26.636474609375 -17.136962890625
18.02490234375 -15.742919921875 8.1279296875
29.537353515625 17.037353515625 -35.32470703125
-16.158935546875 -19.49365234375 58.70263671875
-12.137939453125 22.552001953125 -6.674072265625
10.822021484375 13.885009765625 -37.095947265625
-8.08984375 10.750732421875 -43.8896484375
-7.3095703125 -14.96044921875 54.78564453125
1.296630859375 -34.244384765625 27.702880859375
-35.11328125 -4.52099609375 14.9267578125
-5.509033203125 8.430908203125 -44.920654296875
-28.7509765625 -20.4287109375 4.90625
-40.73388671875 6.13232421875 21.35888671875
9.258544921875 6.39697265625 -41.89306640625
9.299560546875 26.24365234375 -21.45458984375
25.908935546875 7.929443359375 -48.5498046875
-13.731201171875 -44.114990234375 37.7216796875
33.9697265625 9.02197265625 -42.499755859375
23.594482421875 3.39208984375 -51.34814453125
6.74462890625 15.703857421875 -35.65478515625
-41.0712890625 1.571533203125 19.034423828125
-17.94189453125 32.20849609375 -30.47998046875
16.90087890625 28.82470703125 -17.64990234375
-10.13037109375 23.3134765625 -19.776123046875
-11.1259765625 11.434814453125 -45.8173828125
-3.47021484375 27.23046875 -30.147216796875
27.91455078125 30.3623046875 -15.2705078125
-11.44189453125 -14.618408203125 58.825927734375
-15.488525390625 26.992919921875 -32.233642578125
-11.574462890625 12.30126953125 9.25390625
23.708251953125 10.833984375 -31.540283203125
-15.729248046875 -38.738037109375 40.939453125
-37.32177734375 -7.56787109375 14.6494140625
27.7216796875 9.336669921875 -43.206298828125
-3.390869140625 -8.11474609375 50.32373046875
-10.386474609375 10.666748046875 -42.30029296875
37.845947265625 7.0791015625 -43.98388671875
28.286376953125 28.458251953125 -29.522705078125
-24.8232421875 -22.26904296875 58.022216796875
-1.96044921875 9.04248046875 -41.921630859375
-2.79541015625 8.325927734375 -47.675537109375
-13.898681640625 -45.836181640625 46.314208984375
-12.32763671875 -35.882568359375 33.9599609375
18.128662109375 29.94140625 -25.76953125
32.136474609375 9.98583984375 -39.805419921875
-10.134521484375 -15.826416015625 63.308837890625
3.98291015625 25.959716796875 -19.465576171875
-6.1103515625 -2.54931640625 60.44970703125
-17.55908203125 33.19189453125 -23.87841796875
-8.2431640625 10.42236328125 -39.995361328125
-13.35009765625 -29.360107421875 48.349853515625
-10.2734375 28.751953125 -15.51904296875
-13.68896484375 16.511474609375 3.499267578125
-20.98291015625 -46.886962890625 37.379638671875
-24.427490234375 -45.53857421875 34.51123046875
14.21826171875 27.782470703125 -23.586181640625
27.95361328125 14.450439453125 -36.22998046875
-30.265625 -33.89404296875 -1.010498046875
2.156005859375 29.15478515625 -30.791015625
-12.658447265625 11.474853515625 -44.25341796875
35.5390625 27.9365234375 -30.699951171875
6.905517578125 -37.708740234375 25.346435546875
28.772705078125 10.345458984375 -22.1298828125
-6.097412109375 -14.7568359375 43.9404296875
-8.365234375 27.57861328125 -14.625244140625
5.855712890625 29.759521484375 -30.898681640625
2.079833984375 28.4931640625 -28.079345703125
-12.885986328125 -39.3662109375 31.63427734375
-6.445556640625 -16.68701171875 43.94287109375
-12.2578125 -6.939453125 43.422607421875
-12.2275390625 -18.02978515625 60.4833984375
22.494873046875 28.513916015625 -18.040283203125
34.323974609375 18.585205078125 -25.069580078125
2.44140625 1.8056640625 -33.537109375
-14.71533203125 -30.531982421875 50.298828125
8.575927734375 27.783447265625 -18.208740234375
-7.057861328125 -18.447021484375 49.333740234375
20.864013671875 24.352294921875 -23.26123046875
0.0576171875 -32.78564453125 27.856689453125
-16.88037109375 31.5322265625 -27.43505859375
-25.960205078125 -29.8583984375 1.735595703125
1.530029296875 -27.79150390625 32.845458984375
10.56884765625 -38.17919921875 26.29248046875
8.11962890625 31.484619140625 -29.221435546875
16.8525390625 30.963134765625 -29.270263671875
12.52001953125 27.01513671875 -23.099853515625
-42.04248046875 13.214111328125 25.87744140625
-3.296142578125 8.616455078125 -38.368408203125
-6.704833984375 21.961669921875 -21.556640625
-20.00341796875 33.07177734375 -28.6826171875
-8.278564453125 29.2099609375 -29.915283203125
-3.017822265625 6.041015625 -49.07080078125
10.848876953125 29.523681640625 -16.547119140625
-10.65576171875 -13.816162109375 51.578125
-4.011962890625 4.959716796875 -31.386962890625
10.63330078125 29.091064453125 -24.45703125
-31.386962890625 -32.286865234375 0.862060546875
-1.295166015625 28.4912109375 -15.9365234375
-12.196044921875 26.369384765625 -21.6376953125
-12.583984375 -13.1240234375 49.331298828125
-14.306640625 -27.01416015625 49.094970703125
-12.949951171875 -30.322265625 41.34619140625
22.443359375 -22.16162109375 -3.39306640625
11.215087890625 26.5 -20.741455078125
16.745361328125 33.744873046875 -28.81005859375
5.2177734375 30.992919921875 -28.005859375
6.453369140625 -2.530517578125 -35.578857421875
38.320068359375 7.86279296875 -36.96435546875
16.293212890625 26.1201171875 -32.93994140625
7.0283203125 4.804443359375 -48.389404296875
-12.03564453125 15.10888671875 6.05419921875
-0.55859375 4.033203125 -32.129638671875
34.338623046875 9.990478515625 -36.309814453125
-6.576416015625 29.25244140625 -25.800537109375
8.62158203125 29.410400390625 -32.4072265625
-12.339111328125 32.225830078125 -24.19580078125
-14.30908203125 -37.69482421875 39.017333984375
-29.314208984375 -31.699951171875 3.27392578125
-12.234375 -21.664794921875 47.921630859375
5.68994140625 6.93359375 -46.170654296875
-3.5546875 28.225830078125 -25.342529296875
3.575927734375 6.75 -40.267333984375
22.171142578125 -19.20849609375 1.179931640625
-4.966796875 -19.9453125 38.805419921875
-6.743896484375 4.654052734375 -31.3212890625
23.884765625 10.1708984375 -41.256591796875
16.22216796875 5.134033203125 -48.968994140625
-13.297607421875 -40.73779296875 35.3330078125
-2.5361328125 -15.670654296875 42.915283203125
19.00927734375 24.239501953125 -21.31298828125
23.681640625 6.507080078125 -36.237060546875
-32.569580078125 -6.857177734375 15.328369140625
-42.19921875 9.748291015625 23.4228515625
24.14501953125 28.61376953125 -15.777099609375
-14.71044921875 -42.165771484375 35.177001953125
-14.921630859375 29.295654296875 -21.954345703125
-21.2060546875 -20.03076171875 55.431640625
-6.59033203125 7.521240234375 -38.22509765625
-35.67041015625 -10.52685546875 9.0859375
-5.384033203125 7.354736328125 -29.2568359375
-36.05712890625 2.6884765625 20.42236328125
-28.8955078125 -23.91162109375 2.95703125
5.640869140625 6.408447265625 -41.44482421875
-21.897216796875 -45.50390625 32.3505859375
27.66455078125 22.152587890625 -21.151123046875
-12.64697265625 21.369384765625 -17.6083984375
-15.533203125 -51.22119140625 39.99853515625
-15.618896484375 -41.36181640625 51.408203125
36.98828125 26.76416015625 -34.03759765625
31.371337890625 27.350830078125 -30.969970703125
13.0400390625 32.989990234375 -30.18994140625
2.638671875 -17.591064453125 43.3623046875
2.641357421875 -34.22314453125 28.98046875
9.115234375 6.149169921875 -46.955322265625
2.18359375 27.6123046875 -31.76806640625
2.213623046875 -12.1494140625 48.39990234375
3.4990234375 27.2333984375 -21.894287109375
-13.8828125 -21.655517578125 49.16552734375
23.29541015625 5.578369140625 -33.38818359375
-13.7392578125 7.964599609375 17.494140625
20.943359375 2.972412109375 -49.697021484375
41.24267578125 6.203125 -39.62841796875
-9.616943359375 25.953125 -18.201171875
19.85009765625 -16.337646484375 6.974365234375
-23.80322265625 -46.055419921875 36.774658203125
-4.4990234375 5.80419921875 -37.719970703125
1.241455078125 28.848388671875 -17.897705078125
-23.0478515625 28.59814453125 -18.031982421875
12.948486328125 27.538330078125 -18.59765625
12.6435546875 18.80322265625 -33.714599609375
1.12158203125 11.16357421875 -39.81494140625
34.0341796875 8.51416015625 -44.815185546875
-9.814453125 -12.91650390625 57.599365234375
-26.023193359375 -49.127685546875 42.1533203125
-16.675537109375 -43.78173828125 30.74072265625
-27.6015625 -13.688232421875 9.1669921875
11.158447265625 26.944091796875 -18.889404296875
-16.138916015625 32.114990234375 -24.143310546875
-2.539306640625 -17.6455078125 40.4228515625
-7.439697265625 -10.554931640625 58.709716796875
-34.7216796875 -11.45458984375 7.208984375
-14.13232421875 10.474365234375 13.49658203125
-1.822265625 -3.800537109375 55.891357421875
24.58935546875 13.5068359375 -37.263427734375
-36.0478515625 -1.711181640625 16.837158203125
-13.1259765625 25.025390625 -15.01611328125
-11.4052734375 -8.458984375 44.993896484375
-14.87451171875 -38.429443359375 42.596923828125
-28.346923828125 -28.804443359375 0.3486328125
41.256103515625 6.9345703125 -42.4521484375
29.775390625 9.701904296875 -40.13720703125
-4.77978515625 -7.124267578125 53.3720703125
-29.84033203125 -27.037109375 4.668701171875
-5.3955078125 -0.7978515625 58.795654296875
20.4189453125 -2.780517578125 -37.7568359375
-11.904296875 25.264404296875 -12.01416015625
16.980224609375 -23.18798828125 1.789306640625
-30.126708984375 -30.431396484375 -0.242919921875
20.67578125 -21.451416015625 0.266357421875
13.86181640625 29.88525390625 -16.6181640625
28.462646484375 9.223876953125 -45.55712890625
-14.36865234375 12.550048828125 10.78271484375
14.223388671875 6.896728515625 -45.14306640625
29.9541015625 19.8466796875 -23.2255859375
-27.305419921875 -25.66845703125 1.552001953125
9.125244140625 18.634765625 -33.65087890625
18.788330078125 -23.56396484375 1.417236328125
-13.9072265625 -41.36474609375 38.468505859375
-13.14697265625 -4.142578125 38.326416015625
21.046630859375 6.498779296875 -40.52099609375
-4.060791015625 -3.015380859375 56.9052734375
-12.105712890625 23.744873046875 -17.525634765625
10.32861328125 5.699951171875 -40.679443359375
23.36669921875 26.951904296875 -19.000244140625
31.792236328125 27.798583984375 -27.20654296875
-12.912109375 -16.426513671875 52.578369140625
40.79052734375 6.76611328125 -44.797119140625
-14.27587890625 -36.10498046875 38.2685546875
-1.52294921875 4.60888671875 -51.73388671875
-20.143310546875 -45.085693359375 35.298583984375
-35.163818359375 -6.462890625 13.2509765625
21.42919921875 8.20068359375 -46.925537109375
-13.434814453125 -37.214599609375 42.3515625
17.8037109375 -18.79296875 1.55615234375
3.5146484375 -19.511962890625 41.6875
-18.1572265625 -21.634521484375 59.61767578125
1.944091796875 8.0478515625 -41.516357421875
19.5166015625 27.1572265625 -23.9501953125
7.216552734375 -35.188720703125 28.3125
-14.88427734375 -51.7080078125 42.7255859375
4.7568359375 -37.51953125 27.45556640625
5.3701171875 33.268798828125 -26.37646484375
-13.162841796875 -39.692138671875 33.841064453125
27.230712890625 9.9130859375 -40.8974609375
-9.598388671875 -16.10888671875 53.367431640625
7.156005859375 34.970703125 -26.584228515625
-7.735107421875 -35.878662109375 41.2451171875
-5.006103515625 8.6220703125 -41.0625
-38.130615234375 7.384033203125 23.88623046875
24.267578125 8.85009765625 -42.32958984375
-6.74462890625 8.7998046875 -43.37646484375
-6.48388671875 -3.7587890625 64.02978515625
-29.849609375 -10.392822265625 12.69384765625
-13.191650390625 26.75244140625 -14.859130859375
-22.45068359375 -22.416259765625 52.624267578125
-1.409423828125 -30.3271484375 28.66845703125
13.143798828125 6.85205078125 -42.38330078125
-7.61279296875 -14.229736328125 51.7001953125
15.32373046875 28.99609375 -25.25439453125
-5.543701171875 6.428955078125 -49.439208984375
20.389404296875 -1.16552734375 -36.301513671875
19.547119140625 6.4404296875 -47.1591796875
19.56689453125 28.579833984375 -29.810546875
-19.2392578125 -23.80712890625 50.868408203125
-27.96826171875 -20.46337890625 3.264404296875
-0.518310546875 8.58203125 -48.8974609375
-36.970703125 -9.3408203125 14.145263671875
7.31396484375 13.548583984375 -37.40185546875
17.055419921875 31.947265625 -26.3583984375
13.022705078125 14.52001953125 -37.184326171875
-15.98828125 -31.032470703125 47.42431640625
24.236572265625 9.594482421875 -37.69482421875
-12.724365234375 13.62548828125 9.033203125
8.639892578125 -33.80908203125 29.7666015625
24.719970703125 12.228271484375 -34.8125
-5.7783203125 1.017822265625 61.187744140625
29.345458984375 21.80810546875 -21.899169921875
19.982666015625 -23.616943359375 -1.08837890625
2.642822265625 24.77783203125 -22.35986328125
-2.1318359375 25.487548828125 -19.351806640625
0.95703125 25.559326171875 -19.769775390625
35.208740234375 26.24365234375 -33.58154296875
-4.383544921875 0.255126953125 60.17529296875
2.080322265625 6.315185546875 -30.81494140625
1.6103515625 24.4765625 -30.307373046875
22.25146484375 27.92578125 -27.492919921875
-11.228515625 -14.3017578125 55.42431640625
-11.594970703125 6.34228515625 20.569091796875
-6.226806640625 -13.9658203125 45.83984375
-1.6875 5.920166015625 -36.990234375
-1.375732421875 5.85009765625 -49.4775390625
-16.320068359375 -53.137939453125 43.0107421875
-11.5322265625 -2.80419921875 35.61767578125
-13.332763671875 17.974853515625 -17.951904296875
-15.71630859375 -21.235595703125 59.546875
-10.390869140625 28.86767578125 -27.2216796875
37.493896484375 27.913818359375 -31.48486328125
-13.9853515625 -42.013671875 32.135009765625
5.579833984375 26.70947265625 -22.61376953125
-42.714599609375 4.02197265625 20.564453125
17.25048828125 25.876708984375 -22.253173828125
-27.222412109375 -15.5419921875 8.238525390625
-10.72265625 -12.093994140625 61.12451171875
-28.781494140625 -22.031494140625 5.973876953125
-4.661865234375 27.715576171875 -18.083984375
-23.221923828125 -20.278076171875 56.3076171875
-15.64990234375 -42.200927734375 33.028076171875
19.613037109375 28.964599609375 -26.056640625
-6.8076171875 -12.267333984375 52.911376953125
2.0126953125 27.90625 -24.6103515625
-20.2021484375 31.965576171875 -21.4677734375
24.56689453125 27.9638671875 -28.284912109375
23.82958984375 -21.232666015625 -4.36279296875
5.15478515625 2.249267578125 -33.615966796875
21.0244140625 27.800537109375 -29.366943359375
6.677490234375 -40.05810546875 25.770263671875
3.949951171875 -0.833740234375 -34.89990234375
22.998779296875 -19.475830078125 -1.277587890625
-13.197021484375 -5.310302734375 40.203857421875
24.7373046875 -19.865478515625 -3.31005859375
6.475341796875 34.417724609375 -28.387939453125
5.3046875 7.322021484375 -43.072998046875
-43.333251953125 7.307373046875 21.921630859375
-23.168701171875 30.353515625 -19.74853515625
9.47412109375 35.96728515625 -28.215087890625
0.677490234375 -16.802001953125 41.928955078125
-9.658447265625 8.58740234375 -37.881103515625
-13.465087890625 8.04248046875 -37.000732421875
0.369873046875 29.377197265625 -16.442138671875
-7.668212890625 -16.04931640625 49.204345703125
-14.922119140625 -29.935302734375 48.465576171875
35.146728515625 10.423828125 -41.8466796875
38.77490234375 4.5830078125 -34.301025390625
-13.15869140625 -19.166748046875 50.702392578125
20.005615234375 7.919677734375 -44.534912109375
-38.0771484375 4.935791015625 21.982421875
26.201171875 27.43603515625 -30.914306640625
-9.615966796875 29.293212890625 -24.26611328125
25.797607421875 9.022216796875 -43.150390625
22.4794921875 22.002197265625 -22.23828125
-12.352783203125 -15.624267578125 50.318115234375
-19.04541015625 -44.8330078125 30.933837890625
-15.4130859375 -44.389892578125 37.7705078125
-1.9033203125 23.087890625 -20.972412109375
-33.921142578125 -4.16796875 16.468994140625
-12.596435546875 11.87548828125 10.89599609375
6.714111328125 32.363525390625 -28.546142578125
-13.115478515625 -27.600341796875 42.889892578125
10.477783203125 31.239501953125 -30.353759765625
-6.788818359375 -1.329345703125 61.76953125
-15.42431640625 32.08349609375 -25.642822265625
-3.8984375 8.49365234375 -44.176513671875
-13.5771484375 -2.886962890625 35.219482421875
15.559814453125 6.174560546875 -47.461669921875
7.491455078125 6.126708984375 -47.31591796875
-9.7744140625 10.094970703125 -40.71826171875
-11.939697265625 -20.598876953125 62.796142578125
2.357177734375 29.987060546875 -29.3720703125
-8.007080078125 28.675537109375 -17.41796875
-36.793212890625 -13.310791015625 7.103271484375
-30.655029296875 -25.032958984375 5.613525390625
9.937744140625 -39.236328125 25.19287109375
14.683837890625 34.367919921875 -26.975830078125
36.772705078125 8.710693359375 -37.410400390625
2.9306640625 9.09375 -29.92724609375
31.161376953125 9.7041015625 -45.247314453125
-38.4912109375 -9.922119140625 13.841796875
38.046875 9.35546875 -40.236328125
-6.915771484375 5.311279296875 -51.285888671875
30.5771484375 29.32470703125 -16.684326171875
-11.10009765625 -10.6904296875 60.358642578125
-17.134521484375 -19.201171875 56.947998046875
-17.580078125 -19.602294921875 53.691650390625
-1.177734375 9.3251953125 -40.4033203125
-0.852783203125 8.9140625 -45.03564453125
-0.06982421875 9.19677734375 -43.517333984375
26.810546875 14.789306640625 -32.35693359375
-10.765625 -2.548583984375 68.1689453125
17.3154296875 29.0029296875 -24.517333984375
4.48486328125 6.760498046875 -47.30712890625
22.50732421875 7.5537109375 -36.7060546875
-11.7509765625 -15.727294921875 54.5078125
28.154296875 28.5498046875 -15.036376953125
-12.559326171875 -32.2265625 39.61865234375
-15.752685546875 -22.755126953125 60.334716796875
-39.5302734375 -2.12255859375 18.508056640625
20.701904296875 0.10205078125 -38.801025390625
-0.888671875 5.3681640625 -31.07568359375
24.25341796875 8.85888671875 -33.70947265625
-7.585205078125 -1.908447265625 69.27392578125
21.35302734375 2.023193359375 -38.18017578125
29.741455078125 27.4833984375 -30.963134765625
-36.82666015625 -4.0810546875 14.85205078125
19.55908203125 -3.86865234375 -36.8515625
21.641845703125 3.61328125 -38.715087890625
12.602294921875 -5.526611328125 -37.404541015625
-13.732421875 15.150634765625 -16.830810546875
34.583740234375 27.13330078125 -31.75146484375
-12.20166015625 27.547607421875 -13.833984375
-28.69140625 -12.13818359375 11.358154296875
10.789794921875 27.523193359375 -23.140869140625
34.68115234375 9.69482421875 -39.8203125
5.62060546875 23.84521484375 -32.57763671875
-7.392333984375 8.764404296875 -39.871826171875
-7.953369140625 -17.885009765625 51.706298828125
10.73095703125 6.092041015625 -47.37060546875
-6.178955078125 -9.431396484375 55.556396484375
-41.3173828125 4.947509765625 20.394775390625
31.250244140625 15.36669921875 -36.74853515625
15.224609375 26.152587890625 -21.501953125
-9.170166015625 6.08447265625 -52.4560546875
-19.30126953125 -21.395751953125 52.835693359375
17.518798828125 5.98583984375 -41.208984375
-7.374755859375 -12.75048828125 56.754150390625
-12.914306640625 8.11572265625 19.050048828125
2.494873046875 4.712890625 -31.8427734375
-13.0234375 19.804931640625 -17.794921875
-28.81640625 -17.961669921875 6.578857421875
-14.80810546875 -24.625 62.48876953125
19.010498046875 6.29345703125 -42.042236328125
26.2265625 21.531494140625 -22.2216796875
22.18603515625 -21.097412109375 -1.87451171875
21.646484375 8.0224609375 -43.396240234375
25.362060546875 9.544677734375 -40.0556640625
2.18359375 22.158935546875 -23.58203125
21.07080078125 -19.49462890625 3.30517578125
10.692138671875 6.718505859375 -43.897216796875
20.627685546875 28.208740234375 -17.986083984375
-15.290283203125 7.582763671875 -35.76806640625
-13.782470703125 -43.185546875 30.202392578125
-12.16552734375 7.81591796875 -35.833984375
-0.81103515625 28.190673828125 -24.990478515625
-7.40185546875 -5.330810546875 61.952880859375
-0.05908203125 3.75830078125 -51.318359375
22.068603515625 3.99755859375 -35.5947265625
24.29150390625 20.0126953125 -23.185546875
23.83984375 8.429443359375 -45.810791015625
-1.844970703125 5.525390625 -53.341064453125
7.888916015625 -1.89990234375 -36.052978515625
-0.6298828125 -5.51416015625 53.44189453125
-31.000244140625 -16.939697265625 9.698974609375
-12.334228515625 15.995361328125 4.354736328125
-29.8271484375 -20.817626953125 7.4375
-4.024169921875 6.62060546875 -30.3740234375
-5.053955078125 -8.00732421875 51.107666015625
24.838134765625 14.45068359375 -33.853759765625
-0.275390625 -29.494873046875 30.20751953125
-7.318359375 -13.207275390625 55.202392578125
-3.492919921875 8.75341796875 -42.26220703125
0.66064453125 9.04541015625 -46.2353515625
-2.389892578125 8.58544921875 -45.76123046875
-34.20654296875 -9.620849609375 9.743408203125
-11.968017578125 9.614990234375 -39.096435546875
23.4931640625 4.699462890625 -35.283447265625
26.1591796875 28.185791015625 -18.03125
-13.40673828125 10.326904296875 -40.6796875
-13.35400390625 -0.873291015625 32.783935546875
31.77587890625 28.59326171875 -29.95947265625
-15.00830078125 9.156494140625 -38.6240234375
14.031005859375 16.659912109375 -35.45947265625
31.739501953125 24.986572265625 -32.26513671875
-11.88671875 -5.4169921875 41.4580078125
31.11962890625 8.370849609375 -47.106689453125
-26.531005859375 -21.29638671875 3.3818359375
-8.843994140625 5.84912109375 -35.706787109375
1.699462890625 -30.4951171875 29.97802734375
33.93408203125 21.94140625 -25.436767578125
-25.977294921875 -44.728271484375 45.149169921875
-7.30908203125 -9.04931640625 61.236083984375
30.412841796875 14.180419921875 -37.408203125
12.77001953125 0.462646484375 -39.501220703125
9.06591796875 34.564208984375 -29.931396484375
30.965576171875 19.03662109375 -24.695068359375
30.437744140625 28.166015625 -27.99365234375
19.21044921875 -15.23193359375 9.69677734375
37.330078125 3.096435546875 -32.154541015625
-8.0048828125 -19.682861328125 49.60498046875
-5.777587890625 5.9287109375 -28.716796875
-14.56103515625 30.6943359375 -22.87255859375
-6.516845703125 -18.20361328125 43.0205078125
-6.277099609375 -9.783447265625 50.684326171875
-23.249267578125 -45.098876953125 33.56591796875
-2.09375 -0.922119140625 58.0478515625
25.014404296875 5.208984375 -34.1669921875
-7.646728515625 7.224853515625 -36.6259765625
-6.582275390625 28.78515625 -29.139404296875
-16.118408203125 -43.51220703125 35.8671875
16.2138671875 7.275634765625 -43.2490234375
-9.246826171875 24.456298828125 -19.160888671875
-0.638427734375 28.327392578125 -29.16259765625
28.0146484375 27.389892578125 -26.356201171875
7.5556640625 30.594482421875 -30.628173828125
35.76171875 8.189208984375 -45.21240234375
18.799072265625 28.265869140625 -31.665771484375
34.6396484375 27.597900390625 -27.217041015625
25.84130859375 20.05322265625 -23.9794921875
3.877197265625 -31.903564453125 31.952392578125
3.1884765625 24.11083984375 -32.57177734375
6.247802734375 -32.6484375 32.1015625
-27.480712890625 -46.2265625 42.855712890625
-12.782470703125 -35.338623046875 36.839111328125
6.78369140625 5.442626953125 -40.210693359375
6.031494140625 25.55859375 -20.198486328125
-16.729736328125 -43.289306640625 32.371826171875
31.952880859375 22.408203125 -21.609375
10.3017578125 17.18017578125 -35.069580078125
4.08642578125 -40.0654296875 26.63134765625
-2.757080078125 29.20849609375 -27.345703125
33.18212890625 8.243408203125 -47.525634765625
22.86865234375 8.76806640625 -37.994384765625
-14.769775390625 -44.466796875 30.871826171875
-12.54638671875 -11.57080078125 49.390869140625
28.485107421875 19.50830078125 -22.784423828125
-13.238525390625 -40.723388671875 37.05126953125
-16.923828125 29.8203125 -30.24755859375
-31.652587890625 -33.28662109375 -0.667724609375
-22.88916015625 -53.74365234375 40.9140625
-43.436279296875 12.193359375 24.90283203125
5.70458984375 28.2705078125 -17.8642578125
2.824462890625 -33.052001953125 30.4658203125
-11.380615234375 26.023193359375 -13.259765625
8.557373046875 -31.665283203125 31.49169921875
-13.740478515625 18.481689453125 -14.936767578125
-31.5654296875 -5.7021484375 16.335205078125
-4.322998046875 8.076171875 -47.631103515625
24.165771484375 14.589111328125 -29.96875
18.34375 31.28173828125 -28.566162109375
22.01318359375 9.763427734375 -40.803466796875
-21.521728515625 33.884033203125 -23.17236328125
-12.61376953125 -25.932861328125 44.2255859375
17.28759765625 26.186279296875 -19.23388671875
15.821044921875 28.924560546875 -32.072998046875
0.916748046875 -12.139404296875 47.558349609375
19.94970703125 26.48828125 -19.294921875
17.07958984375 30.06640625 -30.691162109375
0.92333984375 8.973388671875 -40.40771484375
3.394287109375 30.882080078125 -26.090576171875
-5.531494140625 29.328125 -28.079833984375
-8.485107421875 28.845458984375 -27.993896484375
20.314453125 23.992919921875 -20.529052734375
-14.73486328125 -50.064697265625 45.014892578125
-6.704345703125 -13.262939453125 48.99609375
-25.94287109375 -47.3525390625 42.66015625
14.3466796875 26.80419921875 -18.90087890625
18.364013671875 -19.003173828125 3.243896484375
26.15625 28.034423828125 -27.54931640625
8.138671875 28.3046875 -33.425048828125
-13.798583984375 -17.550048828125 55.3349609375
7.494873046875 -36.5 26.413818359375
20.544677734375 7.28662109375 -46.062255859375
8.693359375 20.088134765625 -33.400146484375
13.067138671875 6.215576171875 -48.59375
-9.618408203125 -11.81494140625 58.993896484375
26.72216796875 11.747802734375 -38.699951171875
19.607177734375 -17.158935546875 5.4462890625
7.156494140625 17.074462890625 -35.015869140625
-5.01416015625 24.545654296875 -19.972412109375
-14.613037109375 31.259765625 -30.0498046875
-5.170166015625 -11.27978515625 47.7314453125
-28.826171875 -15.884765625 7.481201171875
21.30322265625 6.143310546875 -37.3505859375
11.54443359375 34.071044921875 -29.909423828125
-21.28466796875 -45.686279296875 36.277099609375
28.435791015625 22.80517578125 -25.471923828125
-15.814208984375 -40.269775390625 40.82275390625
-12.771728515625 -37.5390625 34.70947265625
-11.529296875 30.3037109375 -26.61328125
-12.880615234375 -17.420166015625 58.237060546875
