26.700439453125 51.83544921875 34.437744140625
-65.542724609375 -33.52392578125 15.318115234375
-70.098876953125 -42.459228515625 12.464599609375
-82.7041015625 -45.056396484375 11.452880859375
-16.37255859375 -18.203125 20.3388671875
25.6943359375 31.663330078125 28.84423828125
34.764892578125 34.341064453125 28.355712890625
-38.12451171875 -28.224365234375 16.485107421875
41.0400390625 37.616455078125 26.005615234375
-54.76220703125 -27.89501953125 -39.072509765625
-56.070556640625 -72.2193603515625 -3.816650390625
-36.605224609375 -26.380859375 -36.78466796875
29.781005859375 57.4326171875 33.42626953125
14.420166015625 60.93212890625 35.149658203125
31.9091796875 59.44970703125 31.261474609375
28.222412109375 45.810302734375 26.04638671875
-20.99755859375 -12.001220703125 21.9794921875
30.470947265625 27.122802734375 28.868408203125
-20.956787109375 -22.694091796875 19.6083984375
-37.665283203125 -47.02490234375 7.876708984375
41.166259765625 63.259521484375 26.796875
25.484130859375 63.082275390625 30.904296875
37.367919921875 51.821044921875 23.192626953125
-68.597412109375 -52.80078125 10.23974609375
-10.171875 -5.918701171875 23.41650390625
-55.050048828125 -36.99755859375 14.51806640625
-75.99658203125 -37.7138671875 -38.44873046875
25.926513671875 58.028076171875 34.43359375
-69.28662109375 -65.318603515625 6.193115234375
2.614990234375 -1.023193359375 24.25537109375
0.358642578125 -6.308349609375 21.395263671875
-71.53759765625 -37.0966796875 14.005615234375
45.283935546875 49.391845703125 23.6025390625
-78.985107421875 -33.292236328125 14.705810546875
-22.782958984375 -33.051025390625 11.197509765625
-29.4677734375 -18.03076171875 18.140625
35.58984375 45.19091796875 25.330322265625
-66.252685546875 -68.08349609375 3.121337890625
-15.616943359375 -22.718994140625 15.730712890625
11.943359375 63.7744140625 34.935302734375
-29.689697265625 -24.206787109375 -40.90576171875
-4.324951171875 4.28125 26.041015625
-28.48876953125 -23.00830078125 19.031005859375
-68.75244140625 -58.62890625 8.3623046875
-44.901611328125 -47.112548828125 13.506591796875
-53.633056640625 -56.496337890625 10.371337890625
-53.820068359375 -50.6640625 11.675048828125
-50.458251953125 -58.385498046875 7.177978515625
-41.50048828125 -47.248046875 11.555419921875
-48.24609375 -27.990966796875 -40.01708984375
-32.154541015625 -27.78466796875 -38.371826171875
-11.783447265625 -14.116943359375 21.065673828125
10.057373046875 15.711669921875 29.055908203125
43.0810546875 47.5185546875 -41.804931640625
41.054931640625 43.293212890625 -41.81689453125
-65.100341796875 -47.0888671875 11.96142578125
-41.690185546875 -40.552490234375 14.672607421875
-14.4404296875 -6.720458984375 23.2998046875
-73.72119140625 -31.755615234375 15.15869140625
-81.48583984375 -51.61767578125 10.953857421875
35.88916015625 66.264404296875 25.4501953125
51.2578125 62.918212890625 25.13720703125
-5.976318359375 -5.125244140625 23.835205078125
-61.1865234375 -66.002685546875 -1.199951171875
-29.223876953125 -30.076416015625 -39.2734375
8.32470703125 8.775634765625 27.3359375
35.76806640625 61.0869140625 29.240234375
19.15283203125 53.16943359375 38.710693359375
-58.983154296875 -44.3359375 12.813232421875
34.35888671875 49.966552734375 23.99755859375
-47.49658203125 -55.54736328125 7.410400390625
-59.40185546875 -33.629150390625 15.680908203125
-15.72216796875 -0.54150390625 23.633544921875
14.620849609375 12.144775390625 26.90625
5.390380859375 14.0615234375 28.6533203125
41.1982421875 41.44580078125 25.74853515625
49.54248046875 49.5361328125 23.128173828125
-6.365966796875 -11.64892578125 20.368896484375
-33.9931640625 -41.6484375 9.00341796875
-38.695068359375 -45.262451171875 10.58203125
-47.6162109375 -38.780517578125 14.90234375
30.758544921875 31.247802734375 29.49169921875
-52.114990234375 -54.021240234375 11.32861328125
-0.46826171875 10.785400390625 27.883056640625
-4.869873046875 -1.025634765625 24.68896484375
-71.2529296875 -49.822021484375 11.4169921875
-35.190185546875 -36.116943359375 16.129150390625
-73.63037109375 -58.927001953125 7.739990234375
-47.46923828125 -43.33154296875 13.929443359375
-9.713134765625 2.259521484375 25.25732421875
-47.765625 -49.122802734375 12.974609375
-19.858154296875 -9.143798828125 22.664794921875
-31.41064453125 -26.266357421875 18.6318359375
-60.8798828125 -38.52490234375 14.40185546875
23.112548828125 37.173828125 27.642578125
-37.85400390625 -29.49267578125 -39.671875
-60.71923828125 -67.848388671875 -3.778564453125
36.996337890625 54.78662109375 23.112060546875
-58.775146484375 -52.613525390625 11.17919921875
-18.6259765625 -27.258056640625 13.80712890625
34.190673828125 41.656982421875 26.57666015625
-35.747314453125 -31.14794921875 16.990478515625
-10.938232421875 -1.019775390625 24.8671875
-32.735107421875 -37.006591796875 14.71240234375
-56.740234375 -50.1796875 11.63623046875
23.504150390625 40.904052734375 27.959228515625
-53.202392578125 -43.633056640625 13.220458984375
28.244873046875 38.03466796875 28.154296875
-31.704833984375 -43.38427734375 8.31884765625
-42.935302734375 -50.2216796875 8.299560546875
52.83056640625 59.335205078125 26.764892578125
-18.101806640625 -11.619873046875 22.343505859375
43.03564453125 49.68212890625 -44.503662109375
-73.993896484375 -55.939453125 10.075439453125
3.65771484375 17.34423828125 28.82861328125
-16.078125 -4.232666015625 23.169189453125
-21.458984375 -25.15966796875 18.127197265625
-54.109130859375 -60.613037109375 10.35595703125
-49.49365234375 -63.775146484375 0.223388671875
-86.569580078125 -47.453857421875 9.82275390625
-84.97802734375 -51.162109375 9.777099609375
-57.069580078125 -66.0948486328125 -0.49951171875
-44.685302734375 -57.262939453125 8.051513671875
-59.029541015625 -58.839111328125 9.9091796875
-63.677001953125 -42.575439453125 13.544189453125
-61.863525390625 -61.674560546875 9.21484375
-58.540771484375 -48.0537109375 12.42333984375
-3.467529296875 -10.80810546875 19.401611328125
2.488037109375 5.5048828125 26.4150390625
-57.901123046875 -39.82080078125 13.97802734375
-56.87744140625 -26.081787109375 -39.67431640625
33.209228515625 54.078857421875 31.0927734375
38.462890625 38.320556640625 26.95166015625
-81.374267578125 -37.756103515625 11.4365234375
-39.042236328125 -49.12939453125 6.283203125
48.096435546875 52.41552734375 27.02197265625
42.542236328125 39.60693359375 -42.038330078125
-49.13916015625 -53.691650390625 11.22412109375
-26.987060546875 -26.050048828125 -40.7158203125
14.008056640625 14.5009765625 28.890625
-60.265625 -64.248291015625 0.76123046875
30.549072265625 61.648193359375 30.22021484375
-57.012451171875 -55.5703125 10.531005859375
42.527587890625 52.424072265625 22.652587890625
-31.29052734375 -32.04345703125 17.798828125
28.7412109375 52.5556640625 32.4169921875
-64.91357421875 -64.147216796875 7.484619140625
-29.6298828125 -28.7666015625 18.1533203125
-77.13232421875 -40.670166015625 12.80908203125
-8.519775390625 -10.846435546875 21.88818359375
-24.131591796875 -26.54833984375 -39.106201171875
-35.999755859375 -48.368408203125 6.1748046875
48.1064453125 62.420654296875 25.068603515625
-5.499267578125 -9.62353515625 21.9619140625
-77.013427734375 -48.04248046875 11.5029296875
43.17724609375 44.61376953125 -40.76904296875
-81.51171875 -47.52685546875 11.46142578125
-10.291748046875 33.36474609375 -26.224609375
-51.865234375 -67.251953125 -3.048583984375
46.72900390625 59.52294921875 27.37060546875
25.865478515625 34.495361328125 29.75048828125
-60.849365234375 -28.69189453125 -40.294677734375
43.93603515625 43.321533203125 24.521484375
40.645263671875 55.45849609375 31.45068359375
-70.648193359375 -39.56982421875 13.447509765625
-78.09814453125 -36.970458984375 13.985107421875
3.297119140625 12.420166015625 28.3505859375
8.966796875 12.037841796875 28.210693359375
-78.4501953125 -41.16357421875 -37.165283203125
-52.5234375 -23.90380859375 -41.03955078125
43.253173828125 49.994384765625 21.808837890625
-25.8701171875 -25.51708984375 18.6328125
37.676025390625 38.769775390625 -43.6787109375
17.717041015625 60.311767578125 34.330322265625
-52.5244140625 -39.5146484375 14.266357421875
52.1171875 47.699462890625 21.08935546875
32.442626953125 35.53125 28.69140625
46.205078125 52.5712890625 -40.634765625
-63.64697265625 -56.223388671875 10.203857421875
44.009765625 59.284423828125 28.607177734375
-45.00390625 -44.205322265625 14.155517578125
-68.4482421875 -68.665283203125 5.91748046875
-46.44140625 -33.857666015625 15.616943359375
-73.876220703125 -43.185791015625 12.785888671875
-44.287841796875 -52.74951171875 6.550048828125
1.427734375 1.000244140625 25.40625
-80.346923828125 -41.83251953125 12.33203125
-85.239501953125 -45.390380859375 11.971435546875
-73.1748046875 -34.212646484375 14.18798828125
-67.960693359375 -32.260498046875 15.098876953125
-11.600341796875 31.15673828125 -26.62890625
-48.57177734375 -62.345947265625 4.0361328125
-43.037353515625 -36.392578125 15.293212890625
-33.934326171875 -43.787841796875 6.823486328125
-64.01904296875 -30.697509765625 14.03759765625
-65.17333984375 -59.10302734375 9.243896484375
-77.429443359375 -31.28662109375 15.337890625
-55.97607421875 -32.873291015625 15.25048828125
24.88671875 60.756591796875 32.517822265625
-15.385498046875 -10.798583984375 21.84326171875
-20.909912109375 -26.400634765625 15.9697265625
-74.8466796875 -52.62548828125 10.497802734375
41.369384765625 60.072265625 28.517333984375
-23.254638671875 -18.9599609375 20.439453125
-16.906005859375 -15.724609375 20.861083984375
-52.887939453125 -64.75 -4.176513671875
-68.1318359375 -39.625 13.227294921875
43.701416015625 52.32275390625 30.3046875
53.812255859375 62.0791015625 25.532958984375
-37.587890625 -37.732421875 15.411865234375
-2.0537109375 2.239501953125 25.544677734375
6.947021484375 4.361083984375 24.585205078125
-30.986572265625 -23.799072265625 18.779541015625
-67.3427734375 -63.678955078125 7.103515625
-65.783203125 -37.614990234375 14.09375
-63.793212890625 -51.243896484375 11.3388671875
-5.748291015625 6.724365234375 26.623046875
-62.18212890625 -33.994140625 15.023193359375
-25.80908203125 -37.203369140625 9.265380859375
-36.358154296875 -40.681396484375 13.61669921875
46.74755859375 56.696044921875 29.552978515625
-13.42529296875 -9.180419921875 22.595947265625
0.470947265625 -2.257080078125 24.109619140625
-26.047607421875 -30.062255859375 17.392822265625
47.5400390625 48.16748046875 23.5634765625
-14.68359375 -23.96630859375 13.8232421875
18.560546875 64.390869140625 32.01123046875
-68.769775390625 -29.8017578125 15.202880859375
-32.087890625 -23.27783203125 -40.434326171875
-69.335693359375 -55.683349609375 9.512451171875
-35.858154296875 -45.40185546875 7.5859375
8.986083984375 17.82080078125 28.435302734375
39.748779296875 35.43798828125 -42.68896484375
-80.11376953125 -53.73388671875 9.9033203125
-2.23828125 -2.6787109375 24.461669921875
22.24072265625 57.860107421875 34.98193359375
30.270263671875 65.2099609375 28.67333984375
15.84228515625 14.205322265625 27.283447265625
-10.728759765625 -16.56689453125 18.713623046875
33.304443359375 45.968994140625 25.5146484375
-13.206298828125 -12.049560546875 21.65234375
-2.506103515625 9.569580078125 27.437255859375
-35.368408203125 -27.7373046875 -38.350830078125
-82.908935546875 -41.94091796875 -36.822265625
-52.722412109375 -26.138916015625 -40.16650390625
16.736572265625 56.61279296875 37.073974609375
37.23779296875 43.079345703125 25.623291015625
-51.052734375 -45.337158203125 12.861083984375
-56.822265625 -60.587646484375 9.2353515625
-9.012451171875 37.949951171875 -27.32763671875
-65.74951171875 -52.4521484375 10.59326171875
36.32861328125 56.48779296875 32.361083984375
-82.07421875 -39.34228515625 13.11376953125
-52.219970703125 -59.472900390625 9.448974609375
39.377685546875 62.203857421875 27.95458984375
45.198486328125 48.372314453125 -40.762451171875
37.7587890625 58.3837890625 30.967529296875
-36.426513671875 -24.576171875 -39.592041015625
-77.290283203125 -51.337646484375 10.433837890625
-67.5419921875 -34.715576171875 14.88037109375
-7.4072265625 3.856201171875 26.272216796875
28.335693359375 55.94580078125 34.955810546875
48.9609375 44.828857421875 23.258056640625
-61.84375 -47.978515625 12.26318359375
-51.853271484375 -35.817138671875 15.304443359375
46.636962890625 65.88330078125 24.328125
25.825439453125 41.395751953125 27.644775390625
-37.69482421875 -43.591796875 11.88134765625
-22.5986328125 -13.625244140625 21.4951171875
46.560546875 50.2138671875 -40.345947265625
21.911865234375 61.951416015625 32.314453125
27.68017578125 62.31201171875 30.87890625
38.50244140625 37.20361328125 -41.79541015625
46.020751953125 63.1044921875 25.833740234375
-44.222412109375 -26.709228515625 -39.59130859375
-17.0263671875 -20.25390625 19.471923828125
-61.584716796875 -64.489501953125 3.2001953125
53.58740234375 66.294921875 28.591796875
30.725341796875 46.36962890625 25.269775390625
-56.635986328125 -64.12255859375 -2.54736328125
-50.4052734375 -26.170654296875 -40.441162109375
-36.078857421875 -31.764892578125 -39.558837890625
36.54443359375 50.56298828125 8.98193359375
-26.174560546875 -35.48876953125 12.517333984375
45.580810546875 42.779296875 -40.703857421875
-32.637451171875 -32.266845703125 -38.55615234375
0.2119140625 7.95556640625 26.915771484375
-80.9453125 -36.51025390625 13.94384765625
51.06201171875 58.306396484375 27.77587890625
41.923095703125 41.562744140625 -43.031494140625
34.412353515625 65.56689453125 27.03857421875
-19.320068359375 -3.78369140625 22.549072265625
-28.709716796875 -32.923583984375 15.93017578125
-40.607421875 -27.657470703125 -39.5
-7.1162109375 -1.034912109375 25.01025390625
9.922119140625 6.34814453125 26.30029296875
33.317138671875 60.51806640625 29.854248046875
-48.364013671875 -40.832763671875 14.340087890625
-69.930419921875 -62.03955078125 5.3837890625
-70.911865234375 -44.89990234375 12.203369140625
12.263427734375 60.689453125 36.445068359375
38.90478515625 49.23974609375 23.78857421875
-10.21630859375 -12.487548828125 21.7041015625
17.29345703125 62.130126953125 33.08642578125
-63.968017578125 -62.432861328125 9.24072265625
-31.418212890625 -25.99365234375 -39.489990234375
4.616943359375 -0.223388671875 24.84912109375
48.810546875 51.694580078125 22.76171875
43.16650390625 50.521484375 -47.81591796875
-31.0517578125 -34.119873046875 16.70703125
-50.87548828125 -33.374755859375 14.807861328125
-67.68896484375 -42.50341796875 12.85009765625
-26.218017578125 -27.990966796875 18.180908203125
5.254638671875 8.349609375 27.416015625
32.58447265625 40.293701171875 27.270751953125
-61.74365234375 -52.114501953125 11.44677734375
-42.574951171875 -48.9111328125 10.566650390625
11.374755859375 10.852783203125 27.427490234375
-44.22216796875 -54.778076171875 8.045166015625
-81.404296875 -32.034423828125 14.638427734375
-86.920654296875 -51.95361328125 9.0419921875
-19.464111328125 -16.93896484375 20.753662109375
31.4912109375 53.73779296875 33.39794921875
-80.231689453125 -42.44287109375 -37.146240234375
-44.52294921875 -33.8994140625 14.557373046875
15.771728515625 58.35693359375 36.165283203125
-72.068359375 -47.753662109375 11.517822265625
-80.994384765625 -44.57373046875 -35.1875
-76.295166015625 -44.772216796875 12.38037109375
20.2490234375 57.30029296875 35.690673828125
-85.927490234375 -49.474365234375 10.783447265625
7.5615234375 14.072998046875 28.636474609375
34.880615234375 53.923095703125 32.57568359375
-33.743408203125 -45.86572265625 7.698486328125
-21.675537109375 -9.09521484375 21.48388671875
48.916259765625 58.29296875 27.488525390625
-23.999755859375 -34.275634765625 12.5
-40.1748046875 -34.37841796875 15.825927734375
-23.833251953125 -24.30712890625 19.07763671875
22.03076171875 51.139892578125 39.05322265625
-17.3759765625 -6.698486328125 23.090576171875
-55.30810546875 -67.9822998046875 -3.043212890625
-55.4013671875 -70.4881591796875 -2.75537109375
34.386962890625 36.441162109375 28.26513671875
36.78125 36.10595703125 27.787109375
44.59228515625 40.122314453125 -42.263671875
-18.636474609375 -21.886962890625 18.98486328125
-5.202392578125 -3.07470703125 24.2451171875
50.875244140625 65.04541015625 25.04541015625
-67.999267578125 -47.4306640625 11.911865234375
-8.092529296875 -5.111572265625 23.706298828125
-80.712158203125 -43.86962890625 11.888916015625
43.8408203125 54.30810546875 31.203857421875
9.45068359375 63.55224609375 35.969482421875
-55.753662109375 -43.16064453125 13.447509765625
31.849609375 32.98193359375 28.994384765625
-12.9677734375 -1.8203125 24.427734375
27.114501953125 39.741455078125 27.6728515625
-73.530517578125 -28.91357421875 14.29296875
-14.36181640625 -16.16357421875 20.947021484375
-54.277099609375 -47.755859375 12.05615234375
40.43212890625 39.660888671875 26.52587890625
-67.884765625 -66.52099609375 7.568115234375
-68.7353515625 -50.302734375 11.187744140625
40.78564453125 43.042724609375 -43.974365234375
-35.7958984375 -29.0849609375 17.321044921875
31.30029296875 55.72802734375 34.01904296875
-51.224853515625 -61.301513671875 6.594970703125
-12.30126953125 -7.55615234375 23.266845703125
24.159912109375 53.947998046875 36.8037109375
-13.23388671875 -18.614990234375 18.29150390625
35.53662109375 63.00634765625 27.51171875
14.596923828125 10.065673828125 26.87939453125
-36.495361328125 -33.613525390625 16.422607421875
-67.86181640625 -69.30517578125 2.638427734375
-49.40087890625 -47.85009765625 12.833251953125
-64.638427734375 -65.4837646484375 5.919189453125
-45.125244140625 -51.43603515625 30.83056640625
-42.954833984375 -28.5185546875 -39.237548828125
-71.241943359375 -31.390625 15.09765625
23.758056640625 56.57763671875 35.576416015625
-68.539794921875 -62.00146484375 6.931884765625
35.881591796875 32.74609375 27.659912109375
-38.796142578125 -39.366455078125 15.042236328125
-1.091064453125 13.71484375 27.240966796875
18.246337890625 55.337890625 37.66455078125
27.2900390625 54.0498046875 36.58642578125
20.67236328125 59.121337890625 34.534912109375
-16.41943359375 -21.475830078125 17.166015625
-47.010498046875 -53.427490234375 29.951171875
-19.07275390625 -28.50244140625 12.15966796875
-44.277099609375 -38.02001953125 15.0771484375
-71.061279296875 -54.38525390625 9.98583984375
-62.931396484375 -38.48583984375 14.281494140625
-59.64697265625 -66.552978515625 -2.606689453125
-48.94140625 -36.692626953125 15.342529296875
40.559814453125 39.111572265625 -42.001953125
-11.544189453125 34.56201171875 -24.87646484375
30.99462890625 41.994873046875 26.821533203125
-2.681884765625 -7.176025390625 22.810302734375
28.9404296875 28.83251953125 28.27001953125
-77.8994140625 -45.96630859375 12.05810546875
20.6005859375 64.162353515625 31.13134765625
42.002197265625 66.548583984375 24.690185546875
-48.571533203125 -62.449462890625 2.0234375
-77.480224609375 -55.899658203125 8.734375
44.088134765625 51.88525390625 -43.13134765625
-74.80859375 -35.812744140625 14.01123046875
39.695556640625 58.072998046875 30.52880859375
-65.547607421875 -31.483642578125 15.4951171875
-28.49365234375 -16.82568359375 19.413818359375
38.422119140625 64.83837890625 27.0244140625
42.759033203125 47.7255859375 -43.7685546875
-13.916748046875 0.705810546875 23.361328125
-46.52001953125 -27.123291015625 -39.50341796875
-56.968505859375 -22.949951171875 -41.379150390625
-63.39892578125 -65.2286376953125 3.819091796875
-39.251708984375 -43.9453125 13.06640625
27.306640625 59.084228515625 33.046142578125
10.20947265625 9.220947265625 26.906005859375
-83.91845703125 -46.66162109375 11.240234375
34.51953125 57.259033203125 32.501953125
28.397705078125 32.42333984375 29.974853515625
37.21728515625 53.44921875 33.4208984375
-33.31103515625 -26.417724609375 -39.275634765625
25.24267578125 36.221435546875 29.08740234375
41.58642578125 45.16845703125 -41.8505859375
39.62890625 52.295654296875 23.175048828125
46.92529296875 61.024169921875 25.737060546875
-55.088134765625 -61.482421875 8.91748046875
-5.024169921875 -6.771728515625 23.443115234375
1.287841796875 9.974365234375 27.73876953125
-68.14404296875 -57.352294921875 9.68408203125
-19.61962890625 -24.76611328125 17.68310546875
7.582763671875 2.66259765625 25.25048828125
27.466796875 42.774169921875 26.80224609375
41.851806640625 43.199951171875 25.27587890625
12.231689453125 15.310791015625 29.0341796875
42.200439453125 37.787841796875 -42.57080078125
-24.070556640625 -11.166748046875 22.383544921875
-73.35009765625 -57.25048828125 8.64453125
25.8291015625 52.72998046875 36.95703125
33.873779296875 61.582275390625 28.355224609375
-39.88916015625 -45.613525390625 12.042724609375
25.275390625 33.0341796875 27.570556640625
15.66064453125 61.944580078125 34.068115234375
16.574951171875 64.228759765625 32.7333984375
42.440673828125 38.913818359375 25.918212890625
-67.473876953125 -60.3271484375 8.072265625
-71.0673828125 -65.63818359375 6.80712890625
-55.028076171875 -25.66162109375 -39.886962890625
-59.087158203125 -69.146728515625 -3.482666015625
-75.389892578125 -39.0224609375 -36.802490234375
-31.69482421875 -43.8447265625 6.468994140625
-3.66015625 0.60986328125 25.058837890625
52.09130859375 65.69873046875 26.609375
-43.402587890625 -39.689697265625 14.830078125
-37.499267578125 -45.32666015625 9.107666015625
-47.62646484375 -23.971923828125 -40.561767578125
-35.12451171875 -24.14013671875 16.5888671875
-60.150634765625 -35.665283203125 15.122802734375
-39.829345703125 -50.797607421875 5.869384765625
-44.419677734375 -50.987060546875 9.181884765625
-42.19189453125 -30.3193359375 -38.64892578125
-31.663330078125 -29.588134765625 -38.630615234375
-8.8115234375 0.61962890625 25.01806640625
-25.830322265625 -16.052001953125 20.68798828125
-49.48095703125 -60.112060546875 6.45458984375
-57.4951171875 -71.2764892578125 -3.036865234375
28.698974609375 53.04541015625 35.034423828125
1.711181640625 3.042236328125 26.00048828125
-47.349609375 -35.48388671875 15.820068359375
50.615966796875 50.177734375 21.543212890625
39.428466796875 43.10302734375 25.755859375
-58.896728515625 -60.531494140625 9.117919921875
34.98388671875 54.662353515625 23.71533203125
-45.8017578125 -53.087890625 7.598876953125
-10.7119140625 31.310546875 -28.27001953125
-33.44482421875 -27.884521484375 18.18310546875
39.61083984375 53.98046875 32.966064453125
-78.215087890625 -45.53759765625 -36.21728515625
29.061279296875 44.139892578125 26.108154296875
-73.929443359375 -38.68798828125 13.44873046875
-69.53076171875 -35.091064453125 14.453369140625
-22.679443359375 -20.6083984375 19.77734375
-53.389404296875 -37.8505859375 14.512939453125
-76.806640625 -42.5029296875 -36.512451171875
-58.15283203125 -46.000244140625 12.7177734375
-47.6181640625 -50.8037109375 12.18701171875
33.552490234375 38.53076171875 28.20849609375
-7.6953125 37.220703125 -28.860107421875
-9.155517578125 -14.93017578125 19.35546875
-4.253173828125 10.47216796875 26.121337890625
4.128173828125 -1.82666015625 23.535400390625
-53.9794921875 -45.271484375 12.8154296875
-45.596923828125 -51.32177734375 10.645751953125
-67.2900390625 -59.031982421875 9.433837890625
23.918212890625 35.656005859375 30.3486328125
-38.343994140625 -31.279296875 -39.64013671875
-62.106689453125 -40.140625 14.187255859375
-10.4736328125 -8.79150390625 22.810546875
32.3046875 64.957275390625 27.92822265625
35.437255859375 47.80078125 24.63232421875
36.515869140625 53.654296875 31.724365234375
23.136962890625 52.477294921875 38.42626953125
-58.1279296875 -23.391845703125 -40.0146484375
-76.445556640625 -55.055908203125 10.006591796875
-4.15673828125 7.524169921875 27.0966796875
32.369384765625 58.056396484375 32.37646484375
-80.735595703125 -45.9052734375 11.862548828125
19.650634765625 60.443359375 33.760498046875
-24.501953125 -17.29638671875 20.415283203125
-39.93408203125 -41.00732421875 14.3671875
-36.13671875 -29.9677734375 -39.173583984375
-82.614013671875 -33.635986328125 14.42578125
-71.9541015625 -59.806640625 7.57568359375
51.4501953125 59.87451171875 25.679931640625
-54.386962890625 -58.56591796875 9.804443359375
-80.172119140625 -34.897216796875 14.343017578125
14.049560546875 57.728515625 37.420166015625
-47.275146484375 -59.266357421875 8.1015625
-34.852294921875 -47.118896484375 6.858642578125
-57.76220703125 -32.838623046875 15.848876953125
-60.228515625 -47.18701171875 12.58251953125
-65.32666015625 -54.936767578125 10.37060546875
37.89111328125 45.25390625 25.15673828125
45.77978515625 42.099609375 24.364501953125
-76.34375 -42.31494140625 12.86572265625
-64.583251953125 -35.59033203125 14.46435546875
-83.556884765625 -42.9931640625 11.855712890625
-56.97216796875 -69.210693359375 -3.37255859375
-72.85986328125 -50.6103515625 11.098876953125
-72.517333984375 -45.6884765625 11.88525390625
-59.47802734375 -26.48779296875 -40.25048828125
-78.827880859375 -30.456787109375 13.991455078125
-48.88916015625 -54.9892578125 9.97509765625
-14.611083984375 -17.803955078125 20.20263671875
29.561767578125 59.1640625 32.885009765625
-25.174072265625 -26.527587890625 -40.5791015625
-75.83740234375 -30.500244140625 15.654296875
-9.188232421875 -1.430419921875 24.725341796875
-35.738525390625 -25.937255859375 -38.634033203125
55.049072265625 63.33349609375 25.906982421875
-11.460693359375 2.665771484375 25.3984375
-59.092041015625 -56.34228515625 10.402099609375
-39.484375 -46.96923828125 8.344482421875
-21.306640625 -14.870361328125 21.3740234375
41.839599609375 47.544677734375 24.2900390625
-11.66845703125 -3.056640625 24.308837890625
13.455810546875 63.095458984375 34.242431640625
-30.4267578125 -30.954345703125 -38.0888671875
-34.360595703125 -32.240234375 -39.060302734375
50.7041015625 48.366943359375 22.419189453125
4.64111328125 1.8525390625 24.8759765625
8.0986328125 7.159423828125 26.597412109375
-31.35986328125 -28.327880859375 18.302001953125
0.77197265625 6.331298828125 26.4111328125
-75.92041015625 -35.95654296875 -38.78076171875
-63.256103515625 -64.317626953125 5.351318359375
11.194580078125 61.98095703125 35.82373046875
-46.540771484375 -28.910888671875 -39.526611328125
-48.225341796875 -26.203369140625 -39.994140625
44.286376953125 63.5048828125 25.67138671875
-47.318359375 -54.255615234375 8.632080078125
-9.033203125 36.163818359375 -27.3505859375
35.385009765625 40.378662109375 26.9140625
27.16357421875 36.711669921875 28.657958984375
27.201904296875 30.90087890625 28.28076171875
-29.451171875 -21.353271484375 19.5771484375
-85.31787109375 -52.80615234375 9.18505859375
-2.206787109375 -9.57080078125 19.6162109375
-0.217529296875 0.189453125 25.080810546875
-69.872314453125 -67.3150634765625 6.978515625
14.765869140625 15.814697265625 27.973876953125
-42.648681640625 -47.597900390625 12.855712890625
-27.81689453125 -20.1396484375 19.905029296875
24.791015625 33.181640625 30.250244140625
37.28173828125 66.142822265625 26.533935546875
-21.15185546875 -30.98291015625 11.69482421875
45.376953125 52.88916015625 29.453125
43.796875 51.728515625 21.6396484375
-6.862060546875 5.522705078125 25.960693359375
-61.945068359375 -65.4578857421875 0.592041015625
-41.208251953125 -42.22119140625 14.308837890625
-18.394775390625 -13.2529296875 21.754150390625
46.646240234375 52.079833984375 26.082275390625
-27.3251953125 -21.790283203125 19.5458984375
-22.666748046875 -26.384521484375 17.761962890625
-10.745361328125 -15.354736328125 20.371337890625
40.1640625 47.972900390625 23.974365234375
-68.853271484375 -43.71630859375 12.337890625
-18.5361328125 -7.911865234375 22.576904296875
11.764892578125 6.7822265625 26.018798828125
-32.541015625 -25.072265625 -40.583984375
-30.870361328125 -29.986083984375 17.94140625
-30.621826171875 -28.25537109375 -39.085205078125
14.064453125 59.546142578125 36.1591796875
-2.56591796875 3.875732421875 25.900146484375
47.927734375 46.463623046875 23.66064453125
-27.2919921875 -15.60693359375 19.777099609375
-52.61865234375 -49.4453125 12.03857421875
-29.714111328125 -19.693603515625 19.029052734375
-14.876708984375 -3.013916015625 23.53271484375
-83.4560546875 -50.7666015625 10.5439453125
-60.690673828125 -62.9296875 9.546142578125
-45.2490234375 -48.768798828125 13.063232421875
47.190673828125 43.40673828125 24.275390625
-56.537841796875 -62.2197265625 9.79248046875
55.576904296875 64.898193359375 26.93603515625
-42.92724609375 -41.768798828125 14.46142578125
26.79248046875 60.866943359375 32.090576171875
-75.8095703125 -32.531494140625 15.328125
30.2216796875 63.345458984375 29.974365234375
27.82421875 57.719970703125 34.0048828125
-62.4482421875 -55.007568359375 10.56640625
-53.70947265625 -54.822509765625 10.854248046875
1.313720703125 16.154052734375 27.96826171875
34.93994140625 43.019287109375 25.796142578125
28.755615234375 35.852783203125 29.11572265625
31.085693359375 29.557861328125 29.73779296875
-58.630615234375 -42.69140625 13.25439453125
-80.46923828125 -33.273193359375 13.79931640625
20.86572265625 52.386962890625 38.723876953125
-60.790283203125 -53.399658203125 10.74365234375
-41.12255859375 -43.88623046875 13.828369140625
42.7216796875 48.965576171875 23.191650390625
-16.112548828125 -25.20556640625 14.228759765625
-13.463623046875 -14.513427734375 20.89794921875
35.917236328125 50.9130859375 23.441650390625
-72.747314453125 -54.7431640625 10.131103515625
-64.226318359375 -49.583984375 11.55029296875
21.677490234375 53.773193359375 37.689453125
-76.909423828125 -35.36328125 14.348388671875
36.19189453125 41.757080078125 25.981689453125
36.96484375 37.3046875 -43.07177734375
-47.268798828125 -37.135498046875 15.34326171875
41.1259765625 51.999755859375 32.392578125
37.400146484375 40.34765625 27.503662109375
-3.85888671875 2.639404296875 25.8359375
-51.54052734375 -60.3837890625 8.1611328125
-54.152587890625 -64.60009765625 -2.163818359375
-63.49951171875 -31.109130859375 15.621337890625
-38.14599609375 -33.173583984375 16.268798828125
-74.1708984375 -30.12158203125 15.515869140625
-32.64794921875 -24.1884765625 18.6142578125
24.0634765625 64.83984375 30.009521484375
-20.103271484375 -21.050537109375 19.71044921875
48.27734375 66.459716796875 23.609619140625
10.376953125 17.337158203125 29.491943359375
-55.41943359375 -54.769775390625 11.0048828125
-65.219482421875 -45.01611328125 12.748779296875
-34.70361328125 -43.320068359375 8.2783203125
-52.90625 -41.156005859375 13.9775390625
-64.1279296875 -40.103759765625 13.915771484375
-53.523193359375 -67.6385498046875 -3.3671875
1.671630859375 12.84716796875 28.04150390625
-17.774169921875 -3.40185546875 23.167724609375
-45.9599609375 -50.4267578125 12.349609375
-21.435546875 -19.38525390625 19.989990234375
-62.03759765625 -41.78857421875 13.71142578125
2.78173828125 14.0458984375 28.703125
-26.123291015625 -20.5712890625 19.909423828125
-52.177978515625 -51.11279296875 11.826416015625
-24.921630859375 -19.352294921875 20.27294921875
-56.72314453125 -24.298828125 -40.370361328125
-28.112060546875 -24.664306640625 19.12548828125
32.7216796875 29.65625 28.884033203125
-26.915283203125 -17.26220703125 19.87158203125
-28.116943359375 -18.48095703125 19.50830078125
-59.965087890625 -64.763916015625 -0.83056640625
-10.956787109375 1.033935546875 25.043701171875
-58.677490234375 -54.699951171875 10.5390625
-73.171875 -36.250732421875 14.010986328125
-36.517822265625 -26.18701171875 16.974853515625
-57.40185546875 -43.949462890625 13.280029296875
43.42138671875 49.49169921875 -42.724853515625
-64.7685546875 -60.764404296875 9.184326171875
30.0556640625 28.26171875 30.088623046875
-0.61572265625 -4.71044921875 23.274169921875
12.804443359375 10.05224609375 27.014892578125
-70.309814453125 -52.743896484375 10.54296875
-63.46337890625 -46.713134765625 12.122802734375
28.465576171875 63.717041015625 29.962158203125
-46.587158203125 -47.07275390625 13.501953125
-58.865478515625 -31.595947265625 15.218017578125
-46.6494140625 -57.239990234375 7.31103515625
38.54833984375 54.472900390625 22.536865234375
-74.62548828125 -38.627197265625 -38.798828125
-27.1396484375 -28.3056640625 -40.1982421875
-22.50048828125 -11.96923828125 21.21484375
-69.753662109375 -57.73095703125 9.37060546875
37.147705078125 62.9814453125 27.983154296875
-66.833984375 -46.215576171875 12.4248046875
-56.931396484375 -27.86181640625 -39.517822265625
-73.696044921875 -48.1279296875 11.357421875
-72.316650390625 -39.12548828125 13.59912109375
-50.443115234375 -57.46630859375 9.16796875
-9.99951171875 -3.068603515625 24.47216796875
-39.330810546875 -29.855224609375 16.1162109375
47.398681640625 50.8017578125 22.85791015625
15.213623046875 56.48291015625 37.749267578125
-21.245849609375 -16.5146484375 21.05078125
16.998046875 14.77587890625 25.138916015625
-16.635986328125 -12.43701171875 21.624755859375
-40.82568359375 -49.853515625 8.423095703125
-29.55712890625 -25.119140625 -39.517333984375
-52.31640625 -65.537353515625 -2.82373046875
-29.922607421875 -32.894775390625 17.3759765625
-85.531982421875 -47.034423828125 11.08056640625
-5.869140625 0.192138671875 25.22412109375
-66.481689453125 -57.399658203125 9.68603515625
5.31591796875 15.691650390625 28.972900390625
44.50244140625 47.161865234375 24.381591796875
-81.657470703125 -53.716552734375 9.2919921875
-48.833740234375 -58.92626953125 5.492919921875
13.1240234375 11.687744140625 27.45361328125
10.8837890625 59.80078125 36.673095703125
-62.541259765625 -27.33154296875 -40.777099609375
-55.037841796875 -38.6416015625 14.344970703125
38.592529296875 46.60791015625 24.524658203125
40.0458984375 36.31494140625 26.211181640625
42.621337890625 64.7734375 25.36669921875
-75.296142578125 -48.507080078125 11.044921875
-33.0302734375 -26.2421875 18.3203125
46.019287109375 47.6640625 23.97314453125
-8.130615234375 2.235107421875 25.720458984375
-43.624267578125 -54.063720703125 5.396728515625
-24.180908203125 -13.600830078125 21.031982421875
47.2255859375 57.712890625 28.34814453125
6.034912109375 2.69482421875 24.632568359375
-87.660888671875 -48.27197265625 8.8603515625
27.376220703125 34.155029296875 29.194580078125
-78.934326171875 -51.295166015625 10.431396484375
-66.2119140625 -66.1630859375 7.57373046875
41.590576171875 45.777099609375 24.883056640625
42.309326171875 56.029541015625 30.604248046875
-55.9951171875 -34.511962890625 15.229248046875
-2.04638671875 11.22216796875 27.425048828125
-42.48388671875 -54.831298828125 7.889892578125
-1.2958984375 -6.343017578125 22.564697265625
26.525390625 31.53955078125 30.24658203125
-60.305419921875 -43.4755859375 13.2392578125
-3.68310546875 -5.531005859375 23.355224609375
-9.250732421875 4.322265625 25.25
-79.516357421875 -44.19287109375 -36.2177734375
-69.088134765625 -60.706298828125 7.758056640625
-6.82470703125 -2.229248046875 23.941650390625
-25.0126953125 -27.8876953125 -39.377197265625
26.374755859375 64.95068359375 29.693603515625
30.504638671875 60.21142578125 31.520263671875
-38.69970703125 -28.133544921875 -39.906494140625
52.86181640625 60.7724609375 25.586181640625
0.98828125 -5.093505859375 22.25390625
37.86669921875 57.015869140625 31.8193359375
-59.81103515625 -29.5986328125 -41.13525390625
22.6318359375 63.325927734375 31.5537109375
-53.95751953125 -24.780029296875 -40.70556640625
-51.21240234375 -24.81640625 -40.855224609375
32.483642578125 56.695068359375 33.222412109375
-10.744873046875 35.13623046875 -26.150634765625
30.963623046875 35.051513671875 29.08837890625
44.13427734375 45.355224609375 25.282470703125
-33.863037109375 -36.971435546875 15.856689453125
-64.364013671875 -57.468505859375 9.496337890625
-54.10400390625 -42.370849609375 13.615234375
-20.059814453125 -13.235595703125 21.59228515625
-43.353759765625 -48.843505859375 12.146240234375
-49.81591796875 -49.49365234375 12.696044921875
44.703369140625 44.189453125 -40.947265625
-50.84326171875 -63.826904296875 -1.526611328125
-74.4716796875 -35.107421875 -39.46484375
18.708984375 56.758056640625 36.365478515625
13.940185546875 13.336181640625 27.70849609375
-74.7177734375 -36.852294921875 -38.06591796875
-33.235107421875 -22.522705078125 17.64599609375
38.767822265625 38.673583984375 -42.53076171875
-35.888427734375 -37.351806640625 15.42333984375
42.38427734375 42.341796875 -41.43701171875
15.790283203125 60.180908203125 34.89794921875
19.18359375 59.008056640625 35.0712890625
40.952392578125 65.0224609375 26.241943359375
42.820556640625 41.974853515625 25.036376953125
39.28271484375 56.24853515625 31.56005859375
-0.44921875 12.434814453125 27.904296875
-37.975341796875 -48.34326171875 5.4287109375
40.942626953125 56.82080078125 30.714599609375
-71.707275390625 -58.5302734375 8.629638671875
-6.306396484375 8.017333984375 25.659423828125
-34.312255859375 -24.9892578125 18.443603515625
33.17138671875 33.83056640625 29.0556640625
29.321044921875 61.478271484375 31.185791015625
-80.111328125 -38.15380859375 13.69970703125
45.529052734375 56.13671875 30.37158203125
-59.19287109375 -38.970458984375 14.250244140625
-46.7109375 -57.311767578125 5.63037109375
40.423828125 44.319580078125 -42.821044921875
-19.848876953125 -23.5263671875 18.6142578125
-37.454833984375 -29.471435546875 17.15625
-52.75830078125 -57.771484375 10.12548828125
-50.182373046875 -65.0635986328125 -0.6669921875
-43.54150390625 -51.496826171875 7.11328125
-78.751220703125 -55.033935546875 9.01171875
48.01513671875 60.114013671875 26.38916015625
-60.261474609375 -60.0498046875 9.699462890625
-86.63037109375 -50.70654296875 9.932373046875
-36.546630859375 -28.166748046875 -39.2763671875
36.63623046875 46.517822265625 24.97119140625
45.45751953125 64.480712890625 24.998046875
43.091064453125 40.243408203125 25.43994140625
42.8740234375 46.05810546875 -41.258056640625
-75.48828125 -55.937255859375 9.15673828125
-6.887451171875 -3.889404296875 24.07080078125
42.454833984375 59.168701171875 29.16357421875
-25.12109375 -28.833984375 17.18408203125
33.32958984375 51.7333984375 23.202880859375
42.781494140625 63.405517578125 26.08203125
45.4306640625 57.511474609375 29.512939453125
47.376953125 64.575439453125 24.703857421875
0.726806640625 -3.880859375 23.180419921875
-31.875244140625 -22.553955078125 19.018310546875
-15.742919921875 -5.893310546875 23.413818359375
1.9375 -2.65283203125 23.546630859375
35.08251953125 31.806884765625 28.592041015625
-62.66015625 -50.428955078125 12.000732421875
42.501953125 44.534912109375 24.796875
-47.06884765625 -52.0810546875 11.518798828125
-62.735107421875 -44.250732421875 12.841796875
32.625244140625 37.253662109375 28.259765625
-50.989013671875 -48.238037109375 12.364501953125
-32.363525390625 -34.92236328125 16.80517578125
33.55322265625 58.614013671875 31.56884765625
-70.05712890625 -59.40087890625 8.6201171875
-70.247314453125 -29.372314453125 14.29833984375
-38.763671875 -50.01416015625 5.013671875
43.4892578125 50.305908203125 -45.83056640625
54.854736328125 65.45556640625 28.7841796875
40.817138671875 44.118408203125 24.47021484375
-57.01953125 -42.30908203125 13.568603515625
-66.58544921875 -54.075927734375 10.494384765625
52.086669921875 64.17822265625 25.391845703125
-18.071044921875 -5.439208984375 22.57421875
32.583984375 61.806640625 29.485107421875
-20.554443359375 -7.88623046875 22.1484375
-34.7158203125 -39.4658203125 13.94482421875
55.274169921875 61.72900390625 25.26806640625
-9.18701171875 -7.972900390625 22.867919921875
-20.708251953125 -18.162353515625 20.541015625
-45.133544921875 -28.037841796875 -39.679443359375
42.009765625 54.6669921875 31.341064453125
-32.1552734375 -43.450927734375 4.817626953125
-8.4521484375 -12.4970703125 21.563720703125
35.134765625 55.51806640625 33.161865234375
48.995361328125 47.802734375 23.296630859375
44.288818359375 46.989501953125 -41.0419921875
-72.432373046875 -33.000244140625 14.733642578125
-11.536376953125 -21.0693359375 13.598388671875
-46.0634765625 -58.037353515625 8.468017578125
37.99560546875 60.728271484375 29.218505859375
40.634521484375 61.367919921875 28.145751953125
-77.9755859375 -39.427001953125 13.04931640625
27.00146484375 63.618896484375 30.361572265625
-56.1728515625 -56.8349609375 10.439453125
-56.653564453125 -71.8670654296875 -5.17626953125
39.581787109375 40.9189453125 26.458251953125
36.488037109375 54.73095703125 33.05419921875
-38.437744140625 -36.476318359375 15.5009765625
-6.697265625 -6.34375 23.28515625
41.960205078125 61.983642578125 27.01708984375
-17.454833984375 -26.44140625 14.324462890625
-11.61767578125 -12.073974609375 22.1171875
-18.46484375 -20.245849609375 20.0341796875
-20.5830078125 -10.35888671875 22.116455078125
26.597412109375 33.218994140625 30.1181640625
-24.611572265625 -26.361572265625 18.666748046875
-27.7138671875 -29.64990234375 -39.79638671875
36.218994140625 57.85302734375 31.51123046875
22.472900390625 35.31298828125 29.4267578125
25.61572265625 59.47900390625 32.88330078125
-63.74462890625 -63.33056640625 7.99755859375
41.474853515625 40.959228515625 -41.71630859375
-81.485107421875 -41.545654296875 -37.504638671875
27.170166015625 55.397216796875 35.7509765625
-6.953125 -9.21728515625 22.52685546875
32.8818359375 42.479248046875 26.5380859375
35.990478515625 37.376953125 27.56787109375
9.49462890625 8.00634765625 26.35595703125
42.976806640625 38.807861328125 -43.37353515625
50.10595703125 63.80908203125 24.636474609375
-37.1318359375 -41.916259765625 13.214111328125
24.580322265625 42.231689453125 27.454833984375
30.07763671875 53.2587890625 33.637451171875
-18.96044921875 -10.37890625 22.428955078125
-75.013916015625 -28.889892578125 15.75341796875
44.66552734375 40.930908203125 -40.989501953125
-3.897216796875 -9.185546875 20.949951171875
9.03857421875 9.9873046875 27.884521484375
24.18603515625 39.6064453125 28.478515625
-45.435791015625 -56.009033203125 7.677978515625
-68.233154296875 -64.875732421875 7.3193359375
-57.51416015625 -51.408935546875 11.235595703125
-45.631103515625 -52.2158203125 8.8154296875
5.18505859375 10.39892578125 27.7421875
2.140380859375 11.2099609375 27.83740234375
4.071533203125 14.873779296875 28.763427734375
-49.1357421875 -42.059326171875 13.940185546875
-3.95703125 -2.25927734375 24.453857421875
-82.567626953125 -52.032470703125 9.99755859375
-72.48388671875 -30.55615234375 15.216552734375
-35.02685546875 -27.860107421875 17.72021484375
7.759521484375 5.59619140625 24.834716796875
13.14990234375 61.726806640625 35.107666015625
23.68505859375 57.949951171875 34.59228515625
-43.634765625 -46.31494140625 13.559326171875
-79.69580078125 -31.659912109375 14.19873046875
-49.80908203125 -35.030517578125 15.588134765625
39.618408203125 63.55810546875 27.3623046875
-3.88671875 -7.98779296875 22.44970703125
-4.378173828125 -4.322021484375 24.310791015625
-46.692626953125 -41.69140625 14.334716796875
-25.064208984375 -14.831298828125 21.086181640625
5.100341796875 5.095703125 26.356689453125
1.195556640625 4.679443359375 26.35595703125
6.625244140625 7.539306640625 27.154541015625
11.606201171875 16.50341796875 29.680419921875
-74.909423828125 -58.05517578125 8.01904296875
-78.6708984375 -47.181884765625 11.66162109375
31.05810546875 63.94384765625 28.89208984375
23.094482421875 61.105224609375 32.652587890625
-36.406005859375 -35.2705078125 15.9443359375
-82.283447265625 -48.741943359375 11.0654296875
40.447509765625 41.68896484375 -44.5029296875
30.177490234375 26.96044921875 25.934326171875
6.00732421875 12.867431640625 28.00634765625
-36.638427734375 -39.826171875 14.853271484375
3.98486328125 9.59033203125 27.383056640625
-27.41796875 -28.799560546875 17.82177734375
-55.19482421875 -59.7939453125 9.55615234375
21.591064453125 60.5751953125 33.188720703125
-33.7265625 -30.766845703125 17.423095703125
-78.74560546875 -40.63916015625 12.65380859375
-25.131103515625 -23.46484375 19.1953125
-41.805419921875 -46.3740234375 12.95068359375
53.7841796875 61.0625 26.7177734375
-37.1416015625 -25.470458984375 -38.46435546875
-57.35888671875 -59.300537109375 9.90576171875
-5.571533203125 3.0537109375 25.8271484375
18.471923828125 61.286865234375 33.423583984375
-66.984375 -62.016845703125 7.5498046875
-44.197998046875 -42.980224609375 14.403076171875
-54.6259765625 -51.888671875 11.427490234375
-56.01123046875 -66.1883544921875 -1.538818359375
-50.276123046875 -46.585693359375 13.076416015625
-38.224365234375 -30.6962890625 16.7568359375
-30.25634765625 -22.576904296875 19.329833984375
45.35400390625 45.47509765625 24.443359375
46.7109375 52.42041015625 -39.24658203125
-65.02587890625 -67.1434326171875 5.626220703125
-55.935302734375 -48.95654296875 11.883544921875
-49.9404296875 -43.282470703125 13.69287109375
-45.23291015625 -34.7001953125 15.801025390625
32.907470703125 54.2177734375 33.157958984375
-56.649169921875 -39.02490234375 14.030517578125
-45.1162109375 -39.24072265625 14.98193359375
-78.953369140625 -52.928466796875 10.410400390625
-43.516845703125 -34.732421875 15.655517578125
16.964599609375 59.34033203125 35.23388671875
-4.710205078125 1.405517578125 25.73779296875
-54.174560546875 -40.3056640625 14.098388671875
46.740234375 49.453125 23.341552734375
-78.17041015625 -34.525146484375 14.617919921875
-69.3994140625 -54.02001953125 9.9931640625
-51.975830078125 -42.832275390625 13.42529296875
-59.09130859375 -40.622802734375 13.621826171875
-64.927490234375 -38.86181640625 13.853515625
38.70263671875 39.651123046875 26.358154296875
-66.58154296875 -36.375 14.031494140625
-66.07177734375 -43.353759765625 12.99560546875
45.334228515625 43.781494140625 24.421630859375
-64.9033203125 -41.731201171875 13.51318359375
-64.3017578125 -32.729248046875 15.37109375
8.990966796875 16.8974609375 29.734619140625
43.235595703125 48.007568359375 24.18994140625
-68.930419921875 -40.8388671875 12.98193359375
41.076904296875 52.35986328125 22.9140625
-70.010498046875 -49.032958984375 11.468017578125
-65.849365234375 -48.727783203125 11.405029296875
28.459228515625 30.662109375 30.9697265625
-50.04296875 -28.857177734375 -40.169921875
0.606689453125 34.996337890625 -47.78466796875
-57.250244140625 -35.718505859375 15.1708984375
30.763671875 40.66748046875 27.412353515625
-74.67333984375 -44.3974609375 12.541015625
45.27294921875 53.95458984375 30.948486328125
-70.76806640625 -35.884033203125 14.401123046875
-86.45849609375 -45.843505859375 9.235595703125
-34.01171875 -37.8115234375 14.6591796875
-66.501953125 -41.703369140625 13.205322265625
-32.588623046875 -36.16748046875 15.910400390625
43.033935546875 43.17822265625 -40.411376953125
-50.74072265625 -54.90771484375 10.74365234375
-69.241943359375 -45.760498046875 12.04443359375
-45.172119140625 -53.975341796875 6.6123046875
-67.73291015625 -29.411865234375 14.07958984375
-1.259765625 -7.949951171875 20.90576171875
18.345458984375 63.05810546875 32.588623046875
-72.011962890625 -35.044921875 14.5205078125
2.810302734375 1.42529296875 25.158447265625
-68.78466796875 -33.469482421875 15.0048828125
-79.08837890625 -45.128662109375 11.876708984375
45.046142578125 51.728515625 -41.6044921875
-12.909912109375 -20.63818359375 13.87158203125
-55.76220703125 -60.984375 10.1943359375
-16.294677734375 -2.965087890625 22.46728515625
-52.85205078125 -28.368408203125 -39.655517578125
31.0908203125 36.7548828125 28.808349609375
-48.197021484375 -55.475341796875 8.693115234375
-75.52197265625 -41.1083984375 12.959228515625
-58.18896484375 -66.5264892578125 -1.33642578125
-54.663818359375 -34.949951171875 14.8115234375
-80.2490234375 -50.4248046875 11.009765625
-6.748046875 -10.439453125 21.753173828125
-70.03369140625 -30.595703125 15.30078125
-49.64599609375 -62.4677734375 1.03515625
50.0888671875 58.837158203125 26.813232421875
-84.375244140625 -44.19677734375 11.762451171875
-61.949462890625 -56.27734375 10.052734375
-43.78466796875 -50.13818359375 10.20068359375
-38.271484375 -40.62548828125 14.531005859375
28.820556640625 39.3330078125 27.83447265625
-29.083984375 -28.727783203125 -39.80078125
34.006103515625 39.92529296875 27.01123046875
-16.781494140625 -10.80078125 22.249755859375
41.037353515625 36.33056640625 -42.095947265625
23.113037109375 50.42626953125 38.399658203125
-22.00244140625 -23.913330078125 18.635986328125
-58.667236328125 -61.732177734375 9.987548828125
-23.082763671875 -25.658447265625 -39.56884765625
31.685791015625 60.773193359375 30.7109375
-4.68310546875 -12.041015625 19.033935546875
