-40.396484375 -35.550048828125 24.03271484375
-47.146484375 -49.030029296875 18.155029296875
-23.989501953125 -5.286865234375 -16.0531005859375
-17.302490234375 -33.814208984375 -9.1695556640625
-6.774658203125 12.32666015625 -5.7822265625
10.971923828125 26.454833984375 -20.935302734375
-36.061767578125 -15.447021484375 -13.32373046875
-27.997314453125 -39.380126953125 -11.3538818359375
-26.291015625 -40.5068359375 -13.8170166015625
-15.162109375 -4.982421875 -16.63720703125
4.80908203125 -2.474365234375 -16.320556640625
-33.1875 -46.86669921875 4.3424072265625
-5.861083984375 -11.648681640625 -14.603515625
3.752685546875 20.598876953125 -2.1563720703125
-30.789794921875 0.34814453125 -13.7928466796875
2.45556640625 -21.401123046875 -16.92919921875
-39.62255859375 -10.154052734375 -14.263427734375
-50.220703125 -54.26171875 20.4490966796875
15.8779296875 16.78271484375 -24.4586181640625
-1.00439453125 -16.476318359375 -11.9501953125
-33.2626953125 1.669921875 -12.8929443359375
-11.239990234375 -11.718505859375 -14.337646484375
-4.732421875 0.952880859375 -14.8818359375
-45.448486328125 -15.410400390625 -6.0810546875
-48.357666015625 -45.110595703125 5.7667236328125
-18.093505859375 -40.425048828125 -13.9415283203125
17.335205078125 16.711669921875 -14.7406005859375
-16.72509765625 -19.1396484375 -16.251708984375
17.89404296875 20.90283203125 -14.0355224609375
19.734619140625 16.6806640625 -16.46142578125
-5.2763671875 -5.602783203125 -16.8507080078125
-9.216552734375 -7.48974609375 -16.2977294921875
-10.3828125 16.93896484375 -1.5731201171875
-40.3662109375 -15.88427734375 -9.5736083984375
-32.337646484375 -22.531494140625 -16.0018310546875
-18.22998046875 -16.64208984375 -14.790771484375
-44.60693359375 -20.718994140625 -7.698486328125
-34.796142578125 -49.763427734375 11.021728515625
-32.65234375 -3.128662109375 -15.3751220703125
-42.259521484375 -12.986572265625 -7.97265625
-47.8544921875 -27.084716796875 -15.47314453125
-25.12841796875 -35.931640625 -10.5252685546875
-15.237548828125 5.872802734375 -10.34130859375
-39.822998046875 -63.081787109375 7.42138671875
-48.68896484375 -40.171630859375 4.06201171875
-22.854248046875 -32.405517578125 -5.967041015625
-33.71435546875 -56.372802734375 7.564697265625
8.3681640625 11.398681640625 -10.3671875
-12.2158203125 -42.88427734375 -12.4598388671875
-13.009033203125 -18.98486328125 -16.448974609375
-34.721435546875 -12.623046875 -13.591796875
3.724365234375 15.57373046875 -4.17431640625
-29.202392578125 7.32958984375 -8.1046142578125
-3.390625 -15.75830078125 -13.270751953125
-31.71533203125 -16.961181640625 -13.941162109375
15.1826171875 27.17822265625 -8.2269287109375
-22.637939453125 -18.704345703125 -16.05859375
-11.6181640625 -0.677978515625 -15.6976318359375
-31.5166015625 4.6904296875 -10.19970703125
-13.032470703125 -39.151123046875 -10.784423828125
-21.552001953125 -32.18994140625 -8.9019775390625
-32.932861328125 -50.178466796875 -3.2418212890625
-18.294921875 11.2021484375 -5.58154296875
-0.6748046875 -8.482177734375 -16.2506103515625
-37.75830078125 -29.121826171875 -19.875
-34.429443359375 5.20361328125 -9.193359375
-21.910888671875 8.97021484375 -7.22607421875
9.294921875 7.608154296875 -11.9278564453125
-23.2939453125 -15.17041015625 -13.01611328125
-3.6484375 -8.742431640625 -15.79638671875
0.01318359375 -5.490966796875 -17.2471923828125
-25.352783203125 -11.59228515625 -14.0279541015625
-30.5849609375 -43.639404296875 -12.5159912109375
-48.5693359375 -41.729248046875 6.200927734375
-43.44775390625 -35.906494140625 -14.15283203125
11.26171875 15.027587890625 -9.0439453125
-45.45068359375 -31.613037109375 0.867431640625
13.341796875 20.769287109375 -27.44873046875
-43.998291015625 -9.01708984375 -14.393310546875
-6.46533203125 -29.00732421875 -18.75048828125
-32.388427734375 -55.52783203125 -5.2694091796875
-9.9140625 -3.24755859375 -16.3385009765625
-42.29296875 -51.724365234375 11.9091796875
-6.4345703125 17.60888671875 -1.5474853515625
-13.07763671875 -6.8212890625 -16.2254638671875
-41.46435546875 -26.19482421875 -17.3050537109375
-45.309326171875 -61.95751953125 15.5703125
4.687255859375 9.408935546875 -9.4493408203125
14.56591796875 20.11572265625 -12.0955810546875
-0.88232421875 14.9072265625 -3.60986328125
-33.371337890625 -47.066650390625 -10.1126708984375
-0.60595703125 7.57373046875 -9.6612548828125
-8.540771484375 -31.30419921875 -15.5628662109375
23.4375 6.091064453125 -20.765869140625
-46.244140625 -53.06396484375 15.1387939453125
-41.22607421875 -35.315673828125 26.471923828125
-4.524169921875 -24.721923828125 -16.5552978515625
10.541259765625 28.07861328125 -18.9727783203125
12.332275390625 23.58154296875 -23.7354736328125
-5.147705078125 -32.3310546875 -20.4573974609375
-15.031982421875 -23.5361328125 -15.717041015625
-45.8427734375 -58.27197265625 17.6810302734375
12.958740234375 10.481689453125 -13.45263671875
-31.53515625 -12.901123046875 -13.0361328125
-45.44970703125 -26.780029296875 -16.379150390625
-26.708984375 9.1767578125 -6.4508056640625
26.7119140625 23.186279296875 -16.3216552734375
28.801513671875 11.4931640625 -23.446533203125
5.365478515625 -17.265380859375 -13.135498046875
-1.383056640625 -12.479736328125 -13.471923828125
20.19091796875 14.149169921875 -17.267578125
-26.7451171875 -18.4775390625 -15.1259765625
18.548583984375 14.8896484375 -22.4249267578125
-43.1474609375 -11.586669921875 0.632080078125
-46.07958984375 -41.9267578125 12.6915283203125
24.29541015625 26.599609375 -13.8961181640625
-47.439697265625 -56.119873046875 19.12939453125
-41.892578125 -37.3828125 22.126220703125
-4.438232421875 13.4462890625 -5.05029296875
-20.21240234375 7.28271484375 -8.4515380859375
-6.62744140625 -14.215576171875 -13.6661376953125
-4.047119140625 -27.405517578125 -19.754150390625
1.835205078125 -26.096435546875 -16.5064697265625
-45.017333984375 -31.353759765625 -12.7882080078125
-10.79833984375 -19.687255859375 -15.2762451171875
7.021728515625 6.452392578125 -11.9266357421875
-21.47412109375 -0.547607421875 -14.973388671875
-37.780029296875 -49.42236328125 10.7432861328125
-15.230712890625 -15.262451171875 -13.8985595703125
-31.5107421875 9.078857421875 -7.6119384765625
-6.59619140625 -2.61279296875 -16.3740234375
-0.813232421875 2.754150390625 -13.6678466796875
7.9287109375 20.115478515625 -5.093017578125
-47.813720703125 -38.02099609375 3.173583984375
4.384765625 -26.9365234375 -18.684814453125
-27.01904296875 -50.403564453125 -9.177734375
11.16015625 5.90673828125 -13.653076171875
-28.6181640625 -44.0595703125 -14.0352783203125
9.66259765625 3.037353515625 -14.09326171875
-16.327392578125 -2.867919921875 -16.0406494140625
-35.767822265625 -1.755615234375 -14.6087646484375
-9.83642578125 1.214599609375 -14.3182373046875
16.99853515625 23.7685546875 -10.0709228515625
-29.625732421875 -6.187255859375 -15.67822265625
25.36279296875 7.35498046875 -22.3223876953125
-43.088134765625 -23.435791015625 -14.7935791015625
-1.92822265625 -23.629150390625 -16.7904052734375
-27.354248046875 -48.60888671875 -12.6826171875
-20.29931640625 -36.628173828125 -11.967041015625
1.995361328125 5.0205078125 -11.82568359375
5.785400390625 -24.94287109375 -18.36669921875
6.102783203125 4.439453125 -12.951904296875
-38.423583984375 -33.511474609375 -20.7216796875
-32.113037109375 -49.041259765625 3.6197509765625
-5.966552734375 -36.3251953125 -18.4114990234375
-42.58740234375 -61.1025390625 10.7813720703125
-51.804443359375 -54.24169921875 18.4078369140625
-10.168212890625 -14.73681640625 -14.4666748046875
-40.719482421875 -24.09423828125 -18.2647705078125
-37.55908203125 -64.99072265625 6.8116455078125
-8.341552734375 -17.67138671875 -16.2200927734375
8.741455078125 16.3173828125 -6.786376953125
-31.264892578125 -51.35693359375 7.24755859375
-7.35595703125 -33.7587890625 -17.4012451171875
-39.18896484375 -52.511474609375 8.9827880859375
-35.676025390625 -10.4501953125 -14.0357666015625
-33.831787109375 -8.43701171875 -14.9739990234375
-45.4990234375 -48.533447265625 9.9757080078125
-46.580078125 -51.384033203125 12.673828125
-45.96728515625 -39.61962890625 14.8948974609375
-28.62109375 -52.110107421875 -11.0489501953125
5.364990234375 -0.473876953125 -15.0771484375
-14.814453125 -20.57177734375 -16.019775390625
-22.666748046875 -33.573486328125 -10.8201904296875
12.5107421875 24.280029296875 -20.02001953125
-16.3603515625 -12.7138671875 -13.2430419921875
0.406982421875 12.020263671875 -6.6116943359375
18.920166015625 6.642822265625 -18.800537109375
15.9375 18.522216796875 -26.0802001953125
16.861328125 8.72412109375 -16.075927734375
-22.267822265625 -29.974853515625 -5.24951171875
-43.732177734375 -54.597412109375 14.8604736328125
-44.14404296875 -42.132568359375 26.9189453125
-43.590576171875 -18.8408203125 -6.453369140625
-35.836669921875 -53.740966796875 9.03759765625
-2.89306640625 9.703125 -7.78173828125
-46.2109375 -45.838623046875 6.4215087890625
-47.6787109375 -47.83349609375 16.1051025390625
3.1416015625 -20.35888671875 -14.963623046875
-26.5283203125 -46.190185546875 -12.3218994140625
-43.155517578125 -57.718017578125 14.8743896484375
0.83837890625 1.47705078125 -14.9716796875
-40.5390625 -48.7958984375 11.4012451171875
-30.655029296875 -41.672607421875 -11.3009033203125
-38.50146484375 -56.657958984375 7.09716796875
-33.9736328125 -44.194091796875 -5.66162109375
-35.703857421875 -45.3603515625 4.6409912109375
-19.720703125 -13.7822265625 -12.6883544921875
-40.3818359375 -4.704833984375 -15.06103515625
-24.298095703125 -22.684326171875 -16.7740478515625
-41.185791015625 -19.09130859375 -14.3663330078125
-33.19287109375 -54.1474609375 -2.3133544921875
4.1708984375 -7.461669921875 -17.13525390625
-19.372802734375 -33.297119140625 -8.3472900390625
-37.046630859375 -22.2314453125 -15.2091064453125
16.73583984375 21.282958984375 -11.6217041015625
-9.615966796875 -21.533203125 -14.646728515625
-24.01513671875 8.2783203125 -7.762451171875
-30.6171875 -1.646728515625 -14.869384765625
-18.299560546875 2.053955078125 -13.216796875
12.5859375 13.8251953125 -11.9327392578125
-46.362548828125 -22.592041015625 -12.369384765625
-19.40576171875 5.66650390625 -10.0587158203125
-45.254150390625 -10.046142578125 -10.8709716796875
25.8701171875 9.8486328125 -21.7325439453125
0.561767578125 -29.49462890625 -19.7593994140625
-17.083251953125 8.762451171875 -8.006103515625
-39.345947265625 -17.4951171875 -10.9217529296875
-46.941162109375 -33.065673828125 3.6368408203125
-42.628662109375 -39.365478515625 24.6612548828125
-36.708740234375 -19.342041015625 -15.3892822265625
-43.891845703125 -15.158203125 -0.9649658203125
-33.26025390625 -50.018310546875 -1.03076171875
-48.837646484375 -35.299560546875 -4.6220703125
-23.65478515625 -32.091064453125 -8.140380859375
-42.246826171875 -39.353515625 27.9576416015625
13.031494140625 4.27783203125 -16.5634765625
5.75048828125 -8.117431640625 -15.4976806640625
5.807861328125 15.943359375 -5.0111083984375
-40.613525390625 -12.254150390625 -12.9583740234375
-43.444580078125 -53.7626953125 11.8160400390625
-48.2490234375 -49.90673828125 12.6278076171875
-48.1064453125 -48.623291015625 9.41796875
8.14111328125 -21.83251953125 -17.02392578125
-24.62646484375 -7.769775390625 -15.5941162109375
-45.0654296875 -28.92138671875 -15.957763671875
-26.578125 -42.468994140625 -14.8057861328125
-34.72509765625 -58.358642578125 6.9862060546875
-22.0078125 -8.765625 -15.75048828125
-29.031494140625 1.426025390625 -12.9990234375
-22.596923828125 1.094482421875 -13.739501953125
-12.88525390625 12.16845703125 -5.1002197265625
-40.095947265625 -19.607177734375 -9.943603515625
9.197998046875 18.404541015625 -6.244384765625
-43.1787109375 -62.082275390625 14.811279296875
10.035888671875 10.109130859375 -11.683837890625
-48.278076171875 -39.615966796875 -0.7156982421875
1.556396484375 6.656005859375 -10.422119140625
5.82177734375 -18.77734375 -15.733642578125
-14.51220703125 -37.406005859375 -9.8890380859375
-45.670166015625 -44.713623046875 17.294921875
-12.248779296875 8.521484375 -8.199462890625
-6.045166015625 -0.592529296875 -15.7279052734375
-40.54345703125 -21.916015625 -15.53466796875
-1.831787109375 -14.26318359375 -12.167236328125
-15.6416015625 -33.24951171875 -11.6748046875
-24.828369140625 -19.488525390625 -14.8363037109375
-46.80859375 -25.05078125 -16.083251953125
-41.384033203125 -59.31494140625 9.5804443359375
11.49853515625 19.63427734375 -7.4449462890625
-10.635498046875 -5.697265625 -16.57666015625
-46.6943359375 -62.934814453125 17.2642822265625
-1.736083984375 -19.475341796875 -15.86474609375
-33.105712890625 -43.914306640625 -8.4779052734375
-14.15771484375 -41.381103515625 -12.703125
-34.642578125 -47.885498046875 9.8873291015625
-41.1318359375 -64.509033203125 9.1654052734375
-45.27734375 -16.801513671875 -9.08837890625
5.24072265625 7.75244140625 -10.7354736328125
-47.90966796875 -24.932861328125 -8.531982421875
8.266845703125 22.21484375 -4.6751708984375
-14.873779296875 -35.262939453125 -9.6180419921875
-14.15087890625 0.663818359375 -14.7825927734375
3.250244140625 13.126953125 -5.982177734375
-8.165771484375 -15.7021484375 -14.7593994140625
-40.262939453125 -55.869873046875 8.9736328125
20.3759765625 13.8759765625 -20.6263427734375
-7.56494140625 -27.314453125 -13.7894287109375
-34.887939453125 -6.26171875 -15.531494140625
-19.26416015625 -6.822265625 -16.3265380859375
12.322509765625 17.111572265625 -9.0859375
-1.951416015625 4.427734375 -12.4107666015625
-40.401123046875 -59.97119140625 7.41748046875
-7.816650390625 -25.202392578125 -13.395263671875
7.24658203125 14.671630859375 -6.582275390625
-8.941650390625 11.974365234375 -5.07763671875
-9.779541015625 6.002197265625 -10.46826171875
9.77880859375 13.440673828125 -10.0390625
-22.37060546875 -38.00244140625 -13.0775146484375
2.3876953125 18.963623046875 -2.435546875
-0.60595703125 -1.281982421875 -16.580810546875
-45.564453125 -56.405029296875 16.663818359375
-31.795654296875 -46.1171875 -12.0667724609375
-46.255126953125 -34.926025390625 11.8453369140625
-11.923583984375 -13.44677734375 -13.2889404296875
-46.781982421875 -45.801025390625 13.1419677734375
-18.631591796875 -20.701904296875 -15.9432373046875
3.697509765625 4.15576171875 -13.0771484375
6.15087890625 19.29150390625 -3.937744140625
-9.474365234375 -9.645263671875 -15.4156494140625
-46.20703125 -46.579345703125 18.6729736328125
-48.56494140625 -45.40771484375 8.1927490234375
-25.96142578125 -49.89892578125 -13.63232421875
12.870849609375 21.94091796875 -24.9896240234375
17.434814453125 18.822021484375 -14.571533203125
-30.411865234375 -23.84130859375 -16.923095703125
-12.16259765625 3.74462890625 -12.5250244140625
-3.4775390625 -4.045166015625 -16.6968994140625
-7.44384765625 0.685302734375 -14.777099609375
13.431396484375 20.579833984375 -22.7203369140625
-5.6611328125 3.77587890625 -12.15966796875
0.185302734375 -17.7373046875 -13.158203125
-46.496826171875 -35.36669921875 4.8284912109375
15.68505859375 25.0576171875 -8.97802734375
-32.39453125 -53.99951171875 5.195068359375
-5.5244140625 6.5927734375 -10.1043701171875
21.87890625 12.126220703125 -20.9404296875
-26.436767578125 -1.480712890625 -15.04443359375
-33.5439453125 -47.98779296875 6.5462646484375
12.241455078125 24.8935546875 -25.526611328125
-33.83984375 -56.782470703125 -4.4136962890625
-21.445556640625 -10.72509765625 -12.6998291015625
13.458984375 8.3701171875 -14.2005615234375
0.9853515625 -23.202392578125 -19.1328125
-34.9775390625 -47.3701171875 12.848876953125
-38.33203125 -8.109619140625 -15.213134765625
-46.475830078125 -60.398681640625 14.796630859375
-33.88427734375 7.11962890625 -7.2681884765625
-38.11328125 -24.4970703125 -16.486083984375
-2.635986328125 6.048583984375 -10.66455078125
-13.10302734375 6.562255859375 -9.8084716796875
-6.32666015625 -31.0869140625 -19.2635498046875
-7.720458984375 -22.490478515625 -15.061279296875
-34.17724609375 -47.79638671875 -7.240966796875
-28.289794921875 3.7626953125 -11.486572265625
-42.101806640625 -32.43359375 -20.015869140625
16.871337890625 17.315673828125 -28.0758056640625
-10.85888671875 11.2724609375 -5.9754638671875
-3.89892578125 -10.912353515625 -14.9085693359375
-38.449462890625 -58.940673828125 7.8046875
-36.935546875 -13.806396484375 -12.4364013671875
-16.1552734375 -43.388671875 -15.576416015625
12.2158203125 24.778076171875 -22.063720703125
-30.83740234375 -11.201904296875 -14.0679931640625
-14.373291015625 -33.37646484375 -7.7645263671875
-28.583984375 -23.056396484375 -17.916259765625
-39.828125 -29.77392578125 -19.805908203125
-7.20166015625 -7.18359375 -16.5401611328125
-27.66796875 -13.6015625 -12.9776611328125
-12.553466796875 -17.49658203125 -14.69091796875
7.639892578125 3.1318359375 -13.79248046875
-45.09814453125 -44.94384765625 15.2691650390625
-32.34619140625 -49.167724609375 7.97265625
-42.28857421875 -29.794189453125 -17.7054443359375
-45.6064453125 -20.422119140625 -5.6923828125
3.84814453125 2.098876953125 -14.18603515625
-31.721923828125 -8.57666015625 -15.0306396484375
26.604736328125 19.059814453125 -19.5106201171875
20.31787109375 18.725830078125 -15.20947265625
-33.72998046875 -16.824951171875 -13.767822265625
-23.447509765625 11.438232421875 -5.1748046875
-3.104248046875 -0.357421875 -15.5941162109375
-45.613037109375 -33.677734375 7.9425048828125
-23.049560546875 4.26904296875 -11.0977783203125
-23.857421875 -13.0400390625 -12.98779296875
11.58642578125 27.732421875 -22.608154296875
-14.1142578125 -14.190185546875 -12.6409912109375
-42.510986328125 -22.03076171875 -12.834228515625
-25.102294921875 -15.3828125 -13.8232421875
-0.668701171875 13.2783203125 -5.2764892578125
-36.309326171875 -48.942626953125 12.5521240234375
-32.0458984375 -46.299072265625 -0.8385009765625
-10.9404296875 16.626220703125 -3.4544677734375
-44.351318359375 -60.522216796875 14.038818359375
-40.73828125 -33.83447265625 -19.6947021484375
7.646728515625 12.623779296875 -8.6600341796875
22.008056640625 7.387939453125 -19.7982177734375
-21.870361328125 -4.589599609375 -16.1171875
-40.6181640625 -53.019287109375 10.5870361328125
-43.85107421875 -35.28466796875 -12.09228515625
-33.9462890625 -44.025146484375 -3.6953125
-4.2373046875 11.797119140625 -6.10888671875
-17.557373046875 -32.905029296875 -5.6580810546875
-37.691162109375 -9.85791015625 -14.497802734375
-44.1123046875 -35.37109375 -18.0631103515625
3.484619140625 6.96435546875 -10.1864013671875
-47.4140625 -44.597412109375 10.9951171875
-28.298095703125 -2.171142578125 -15.321044921875
1.126708984375 -3.873779296875 -17.2281494140625
-32.6171875 3.186767578125 -11.498291015625
-21.273193359375 -42.796142578125 -16.297607421875
-24.431884765625 -41.48095703125 -14.2274169921875
-6.79638671875 9.4765625 -7.72998046875
-5.030029296875 8.185302734375 -8.91259765625
1.69482421875 -9.493408203125 -16.1849365234375
-21.5732421875 2.61669921875 -12.5577392578125
-26.33935546875 -45.142578125 -13.9652099609375
-48.57958984375 -36.591796875 -1.0555419921875
-27.93408203125 -5.066162109375 -15.5821533203125
-11.83251953125 -37.352294921875 -8.7891845703125
1.81591796875 15.64111328125 -3.759765625
-35.916015625 2.193115234375 -12.2259521484375
-26.35888671875 4.044189453125 -11.13916015625
-26.940185546875 -37.85888671875 -10.744140625
-37.573974609375 -0.85205078125 -14.20654296875
-19.15478515625 -30.5703125 -6.15283203125
-23.1650390625 -11.329345703125 -14.0267333984375
-37.36328125 -4.4765625 -15.2655029296875
-45.00634765625 -20.864501953125 -10.0909423828125
1.39404296875 9.92529296875 -8.0616455078125
-42.516845703125 -36.27001953125 -18.7022705078125
-37.013916015625 -61.802001953125 5.507568359375
-15.9453125 -0.052001953125 -14.9432373046875
-44.39697265625 -30.505126953125 -17.071533203125
-33.212158203125 -54.429931640625 8.863525390625
-14.25390625 11.024169921875 -6.0321044921875
-2.788818359375 -31.208251953125 -20.9361572265625
-17.13037109375 -41.615234375 -15.3773193359375
-14.1376953125 2.248291015625 -13.5084228515625
-45.763916015625 -39.487060546875 17.209716796875
-28.15625 -45.864013671875 -13.5435791015625
-42.13525390625 -36.05712890625 -20.736328125
-45.5244140625 -14.03857421875 -7.435546875
-38.25537109375 -31.557861328125 -19.875244140625
0.23095703125 3.890869140625 -12.5220947265625
-32.300537109375 -45.886962890625 2.7838134765625
-34.90283203125 0.580810546875 -13.5662841796875
-24.685546875 6.734375 -9.18017578125
-5.2431640625 15.0986328125 -3.4100341796875
16.16064453125 23.87109375 -12.1336669921875
19.95703125 10.83837890625 -18.7958984375
-45.947998046875 -37.8173828125 14.2491455078125
-43.375244140625 -63.021484375 12.50537109375
19.576904296875 17.617431640625 -18.3636474609375
-8.49365234375 8.756591796875 -8.375
-6.691650390625 -18.63525390625 -16.2901611328125
15.4111328125 7.507568359375 -15.809326171875
-12.58154296875 -2.256591796875 -16.179443359375
-16.24951171875 3.156005859375 -12.7564697265625
-9.378173828125 -11.8134765625 -14.7559814453125
-34.782470703125 -51.325927734375 9.6771240234375
-9.39111328125 13.61376953125 -3.6697998046875
14.48583984375 11.298095703125 -14.2496337890625
22.62744140625 9.933349609375 -20.2677001953125
-43.724609375 -26.600341796875 -15.5927734375
4.177001953125 -23.180908203125 -17.5867919921875
-41.876220703125 -15.011474609375 -8.8162841796875
-32.594970703125 -48.5634765625 0.431640625
13.90283203125 23.002685546875 -9.0792236328125
-2.406005859375 13.755615234375 -4.6800537109375
-34.15380859375 -19.526123046875 -15.5494384765625
16.776611328125 8.015380859375 -18.560791015625
-29.859130859375 5.794921875 -9.51513671875
-10.31982421875 9.245361328125 -7.904296875
4.48681640625 12.274169921875 -7.1375732421875
-21.8173828125 -20.46728515625 -15.7952880859375
-36.986572265625 -59.838623046875 6.8990478515625
-33.637451171875 -23.58056640625 -16.8917236328125
-29.093017578125 -16.733642578125 -14.042724609375
1.1484375 -0.16845703125 -15.896240234375
-20.823974609375 -22.7978515625 -18.421142578125
-21.6806640625 -31.8046875 -4.6134033203125
-47.18701171875 -26.06201171875 -14.033447265625
-6.253662109375 -20.88623046875 -15.2672119140625
-45.44580078125 -63.017578125 14.01611328125
-31.32666015625 -4.421630859375 -15.7335205078125
-18.3076171875 0.474609375 -14.4874267578125
-19.51123046875 -15.384765625 -13.7247314453125
-17.03662109375 5.14599609375 -10.5093994140625
-19.727294921875 2.9111328125 -12.330810546875
20.09716796875 4.06591796875 -19.4715576171875
-30.640869140625 -21.076416015625 -15.2734375
6.671630859375 -3.912841796875 -15.615478515625
-41.559814453125 -23.423583984375 -16.124755859375
-37.673828125 -27.626220703125 -18.5146484375
-47.990234375 -41.800048828125 -0.384033203125
-44.91748046875 -33.0771484375 2.1632080078125
-47.40771484375 -41.5966796875 7.651611328125
-3.9755859375 -18.150146484375 -14.57373046875
-14.525146484375 -8.415283203125 -16.021240234375
-15.699462890625 -11.040283203125 -13.703369140625
12.41455078125 12.173583984375 -12.7628173828125
-3.65380859375 -23.1259765625 -16.1885986328125
-30.0830078125 -13.5126953125 -12.0028076171875
-47.7646484375 -48.128173828125 11.887451171875
-7.59521484375 -12.41943359375 -14.057373046875
-6.6943359375 -24.1337890625 -16.436767578125
-37.911865234375 -63.14306640625 6.40380859375
-17.9892578125 -19.62109375 -14.591552734375
-44.7392578125 -33.194580078125 -15.009033203125
-17.088623046875 -39.3818359375 -12.7999267578125
-25.402587890625 -21.884033203125 -15.53369140625
-38.4853515625 -50.968994140625 9.8619384765625
18.050048828125 24.62255859375 -11.36572265625
14.593017578125 18.097900390625 -24.5435791015625
-42.3427734375 -57.3583984375 11.79736328125
-37.1142578125 -18.20556640625 -13.9700927734375
-36.1015625 -56.27685546875 8.6859130859375
15.058837890625 16.906982421875 -26.436279296875
-16.41943359375 -37.980712890625 -10.7764892578125
-17.91552734375 -35.384521484375 -9.890869140625
6.30126953125 -23.388671875 -17.1795654296875
-26.703125 0.90478515625 -13.44921875
-28.69921875 -25.4609375 -18.710693359375
-41.864990234375 -9.575927734375 -14.3870849609375
-19.950927734375 -12.01611328125 -13.5245361328125
-40.080078125 -13.282958984375 -11.0904541015625
-48.079345703125 -35.588623046875 -6.293212890625
9.856201171875 28.1572265625 -20.849853515625
-32.57763671875 -51.98681640625 -2.8514404296875
-40.17041015625 -61.572509765625 6.3421630859375
-41.789794921875 -12.269775390625 -2.27197265625
-42.319580078125 -25.046142578125 -15.7928466796875
-2.677734375 1.6484375 -14.4781494140625
23.572021484375 28.652587890625 -10.38720703125
-4.887939453125 -7.340576171875 -16.480712890625
-39.39892578125 -18.839111328125 -14.1455078125
3.33740234375 10.271484375 -8.420654296875
-13.91015625 -34.33154296875 -11.022705078125
18.172119140625 16.921875 -20.3924560546875
-28.1328125 -19.646484375 -14.8671875
-41.24267578125 -27.75390625 -18.31591796875
-41.334228515625 -30.958984375 -19.0977783203125
-49.255126953125 -51.20556640625 13.397216796875
-10.722900390625 18.70849609375 -3.165771484375
-17.129150390625 -6.12451171875 -16.391357421875
-22.416015625 -22.02587890625 -16.4981689453125
4.15234375 -18.509521484375 -12.624267578125
-28.654052734375 -10.0615234375 -14.649658203125
-47.3359375 -23.6103515625 -9.7401123046875
-14.1572265625 9.404052734375 -7.203125
-27.2373046875 -11.072998046875 -13.6781005859375
-46.348388671875 -32.457763671875 9.0496826171875
-31.2080078125 -52.56103515625 3.3314208984375
6.113525390625 -20.537109375 -15.4788818359375
-41.88818359375 -62.745361328125 9.6002197265625
-41.33203125 -56.387451171875 10.348388671875
-14.378662109375 -2.96826171875 -16.3380126953125
-27.871337890625 -40.021484375 -13.1046142578125
-48.235595703125 -43.521484375 6.6024169921875
10.2607421875 15.861328125 -7.6373291015625
-22.52880859375 -17.16943359375 -14.67138671875
-7.310546875 -26.620361328125 -16.5565185546875
-33.60400390625 -54.56884765625 7.0540771484375
-16.5341796875 11.527099609375 -5.462646484375
-8.814697265625 -29.5498046875 -15.815185546875
14.564453125 25.889404296875 -7.0906982421875
-10.374755859375 4.435302734375 -11.772216796875
-46.06884765625 -16.891357421875 -7.4888916015625
16.989013671875 27.130615234375 -8.771484375
-7.210693359375 -32.734130859375 -19.0426025390625
-1.081787109375 -21.17529296875 -16.4285888671875
3.1875 -1.07470703125 -16.7806396484375
-7.562744140625 -10.2158203125 -15.1861572265625
-7.666259765625 3.489990234375 -12.5106201171875
16.903076171875 4.5390625 -17.3585205078125
-47.06640625 -62.17333984375 15.4150390625
-35.1748046875 -13.9501953125 -12.2674560546875
-1.891357421875 8.88232421875 -9.175048828125
-40.983154296875 -17.84033203125 -10.3330078125
28.327392578125 16.11865234375 -22.000732421875
-46.78564453125 -30.268310546875 1.2152099609375
-29.956298828125 4.233642578125 -10.9024658203125
-48.868896484375 -36.70556640625 -3.373779296875
-19.7314453125 -1.447509765625 -15.50048828125
-21.608642578125 5.3720703125 -10.0672607421875
-18.486328125 -2.737060546875 -15.9815673828125
-41.75537109375 -50.043212890625 11.913818359375
-44.2099609375 -32.60888671875 -16.8843994140625
2.740234375 -3.123291015625 -17.309814453125
7.241943359375 -25.88525390625 -18.682861328125
-48.05859375 -44.5009765625 4.14013671875
-48.029052734375 -26.49658203125 -9.3353271484375
-21.739501953125 -40.036376953125 -14.2791748046875
-41.638916015625 -6.238525390625 -15.314208984375
14.953369140625 5.435546875 -16.3438720703125
16.409912109375 20.50634765625 -13.1798095703125
26.668701171875 14.04248046875 -21.37841796875
19.180908203125 15.439208984375 -25.8447265625
25.45751953125 12.80029296875 -20.8680419921875
-34.45068359375 -53.31298828125 8.0478515625
-33.048828125 -21.334716796875 -14.93310546875
-44.403564453125 -37.488525390625 17.5687255859375
6.572509765625 -17.09326171875 -11.2454833984375
-41.779296875 -37.2158203125 24.3580322265625
-16.563232421875 -17.18603515625 -14.8009033203125
-11.985595703125 17.172607421875 -5.2305908203125
-32.220947265625 -55.9736328125 6.7034912109375
-33.1337890625 -45.518310546875 -9.1744384765625
-46.74755859375 -59.957763671875 17.9072265625
-37.843017578125 -15.82421875 -12.2763671875
-23.404296875 -0.450927734375 -14.6793212890625
-17.451416015625 -33.5693359375 -7.4464111328125
-32.91552734375 -18.042724609375 -14.7186279296875
-20.127685546875 -17.313232421875 -15.071044921875
-44.3017578125 -11.11767578125 -13.53173828125
-32.83544921875 -47.559326171875 2.7791748046875
-15.885498046875 -22.113037109375 -16.621826171875
-48.62841796875 -53.54931640625 20.4058837890625
-14.8984375 -6.6884765625 -16.3890380859375
10.2548828125 29.77880859375 -19.8023681640625
10.9560546875 26.400390625 -19.1890869140625
6.366455078125 13.05615234375 -7.562744140625
-33.730224609375 -47.74609375 -4.788330078125
-45.58154296875 -30.327880859375 -14.07568359375
-33.224609375 4.38134765625 -10.309326171875
-27.739501953125 6.88525390625 -8.9296875
-37.741455078125 -24.313232421875 -18.5328369140625
-8.328857421875 -29.8076171875 -17.73779296875
-47.18701171875 -55.954345703125 20.846435546875
11.426025390625 14.24658203125 -10.7135009765625
28.432373046875 18.2041015625 -21.240234375
-34.160400390625 -45.410888671875 3.855712890625
-30.44775390625 -24.058349609375 -18.8162841796875
-48.396728515625 -39.06787109375 1.7801513671875
29.89013671875 16.084228515625 -22.794189453125
29.6611328125 14.011962890625 -23.6734619140625
-12.351318359375 -9.12255859375 -14.2664794921875
-43.39990234375 -33.81201171875 -17.8260498046875
-2.388671875 -29.59326171875 -20.4674072265625
2.933837890625 17.26611328125 -3.127685546875
-45.39111328125 -54.51416015625 15.518798828125
-42.7333984375 -12.6240234375 -11.6959228515625
-18.287353515625 -22.261474609375 -17.4365234375
-31.73779296875 -42.91650390625 -10.6795654296875
-45.083740234375 -60.044189453125 17.2479248046875
14.49560546875 19.428466796875 -26.336669921875
-20.148193359375 -30.638671875 -4.74853515625
-47.123779296875 -24.2158203125 -12.0361328125
-39.98193359375 -54.214111328125 9.3363037109375
-44.39892578125 -57.755126953125 16.05908203125
-39.0537109375 -12.829345703125 -12.390380859375
-19.161376953125 -35.534912109375 -11.291015625
-5.172607421875 -3.519287109375 -16.6837158203125
-42.865478515625 -13.253173828125 0.3043212890625
-23.935791015625 -34.70849609375 -11.02783203125
-7.778076171875 6.293212890625 -10.1129150390625
5.857421875 17.614501953125 -4.2972412109375
-25.413818359375 10.274658203125 -4.9398193359375
-21.6171875 -14.458984375 -12.9725341796875
-24.27392578125 -3.635986328125 -15.7237548828125
-41.9599609375 -10.73583984375 -0.5167236328125
11.519287109375 10.50537109375 -12.5390625
27.267333984375 10.7080078125 -23.23779296875
-4.85498046875 -16.4140625 -14.25341796875
0.505615234375 -15.713623046875 -12.1497802734375
-26.1220703125 -5.152587890625 -15.994384765625
3.22607421875 -26.53857421875 -17.4749755859375
-29.256103515625 -40.5048828125 -11.5601806640625
0.49365234375 -12.625244140625 -13.3001708984375
-31.33740234375 -15.369384765625 -13.4776611328125
-26.908935546875 -51.962646484375 -10.34765625
1.83837890625 -6.038818359375 -17.140869140625
-34.33251953125 6.572998046875 -4.642333984375
-33.4755859375 -4.69384765625 -15.7318115234375
-34.521484375 -46.870361328125 5.384033203125
16.69482421875 15.533447265625 -25.4244384765625
-45.871826171875 -22.43359375 -14.30517578125
-34.51025390625 -42.526123046875 -4.9815673828125
-42.612548828125 -19.47265625 -13.543701171875
-14.532470703125 -18.94189453125 -15.6712646484375
-46.0712890625 -39.445068359375 10.011474609375
-15.973388671875 -35.31201171875 -8.3402099609375
-15.933349609375 7.481201171875 -8.6077880859375
-39.787353515625 -7.204833984375 -15.0296630859375
-25.23583984375 2.40234375 -12.373046875
-35.497314453125 -23.050048828125 -16.5408935546875
-36.92431640625 -6.546142578125 -15.4129638671875
-47.612548828125 -25.13037109375 -6.891357421875
-18.28125 -33.464111328125 -0.1163330078125
-31.107666015625 -18.142333984375 -15.130126953125
-33.137939453125 -55.26416015625 -3.5626220703125
-37.621337890625 -53.095947265625 8.8812255859375
-48.9091796875 -55.217041015625 20.03759765625
-13.4443359375 19.005615234375 -7.4339599609375
-17.6884765625 9.9814453125 -6.7947998046875
-46.371826171875 -22.152099609375 -8.5606689453125
-10.205322265625 -1.578857421875 -16.0054931640625
-47.716064453125 -39.850341796875 -2.649658203125
-7.781982421875 -24.174072265625 -15.1710205078125
-11.628662109375 -15.4404296875 -14.8538818359375
-34.233154296875 -46.6787109375 -6.0062255859375
-43.65087890625 -18.645263671875 -8.4395751953125
-22.838623046875 -42.578369140625 -16.8048095703125
-13.80078125 5.01123046875 -11.2318115234375
-41.74169921875 -26.750244140625 -15.767578125
-34.017333984375 -2.2421875 -15.0733642578125
-23.744140625 -37.56591796875 -12.12109375
17.759521484375 15.4091796875 -23.78173828125
-47.992431640625 -42.1357421875 2.2506103515625
4.847412109375 20.60400390625 -3.451171875
-11.513427734375 -7.3330078125 -16.357177734375
-48.63427734375 -48.87451171875 14.8853759765625
-4.306640625 -21.427978515625 -15.6256103515625
8.552490234375 9.712890625 -10.8284912109375
-6.2080078125 -14.970947265625 -15.0643310546875
-13.926513671875 -16.162353515625 -14.3258056640625
-27.646728515625 -8.416748046875 -15.3245849609375
-4.8193359375 2.564453125 -13.7188720703125
-40.74072265625 -65.607177734375 10.3133544921875
-43.76123046875 -61.342041015625 16.1474609375
-43.4384765625 -62.68994140625 10.388427734375
-21.76416015625 7.775390625 -8.330078125
-13.458251953125 -43.873046875 -13.851318359375
-33.286865234375 -42.25732421875 -8.0244140625
-20.154541015625 -20.119873046875 -16.392578125
1.33056640625 -19.416259765625 -14.4237060546875
-45.259521484375 -15.0947265625 -9.6798095703125
-43.941162109375 -39.667724609375 20.9007568359375
-28.199462890625 8.4873046875 -7.5533447265625
-25.572998046875 -43.2373046875 -16.1728515625
-34.4619140625 -57.322021484375 8.6541748046875
-24.773193359375 -39.02001953125 -13.3153076171875
17.802490234375 15.982421875 -27.1962890625
-8.214111328125 -2.51806640625 -16.299072265625
-33.143798828125 -51.218017578125 7.651611328125
-8.30517578125 -27.953857421875 -15.2222900390625
-16.47998046875 -40.569580078125 -14.0137939453125
14.474853515625 20.353759765625 -28.6322021484375
-32.60693359375 -50.337890625 -5.44140625
-31.498779296875 1.553955078125 -12.7252197265625
16.945556640625 22.18115234375 -13.17529296875
-15.7255859375 -14.080322265625 -12.5706787109375
-45.591796875 -43.3447265625 13.2939453125
21.39453125 10.814697265625 -19.708251953125
3.01025390625 14.3662109375 -4.975341796875
19.455078125 8.31494140625 -18.7958984375
-32.527587890625 -12.31640625 -14.1661376953125
-32.12109375 -24.106689453125 -17.0224609375
6.3203125 10.1806640625 -9.523681640625
-26.31884765625 6.03173828125 -9.8118896484375
27.876953125 20.677978515625 -18.778564453125
-22.5146484375 -41.123046875 -15.1715087890625
-0.3935546875 -11.1611328125 -14.8138427734375
-42.8984375 -55.460693359375 11.1236572265625
-2.1689453125 -1.6181640625 -16.4425048828125
4.915771484375 3.274658203125 -13.630859375
18.423095703125 13.384521484375 -17.3065185546875
-12.76953125 -19.564453125 -14.9776611328125
-34.8193359375 -42.8603515625 -2.1231689453125
-39.689697265625 -18.552001953125 -12.6014404296875
-7.0419921875 10.700927734375 -6.7342529296875
-32.72607421875 -53.106201171875 2.1741943359375
-40.39501953125 -14.935791015625 -10.8570556640625
-18.359619140625 -13.012451171875 -13.00537109375
-31.884033203125 -0.77490234375 -14.44970703125
-44.873779296875 -63.209228515625 11.9957275390625
-47.692138671875 -46.42333984375 11.9910888671875
-41.476806640625 -62.994384765625 8.080810546875
-13.182861328125 -40.751953125 -11.61083984375
-48.295654296875 -53.738037109375 15.2862548828125
6.63720703125 -21.312255859375 -16.7672119140625
-32.581787109375 -51.578125 0.402587890625
-40.17333984375 -20.33984375 -15.075927734375
5.491943359375 -18.25390625 -11.8094482421875
0.124755859375 -26.685791015625 -17.725830078125
-36.748046875 -2.885009765625 -15.1439208984375
-45.09033203125 -51.175048828125 13.182861328125
-32.211181640625 -47.447998046875 -11.3079833984375
0.41015625 -7.2353515625 -16.8763427734375
-11.121337890625 2.4755859375 -13.2491455078125
-0.491455078125 -18.786376953125 -15.12744140625
-22.994873046875 -6.5859375 -16.193115234375
-36.31298828125 -49.97607421875 10.513916015625
-45.128662109375 -11.6015625 -12.0057373046875
12.67333984375 5.44970703125 -14.502197265625
-33.075927734375 -48.429931640625 -3.3831787109375
-5.15087890625 -14.723876953125 -13.9173583984375
12.489013671875 7.13525390625 -14.041015625
1.266845703125 -17.494873046875 -11.996826171875
-46.267578125 -36.93505859375 7.10009765625
-36.685791015625 -30.1103515625 -19.27685546875
12.98388671875 26.44580078125 -22.981201171875
-18.00244140625 -7.751953125 -16.1729736328125
-45.57568359375 -35.70751953125 10.6614990234375
-42.88037109375 -14.9833984375 0.9176025390625
-46.073486328125 -27.67431640625 -15.2501220703125
-32.229736328125 -52.584716796875 7.402587890625
3.33056640625 -17.196533203125 -12.23779296875
-9.736572265625 -18.495849609375 -15.313720703125
-23.303466796875 5.46923828125 -10.1212158203125
0.202880859375 -2.5693359375 -16.96435546875
-30.816650390625 7.002685546875 -8.09765625
-26.88427734375 -22.139404296875 -15.9764404296875
-42.468994140625 -39.132568359375 26.267578125
-30.4130859375 8.1572265625 -6.9818115234375
-19.872802734375 -5.1162109375 -16.3515625
-34.9736328125 -62.103271484375 5.9725341796875
-1.848876953125 10.859130859375 -6.6187744140625
-0.120361328125 -9.834228515625 -15.69921875
-0.145263671875 8.756591796875 -8.521484375
-21.857666015625 -2.15087890625 -15.437255859375
-18.419189453125 8.01220703125 -8.2803955078125
21.3193359375 13.981689453125 -23.769287109375
-42.696044921875 -57.55322265625 13.3984375
-42.644287109375 -37.93798828125 27.4549560546875
-26.65771484375 -49.81103515625 -10.65087890625
-47.267578125 -59.59716796875 15.865966796875
-30.0888671875 -52.8349609375 -10.852783203125
-1.578369140625 -4.9775390625 -17.1131591796875
-1.830078125 -26.3740234375 -19.1824951171875
-18.782958984375 -41.883544921875 -15.3607177734375
-21.472900390625 -34.466552734375 -11.3677978515625
-8.1025390625 -8.870361328125 -15.7353515625
2.491943359375 -23.41845703125 -18.156494140625
3.783447265625 -21.1533203125 -16.1285400390625
-5.51220703125 -27.796875 -18.909423828125
-46.40087890625 -32.117431640625 2.3287353515625
-42.157470703125 -59.0537109375 11.33349609375
15.388916015625 23.37939453125 -9.336181640625
-8.08740234375 -32.317138671875 -14.4832763671875
6.552001953125 0.6845703125 -14.40087890625
-3.479736328125 -12.29833984375 -13.8861083984375
-44.80615234375 -17.899658203125 -6.620849609375
-3.630615234375 4.098388671875 -12.39794921875
-39.172607421875 -64.48046875 7.5308837890625
-16.60693359375 -4.491455078125 -16.3868408203125
-6.017333984375 5.005126953125 -11.29248046875
1.33251953125 -22.050537109375 -18.131591796875
23.543212890625 27.445556640625 -12.8443603515625
-12.94482421875 -11.228515625 -13.7425537109375
10.052978515625 19.657958984375 -6.527587890625
-43.887451171875 -54.794921875 13.2969970703125
-39.078125 -49.004150390625 11.8507080078125
4.48583984375 14.735595703125 -5.2286376953125
-31.16748046875 -6.91650390625 -15.6002197265625
9.76513671875 6.35009765625 -12.681884765625
-45.612548828125 -33.634765625 11.30712890625
28.33642578125 12.7529296875 -22.695068359375
-22.272705078125 10.19189453125 -6.36376953125
1.790771484375 12.78857421875 -6.3304443359375
-33.49560546875 -43.640625 -7.0146484375
13.754150390625 14.64794921875 -12.5018310546875
-8.576171875 2.347412109375 -13.5284423828125
-26.39990234375 -38.947021484375 -12.6591796875
-42.839599609375 -7.82861328125 -14.881591796875
-1.874267578125 15.76513671875 -2.80810546875
18.74267578125 17.53857421875 -15.6597900390625
26.124267578125 15.734375 -20.688720703125
18.567138671875 15.858642578125 -15.8927001953125
18.9853515625 4.93701171875 -18.791259765625
-19.52197265625 -39.822265625 -14.2783203125
-47.98779296875 -38.360107421875 -4.2685546875
-40.579345703125 -36.543212890625 25.18896484375
-7.53466796875 13.155517578125 -4.7381591796875
-8.182373046875 -32.517333984375 -16.4296875
-25.05517578125 -2.3720703125 -15.3480224609375
-32.3544921875 -48.8017578125 2.02197265625
-25.01123046875 -23.567626953125 -15.74560546875
4.89599609375 0.776123046875 -14.3275146484375
-33.847412109375 -47.623779296875 -8.7686767578125
-32.9296875 5.540283203125 -9.3214111328125
-6.99853515625 -34.969482421875 -18.2664794921875
-26.215576171875 -20.123046875 -15.7967529296875
19.4873046875 13.65087890625 -23.8604736328125
-20.658203125 -7.9990234375 -16.066650390625
-44.02099609375 -34.528076171875 -14.809326171875
-16.9228515625 -15.97607421875 -13.941162109375
18.756591796875 15.658447265625 -21.019775390625
17.2958984375 16.630615234375 -22.4559326171875
-27.04638671875 -51.14892578125 -13.0096435546875
-32.441162109375 7.879638671875 -7.4586181640625
17.80615234375 20.109130859375 -15.3416748046875
13.019287109375 22.280517578125 -23.0819091796875
-20.047119140625 0.169921875 -14.5911865234375
-27.94384765625 -15.218017578125 -13.32373046875
-14.02392578125 -21.559326171875 -15.17529296875
1.41552734375 -24.61669921875 -18.1173095703125
-8.2998046875 -14.5205078125 -13.6517333984375
-27.814697265625 -17.624267578125 -14.4652099609375
0.186279296875 16.107421875 -3.037109375
-2.49462890625 -7.929931640625 -16.3583984375
-24.5791015625 3.55810546875 -11.60546875
-11.5986328125 6.492431640625 -9.996826171875
-7.046142578125 -27.75146484375 -18.1268310546875
-5.676513671875 11.462890625 -6.4549560546875
-43.10595703125 -60.81884765625 12.1781005859375
-23.24658203125 -32.31982421875 -10.19775390625
-47.822509765625 -47.50048828125 10.4603271484375
-15.45849609375 -33.99853515625 -8.9901123046875
-39.469970703125 -24.284912109375 -17.4359130859375
-11.86474609375 0.524169921875 -14.719970703125
-8.71484375 7.555908203125 -9.2630615234375
-20.107177734375 10.083740234375 -6.40576171875
10.507080078125 4.24755859375 -13.7801513671875
-48.292236328125 -42.90869140625 5.198486328125
-0.728271484375 -23.610595703125 -17.9378662109375
-28.9912109375 -47.08837890625 -13.2669677734375
-30.329833984375 -19.41357421875 -15.5054931640625
-29.727783203125 -0.4951171875 -14.4490966796875
-24.98876953125 -34.3427734375 -9.7060546875
-27.882568359375 -42.471435546875 -13.7908935546875
-22.76025390625 -3.3076171875 -15.85888671875
-46.392578125 -47.744384765625 17.739013671875
-47.725341796875 -46.470947265625 5.8729248046875
-17.47998046875 -18.33837890625 -15.227294921875
11.851318359375 18.37744140625 -8.327880859375
-45.295654296875 -32.46044921875 -13.76708984375
-48.442138671875 -46.815185546875 9.0107421875
21.5830078125 4.42626953125 -19.73583984375
-41.15087890625 -33.93896484375 25.875244140625
7.621337890625 7.657958984375 -11.2607421875
-24.26318359375 -14.332275390625 -12.232666015625
-34.505126953125 -15.556640625 -13.3936767578125
-16.173095703125 4.31884765625 -11.416015625
-3.21875 -18.96142578125 -15.611083984375
-39.042724609375 -11.486083984375 -13.607421875
15.961669921875 17.56103515625 -23.183349609375
-21.38916015625 -18.455810546875 -15.2725830078125
-41.192626953125 -16.736572265625 -8.663818359375
-5.809326171875 13.916015625 -4.6829833984375
-40.099853515625 -8.84326171875 -14.7998046875
-24.27197265625 1.568603515625 -13.1522216796875
-23.350341796875 -19.58447265625 -15.028076171875
-30.966796875 -45.232177734375 -12.9844970703125
-35.161865234375 -9.196044921875 -14.661376953125
-48.313232421875 -41.541259765625 4.516845703125
-42.5703125 -12.81982421875 -9.610107421875
-36.1298828125 -0.562255859375 -13.766357421875
-9.58837890625 -15.9912109375 -15.0894775390625
-32.79833984375 0.45751953125 -13.620361328125
-45.737060546875 -21.514892578125 -7.14794921875
-15.56787109375 9.076416015625 -7.544189453125
-35.595703125 -16.6572265625 -14.05224609375
-1.944091796875 -9.27880859375 -15.8082275390625
4.88427734375 -25.62841796875 -19.3272705078125
-19.52001953125 4.092529296875 -11.4566650390625
-35.978515625 -20.661376953125 -15.189453125
-48.451904296875 -49.66552734375 11.0108642578125
24.42529296875 9.90380859375 -21.40869140625
-10.572021484375 -13.037841796875 -14.2529296875
-46.6943359375 -48.37353515625 19.4278564453125
-37.293212890625 -23.295166015625 -16.757568359375
-34.014404296875 2.4697265625 -11.8824462890625
-28.282958984375 -21.93115234375 -16.9368896484375
-36.986572265625 -16.63427734375 -13.1695556640625
-30.220703125 -9.95849609375 -14.5780029296875
20.56640625 7.445068359375 -19.4759521484375
1.873291015625 -21.103271484375 -15.1114501953125
-14.728515625 -38.56494140625 -10.7803955078125
-47.954833984375 -37.927490234375 -0.9576416015625
-26.742431640625 -12.765380859375 -13.76953125
-40.487060546875 -36.70703125 -20.0731201171875
-42.124755859375 -22.2021484375 -15.5184326171875
-31.322998046875 5.864501953125 -9.330078125
-5.4462890625 -13.03466796875 -13.58154296875
-40.4921875 -28.532958984375 -19.3165283203125
-46.0009765625 -40.570556640625 12.1212158203125
-37.312744140625 -56.031005859375 7.8841552734375
-30.77392578125 -22.650146484375 -16.0753173828125
-25.844970703125 -17.334228515625 -14.7027587890625
18.759521484375 10.837646484375 -17.64111328125
-30.033935546875 -44.375 -13.781005859375
-42.57958984375 -32.954833984375 -18.7200927734375
-7.3974609375 -1.331787109375 -15.99267578125
-5.23681640625 -17.9873046875 -15.3157958984375
-33.21630859375 -7.200927734375 -15.481201171875
-8.8671875 4.36328125 -11.962646484375
-35.56201171875 -47.902587890625 7.4351806640625
-25.0908203125 9.12890625 -7.100341796875
-33.898681640625 -11.416748046875 -13.8643798828125
-26.2431640625 -8.076904296875 -15.5775146484375
-1.11376953125 -7.15087890625 -16.679931640625
7.374755859375 5.210205078125 -12.8018798828125
-30.133056640625 -12.564453125 -13.2874755859375
-10.407958984375 0.035888671875 -14.9698486328125
-7.521728515625 -16.491943359375 -15.9124755859375
-17.233642578125 -20.42236328125 -15.6170654296875
-20.573486328125 8.50390625 -7.589599609375
0.5439453125 14.85595703125 -3.9200439453125
-33.576416015625 -49.567138671875 -7.2061767578125
11.81787109375 25.5625 -20.0989990234375
-1.539794921875 -20.842529296875 -15.084228515625
-26.428955078125 -14.900634765625 -13.4569091796875
-1.800537109375 -24.8056640625 -17.8988037109375
-4.1767578125 -26.23583984375 -18.6517333984375
-45.944580078125 -52.427490234375 13.4658203125
-32.666748046875 -48.858154296875 -9.959716796875
-27.853271484375 10.069091796875 -6.498291015625
-16.50732421875 -1.222900390625 -15.5904541015625
-36.293212890625 -11.68896484375 -13.5274658203125
-9.131591796875 -20.599365234375 -15.931396484375
-28.49462890625 -7.092041015625 -15.6429443359375
-0.572998046875 1.538330078125 -14.65625
17.710205078125 5.40185546875 -18.2906494140625
-23.773681640625 -15.86572265625 -14.190185546875
-30.74951171875 -50.2861328125 -10.3017578125
-31.816650390625 -50.416015625 3.953857421875
19.171142578125 20.445556640625 -14.53466796875
-49.302734375 -51.814697265625 14.7056884765625
-25.48046875 -6.443359375 -15.91259765625
-43.282958984375 -10.31298828125 -14.19384765625
-41.407958984375 -36.670166015625 26.93408203125
5.369873046875 -18.439453125 -14.38037109375
-25.28466796875 -9.42333984375 -15.1397705078125
-39.004150390625 -4.3662109375 -15.3106689453125
-47.355224609375 -27.673095703125 -14.2569580078125
16.505859375 22.53076171875 -10.6177978515625
-19.363525390625 -37.88916015625 -12.815673828125
-26.464111328125 -52.667236328125 -11.746826171875
-39.864990234375 -35.31494140625 25.4049072265625
-11.18896484375 10.080810546875 -6.9892578125
-43.23974609375 -58.90283203125 14.0748291015625
-45.734619140625 -38.263671875 7.0809326171875
-25.685546875 -37.07470703125 -11.1822509765625
-41.955810546875 -53.36474609375 10.95751953125
-43.6943359375 -11.68798828125 -12.191650390625
-3.2763671875 -14.556884765625 -12.5040283203125
