-43.183837890625 -38.686279296875 16.3592529296875
-1.23681640625 -21.0546875 7.5345458984375
0.326171875 5.10107421875 0.1156005859375
7.16552734375 -45.60595703125 22.982177734375
3.162841796875 5.878173828125 0.85498046875
12.317138671875 15.296630859375 3.0423583984375
-14.880859375 -27.287841796875 6.64794921875
-27.597900390625 -21.65576171875 16.7315673828125
-38.615478515625 -36.2158203125 12.882080078125
-35.3427734375 -42.142578125 20.175048828125
-46.964111328125 -33.5859375 -7.018310546875
-44.801025390625 -45.60302734375 20.835205078125
-41.52197265625 -20.652099609375 -3.00537109375
-17.891357421875 0.175537109375 -3.397705078125
-21.798583984375 -27.904052734375 6.3482666015625
-44.994140625 -35.39306640625 10.6214599609375
-6.212890625 -27.189453125 3.9652099609375
-6.08056640625 0.791748046875 -3.2816162109375
-41.919677734375 -35.17431640625 11.681396484375
5.5732421875 -32.751220703125 7.7430419921875
-11.736572265625 -21.041015625 16.1214599609375
5.960693359375 -47.484130859375 26.361572265625
-14.623291015625 -23.906494140625 0.74169921875
-26.44189453125 -30.954345703125 6.57666015625
-4.9111328125 -20.93310546875 5.2916259765625
14.0380859375 8.96044921875 -6.9237060546875
1.0009765625 -21.640869140625 5.3858642578125
-33.8046875 -21.898681640625 -0.21044921875
-22.4716796875 -26.0146484375 1.53125
-0.586181640625 7.545654296875 2.545654296875
-45.13916015625 -40.9873046875 8.0218505859375
-35.784912109375 -20.098388671875 0.8931884765625
1.837158203125 -19.502197265625 5.794921875
-44.091796875 -22.324951171875 -0.9383544921875
-16.251220703125 -19.68994140625 -4.266357421875
-44.95458984375 -50.394775390625 20.3018798828125
-9.783447265625 7.120361328125 3.033203125
7.76513671875 -47.6328125 25.254638671875
-12.75 6.841552734375 1.58740234375
-41.931396484375 -2.32568359375 -5.171875
-45.248291015625 -38.93408203125 11.1802978515625
-23.3740234375 -24.091796875 14.44775390625
14.951904296875 7.24462890625 -6.609375
-21.867431640625 -24.626953125 8.88623046875
0.039794921875 -1.84912109375 -5.5242919921875
-33.26708984375 -45.54296875 29.0889892578125
-44.69775390625 -50.021484375 18.5567626953125
-21.217041015625 -14.615234375 17.6263427734375
-4.34326171875 2.93603515625 -1.201171875
-28.968017578125 -46.5908203125 24.45263671875
-30.936279296875 -22.96337890625 21.1402587890625
-45.25634765625 -35.535888671875 0.369384765625
-44.99853515625 -46.426025390625 16.208740234375
0.8154296875 -34.88037109375 10.4671630859375
-34.5166015625 -33.5400390625 9.5028076171875
-43.69384765625 -27.62744140625 4.3309326171875
6.1337890625 -39.115234375 15.3414306640625
-47.638916015625 -58.45751953125 14.7994384765625
0.9501953125 -20.87744140625 -0.6673583984375
-39.549560546875 -17.4794921875 2.8275146484375
-36.0009765625 -21.879150390625 5.7540283203125
-14.74609375 -0.85107421875 -4.4539794921875
-34.133056640625 -43.4931640625 21.559814453125
-15.199951171875 -26.845947265625 2.774169921875
22.701171875 23.117919921875 -1.2396240234375
1.314453125 -18.09423828125 2.189453125
-30.92138671875 -3.3193359375 -6.7081298828125
-31.86962890625 -34.84765625 12.9356689453125
10.63427734375 13.460205078125 1.91943359375
12.35205078125 13.883056640625 -5.01171875
-16.79443359375 -20.825927734375 -2.712646484375
-48.090576171875 -56.976318359375 5.580810546875
4.834716796875 -45.002685546875 24.6827392578125
-22.92919921875 -23.3017578125 17.205810546875
-30.029541015625 -44.108642578125 21.924560546875
1.43212890625 5.998779296875 1.0777587890625
-38.928955078125 -34.97509765625 11.4154052734375
-39.2470703125 -44.134033203125 28.598876953125
29.690673828125 8.0478515625 -14.214599609375
-25.574462890625 -23.678955078125 15.2039794921875
-18.2783203125 -23.4453125 -0.08251953125
-2.58154296875 -17.79150390625 4.8951416015625
-1.170166015625 -16.79052734375 2.7694091796875
-22.864501953125 -23.62744140625 10.102294921875
8.354736328125 -37.4931640625 13.2001953125
-23.4912109375 -18.732666015625 -5.4296875
-9.504638671875 -23.440185546875 15.369873046875
-24.42724609375 -23.33837890625 -0.2705078125
-33.560791015625 -3.38037109375 -8.5830078125
11.440673828125 14.83837890625 -0.3829345703125
-31.238037109375 -26.022216796875 20.95556640625
-4.71142578125 -4.158935546875 -7.7686767578125
6.183349609375 9.446533203125 2.69580078125
-42.818115234375 -31.638427734375 7.267578125
-11.399658203125 4.12451171875 -0.5364990234375
-5.070556640625 6.548828125 1.5108642578125
-26.117919921875 -25.049560546875 2.159912109375
4.135986328125 11.214599609375 5.0648193359375
-24.885498046875 -19.947021484375 -3.809326171875
-23.191162109375 -17.144775390625 19.0064697265625
22.280517578125 20.018798828125 -2.41455078125
-6.75390625 4.33203125 -0.1463623046875
-2.01953125 -35.90185546875 11.885009765625
25.185546875 13.775146484375 -7.8070068359375
5.035400390625 -0.918212890625 -4.977783203125
10.669921875 9.038818359375 -14.3233642578125
0.872314453125 10.66796875 4.8638916015625
22.171875 14.013671875 -5.672119140625
-32.926513671875 -20.660400390625 -3.0892333984375
5.36181640625 1.64599609375 -2.618408203125
-19.8369140625 -0.767822265625 -3.8521728515625
-0.75439453125 -32.554931640625 7.9932861328125
-36.521240234375 -45.445556640625 26.7469482421875
-44.999267578125 -49.696044921875 15.0550537109375
-45.037841796875 -43.78466796875 15.440673828125
23.387451171875 17.410888671875 -4.49755859375
25.197509765625 24.822265625 -0.661376953125
-18.920166015625 3.68701171875 -0.657958984375
-45.1328125 -42.513671875 10.809814453125
-15.62841796875 -3.231201171875 -6.71044921875
-35.19970703125 -17.467529296875 4.10107421875
-30.936279296875 -32.154296875 14.7655029296875
13.297119140625 12.097412109375 -4.2955322265625
-26.3525390625 -25.35205078125 11.3958740234375
24.780517578125 15.33056640625 -6.48876953125
-46.5810546875 -31.34130859375 -8.7254638671875
-5.951416015625 -23.336669921875 0.38232421875
9.004638671875 9.833740234375 1.1939697265625
4.87109375 -44.092529296875 20.7822265625
7.704833984375 15.466064453125 -4.065673828125
6.850341796875 6.4970703125 0.599365234375
16.45361328125 14.90087890625 -2.643310546875
5.7783203125 3.63818359375 -1.2940673828125
-23.28564453125 -0.61328125 -4.281982421875
7.853515625 -51.11962890625 28.67724609375
14.502197265625 14.499267578125 -0.813720703125
-35.0908203125 -20.68701171875 -3.2950439453125
-45.22607421875 -37.215576171875 3.093505859375
-31.350830078125 -0.010009765625 -3.2021484375
-39.893798828125 -45.79833984375 27.8896484375
-10.716064453125 7.1337890625 1.4334716796875
14.28271484375 -36.15771484375 11.075927734375
-40.964111328125 -39.06982421875 16.0506591796875
-29.58837890625 -30.84765625 5.5997314453125
-31.9599609375 -46.583251953125 26.0843505859375
10.69921875 13.324951171875 -7.1158447265625
28.236572265625 15.021240234375 -9.12744140625
-1.89208984375 5.5986328125 0.918212890625
-44.349365234375 -13.79296875 -8.364990234375
-31.151611328125 -19.168701171875 -4.67724609375
24.576416015625 9.7099609375 -9.2423095703125
-41.162353515625 -45.406982421875 23.19384765625
-18.2177734375 -17.404541015625 14.965087890625
-6.490478515625 -24.484375 1.9517822265625
-39.87353515625 -32.832275390625 9.3388671875
-34.039306640625 -1.935546875 -5.118896484375
-38.284912109375 -19.957275390625 -4.073974609375
-45.5771484375 -14.417724609375 -9.264404296875
13.252197265625 12.625244140625 -2.007080078125
-36.394287109375 -3.45068359375 -6.9739990234375
-31.549072265625 -31.95556640625 19.286376953125
-44.22412109375 -31.8701171875 -13.6273193359375
8.968017578125 -39.359130859375 16.366943359375
-43.314453125 -16.833984375 -7.09423828125
-24.747802734375 -24.98193359375 10.4310302734375
-35.39501953125 -36.826416015625 13.749755859375
-27.715087890625 -25.64111328125 2.6343994140625
-3.3310546875 8.457763671875 3.0767822265625
-41.07568359375 -36.891357421875 13.4296875
-33.14892578125 -35.3408203125 12.0682373046875
-32.984619140625 -3.660888671875 -6.99267578125
1.243408203125 -3.599853515625 -7.4273681640625
-1.855224609375 -3.16259765625 -6.5223388671875
-10.914306640625 -3.23681640625 -6.81689453125
-10.396484375 -29.318603515625 7.93896484375
-5.00537109375 6.839599609375 4.1422119140625
-4.79638671875 -30.865478515625 6.55078125
5.495849609375 -37.018798828125 12.685546875
9.794921875 8.234619140625 -0.1541748046875
-16.642578125 -18.994140625 14.01171875
-7.185546875 -28.26806640625 14.0789794921875
-39.968017578125 -53.62255859375 33.5335693359375
-3.99462890625 -20.511962890625 -0.4849853515625
26.83349609375 7.506103515625 -12.7105712890625
5.91064453125 -48.974365234375 27.4434814453125
-40.712646484375 -31.35400390625 7.110107421875
-41.441162109375 -21.244140625 2.9893798828125
-44.5 -31.0458984375 -3.0738525390625
-38.49853515625 -38.3935546875 15.502685546875
-45.084716796875 -23.19677734375 1.154541015625
-41.47509765625 -33.425537109375 9.8145751953125
-35.552734375 -3.97265625 -8.509521484375
-48.244384765625 -63.15185546875 21.1746826171875
-3.931884765625 -21.5634765625 -3.875
1.066650390625 -37.194091796875 13.546875
-37.458984375 -1.579345703125 -5.061279296875
-21.265380859375 -21.99560546875 -1.17578125
3.987548828125 -22.17236328125 0.4786376953125
-15.5458984375 -23.266357421875 9.8583984375
-45.0234375 -58.91748046875 25.345703125
-4.383544921875 -33.63623046875 10.8251953125
-18.212158203125 -25.869140625 7.32861328125
11.01953125 -37.673095703125 11.078125
-11.304443359375 -26.6435546875 9.9774169921875
-1.753173828125 8.927001953125 3.0185546875
-1.844482421875 -33.47216796875 8.8009033203125
-30.43798828125 -26.833984375 17.6385498046875
7.652587890625 -42.7841796875 18.9625244140625
-11.391845703125 -29.375 5.7958984375
-44.46923828125 -51.72998046875 30.2886962890625
22.206298828125 23.600830078125 0.6331787109375
-33.3984375 -45.46435546875 27.33544921875
-14.6513671875 -25.847412109375 8.2890625
-36.56298828125 -34.093017578125 10.03564453125
-14.072021484375 -27.727783203125 3.7838134765625
-0.8740234375 -23.005615234375 5.7125244140625
-6.65869140625 -0.55322265625 -3.9951171875
9.948486328125 3.978515625 -2.542236328125
-20.154541015625 -18.75146484375 13.9923095703125
-28.012939453125 -28.0048828125 11.4095458984375
-19.676513671875 -16.50830078125 15.31494140625
-49.321533203125 -56.1318359375 2.6983642578125
-45.86181640625 -54.882080078125 16.29150390625
-5.593505859375 -24.223876953125 3.256103515625
-41.982666015625 -47.425048828125 25.5408935546875
-25.4462890625 -3.49365234375 -7.8216552734375
9.77392578125 15.94580078125 -2.47021484375
-33.60205078125 -38.745361328125 15.8197021484375
-44.623291015625 -36.4462890625 13.4503173828125
-29.439697265625 -22.392333984375 19.3721923828125
-10.805908203125 -20.51416015625 -4.190185546875
6.5068359375 11.964111328125 5.4136962890625
-7.871826171875 -30.148193359375 10.1690673828125
-1.652587890625 -19.07666015625 0.0531005859375
-45.25 -46.43994140625 12.6402587890625
12.4638671875 -38.403076171875 8.9521484375
-32.29638671875 -45.61376953125 23.628173828125
8.124755859375 -33.78271484375 8.6041259765625
-34.12939453125 -42.73095703125 30.1591796875
-8.90771484375 -27.035400390625 11.8619384765625
-6.197509765625 -32.050048828125 8.6727294921875
-32.616455078125 -32.450927734375 8.2186279296875
-8.173095703125 5.01708984375 0.18603515625
7.869140625 -49.37841796875 28.09326171875
-3.433349609375 0.5009765625 -3.2216796875
-37.880126953125 -32.177490234375 8.3924560546875
-3.72509765625 -21.861083984375 -1.2889404296875
7.683837890625 8.379638671875 1.40673828125
-41.0419921875 -45.610107421875 30.698486328125
-27.39599609375 -29.52734375 9.6719970703125
10.99951171875 14.397216796875 -3.437744140625
-36.90087890625 -17.2646484375 4.77197265625
-28.9638671875 -24.241455078125 0.892822265625
17.9755859375 5.468017578125 -8.2904052734375
26.50634765625 21.367431640625 -4.6790771484375
-44.501953125 -29.994873046875 -6.8251953125
28.18994140625 8.883544921875 -12.49951171875
-44.612548828125 -33.60302734375 7.88720703125
-3.203857421875 -21.873046875 8.440185546875
-40.011962890625 -19.806640625 -3.8408203125
-45.0166015625 -18.571533203125 -5.15576171875
-31.048095703125 -30.990478515625 16.3570556640625
-25.297119140625 1.408447265625 -2.6658935546875
-43.00146484375 -28.783935546875 5.30517578125
-44.453125 -46.26806640625 24.23046875
8.787109375 11.631591796875 -12.09033203125
-23.4521484375 -22.021240234375 -1.3843994140625
-8.16455078125 -1.78955078125 -5.4473876953125
-28.85205078125 -23.9365234375 17.23291015625
-36.281494140625 -19.64794921875 7.626708984375
-37.1005859375 -16.915771484375 2.69677734375
-13.566650390625 -21.17529296875 14.08544921875
-39.0908203125 -16.980224609375 4.6435546875
-35.9091796875 -39.902587890625 17.5855712890625
-8.513671875 2.399658203125 -1.7310791015625
-41.8447265625 -55.56787109375 33.79296875
-8.23876953125 7.736083984375 3.01513671875
-35.7333984375 -32.28173828125 7.697509765625
-44.90869140625 -17.472412109375 -7.078369140625
-18.2744140625 -3.240966796875 -8.14990234375
-38.43408203125 -21.19384765625 9.6767578125
-36.582275390625 -18.210693359375 -6.022216796875
-25.05908203125 0.01416015625 -3.48486328125
4.44482421875 -43.783447265625 22.6973876953125
-43.91748046875 -21.262939453125 -2.010986328125
10.562255859375 1.21435546875 -5.0565185546875
-40.1162109375 -17.95654296875 5.8262939453125
6.97216796875 13.385009765625 -13.554931640625
2.05859375 -39.1201171875 15.294677734375
9.14794921875 11.5126953125 -14.3304443359375
11.325927734375 3.4853515625 -3.691162109375
3.701904296875 -35.45458984375 11.3997802734375
-54.3818359375 -54.78466796875 3.0928955078125
-24.25634765625 -25.902099609375 8.4024658203125
-0.055908203125 0.69921875 -3.552490234375
-16.003662109375 4.015869140625 -0.0460205078125
-28.50732421875 -2.30419921875 -5.421142578125
-3.37353515625 -32.8017578125 8.2099609375
-13.43359375 -3.548095703125 -7.04541015625
-45.084716796875 -52.10888671875 20.8592529296875
6.167236328125 17.232666015625 -8.9725341796875
-31.151611328125 -29.046630859375 20.3048095703125
-38.0595703125 -22.324462890625 5.869873046875
-31.008056640625 -32.90966796875 11.501708984375
29.160400390625 11.640869140625 -11.4376220703125
-13.4130859375 -28.06298828125 6.3133544921875
25.362060546875 22.549560546875 -2.9625244140625
-14.45849609375 -18.638427734375 15.614013671875
-43.27490234375 -9.295654296875 -5.9925537109375
-49.4853515625 -56.475830078125 5.8409423828125
-13.46826171875 6.605224609375 2.8878173828125
26.397705078125 24.8564453125 -2.48291015625
-29.171630859375 -0.667724609375 -4.0533447265625
-41.9697265625 -22.744140625 3.9989013671875
5.55908203125 -24.845458984375 1.015869140625
-43.958251953125 -55.466796875 35.3480224609375
-45.105712890625 -31.3359375 -12.4833984375
-1.240966796875 -37.102783203125 12.8974609375
-6.396484375 -29.931640625 5.5872802734375
-31.816162109375 -42.3310546875 19.7862548828125
27.86962890625 22.50390625 -4.96484375
-1.406982421875 3.217041015625 -1.02783203125
15.2958984375 14.31005859375 -3.5211181640625
13.4404296875 15.65380859375 1.7301025390625
-28.343994140625 -3.922119140625 -8.0338134765625
-3.988037109375 7.9267578125 4.298095703125
-1.857666015625 -20.555419921875 -2.0675048828125
-14.475830078125 0.1220703125 -3.36767578125
12.74755859375 14.847900390625 0.325927734375
26.033935546875 16.91943359375 -6.646728515625
-0.145263671875 -17.559326171875 2.0316162109375
-36.02587890625 -44.765869140625 22.8232421875
-37.158447265625 -45.516845703125 23.6734619140625
18.18408203125 20.83447265625 -3.0137939453125
-40.429931640625 -20.219970703125 7.936279296875
-34.455810546875 -21.075927734375 -1.25732421875
-30.02490234375 -27.712646484375 14.7689208984375
-49.55712890625 -56.929931640625 3.9132080078125
-43.222900390625 -53.2119140625 32.1236572265625
-29.36669921875 -26.221435546875 15.9090576171875
-30.1708984375 -2.527099609375 -5.720458984375
6.1787109375 -40.792724609375 17.2501220703125
-44.552734375 -28.210205078125 2.95849609375
3.550537109375 -2.11083984375 -5.9903564453125
-25.1455078125 -24.270751953125 13.273193359375
-6.694091796875 -31.2041015625 11.1531982421875
-27.676513671875 -31.037353515625 7.5784912109375
10.598876953125 9.967041015625 -0.667236328125
-22.46826171875 -24.125732421875 0.6544189453125
25.9921875 12.3291015625 -9.14794921875
-10.2041015625 -21.449951171875 18.5076904296875
-39.266357421875 -42.310546875 20.0833740234375
1.59814453125 -0.963134765625 -4.600341796875
-15.279541015625 -21.629150390625 -2.1903076171875
-43.821044921875 -39.805908203125 17.0694580078125
-45.206787109375 -25.237548828125 0.664794921875
-45.5576171875 -34.74853515625 -2.0897216796875
-46.864990234375 -35.759521484375 -4.438232421875
-2.447265625 -0.26904296875 -4.3995361328125
8.17041015625 -41.291015625 18.3106689453125
-3.611328125 -28.34521484375 6.107421875
22.48779296875 11.060546875 -8.2108154296875
0.053466796875 -39.89404296875 16.686767578125
-13.51171875 -24.840576171875 1.2869873046875
15.23974609375 -36.5419921875 9.986572265625
-11.125 -24.764404296875 12.595947265625
0.658935546875 -32.78662109375 8.244873046875
-1.977294921875 -37.499755859375 14.239013671875
-26.26123046875 -19.7880859375 -4.50048828125
-6.651123046875 8.2529296875 3.39404296875
17.511474609375 17.11376953125 -3.47607421875
3.789794921875 -37.22412109375 13.717529296875
-30.174072265625 -29.517333984375 13.9437255859375
-35.81298828125 -35.14794921875 11.9420166015625
-22.33154296875 -18.294921875 15.191162109375
1.298828125 -41.152099609375 17.656982421875
-43.856201171875 -30.6376953125 7.1695556640625
-47.403076171875 -57.558837890625 7.666259765625
-24.88818359375 -24.943115234375 15.29296875
-17.439208984375 -22.192626953125 11.181884765625
-13.661376953125 -21.255615234375 -3.1669921875
21.3046875 18.99609375 -2.140625
27.36474609375 25.909423828125 -2.3201904296875
-24.0595703125 -23.8759765625 11.0511474609375
-7.688232421875 -26.697021484375 3.3436279296875
-44.26708984375 -54.420654296875 33.334716796875
-25.9140625 -28.3017578125 2.2452392578125
-30.886962890625 -29.40234375 16.6865234375
-24.6796875 -25.815673828125 1.819091796875
18.906982421875 19.98779296875 -1.614013671875
-45.501220703125 -29.85693359375 3.9920654296875
6.26953125 -44.16455078125 21.0860595703125
7.400146484375 -23.764404296875 -1.6207275390625
-29.268798828125 -31.061279296875 9.9622802734375
-38.25634765625 -17.802978515625 2.1689453125
-42.64013671875 -46.555419921875 24.4417724609375
-19.940185546875 -23.71484375 0.4781494140625
-28.14013671875 0.83251953125 -2.92041015625
-30.258056640625 -31.885009765625 12.5408935546875
-23.31396484375 -3.19970703125 -6.6876220703125
-26.584228515625 -23.295166015625 14.078857421875
28.611328125 25.84716796875 -3.750244140625
-46.154052734375 -55.88134765625 34.5787353515625
-17.236572265625 -27.624267578125 2.808349609375
-42.55419921875 -22.6748046875 1.883544921875
-41.91259765625 -48.528564453125 30.2181396484375
-39.855224609375 -45.608642578125 22.5787353515625
-39.88134765625 -18.88818359375 6.88525390625
-16.497802734375 -25.212890625 1.521240234375
-8.305419921875 -31.029296875 6.881591796875
-45.599609375 -45.771728515625 9.226318359375
-45.45166015625 -47.86474609375 12.797119140625
-27.935791015625 -19.898193359375 -3.89794921875
5.158203125 -34.365234375 9.6839599609375
5.395751953125 -45.699462890625 23.5865478515625
-16.175048828125 -28.1796875 3.90234375
-34.509033203125 -19.56591796875 2.201171875
-30.10693359375 -19.925537109375 -4.1033935546875
-14.3154296875 -16.715576171875 17.7640380859375
-4.575927734375 -22.266845703125 5.8321533203125
-18.83154296875 -27.876708984375 4.70361328125
-37.55859375 -19.845947265625 0.7120361328125
28.127685546875 10.690185546875 -11.5716552734375
-12.4638671875 -1.616943359375 -4.91259765625
-39.341796875 -43.862548828125 21.5498046875
4.61572265625 -22.685302734375 1.6307373046875
-14.3564453125 -22.186767578125 11.74267578125
29.8046875 13.869140625 -11.350830078125
8.800048828125 -47.873291015625 26.4742431640625
-10.45751953125 -28.21630859375 3.2821044921875
-54.578125 -52.97412109375 3.99169921875
12.00244140625 14.091552734375 -1.9188232421875
14.817138671875 16.796630859375 1.437744140625
-15.949951171875 -20.575927734375 12.7099609375
-45.073974609375 -53.3134765625 18.3536376953125
-31.07666015625 -30.320556640625 17.827392578125
8.888427734375 -43.817138671875 20.4486083984375
-31.539306640625 -33.714599609375 14.484130859375
6.642333984375 -2.288818359375 -5.9490966796875
7.3701171875 -43.229248046875 20.2606201171875
-44.4658203125 -48.10400390625 26.0904541015625
-46.860595703125 -37.275390625 -1.672607421875
-34.79248046875 -2.724609375 -6.10302734375
-46.2578125 -60.860595703125 16.4327392578125
3.63818359375 -45.726318359375 24.6551513671875
-45.55224609375 -51.2958984375 16.1201171875
-10.2822265625 -25.266357421875 2.1741943359375
-36.8662109375 -42.488037109375 29.1375732421875
-45.481201171875 -60.665283203125 21.4102783203125
-38.851318359375 -20.6513671875 -1.543212890625
-19.4091796875 -15.282470703125 16.861328125
-3.72705078125 -31.48974609375 7.1949462890625
-39.458740234375 -2.218994140625 -5.4295654296875
7.724365234375 -26.484130859375 0.3935546875
-41.922607421875 -22.02587890625 0.2152099609375
-2.359619140625 1.510986328125 -2.6514892578125
-45.06640625 -42.321044921875 12.1885986328125
-21.265380859375 -28.7177734375 5.2115478515625
-44.769775390625 -46.477783203125 19.30908203125
9.73828125 -36.546875 9.18505859375
-20.57568359375 -21.604248046875 11.642578125
-40.388427734375 -18.349609375 -5.625
-19.05126953125 -20.42431640625 12.1893310546875
-0.383544921875 -4.133056640625 -7.8189697265625
2.742431640625 -20.6962890625 0.52099609375
-12.7783203125 -22.718994140625 -0.9527587890625
7.9501953125 -40.630859375 17.10888671875
0.897705078125 -38.142578125 14.7149658203125
-45.8447265625 -37.4443359375 -0.0302734375
-35.826904296875 -44.88427734375 25.4556884765625
-44.759033203125 -40.36865234375 14.819091796875
6.23388671875 -32.01904296875 6.48486328125
-45.2783203125 -37.253662109375 8.4476318359375
-48.135498046875 -34.451171875 -7.107177734375
-30.50537109375 -47.40478515625 25.7822265625
-45.15185546875 -32.890869140625 -4.3572998046875
-45.483154296875 -28.529541015625 1.2125244140625
-9.259765625 -24.320556640625 0.5045166015625
-46.8134765625 -44.7119140625 6.893310546875
-45.77490234375 -43.048583984375 6.7171630859375
-34.04345703125 -37.12158203125 13.546142578125
1.5234375 -2.7626953125 -6.365966796875
-12.253173828125 -24.693603515625 0.73974609375
1.93505859375 -35.681396484375 11.0789794921875
-47.95068359375 -55.96533203125 3.5081787109375
1.27978515625 -20.423095703125 7.858154296875
26.0615234375 18.38525390625 -5.8358154296875
-16.675537109375 -27.1865234375 6.4163818359375
-31.93115234375 -1.895263671875 -4.919921875
-40.776611328125 -46.947998046875 25.0740966796875
5.5234375 -3.21337890625 -6.9375
-23.37353515625 -20.68798828125 -2.8349609375
-11.956787109375 0.232177734375 -3.6253662109375
-40.755126953125 -41.697021484375 19.025146484375
2.06396484375 0.892822265625 -3.3077392578125
-30.166259765625 -21.412841796875 -2.70263671875
-7.411865234375 -3.70556640625 -7.778076171875
3.584716796875 -19.161376953125 7.0191650390625
-31.95849609375 -37.7919921875 16.7498779296875
-8.675048828125 0.981689453125 -2.9393310546875
2.23388671875 2.167724609375 -2.134765625
-41.572021484375 -43.7021484375 21.3572998046875
-9.528076171875 -29.868896484375 5.4844970703125
-9.740234375 -24.6474609375 14.2471923828125
-34.53173828125 -20.10986328125 0.3123779296875
-28.241455078125 -22.852294921875 16.534423828125
-8.487548828125 -28.85595703125 4.2655029296875
-9.976806640625 -28.849853515625 9.340576171875
3.3369140625 -18.760498046875 4.03369140625
-43.34521484375 -48.95654296875 27.5977783203125
-44.65234375 -47.68603515625 24.408447265625
-42.596923828125 -43.067138671875 20.700439453125
-35.83251953125 -38.591064453125 15.6337890625
-16.043701171875 1.815673828125 -1.8917236328125
3.0537109375 8.3583984375 2.772216796875
-44.024658203125 -44.315185546875 22.3621826171875
-32.17626953125 -44.39111328125 22.0767822265625
-21.41748046875 -23.069580078125 -0.0911865234375
-39.775146484375 -43.119384765625 29.7330322265625
-19.58056640625 -20.28857421875 -3.60107421875
-3.171875 3.490234375 -0.7608642578125
-31.44873046875 -33.381103515625 10.1077880859375
-11.579833984375 -27.271728515625 2.730712890625
-48.78125 -33.602294921875 -8.1627197265625
-32.900390625 -43.185546875 21.0556640625
-37.9853515625 -36.901123046875 13.998779296875
2.162109375 -20.682373046875 -2.093017578125
-33.44287109375 -34.2646484375 10.560546875
-20.24072265625 -28.054931640625 2.5831298828125
1.080810546875 -22.30078125 3.886962890625
8.96435546875 -46.9052734375 25.2821044921875
-44.712158203125 -49.423583984375 25.8509521484375
-45.019775390625 -31.696533203125 -5.8599853515625
-4.605712890625 -33.05078125 9.1810302734375
-10.34619140625 -23.5478515625 -0.0831298828125
26.929931640625 10.4287109375 -10.63037109375
16.3232421875 5.0908203125 -8.6358642578125
-26.91748046875 -20.078125 18.747802734375
-43.16064453125 -35.3154296875 12.221923828125
-14.05126953125 -26.269775390625 1.89501953125
-24.80078125 -27.828369140625 7.572021484375
-11.070556640625 -19.944091796875 16.73095703125
-41.4453125 -17.744873046875 5.5859375
-44.336669921875 -34.221435546875 10.3759765625
-37.819091796875 -45.713134765625 26.373046875
2.5263671875 6.845947265625 1.5972900390625
-11.69970703125 -21.822265625 -1.7423095703125
-2.246826171875 7.321533203125 2.24609375
-13.5361328125 -24.4931640625 9.810791015625
-7.008544921875 -21.337890625 -2.585693359375
-33.313720703125 -21.7646484375 1.0916748046875
11.6630859375 6.676025390625 -15.9639892578125
-41.390625 -30.128662109375 6.5836181640625
-33.63427734375 -45.476806640625 23.7857666015625
-44.063720703125 -30.064208984375 5.5576171875
6.7900390625 2.92578125 -2.0205078125
-26.277099609375 -21.712890625 17.0201416015625
-28.684814453125 -18.872314453125 -5.7640380859375
-45.766357421875 -60.026123046875 18.8382568359375
-44.606201171875 -42.8974609375 17.3739013671875
21.41845703125 21.703125 -1.0333251953125
-45.529296875 -40.680908203125 3.1995849609375
-14.373046875 4.140869140625 -0.6265869140625
3.281982421875 -41.649658203125 18.7161865234375
-35.359130859375 -19.58642578125 -4.309326171875
-30.670654296875 -23.69140625 2.98193359375
5.79150390625 -42.66748046875 18.714599609375
-31.45458984375 -22.2822265625 1.643310546875
-43.058837890625 -50.059326171875 29.1392822265625
-32.328857421875 -19.634521484375 -4.2215576171875
-47.085205078125 -62.13037109375 20.8134765625
-42.324951171875 -25.58935546875 4.23095703125
-12.714599609375 -26.538818359375 8.815673828125
3.906005859375 -34.677490234375 10.195068359375
-35.602294921875 -18.283935546875 2.1966552734375
-40.90478515625 -21.31298828125 -1.92041015625
-36.77294921875 -20.1484375 -1.208740234375
-18.119873046875 -20.711181640625 -2.537109375
-32.59033203125 -21.8095703125 -1.2056884765625
-40.641845703125 -18.412353515625 3.1556396484375
-5.859130859375 1.91259765625 -2.154541015625
-35.765625 -17.126953125 2.935302734375
2.643798828125 -20.422607421875 8.6015625
-31.293701171875 -32.575927734375 8.0504150390625
-30.7724609375 -2.55126953125 -8.68603515625
-19.4794921875 -17.664794921875 14.6015625
24.324951171875 18.58349609375 -4.7279052734375
4.19140625 -3.166259765625 -7.21240234375
-42.583740234375 -18.0625 -5.740478515625
-45.003173828125 -37.646484375 11.4449462890625
25.869140625 8.01318359375 -11.1500244140625
-45.063232421875 -39.348876953125 12.8497314453125
-34.16845703125 -18.2158203125 4.681884765625
-27.57470703125 -25.438720703125 12.3837890625
3.472412109375 10.302001953125 4.061279296875
-46.16357421875 -31.893798828125 -10.26220703125
-45.284423828125 -35.742919921875 5.6806640625
-31.119873046875 -47.942138671875 28.420166015625
-5.024169921875 -21.51220703125 0.721435546875
-49.87939453125 -61.611328125 20.281494140625
10.049072265625 7.1494140625 -0.88671875
-40.3505859375 -38.012939453125 14.88525390625
-43.1689453125 -15.4150390625 -7.615966796875
24.076416015625 21.08544921875 -3.1953125
-12.047119140625 3.095703125 -1.1552734375
-41.17431640625 -5.531494140625 -8.7047119140625
19.4052734375 20.086669921875 0.904052734375
-20.910888671875 -25.24853515625 8.2000732421875
2.10595703125 10.9677734375 5.6527099609375
5.0146484375 7.1103515625 1.38671875
-44.943359375 -49.137451171875 23.2489013671875
24.14892578125 22.385986328125 -2.4415283203125
-18.329833984375 2.71630859375 -1.4022216796875
-39.86083984375 -36.35693359375 13.4232177734375
-26.136474609375 -21.96337890625 -2.4029541015625
8.0205078125 1.25439453125 -3.45166015625
6.706787109375 -24.324951171875 -0.3316650390625
-23.654541015625 -26.973388671875 7.6485595703125
4.827880859375 -39.322021484375 15.427978515625
14.242919921875 -38.2392578125 8.8060302734375
-0.930419921875 -1.276123046875 -4.830322265625
3.689697265625 -38.57666015625 14.342529296875
-8.020263671875 -26.491943359375 14.1090087890625
-9.58447265625 -1.03515625 -4.6556396484375
-46.414306640625 -57.48046875 15.3402099609375
-34.69970703125 -44.66748046875 23.1602783203125
-22.521484375 -27.80908203125 1.9962158203125
-37.106689453125 -44.023193359375 21.74267578125
1.2265625 8.916748046875 3.1129150390625
17.50634765625 15.5498046875 -3.8807373046875
7.93798828125 -0.332275390625 -4.7191162109375
-32.8818359375 -41.527587890625 19.16748046875
7.83740234375 -35.844482421875 10.8931884765625
6.009521484375 16.01513671875 -10.14013671875
-15.933349609375 -4.063720703125 -7.765625
9.537353515625 11.095458984375 1.4501953125
-14.3798828125 -27.998291015625 5.092529296875
-24.640625 -22.760009765625 12.2435302734375
-2.795654296875 -34.704833984375 10.8759765625
-18.9423828125 1.337158203125 -2.5472412109375
-15.755615234375 -2.36865234375 -5.6007080078125
-20.2724609375 -23.758544921875 9.359130859375
-30.183837890625 -39.024658203125 20.3153076171875
-27.3154296875 -30.3017578125 8.598876953125
24.14404296875 24.00732421875 -1.174560546875
-36.908935546875 -43.07958984375 20.58056640625
-20.765625 2.058837890625 -2.1541748046875
-8.49951171875 -22.358642578125 -1.780029296875
10.256591796875 13.0576171875 0.579833984375
-42.964111328125 -24.981201171875 2.6854248046875
-36.547607421875 -40.796875 18.79541015625
-5.27685546875 -21.447265625 -3.697265625
-45.33642578125 -33.304931640625 -1.7572021484375
-19.59326171875 -21.66796875 -1.2794189453125
-20.678955078125 -3.7001953125 -7.1231689453125
-12.92041015625 5.448974609375 0.3995361328125
-41.591064453125 -1.50830078125 -4.13623046875
9.033447265625 -40.9091796875 19.21044921875
17.3759765625 14.839111328125 -1.478759765625
-39.94677734375 -1.0869140625 -3.356689453125
-9.609130859375 3.75390625 -0.4022216796875
-38.822021484375 -20.106689453125 0.3480224609375
-23.45947265625 -22.01904296875 12.7264404296875
-38.00048828125 -43.763427734375 28.5528564453125
-11.531005859375 -29.06298828125 4.5408935546875
1.2734375 -20.15478515625 0.3646240234375
-1.50927734375 9.870849609375 4.078369140625
24.437744140625 19.752197265625 -4.0091552734375
-28.362548828125 -25.067626953125 14.7445068359375
-45.162353515625 -33.416259765625 6.6580810546875
-41.803955078125 -47.37109375 28.2076416015625
15.26953125 16.48828125 0.0318603515625
11.20556640625 14.610595703125 2.5693359375
7.3095703125 16.352294921875 -7.6322021484375
-41.80517578125 -25.61376953125 5.48974609375
-37.144775390625 -16.123046875 4.20361328125
1.572509765625 -17.003662109375 3.751220703125
-21.9326171875 -20.83984375 13.2711181640625
-22.965087890625 -25.859375 8.2760009765625
-0.813232421875 -38.410400390625 15.2806396484375
8.267822265625 -44.66796875 22.154296875
-45.4189453125 -35.059326171875 -0.8387451171875
-25.656982421875 -22.923828125 16.2542724609375
-12.098388671875 6.074462890625 2.6026611328125
-15.461181640625 5.67822265625 1.17041015625
-6.08984375 -23.026123046875 -0.867431640625
-20.072021484375 -1.841552734375 -4.5364990234375
-33.780517578125 -0.867431640625 -4.4373779296875
-33.407958984375 -37.809326171875 14.6666259765625
-29.27197265625 -30.552490234375 11.408203125
-26.1025390625 -1.54296875 -5.0657958984375
-38.843017578125 -40.599853515625 17.7314453125
-18.359130859375 -26.74365234375 1.8011474609375
-10.222900390625 -20.86181640625 -3.004638671875
-44.19873046875 -34.53076171875 11.620361328125
-45.23828125 -29.171875 -9.210205078125
-38.255859375 -39.3720703125 16.6004638671875
-41.355224609375 -48.718017578125 31.4642333984375
-43.3681640625 -41.83056640625 18.8131103515625
-22.44091796875 -19.996337890625 14.8238525390625
-13.89599609375 -20.46435546875 -4.2789306640625
-21.205078125 -25.809326171875 1.443115234375
0.279052734375 -16.99462890625 4.3345947265625
-37.755859375 -18.675048828125 -5.56787109375
8.169189453125 2.48095703125 -2.7220458984375
-45.69091796875 -29.86181640625 -11.1290283203125
-7.812255859375 -23.193603515625 -0.719970703125
0.057373046875 -36.896240234375 12.8106689453125
-28.71337890625 -25.19482421875 1.963623046875
-13.18505859375 -18.05029296875 17.3583984375
-45.46533203125 -55.174072265625 21.168212890625
-44.252197265625 -52.801025390625 30.9569091796875
-25.785888671875 -26.25732421875 10.6903076171875
-21.05322265625 -21.24462890625 -2.3446044921875
-39.156494140625 -55.064453125 35.4302978515625
-31.31787109375 -22.5888671875 2.877197265625
-24.682373046875 -22.386962890625 -1.3389892578125
-45.155517578125 -38.31396484375 7.744384765625
-28.178955078125 -22.29638671875 -1.373046875
-5.389892578125 -0.498291015625 -4.1248779296875
7.49365234375 -37.8720703125 12.299560546875
-23.773193359375 -22.06982421875 14.499755859375
-20.61376953125 -19.6875 -4.221923828125
-1.17822265625 -2.260009765625 -5.9285888671875
-4.927001953125 -18.945068359375 5.316650390625
-8.834716796875 -24.329833984375 15.9896240234375
-38.123046875 -20.421630859375 -2.887939453125
-45.3115234375 -22.687744140625 -0.893310546875
8.900634765625 14.782958984375 -9.955322265625
-44.55517578125 -20.4443359375 -3.051513671875
-2.663818359375 -30.349609375 6.89404296875
-6.760986328125 -2.343505859375 -5.7508544921875
-29.468505859375 -47.812744140625 26.9462890625
-22.074462890625 -22.947265625 11.0548095703125
-39.166259765625 -20.1748046875 7.8115234375
-36.63671875 -20.453857421875 0.02001953125
-31.370361328125 -18.386962890625 -5.7772216796875
15.500732421875 10.218017578125 -5.03369140625
-41.771484375 -20.706298828125 5.7818603515625
9.327880859375 -34.983642578125 8.6658935546875
5.157470703125 10.332763671875 3.883056640625
-17.630859375 -1.482421875 -5.1552734375
28.55078125 18.521240234375 -7.375
7.962158203125 5.297119140625 -0.6881103515625
-17.89208984375 -19.470458984375 13.15966796875
7.898193359375 12.780029296875 3.3326416015625
-18.58154296875 -0.713134765625 -3.9810791015625
-30.68359375 -47.211669921875 30.30615234375
1.5244140625 -34.2529296875 9.631103515625
-5.4541015625 -2.441650390625 -5.92529296875
-33.82177734375 -18.8984375 -5.189453125
-23.888671875 -22.470458984375 18.357666015625
3.322998046875 -32.70654296875 7.9864501953125
-3.375244140625 -35.70947265625 12.515380859375
-9.22900390625 -3.01171875 -6.514892578125
-17.00390625 -16.77392578125 15.850830078125
4.84130859375 -40.76416015625 17.840576171875
26.210693359375 14.669189453125 -8.1217041015625
22.05224609375 16.117431640625 -4.2518310546875
-46.759765625 -32.657470703125 -8.1488037109375
2.815673828125 -37.0947265625 12.940185546875
-17.769775390625 -3.270751953125 -6.9100341796875
-15.359619140625 -15.912841796875 17.61083984375
4.7841796875 15.76220703125 -10.4931640625
3.109375 -20.0771484375 1.9671630859375
-0.42333984375 9.367431640625 6.39013671875
-37.932861328125 -35.43212890625 12.097900390625
-21.8310546875 -16.002685546875 16.9508056640625
-43.7060546875 -5.332275390625 -8.355224609375
5.361328125 11.46728515625 5.4178466796875
-17.5595703125 3.890380859375 1.8092041015625
-42.522705078125 -4.369384765625 -6.9388427734375
26.603759765625 19.48486328125 -5.6102294921875
29.03271484375 8.875732421875 -13.4755859375
-42.63720703125 -37.59033203125 14.3236083984375
-24.709716796875 -2.242919921875 -5.408935546875
-42.95361328125 -54.6337890625 32.7259521484375
-9.227783203125 -25.879150390625 2.80810546875
-25.83984375 -28.830810546875 8.7811279296875
7.82373046875 13.614990234375 -12.298583984375
1.221923828125 2.830810546875 -1.8529052734375
-44.613525390625 -42.200927734375 18.859130859375
-0.52099609375 -20.728759765625 -2.7037353515625
-28.933837890625 -31.466796875 7.1669921875
-30.061767578125 -45.8427734375 23.3651123046875
-0.559326171875 -21.60888671875 9.5531005859375
-17.089599609375 -22.97509765625 -0.542724609375
-40.066650390625 -4.11328125 -7.1561279296875
-13.355224609375 -25.52392578125 9.1141357421875
-25.32958984375 -24.9228515625 1.21728515625
9.10498046875 -37.030517578125 12.3182373046875
-9.687744140625 1.844970703125 -2.1717529296875
14.882568359375 11.078857421875 -3.878173828125
-3.454345703125 -27.13232421875 5.9227294921875
20.555908203125 17.01513671875 -2.99267578125
-31.091552734375 -27.045654296875 20.2862548828125
-38.793212890625 -45.64794921875 25.1434326171875
-45.75634765625 -41.686767578125 3.8853759765625
-40.719970703125 -2.12255859375 -5.2581787109375
-22.81982421875 1.718017578125 -2.4383544921875
-34.602783203125 -41.6865234375 19.3052978515625
-31.462646484375 -2.48095703125 -5.991455078125
-34.508056640625 -40.30615234375 17.804443359375
-42.235107421875 -27.995361328125 5.8515625
-38.22119140625 -34.35791015625 10.593017578125
5.939697265625 -23.038330078125 -0.3887939453125
29.32080078125 17.243408203125 -8.663330078125
-14.669921875 -29.40771484375 2.5565185546875
-19.617919921875 -24.99462890625 1.4671630859375
-22.19189453125 0.6416015625 -2.787841796875
-41.224853515625 -21.42138671875 -0.591552734375
-40.21875 -35.013427734375 11.5408935546875
-4.485107421875 5.731201171875 0.8115234375
-10.35302734375 -26.767578125 10.73876953125
26.289794921875 23.706787109375 -3.1932373046875
-45.2177734375 -43.238037109375 7.9632568359375
-26.462646484375 -24.4306640625 12.4952392578125
-41.69921875 -34.186279296875 10.9947509765625
-11.972412109375 -28.048095703125 8.393798828125
6.33349609375 10.637451171875 3.4014892578125
-23.59521484375 -28.93505859375 2.288818359375
-22.123779296875 -29.083984375 4.3258056640625
-19.688720703125 -28.242431640625 3.817626953125
2.57763671875 -42.218994140625 20.0257568359375
-43.90625 -19.525390625 -3.76953125
-3.345703125 -19.46337890625 -0.3009033203125
-40.718505859375 -16.998779296875 -6.99560546875
-42.616943359375 -19.637939453125 -3.94384765625
8.8486328125 15.587158203125 -6.302978515625
-30.035400390625 -32.14599609375 8.4617919921875
-29.631103515625 -24.062744140625 18.158203125
-15.713623046875 -23.1953125 -0.30224609375
-30.642578125 -24.993408203125 19.805908203125
-28.977294921875 -27.67724609375 4.05908203125
6.589111328125 -0.03271484375 -4.0538330078125
-45.0029296875 -46.784423828125 21.502685546875
0.365966796875 -22.63671875 5.666748046875
8.221435546875 -46.15185546875 23.2279052734375
6.500244140625 -51.08203125 29.2647705078125
-15.184814453125 -16.910888671875 16.93994140625
6.08251953125 -35.945068359375 11.5023193359375
-42.71875 -55.16015625 34.84375
-12.163818359375 -23.81982421875 13.3543701171875
-3.8076171875 -19.53466796875 7.271240234375
-26.669677734375 -23.041259765625 -0.3944091796875
-28.924560546875 -20.62353515625 19.267578125
-40.585205078125 -52.845703125 32.8414306640625
1.394287109375 -0.001708984375 -3.8955078125
-21.91845703125 -19.790771484375 -4.54541015625
-1.12939453125 -0.314453125 -4.1253662109375
-23.939697265625 -25.563232421875 14.6192626953125
-34.431640625 -45.5947265625 24.7325439453125
-39.951171875 -28.341552734375 6.849609375
-24.217529296875 -19.180419921875 -4.5760498046875
-41.132080078125 -26.8232421875 6.0107421875
-22.45849609375 -21.63623046875 16.2100830078125
-19.985107421875 -22.7177734375 10.448486328125
-2.89111328125 -19.111572265625 1.5125732421875
2.73681640625 -33.773193359375 9.1617431640625
-27.71630859375 -23.863037109375 14.9453125
-15.492431640625 -17.773681640625 15.91064453125
14.044921875 -39.58544921875 7.1595458984375
-37.65673828125 -3.554931640625 -7.287353515625
1.46337890625 3.797607421875 -0.7708740234375
-42.80224609375 -22.22314453125 -0.6162109375
-45.4736328125 -30.465087890625 2.9569091796875
-41.220458984375 -20.501953125 1.83154296875
19.665771484375 20.49755859375 -0.29443359375
-36.082275390625 -20.0322265625 -3.459228515625
-33.4130859375 -44.461669921875 29.7568359375
-12.378662109375 -17.538330078125 18.25927734375
-31.176513671875 -36.40185546875 19.1890869140625
11.141357421875 14.5703125 0.8623046875
-38.760498046875 -18.0810546875 -6.18115234375
-33.88720703125 -44.7802734375 28.406494140625
-44.2978515625 -58.03173828125 24.9989013671875
-26.99267578125 -22.648681640625 16.451416015625
-35.1572265625 -19.083984375 6.76611328125
-29.136962890625 -24.91650390625 16.610107421875
-25.344970703125 -21.833740234375 17.7711181640625
9.9990234375 -37.373291015625 10.3389892578125
15.76025390625 17.9638671875 1.2010498046875
-29.096923828125 -28.902099609375 12.20361328125
1.351806640625 10.2529296875 3.8568115234375
-27.242919921875 -20.945068359375 17.722412109375
-15.65478515625 -0.434814453125 -3.809814453125
9.795166015625 -40.875732421875 16.4222412109375
8.271728515625 -32.963134765625 6.510986328125
15.624755859375 6.31884765625 -6.9276123046875
-37.869873046875 -20.50244140625 7.1580810546875
9.658203125 1.530517578125 -4.00146484375
-39.9541015625 -43.10302734375 20.8765869140625
-28.255859375 -25.9892578125 13.650146484375
-42.16455078125 -44.938232421875 22.49658203125
22.410888671875 13.088134765625 -6.3721923828125
-21.339111328125 -16.6201171875 15.89599609375
9.931396484375 9.385498046875 0.1199951171875
-13.05712890625 1.54638671875 -2.7301025390625
-5.786376953125 7.951416015625 2.3695068359375
-27.960205078125 -3.142822265625 -6.1373291015625
8.584716796875 16.178955078125 -8.6837158203125
10.008056640625 9.956787109375 -13.992919921875
-22.873779296875 -3.69091796875 -8.1719970703125
-0.318115234375 10.26953125 4.47119140625
8.9951171875 10.266845703125 -15.5247802734375
8.46435546875 -51.4892578125 29.9180908203125
-8.5712890625 -26.3046875 12.8768310546875
1.527099609375 -21.21533203125 8.9813232421875
-44.689453125 -16.521728515625 -7.732177734375
-43.381591796875 -3.09375 -3.9176025390625
-30.181884765625 -36.632568359375 20.3717041015625
4.974609375 -32.3935546875 6.531494140625
-13.740966796875 -1.722412109375 -5.228515625
17.866455078125 6.01708984375 -7.2626953125
27.865478515625 19.458740234375 -6.619384765625
27.933349609375 23.8017578125 -4.206787109375
-45.10986328125 -32.54296875 -2.933349609375
-3.466796875 -1.64013671875 -5.508056640625
-18.10107421875 4.0205078125 0.1912841796875
10.0322265625 14.305908203125 3.04931640625
-15.9794921875 4.360107421875 1.7508544921875
3.401123046875 10.928955078125 5.9266357421875
-44.962158203125 -28.963134765625 -10.9764404296875
-35.250732421875 -33.992919921875 10.3658447265625
8.863037109375 16.052978515625 -3.191650390625
-38.50439453125 -45.680419921875 22.8785400390625
-45.0322265625 -57.101318359375 22.994384765625
29.107666015625 21.03271484375 -6.7762451171875
-7.5078125 6.431396484375 3.0360107421875
-41.681640625 -36.14501953125 12.770263671875
3.425048828125 -22.04296875 -1.2197265625
9.560546875 -41.42626953125 18.146484375
-13.55419921875 -18.60009765625 16.4033203125
-44.751953125 -30.59033203125 -5.60888671875
8.40380859375 15.89697265625 -4.8873291015625
-44.950927734375 -55.01708984375 22.50439453125
-43.30908203125 -50.90771484375 29.8912353515625
2.23828125 -17.998779296875 3.44384765625
-44.038330078125 -49.75634765625 28.39892578125
-41.7900390625 -51.468994140625 31.4267578125
-38.85986328125 -3.50537109375 -6.270751953125
-23.356689453125 2.592041015625 -1.2938232421875
-36.4326171875 -2.896240234375 -5.958740234375
6.33935546875 1.078857421875 -3.30712890625
16.572998046875 20.466552734375 -3.3505859375
22.044921875 20.920654296875 -1.7298583984375
27.766357421875 21.387939453125 -5.2452392578125
-9.67138671875 -27.950927734375 10.40234375
28.232421875 25.946044921875 -1.5628662109375
-42.9736328125 -26.73876953125 4.4659423828125
-31.29345703125 -32.09423828125 16.1416015625
2.869873046875 -18.4482421875 5.0443115234375
-45.45947265625 -46.086181640625 10.491455078125
-8.923095703125 0.059814453125 -3.5809326171875
-11.410888671875 -26.064697265625 2.5521240234375
-45.8828125 -33.79638671875 -4.5032958984375
3.6005859375 3.792724609375 -1.0113525390625
30.369873046875 8.7861328125 -13.65625
-33.455810546875 -45.66015625 25.9644775390625
-45.34765625 -44.927490234375 8.490966796875
-0.375 4.368408203125 -0.4212646484375
-12.61962890625 -26.59716796875 2.5556640625
5.588623046875 2.568603515625 -1.9761962890625
-35.433837890625 -43.29443359375 28.8438720703125
-29.822021484375 -44.997802734375 22.61767578125
-39.50439453125 -30.82373046875 7.1053466796875
-11.54248046875 -25.225341796875 11.2086181640625
-5.006591796875 -24.573974609375 4.4490966796875
-29.67578125 -41.5185546875 21.0830078125
-17.68896484375 -23.6708984375 9.107666015625
-8.10791015625 -20.628662109375 -3.6268310546875
-30.86474609375 -40.34033203125 19.662353515625
-28.9052734375 -27.201416015625 13.4466552734375
-2.645263671875 -18.13232421875 2.164794921875
-13.533203125 6.363525390625 0.7001953125
-43.119873046875 -40.99658203125 18.076416015625
-30.773681640625 -22.225341796875 -1.0682373046875
-22.552734375 -18.853271484375 -4.6800537109375
14.662841796875 8.140380859375 -7.64404296875
8.094482421875 12.30419921875 -13.9866943359375
0.76513671875 7.11328125 1.859619140625
-2.83447265625 -2.638427734375 -6.27490234375
-31.992431640625 -20.781494140625 -2.340576171875
-44.333740234375 -27.0166015625 2.78173828125
-15.171630859375 -22.70654296875 10.828857421875
-40.7568359375 -21.129150390625 0.7479248046875
-20.85302734375 2.7529296875 -1.1072998046875
-4.90576171875 -23.328857421875 3.3939208984375
-42.185791015625 -39.37646484375 16.5526123046875
-1.212890625 -33.99658203125 9.9697265625
-35.5126953125 -20.375732421875 -2.287109375
-28.4453125 -27.683837890625 12.40966796875
-18.94775390625 -24.2197265625 0.69189453125
-4.8203125 -20.423095703125 0.9617919921875
27.5390625 9.756103515625 -11.31640625
26.91357421875 12.076416015625 -9.7557373046875
-41.21044921875 -39.9013671875 16.7850341796875
23.973388671875 10.381103515625 -8.5609130859375
-46.095458984375 -38.276123046875 0.692626953125
25.608642578125 10.61279296875 -9.5579833984375
29.157470703125 14.77197265625 -9.7332763671875
-31.950927734375 -35.923828125 15.37451171875
-23.455322265625 -23.621826171875 0.4410400390625
-46.609619140625 -36.44482421875 -2.39306640625
8.889892578125 -49.755615234375 28.382080078125
-42.695556640625 -21.1162109375 -2.5509033203125
-27.086181640625 -26.59375 2.7813720703125
27.278564453125 15.462158203125 -8.03564453125
10.750732421875 2.342529296875 -3.9176025390625
6.8046875 12.231689453125 4.169677734375
-20.86181640625 -19.68310546875 13.419921875
-5.123779296875 -29.438720703125 6.46337890625
-47.214599609375 -34.412109375 -6.3033447265625
-46.573974609375 -40.112060546875 2.099365234375
14.55419921875 12.540283203125 -2.1759033203125
-27.197021484375 -28.042236328125 10.43212890625
-29.748291015625 -24.368408203125 1.83349609375
-31.15087890625 -29.550048828125 18.8802490234375
-14.0419921875 -15.69921875 18.82568359375
-20.173828125 -19.999755859375 -5.238037109375
29.25927734375 15.9140625 -9.441162109375
14.740966796875 13.247314453125 -3.30322265625
-30.270751953125 -22.201416015625 20.366943359375
-41.7021484375 -18.806884765625 5.3577880859375
-15.999755859375 -14.726318359375 18.368408203125
-4.678955078125 0.243896484375 -3.58056640625
-8.306396484375 -24.444091796875 1.264404296875
5.902587890625 5.051513671875 -0.088134765625
