35.179931640625 12.763916015625 -20.7613525390625
15.3994140625 -4.302978515625 -2.4599609375
17.09130859375 -14.174072265625 -14.63037109375
-16.5078125 -5.3125 -3.87890625
-30.449951171875 -37.733642578125 -4.9180908203125
-45.412353515625 -39.58544921875 23.0245361328125
17.739990234375 8.165283203125 -0.488525390625
-37.871337890625 -12.4755859375 9.023193359375
-37.181884765625 -54.928955078125 20.63720703125
28.598388671875 14.123779296875 -2.7554931640625
-38.040283203125 -41.755126953125 1.6192626953125
-8.135498046875 -22.37255859375 -2.9869384765625
2.684814453125 9.3828125 8.5294189453125
5.067626953125 -4.5693359375 -2.567138671875
12.313720703125 16.590087890625 -2.338623046875
-6.138671875 -35.700439453125 -2.873046875
-35.96923828125 -1.438720703125 -2.8704833984375
-10.65185546875 -43.024169921875 3.8465576171875
-25.0703125 -19.743896484375 -1.0592041015625
-33.415283203125 -46.70361328125 9.8997802734375
-23.91845703125 -32.917724609375 -10.2147216796875
-0.85546875 2.92236328125 2.5421142578125
-10.905029296875 2.8125 1.7645263671875
26.10009765625 22.929931640625 -18.531494140625
11.52685546875 11.154296875 6.5794677734375
-16.747802734375 10.587158203125 7.084716796875
2.007568359375 -12.66796875 -9.0718994140625
8.736328125 -22.10107421875 2.19921875
-31.591796875 -67.41845703125 -6.068359375
-25.250244140625 -47.884521484375 -5.3466796875
10.40966796875 -15.417236328125 -4.2275390625
-7.804443359375 -12.176513671875 -3.3011474609375
25.31884765625 22.744384765625 3.741455078125
-36.22509765625 -31.593505859375 -8.702392578125
25.205810546875 -6.951171875 -5.2476806640625
-43.725830078125 -58.109619140625 25.394775390625
36.443359375 17.400390625 -5.802001953125
-23.868896484375 -11.67626953125 -3.2060546875
-28.595458984375 1.65185546875 0.076416015625
-44.74169921875 -35.16552734375 8.98486328125
19.9912109375 15.30859375 -5.39990234375
-45.5107421875 -46.680419921875 28.3680419921875
-14.388671875 -35.96875 -2.2001953125
-41.202392578125 -12.81494140625 -2.22509765625
-24.124267578125 6.9912109375 8.382080078125
-42.261474609375 1.06103515625 1.3612060546875
-39.135009765625 -20.638916015625 -2.3096923828125
-35.351806640625 -44.90576171875 -4.9803466796875
-8.978515625 -29.4140625 -7.04248046875
-23.4677734375 -38.809326171875 0.1773681640625
-43.112060546875 -33.3828125 -5.200927734375
-31.87548828125 -56.2509765625 5.2371826171875
-45.83447265625 -26.9306640625 8.1005859375
1.82373046875 -23.60205078125 -3.4168701171875
1.3251953125 -35.585205078125 -7.88330078125
-18.0029296875 -22.839599609375 -3.5260009765625
-41.80712890625 -18.961181640625 11.650634765625
-44.87451171875 -27.009521484375 0.474609375
24.188720703125 9.2685546875 -6.2691650390625
14.066650390625 7.51953125 -7.5792236328125
-4.508544921875 -17.710205078125 1.6741943359375
32.76416015625 10.646484375 -7.61669921875
-23.47119140625 -2.817626953125 -3.420166015625
-31.572509765625 -57.08837890625 -1.9173583984375
-46.574462890625 -36.126953125 16.7705078125
-0.77783203125 -9.632080078125 -3.429931640625
-23.782470703125 -25.72412109375 -8.822021484375
-37.61865234375 -7.566162109375 -5.3658447265625
14.662841796875 2.197265625 -0.40966796875
-15.67724609375 -48.7138671875 -5.98046875
21.908935546875 13.19482421875 0.7791748046875
-31.01123046875 -10.1171875 -3.86328125
11.24609375 -13.702392578125 -11.6995849609375
-32.478515625 -69.60595703125 -0.048095703125
-38.795654296875 -16.215576171875 3.60205078125
-39.244873046875 -44.929931640625 6.9564208984375
6.833740234375 -10.36865234375 -5.5264892578125
-36.818115234375 -25.019287109375 -8.8572998046875
-26.029541015625 -52.775390625 -9.568115234375
-46.853271484375 -44.327880859375 18.2611083984375
10.267333984375 -3.49365234375 -5.9676513671875
-28.913330078125 6.98681640625 4.337158203125
-45.01611328125 -60.8486328125 30.8822021484375
-32.703369140625 -21.0302734375 -2.7591552734375
-16.04443359375 -0.06494140625 -0.5150146484375
-29.99169921875 -61.7275390625 7.8143310546875
13.568115234375 -26.744384765625 8.11962890625
37.14599609375 13.26611328125 -14.931640625
-41.58056640625 -59.0634765625 19.4951171875
20.1650390625 19.828369140625 0.0322265625
4.9853515625 -17.3828125 -6.1002197265625
-30.118896484375 -52.103271484375 -5.1529541015625
-30.301513671875 -30.4892578125 -6.67724609375
21.13232421875 -2.567138671875 -3.5557861328125
-30.55029296875 -27.693359375 23.0322265625
-10.316162109375 -17.39111328125 0.2225341796875
18.998779296875 18.273193359375 -10.9671630859375
-10.697509765625 -6.75244140625 -3.8009033203125
-25.017578125 -25.6630859375 -1.9049072265625
9.748046875 -2.443115234375 0.4051513671875
-47.433837890625 -52.7900390625 26.66796875
0.140625 -1.698486328125 -0.994140625
-12.62451171875 -24.931396484375 -5.8240966796875
-16.77685546875 -11.1923828125 -3.9404296875
-6.071044921875 4.82275390625 4.4364013671875
-43.177490234375 -46.36669921875 23.0269775390625
3.653076171875 -25.650146484375 -8.840087890625
13.32958984375 6.433837890625 3.5440673828125
-12.38623046875 7.105224609375 5.4307861328125
19.69287109375 3.179931640625 -2.9248046875
12.817626953125 18.373291015625 5.1417236328125
19.720703125 -8.22607421875 -4.5078125
-31.589111328125 -61.825439453125 -5.101318359375
-33.855712890625 -35.094482421875 24.800048828125
16.584228515625 11.597900390625 4.1912841796875
-25.759033203125 -43.4208984375 -1.98486328125
29.017333984375 13.866455078125 -22.1199951171875
14.9326171875 12.350830078125 -4.8525390625
-30.53271484375 -2.581298828125 -3.384765625
-3.89208984375 -37.55419921875 -8.036865234375
3.986328125 5.046630859375 5.161865234375
29.712646484375 18.99755859375 -0.3529052734375
-31.7060546875 -51.24951171875 7.4317626953125
-43.75439453125 -49.830322265625 32.440185546875
-27.78515625 -15.038330078125 -0.958251953125
-10.387451171875 -1.544189453125 -1.54931640625
-3.707763671875 -25.161376953125 -4.3919677734375
-2.0888671875 7.4150390625 6.9615478515625
-33.680419921875 -5.06005859375 -8.416748046875
-38.36962890625 -62.523681640625 16.9356689453125
-41.2998046875 -1.542236328125 -3.201904296875
4.417236328125 0.850830078125 1.1634521484375
-32.719482421875 -50.972900390625 13.1192626953125
-5.759521484375 0.765625 0.3975830078125
19.136962890625 7.81689453125 -5.8094482421875
-33.80224609375 2.2021484375 0.3125
-13.337158203125 -21.041748046875 -2.021484375
-20.8359375 -7.044189453125 -6.2181396484375
-15.339111328125 -41.331298828125 1.4354248046875
-21.74853515625 -15.953125 -0.1651611328125
-20.42333984375 -46.51123046875 -6.3336181640625
-46.8505859375 -39.64892578125 7.9947509765625
-15.717529296875 4.256591796875 2.8546142578125
29.456787109375 3.302001953125 -5.993896484375
7.363037109375 8.201171875 7.1759033203125
-2.44140625 -21.15966796875 -1.2930908203125
-3.643798828125 -32.4755859375 -6.2550048828125
-11.791015625 11.83349609375 6.8701171875
8.1767578125 17.940673828125 -4.749267578125
36.360107421875 15.56396484375 -10.4095458984375
25.25048828125 8.02001953125 -13.2740478515625
26.3427734375 16.142333984375 1.8857421875
-46.0595703125 -31.313232421875 4.8447265625
-20.126708984375 7.14501953125 5.047119140625
-46.240478515625 -30.646728515625 -2.6640625
35.9931640625 7.1015625 -8.4058837890625
-35.627685546875 -11.571533203125 -2.92041015625
13.8349609375 -9.614990234375 -11.4027099609375
-39.66552734375 -23.1748046875 1.764404296875
30.044921875 24.520751953125 3.04931640625
33.103271484375 14.255615234375 -4.552001953125
-43.987548828125 -37.60546875 13.077392578125
-43.18115234375 -36.60888671875 -1.7408447265625
2.4306640625 -20.96435546875 0.443115234375
-25.364990234375 4.446533203125 2.60205078125
-41.591552734375 -45.3115234375 30.6993408203125
-34.717041015625 -15.3154296875 7.03857421875
-37.4609375 -35.763671875 -10.6510009765625
-41.1962890625 -24.91357421875 -2.2572021484375
-45.8583984375 -33.28466796875 13.1839599609375
-40.633056640625 -30.162841796875 -7.400390625
-23.93212890625 0.928466796875 -0.067138671875
3.67578125 -12.812744140625 -3.2232666015625
-39.7880859375 -16.55029296875 8.1234130859375
-5.76708984375 -8.106201171875 -3.8819580078125
-43.8896484375 -50.049072265625 25.7437744140625
-30.699951171875 -65.810546875 -1.8907470703125
2.213623046875 -31.06884765625 -7.186767578125
0.09716796875 -39.463134765625 -9.926025390625
-43.06005859375 -25.560791015625 4.76513671875
33.9111328125 18.84326171875 -2.3160400390625
23.939453125 9.738037109375 -1.7574462890625
-6.499755859375 -26.10107421875 -0.9373779296875
20.0087890625 13.9765625 -9.9337158203125
-28.699951171875 -73.207763671875 0.91748046875
-27.966064453125 -22.30029296875 -3.355224609375
-44.89306640625 -25.90576171875 12.3670654296875
-45.705322265625 -21.893798828125 8.039306640625
-38.106689453125 3.048095703125 1.1273193359375
17.169677734375 14.22900390625 0.6468505859375
-45.281005859375 -40.460205078125 16.23291015625
-1.403564453125 -5.236083984375 -3.2601318359375
20.50048828125 22.22802734375 3.69580078125
-19.3154296875 -39.516357421875 -1.03515625
-22.799560546875 -49.95458984375 -8.67236328125
-42.299560546875 -37.71533203125 -6.155029296875
-41.550537109375 -55.798583984375 22.3477783203125
-45.94140625 -43.554443359375 24.8265380859375
-12.14111328125 -10.79443359375 -4.3751220703125
3.384033203125 -8.341796875 -3.8623046875
-2.992919921875 -13.226318359375 -2.4879150390625
-42.629638671875 -17.282958984375 1.9271240234375
7.524169921875 -6.598876953125 -7.510986328125
-19.03173828125 -19.414306640625 -0.973388671875
-45.223876953125 -30.933837890625 9.633544921875
-19.22705078125 -2.10009765625 -2.543212890625
-19.090576171875 -25.8203125 -6.57080078125
-35.677001953125 -22.9091796875 -5.19921875
-37.0478515625 -17.623291015625 -0.1199951171875
-32.581787109375 -47.410400390625 5.78173828125
-43.4140625 -9.78125 -4.2333984375
36.523193359375 13.0888671875 -6.9725341796875
-25.07080078125 -6.313720703125 -5.187744140625
-36.94775390625 -58.887451171875 19.1629638671875
-10.582275390625 -25.78662109375 -2.2193603515625
-41.366455078125 -14.768310546875 11.9378662109375
18.75927734375 19.08642578125 -3.9652099609375
17.5859375 -0.69921875 -1.3355712890625
-22.21484375 -22.8359375 -3.365478515625
-31.565673828125 -54.0244140625 1.4517822265625
-32.99951171875 -26.5751953125 -10.065185546875
23.428466796875 5.61181640625 -4.3516845703125
-47.11865234375 -56.738037109375 28.05615234375
13.60595703125 -16.447509765625 -14.091552734375
-27.7900390625 -27.075927734375 -9.4197998046875
-30.609130859375 -18.147216796875 -0.0316162109375
-30.6240234375 -59.045654296875 1.6553955078125
-12.961181640625 -38.53759765625 -5.163330078125
14.51953125 14.703369140625 6.16162109375
14.046630859375 -1.8369140625 0.6195068359375
31.89794921875 15.144775390625 -19.39111328125
-27.0478515625 -32.588134765625 -5.171630859375
-39.737548828125 -23.055419921875 -6.0594482421875
-46.77001953125 -35.680908203125 5.4150390625
-32.0244140625 -71.234375 -3.8179931640625
-28.34765625 -50.171630859375 -2.0008544921875
-21.983154296875 -43.2568359375 -3.55810546875
21.569091796875 16.87939453125 2.832763671875
-42.875732421875 -42.879150390625 27.6768798828125
-14.085693359375 -42.46337890625 -2.35400390625
-5.08203125 -28.323974609375 -6.5911865234375
-46.190673828125 -48.286376953125 17.7137451171875
-37.70263671875 -4.600830078125 -8.3228759765625
9.716552734375 -11.853515625 -14.9407958984375
-30.2392578125 -57.7607421875 9.3111572265625
-31.146240234375 -66.727294921875 4.337158203125
-40.067626953125 -34.611083984375 -7.496337890625
-30.056640625 -61.567626953125 -1.3839111328125
-30.93603515625 4.3876953125 2.1446533203125
-44.699462890625 -42.873779296875 10.054443359375
-33.852783203125 -4.686767578125 -4.5115966796875
-7.951171875 -25.97412109375 -5.1141357421875
-7.504638671875 -32.505859375 -5.194091796875
20.142822265625 14.748291015625 -15.054931640625
-20.0009765625 -12.925537109375 -1.870361328125
-43.384521484375 -23.4423828125 0.6041259765625
-28.136962890625 -54.88037109375 -7.13427734375
-31.1845703125 -33.983642578125 -5.34912109375
-13.830078125 -2.688232421875 -2.80224609375
-44.6025390625 -29.1220703125 -5.7781982421875
-13.328369140625 -27.73974609375 -8.6280517578125
22.41064453125 13.431884765625 -3.1060791015625
11.381103515625 1.02880859375 1.171875
-30.9765625 -57.744873046875 -5.654541015625
-37.10546875 -43.303466796875 -1.718017578125
-44.8876953125 -42.993896484375 21.21484375
-44.88427734375 -32.8447265625 17.608154296875
-26.89794921875 -1.576904296875 -2.4217529296875
-0.897705078125 -18.6552734375 1.0997314453125
-47.38720703125 -38.5 11.6749267578125
-26.728271484375 -24.131103515625 -6.414306640625
0.34228515625 -25.456298828125 -6.34912109375
-6.8837890625 -19.12353515625 -0.8826904296875
-37.570556640625 -13.650390625 -0.4803466796875
-46.445556640625 -57.63427734375 33.7197265625
20.307861328125 9.876708984375 -2.6063232421875
-38.6044921875 -3.765380859375 -4.509765625
-46.32373046875 -38.806640625 19.497802734375
-24.778564453125 7.435546875 4.731689453125
-45.235107421875 -50.910400390625 29.219482421875
-28.70654296875 -42.823486328125 -4.1466064453125
-46.093505859375 -54.18603515625 23.5325927734375
-27.785400390625 -11.9052734375 -2.8792724609375
-42.96435546875 -19.119140625 8.167724609375
26.562744140625 5.50732421875 -6.4869384765625
-46.873291015625 -30.123291015625 1.4683837890625
-23.29638671875 -53.853515625 -11.7568359375
-3.389892578125 -40.915283203125 -5.25
9.528076171875 6.03271484375 5.203125
-31.470703125 -61.63671875 -8.7357177734375
13.858154296875 -12.99169921875 -15.778564453125
-16.3623046875 6.9384765625 5.19677734375
-21.868896484375 9.522216796875 7.1220703125
-32.852294921875 -7.82373046875 -5.9710693359375
18.14013671875 19.323974609375 -7.50439453125
24.146484375 8.212646484375 -9.8538818359375
13.707763671875 -4.499755859375 -5.673095703125
15.761962890625 5.261474609375 1.0899658203125
-42.378662109375 -60.297119140625 22.89599609375
0.438232421875 5.4716796875 5.271484375
-19.654296875 0.4013671875 -0.0340576171875
19.014404296875 -5.2607421875 -2.6019287109375
5.855224609375 -13.666748046875 -6.39404296875
-38.583251953125 0.696533203125 -1.4815673828125
-26.99462890625 -55.8837890625 -10.9580078125
14.036865234375 -28.150390625 4.7855224609375
-27.270263671875 -50.7265625 -6.9805908203125
6.5048828125 -1.80322265625 -0.8143310546875
-30.90966796875 -54.11572265625 9.4481201171875
-14.659423828125 -8.130859375 -4.861572265625
-43.92919921875 -26.961181640625 -2.97509765625
22.870849609375 -4.421142578125 -5.9384765625
-15.591796875 -45.860595703125 -3.571044921875
-31.91357421875 -24.22216796875 -3.8861083984375
-39.512451171875 0.722900390625 3.4595947265625
-28.36474609375 -5.00146484375 -4.6136474609375
-41.02978515625 -6.935302734375 -5.3839111328125
-32.311767578125 0.016357421875 -1.9151611328125
8.730712890625 -3.518798828125 -2.80908203125
-31.056640625 -53.685302734375 -1.94140625
31.476806640625 15.995849609375 -2.0831298828125
-40.899658203125 -20.09326171875 0.9803466796875
-31.335693359375 -60.693115234375 4.5545654296875
-9.4140625 5.300537109375 4.105224609375
-39.739501953125 -26.732177734375 -8.702880859375
-41.751220703125 -17.39599609375 5.1947021484375
-13.541015625 -17.785888671875 1.1541748046875
-31.969482421875 -52.03173828125 4.121826171875
16.08251953125 8.23828125 2.5987548828125
-0.4609375 -32.751220703125 -8.2957763671875
21.714111328125 16.194091796875 -0.6824951171875
-15.84765625 -25.135986328125 -6.990966796875
-40.35791015625 -16.021240234375 -0.1700439453125
7.762451171875 0.435302734375 1.3974609375
-44.97900390625 -28.2109375 4.19921875
-40.372314453125 -62.16552734375 19.7501220703125
-13.69384765625 -14.330078125 -1.4317626953125
-2.55615234375 0.033447265625 0.096435546875
-22.14013671875 -24.52001953125 -6.2474365234375
-34.463134765625 -46.904052734375 -2.53466796875
36.887939453125 10.260009765625 -8.6102294921875
-26.244140625 -46.626953125 -2.4949951171875
1.03564453125 0.79248046875 0.935546875
-31.30029296875 -13.50439453125 -2.124267578125
16.574951171875 9.792236328125 -6.1224365234375
-28.2060546875 -25.45751953125 -2.6417236328125
3.84912109375 -28.889892578125 -8.9334716796875
13.768798828125 9.46240234375 4.595703125
-9.898681640625 -20.2763671875 -1.2784423828125
-12.892578125 0.945556640625 0.0479736328125
-2.85791015625 4.98486328125 4.5872802734375
21.862548828125 11.374267578125 -9.5328369140625
10.6240234375 -9.818115234375 -11.410400390625
-35.648193359375 -19.7705078125 -2.4566650390625
30.265625 21.949951171875 0.798583984375
32.16357421875 13.209228515625 -22.1534423828125
-32.6669921875 5.0771484375 4.901611328125
2.62548828125 2.900146484375 2.864990234375
-24.715576171875 -14.24072265625 -1.44287109375
1.782470703125 -5.583984375 -3.1337890625
-13.71435546875 9.302978515625 7.348876953125
-32.109375 -66.410400390625 0.916259765625
-2.189697265625 -15.976318359375 -0.0712890625
-44.56884765625 -30.34423828125 12.698974609375
34.98291015625 14.147705078125 -17.901123046875
-46.390380859375 -36.328857421875 2.1134033203125
-15.76318359375 -19.436279296875 -0.7552490234375
-31.070556640625 -5.258056640625 -6.5230712890625
-44.364990234375 -35.375244140625 19.445068359375
-8.9501953125 0.61962890625 0.2625732421875
-4.256591796875 9.229736328125 8.374755859375
-7.50830078125 2.7900390625 2.0802001953125
12.68896484375 13.112548828125 -6.9393310546875
12.652587890625 3.431884765625 2.854248046875
-47.178466796875 -43.55322265625 15.2099609375
-32.014404296875 -64.51806640625 -7.2181396484375
-4.932861328125 -35.517333984375 -5.774169921875
16.506103515625 21.705078125 -5.7081298828125
-8.331298828125 -4.7158203125 -3.41064453125
-30.432861328125 -63.66455078125 5.0267333984375
-33.546875 -24.141845703125 -7.1324462890625
-1.287841796875 -23.2744140625 -3.45556640625
3.6552734375 -24.501220703125 -5.7882080078125
-3.970458984375 2.678955078125 2.4866943359375
-32.918701171875 -49.779052734375 10.119384765625
-37.779296875 -28.9169921875 -7.5506591796875
3.40087890625 -1.559326171875 -0.8624267578125
-45.5810546875 -47.3251953125 21.30078125
6.0439453125 -7.041259765625 -4.8065185546875
-14.2314453125 -23.667724609375 -3.4114990234375
14.837646484375 14.7998046875 -2.546142578125
-23.499267578125 -41.3203125 -1.6751708984375
-44.578369140625 -46.7412109375 31.318603515625
-32.9228515625 -67.52587890625 -3.2779541015625
-17.575439453125 2.31005859375 1.2318115234375
-12.556884765625 -43.687744140625 1.51025390625
22.2265625 -6.275146484375 -3.55810546875
-4.960205078125 -11.078125 -4.0621337890625
-22.298583984375 5.31884765625 3.69091796875
-0.39013671875 9.583984375 8.4468994140625
12.2939453125 -4.18017578125 -0.3375244140625
-6.04443359375 7.30126953125 6.272216796875
-20.98046875 -26.994873046875 -8.801025390625
17.966552734375 5.159912109375 -1.104248046875
-20.17041015625 -5.1376953125 -3.9014892578125
8.742919921875 10.656982421875 8.40380859375
-22.007080078125 -19.986328125 -1.45361328125
-27.705810546875 -59.12939453125 -9.5318603515625
-28.547607421875 -20.00146484375 -1.442138671875
-12.632080078125 4.820068359375 3.4337158203125
8.03369140625 -8.85693359375 -9.5672607421875
-43.989990234375 -2.91015625 -2.9818115234375
-46.198486328125 -51.10205078125 24.0958251953125
17.024169921875 -30.91748046875 2.7410888671875
-31.2314453125 -34.6015625 26.2003173828125
-39.65966796875 -56.82470703125 20.10498046875
-37.725830078125 -15.248779296875 6.3582763671875
19.677001953125 0.4873046875 -4.267333984375
5.784423828125 2.998291015625 3.4620361328125
-23.22216796875 -45.756591796875 -4.681884765625
-6.314453125 -14.10791015625 -1.5426025390625
-25.57958984375 -9.679931640625 -4.65234375
-44.606201171875 -33.9912109375 -2.075439453125
-33.505859375 -18.7158203125 -0.508544921875
20.685791015625 19.396728515625 4.6251220703125
21.169677734375 13.097900390625 -7.0234375
-45.167236328125 -18.118408203125 3.249267578125
-10.737060546875 9.10400390625 7.4259033203125
13.695068359375 -12.212158203125 -12.8321533203125
-5.18798828125 -22.59765625 -3.0347900390625
3.28515625 -12.22705078125 -6.1673583984375
-39.172607421875 -10.82861328125 -3.03369140625
-2.642578125 -40.31640625 -8.5125732421875
-8.30419921875 -9.494140625 -4.448974609375
7.68359375 -13.86474609375 -4.0953369140625
2.851318359375 -27.440185546875 -6.5758056640625
28.234619140625 22.286865234375 3.631103515625
-2.582275390625 -2.45751953125 -1.7489013671875
-4.598388671875 -38.17138671875 -3.158935546875
22.21728515625 8.296142578125 -4.3408203125
-22.07666015625 -0.68994140625 -1.6397705078125
-46.28857421875 -58.2353515625 30.596923828125
-2.7255859375 -34.5771484375 -8.0648193359375
-27.2666015625 -51.70849609375 -4.2340087890625
-47.59130859375 -53.6787109375 29.4322509765625
-2.882568359375 -7.716796875 -4.022216796875
-45.073486328125 -24.41943359375 6.763671875
-41.461181640625 1.00341796875 -1.6080322265625
4.592529296875 7.25927734375 6.93017578125
-10.965087890625 -23.133544921875 -3.2921142578125
-42.281494140625 -23.884521484375 -4.7257080078125
15.801025390625 -6.647216796875 -4.0830078125
32.340576171875 20.156982421875 -0.30322265625
-30.371337890625 -71.853759765625 -0.9666748046875
-24.402099609375 -16.96630859375 0.1395263671875
-10.4833984375 -27.005859375 -6.748291015625
-45.362548828125 -52.39111328125 32.109619140625
-6.985107421875 -1.5849609375 -1.247314453125
-24.97705078125 -22.145263671875 -3.3204345703125
18.85888671875 15.963623046875 2.1446533203125
-30.6865234375 -55.08251953125 -4.6922607421875
-30.1875 -25.781494140625 -10.220947265625
18.83349609375 16.316650390625 -8.8438720703125
-20.1650390625 -48.754150390625 -8.0240478515625
-47.1875 -40.03369140625 14.1739501953125
21.778564453125 10.457763671875 -0.104248046875
0.41455078125 -22.348876953125 -1.3280029296875
-45.257568359375 -28.228515625 10.8232421875
12.704833984375 14.44580078125 -4.46484375
6.806396484375 5.42041015625 5.498291015625
-18.32421875 5.073974609375 3.4833984375
19.371337890625 12.81787109375 -0.35986328125
16.38623046875 10.89892578125 1.4908447265625
-33.76953125 4.5986328125 2.0882568359375
38.77001953125 12.99267578125 -9.1983642578125
20.29052734375 15.858642578125 -11.9732666015625
-18.444580078125 -45.79443359375 -4.504150390625
23.484619140625 11.1484375 -4.283447265625
-19.093505859375 -16.684814453125 0.243408203125
-41.458984375 -3.97607421875 -4.5396728515625
11.71240234375 -14.188232421875 -14.475341796875
-46.683837890625 -37.12109375 9.3673095703125
-22.94775390625 -47.819580078125 -6.8997802734375
-28.13525390625 4.5732421875 2.6292724609375
-31.0556640625 -58.962646484375 6.7020263671875
-38.994873046875 -23.404052734375 -3.41748046875
14.145263671875 12.01318359375 5.6512451171875
7.6005859375 -4.648681640625 -5.556396484375
1.5029296875 7.46875 6.853515625
10.023681640625 8.492431640625 6.346923828125
17.356201171875 2.4775390625 -1.260498046875
18.425537109375 21.1845703125 -9.5423583984375
-35.511962890625 0.751953125 -1.273681640625
-29.263427734375 -0.384521484375 -1.703857421875
-38.744873046875 -45.617919921875 30.768798828125
-31.263671875 -53.885986328125 6.4683837890625
-44.5361328125 -35.238037109375 11.8028564453125
-9.233154296875 7.13134765625 6.11572265625
-17.347900390625 -8.453857421875 -5.157958984375
36.304443359375 11.81494140625 -17.4202880859375
-42.177734375 -22.990478515625 3.00146484375
-32.233642578125 -48.9873046875 3.5614013671875
-13.36962890625 -5.189453125 -3.7601318359375
-26.0380859375 2.39990234375 0.81298828125
-16.571533203125 -2.6240234375 -2.6707763671875
-20.072998046875 -24.569091796875 -3.747314453125
-45.7021484375 -29.71923828125 7.0001220703125
17.8681640625 14.90576171875 6.32177734375
-37.20458984375 -27.479736328125 -9.8748779296875
-23.255615234375 2.979736328125 1.726318359375
19.92578125 13.193115234375 -12.49853515625
-2.079833984375 -26.60595703125 -6.298095703125
-11.315673828125 -3.593505859375 -3.0145263671875
-40.73486328125 -22.703125 -0.641357421875
-39.072021484375 -65.52392578125 19.002197265625
-16.555908203125 -13.982177734375 -1.9183349609375
-45.33447265625 -46.398681640625 25.721923828125
-39.92822265625 -36.679931640625 -9.217041015625
-27.95263671875 -17.700927734375 -0.24462890625
-31.220703125 1.843505859375 -0.3179931640625
-13.5556640625 2.772216796875 1.96923828125
-33.471435546875 -2.2587890625 -3.5052490234375
-31.359375 -56.62744140625 0.841796875
1.716552734375 -10.486328125 -3.7362060546875
-0.986572265625 -36.483154296875 -8.821044921875
-16.46337890625 -41.947509765625 -0.8841552734375
-46.177490234375 -33.39013671875 6.607666015625
34.07763671875 16.681640625 -4.12451171875
-19.322265625 9.2646484375 6.4141845703125
-45.07275390625 -42.01220703125 18.7666015625
24.319580078125 17.05615234375 0.451416015625
8.673095703125 -3.5205078125 -8.07275390625
3.260498046875 -14.747314453125 -8.033447265625
-39.65283203125 -14.20751953125 10.009033203125
9.4775390625 0.54248046875 -0.6002197265625
-47.249755859375 -32.5703125 -1.093994140625
-30.373779296875 -65.1025390625 -4.4036865234375
-44.94580078125 -24.927978515625 9.5538330078125
-42.33837890625 -35.741455078125 -4.3497314453125
-24.12646484375 -24.333740234375 -4.55029296875
-46.84814453125 -33.40576171875 3.482421875
-31.712158203125 -59.50390625 -3.8616943359375
-20.063720703125 -21.362060546875 -2.530517578125
-38.1318359375 -33.375244140625 -8.829345703125
-20.705322265625 -41.33837890625 -2.3419189453125
27.25244140625 1.478515625 -6.21923828125
-4.3544921875 -19.850830078125 -0.1075439453125
-26.471923828125 -40.931884765625 -1.7197265625
-31.28662109375 -73.714111328125 -3.0145263671875
23.24658203125 -1.8330078125 -4.864990234375
-47.401123046875 -41.537353515625 9.9547119140625
-26.01123046875 -4.096923828125 -4.0592041015625
-22.12890625 -51.843505859375 -10.6356201171875
-31.28076171875 -40.021728515625 -5.7708740234375
22.918701171875 9.386962890625 -11.785400390625
37.410400390625 9.01708984375 -10.7989501953125
-46.279052734375 -28.686767578125 -0.8712158203125
37.28759765625 15.419189453125 -7.7181396484375
34.8505859375 15.26708984375 -6.128662109375
32.1171875 11.973388671875 -5.524169921875
24.706298828125 8.328125 -3.7518310546875
-30.820556640625 -51.992919921875 10.8682861328125
18.43505859375 9.834228515625 -4.3704833984375
18.840087890625 -2.634033203125 -2.4307861328125
-44.736572265625 -41.203369140625 24.8779296875
-45.491943359375 -36.01611328125 14.3780517578125
-41.32763671875 -16.74072265625 10.1339111328125
5.84716796875 9.651123046875 8.606201171875
-46.9150390625 -55.530517578125 25.8321533203125
-22.593017578125 -5.49755859375 -4.5478515625
-1.67236328125 -30.769775390625 -7.195068359375
-45.067626953125 -20.168701171875 6.1976318359375
-44.3291015625 -44.488037109375 28.970703125
15.95947265625 17.03662109375 5.8563232421875
-33.37646484375 -10.447509765625 -2.963134765625
-10.58349609375 -31.234375 -6.3843994140625
4.195068359375 -17.831787109375 -1.3177490234375
-28.489013671875 -33.244384765625 23.1864013671875
-41.24267578125 -16.82666015625 13.3697509765625
-30.397216796875 -63.901123046875 -0.29052734375
-36.317626953125 -5.099609375 -4.71875
-26.958740234375 -48.87353515625 -3.80517578125
-30.66064453125 -51.12939453125 -0.8941650390625
-46.68359375 -41.658203125 22.3355712890625
-42.5390625 -30.531982421875 -5.6468505859375
-44.11767578125 -25.080322265625 2.347900390625
-4.69677734375 -5.830810546875 -3.37939453125
-12.05615234375 -19.108642578125 -0.8095703125
-16.283203125 -21.138671875 -2.504638671875
-30.63427734375 -22.018798828125 -3.7432861328125
-28.302001953125 -52.657470703125 -8.544189453125
-39.17236328125 -59.900634765625 18.708740234375
-31.170654296875 -59.743896484375 -7.1522216796875
-24.50341796875 -1.20703125 -1.7728271484375
-35.33935546875 -13.343017578125 8.4151611328125
25.621826171875 6.998291015625 -8.2724609375
-33.411865234375 -69.025146484375 -5.5831298828125
22.968505859375 11.1865234375 -7.2354736328125
-16.25830078125 -24.0380859375 -4.7860107421875
-45.256591796875 -33.26025390625 10.4544677734375
-0.234375 -12.02880859375 -3.3402099609375
12.612548828125 13.462646484375 7.0892333984375
-27.597412109375 -56.84326171875 -8.649169921875
-28.3271484375 -30.646240234375 24.5908203125
-30.478759765625 -67.47412109375 -3.67919921875
-36.703369140625 4.07958984375 3.0621337890625
-24.923583984375 -49.635498046875 -7.0323486328125
3.781005859375 -14.38232421875 -5.099853515625
-6.179443359375 -26.056396484375 -3.3614501953125
-4.39306640625 -38.00537109375 -5.68896484375
13.8466796875 9.17333984375 -5.80126953125
-30.127197265625 -61.3916015625 1.2169189453125
-8.3125 -7.0263671875 -4.1932373046875
-24.01318359375 -18.73876953125 19.73583984375
-40.269775390625 2.194580078125 0.142822265625
-43.16552734375 -47.75244140625 25.4246826171875
-4.46044921875 -1.057861328125 -1.110107421875
-14.213134765625 -11.81298828125 -3.6331787109375
-22.354248046875 -13.508056640625 -1.9183349609375
-42.849853515625 -25.870849609375 -0.76513671875
-37.329833984375 -23.8564453125 -6.79345703125
-26.7099609375 0.3564453125 -0.9732666015625
-39.35302734375 -18.33935546875 0.34619140625
-43.341064453125 -22.996826171875 5.2625732421875
-26.5380859375 6.562255859375 6.138671875
-43.060791015625 -57.73486328125 23.1046142578125
-38.518310546875 -1.773193359375 -3.1646728515625
0.287353515625 -15.06787109375 -1.097412109375
-34.55859375 -13.566162109375 -1.900146484375
1.404541015625 -18.29296875 0.5279541015625
11.796142578125 8.0400390625 4.4443359375
5.9287109375 -11.8671875 -3.8927001953125
19.71826171875 -5.949462890625 -5.2406005859375
-33.4248046875 -45.908447265625 7.6484375
-34.478515625 -24.871337890625 -9.2557373046875
31.850830078125 24.970458984375 1.574462890625
-29.798583984375 -24.19189453125 -4.9652099609375
-39.4287109375 -5.4560546875 -6.936767578125
1.982177734375 -3.429931640625 -2.1680908203125
6.03173828125 -8.515625 -6.7646484375
-44.587646484375 -31.10986328125 -4.49169921875
-40.38037109375 -21.1103515625 3.0540771484375
11.119140625 5.0458984375 3.7567138671875
-45.353515625 -27.99755859375 13.365234375
-28.213134765625 -25.273681640625 -7.853515625
-30.844970703125 -57.38525390625 3.4405517578125
15.835205078125 -2.301025390625 -1.3016357421875
-45.043212890625 -32.4697265625 15.2935791015625
-22.300537109375 -25.071533203125 -2.6533203125
11.08935546875 -10.463134765625 -13.6458740234375
12.039794921875 -5.0234375 -4.1141357421875
0.723876953125 -27.970947265625 -7.428955078125
11.9794921875 -11.419189453125 -10.3758544921875
-5.331298828125 -25.756591796875 -5.967041015625
35.053466796875 10.864501953125 -7.2109375
-20.84375 -44.48046875 -5.263427734375
-21.647705078125 -39.56494140625 -1.0897216796875
-46.1572265625 -37.561279296875 6.6529541015625
-4.83056640625 -24.686767578125 -2.0462646484375
-45.914306640625 -50.732177734375 27.006103515625
-12.076904296875 -8.588623046875 -5.0836181640625
-12.974853515625 -1.1083984375 -1.33837890625
21.0234375 19.8388671875 2.180419921875
-45.029541015625 -44.5703125 22.9627685546875
-12.499755859375 -16.237060546875 -0.9085693359375
0.818603515625 -7.96826171875 -3.5526123046875
-37.298095703125 -21.43408203125 -3.4544677734375
-45.291015625 -26.516357421875 5.8328857421875
-8.341064453125 -26.4990234375 -2.6981201171875
-46.0576171875 -38.04541015625 15.29736328125
34.348876953125 20.8544921875 -1.15234375
2.48388671875 -37.51171875 -7.454833984375
-29.92626953125 -56.305908203125 -7.1824951171875
-35.41796875 -43.720458984375 29.769287109375
-45.03955078125 -48.8974609375 30.7275390625
-39.408935546875 -54.44677734375 20.5146484375
-2.86572265625 -10.20263671875 -4.2794189453125
21.41162109375 -2.560302734375 -6.0057373046875
-30.741455078125 -4.651611328125 -4.3138427734375
16.892333984375 11.572021484375 -3.9927978515625
35.656494140625 18.95703125 -4.341796875
-21.625244140625 1.394287109375 0.5054931640625
-17.78369140625 -47.86669921875 -5.939697265625
-41.6552734375 -32.2333984375 -6.862548828125
24.201904296875 4.051025390625 -5.8055419921875
-33.830322265625 -23.008544921875 -3.85546875
-22.26806640625 7.74853515625 5.4910888671875
-46.510009765625 -46.544921875 19.3839111328125
-15.4091796875 1.688720703125 0.774169921875
-40.36474609375 -16.71923828125 1.9830322265625
-46.59130859375 -55.63427734375 29.96533203125
-32.717041015625 -65.70068359375 3.078857421875
2.653564453125 -22.640625 -1.35888671875
16.485107421875 -29.494873046875 4.4075927734375
-12.66748046875 -42.1142578125 3.40283203125
-29.705810546875 -63.879150390625 7.201171875
-21.177490234375 -3.22314453125 -3.285400390625
-31.234130859375 -19.8837890625 -1.3153076171875
-47.331787109375 -48.71630859375 19.6007080078125
-32.22119140625 -49.7900390625 5.803466796875
-5.31396484375 -31.003662109375 -5.9559326171875
-26.87646484375 5.9326171875 3.8988037109375
32.0283203125 18.061279296875 -1.376220703125
34.185546875 13.1416015625 -6.38232421875
19.0986328125 17.34716796875 -5.6563720703125
4.059326171875 -10.681640625 -4.22265625
-24.05224609375 -44.081787109375 -3.34130859375
-35.697265625 -4.81201171875 -6.849365234375
-18.50244140625 -26.536376953125 -8.68408203125
-41.349609375 -62.224365234375 21.7579345703125
-28.15673828125 -2.925048828125 -3.6817626953125
-36.78662109375 -14.53564453125 -2.3748779296875
-1.054931640625 -41.3740234375 -9.9892578125
-15.727783203125 8.6943359375 6.4879150390625
-32.69921875 -48.28173828125 8.4801025390625
16.952392578125 -4.73779296875 -4.019775390625
-17.70849609375 -40.44482421875 0.200439453125
-18.845458984375 -6.479248046875 -5.3944091796875
-22.83544921875 -6.197265625 -6.6949462890625
-14.181884765625 -37.797119140625 -3.44677734375
-29.954833984375 -51.9423828125 -2.943359375
-41.18310546875 -39.46484375 -7.72705078125
20.897705078125 14.916259765625 2.0423583984375
-40.250732421875 -24.861572265625 -7.241455078125
-33.652099609375 -67.683349609375 -0.043212890625
16.60205078125 13.092529296875 6.1678466796875
-22.3125 -18.1103515625 -0.319580078125
-8.648193359375 -2.845947265625 -2.271484375
22.7646484375 18.5029296875 1.9031982421875
-29.7119140625 -16.1318359375 -0.14306640625
7.122314453125 -5.043212890625 -3.223876953125
-43.98193359375 -49.085205078125 27.7283935546875
-37.462890625 -19.530029296875 -1.223388671875
23.452392578125 12.02587890625 -1.7633056640625
-45.1650390625 -28.9814453125 -3.631103515625
-42.82421875 -20.32177734375 10.010986328125
33.12158203125 12.641845703125 -19.981201171875
15.369873046875 -0.289794921875 -0.2220458984375
-30.974609375 6.34033203125 3.9306640625
-32.223876953125 -58.518798828125 4.72216796875
0.241943359375 -23.721923828125 -5.0064697265625
-32.765625 -36.677490234375 25.861083984375
-14.63671875 5.809326171875 3.968505859375
-25.89794921875 -25.593017578125 -8.25244140625
-36.3818359375 -56.81689453125 19.8590087890625
-46.639892578125 -35.493896484375 7.5946044921875
-7.506103515625 -27.82421875 -6.72021484375
-24.61572265625 -24.259033203125 -6.9798583984375
-26.632080078125 -24.390869140625 -4.2421875
-39.856201171875 -16.3095703125 5.94921875
25.112060546875 7.0380859375 -5.4700927734375
-35.97412109375 2.8935546875 0.6767578125
-35.77587890625 -16.129638671875 5.3106689453125
11.88916015625 -2.8935546875 1.3765869140625
-44.1611328125 -27.06787109375 -5.1937255859375
15.04638671875 -14.994384765625 -14.8421630859375
-27.70849609375 -52.912353515625 -5.99560546875
-0.628662109375 -3.39306640625 -2.3944091796875
14.2587890625 3.481689453125 1.3011474609375
-39.86376953125 -63.557373046875 18.13427734375
-6.7861328125 -20.843017578125 -2.2135009765625
-31.7578125 -67.998046875 -1.325439453125
-24.47021484375 -51.31494140625 -9.16357421875
21.069091796875 17.647705078125 0.8460693359375
-15.99462890625 -44.57958984375 -1.86474609375
-41.87890625 -57.890625 21.2933349609375
-6.08837890625 -34.1181640625 -4.5887451171875
-36.30859375 -34.360107421875 -9.4757080078125
-4.10791015625 6.392822265625 5.648681640625
-23.429443359375 -9.465087890625 -4.693359375
-38.220458984375 -30.986328125 -8.140380859375
-27.09716796875 -5.783447265625 -6.177978515625
-30.70849609375 -59.75146484375 -9.458984375
18.54736328125 1.123291015625 -2.4451904296875
-29.922119140625 -53.92431640625 -6.3902587890625
-20.5068359375 -50.06787109375 -9.7008056640625
-18.10595703125 -11.41552734375 -2.2569580078125
-36.238037109375 -29.445556640625 -8.958740234375
-31.82373046875 -23.5927734375 -5.9639892578125
-45.647216796875 -37.080810546875 11.7418212890625
-13.86328125 -25.647216796875 -7.6488037109375
4.4013671875 -6.517333984375 -3.3514404296875
-30.252197265625 -63.580810546875 -2.892333984375
-44.728515625 -49.357421875 23.8931884765625
-25.576416015625 -54.452880859375 -11.6971435546875
-47.924560546875 -35.7919921875 3.5133056640625
-10.70263671875 -25.356201171875 -4.9749755859375
-13.498046875 -43.0068359375 -0.2900390625
-30.190185546875 -34.073974609375 24.1888427734375
-29.28759765625 3.13232421875 1.4490966796875
9.298828125 13.568115234375 -9.24267578125
-37.082275390625 -13.366455078125 7.115966796875
-38.7900390625 -14.63720703125 8.095947265625
-37.779541015625 -37.7998046875 -10.130615234375
1.065185546875 4.02783203125 3.762451171875
-45.23291015625 -31.788330078125 7.6319580078125
-46.232177734375 -28.248291015625 2.2232666015625
13.79736328125 -28.628662109375 6.8370361328125
-45.176025390625 -34.71630859375 16.041748046875
-32.06591796875 -35.857421875 -5.762939453125
-46.56103515625 -42.5537109375 17.1563720703125
-25.10498046875 -27.37646484375 -9.0516357421875
-41.985595703125 -19.63720703125 3.2305908203125
-2.4287109375 1.555419921875 1.592041015625
-18.659912109375 -14.435302734375 -1.269775390625
-45.7275390625 -44.373291015625 26.7552490234375
-45.140869140625 -45.326904296875 20.8115234375
-45.55419921875 -36.965087890625 18.75244140625
-35.783447265625 -3.158935546875 -4.0556640625
-41.266357421875 -36.336669921875 -7.640380859375
-18.689453125 -41.91943359375 -1.388916015625
-3.46728515625 -4.205810546875 -2.6998291015625
-31.61083984375 -51.946044921875 1.7052001953125
-27.69189453125 -54.128662109375 -10.0570068359375
-30.061767578125 -59.7958984375 8.609375
-42.926513671875 -18.96533203125 6.0843505859375
-21.024658203125 -8.41455078125 -4.65478515625
-31.426513671875 -54.04443359375 4.2247314453125
10.02978515625 17.003662109375 -4.955810546875
-23.3173828125 -21.490478515625 -2.2144775390625
-26.79296875 -20.868896484375 -2.161865234375
9.6494140625 -12.95654296875 -12.813720703125
-46.117431640625 -32.7197265625 -2.82958984375
-46.282470703125 -40.703125 20.3431396484375
-47.37109375 -30.497802734375 -0.93115234375
-32.427734375 -17.0439453125 0.0728759765625
-32.039794921875 -25.68994140625 -8.455810546875
-18.42724609375 -3.838623046875 -3.329833984375
26.456298828125 3.349365234375 -5.8463134765625
-46.01513671875 -34.115478515625 -0.5010986328125
-41.4873046875 -17.82177734375 7.5374755859375
14.070556640625 -11.168701171875 -10.068115234375
-45.98974609375 -38.42626953125 13.2647705078125
-19.377197265625 -43.83544921875 -3.780029296875
-17.83349609375 -0.82373046875 -1.181884765625
16.205322265625 0.723388671875 -1.865966796875
-8.3173828125 -18.047607421875 0.11181640625
21.366943359375 -4.56005859375 -4.2777099609375
-12.095947265625 -25.0087890625 -3.3541259765625
-41.679443359375 -34.54296875 -6.0867919921875
-37.397705078125 -12.59326171875 -2.54443359375
13.223876953125 0.745849609375 0.3402099609375
-6.326904296875 -19.0263671875 1.0770263671875
-32.032470703125 -55.77978515625 7.214599609375
15.361083984375 -12.9033203125 -13.7725830078125
10.623046875 2.581298828125 2.6103515625
-1.961181640625 -38.173583984375 -8.259033203125
-17.26220703125 -18.119384765625 -0.388916015625
-31.796142578125 -69.8193359375 -2.213623046875
14.662841796875 -26.80419921875 6.1605224609375
-34.156005859375 -0.7841796875 -2.1378173828125
-22.7900390625 -26.975830078125 -10.0625
-43.669921875 -56.244140625 24.617431640625
-21.223876953125 -53.04345703125 -11.9871826171875
-9.208251953125 3.52783203125 2.8851318359375
4.969970703125 -2.700927734375 -1.7711181640625
5.31494140625 -8.88525390625 -4.0723876953125
-9.491943359375 -11.099609375 -3.5416259765625
22.432861328125 13.89306640625 -1.0380859375
-42.26171875 -28.82568359375 -6.6817626953125
-45.348388671875 -40.080322265625 18.279052734375
-42.521240234375 -60.4443359375 20.610107421875
-38.3466796875 -5.714111328125 -5.1016845703125
-14.938720703125 -1.375 -1.6571044921875
12.128173828125 14.909423828125 -1.2598876953125
-42.558349609375 -25.578369140625 -3.689453125
-0.912841796875 -20.2919921875 -0.3304443359375
-25.896240234375 -15.82763671875 -0.545654296875
13.87451171875 16.7197265625 5.511962890625
-3.10009765625 -28.433349609375 -6.810546875
-18.3037109375 -24.72607421875 -5.09716796875
14.1513671875 -3.573486328125 -0.727783203125
-31.547607421875 -55.56494140625 2.715087890625
-46.273681640625 -56.59814453125 32.0274658203125
34.924560546875 9.1484375 -8.2037353515625
-1.417724609375 -24.8125 -4.9722900390625
16.908203125 7.162353515625 1.1529541015625
-46.931884765625 -52.499267578125 30.88134765625
20.564208984375 17.42236328125 4.7366943359375
-24.603271484375 5.555908203125 4.0556640625
15.8251953125 -13.54931640625 -16.0186767578125
-43.7998046875 -32.58935546875 -3.2139892578125
7.129150390625 2.041748046875 2.3797607421875
-37.161865234375 -42.928466796875 0.2982177734375
-35.54150390625 -24.258544921875 -7.517578125
-46.302734375 -38.039794921875 17.252197265625
-11.993408203125 -26.22607421875 -7.86572265625
-30.302978515625 -75.591552734375 0.047607421875
-39.873046875 -32.651123046875 -7.5875244140625
-43.23486328125 -34.4462890625 10.0267333984375
-3.03125 -41.613525390625 -7.0615234375
2.18310546875 -29.241943359375 -7.9078369140625
-35.256591796875 -21.71044921875 -3.489501953125
-31.702880859375 -61.406494140625 2.763427734375
-0.59912109375 -0.162841796875 0.4281005859375
-40.739990234375 -20.581787109375 -0.9110107421875
17.4951171875 21.170654296875 -7.581787109375
-40.41015625 -14.227294921875 -0.9501953125
14.213623046875 -30.1181640625 5.6407470703125
-3.069091796875 -18.951416015625 1.217529296875
14.494140625 15.5166015625 -0.7611083984375
-17.85302734375 8.033447265625 6.06982421875
-11.04931640625 -21.260498046875 -2.4998779296875
11.727294921875 -12.240234375 -14.1134033203125
20.631591796875 17.856201171875 -1.0377197265625
-44.254638671875 -51.446044921875 33.4002685546875
-8.94482421875 -24.705322265625 -2.2503662109375
-47.11865234375 -39.074951171875 9.8333740234375
-46.9404296875 -31.16162109375 3.1180419921875
-38.461669921875 -15.641845703125 -0.370361328125
-14.576416015625 -47.34521484375 -4.302001953125
-47.394287109375 -54.744140625 27.541015625
-6.591064453125 -6.179931640625 -3.6104736328125
6.17041015625 0.09619140625 0.3421630859375
19.324462890625 -0.742919921875 -2.8099365234375
-2.921630859375 -22.568603515625 -2.53466796875
-31.953369140625 -62.5322265625 -6.8668212890625
-30.308837890625 -55.835693359375 10.103271484375
-44.861572265625 -50.77685546875 31.1527099609375
-31.66357421875 -55.363037109375 -0.58935546875
28.2705078125 4.690673828125 -6.8807373046875
-39.6123046875 2.159912109375 2.1712646484375
-4.71044921875 -21.192626953125 -1.7969970703125
-40.05517578125 -0.072265625 -2.469482421875
-29.558837890625 -14.34521484375 -1.2828369140625
8.27978515625 -1.083740234375 0.323974609375
-11.04248046875 0.436279296875 -0.1483154296875
14.624755859375 11.45849609375 -6.532470703125
19.530517578125 17.138671875 -3.7919921875
-25.721435546875 -23.9619140625 -2.601806640625
18.252685546875 5.006591796875 -3.0006103515625
-20.841796875 -25.33349609375 -7.8450927734375
-24.94873046875 -45.988037109375 -3.76220703125
-31.5546875 -56.85888671875 -4.050537109375
-7.93212890625 6.197265625 5.0562744140625
-15.0009765625 -26.6171875 -8.8531494140625
-15.718017578125 -9.6611328125 -4.401123046875
17.03466796875 9.15087890625 1.046142578125
1.565185546875 -12.64306640625 -3.099609375
-35.2568359375 -18.0146484375 -0.8331298828125
1.54345703125 -0.7138671875 -0.1295166015625
0.3271484375 -30.884765625 -7.4168701171875
-28.09765625 -55.222900390625 13.2813720703125
-36.432861328125 -44.277099609375 -3.2132568359375
-45.69189453125 -30.758056640625 14.554931640625
8.036865234375 4.555419921875 4.32763671875
-32.080810546875 2.9521484375 0.96923828125
20.272705078125 15.145751953125 -7.2760009765625
-26.9150390625 -49.245361328125 -5.841552734375
-37.0576171875 -16.91064453125 3.938720703125
-14.513916015625 7.31005859375 5.4429931640625
22.060791015625 10.298583984375 -2.0042724609375
14.936767578125 6.338134765625 2.535888671875
-4.77294921875 -12.613037109375 -2.7291259765625
-24.6865234375 -40.41357421875 -0.5074462890625
-6.426025390625 -10.033203125 -4.65771484375
-44.43994140625 -43.01171875 26.469482421875
23.062744140625 9.753173828125 -9.6497802734375
-20.409912109375 -18.19580078125 -0.52099609375
16.16845703125 3.828125 -0.078857421875
-14.052490234375 11.108642578125 6.8900146484375
11.54248046875 16.038330078125 -4.361572265625
-45.524658203125 -38.882080078125 21.209228515625
-41.387939453125 -26.974609375 -7.8118896484375
15.67626953125 9.66748046875 3.7650146484375
-43.47314453125 -10.761962890625 -2.621337890625
-20.421875 5.282958984375 3.5006103515625
-38.5732421875 -25.1708984375 -8.04736328125
-42.9384765625 -36.207763671875 11.551513671875
-44.597412109375 -31.10302734375 16.5118408203125
-26.815673828125 -13.274658203125 -2.0234375
-32.37451171875 5.468017578125 3.0078125
31.586669921875 14.255859375 -3.437744140625
-37.229248046875 -44.445556640625 30.675537109375
-18.780517578125 3.697265625 2.2796630859375
8.49951171875 -2.89892578125 -0.9249267578125
20.71435546875 -6.258056640625 -2.4412841796875
-12.4873046875 -37.14013671875 -3.9256591796875
-45.0126953125 -31.706298828125 11.4871826171875
-2.090576171875 -11.892822265625 -3.5765380859375
-12.78515625 -6.91650390625 -4.201171875
-19.411376953125 1.949951171875 0.9951171875
-31.949462890625 -5.715087890625 -8.117919921875
-24.218994140625 -4.610595703125 -4.2620849609375
-44.171875 -26.814208984375 3.0535888671875
-40.785400390625 -64.03466796875 19.6927490234375
-30.041748046875 -59.938232421875 0.039794921875
-44.510986328125 -20.16943359375 8.1868896484375
-15.792724609375 -22.65185546875 -3.5650634765625
-42.900634765625 -34.8798828125 -2.7900390625
8.966796875 -16.554931640625 -4.5589599609375
-42.126953125 -21.264404296875 2.2962646484375
-46.563720703125 -59.167724609375 32.1884765625
-20.415283203125 -24.2763671875 -5.5833740234375
-17.04052734375 -24.580810546875 -3.183349609375
-37.205078125 1.553955078125 -0.57373046875
-1.351806640625 5.888427734375 5.5469970703125
20.87890625 11.616943359375 -12.2613525390625
-1.08447265625 -7.277587890625 -3.8780517578125
-37.1357421875 -23.343017578125 -4.1387939453125
-0.3017578125 7.001953125 6.689208984375
-29.25341796875 -5.461181640625 -6.2197265625
-46.824951171875 -41.34033203125 15.70703125
11.81103515625 9.818603515625 5.3284912109375
-31.2578125 -63.644775390625 -5.1925048828125
6.787109375 -3.13916015625 -2.0643310546875
31.608154296875 23.2158203125 1.046142578125
-14.38330078125 -24.451171875 -5.5257568359375
13.05712890625 1.998779296875 1.6873779296875
22.15478515625 15.9814453125 1.2071533203125
-46.9921875 -45.251220703125 16.6676025390625
19.32568359375 13.981201171875 1.07373046875
-43.51123046875 -18.416259765625 4.010498046875
19.42431640625 20.66650390625 4.17041015625
23.111328125 11.711669921875 0.1419677734375
-2.486572265625 -24.753662109375 -3.0703125
-13.81689453125 -18.640625 -0.521728515625
19.354248046875 16.223388671875 4.03369140625
-5.741943359375 3.099365234375 2.7666015625
-45.232666015625 -27.18017578125 -1.323974609375
-14.84765625 -6.2099609375 -4.16650390625
-35.955810546875 -26.1572265625 -10.1610107421875
10.27490234375 10.093505859375 7.4111328125
-22.62548828125 -19.0830078125 18.1263427734375
-32.33251953125 -3.775390625 -4.031494140625
-26.988037109375 -19.095458984375 -0.9473876953125
