-29.434326171875 -28.49853515625 -19.3870849609375
-16.72998046875 -26.080322265625 3.1522216796875
23.726806640625 2.3193359375 7.770751953125
7.502197265625 -9.2705078125 2.78955078125
16.851318359375 -4.205078125 6.3876953125
13.321044921875 -14.952392578125 1.481201171875
-36.1845703125 -36.923095703125 4.804443359375
43.151611328125 9.94921875 -1.869140625
12.387939453125 -1.231689453125 9.22412109375
-15.330810546875 -49.18310546875 1.7601318359375
44.44921875 -8.611572265625 -26.2843017578125
-34.36669921875 -55.94287109375 35.621826171875
-34.662353515625 -50.371826171875 30.501220703125
-7.436767578125 -29.22265625 -0.0062255859375
-19.820556640625 -61.337158203125 14.5452880859375
-22.282958984375 -17.9990234375 1.552734375
-30.963623046875 -27.14208984375 9.2957763671875
27.93798828125 12.19091796875 3.0589599609375
-26.405517578125 -26.212890625 2.9383544921875
29.978759765625 5.529296875 3.5516357421875
-17.5888671875 -65.564208984375 -5.1556396484375
41.4189453125 15.62890625 3.2545166015625
-17.806396484375 -63.620361328125 17.7203369140625
-31.9658203125 -22.9853515625 15.6668701171875
19.243896484375 3.192138671875 10.7445068359375
-15.866455078125 -65.103759765625 20.257080078125
-26.422119140625 -30.92138671875 -3.008544921875
43.541748046875 -10.8603515625 -27.781982421875
16.43505859375 -7.643310546875 4.6954345703125
-19.921630859375 -3.005615234375 7.3790283203125
-11.17578125 -8.70849609375 2.6646728515625
-33.465087890625 -33.951416015625 8.047119140625
-34.503662109375 -29.95556640625 13.3494873046875
-26.108642578125 -22.572509765625 8.650146484375
12.114013671875 -40.168212890625 -2.908203125
-35.861572265625 -58.134521484375 25.9031982421875
-36.34326171875 -61.11328125 32.4056396484375
-12.783203125 -78.22802734375 4.04736328125
-12.3837890625 -19.099609375 2.475341796875
28.7724609375 2.986572265625 -0.2674560546875
-20.657958984375 -41.8505859375 29.473388671875
0.285888671875 0.285400390625 10.7659912109375
-11.658447265625 -15.05517578125 1.15185546875
-30.734619140625 -20.882568359375 3.2806396484375
-34.4072265625 -27.81103515625 9.5733642578125
12.953125 -28.58740234375 0.8260498046875
-12.60400390625 -57.873046875 -5.5128173828125
-19.6728515625 -39.61328125 27.2545166015625
-17.243896484375 -1.1884765625 10.123046875
-31.88525390625 -45.15771484375 30.436279296875
-3.510009765625 -26.0625 2.902587890625
-32.437255859375 -11.29638671875 0.9591064453125
-37.25048828125 -51.590087890625 16.79541015625
4.978759765625 -31.2021484375 1.2208251953125
-16.667724609375 -66.2861328125 21.9923095703125
6.690185546875 -11.140869140625 1.837158203125
-12.046142578125 -46.863525390625 3.2593994140625
-14.809814453125 -15.39453125 1.17578125
-8.83642578125 -0.45166015625 9.9974365234375
-17.0009765625 -65.47802734375 7.5172119140625
-3.306884765625 -13.438232421875 1.294677734375
3.11083984375 -6.145263671875 5.0660400390625
3.809814453125 -11.115478515625 1.569091796875
25.694091796875 15.0087890625 -2.12548828125
-8.53173828125 -21.138916015625 4.085693359375
-14.093505859375 -7.86083984375 3.282470703125
-13.22216796875 -81.84375 8.8712158203125
-15.669189453125 -73.04248046875 8.3349609375
1.064453125 -18.569091796875 2.2960205078125
-29.2578125 -6.489990234375 9.0067138671875
-35.62255859375 -14.00830078125 1.0155029296875
8.16796875 -46.28955078125 -5.0992431640625
-1.35498046875 -29.86376953125 1.3297119140625
44.380615234375 6.8818359375 -4.21484375
27.45947265625 18.325927734375 5.6590576171875
28.154296875 12.134033203125 -7.2901611328125
-0.968505859375 -5.722900390625 5.5418701171875
-30.695556640625 -64.419677734375 25.747802734375
-30.353515625 -18.655029296875 1.8392333984375
-18.943115234375 -65.788818359375 4.0872802734375
-15.6201171875 -83.55419921875 4.113525390625
-7.166748046875 -26.413330078125 2.12060546875
-0.03759765625 -14.6640625 1.3785400390625
-34.791015625 -40.92626953125 24.16455078125
-14.232177734375 -3.01806640625 7.57958984375
-18.537353515625 -80.825439453125 4.7281494140625
24.331787109375 18.3544921875 1.07470703125
40.133544921875 9.716796875 0.56982421875
-33.900634765625 -56.15478515625 22.7890625
10.64306640625 -43.015380859375 -4.765625
-15.93798828125 -61.54931640625 -5.8865966796875
12.114501953125 -24.252685546875 5.4305419921875
9.1416015625 -33.264892578125 -2.9501953125
31.933837890625 6.648681640625 1.526611328125
-17.874267578125 -83.00927734375 2.0521240234375
-35.3330078125 -39.730712890625 10.326171875
21.2587890625 -9.22607421875 3.554931640625
-32.761474609375 -38.18994140625 -0.5859375
-9.7744140625 -34.601806640625 -1.7584228515625
-16.417724609375 -17.069091796875 1.2506103515625
-18.033447265625 -63.58251953125 14.8310546875
-34.303466796875 -58.54541015625 24.3287353515625
25.58740234375 13.70166015625 -4.74658203125
-11.89794921875 -53.08154296875 -2.1368408203125
4.583984375 0.6328125 10.935791015625
-15.756103515625 -72.171875 4.43505859375
24.191162109375 6.149169921875 7.882080078125
-25.9248046875 -28.697998046875 0.2984619140625
7.806396484375 -28.053466796875 1.2716064453125
-3.951904296875 -6.1181640625 5.183349609375
11.406494140625 -7.1630859375 4.6529541015625
-16.3544921875 -52.445556640625 0.744140625
-17.6865234375 -9.2509765625 2.5306396484375
-20.1259765625 -31.44775390625 -1.394775390625
13.417236328125 -9.73779296875 2.88232421875
-32.919921875 -32.02099609375 -2.126953125
21.7353515625 -6.706298828125 4.8045654296875
-34.06689453125 -12.217529296875 0.421142578125
5.703857421875 -43.525390625 0.6925048828125
-9.360595703125 -9.565673828125 2.347900390625
-28.1103515625 -20.936279296875 11.883056640625
24.697265625 -4.60107421875 4.9671630859375
-35.475830078125 -47.2626953125 20.9473876953125
-29.68017578125 -24.951416015625 4.795654296875
-32.43359375 -64.795654296875 28.3857421875
-16.4365234375 -68.08837890625 17.3221435546875
-30.2470703125 -15.3720703125 0.6640625
-19.5439453125 -7.98974609375 3.282470703125
26.905029296875 3.910400390625 -0.398193359375
6.174560546875 -23.84765625 5.8736572265625
-4.960205078125 -8.538818359375 3.0877685546875
18.211181640625 -1.394775390625 8.714111328125
-16.07373046875 -71.27294921875 11.76123046875
-34.67724609375 -36.251953125 17.4263916015625
-1.61962890625 -8.26171875 3.1575927734375
4.013671875 -27.637939453125 1.4866943359375
28.132080078125 5.6708984375 2.4012451171875
14.33984375 -1.595458984375 8.9056396484375
17.60205078125 -8.748779296875 2.8294677734375
-31.177734375 -34.136962890625 -3.4033203125
-4.010986328125 -24.596923828125 4.0816650390625
-28.79052734375 -30.591064453125 -6.1497802734375
-30.056396484375 -33.166259765625 -5.292724609375
-35.04736328125 -40.11962890625 1.630126953125
-1.244384765625 -32.13427734375 -1.6524658203125
50.209228515625 4.35986328125 -2.8126220703125
16.082763671875 -13.2919921875 1.553466796875
-35.947021484375 -41.29248046875 3.7041015625
26.874755859375 9.516845703125 -8.4873046875
-29.56787109375 -30.790283203125 -2.532958984375
21.136474609375 3.92578125 10.31689453125
-34.5546875 -37.404296875 9.6436767578125
6.19140625 -5.410888671875 5.96826171875
-34.400634765625 -38.398681640625 2.9991455078125
-36.649169921875 -61.357421875 30.545654296875
-17.393798828125 -67.75341796875 11.731201171875
-10.35400390625 -1.924560546875 9.0711669921875
-9.04345703125 -54.70849609375 -2.32373046875
-17.586181640625 -69.33984375 5.7454833984375
-17.4345703125 -73.466552734375 14.2608642578125
-31.73828125 -6.3798828125 4.699951171875
-27.95458984375 -62.917236328125 24.2852783203125
-12.64306640625 -50.318359375 0.40673828125
9.77099609375 -8.99658203125 3.1707763671875
-10.293212890625 -27.138916015625 1.6932373046875
-35.67529296875 -59.417724609375 27.789306640625
-28.69091796875 -60.822021484375 24.1466064453125
-27.758056640625 -69.838134765625 22.21044921875
6.52099609375 -21.00244140625 4.349609375
22.91162109375 10.311767578125 5.814453125
21.43115234375 9.36962890625 2.2879638671875
-31.661865234375 -30.449951171875 0.1741943359375
-17.911865234375 -3.85986328125 6.7156982421875
-36.626953125 -51.30419921875 22.6104736328125
-34.38037109375 -37.90283203125 20.4439697265625
-21.893798828125 -54.495361328125 10.5069580078125
-1.239990234375 -26.593017578125 2.2889404296875
-31.908447265625 -60.256591796875 36.147705078125
39.2412109375 6.72998046875 -12.4957275390625
-32.292236328125 -41.709228515625 -0.0401611328125
18.4501953125 11.374755859375 1.900634765625
27.047119140625 -7.3896484375 3.35302734375
-35.5673828125 -64.9853515625 36.09765625
24.33349609375 16.48583984375 -3.5440673828125
28.177978515625 -5.09912109375 2.35546875
-17.94482421875 -57.757568359375 2.130859375
-16.53466796875 -2.470947265625 8.078125
41.791015625 10.64306640625 -0.056640625
40.080810546875 17.97314453125 4.47509765625
-29.955322265625 -67.40625 23.7635498046875
-15.99755859375 -55.96142578125 -0.4110107421875
-31.62939453125 -59.76416015625 24.705322265625
38.751708984375 12.35546875 2.819580078125
43.304931640625 -8.94482421875 -24.8492431640625
-15.224609375 -73.64892578125 10.84814453125
10.8251953125 -2.242431640625 8.2674560546875
-35.926513671875 -58.32666015625 29.7115478515625
-21.756103515625 -4.19580078125 6.2110595703125
-17.953857421875 -77.396728515625 10.8853759765625
-21.763427734375 -1.0009765625 10.67236328125
-35.916015625 -53.1611328125 22.1888427734375
20.4677734375 -8.895751953125 5.709228515625
21.180908203125 0.554931640625 9.44482421875
-26.280029296875 -65.426025390625 22.3681640625
7.4443359375 -30.481201171875 -0.43505859375
-34.84716796875 -62.309326171875 36.39111328125
-30.5771484375 -73.450439453125 22.1434326171875
29.8779296875 10.06005859375 -8.2579345703125
-20.449951171875 -56.570556640625 4.6551513671875
-20.104248046875 -68.8388671875 -5.025390625
2.17529296875 -31.29638671875 3.1517333984375
-32.001953125 -25.195068359375 16.3399658203125
-33.511474609375 -59.020263671875 33.7490234375
-29.677734375 -31.74560546875 -4.0960693359375
6.210205078125 -31.89013671875 -2.2093505859375
-34.2841796875 -34.126220703125 16.474365234375
-22.801025390625 -20.803466796875 3.46142578125
23.76953125 -0.397705078125 6.3251953125
-34.189453125 -66.336669921875 34.4464111328125
-35.859375 -47.230224609375 13.6998291015625
5.602294921875 -3.529296875 7.5989990234375
-32.240234375 -25.958740234375 7.80322265625
28.462890625 13.252197265625 5.9866943359375
-7.6162109375 -31.609619140625 -3.6685791015625
-35.626708984375 -36.691650390625 7.7935791015625
-35.4501953125 -39.649658203125 16.608642578125
-20.492919921875 -58.71875 7.9732666015625
9.311279296875 -20.96875 4.5411376953125
-5.87841796875 -49.177490234375 2.627685546875
-10.900634765625 -25.75927734375 3.318603515625
29.420166015625 7.786376953125 5.765869140625
17.9931640625 7.668212890625 -2.4033203125
-2.336669921875 -1.48388671875 9.1337890625
-27.5166015625 -22.456298828125 10.824462890625
-25.62890625 -39.541015625 -4.55810546875
0.69189453125 1.764404296875 12.0052490234375
24.4443359375 17.156982421875 -0.3736572265625
30.86962890625 7.071533203125 -0.2020263671875
-17.959228515625 -79.350830078125 7.193115234375
-2.84033203125 1.2001953125 11.2745361328125
-28.643310546875 -22.3544921875 4.28759765625
-5.7861328125 -1.854248046875 9.49658203125
-5.117431640625 0.081787109375 10.3507080078125
-26.5712890625 -3.8896484375 7.0479736328125
-34.519287109375 -43.78515625 18.1268310546875
-35.7666015625 -62.654296875 29.647705078125
21.599609375 -1.609375 7.145751953125
-5.28857421875 -16.431884765625 1.21728515625
-18.859375 -14.6884765625 1.04296875
-20.0029296875 -1.525634765625 9.3074951171875
-17.66259765625 -59.595458984375 -0.766357421875
-21.199462890625 -29.87451171875 0.4058837890625
47.235107421875 6.43408203125 -3.5701904296875
-17.0576171875 -65.824462890625 10.2054443359375
-6.379638671875 1.39404296875 11.5308837890625
-35.0712890625 -56.106689453125 26.3065185546875
-31.656005859375 -23.88525390625 4.93115234375
-34.55322265625 -49.1513671875 25.0142822265625
12.625732421875 -13.0537109375 1.4810791015625
-34.8837890625 -49.25439453125 27.5076904296875
-33.266357421875 -57.0166015625 32.09423828125
14.871826171875 13.0166015625 0.09423828125
-9.929931640625 -51.644775390625 -0.406005859375
-29.862548828125 -21.9345703125 13.368896484375
-24.078125 -6.879638671875 4.29296875
-7.978759765625 -3.22509765625 7.5933837890625
30.893798828125 3.94140625 2.0587158203125
10.2353515625 -41.42919921875 -4.0245361328125
10.983642578125 -36.440185546875 -2.715087890625
-34.85986328125 -39.8017578125 22.40380859375
-29.00341796875 -36.082275390625 -2.861572265625
-35.52197265625 -11.697998046875 2.9779052734375
-32.9404296875 -56.234130859375 21.3062744140625
-34.3466796875 -32.36962890625 6.2764892578125
-34.529052734375 -10.826171875 1.547607421875
-16.272705078125 -71.340087890625 2.9669189453125
0.94140625 -32.93359375 -1.2708740234375
-17.04443359375 -68.372802734375 8.208740234375
22.95703125 3.815673828125 9.3460693359375
26.583740234375 9.93115234375 6.5526123046875
27.660888671875 14.888671875 7.00146484375
26.35498046875 -3.8037109375 2.767578125
-34.531005859375 -43.110107421875 27.2462158203125
28.845458984375 11.975341796875 8.4124755859375
9.787353515625 -26.273193359375 4.0452880859375
-3.707763671875 -7.380615234375 3.8424072265625
-22.888427734375 -16.00830078125 1.0225830078125
-15.719970703125 -79.008056640625 3.78125
-4.40966796875 -27.322998046875 1.85791015625
-30.23486328125 -23.7724609375 8.5123291015625
-16.945556640625 -80.450439453125 8.4835205078125
14.33740234375 -13.424072265625 1.520751953125
-32.2822265625 -23.186767578125 7.055908203125
-9.862548828125 -5.666015625 5.44091796875
-32.663818359375 -6.76220703125 7.698974609375
1.333251953125 -11.362060546875 1.5643310546875
-26.938720703125 -14.73681640625 0.8009033203125
4.653076171875 -25.582275390625 3.91748046875
-12.616943359375 -55.354736328125 -3.53955078125
-15.05419921875 -74.272705078125 6.1072998046875
-12.916748046875 -61.014404296875 -8.1900634765625
-26.26513671875 -17.283935546875 1.4188232421875
23.7587890625 -26.759033203125 -5.3380126953125
22.62841796875 6.861328125 -0.0096435546875
-12.4248046875 -11.730224609375 1.49609375
-35.331298828125 -35.028564453125 3.694580078125
-35.074462890625 -61.20166015625 27.27685546875
39.32763671875 -4.3828125 -23.0556640625
11.552734375 -4.223876953125 6.7171630859375
9.2470703125 -5.00830078125 6.3338623046875
10.612548828125 1.91064453125 12.1588134765625
26.03564453125 15.148193359375 2.8011474609375
-24.48681640625 -1.64013671875 10.9246826171875
13.148681640625 0.92822265625 11.1990966796875
-24.42626953125 -23.2822265625 4.609619140625
-16.337890625 -65.2373046875 18.2926025390625
8.523193359375 -3.03125 7.8804931640625
24.260986328125 17.506591796875 2.64111328125
2.109619140625 -25.0302734375 4.90576171875
45.798828125 7.828857421875 -4.464599609375
6.705322265625 -8.126708984375 3.80224609375
-22.2861328125 -7.239990234375 3.9774169921875
-19.118896484375 -78.21142578125 1.4892578125
44.566650390625 10.8974609375 -2.116455078125
-33.873046875 -46.7236328125 30.7642822265625
-28.24853515625 -7.415771484375 3.556396484375
9.69140625 0.61083984375 11.0970458984375
8.457275390625 -38.76953125 -2.596435546875
36.649658203125 6.805419921875 -14.014404296875
1.651123046875 -26.845458984375 3.111328125
-31.359375 -71.365478515625 25.27783203125
-19.940673828125 -58.4951171875 12.6446533203125
-12.298583984375 -22.903076171875 4.8568115234375
-28.5869140625 -66.02099609375 23.528564453125
-26.347900390625 -49.3125 4.4757080078125
4.86962890625 -8.177001953125 3.677490234375
3.791748046875 1.76513671875 11.9388427734375
-19.205322265625 -24.63134765625 4.55419921875
-37.146728515625 -52.237548828125 18.5325927734375
10.283447265625 -29.55224609375 1.8521728515625
-31.384521484375 -31.031982421875 -1.6712646484375
7.80615234375 -41.114501953125 -2.3651123046875
-19.95263671875 -67.176025390625 -3.959716796875
-34.15869140625 -7.90869140625 2.626708984375
-3.93359375 -30.54638671875 -0.2991943359375
-32.797119140625 -62.823974609375 27.959716796875
-35.21142578125 -44.294189453125 22.5164794921875
-30.410400390625 -26.433349609375 4.3966064453125
-1.428466796875 -2.69873046875 8.224609375
-31.59716796875 -5.24560546875 7.2967529296875
-29.81201171875 -23.568115234375 10.364501953125
46.546142578125 3.8603515625 -2.2987060546875
-33.44873046875 -32.765625 4.310546875
-33.0634765625 -55.72021484375 31.027099609375
8.801025390625 -53.622314453125 8.593505859375
-19.423828125 -31.33642578125 -3.0203857421875
-30.858154296875 -38.026611328125 -2.9464111328125
-24.038818359375 -29.69091796875 0.0634765625
-0.46923828125 -7.168212890625 4.37158203125
-7.815185546875 -31.02880859375 -0.1539306640625
-34.01025390625 -52.519287109375 27.869873046875
-34.12646484375 -32.914306640625 1.254638671875
-33.802978515625 -58.435791015625 35.7042236328125
8.4111328125 -29.5556640625 1.7298583984375
-31.466796875 -58.78955078125 23.1033935546875
-32.760009765625 -36.28759765625 -1.7452392578125
-18.008056640625 -77.31494140625 9.20849609375
23.513916015625 -3.44091796875 4.705810546875
-32.686279296875 -26.925048828125 13.343505859375
14.07958984375 -8.261962890625 3.7611083984375
38.726806640625 14.2978515625 3.26025390625
-30.37255859375 -12.40087890625 0.897705078125
-36.35498046875 -38.337890625 1.656494140625
-12.542236328125 -7.306396484375 3.7596435546875
-12.3662109375 0.4951171875 11.231201171875
6.36083984375 -28.52392578125 1.9696044921875
-36.427734375 -45.892578125 16.935302734375
-8.001708984375 -49.260009765625 1.7830810546875
-30.8056640625 -44.3408203125 -0.953857421875
26.953857421875 14.630126953125 -4.9903564453125
6.404541015625 -35.746826171875 -1.904052734375
18.7529296875 -24.289306640625 -4.7872314453125
-3.917236328125 -17.277587890625 1.631103515625
23.05078125 8.9833984375 2.79248046875
1.156982421875 -31.104736328125 0.892578125
-13.324462890625 -77.226806640625 5.2593994140625
-14.562744140625 -29.2392578125 -0.466064453125
34.67578125 1.998291015625 -1.388427734375
7.126708984375 1.251708984375 11.509521484375
-6.56494140625 -10.82421875 1.6436767578125
-29.15966796875 -9.443603515625 2.041015625
-29.064208984375 -39.677978515625 -4.2369384765625
4.699951171875 -40.40869140625 0.9688720703125
-35.415283203125 -42.5009765625 17.3897705078125
32.756591796875 1.884033203125 0.63037109375
-13.9482421875 -23.013671875 4.818603515625
32.590087890625 5.203857421875 1.988525390625
29.100341796875 -4.23876953125 1.291259765625
21.186279296875 -5.727783203125 6.01318359375
31.800048828125 7.361572265625 3.0067138671875
-31.76806640625 -33.24072265625 10.75439453125
-32.972412109375 -55.398681640625 28.3153076171875
29.984130859375 9.77490234375 2.8441162109375
-35.83154296875 -62.861328125 33.489501953125
24.403076171875 -1.80810546875 4.6563720703125
-10.718017578125 -44.724365234375 4.0106201171875
-16.1416015625 -29.521728515625 1.6514892578125
-35.162353515625 -41.666748046875 20.72265625
-7.032470703125 -7.66015625 3.77001953125
9.68359375 -55.811279296875 7.09130859375
35.213623046875 -0.037109375 -0.453857421875
-21.153076171875 -55.257568359375 3.5706787109375
2.77587890625 -17.782958984375 1.7750244140625
-21.294921875 -27.89111328125 0.7432861328125
-8.79931640625 -31.68310546875 -1.2833251953125
25.944091796875 16.7578125 -3.60791015625
-34.012939453125 -45.45703125 19.1549072265625
-11.765625 -30.742919921875 -0.6431884765625
24.31640625 -9.515380859375 2.8140869140625
-5.016845703125 -4.06298828125 6.9859619140625
-27.68017578125 -43.781494140625 -5.1461181640625
-6.67822265625 -4.209228515625 6.94384765625
-10.757080078125 -29.591796875 0.4766845703125
-31.95166015625 -25.270263671875 13.2076416015625
3.61328125 -31.653564453125 -1.7481689453125
-36.695068359375 -49.027099609375 15.9183349609375
4.7548828125 -1.473388671875 9.048583984375
-34.442138671875 -51.681396484375 34.0806884765625
7.2294921875 -26.3095703125 3.4786376953125
13.751953125 -25.240966796875 2.240234375
25.528076171875 6.679443359375 1.272216796875
-33.846435546875 -34.3154296875 14.6722412109375
-14.430419921875 -75.11865234375 13.6654052734375
-15.90771484375 -79.072021484375 5.8282470703125
-6.484619140625 -15.35205078125 1.42529296875
-35.01171875 -51.322509765625 29.2308349609375
11.898193359375 -26.704833984375 1.6715087890625
23.624267578125 5.966796875 9.6651611328125
30.947265625 -0.06591796875 -0.399658203125
-3.033935546875 -31.629638671875 -1.771484375
-17.718505859375 -63.647216796875 12.873291015625
-17.435302734375 -71.312255859375 6.506591796875
-10.00830078125 -36.857177734375 -0.735595703125
24.671142578125 11.113525390625 7.4178466796875
17.051025390625 -12.0986328125 1.046142578125
9.646484375 -12.093505859375 1.6597900390625
16.069580078125 1.103515625 10.946044921875
10.598388671875 -27.448974609375 3.017822265625
28.842041015625 9.995361328125 0.0172119140625
-28.990234375 -5.114990234375 5.47119140625
15.658203125 -16.13330078125 1.4178466796875
26.340576171875 15.455810546875 5.088134765625
-31.551025390625 -41.10205078125 -1.6611328125
-16.50830078125 -31.37353515625 -1.622314453125
9.010498046875 -13.72509765625 1.335205078125
-31.356201171875 -21.884521484375 6.0399169921875
-25.232421875 -8.74462890625 2.59912109375
-0.611572265625 -24.54833984375 4.7061767578125
16.72314453125 -6.050048828125 5.8646240234375
-20.43408203125 -58.203125 4.76708984375
42.430419921875 -5.71826171875 -21.7823486328125
-34.103271484375 -14.203857421875 0.5299072265625
-2.2138671875 -14.5888671875 1.5416259765625
-36.211181640625 -43.791748046875 19.604736328125
-21.2802734375 -5.604736328125 5.0699462890625
25.835205078125 12.4208984375 -6.1070556640625
26.5400390625 13.730712890625 -2.59912109375
0.265869140625 -5.047119140625 6.311767578125
-15.55126953125 -69.939208984375 16.4052734375
-8.241455078125 -23.07421875 4.9166259765625
-16.359619140625 -65.736328125 15.02587890625
19.560546875 -6.63232421875 6.6290283203125
-20.859619140625 -59.47705078125 6.165771484375
-36.648193359375 -45.161376953125 15.1187744140625
-31.44921875 -27.378173828125 15.8358154296875
-14.925048828125 -54.699951171875 -1.3704833984375
-35.943603515625 -40.967529296875 8.934814453125
-18.7314453125 -5.849609375 4.7308349609375
23.815673828125 18.552734375 -0.8226318359375
-24.01123046875 -4.864013671875 5.7578125
-25.370361328125 -11.71484375 1.149658203125
5.69921875 -16.665283203125 1.481689453125
-34.596923828125 -55.17236328125 33.7218017578125
-22.59423828125 -27.532958984375 1.9390869140625
-13.771484375 -49.385986328125 2.8006591796875
-22.487548828125 -25.16796875 3.951171875
-29.04150390625 -64.000244140625 24.6961669921875
-27.671875 -37.6923828125 -3.43017578125
11.5341796875 -23.524169921875 3.954345703125
-7.6953125 -25.452392578125 3.302001953125
-14.753662109375 -31.203369140625 -2.048095703125
25.693115234375 -6.634033203125 3.011962890625
-36.0185546875 -43.356201171875 8.5281982421875
13.739501953125 -30.968017578125 0.3634033203125
17.927978515625 1.33251953125 10.529052734375
-21.9951171875 -2.9599609375 7.5235595703125
1.777099609375 -1.550537109375 9.2147216796875
-16.8974609375 -66.492431640625 8.730712890625
-33.98046875 -54.382080078125 30.244140625
15.94091796875 10.476318359375 -1.7230224609375
-10.85205078125 -33.406982421875 -1.9984130859375
-17.623291015625 -30.287841796875 0.1922607421875
-19.9189453125 -60.33349609375 13.324462890625
-16.135009765625 -50.842529296875 0.26611328125
-15.920166015625 -7.49560546875 3.602294921875
-34.615234375 -44.472900390625 28.3895263671875
7.80029296875 -1.0576171875 9.424560546875
-30.938720703125 -29.806396484375 3.220947265625
-4.953857421875 -9.780029296875 2.115234375
-33.411865234375 -6.431640625 4.578857421875
-35.461669921875 -44.946533203125 18.62060546875
16.884033203125 -3.6552734375 4.2569580078125
-13.8857421875 -25.336669921875 3.9486083984375
11.870849609375 -18.045654296875 2.302978515625
-17.19580078125 -64.249755859375 10.55322265625
6.368408203125 -45.714111328125 -1.9893798828125
-6.5341796875 -12.38427734375 1.7508544921875
21.42626953125 -25.791259765625 -6.2674560546875
7.612060546875 -18.3984375 2.26220703125
-20.566162109375 -58.669189453125 9.533203125
-13.118896484375 -1.931884765625 8.783203125
-6.8916015625 -35.81201171875 -1.4044189453125
-31.81787109375 -19.50146484375 4.000244140625
-33.72607421875 -34.802734375 -1.4583740234375
-37.7021484375 -38.779541015625 2.3236083984375
26.074462890625 1.38818359375 5.0260009765625
10.47412109375 -24.96923828125 5.4884033203125
-27.400146484375 -29.99169921875 -5.7781982421875
2.253662109375 2.010498046875 11.9671630859375
-21.001953125 -55.59423828125 9.0372314453125
41.947998046875 7.972412109375 -1.9913330078125
-30.17431640625 -44.85791015625 -3.623046875
-30.849609375 -66.291748046875 25.2371826171875
-28.428466796875 -42.464599609375 -4.68310546875
0.209228515625 -12.775390625 1.438232421875
-35.21533203125 -50.9052734375 23.5941162109375
-28.04736328125 -40.515869140625 -5.065185546875
15.488037109375 -0.811279296875 9.6041259765625
-34.00341796875 -50.344970703125 26.0545654296875
29.593505859375 8.63330078125 0.0076904296875
-27.805419921875 -26.82177734375 2.5506591796875
-9.48193359375 0.57763671875 11.0743408203125
-31.35791015625 -26.294189453125 10.5374755859375
-34.5078125 -48.52685546875 31.00390625
1.84521484375 -8.566162109375 3.3231201171875
6.52978515625 -30.926025390625 2.7308349609375
-12.19482421875 -3.878173828125 6.912109375
-32.3359375 -53.5849609375 28.0762939453125
31.554443359375 5.38818359375 -2.8837890625
-29.619140625 -21.543212890625 6.6903076171875
3.84033203125 -34.305908203125 -2.0048828125
-33.114990234375 -33.162841796875 16.1636962890625
19.02587890625 -8.2119140625 5.8323974609375
-11.46533203125 -24.05224609375 5.47900390625
-8.5546875 -46.83154296875 3.4197998046875
-31.273193359375 -7.7734375 3.571533203125
-14.43896484375 -0.213134765625 10.396240234375
-18.854248046875 -11.283935546875 1.357421875
-31.773681640625 -22.090576171875 4.2076416015625
-34.73193359375 -35.69921875 -0.010009765625
-35.038330078125 -46.25 26.597900390625
-26.33642578125 -24.34521484375 4.9493408203125
-27.676513671875 -29.1904296875 0.1910400390625
12.72802734375 -32.407470703125 -1.804931640625
-30.520263671875 -27.559814453125 3.35595703125
-16.03857421875 -78.138427734375 11.1309814453125
24.746337890625 4.519775390625 7.2440185546875
-34.967041015625 -48.767333984375 21.4324951171875
9.62646484375 -6.380615234375 5.060791015625
-29.004638671875 -27.934326171875 1.8106689453125
-29.00146484375 -73.003173828125 22.674560546875
-20.50341796875 -60.293212890625 3.248046875
21.423095703125 6.181640625 10.920654296875
-10.689453125 -58.920166015625 -7.39892578125
29.67041015625 10.20166015625 5.8150634765625
-33.985595703125 -38.2216796875 4.8404541015625
-25.593505859375 -6.21630859375 4.77001953125
27.345458984375 8.955810546875 -7.1419677734375
16.82666015625 -9.63525390625 1.85205078125
12.19580078125 -22.72509765625 5.406005859375
-29.20166015625 -17.69970703125 1.52587890625
41.1552734375 -9.348876953125 -27.0797119140625
27.684326171875 8.6123046875 5.708251953125
30.06591796875 -6.056396484375 2.4951171875
0.181884765625 -22.5126953125 5.111083984375
-33.650634765625 -28.226806640625 12.763671875
3.222900390625 -30.9501953125 0.0869140625
21.962890625 -3.50146484375 5.864990234375
-20.611328125 -38.84619140625 28.171875
-30.8857421875 -68.86083984375 26.5198974609375
-20.125244140625 -64.001708984375 -0.5399169921875
5.943359375 -37.15869140625 -1.59716796875
37.53662109375 -0.5859375 -0.6207275390625
29.83349609375 7.990478515625 -1.927001953125
-36.28759765625 -59.8408203125 30.1282958984375
13.2412109375 -16.463623046875 1.502197265625
-18.009033203125 -76.659423828125 4.287841796875
-21.11572265625 -23.645751953125 4.7786865234375
3.334716796875 -9.165771484375 2.7396240234375
-36.203369140625 -45.164794921875 12.7696533203125
-28.739501953125 -30.247802734375 -19.858154296875
8.65234375 -41.094482421875 -3.9644775390625
18.60302734375 -16.00927734375 1.1334228515625
-1.750732421875 -4.593017578125 6.54248046875
23.859619140625 -5.89453125 5.5687255859375
-23.524658203125 -30.635009765625 -1.096435546875
41.32861328125 12.982421875 1.703857421875
-8.003173828125 -37.392333984375 -0.9852294921875
-26.22802734375 -49.930419921875 1.4273681640625
29.677001953125 8.921875 4.812255859375
27.408935546875 12.40478515625 1.1392822265625
-14.14404296875 -75.400634765625 4.611083984375
10.818603515625 -0.978271484375 9.258056640625
8.728759765625 -44.2021484375 -4.3095703125
-26.7978515625 -40.4970703125 -4.2374267578125
-8.93701171875 -29.090087890625 0.5869140625
-34.943603515625 -47.560302734375 24.05859375
-7.443115234375 -27.97265625 0.973388671875
-8.492919921875 -34.0478515625 -2.5333251953125
-16.380859375 -67.734130859375 14.5977783203125
-35.7705078125 -54.93115234375 24.067626953125
6.0283203125 -13.26416015625 1.520751953125
-29.15625 -45.703369140625 -4.4525146484375
-3.2685546875 -23.738525390625 5.0487060546875
-30.427978515625 -30.409912109375 1.0076904296875
-18.580810546875 -1.181640625 10.7784423828125
-25.102783203125 -3.660400390625 7.0032958984375
2.605712890625 -16.102294921875 1.57861328125
15.345703125 -31.878173828125 -1.259033203125
23.616455078125 -7.102294921875 2.8040771484375
-31.42333984375 -66.599365234375 28.7119140625
-29.130126953125 -71.61962890625 23.578125
-35.906494140625 -7.857177734375 3.9825439453125
-14.609619140625 -81.824462890625 3.5946044921875
-14.828369140625 -74.38232421875 12.2540283203125
-4.94580078125 -13.075439453125 1.25634765625
-9.34130859375 -6.609375 4.275390625
47.474365234375 4.728515625 -3.3743896484375
-26.942626953125 -70.52685546875 21.1883544921875
26.983154296875 10.819580078125 -5.868408203125
-21.06298828125 -9.755859375 1.8560791015625
0.223388671875 -3.0400390625 8.278076171875
-36.9619140625 -40.801513671875 5.5872802734375
-33.005615234375 -24.337890625 5.5950927734375
28.99560546875 6.651123046875 -7.10302734375
-14.7314453125 -52.71337890625 0.2349853515625
-12.22998046875 -5.438232421875 5.418212890625
-34.956787109375 -43.459716796875 25.8800048828125
-32.654296875 -18.873046875 1.833984375
-34.98486328125 -53.18017578125 31.6072998046875
-13.529296875 -59.61181640625 -6.5458984375
-31.880859375 -24.790771484375 14.80615234375
-33.718017578125 -30.26025390625 11.285888671875
-17.24609375 -34.1123046875 -2.9945068359375
-34.745849609375 -58.296630859375 32.226806640625
-26.88134765625 -66.745361328125 22.593505859375
-30.072021484375 -69.35205078125 24.9345703125
15.106201171875 -9.9375 2.37158203125
-16.614501953125 -24.936279296875 4.2088623046875
-35.2802734375 -62.638916015625 34.9869384765625
7.844482421875 -35.970458984375 -2.0478515625
12.44091796875 -5.799560546875 5.245849609375
6.042236328125 -43.281005859375 -0.708984375
-31.23291015625 -72.9453125 24.9425048828125
-15.787353515625 -81.60595703125 6.6041259765625
8.020751953125 -45.606689453125 -3.6236572265625
-34.716796875 -53.433349609375 33.4805908203125
45.061767578125 2.44189453125 -4.1983642578125
7.612060546875 -24.05126953125 5.742919921875
43.862060546875 -9.92724609375 -26.070556640625
25.850341796875 11.75537109375 -3.4654541015625
-27.411376953125 -13.014892578125 0.8863525390625
-34.984619140625 -9.12939453125 1.6309814453125
-15.023681640625 -16.9287109375 1.6455078125
8.674072265625 -37.332275390625 -2.5262451171875
23.625732421875 0.97119140625 7.2371826171875
-19.554443359375 -26.81884765625 2.361328125
-34.48291015625 -57.293701171875 35.1011962890625
-15.80419921875 -73.416748046875 15.916015625
7.4072265625 -42.786376953125 -3.071533203125
-0.705810546875 -27.5615234375 1.0985107421875
-16.943115234375 -71.338623046875 16.64697265625
-15.148681640625 -9.991943359375 2.189453125
-20.0009765625 -65.173583984375 -1.9837646484375
-20.6083984375 -62.894775390625 1.736083984375
19.259033203125 -0.016357421875 9.314697265625
-18.31591796875 -68.661865234375 1.99560546875
1.642578125 -0.211181640625 10.105712890625
3.35546875 -3.81689453125 7.20751953125
-16.95263671875 -12.22900390625 1.12548828125
-32.488037109375 -51.43896484375 25.0557861328125
-33.194091796875 -32.82275390625 -0.7093505859375
-20.28564453125 -57.290771484375 11.249267578125
7.86083984375 -32.63525390625 -2.7232666015625
-20.584228515625 -66.86279296875 -0.676025390625
-34.22900390625 -51.4716796875 31.462646484375
-30.650146484375 -28.541748046875 -20.16455078125
44.163330078125 9.207275390625 -2.8306884765625
9.51318359375 -28.458251953125 1.310791015625
25.85546875 -5.60400390625 4.6688232421875
28.49853515625 -1.146484375 2.3865966796875
20.358154296875 2.365966796875 9.8975830078125
-27.47314453125 -30.930419921875 -20.02099609375
-14.66357421875 -71.795166015625 15.4859619140625
42.928466796875 13.56103515625 0.523681640625
-34.209716796875 -35.953125 2.9635009765625
18.537353515625 3.75244140625 11.8646240234375
42.89892578125 6.8798828125 -3.50634765625
-3.4501953125 0.236328125 10.3994140625
-0.260009765625 -30.890869140625 1.0303955078125
15.143798828125 -7.056884765625 4.909423828125
-19.698486328125 -55.934814453125 2.9864501953125
-19.311767578125 -58.946044921875 1.827880859375
23.232666015625 7.38330078125 8.8135986328125
29.959228515625 3.123291015625 0.986083984375
-31.833984375 -9.899658203125 1.790283203125
-22.837890625 -52.093994140625 11.312744140625
18.13623046875 -8.506591796875 4.750244140625
-16.914306640625 -69.52978515625 17.64208984375
6.000732421875 0.471923828125 10.8150634765625
-1.86279296875 -33.08251953125 -2.527587890625
9.905029296875 -16.80810546875 1.525634765625
-22.65283203125 -11.2607421875 1.400634765625
-11.505126953125 -48.02099609375 2.617431640625
-30.175537109375 -73.656005859375 23.5455322265625
2.09521484375 -7.494140625 4.479736328125
25.457275390625 -4.156982421875 3.8221435546875
11.1875 -14.802490234375 1.18359375
-19.778564453125 -62.48828125 -0.9302978515625
-29.579345703125 -71.2568359375 24.8846435546875
1.652587890625 -14.536376953125 1.4105224609375
-50.40966796875 -51.66650390625 -10.127685546875
-17.001220703125 -81.441650390625 5.2440185546875
-17.698974609375 -66.390625 11.4361572265625
-10.556884765625 -35.543212890625 -0.6385498046875
-29.28125 -8.1513671875 2.9012451171875
2.806640625 -25.594482421875 3.7913818359375
-11.91455078125 -58.443359375 -6.6241455078125
-4.821533203125 -32.2080078125 -3.414794921875
21.4970703125 -7.966064453125 4.1798095703125
28.607177734375 10.7158203125 7.787841796875
25.265380859375 3.7021484375 5.478759765625
-35.02880859375 -42.504150390625 24.6641845703125
27.646240234375 11.061279296875 -8.0777587890625
-27.377685546875 -4.651123046875 6.0294189453125
-16.2666015625 -58.77880859375 -2.5494384765625
-35.599365234375 -45.91943359375 21.8297119140625
-36.801025390625 -49.69091796875 19.6541748046875
-25.055908203125 -30.8076171875 -2.624267578125
31.95703125 0.9775390625 -0.3536376953125
29.2666015625 11.61181640625 4.9697265625
-33.569580078125 -26.91845703125 11.669189453125
19.839599609375 -2.42626953125 7.669189453125
-10.798583984375 -60.265869140625 -7.9290771484375
-19.208740234375 -64.210205078125 -3.1097412109375
-19.345947265625 -60.524658203125 0.3031005859375
4.904052734375 -31.630126953125 2.792236328125
24.078857421875 6.11474609375 6.21630859375
-19.364990234375 -21.248046875 3.7119140625
-18.555419921875 -22.382080078125 4.3253173828125
-0.29931640625 -9.26123046875 2.4962158203125
-26.48876953125 -18.801513671875 1.8831787109375
-50.86181640625 -50.25927734375 -8.99951171875
26.42578125 -1.672607421875 4.31640625
-31.46240234375 -64.875732421875 26.88623046875
-13.259033203125 -79.675048828125 4.35986328125
-25.08447265625 -68.10009765625 21.7625732421875
-26.369873046875 -63.72265625 23.82275390625
-35.396728515625 -43.06396484375 20.6671142578125
-28.533203125 -11.9716796875 1.089111328125
-12.868408203125 -51.7421875 0.3392333984375
9.48046875 -24.035400390625 5.8741455078125
-11.621826171875 -27.852294921875 1.386962890625
-28.87548828125 -29.965087890625 -1.6029052734375
14.103515625 -2.844970703125 8.2860107421875
-33.566650390625 -57.186767578125 36.32373046875
30.795654296875 8.753662109375 3.3895263671875
-34.916015625 -57.519775390625 27.083984375
-30.107177734375 -4.544921875 7.24462890625
3.157470703125 -30.281982421875 3.1990966796875
-36.64697265625 -43.889404296875 9.71337890625
2.60498046875 -23.97509765625 5.702392578125
14.59375 0.766357421875 11.07763671875
-35.8798828125 -65.41845703125 34.791015625
7.200439453125 -7.068115234375 4.59375
-13.899658203125 -29.5576171875 1.036376953125
-35.25732421875 -45.15234375 23.6348876953125
-9.697021484375 -12.085693359375 1.228515625
6.45458984375 -44.16796875 -2.0076904296875
-9.1630859375 -24.82763671875 3.8831787109375
-31.245361328125 -14.257568359375 0.427001953125
-15.508056640625 -63.75146484375 20.40966796875
-35.467041015625 -40.524169921875 19.339599609375
-14.0927734375 -32.595947265625 -2.0606689453125
-6.753662109375 -2.705810546875 8.9033203125
24.536865234375 20.3671875 2.685791015625
-22.03369140625 -22.583984375 4.61474609375
-17.442626953125 -62.46875 18.4383544921875
-33.65625 -40.927978515625 1.5899658203125
-15.599609375 -67.89208984375 18.4317626953125
25.98193359375 3.09765625 -1.4605712890625
23.838134765625 19.665771484375 0.710205078125
-21.104248046875 -68.2080078125 -2.0040283203125
-33.32568359375 -52.902099609375 26.20947265625
11.552001953125 -9.784912109375 2.7586669921875
2.71044921875 -12.037109375 1.4356689453125
-32.525390625 -39.774169921875 -0.8436279296875
-13.58154296875 -49.547119140625 1.3404541015625
-17.779541015625 -60.74853515625 -1.838623046875
-15.2978515625 -60.11572265625 -5.020751953125
18.38525390625 9.310791015625 -1.709228515625
10.137939453125 -7.84423828125 3.8758544921875
-32.255615234375 -56.2080078125 29.45263671875
5.353515625 -11.386474609375 1.520751953125
-23.212890625 -0.606201171875 10.168701171875
-31.90576171875 -57.674560546875 22.156982421875
-30.33837890625 -63.277587890625 26.4622802734375
-30.253173828125 -32.99755859375 -3.8876953125
-16.313720703125 -75.773681640625 6.444091796875
-8.90625 -13.533203125 1.3074951171875
-17.63134765625 -64.750244140625 6.5113525390625
-14.58349609375 -5.2119140625 5.3955078125
24.213623046875 11.001953125 8.7281494140625
26.740478515625 -0.181396484375 3.9141845703125
-16.344482421875 -66.545166015625 20.5791015625
52.054931640625 -0.98193359375 0.5948486328125
-27.46630859375 -32.18017578125 -6.7220458984375
5.378173828125 -41.093994140625 1.970703125
-8.24609375 -39.4853515625 -0.5020751953125
-13.012939453125 -47.861328125 3.2122802734375
-34.603515625 -63.987060546875 36.1634521484375
-35.630859375 -38.430908203125 8.44189453125
-1.8515625 -9.488037109375 2.549560546875
-7.989990234375 -9.740234375 2.21533203125
-17.562255859375 -19.919921875 2.7459716796875
-35.5986328125 -60.156005859375 34.5318603515625
23.429931640625 -7.408447265625 4.3001708984375
-0.26904296875 -16.720458984375 1.8636474609375
-20.251953125 -47.277099609375 -1.597412109375
-33.07470703125 -42.98486328125 2.123291015625
41.70751953125 6.701171875 -2.6217041015625
-7.449462890625 -5.407470703125 5.4560546875
-22.3447265625 -31.958740234375 -3.8702392578125
10.02099609375 -32.3251953125 -2.4412841796875
-17.17431640625 -13.59326171875 1.0601806640625
-28.903564453125 -15.072998046875 0.525390625
-34.468017578125 -56.352294921875 32.26171875
25.015869140625 14.807861328125 -4.0987548828125
-12.257568359375 -54.218505859375 -2.83837890625
-31.1474609375 -26.861572265625 5.4849853515625
-8.332275390625 -16.36865234375 1.32080078125
-35.2783203125 -41.5185546875 7.8560791015625
-24.6376953125 -27.998046875 0.5980224609375
-16.283203125 -69.646728515625 13.697265625
-15.1181640625 -28.780517578125 0.712158203125
-13.859130859375 -57.907958984375 -4.73583984375
-36.14453125 -39.388671875 4.4818115234375
-15.276611328125 -57.09130859375 -3.0560302734375
-14.75341796875 -74.864013671875 15.0775146484375
-33.444091796875 -37.090576171875 21.0487060546875
-11.7177734375 -1.762939453125 9.1925048828125
-15.250732421875 -62.11962890625 -6.995849609375
28.190673828125 4.116943359375 0.385498046875
-12.37548828125 -81.669677734375 9.9725341796875
-21.28076171875 -56.968994140625 7.3291015625
37.181640625 17.794921875 6.4259033203125
-34.712646484375 -38.153076171875 17.0157470703125
-34.66015625 -46.949951171875 29.6607666015625
-2.71630859375 -28.4765625 0.905517578125
-5.944580078125 -31.280517578125 -1.03271484375
-20.011962890625 -30.31005859375 -0.343994140625
4.05908203125 -6.8779296875 4.1392822265625
-35.614013671875 -57.779296875 24.4140625
-35.10400390625 -52.9921875 24.933349609375
44.62158203125 8.1552734375 -3.5833740234375
-20.907470703125 -34.70751953125 25.4554443359375
-12.671142578125 -25.939208984375 3.738037109375
21.610107421875 -8.62109375 6.4178466796875
6.666259765625 -41.446533203125 -0.935546875
-16.8388671875 -28.4609375 1.1268310546875
-19.459716796875 -60.19189453125 15.258056640625
-36.41259765625 -35.1748046875 4.5244140625
7.73193359375 -15.724609375 1.67626953125
-36.496337890625 -49.25048828125 20.91552734375
2.60693359375 -27.601806640625 2.1741943359375
-5.351806640625 -28.90966796875 0.2774658203125
-8.6748046875 -47.9951171875 2.33984375
22.75439453125 1.12109375 8.2801513671875
-31.35546875 -43.886474609375 0.21240234375
-16.494384765625 -30.646728515625 0.9603271484375
-36.529296875 -50.99658203125 19.9527587890625
-8.64404296875 -51.975830078125 -0.08447265625
-29.526611328125 -41.557373046875 -2.353759765625
-30.24462890625 -23.535888671875 12.692138671875
-18.691650390625 -82.51611328125 3.6446533203125
-30.8740234375 -22.66748046875 14.2974853515625
-30.68603515625 -43.9111328125 -2.4637451171875
3.958251953125 -23.073486328125 5.4661865234375
40.963623046875 16.674072265625 4.0013427734375
-23.282958984375 -2.4736328125 8.1689453125
-34.45947265625 -57.1318359375 23.556396484375
-26.818359375 -31.468017578125 -21.0863037109375
-18.82275390625 -29.681640625 0.4073486328125
-14.94091796875 -81.6376953125 8.259765625
-26.7431640625 -8.078857421875 3.07861328125
-30.90478515625 -67.488037109375 31.935302734375
-33.7060546875 -37.235595703125 2.8736572265625
-13.866455078125 -14.402587890625 1.220703125
-31.405029296875 -37.574951171875 -1.78662109375
-10.123046875 -55.978759765625 -4.5435791015625
-29.1337890625 -25.40283203125 3.636474609375
27.5 -2.853515625 2.9052734375
-24.80224609375 -26.109619140625 2.9725341796875
-35.540283203125 -42.90087890625 12.534423828125
-34.240478515625 -34.373779296875 1.2745361328125
29.5908203125 5.014404296875 2.2713623046875
-25.135986328125 -36.633544921875 -3.3656005859375
-18.206298828125 -8.15966796875 3.1529541015625
-30.96923828125 -39.3232421875 -3.4581298828125
-4.822998046875 -2.087890625 8.5733642578125
-24.497314453125 -14.595703125 0.887939453125
38.365966796875 -5.687744140625 -24.08837890625
26.2578125 1.68408203125 3.531494140625
-25.939697265625 -67.931396484375 22.79833984375
-17.868896484375 -61.689697265625 12.0997314453125
-29.14306640625 -68.48291015625 23.875244140625
18.063232421875 -3.694091796875 6.069091796875
-31.46142578125 -32.787841796875 11.991943359375
-10.41015625 -47.123291015625 2.752685546875
-22.208740234375 -13.31201171875 0.7928466796875
-13.512451171875 -25.918701171875 22.3856201171875
-24.90478515625 -30.962890625 -5.6171875
-26.634521484375 -27.25048828125 1.80908203125
26.69482421875 12.276123046875 -7.13916015625
-34.731689453125 -37.255859375 0.0933837890625
23.051513671875 6.43994140625 10.8800048828125
-16.140380859375 -23.904052734375 4.9874267578125
22.565185546875 -9.14990234375 2.771240234375
-35.065185546875 -41.205810546875 17.5374755859375
-0.85205078125 -0.977294921875 10.087158203125
35.84375 -1.343017578125 -0.5537109375
32.055419921875 4.238037109375 2.76220703125
26.1416015625 10.968017578125 7.2894287109375
16.88330078125 -30.650634765625 0.7159423828125
-14.41064453125 -73.102783203125 14.096923828125
-9.868896484375 -4.431884765625 6.407958984375
18.373779296875 -12.190185546875 0.818359375
46.26123046875 2.73974609375 -3.4969482421875
-29.4453125 -6.1298828125 4.7127685546875
-33.2431640625 -59.667724609375 36.78369140625
11.880615234375 -24.830078125 4.239501953125
-32.523681640625 -31.791748046875 4.356689453125
-33.806396484375 -56.308837890625 27.787109375
23.640625 10.25146484375 4.6888427734375
33.690673828125 -0.377197265625 -0.304443359375
-15.984619140625 -0.780029296875 9.9072265625
-33.32275390625 -27.66064453125 8.7447509765625
10.19970703125 -10.0341796875 2.4388427734375
-20.855224609375 -55.69970703125 5.930419921875
-34.051025390625 -11.4736328125 4.491455078125
-28.6552734375 -10.521484375 1.4259033203125
-34.9853515625 -38.445556640625 10.4747314453125
25.9677734375 17.871337890625 -2.0743408203125
12.024658203125 -31.147705078125 -1.2381591796875
-20.625244140625 -21.635986328125 3.9351806640625
-32.41552734375 -33.12353515625 -2.749267578125
-34.929443359375 -50.12548828125 28.6412353515625
26.296875 13.129150390625 -3.768798828125
-27.041259765625 -10.068603515625 1.9759521484375
-35.83837890625 -47.627197265625 16.417236328125
-36.22265625 -53.598876953125 20.9210205078125
14.951171875 -12.28515625 1.8543701171875
26.2578125 10.879638671875 -4.748046875
0.03515625 -28.64013671875 1.6328125
-7.749755859375 0.313232421875 10.678955078125
19.470947265625 -4.205810546875 5.3895263671875
-33.750732421875 -33.21484375 3.091552734375
-37.051513671875 -60.29296875 31.2613525390625
-34.140625 -7.000244140625 6.17431640625
40.314697265625 15.009033203125 3.6700439453125
-32.694091796875 -30.826904296875 -1.5347900390625
-33.682373046875 -16.390869140625 0.450927734375
-32.316650390625 -65.28955078125 29.6168212890625
-34.87451171875 -34.0185546875 4.46044921875
-16.9169921875 -6.2099609375 4.4144287109375
-17.08837890625 -27.0361328125 1.9234619140625
11.212890625 -12.368408203125 1.611328125
12.64697265625 -0.142333984375 10.3983154296875
38.513671875 16.607666015625 4.63330078125
-15.523193359375 -76.992919921875 5.4169921875
-31.89599609375 -24.68603515625 7.951416015625
-32.9052734375 -8.548828125 2.50537109375
-33.886474609375 -38.99609375 0.78369140625
-35.784423828125 -46.283447265625 20.109130859375
5.139404296875 -34.427734375 -2.2359619140625
-1.129638671875 -11.607177734375 1.5596923828125
8.086181640625 -11.81982421875 1.7081298828125
-20.95703125 -7.408203125 3.8494873046875
4.909912109375 -31.771728515625 -1.978515625
-17.255126953125 -68.254638671875 12.946533203125
-32.427490234375 -21.065673828125 3.6890869140625
-27.155029296875 -68.712890625 22.5504150390625
-36.462646484375 -44.93310546875 10.977783203125
1.99609375 -34.298828125 -2.117919921875
16.119384765625 -17.352783203125 1.232666015625
-34.193359375 -49.52099609375 31.86962890625
-19.470947265625 -64.43212890625 19.917236328125
-31.060791015625 -35.212890625 10.860107421875
42.83837890625 10.911376953125 -1.029052734375
-0.36376953125 -25.829345703125 3.3453369140625
-35.89404296875 -39.954345703125 7.3167724609375
-16.833740234375 -83.385009765625 2.760498046875
-23.824462890625 -10.69482421875 1.6102294921875
-24.6259765625 -12.976806640625 0.6993408203125
42.14404296875 -8.71337890625 -25.5057373046875
-9.520263671875 -32.699951171875 -1.6962890625
-19.021484375 -32.360107421875 -3.7373046875
37.400634765625 14.20166015625 4.047119140625
-16.389404296875 -70.782958984375 9.3409423828125
-25.574462890625 -42.0263671875 -4.8953857421875
44.98828125 4.6884765625 -2.72021484375
-16.9755859375 -68.8349609375 10.99609375
-17.204833984375 -70.937255859375 5.0179443359375
-35.2138671875 -41.22998046875 9.990478515625
-20.138916015625 -31.99951171875 -4.490966796875
4.8369140625 -15.682861328125 1.40771484375
-14.0771484375 -53.79052734375 -0.8671875
5.9794921875 -39.484375 -0.9307861328125
11.09130859375 -39.028076171875 -3.064208984375
-21.630859375 -31.466552734375 -1.869140625
-34.167724609375 -29.0498046875 8.2576904296875
