-32.449951171875 -27.03369140625 8.4183349609375
-32.614990234375 -51.3232421875 33.9952392578125
-2.408935546875 -3.399658203125 7.7542724609375
7.616455078125 1.122314453125 12.5533447265625
-34.70654296875 -53.507080078125 32.1263427734375
-9.21044921875 -11.96044921875 7.3616943359375
-18.593994140625 -60.833984375 20.167724609375
-31.33984375 -22.817138671875 8.86083984375
-19.70361328125 -60.469482421875 18.3021240234375
11.22900390625 -24.072021484375 6.011474609375
-27.30322265625 -23.02734375 6.5830078125
28.628662109375 13.45947265625 0.6912841796875
-20.47705078125 -25.8076171875 3.796142578125
-34.942138671875 -34.05126953125 13.897705078125
-16.566650390625 -47.4033203125 6.34912109375
-11.11328125 -3.365966796875 7.5484619140625
-17.538330078125 -24.546142578125 6.711669921875
-33.34814453125 -22.45166015625 18.687255859375
-23.90966796875 -22.17138671875 6.81005859375
-4.16455078125 -22.605712890625 7.296142578125
-33.69580078125 -23.404541015625 20.58984375
-20.3232421875 1.316650390625 11.084228515625
-0.49658203125 -9.091552734375 6.302490234375
-34.677001953125 -55.276123046875 33.933837890625
-37.157470703125 -41.516357421875 21.2713623046875
-36.674560546875 -36.677001953125 12.8909912109375
-26.705322265625 -28.3291015625 1.795166015625
-29.608642578125 -8.859375 5.952392578125
-11.642578125 -59.522705078125 -4.1552734375
-23.97314453125 -62.25830078125 19.1981201171875
20.42626953125 14.547607421875 3.15185546875
34.268310546875 7.44091796875 4.4478759765625
-13.418212890625 -9.68408203125 6.4283447265625
-14.239501953125 -28.56787109375 2.0308837890625
-11.632080078125 -25.76708984375 7.1719970703125
-22.09765625 -20.12353515625 9.430908203125
5.1875 -27.079833984375 2.2965087890625
-28.578857421875 -12.634765625 6.4454345703125
-33.70849609375 -41.412841796875 24.806884765625
21.312744140625 -3.427734375 7.714599609375
-7.5830078125 -44.79931640625 8.004150390625
14.0166015625 -11.86767578125 6.61376953125
-10.3359375 -0.21533203125 10.3984375
-20.543212890625 -54.88623046875 17.8199462890625
-18.588623046875 -29.686279296875 1.25048828125
-29.616943359375 -59.300537109375 29.927490234375
8.1494140625 -41.010986328125 0.7833251953125
-20.7109375 -59.114013671875 8.0101318359375
1.54296875 -10.910888671875 6.7255859375
-32.732421875 -10.933349609375 5.9576416015625
-32.4267578125 -13.10009765625 8.858154296875
-36.796630859375 -44.287109375 23.8837890625
-20.0400390625 -13.5771484375 7.3026123046875
-25.876708984375 -20.145263671875 8.875244140625
1.015625 -16.71923828125 9.8314208984375
-28.03955078125 -30.63720703125 2.0660400390625
-17.715087890625 -11.9296875 7.24072265625
27.04443359375 -2.64013671875 6.6297607421875
13.87890625 0.575439453125 13.072998046875
-2.92041015625 -17.671875 10.3887939453125
-36.79736328125 -39.534423828125 16.6646728515625
-21.51708984375 -62.062255859375 17.1680908203125
0.1298828125 -22.854736328125 6.5225830078125
-13.408203125 0.064697265625 10.3310546875
-20.324951171875 -76.82958984375 0.0357666015625
28.4013671875 4.287841796875 10.2581787109375
-28.66796875 -56.462158203125 29.281005859375
-17.893310546875 -58.197021484375 2.0213623046875
-6.703369140625 -18.375244140625 9.9775390625
13.009765625 -9.318115234375 6.862060546875
-25.665771484375 -58.814453125 27.3468017578125
-9.145751953125 -25.941650390625 4.726318359375
33.399658203125 7.536865234375 7.52734375
14.775390625 -27.532958984375 3.7724609375
-24.8974609375 -14.946044921875 8.1419677734375
-36.505615234375 -49.5390625 26.1639404296875
-34.831298828125 -33.91796875 6.2811279296875
-21.20263671875 -74.617431640625 -1.2052001953125
-11.864013671875 -12.0009765625 7.62939453125
26.263671875 20.8994140625 3.4586181640625
-2.15234375 -5.3330078125 7.0245361328125
5.4521484375 -19.660888671875 9.2960205078125
4.745361328125 -29.013916015625 2.6357421875
25.9482421875 -1.719482421875 9.010986328125
31.111328125 12.966552734375 6.873291015625
23.230224609375 -1.473388671875 11.4346923828125
-15.34033203125 -78.7529296875 9.8165283203125
32.19580078125 10.51806640625 4.5718994140625
23.242919921875 -3.359130859375 7.380615234375
-31.460205078125 -26.479248046875 6.5186767578125
-19.13720703125 -64.226318359375 -1.0118408203125
11.0224609375 -7.740478515625 7.0428466796875
10.580078125 -18.3583984375 10.48095703125
-6.83544921875 -25.452392578125 6.7403564453125
5.856201171875 -25.84619140625 6.8046875
-34.0634765625 -42.475830078125 28.3502197265625
-31.73291015625 -65.787841796875 32.2294921875
-16.564208984375 -64.853759765625 -3.9425048828125
3.15234375 -26.78515625 8.2198486328125
-6.683349609375 0.083740234375 10.801025390625
-16.3037109375 0.56298828125 10.85986328125
-34.33642578125 -35.000732421875 21.155517578125
-20.27294921875 -70.8388671875 5.4415283203125
-9.827392578125 -28.150146484375 1.8524169921875
-22.244873046875 -28.4111328125 1.2607421875
-34.2880859375 -31.541259765625 10.0447998046875
8.169921875 -9.48095703125 6.3284912109375
-35.325927734375 -48.76806640625 29.08056640625
-16.22216796875 -4.2880859375 7.208251953125
0.787353515625 -20.753173828125 8.3780517578125
-19.06884765625 -26.176513671875 5.2802734375
-11.031494140625 -57.556884765625 -3.3555908203125
-28.044921875 -16.89111328125 9.16357421875
15.17431640625 -4.08642578125 12.6341552734375
-12.144287109375 -14.528564453125 8.12353515625
-2.861083984375 -21.060546875 8.060302734375
-32.144775390625 -19.293701171875 16.1854248046875
-4.736083984375 -19.318603515625 9.2874755859375
-18.9892578125 -53.75830078125 7.755859375
17.596923828125 -11.572265625 5.776123046875
-12.112548828125 -56.6494140625 -1.0079345703125
30.585205078125 -2.38330078125 6.2374267578125
-33.28955078125 -7.231201171875 4.7845458984375
43.150146484375 12.7470703125 5.541748046875
-20.031005859375 -65.845458984375 0.574462890625
3.7734375 -8.556884765625 6.502197265625
-20.3681640625 -57.2412109375 8.1109619140625
-25.829833984375 -46.055908203125 7.7529296875
-30.378662109375 -66.620361328125 30.58251953125
-8.607421875 -6.4482421875 6.3817138671875
-11.78271484375 -26.30908203125 3.0037841796875
-14.362548828125 -72.4453125 15.9176025390625
-19.643310546875 -56.021728515625 6.427734375
-18.111572265625 -82.494873046875 6.0843505859375
9.856201171875 -11.521484375 6.5030517578125
-26.12939453125 -64.65673828125 26.4444580078125
-36.159912109375 -37.26806640625 16.4061279296875
-27.116455078125 -39.312744140625 0.2498779296875
1.954345703125 -7.091552734375 6.763916015625
28.44677734375 15.703125 5.586669921875
-28.069580078125 -14.716796875 17.6629638671875
5.187255859375 -35.81884765625 6.4246826171875
-35.605712890625 -33.72314453125 11.3455810546875
9.829833984375 -25.60302734375 3.6390380859375
44.525634765625 10.0859375 3.376708984375
-21.01171875 -54.121826171875 13.74072265625
8.4130859375 -23.00048828125 6.2183837890625
-13.703125 -74.362060546875 15.4307861328125
28.200439453125 3.635498046875 7.5672607421875
18.69384765625 -0.90478515625 12.6513671875
-20.742919921875 -58.865478515625 11.6435546875
-0.2861328125 -26.565673828125 5.9569091796875
-2.35595703125 -44.910400390625 10.9539794921875
-30.944580078125 -37.151611328125 2.585205078125
-15.56396484375 -76.15625 14.82958984375
4.028076171875 -19.187255859375 10.4130859375
-35.446533203125 -39.11962890625 20.19921875
4.468505859375 -1.805419921875 9.6312255859375
-33.68701171875 -31.2939453125 6.8719482421875
1.331298828125 -28.1005859375 2.9649658203125
-18.735595703125 -72.19580078125 3.410400390625
-9.971923828125 -46.799072265625 6.025634765625
-31.922607421875 -67.111083984375 28.9664306640625
-15.58740234375 -2.0810546875 8.4957275390625
-18.944091796875 -17.624755859375 9.871826171875
-17.60498046875 -79.7734375 9.4278564453125
-24.172119140625 -16.781982421875 9.287109375
5.560546875 -36.124755859375 3.552978515625
-36.31982421875 -57.84423828125 35.1287841796875
-28.5185546875 -68.2177734375 27.2012939453125
7.18408203125 -36.955078125 1.5167236328125
-13.36328125 -46.73779296875 8.9754638671875
-21.25048828125 -58.572265625 16.02392578125
-23.46044921875 -12.738525390625 7.9501953125
-27.313232421875 -2.52001953125 8.060546875
-15.83203125 -26.851806640625 2.902099609375
4.431640625 -21.655517578125 7.7095947265625
-12.43896484375 -19.492919921875 9.804931640625
-34.61181640625 -39.247802734375 27.648193359375
-19.74169921875 -65.514404296875 7.5369873046875
-15.711181640625 -17.595458984375 10.0234375
-9.061279296875 -54.861328125 -1.1988525390625
20.591552734375 15.510498046875 4.73486328125
13.9208984375 -1.371826171875 12.6971435546875
-34.07275390625 -8.927978515625 5.372314453125
7.507568359375 -25.271484375 5.2425537109375
-34.372802734375 -51.7568359375 31.1312255859375
7.95703125 -21.010498046875 8.9293212890625
-30.793212890625 -1.955078125 8.1104736328125
-35.139892578125 -57.045654296875 33.763427734375
-20.54345703125 -53.523681640625 15.5994873046875
-32.545166015625 -25.076416015625 10.236328125
4.103515625 -26.6962890625 6.2352294921875
-20.470947265625 -56.30859375 10.0689697265625
27.77001953125 18.407470703125 2.480712890625
-15.866943359375 -19.8955078125 9.5677490234375
20.076171875 -3.396240234375 11.6002197265625
3.461181640625 -25.9912109375 3.70654296875
-5.584716796875 -9.776123046875 6.5673828125
-13.597900390625 -25.831787109375 6.3740234375
-20.486328125 -64.16552734375 5.37158203125
-30.5576171875 -63.14794921875 31.7576904296875
-19.671875 -72.522705078125 1.761962890625
-24.64453125 0.316650390625 9.6903076171875
15.06494140625 -2.125 11.4090576171875
-18.430419921875 -27.38330078125 1.71337890625
-34.213134765625 -20.02392578125 13.2445068359375
-19.499267578125 -21.991455078125 7.2506103515625
10.29345703125 -15.84765625 9.62646484375
-16.171630859375 -55.9365234375 1.462158203125
-16.01318359375 -64.01171875 -5.6968994140625
-5.38916015625 -5.812255859375 6.4437255859375
19.064697265625 14.1494140625 1.8050537109375
-27.417236328125 -62.21142578125 28.0032958984375
17.788330078125 -16.23291015625 8.7481689453125
-32.21728515625 -39.863525390625 2.4215087890625
-19.552001953125 -42.310546875 3.489013671875
-16.156982421875 -22.07421875 7.47314453125
13.944091796875 -5.672119140625 8.295166015625
-35.088134765625 -44.902587890625 26.7677001953125
-29.367919921875 -65.287353515625 29.5704345703125
-20.253173828125 -54.522216796875 10.6131591796875
37.19677734375 4.112548828125 5.36767578125
18.424560546875 16.759033203125 4.3131103515625
-13.566162109375 -22.539794921875 7.199951171875
-16.40478515625 -15.099853515625 8.352294921875
-30.0625 -40.382080078125 1.383056640625
-10.407958984375 -16.49951171875 9.4256591796875
21.818359375 -5.277587890625 11.25830078125
-21.33056640625 -60.091552734375 14.49609375
-33.689697265625 -34.160888671875 9.1361083984375
-33.048828125 -3.574951171875 6.66650390625
8.626220703125 -5.64990234375 7.94873046875
-16.201171875 -77.849365234375 11.8414306640625
-21.00732421875 -56.123046875 13.366455078125
-5.70703125 -3.484619140625 7.6109619140625
-10.30029296875 -42.997314453125 10.779541015625
-2.8857421875 -25.96630859375 4.219970703125
10.485595703125 -4.45751953125 10.638916015625
9.412109375 -31.845947265625 2.6671142578125
10.581787109375 -0.3466796875 12.0079345703125
7.903564453125 15.739013671875 -33.4793701171875
-16.81591796875 -59.101806640625 -0.3187255859375
-15.604736328125 -60.82470703125 -3.5550537109375
-17.720947265625 -54.988525390625 4.5240478515625
-34.928466796875 -33.05078125 15.371337890625
-33.095703125 -32.994384765625 4.8680419921875
27.118896484375 18.7958984375 4.0947265625
-33.625 -51.3759765625 27.3662109375
0.382568359375 -2.866455078125 9.0557861328125
-13.17431640625 -55.361083984375 0.29150390625
-17.83935546875 -26.220703125 7.6497802734375
27.79345703125 22.0009765625 3.8543701171875
13.0224609375 -18.0439453125 9.9591064453125
-36.12109375 -42.584228515625 19.4970703125
-31.2421875 -10.010986328125 6.4176025390625
7.633056640625 -2.899658203125 10.7467041015625
-33.50439453125 -67.173583984375 30.523681640625
-32.525390625 -28.46142578125 5.426025390625
-4.126708984375 -46.390380859375 7.7740478515625
-34.139892578125 -36.2041015625 19.8372802734375
-5.807373046875 -12.00146484375 7.5858154296875
-14.77392578125 -52.53173828125 2.6898193359375
-32.02587890625 -19.16796875 12.6751708984375
-33.3095703125 -22.087158203125 16.10791015625
-14.600830078125 -50.410888671875 5.2647705078125
-17.90380859375 -66.65966796875 -5.2249755859375
23.193115234375 2.0400390625 11.7410888671875
-20.119384765625 -53.608642578125 12.2120361328125
-21.23876953125 -51.79052734375 20.806396484375
29.700927734375 13.28515625 -0.6771240234375
-19.087890625 -3.619873046875 7.23779296875
-26.718017578125 -25.763671875 4.6448974609375
-21.64794921875 -72.75048828125 3.0760498046875
42.177978515625 14.38427734375 6.951416015625
-33.85205078125 -11.679931640625 7.246826171875
5.71875 -39.51708984375 6.98193359375
-28.954833984375 -3.669677734375 7.0123291015625
-29.564208984375 -15.050048828125 7.9688720703125
-31.385498046875 -14.841796875 7.6998291015625
-31.772216796875 -32.552001953125 2.6998291015625
-31.062255859375 -35.312255859375 3.387451171875
5.83544921875 -38.69921875 4.39404296875
16.46826171875 -3.39111328125 11.3526611328125
-34.82958984375 -27.59521484375 11.3907470703125
-25.99365234375 -8.535400390625 5.9019775390625
-27.7607421875 -6.025146484375 6.00830078125
-29.430908203125 -0.2412109375 9.4268798828125
-29.4130859375 -16.1591796875 18.3753662109375
-29.08837890625 -18.1455078125 16.199462890625
-34.352783203125 -47.719482421875 30.228271484375
-34.187255859375 -54.074951171875 29.87841796875
-28.159423828125 -22.474365234375 7.9859619140625
-32.521240234375 -37.75244140625 5.6231689453125
7.24267578125 -0.693115234375 10.8717041015625
-20.004150390625 -50.8857421875 14.718017578125
-33.379150390625 -49.618896484375 32.1939697265625
-33.513671875 -38.79052734375 21.558837890625
-25.51025390625 -33.9130859375 0.9615478515625
-33.202880859375 -25.781005859375 13.412353515625
-8.10107421875 -23.5009765625 6.29052734375
-18.955322265625 -1.6865234375 8.7044677734375
-28.15625 -11.125732421875 7.1270751953125
-16.699462890625 -80.3720703125 7.9493408203125
-19.541015625 -53.49462890625 9.45361328125
-32.25244140625 -21.155029296875 18.842041015625
-21.72705078125 -50.323974609375 17.7005615234375
-4.96435546875 -25.797119140625 4.3912353515625
-25.57763671875 -28.60400390625 0.552490234375
-14.0927734375 -58.622802734375 -2.18310546875
-37.92138671875 -43.8203125 20.403076171875
-20.992919921875 -78.18896484375 -0.8424072265625
-36.038330078125 -35.34375 13.7452392578125
28.91357421875 0.308349609375 7.140869140625
-31.77099609375 -27.0224609375 4.3175048828125
-28.80029296875 -20.21337890625 9.914306640625
28.732177734375 -1.64208984375 7.1217041015625
-11.947509765625 -0.617919921875 9.8450927734375
6.979736328125 -22.34814453125 6.8121337890625
-29.9052734375 -26.92578125 3.565673828125
-19.815185546875 -76.47509765625 5.073974609375
-14.509521484375 -24.35205078125 6.6890869140625
-19.62060546875 -69.052490234375 9.444580078125
-21.278564453125 -70.166259765625 0.023681640625
-29.84033203125 -17.685302734375 17.68603515625
-2.726806640625 -10.55322265625 6.9730224609375
-30.259033203125 -18.992919921875 13.3927001953125
-11.570556640625 -52.7255859375 3.260498046875
-21.036376953125 -70.801513671875 -2.8907470703125
46.005615234375 8.985595703125 2.7603759765625
-13.791015625 -26.177490234375 4.7301025390625
-11.385498046875 -50.40771484375 5.319091796875
13.640869140625 -4.999755859375 11.6895751953125
2.051025390625 -19.6826171875 9.143310546875
-11.520263671875 -22.529541015625 6.5179443359375
-23.30517578125 -24.951171875 6.4046630859375
-21.14501953125 -1.40283203125 8.7001953125
27.74658203125 14.8046875 1.103515625
-12.011474609375 -8.794921875 5.787841796875
14.508056640625 -4.183349609375 9.0928955078125
15.341552734375 -12.80224609375 3.8887939453125
-25.8701171875 -61.621337890625 27.9835205078125
9.370361328125 15.09912109375 -34.0325927734375
-20.11962890625 -62.651611328125 9.1837158203125
-34.305908203125 -40.450439453125 23.2349853515625
-32.1240234375 -38.2177734375 3.3824462890625
2.031494140625 -1.4228515625 9.541748046875
-31.38232421875 -18.7236328125 14.62646484375
14.41259765625 -8.154541015625 7.182373046875
-21.5595703125 -56.1279296875 17.2108154296875
-31.6484375 -29.709228515625 3.08251953125
-21.875 -13.2275390625 8.05712890625
17.203369140625 -8.169189453125 3.7994384765625
33.521240234375 9.365234375 4.4154052734375
35.981201171875 5.195068359375 5.607421875
18.64697265625 -4.813720703125 8.679931640625
-27.30126953125 -13.56298828125 6.890869140625
-36.597412109375 -46.4482421875 23.6982421875
14.081787109375 -28.932373046875 2.8837890625
-25.065185546875 -16.088134765625 17.8385009765625
-20.9501953125 -56.994873046875 15.582275390625
-14.757080078125 -13.034912109375 6.7733154296875
6.293701171875 -9.3720703125 6.1351318359375
-19.58984375 -54.596923828125 21.1190185546875
10.256591796875 -35.4189453125 0.791748046875
-22.69189453125 -63.49755859375 15.93359375
-30.75634765625 -7.033447265625 5.522216796875
-33.080322265625 -55.923095703125 31.3990478515625
-25.660888671875 -4.9189453125 6.365234375
-30.32763671875 -16.658935546875 11.115478515625
-17.702392578125 -4.768798828125 6.7449951171875
16.230712890625 -16.56787109375 9.3341064453125
-4.24951171875 -16.052978515625 9.3988037109375
-20.390869140625 -69.028564453125 1.06005859375
-34.361328125 -23.045654296875 14.92822265625
0.041259765625 -27.193603515625 2.593017578125
9.629150390625 -8.8994140625 6.72412109375
12.377685546875 -18.781005859375 8.5404052734375
-22.24658203125 -74.521240234375 1.7471923828125
-19.245361328125 -54.45849609375 18.6875
2.114990234375 -0.072265625 11.565673828125
-1.036865234375 -0.50634765625 10.525390625
-9.579345703125 -20.857177734375 8.7332763671875
19.021484375 14.100830078125 3.81201171875
6.64990234375 -26.523681640625 2.687744140625
9.6279296875 -40.100830078125 0.1121826171875
-5.687255859375 -26.412109375 2.9268798828125
-32.725341796875 -45.181396484375 29.04736328125
-10.5859375 -25.94921875 5.8253173828125
-25.04052734375 -26.34326171875 3.2901611328125
-19.99267578125 -63.9541015625 10.9420166015625
-4.14794921875 -12.49853515625 7.694091796875
43.38916015625 9.027587890625 3.76513671875
-36.534912109375 -36.524169921875 15.04052734375
12.939453125 -25.837158203125 5.1195068359375
-34.978515625 -66.24853515625 29.3623046875
-4.8837890625 -43.593505859375 10.2432861328125
6.1748046875 -30.031494140625 3.092529296875
44.822998046875 11.947509765625 3.4837646484375
-32.14013671875 -28.51025390625 14.90283203125
27.53271484375 4.571533203125 5.5504150390625
25.22216796875 3.089599609375 11.42138671875
-9.9140625 1.162841796875 11.6068115234375
-28.224365234375 -29.23681640625 1.3355712890625
-31.76806640625 -27.49072265625 17.1458740234375
23.022705078125 -3.0927734375 10.3463134765625
27.907958984375 2.202392578125 9.53173828125
-18.6279296875 -6.553955078125 6.2431640625
-3.313232421875 -1.09375 10.0709228515625
14.51611328125 -17.640380859375 10.90283203125
-1.89501953125 -7.270263671875 6.2933349609375
-18.46728515625 -84.096435546875 3.83447265625
0.101806640625 -18.41748046875 10.370849609375
-3.524169921875 0.98779296875 11.8388671875
33.276123046875 9.171875 7.373291015625
-37.611083984375 -42.299072265625 19.96826171875
9.71142578125 -38.192138671875 0.588134765625
-10.279541015625 -49.2001953125 4.4119873046875
-6.16162109375 -19.87939453125 8.8907470703125
-29.033203125 -33.933837890625 1.6251220703125
12.435791015625 -21.4609375 10.2977294921875
-34.447509765625 -29.14306640625 10.7625732421875
-29.49072265625 -41.39794921875 0.3165283203125
27.251708984375 15.733154296875 2.281982421875
-20.929931640625 -6.166748046875 6.16650390625
10.911376953125 -23.079345703125 8.3577880859375
20.5224609375 -1.80224609375 12.3201904296875
-19.23486328125 -68.9150390625 2.864501953125
-19.607177734375 -63.631103515625 16.48046875
-7.57177734375 -9.012451171875 6.2196044921875
7.35595703125 -33.340576171875 2.9923095703125
7.894287109375 -40.260009765625 2.14501953125
-6.5986328125 -21.43994140625 8.185791015625
-17.863037109375 -84.58203125 5.3271484375
-22.4697265625 -3.52587890625 6.9405517578125
-6.4833984375 -16.291748046875 9.470703125
3.24365234375 -4.653564453125 7.9739990234375
8.43701171875 -18.205078125 10.6397705078125
-3.849365234375 -23.9248046875 6.0391845703125
-33.3857421875 -29.807861328125 6.4573974609375
-34.455078125 -34.651123046875 7.6190185546875
8.371826171875 -26.889892578125 2.2579345703125
-20.2021484375 -68.40625 7.4256591796875
-33.65478515625 -26.570068359375 12.1337890625
-34.983642578125 -2.77685546875 7.7509765625
-32.276611328125 -19.258056640625 10.4683837890625
10.551025390625 -19.925048828125 10.5538330078125
-9.26416015625 -19.375732421875 9.875244140625
-35.583740234375 -59.77880859375 37.495361328125
-19.993896484375 -66.026123046875 3.736083984375
32.5185546875 9.338134765625 10.004150390625
-19.442138671875 -59.46484375 19.4718017578125
-34.994873046875 -38.49072265625 26.2421875
-20.32177734375 -61.767578125 5.841796875
-21.603271484375 -77.32080078125 0.7884521484375
-19.679443359375 -63.1494140625 2.7138671875
12.23095703125 -6.0751953125 7.729248046875
-12.67626953125 -3.452880859375 7.51806640625
-19.640869140625 -60.8427734375 3.6287841796875
-18.80517578125 -59.7255859375 2.033203125
-8.631591796875 -4.7080078125 7.268310546875
-18.055419921875 -52.94287109375 6.764892578125
-16.097900390625 -50.703857421875 5.8448486328125
-19.048095703125 -65.345947265625 -2.436767578125
-11.6337890625 -45.557861328125 8.489013671875
-32.614013671875 -23.84912109375 12.6439208984375
-19.972900390625 -68.78955078125 -4.38427734375
-23.164306640625 -60.607177734375 19.099609375
47.41162109375 9.864501953125 2.5382080078125
21.216064453125 -3.827392578125 9.2315673828125
-6.974365234375 -5.8955078125 6.4150390625
12.09228515625 -10.85595703125 6.8740234375
-19.7265625 -58.624755859375 4.9853515625
12.761962890625 -22.80712890625 9.015380859375
-23.3369140625 -58.981689453125 19.381591796875
-35.568603515625 -46.89111328125 28.7259521484375
-28.7119140625 -32.312255859375 2.235107421875
13.146728515625 -4.30126953125 10.289794921875
-22.38720703125 -18.667236328125 10.146240234375
-4.34375 -27.370361328125 1.809326171875
-18.578369140625 -21.400390625 8.345458984375
-32.0791015625 -59.775390625 34.1187744140625
21.1220703125 0.509033203125 12.0565185546875
28.77734375 3.433349609375 8.9791259765625
-14.703125 -10.501953125 6.635986328125
7.2734375 -38.8310546875 2.19384765625
-30.958984375 -59.38916015625 31.1171875
-25.5224609375 -19.2548828125 10.072265625
9.137451171875 1.310546875 12.510009765625
21.168701171875 13.298095703125 2.6644287109375
-23.13525390625 -9.931640625 6.4486083984375
15.968505859375 -11.16064453125 5.7529296875
-11.001708984375 -24.37060546875 6.4725341796875
-17.154541015625 -26.0771484375 4.518310546875
-7.605712890625 -27.93994140625 1.762451171875
-35.2197265625 -32.54248046875 13.061279296875
-37.042236328125 -45.273193359375 22.7427978515625
-6.7177734375 -1.09814453125 9.8369140625
4.43701171875 -0.3603515625 11.578369140625
-30.75 -62.907958984375 34.3067626953125
35.123046875 6.3203125 5.0263671875
2.007568359375 -26.7216796875 3.8404541015625
-32.57080078125 -20.815673828125 15.4979248046875
-30.8779296875 -23.72216796875 7.7265625
-29.3408203125 -61.036865234375 29.7459716796875
19.294921875 15.704345703125 6.45068359375
-8.023193359375 -26.024658203125 5.989501953125
-20.837158203125 -58.83935546875 13.157470703125
-19.43994140625 -67.057861328125 6.79541015625
-25.013427734375 -59.656982421875 28.4259033203125
-32.943115234375 -0.98486328125 9.0372314453125
-19.010986328125 -14.96728515625 8.1025390625
-28.275390625 -24.246337890625 6.005859375
-7.38330078125 1.17333984375 11.7869873046875
24.42529296875 -4.449951171875 7.14599609375
9.542236328125 -7.43359375 7.099853515625
-29.8642578125 -36.859375 1.2681884765625
-31.51220703125 -19.88037109375 18.22900390625
-37.8974609375 -41.76318359375 17.6298828125
18.6103515625 -2.609375 11.6527099609375
-35.2109375 -33.32275390625 9.541259765625
-27.38427734375 -1.280029296875 8.92138671875
-23.0810546875 -25.808349609375 4.072265625
-34.453857421875 -36.989501953125 25.443603515625
21.9541015625 -4.794189453125 7.6748046875
0.428466796875 -5.3427734375 7.1920166015625
-34.154541015625 -45.173583984375 30.1328125
-31.226318359375 -16.366455078125 8.9417724609375
-18.55810546875 -59.609619140625 21.16650390625
-19.95458984375 -65.438232421875 2.1591796875
31.501220703125 -1.640380859375 7.2950439453125
-29.804443359375 -22.59912109375 8.3839111328125
-9.484130859375 -57.15771484375 -2.89404296875
-34.79296875 -7.464599609375 5.2574462890625
11.879150390625 -26.7587890625 3.451416015625
-28.178466796875 -36.40673828125 -0.1580810546875
-3.98974609375 -9.69970703125 6.596435546875
16.474609375 -3.960693359375 9.8309326171875
-16.8876953125 -62.611328125 -2.2203369140625
-15.397216796875 -56.410400390625 -0.0687255859375
-30.533935546875 -29.11865234375 2.2840576171875
-22.433349609375 -21.72021484375 7.2757568359375
-5.747802734375 -24.436279296875 6.3648681640625
16.5126953125 -6.1572265625 6.868408203125
-26.45703125 -57.421630859375 29.34765625
-12.51953125 -47.62353515625 6.990478515625
-33.991455078125 -5.626708984375 5.6712646484375
-33.2353515625 -27.62841796875 4.36669921875
-32.61474609375 -27.37109375 6.8038330078125
20.29833984375 -3.08984375 10.1641845703125
27.108642578125 5.13427734375 11.47509765625
-18.798095703125 -22.928466796875 5.7490234375
-35.55615234375 -43.848876953125 24.744140625
27.8720703125 0.975341796875 8.53076171875
-27.903564453125 -9.973876953125 6.20654296875
-19.864501953125 -51.96630859375 15.9501953125
9.621337890625 -21.126953125 9.4970703125
-27.630615234375 1.284423828125 10.5621337890625
-17.19873046875 -1.773681640625 8.8974609375
-35.894287109375 -49.449951171875 27.6640625
-17.2763671875 -26.8212890625 2.4466552734375
-18.82275390625 0.2470703125 10.171142578125
-29.322021484375 -39.09521484375 0.77783203125
2.3408203125 -26.8193359375 6.6519775390625
11.138916015625 -4.67724609375 8.491943359375
-21.453857421875 0.720703125 10.349609375
-16.610595703125 -66.257080078125 -4.4068603515625
5.051513671875 -5.06591796875 7.6424560546875
-21.2734375 -25.8544921875 6.8310546875
-13.37646484375 -62.41796875 -6.1429443359375
15.093505859375 -6.593017578125 7.533935546875
-33.589111328125 -57.16943359375 32.760009765625
-33.940185546875 -30.453369140625 3.587890625
-0.953369140625 0.998046875 12.0211181640625
-24.08544921875 -1.6689453125 8.7156982421875
-28.654052734375 -18.32666015625 14.4666748046875
-28.74658203125 -62.10302734375 28.6536865234375
5.2783203125 -22.889892578125 6.777099609375
5.58056640625 -38.132080078125 6.2889404296875
-1.456298828125 -18.88720703125 9.8868408203125
-35.88525390625 -46.51953125 26.866455078125
33.161376953125 10.060546875 6.2252197265625
-17.73291015625 -81.60986328125 7.33984375
15.30029296875 0.85546875 12.945556640625
-34.753662109375 -52.9814453125 33.654541015625
-32.763916015625 -9.379150390625 5.8153076171875
-36.798095703125 -38.604736328125 15.547607421875
9.467041015625 -34.755615234375 1.8155517578125
12.67529296875 1.325439453125 12.7598876953125
-20.249267578125 -62.1083984375 12.2169189453125
-20.6572265625 -19.972900390625 9.3836669921875
0.871337890625 -7.78369140625 6.0963134765625
-2.029296875 -22.283935546875 7.13623046875
-16.91259765625 -7.981201171875 5.986572265625
-24.730712890625 -40.2626953125 1.4112548828125
10.44091796875 -23.416748046875 7.0301513671875
-27.408203125 -15.973388671875 17.2064208984375
-15.0009765625 -77.551025390625 13.16748046875
-1.0791015625 -23.607177734375 6.2923583984375
-20.505615234375 -59.246337890625 6.58984375
-36.12451171875 -40.918701171875 27.75634765625
40.633544921875 13.751953125 6.546875
-34.4267578125 -28.93359375 8.7183837890625
-26.89794921875 -63.978759765625 27.4527587890625
5.6103515625 -0.787109375 10.8343505859375
-9.496826171875 -50.76953125 2.9442138671875
-28.31982421875 -27.27783203125 3.155029296875
-34.3662109375 -37.113525390625 21.3211669921875
-11.75830078125 -53.94677734375 1.13427734375
-28.343505859375 -25.750244140625 6.0709228515625
-34.241455078125 -37.13720703125 24.033935546875
-24.47412109375 -59.478759765625 21.2867431640625
27.046630859375 -2.064453125 8.1619873046875
-32.154052734375 -61.383544921875 34.217041015625
-14.583251953125 -53.948486328125 1.8682861328125
-0.841796875 -1.876708984375 9.718994140625
29.07568359375 6.024658203125 10.0765380859375
-24.18798828125 1.125 10.9532470703125
-32.198486328125 -67.579345703125 32.0565185546875
-26.4150390625 -59.13671875 29.530517578125
-26.633544921875 -61.49560546875 24.7388916015625
-26.068359375 -32.72802734375 1.518798828125
-20.375 -75.097900390625 -0.1068115234375
21.83154296875 -1.26708984375 11.5689697265625
-13.263916015625 1.148681640625 11.368408203125
23.906494140625 0.2646484375 11.2525634765625
-26.052001953125 0.1376953125 9.736083984375
-35.04345703125 -50.417236328125 31.5821533203125
33.692138671875 7.25732421875 6.167724609375
-30.54638671875 -64.15283203125 32.943359375
-29.29736328125 -68.656005859375 28.3009033203125
-19.295654296875 -74.789306640625 2.681640625
-11.2578125 -18.74609375 10.035888671875
10.540771484375 -25.467041015625 5.125732421875
-31.33056640625 -23.713134765625 9.9564208984375
-17.91943359375 -10.55859375 6.49853515625
-34.781982421875 -37.54736328125 18.9732666015625
13.7451171875 -23.97998046875 7.6221923828125
-16.688232421875 -23.352294921875 6.1795654296875
-19.1240234375 -62.309326171875 0.9495849609375
-24.510986328125 -61.2431640625 16.088134765625
-11.1982421875 -6.03564453125 6.6558837890625
-31.37646484375 -20.394775390625 10.6800537109375
12.609130859375 -24.315185546875 5.8682861328125
-19.98193359375 -61.032958984375 20.2864990234375
17.262939453125 -4.602783203125 8.8179931640625
-25.586669921875 -25.2041015625 5.3763427734375
-15.263427734375 -47.86572265625 6.734130859375
26.891357421875 21.391845703125 2.302734375
-12.69384765625 -59.13671875 -3.3092041015625
26.09814453125 -0.421630859375 9.56005859375
-13.408203125 -60.80029296875 -4.7088623046875
-12.244140625 -43.6064453125 10.03759765625
-34.0986328125 -43.7314453125 28.97314453125
6.296875 -34.06005859375 3.912353515625
25.5673828125 -4.30908203125 6.3016357421875
-5.849609375 -45.26318359375 9.1846923828125
-22.0322265625 -75.249755859375 -2.2330322265625
-35.623291015625 -30.205810546875 11.5572509765625
20.8896484375 12.270751953125 1.5223388671875
-27.09765625 -66.511962890625 25.9130859375
-19.705078125 -53.124267578125 18.7955322265625
24.94384765625 23.03369140625 3.5445556640625
-9.4931640625 -47.93359375 5.37255859375
-11.251708984375 -61.07861328125 -6.39501953125
-28.932373046875 -65.635986328125 28.295166015625
-16.771240234375 -82.8349609375 5.9404296875
-32.462158203125 -34.44287109375 4.905029296875
-20.560546875 -68.02099609375 -1.1953125
-33.198974609375 -26.575439453125 9.8988037109375
17.202880859375 -17.390625 6.870849609375
-3.658203125 -25.49365234375 5.746337890625
11.919189453125 -28.752685546875 3.06201171875
-18.26318359375 -57.357177734375 3.2786865234375
2.84228515625 -21.22509765625 7.6824951171875
1.968994140625 -25.974609375 7.9163818359375
18.477294921875 -8.6240234375 4.6300048828125
-33.331787109375 -25.0224609375 15.8265380859375
-9.95849609375 -6.7109375 6.5142822265625
-10.68310546875 -42.813232421875 9.46435546875
-34.6474609375 -30.76904296875 12.8048095703125
-33.7412109375 -22.775634765625 17.40283203125
10.703857421875 -33.822021484375 1.5130615234375
-20.115478515625 -55.964111328125 21.393798828125
-15.860595703125 -24.593017578125 6.8218994140625
-5.458984375 -1.609375 9.1829833984375
18.179931640625 -5.9072265625 6.3677978515625
-13.390625 -75.942138671875 14.681396484375
-19.89306640625 -65.99560546875 9.0458984375
-31.142333984375 -57.9580078125 31.9295654296875
-24.156982421875 -62.56298828125 17.4984130859375
-14.46142578125 -20.219482421875 9.516357421875
-29.2109375 -7.502197265625 5.6220703125
-15.95068359375 -26.255859375 5.849853515625
6.2861328125 -16.812744140625 10.1900634765625
-30.622802734375 0.25341796875 10.0616455078125
-20.434326171875 -72.458984375 0.20849609375
-0.708984375 -26.21044921875 7.2117919921875
8.558349609375 -37.21923828125 1.3662109375
-11.129150390625 -26.177734375 4.4525146484375
-19.999755859375 -69.644287109375 6.069580078125
-12.17431640625 -45.10400390625 9.6634521484375
16.213134765625 -11.745849609375 3.8712158203125
-20.653076171875 -75.68212890625 1.837158203125
9.360107421875 -10.251708984375 6.626953125
-19.8232421875 -73.013427734375 3.2635498046875
-20.342529296875 -4.27734375 6.935302734375
-16.307861328125 -79.27685546875 8.6700439453125
10.669677734375 -1.80712890625 11.635986328125
-21.92626953125 -70.191162109375 5.3365478515625
-14.6787109375 -57.378173828125 -1.6068115234375
5.536865234375 -13.606201171875 7.952880859375
7.5634765625 -22.108642578125 8.216796875
-26.834228515625 -36.05859375 0.7244873046875
-12.953125 -26.875244140625 2.264892578125
-22.285400390625 -61.388427734375 18.1776123046875
-36.335205078125 -7.154541015625 5.6561279296875
-7.130615234375 -3.35107421875 8.181396484375
8.1083984375 -32.184814453125 2.891845703125
-20.86279296875 -69.309326171875 -2.8685302734375
-17.256103515625 -60.673583984375 -1.0286865234375
-17.150390625 -57.055908203125 1.9222412109375
-17.935546875 -65.044677734375 -3.7930908203125
-15.333740234375 -59.640380859375 -2.932373046875
-16.84423828125 -54.665771484375 3.528564453125
-17.354736328125 -58.6494140625 0.851318359375
-10.914794921875 -27.04541015625 2.09033203125
-38.3515625 -40.731689453125 15.658203125
-19.9833984375 -51.985107421875 9.04638671875
-21.921142578125 -8.56787109375 6.1683349609375
-13.302490234375 -57.1767578125 -1.753173828125
5.060302734375 -20.755615234375 8.5858154296875
-35.07177734375 -52.449462890625 28.544921875
-26.87890625 -18.123046875 13.6441650390625
-26.609375 -43.812744140625 10.1566162109375
-21.91552734375 -21.48779296875 8.6336669921875
-36.02734375 -37.267822265625 23.276611328125
-9.102294921875 -44.010009765625 8.5103759765625
-20.713623046875 -56.647705078125 19.9642333984375
-16.12744140625 -67.20751953125 -5.587158203125
-30.473388671875 -69.170166015625 27.49951171875
-3.89111328125 -18.61767578125 10.3214111328125
-24.929931640625 -60.97998046875 18.9583740234375
11.485107421875 -4.22607421875 9.723876953125
-32.220703125 -2.430908203125 7.6539306640625
-28.1806640625 -59.513671875 29.369140625
5.490966796875 -39.118896484375 3.1522216796875
-9.227783203125 -52.4150390625 1.141845703125
-5.491455078125 -22.369873046875 7.434326171875
-27.872802734375 -64.916259765625 27.375
0.39892578125 -21.842041015625 7.671875
-12.169921875 -51.671630859375 4.359130859375
-1.558837890625 -12.200439453125 6.820556640625
5.826904296875 -3.05322265625 9.5712890625
-31.07861328125 -5.0751953125 6.1507568359375
-1.46240234375 -10.035888671875 6.237548828125
7.05224609375 -20.08935546875 9.32666015625
-21.175537109375 -26.581298828125 2.8702392578125
-36.352294921875 -34.13330078125 12.3929443359375
3.866943359375 -26.1484375 5.0126953125
-10.988037109375 -60.083740234375 -5.2496337890625
-4.0185546875 0.00146484375 11.0615234375
-20.41845703125 -42.629638671875 4.472900390625
-27.31689453125 -56.4501953125 29.718017578125
15.5771484375 -9.811279296875 5.4317626953125
-11.4580078125 -57.209716796875 -2.1014404296875
20.74072265625 -2.802001953125 13.561767578125
-15.763427734375 -52.74951171875 3.6038818359375
43.965576171875 12.103759765625 4.5103759765625
-30.5927734375 -34.310791015625 2.6197509765625
-31.535888671875 -16.114501953125 10.2271728515625
-29.087158203125 -57.93408203125 29.648681640625
-16.425537109375 -52.380615234375 5.2169189453125
-19.260498046875 -54.94287109375 7.133056640625
-23.6220703125 -28.07568359375 1.3265380859375
-18.87841796875 -55.59326171875 5.3502197265625
-21.2099609375 -27.75732421875 1.910888671875
-19.443603515625 -66.6171875 -2.6185302734375
-27.3955078125 -32.084716796875 2.0980224609375
3.5693359375 -10.4716796875 6.4827880859375
-34.347412109375 -40.864990234375 25.876708984375
-22.2578125 -73.008056640625 -2.0029296875
8.423583984375 -4.260498046875 8.765869140625
3.19677734375 -2.1689453125 9.843994140625
-1.491455078125 -20.091064453125 8.90478515625
-32.10595703125 -27.336181640625 15.8603515625
-19.293212890625 -58.35107421875 20.555419921875
-28.03173828125 -17.1513671875 15.8350830078125
-9.826416015625 -9.736572265625 6.29345703125
-9.427490234375 -22.380859375 6.8778076171875
-24.498779296875 -13.568115234375 7.8060302734375
-5.009033203125 -23.301513671875 6.2662353515625
9.32421875 -30.343994140625 3.05078125
-18.70849609375 -26.330078125 6.556884765625
-3.46923828125 -44.468994140625 10.187744140625
-35.409912109375 -39.91650390625 26.5994873046875
-33.210693359375 -0.42626953125 10.81103515625
-8.97998046875 -27.119140625 1.8345947265625
7.15478515625 -8.490966796875 6.64306640625
-30.835205078125 -19.0498046875 16.066650390625
-31.73681640625 -25.859375 5.2662353515625
-25.880859375 -61.5361328125 26.35302734375
-31.954345703125 -56.605224609375 31.210205078125
-15.98291015625 -26.770751953125 7.40234375
-29.498046875 -2.53955078125 7.5521240234375
-14.798583984375 0.347900390625 10.3802490234375
-30.01220703125 -63.60595703125 30.5731201171875
-8.0341796875 -7.774169921875 6.3411865234375
-9.287109375 -2.280029296875 8.70166015625
6.397705078125 -36.29248046875 2.538330078125
44.1748046875 13.73779296875 5.6085205078125
9.958251953125 -16.97216796875 10.51611328125
-4.99072265625 -47.253173828125 7.25830078125
-19.2861328125 -71.4404296875 2.4713134765625
26.846923828125 19.267822265625 2.883056640625
-2.559814453125 -43.663330078125 12.3199462890625
16.743408203125 -17.864501953125 9.212158203125
-36.8955078125 -42.183349609375 18.3846435546875
-19.375244140625 -28.306640625 1.6517333984375
-35.270751953125 -23.859619140625 17.4334716796875
-15.791015625 -21.1748046875 8.68310546875
8.52978515625 -3.788818359375 10.3551025390625
-24.4072265625 -19.691162109375 9.34375
25.974365234375 1.96142578125 10.3988037109375
-11.024658203125 -55.822998046875 -0.865478515625
-33.513427734375 -22.7333984375 13.96533203125
-30.8837890625 -25.6181640625 7.35986328125
-27.15234375 -20.084716796875 9.518310546875
-12.30224609375 -2.3896484375 8.20458984375
-14.00439453125 -51.461181640625 4.169921875
-28.884521484375 -4.907958984375 6.152587890625
-34.638916015625 -37.446044921875 22.7249755859375
-35.908203125 -51.498046875 28.9112548828125
-13.774169921875 -4.602783203125 6.857421875
-19.996826171875 -54.24267578125 16.5601806640625
-12.7041015625 -26.05224609375 3.910400390625
-36.091552734375 -40.517333984375 20.9044189453125
25.344970703125 21.754150390625 3.8585205078125
15.302734375 -15.4755859375 9.1983642578125
-36.08935546875 -41.4560546875 22.0372314453125
-36.90576171875 -39.48876953125 18.1419677734375
-22.9765625 -61.760498046875 16.1334228515625
-0.87646484375 -3.0673828125 8.747802734375
27.38671875 17.157470703125 2.300048828125
5.793701171875 -19.223876953125 10.5340576171875
1.180419921875 -26.558349609375 4.84423828125
-12.484130859375 -46.4140625 7.97705078125
-23.77880859375 -3.78759765625 7.070068359375
-24.299560546875 -6.0615234375 5.8743896484375
-26.54052734375 -3.674072265625 7.17431640625
-20.076171875 -62.758056640625 19.28759765625
-10.350341796875 -51.622802734375 2.435791015625
-21.6337890625 -70.8466796875 -1.7265625
-32.859130859375 -50.32763671875 33.1815185546875
-34.696533203125 -32.98193359375 11.9249267578125
-27.3564453125 -12.151123046875 7.251708984375
19.266357421875 0.01953125 11.9281005859375
15.49072265625 -8.501220703125 6.340576171875
-29.780517578125 -12.12060546875 7.0887451171875
-34.158935546875 -1.63427734375 8.737548828125
2.232421875 -23.017578125 6.35546875
-33.168212890625 -28.13720703125 8.5142822265625
-14.08154296875 -74.63671875 16.804443359375
-35.65283203125 -38.123046875 27.838623046875
-10.124755859375 -54.66845703125 0.1715087890625
-31.410400390625 -21.55908203125 9.7303466796875
-13.2197265625 -42.376220703125 9.8189697265625
-20.90673828125 -51.845947265625 18.9200439453125
9.744384765625 -36.78271484375 1.056884765625
-30.948974609375 -31.544677734375 2.6827392578125
-29.074951171875 -63.89013671875 29.65625
-14.001220703125 -0.82080078125 9.483154296875
-34.00244140625 -41.932861328125 26.75439453125
29.450439453125 13.102294921875 2.2373046875
-1.0361328125 -26.288818359375 4.9329833984375
-33.50439453125 -30.70654296875 4.9205322265625
-19.611328125 -52.443359375 12.474365234375
-23.246826171875 0.342529296875 10.150634765625
-20.119140625 -64.3837890625 6.68017578125
-34.97802734375 -35.272705078125 14.490478515625
11.997314453125 -0.229736328125 12.4097900390625
6.9892578125 -12.5283203125 6.7694091796875
-20.830322265625 -62.933349609375 5.5792236328125
-16.068359375 -3.05126953125 7.731689453125
-15.19287109375 -64.184326171875 -6.7008056640625
-15.506103515625 -62.848876953125 -5.43505859375
-19.185546875 -67.348388671875 -3.955810546875
-16.21044921875 -59.963134765625 -1.9368896484375
-17.5166015625 -53.39501953125 5.594970703125
-5.442626953125 0.2880859375 11.110107421875
-15.78076171875 -57.488525390625 -0.77197265625
4.629638671875 -7.51416015625 6.485595703125
5.11572265625 -8.770751953125 6.3624267578125
-31.9296875 -18.373046875 11.658203125
-20.398193359375 -60.095703125 11.4420166015625
-13.64794921875 -77.885009765625 13.0343017578125
5.526123046875 -37.712158203125 3.6185302734375
-28.140380859375 -38.027099609375 -0.020751953125
-29.40966796875 -25.838134765625 5.34521484375
-35.724365234375 -55.912109375 33.2218017578125
-30.74462890625 -67.511962890625 29.31591796875
-34.44482421875 -32.697021484375 6.45458984375
7.442626953125 -5.053466796875 8.1734619140625
-19.656005859375 -12.356201171875 7.4766845703125
-9.76318359375 -4.125732421875 7.4893798828125
8.993896484375 -25.438720703125 4.6510009765625
-20.6630859375 -57.349365234375 13.1668701171875
-36.45068359375 -47.20166015625 25.4583740234375
-21.700927734375 -26.14013671875 4.0113525390625
-7.166259765625 -14.512939453125 8.3829345703125
-24.93017578125 -61.526611328125 14.761474609375
-35.1650390625 -30.20654296875 9.3236083984375
-17.867431640625 -79.640869140625 8.1790771484375
-8.445068359375 -26.005859375 3.6541748046875
-20.5166015625 -10.6025390625 6.765380859375
-35.15185546875 -4.973388671875 5.8101806640625
-21.619873046875 -2.36669921875 7.9412841796875
-11.939697265625 -22.1787109375 7.75390625
-2.880859375 -6.296875 6.6038818359375
1.75 0.918212890625 12.28759765625
-32.3779296875 -0.11962890625 9.865478515625
-23.94384765625 -23.343994140625 5.853759765625
-34.864501953125 -32.44384765625 10.7371826171875
-12.42236328125 -6.22900390625 6.355712890625
-11.15576171875 -4.7001953125 7.1024169921875
-4.568359375 -8.2001953125 6.1192626953125
-35.570556640625 -57.684326171875 36.211181640625
-37.546142578125 -44.585205078125 21.7906494140625
21.003662109375 -4.2998046875 11.2037353515625
-11.8740234375 -62.136962890625 -6.7366943359375
6.262939453125 -25.12646484375 5.46875
7.54296875 -24.05419921875 6.2354736328125
-26.09326171875 -22.694091796875 6.3719482421875
-26.478515625 -23.916015625 6.1978759765625
-17.543212890625 -19.858642578125 9.4517822265625
-20.078125 -22.6962890625 5.88720703125
-34.2099609375 -46.55712890625 29.6895751953125
-5.746826171875 -4.827392578125 7.1619873046875
-4.343017578125 -48.380126953125 7.755615234375
8.68408203125 -2.674560546875 11.4224853515625
25.306640625 -2.809326171875 8.6602783203125
-18.935302734375 -69.842041015625 4.6961669921875
25.836181640625 0.503173828125 10.3870849609375
-25.89453125 -27.48779296875 2.28515625
-15.5791015625 -14.2412109375 8.8515625
-21.15576171875 -61.717041015625 14.2091064453125
4.392578125 -26.75634765625 7.4664306640625
-19.828125 -56.32177734375 18.9588623046875
-19.676513671875 -54.108154296875 19.9549560546875
4.697021484375 -26.136962890625 3.4788818359375
24.074462890625 -1.632080078125 10.4190673828125
-32.763427734375 -35.9384765625 5.3193359375
-32.122802734375 -35.4306640625 4.1947021484375
-7.833251953125 -43.871337890625 8.8236083984375
21.701416015625 -3.46337890625 10.563232421875
13.681884765625 -26.989501953125 4.09130859375
-18.73193359375 -9.365966796875 5.86474609375
-13.860595703125 -8.2919921875 6.036865234375
-33.630859375 -33.596435546875 6.0699462890625
-33.949462890625 -32.527587890625 9.337158203125
-3.548828125 -3.848876953125 8.0487060546875
5.006103515625 -24.4306640625 7.2093505859375
13.6337890625 -10.685546875 6.8211669921875
48.443359375 7.89208984375 2.194580078125
-18.728759765625 -61.038818359375 1.1304931640625
-18.158203125 -63.106689453125 -1.471923828125
-31.2490234375 -18.73046875 18.8336181640625
-21.0107421875 -55.855224609375 11.2415771484375
-20.065185546875 -8.76123046875 6.4349365234375
12.2177734375 -8.343994140625 6.815185546875
-19.39794921875 -56.946044921875 5.613525390625
-16.641357421875 -63.538330078125 -3.0374755859375
16.599365234375 -7.466552734375 5.959716796875
-36.31494140625 -43.262451171875 23.0872802734375
14.370849609375 -2.95458984375 12.0447998046875
17.51220703125 -17.4384765625 8.1142578125
-33.8994140625 -44.9501953125 27.63818359375
29.38818359375 12.1982421875 0.196533203125
7.852783203125 -34.4736328125 2.331298828125
-32.45654296875 -32.489501953125 3.7469482421875
-32.279541015625 -21.203369140625 13.1741943359375
-10.964599609375 -14.8212890625 8.4244384765625
-34.71337890625 -38.93408203125 21.232666015625
-16.205322265625 -11.1357421875 6.6827392578125
-17.446533203125 -21.842529296875 7.609130859375
-31.816650390625 -66.39697265625 31.1409912109375
20.12646484375 12.590087890625 3.5697021484375
7.649658203125 -17.213134765625 10.5865478515625
-1.632080078125 -27.548583984375 2.0426025390625
27.68505859375 16.377685546875 4.5648193359375
22.280517578125 11.782470703125 2.419189453125
35.15380859375 4.447265625 6.1666259765625
-14.869384765625 -6.77294921875 6.2685546875
28.79443359375 15.516357421875 0.193359375
-38.6015625 -42.7001953125 17.2071533203125
27.994873046875 -1.98828125 6.156494140625
-22.615478515625 -5.60791015625 5.9853515625
-17.285888671875 -81.74853515625 5.5262451171875
-18.607421875 -62.780029296875 18.171875
-35.560302734375 -36.231201171875 16.74462890625
-35.765380859375 -44.59521484375 25.716796875
-15.248046875 -27.869384765625 1.8271484375
-32.466064453125 -16.148193359375 9.07275390625
-35.017578125 -41.395751953125 22.805908203125
6.75390625 -25.896484375 3.755126953125
6.9912109375 0.213134765625 11.681640625
24.289306640625 -3.618408203125 8.0570068359375
-19.008056640625 -62.3203125 20.5306396484375
-34.797607421875 -35.9853515625 26.1539306640625
-21.48779296875 -0.439697265625 9.403076171875
-20.643798828125 -65.0703125 16.4063720703125
-20.11328125 -62.58447265625 16.0526123046875
-18.213623046875 -28.623291015625 1.939697265625
-33.135986328125 -36.16845703125 6.6097412109375
-9.986083984375 -58.134033203125 -3.6800537109375
-19.3955078125 -70.21728515625 2.319580078125
26.467529296875 4.0439453125 11.1240234375
21.26806640625 -4.48388671875 6.186767578125
-20.26611328125 -65.1484375 10.31396484375
11.72802734375 -34.139404296875 2.1793212890625
1.49462890625 -3.768310546875 8.3084716796875
-20.535888671875 -63.497802734375 12.1220703125
-22.681884765625 -59.821533203125 20.439697265625
-5.553466796875 -25.829833984375 5.550048828125
11.97412109375 -13.7138671875 7.994140625
0.73486328125 -0.188232421875 11.1702880859375
-17.3857421875 -17.563232421875 9.9066162109375
-35.38330078125 -49.12255859375 25.881591796875
-34.098876953125 -39.710693359375 22.26806640625
-21.385009765625 -68.950927734375 -0.124755859375
-26.582763671875 -5.835205078125 6.3023681640625
-12.4296875 -49.8408203125 5.6317138671875
