-37.574462890625 -3.359130859375 -5.3148193359375
-35.287841796875 -45.490234375 23.7415771484375
-0.23974609375 -35.0361328125 10.388916015625
-22.126220703125 -25.20068359375 3.3935546875
-4.408935546875 -19.517822265625 -1.5489501953125
-10.617919921875 -32.497802734375 12.1800537109375
-50.5419921875 -56.431640625 21.8812255859375
-13.912353515625 -24.314453125 2.129150390625
-49.145263671875 -46.194091796875 17.880859375
-23.808349609375 -22.506591796875 -0.28857421875
16.846923828125 -31.171142578125 11.0506591796875
-51.774658203125 -54.087890625 21.5809326171875
-38.609619140625 -18.37744140625 4.3770751953125
4.420166015625 6.935791015625 -0.1737060546875
-9.416015625 -0.545654296875 -3.380126953125
-39.901123046875 -47.561767578125 23.8482666015625
-7.75537109375 -35.355224609375 12.5911865234375
-9.8154296875 -23.6953125 4.5
12.604248046875 20.39208984375 2.57568359375
3.1435546875 -37.1806640625 12.7540283203125
-24.19677734375 -28.365966796875 3.8111572265625
-49.358642578125 -34.7119140625 4.0596923828125
-44.90771484375 -16.94384765625 -5.21875
-34.582275390625 -26.5419921875 20.365966796875
-1.74169921875 -37.5927734375 13.7010498046875
-33.319580078125 -26.6533203125 4.437744140625
-50.791748046875 -35.005615234375 -2.2274169921875
10.94580078125 15.837646484375 -0.5263671875
-2.7255859375 -20.30517578125 6.6881103515625
-25.862548828125 -25.231201171875 16.9345703125
23.15234375 19.06103515625 -7.40576171875
-31.573974609375 -20.89990234375 20.3292236328125
6.3076171875 14.23583984375 1.8446044921875
-25.255126953125 -26.41650390625 11.1966552734375
14.41552734375 7.258056640625 -6.687744140625
-50.919677734375 -30.29931640625 -6.057373046875
-15.62646484375 -24.96630859375 12.62255859375
6.98388671875 24.640380859375 -40.648193359375
-27.96142578125 -20.262939453125 -2.834228515625
-45.646728515625 -41.171875 19.9056396484375
-60.28173828125 -50.587646484375 7.662353515625
-8.890380859375 -31.427001953125 8.091064453125
-32.566650390625 -30.070556640625 11.70751953125
-17.126220703125 -25.611328125 3.5865478515625
-41.8515625 -40.556884765625 18.6837158203125
-8.601318359375 -21.71142578125 7.987060546875
-16.26318359375 -1.75341796875 -5.023193359375
-26.08056640625 -27.636962890625 14.6346435546875
-23.3671875 -23.303466796875 13.918701171875
-0.27880859375 -19.011474609375 7.14013671875
-39.009033203125 -37.8369140625 15.295166015625
-44.189453125 -21.0439453125 10.2432861328125
4.86083984375 -39.701416015625 16.180419921875
-3.173828125 -20.2578125 0.8499755859375
-46.870361328125 -54.57080078125 34.6937255859375
-43.50830078125 -45.3486328125 26.981689453125
-24.34716796875 -20.517333984375 -2.4521484375
2.6474609375 -32.64306640625 6.8853759765625
-50.609130859375 -34.529052734375 -9.017822265625
0.8173828125 -43.140380859375 20.100830078125
-32.0859375 2.1181640625 -0.2125244140625
-6.40771484375 -19.591796875 7.302001953125
-2.286865234375 -40.443603515625 16.8531494140625
-8.887451171875 9.825927734375 3.9891357421875
-5.201904296875 -33.617919921875 8.99267578125
3.009521484375 26.709228515625 -40.72119140625
-40.32666015625 -32.40576171875 9.85205078125
6.776611328125 -47.09228515625 20.485595703125
-51.395263671875 -43.963623046875 6.718994140625
-5.340576171875 -21.2763671875 10.8564453125
-33.590576171875 -47.55615234375 29.0792236328125
-11.544921875 -21.7529296875 -1.195068359375
-49.5673828125 -32.413330078125 0.539306640625
-49.73828125 -50.012939453125 20.3515625
-6.5791015625 -29.541015625 7.7799072265625
22.00390625 29.013916015625 -10.6995849609375
-49.353515625 -41.2578125 18.049560546875
3.681640625 16.8603515625 -8.4844970703125
-50.118896484375 -54.171142578125 19.9901123046875
-24.79150390625 -28.27197265625 7.5465087890625
-27.875244140625 2.19091796875 -0.7384033203125
-35.474609375 -33.527587890625 17.6253662109375
-49.37158203125 -47.816650390625 22.5950927734375
3.6416015625 -49.78125 26.8226318359375
-9.036376953125 -20.853271484375 4.6156005859375
-43.453857421875 -18.38134765625 3.64306640625
-51.634521484375 -57.06298828125 23.7247314453125
-38.541015625 -19.762451171875 -2.2593994140625
24.287841796875 28.763671875 -2.4190673828125
-40.034912109375 -20.333740234375 -0.40966796875
-41.763916015625 -43.2109375 29.9268798828125
-24.501953125 -24.8056640625 2.42041015625
-48.83349609375 -30.7373046875 -3.241943359375
-15.516845703125 -28.5849609375 5.428955078125
-35.157470703125 -41.99755859375 21.2467041015625
16.015625 20.416015625 2.146728515625
-37.04833984375 -39.6025390625 19.23486328125
-11.686767578125 2.93359375 -0.8780517578125
-49.00390625 -55.112060546875 25.66015625
-5.344482421875 -39.01220703125 16.585205078125
-50.4833984375 -57.178955078125 35.519287109375
-46.700927734375 -35.34033203125 12.6788330078125
-41.33544921875 -16.665771484375 6.0228271484375
-9.08349609375 -33.763916015625 11.2613525390625
-22.799560546875 -24.53857421875 18.068603515625
3.89697265625 -26.2265625 -0.5394287109375
-2.538330078125 5.306884765625 0.747802734375
0.366943359375 -2.039306640625 -5.9178466796875
-34.522705078125 -29.483154296875 15.6844482421875
-30.75048828125 -24.592041015625 2.3448486328125
6.22998046875 14.522216796875 -4.6221923828125
6.29052734375 -43.72021484375 17.50244140625
-44.640869140625 -21.091796875 0.43798828125
-15.522216796875 -21.545166015625 16.51220703125
-38.333251953125 -18.680419921875 6.9520263671875
9.676025390625 -51.621337890625 21.1287841796875
-24.993896484375 -0.565673828125 -3.138916015625
8.96484375 17.785400390625 2.82373046875
7.419921875 23.863525390625 -36.9547119140625
18.647216796875 12.98681640625 -7.0828857421875
-1.189697265625 -21.29443359375 0.3543701171875
-49.5673828125 -38.783935546875 9.9742431640625
-20.215087890625 -21.39404296875 13.51708984375
-4.476318359375 9.194580078125 3.709716796875
13.998291015625 21.016357421875 -0.0435791015625
-8.0546875 -32.7841796875 9.5205078125
-49.617431640625 -29.80126953125 3.9033203125
-26.443359375 -28.352783203125 3.63671875
-16.426025390625 -26.310302734375 10.608154296875
-13.71240234375 -22.02197265625 -0.98779296875
3.641357421875 12.128173828125 6.015869140625
-39.8330078125 -3.15869140625 -6.2908935546875
19.454833984375 11.0947265625 -9.0107421875
25.27197265625 26.88134765625 -9.1060791015625
2.576171875 10.24951171875 3.0760498046875
-5.904296875 4.78564453125 0.607421875
-14.18798828125 8.165283203125 2.9451904296875
-25.362548828125 3.673583984375 1.9404296875
-22.751708984375 -27.04150390625 2.57861328125
-44.6435546875 -19.897216796875 -2.4110107421875
-37.92626953125 -33.39208984375 10.244140625
-48.2939453125 -43.341064453125 21.5753173828125
-32.41748046875 -26.969970703125 14.1876220703125
-36.630126953125 -20.49560546875 -1.785400390625
-24.9404296875 2.591796875 -0.57666015625
-50.6494140625 -52.130615234375 17.252197265625
10.66259765625 -54.017578125 21.0162353515625
-49.99365234375 -58.231689453125 25.1513671875
-35.704345703125 0.70458984375 -0.5438232421875
-5.1748046875 9.217041015625 5.98193359375
-30.580322265625 -26.807861328125 15.3531494140625
-21.479736328125 -14.80126953125 18.240478515625
-30.408447265625 -31.1572265625 8.9320068359375
2.403564453125 -23.44287109375 -0.1495361328125
4.166259765625 3.775390625 -1.81640625
-14.0615234375 1.494140625 -1.8192138671875
-5.163330078125 2.705810546875 -1.3319091796875
-18.125244140625 -22.052001953125 -0.439453125
-47.4521484375 -17.1650390625 -4.94482421875
-12.4033203125 5.2138671875 1.544189453125
-41.84619140625 -3.318603515625 -5.1844482421875
0.228515625 -47.8212890625 23.867431640625
18.78662109375 18.024169921875 -4.9140625
-49.3984375 -31.926025390625 -1.6414794921875
-43.30615234375 -34.540771484375 12.4498291015625
-44.22607421875 -32.63818359375 10.2725830078125
4.285400390625 -41.824951171875 20.8958740234375
-0.441650390625 -45.023193359375 22.641357421875
12.201904296875 12.367919921875 -34.4971923828125
-45.016845703125 -38.607177734375 16.29345703125
-28.297119140625 -22.5615234375 19.58740234375
15.0556640625 19.45947265625 -3.1846923828125
-48.9716796875 -48.478515625 16.454833984375
-47.56689453125 -46.690185546875 24.4429931640625
-3.243408203125 -22.23876953125 6.3057861328125
-14.65576171875 -24.644287109375 14.383544921875
3.955322265625 23.73974609375 -37.3739013671875
-7.35205078125 8.4833984375 3.462646484375
21.70703125 19.86767578125 -6.1290283203125
-17.7275390625 -28.20849609375 6.6986083984375
-29.20849609375 -26.19580078125 17.120849609375
24.940673828125 26.99609375 -6.8594970703125
-44.08447265625 -47.3408203125 22.5423583984375
-22.396240234375 -25.524169921875 10.1492919921875
-8.313720703125 -22.427490234375 -1.76611328125
7.161865234375 -50.046142578125 29.6361083984375
-21.110595703125 -29.893310546875 5.3543701171875
-2.776611328125 -21.469970703125 8.693603515625
-40.0458984375 -34.8115234375 13.812255859375
-14.699951171875 -23.15576171875 0.6829833984375
-51.69970703125 -40.739501953125 3.3753662109375
-48.07861328125 -57.932373046875 31.4468994140625
-42.64892578125 -39.019775390625 17.28759765625
15.031494140625 -32.44873046875 13.7547607421875
-30.306640625 -3.15771484375 -5.3297119140625
-8.08544921875 -18.80908203125 4.9779052734375
7.602783203125 -48.83251953125 26.5653076171875
-31.62060546875 -46.859619140625 27.167236328125
24.380126953125 15.47216796875 -10.2760009765625
3.580322265625 -46.344482421875 23.317138671875
-16.751220703125 -29.638427734375 9.8988037109375
-32.209228515625 -1.088623046875 -3.217529296875
-37.307861328125 -46.646484375 29.21435546875
-51.855712890625 -48.7431640625 13.979736328125
-6.115234375 -21.337158203125 6.410888671875
-38.5576171875 -46.37744140625 25.76123046875
-35.650390625 -23.0361328125 4.6846923828125
-38.991943359375 -43.10302734375 21.4600830078125
-44.020751953125 -18.14306640625 7.340087890625
-46.263427734375 -44.59033203125 22.4462890625
-40.9931640625 -36.715087890625 14.8670654296875
-36.584716796875 -22.25927734375 0.4801025390625
-44.9482421875 -46.62939453125 28.7083740234375
-23.884765625 -25.802978515625 12.974609375
-47.126220703125 -23.40283203125 2.8822021484375
0.4248046875 -40.164306640625 17.059326171875
18.195556640625 20.686279296875 -3.276611328125
-33.00927734375 -22.648681640625 20.5673828125
-51.20703125 -46.136474609375 10.34033203125
-33.808349609375 -30.267333984375 7.279541015625
-7.430908203125 -27.721435546875 7.381591796875
-31.14599609375 -19.888671875 -3.23828125
-27.639404296875 -23.258056640625 0.0108642578125
-5.031982421875 -18.40478515625 5.1485595703125
4.75244140625 -43.843505859375 21.363525390625
-49.54736328125 -37.730712890625 7.0211181640625
-40.39306640625 -19.0947265625 2.635986328125
-40.739013671875 -1.015869140625 -2.965576171875
-24.781982421875 -21.85986328125 21.107421875
-60.749267578125 -57.396484375 3.8232421875
-1.738525390625 -30.655029296875 8.779052734375
22.5791015625 23.38134765625 -4.890869140625
-13.533203125 -30.87548828125 7.861328125
-42.640869140625 -20.35546875 9.321533203125
20.0029296875 21.966552734375 -3.61669921875
4.72412109375 -49.72021484375 29.035400390625
10.40869140625 17.81982421875 5.2476806640625
30.435302734375 19.674560546875 -14.8157958984375
21.95654296875 26.47998046875 -1.409423828125
15.228759765625 -30.968017578125 14.96533203125
-41.729736328125 -17.640869140625 -4.9119873046875
-0.094970703125 -21.12744140625 3.4488525390625
-45.796142578125 -26.746337890625 7.315185546875
4.568115234375 -36.960693359375 14.019287109375
-49.626708984375 -41.252685546875 5.7530517578125
5.875 16.943115234375 -1.3343505859375
1.7578125 10.935302734375 5.9632568359375
22.918701171875 12.57080078125 -10.852294921875
-34.639404296875 -32.06591796875 14.6793212890625
22.746337890625 17.106201171875 -8.3055419921875
4.06640625 -32.425048828125 8.1470947265625
-49.721435546875 -32.418701171875 8.2774658203125
7.2177734375 -48.959228515625 20.99658203125
0.90380859375 10.346923828125 4.1845703125
-31.42724609375 -31.551025390625 6.6903076171875
20.75 29.527587890625 -7.795654296875
-0.6435546875 -1.046142578125 -4.64013671875
22.23388671875 24.96337890625 -3.5665283203125
23.371826171875 28.4091796875 -4.9814453125
1.482666015625 -39.104736328125 15.7728271484375
-48.068115234375 -47.766845703125 27.015869140625
-5.817626953125 -36.092529296875 12.20166015625
12.048095703125 6.026123046875 -7.1424560546875
3.727783203125 -51.163818359375 30.2677001953125
-18.856689453125 -21.017578125 14.7830810546875
16.041015625 -30.156982421875 9.5234375
-5.986083984375 -20.218994140625 -0.610107421875
-2.22314453125 11.321044921875 5.6875
-27.2646484375 -24.470458984375 1.9381103515625
-49.02001953125 -24.88671875 3.6595458984375
-21.728515625 -28.10498046875 7.2109375
-24.818115234375 -2.3125 -4.9407958984375
-20.68701171875 -24.115478515625 1.655517578125
-12.428955078125 -4.0595703125 -6.5643310546875
-32.603271484375 -24.067626953125 17.5384521484375
-21.490478515625 -22.791015625 0.2584228515625
-2.002197265625 -35.112548828125 11.0423583984375
2.3349609375 -21.523193359375 -1.5123291015625
-49.43798828125 -42.867919921875 19.534423828125
-4.112548828125 -37.218017578125 13.598876953125
-34.220947265625 -27.410400390625 17.8984375
-10.921630859375 9.1953125 3.65625
-23.822998046875 0.5244140625 -2.1285400390625
-19.972412109375 -3.300537109375 -6.274658203125
-49.401123046875 -43.3466796875 9.8330078125
-60.11962890625 -56.078125 2.65087890625
-28.267578125 2.909423828125 1.246337890625
-27.807373046875 -29.591552734375 11.2418212890625
-30.55322265625 -22.219482421875 19.4808349609375
-37.615234375 -34.515380859375 11.770751953125
-38.09814453125 -2.101318359375 -4.033935546875
-2.25439453125 3.425048828125 -1.0819091796875
-22.394775390625 5.9462890625 1.6951904296875
11.844482421875 20.25537109375 -2.9970703125
-32.142333984375 -31.063720703125 9.6181640625
7.21484375 14.7470703125 -2.068359375
1.4248046875 7.41259765625 2.0843505859375
-50.285400390625 -37.2216796875 -0.0859375
-7.8154296875 0.298095703125 -2.9281005859375
-2.05126953125 -17.953369140625 4.4346923828125
9.268798828125 -48.941162109375 23.5677490234375
22.810791015625 29.8076171875 -7.9945068359375
-1.808837890625 0.73681640625 -3.146484375
1.71826171875 -41.42822265625 18.497314453125
-4.230224609375 -19.030029296875 2.18359375
-48.507568359375 -30.09423828125 5.9580078125
4.016357421875 -31.2509765625 4.7281494140625
-28.695556640625 -2.314697265625 -4.8779296875
-29.680908203125 -20.181884765625 -2.1419677734375
26.59814453125 25.27490234375 -8.8406982421875
-16.559814453125 -30.094970703125 5.6641845703125
-18.52880859375 5.806396484375 1.6009521484375
-51.0078125 -59.60009765625 26.8428955078125
18.29345703125 14.574951171875 -6.1829833984375
-23.773193359375 4.501708984375 2.381591796875
4.811767578125 14.069580078125 4.60302734375
-52.330078125 -35.658447265625 -5.405029296875
-30.12158203125 -0.395263671875 -2.428955078125
-38.023193359375 -18.6591796875 -4.30078125
-7.747802734375 5.617431640625 1.4893798828125
-9.147216796875 -21.91015625 6.1959228515625
-35.033447265625 -3.075927734375 -5.1318359375
-48.612060546875 -61.1298828125 30.8997802734375
-46.580078125 -49.323974609375 31.094970703125
-1.647216796875 7.88671875 3.029052734375
4.9814453125 -45.938720703125 24.629638671875
-20.0556640625 -21.478271484375 -0.964599609375
2.16455078125 -25.412353515625 3.082275390625
-20.245361328125 -27.701416015625 9.848388671875
-38.18359375 -41.0244140625 19.06689453125
-48.777099609375 -39.397216796875 17.4742431640625
-36.7236328125 -35.19091796875 15.601318359375
-32.832275390625 -21.404296875 -0.2362060546875
-5.69140625 -18.157958984375 3.025634765625
-42.164306640625 -46.857421875 24.705322265625
-32.89453125 -23.189697265625 0.690185546875
-37.273681640625 -37.041259765625 16.172119140625
19.06201171875 24.376953125 -1.5731201171875
25.042236328125 27.88525390625 -1.0177001953125
2.112548828125 0.689697265625 -3.6630859375
-23.4462890625 -25.03759765625 19.830322265625
-28.836669921875 -0.93994140625 -3.6185302734375
-18.891845703125 -24.07666015625 1.8955078125
-27.784912109375 -19.548095703125 -4.489013671875
-7.430908203125 -21.073974609375 1.6402587890625
-12.10302734375 -24.5087890625 1.8580322265625
-4.390625 6.137939453125 1.6300048828125
-35.630615234375 -47.71484375 31.0994873046875
18.220703125 23.5615234375 2.2177734375
-5.494873046875 7.714111328125 3.036865234375
-34.579833984375 -23.0439453125 1.8421630859375
-44.484375 -42.4833984375 20.8583984375
0.84228515625 19.75439453125 -8.63916015625
-52.664306640625 -34.18359375 -6.823974609375
-29.140625 -28.97265625 12.4464111328125
-41.531005859375 -34.745849609375 12.190185546875
-4.07421875 -1.62548828125 -5.2366943359375
-16.92431640625 -18.6748046875 16.85595703125
-15.254150390625 3.927490234375 0.2705078125
21.407470703125 9.802978515625 -11.3868408203125
-24.6435546875 -19.586669921875 -3.995361328125
16.941650390625 23.224609375 1.0015869140625
-40.833251953125 -48.197509765625 22.4517822265625
-51.060791015625 -31.774169921875 -5.0438232421875
1.2998046875 -32.35693359375 8.0335693359375
2.766357421875 6.882568359375 0.9039306640625
5.55322265625 -42.154541015625 18.3714599609375
-49.529541015625 -23.36572265625 0.495849609375
-33.291015625 0.984619140625 -1.661865234375
12.399169921875 16.859619140625 -0.8907470703125
-42.169921875 -18.9697265625 2.442626953125
24.65087890625 12.21826171875 -12.953857421875
-10.819091796875 6.04345703125 1.987060546875
-20.44384765625 5.432861328125 3.4981689453125
-27.8408203125 -27.843994140625 14.3477783203125
-0.78662109375 -21.759765625 -1.6357421875
-27.154541015625 -0.363037109375 -2.8060302734375
-34.76123046875 -19.46923828125 -3.57275390625
-22.329345703125 -22.056884765625 13.1741943359375
-17.6474609375 -23.650390625 12.7064208984375
-38.766845703125 -38.4443359375 16.954345703125
-44.2900390625 -30.267333984375 8.5634765625
-49.321044921875 -28.489501953125 -0.3463134765625
-46.40380859375 -21.93212890625 3.5982666015625
-32.623046875 -28.854248046875 13.3424072265625
22.408935546875 24.991943359375 -0.5511474609375
-42.52392578125 -19.630859375 -2.6160888671875
-60.3515625 -59.3046875 0.9830322265625
-35.597900390625 -44.095703125 22.6903076171875
4.7666015625 24.9580078125 -40.21630859375
-22.590087890625 -20.537841796875 -2.680908203125
11.212646484375 18.784912109375 1.485595703125
-25.182373046875 -23.748779296875 17.6240234375
-12.27294921875 -31.32470703125 11.2652587890625
-34.77294921875 -29.691162109375 17.469482421875
-36.204833984375 0.2177734375 -2.3585205078125
-33.915283203125 -31.5068359375 8.823974609375
-49.139404296875 -57.1015625 26.201904296875
-41.343994140625 -42.615966796875 20.9219970703125
-26.367919921875 -19.50634765625 -3.3013916015625
-22.785400390625 -22.12744140625 18.13916015625
-18.57666015625 3.252197265625 0.0877685546875
-21.49853515625 -1.049072265625 -3.7174072265625
-38.495361328125 -44.650390625 29.28076171875
7.7353515625 15.91015625 3.3829345703125
9.641845703125 13.49609375 -2.7017822265625
-9.164794921875 -2.949462890625 -6.7022705078125
-7.634033203125 1.946533203125 -1.648193359375
-32.859619140625 -19.808349609375 -2.5467529296875
-47.025634765625 -51.6220703125 32.526611328125
-20.296630859375 -17.59716796875 15.710205078125
-46.51171875 -25.765625 5.8353271484375
-10.654296875 7.604736328125 2.7916259765625
-18.647216796875 -26.8896484375 3.928955078125
-24.136474609375 -25.08642578125 16.76171875
19.933837890625 12.72412109375 -8.6461181640625
4.64306640625 -48.015625 26.584228515625
-17.6630859375 -0.7275390625 -3.6898193359375
17.737548828125 -33.841552734375 8.04931640625
-14.792724609375 -27.464111328125 11.51416015625
-45.8515625 -20.949462890625 6.4527587890625
-29.59423828125 2.14013671875 -0.9674072265625
-38.463134765625 -21.759033203125 9.822021484375
-22.55859375 -23.584228515625 12.410400390625
13.404296875 19.15185546875 3.4644775390625
-7.099609375 -1.87109375 -5.3536376953125
-8.0087890625 -20.121826171875 8.279052734375
-7.353271484375 9.1494140625 5.3692626953125
-32.9345703125 -25.320068359375 16.4090576171875
-12.0263671875 -31.418212890625 8.4715576171875
-4.794921875 0.33154296875 -3.3089599609375
16.006591796875 22.127685546875 2.1422119140625
-48.73388671875 -54.918701171875 33.462158203125
-21.033447265625 2.288818359375 -0.71875
-33.91845703125 -28.4091796875 14.4979248046875
-49.196533203125 -46.228515625 21.9901123046875
-51.76025390625 -38.560791015625 1.1505126953125
1.226318359375 -23.793212890625 1.287841796875
-49.85107421875 -57.623779296875 32.159912109375
2.07275390625 17.83056640625 -9.758544921875
-13.1474609375 -25.539306640625 3.1114501953125
0.188232421875 -44.081298828125 21.370361328125
-41.796142578125 -20.3740234375 -0.6453857421875
-16.58203125 -22.91796875 0.0657958984375
-8.860595703125 4.382080078125 0.4444580078125
-39.837890625 -19.700439453125 7.7904052734375
-0.695068359375 -42.755126953125 19.4271240234375
1.575927734375 -47.3037109375 24.744873046875
-8.271484375 7.465576171875 5.5098876953125
-35.0615234375 -30.734619140625 12.311279296875
-34.59033203125 -46.16015625 25.35546875
-35.15234375 -47.380126953125 27.004638671875
-48.6943359375 -48.875 28.23291015625
6.892822265625 25.819091796875 -37.5899658203125
-11.40185546875 -20.863037109375 -2.81787109375
1.2626953125 -35.41259765625 11.050537109375
-49.68798828125 -55.305908203125 22.9359130859375
-42.058837890625 -0.00390625 -1.6531982421875
2.052978515625 -48.697265625 27.204345703125
-0.013671875 9.329345703125 6.2325439453125
-49.321533203125 -38.8408203125 3.072265625
-9.775390625 -22.81982421875 1.515380859375
-51.913818359375 -35.935546875 -1.398681640625
-35.540771484375 -21.243408203125 -0.756103515625
19.66748046875 24.084716796875 0.004150390625
-49.56689453125 -45.500732421875 14.417236328125
-49.00830078125 -52.0009765625 29.9373779296875
-46.086669921875 -47.819091796875 29.0576171875
-16.373291015625 5.613525390625 1.2763671875
-24.13134765625 -25.901611328125 9.82177734375
-2.495849609375 -29.044189453125 9.2301025390625
3.215576171875 -26.4990234375 1.78076171875
-40.7998046875 -39.096923828125 17.96240234375
10.914306640625 -51.967529296875 24.2005615234375
4.737548828125 23.68017578125 -38.84228515625
15.338623046875 -31.41064453125 8.408203125
-45.503173828125 -19.32470703125 8.1343994140625
-48.302001953125 -26.2646484375 4.588134765625
-30.828369140625 -29.692626953125 12.03564453125
-44.898681640625 -45.6435546875 30.7098388671875
-46.254638671875 -22.300048828125 -0.1064453125
-10.545654296875 -26.667236328125 4.80810546875
17.24609375 -32.553466796875 12.0894775390625
-23.1396484375 1.96435546875 -0.968994140625
-39.677978515625 -18.912353515625 -3.7010498046875
-59.536865234375 -50.552490234375 6.19189453125
20.518310546875 8.0380859375 -11.7374267578125
13.9365234375 12.32275390625 -35.2119140625
-25.3427734375 -26.250244140625 15.7520751953125
-48.427978515625 -35.480712890625 12.855224609375
-15.546630859375 -24.9091796875 2.646240234375
3.53173828125 -41.53564453125 17.804443359375
4.73486328125 5.320556640625 -1.05908203125
-22.94482421875 -20.21630859375 20.351806640625
-49.86376953125 -47.54833984375 13.0849609375
-38.7333984375 0.511474609375 -1.5147705078125
2.98583984375 -39.80078125 15.4521484375
3.757080078125 -34.074951171875 11.50732421875
-44.59033203125 -19.56640625 3.49755859375
22.875732421875 27.808837890625 -1.619140625
-49.379638671875 -34.289306640625 9.1619873046875
20.8251953125 16.315673828125 -7.380615234375
-33.177734375 -25.130859375 3.8768310546875
-47.236083984375 -38.344970703125 16.6131591796875
3.848388671875 10.035400390625 1.9871826171875
-49.606689453125 -33.53515625 -1.556640625
-47.1455078125 -40.687744140625 18.8209228515625
-20.8798828125 -19.782958984375 14.403076171875
-49.49267578125 -40.296630859375 13.27099609375
21.548583984375 13.1435546875 -9.190673828125
-47.89208984375 -18.92333984375 -3.093994140625
-35.391845703125 -34.12158203125 12.50048828125
-38.537109375 -19.49169921875 3.2022705078125
-2.982177734375 -41.0224609375 18.19775390625
17.33447265625 22.807373046875 -1.318115234375
6.099853515625 10.993896484375 0.1876220703125
-1.705322265625 -21.8876953125 9.8289794921875
9.531982421875 -49.570556640625 25.2806396484375
9.28369140625 25.497802734375 -42.0504150390625
8.822998046875 -51.247802734375 29.697021484375
-9.34814453125 -27.77783203125 5.7747802734375
-47.20751953125 -31.285400390625 8.684814453125
-37.513671875 -46.63671875 26.9605712890625
-39.927978515625 -44.447021484375 28.5732421875
-14.0703125 -29.2939453125 10.5643310546875
-14.654296875 -29.328125 8.8043212890625
-14.921630859375 -27.500732421875 4.238525390625
-22.670654296875 -2.359375 -5.233154296875
-9.017578125 8.121337890625 3.148193359375
-14.5966796875 -1.440185546875 -5.1591796875
-26.505126953125 -22.918212890625 19.3001708984375
7.375 25.197021484375 -39.1920166015625
-38.641845703125 -44.848388671875 22.4288330078125
-36.707763671875 -4.0283203125 -6.4901123046875
-14.864990234375 -21.097412109375 -1.981689453125
-49.1708984375 -48.07373046875 24.3453369140625
-45.662841796875 -48.23095703125 23.4556884765625
-5.234619140625 -37.918212890625 14.962158203125
-25.41015625 -28.007568359375 11.3092041015625
-49.569091796875 -19.2353515625 -2.95703125
-9.436279296875 -32.390625 10.2320556640625
-34.80615234375 -32.86328125 11.349365234375
-0.970458984375 -34.1279296875 9.29345703125
-50.27294921875 -40.94091796875 4.0694580078125
1.520263671875 -49.614013671875 29.869140625
-52.378173828125 -32.440673828125 -5.9580078125
0.387939453125 3.187255859375 -1.4801025390625
7.2841796875 -48.093505859375 24.4189453125
-39.911376953125 -45.5400390625 26.9923095703125
-42.3310546875 -16.811279296875 4.3302001953125
-36.50390625 -2.482666015625 -6.109130859375
-10.007080078125 3.298828125 -0.56103515625
-12.2197265625 3.86181640625 0.3043212890625
-3.4794921875 -33.365234375 8.3822021484375
-50.031005859375 -27.67333984375 2.65966796875
-50.450439453125 -31.336669921875 -7.2982177734375
0.90771484375 -49.732177734375 27.5977783203125
-17.43505859375 -21.661865234375 14.47119140625
7.3193359375 -49.037841796875 28.414794921875
-48.67529296875 -21.0791015625 -0.842529296875
-43.06396484375 -19.947021484375 0.521240234375
-7.6787109375 -0.763427734375 -4.1044921875
-47.75634765625 -28.767578125 6.63037109375
-46.97998046875 -48.810302734375 27.59716796875
-46.781005859375 -19.996826171875 -2.1614990234375
-51.108642578125 -33.707275390625 -3.695068359375
-45.044189453125 -47.9375 25.72802734375
16.9306640625 16.884033203125 -4.5294189453125
-19.266357421875 -1.783935546875 -4.6402587890625
-27.615234375 -25.437744140625 16.6484375
5.033935546875 -38.957763671875 14.466064453125
-11.029541015625 -23.6494140625 0.561279296875
-50.280517578125 -56.178955078125 34.3104248046875
-38.31982421875 -34.909423828125 13.1302490234375
-34.7578125 -23.759521484375 3.4981689453125
-8.5712890625 -35.227294921875 14.091796875
5.180908203125 11.68115234375 1.788818359375
-34.051025390625 -35.18212890625 20.7236328125
-0.84814453125 5.463623046875 0.5714111328125
-9.19482421875 -21.513916015625 0.844970703125
-23.029052734375 -22.220458984375 15.015380859375
-6.158935546875 -20.188232421875 8.9425048828125
-44.64990234375 -18.45458984375 4.6689453125
-36.309326171875 -43.00537109375 21.6270751953125
-45.32763671875 -20.86181640625 2.826416015625
-49.5234375 -35.35888671875 10.7486572265625
-6.6875 -18.827880859375 5.7054443359375
-11.0693359375 1.740234375 -1.7005615234375
-21.7021484375 -27.572509765625 8.69287109375
5.6201171875 24.101806640625 -37.0595703125
13.823974609375 16.359375 5.7628173828125
17.53173828125 -32.341552734375 10.2540283203125
-27.50244140625 -2.229736328125 -5.8978271484375
13.009765625 19.52490234375 -1.162841796875
7.742919921875 14.95849609375 0.09912109375
8.083740234375 14.1708984375 -4.078857421875
-19.474853515625 -16.236328125 18.1339111328125
-2.7158203125 6.502197265625 1.9461669921875
12.29736328125 21.98193359375 -2.610107421875
-33.3642578125 -23.726318359375 19.4873046875
-43.30419921875 -36.41357421875 14.30078125
6.6201171875 -51.621826171875 30.332763671875
11.560546875 16.029541015625 -3.614013671875
-31.64599609375 -2.5029296875 -4.541259765625
-40.063232421875 -21.543212890625 6.935546875
-42.259033203125 -20.915283203125 7.80322265625
-41.584228515625 -22.79638671875 7.27587890625
-49.76318359375 -49.69482421875 15.82666015625
-48.88427734375 -50.878662109375 18.6927490234375
-46.042724609375 -17.51318359375 -4.31982421875
-3.426513671875 -39.581787109375 16.242919921875
1.997314453125 -36.323974609375 12.1500244140625
-1.579345703125 -36.60888671875 12.51025390625
13.0859375 4.789794921875 -9.3824462890625
2.0244140625 20.73974609375 -6.79296875
-35.4267578125 -35.331787109375 19.9478759765625
-5.67138671875 -2.69091796875 -6.1962890625
14.254638671875 20.7509765625 2.88720703125
-21.666015625 -24.1416015625 11.2767333984375
-40.1923828125 -16.486083984375 4.5863037109375
-17.86083984375 0.802734375 -2.3878173828125
9.87548828125 24.421875 -43.8291015625
-30.839111328125 -24.2587890625 17.28759765625
5.21533203125 2.641845703125 -3.1236572265625
-24.29248046875 -29.37060546875 5.8662109375
3.847900390625 22.269287109375 -37.8245849609375
-43.041259765625 -29.49951171875 9.0401611328125
-26.034912109375 -29.27880859375 6.5565185546875
18.97021484375 8.885498046875 -11.7537841796875
-28.9287109375 3.51611328125 -0.263671875
-24.49755859375 -21.6318359375 -1.34814453125
-22.853515625 -0.3984375 -2.93212890625
-10.1630859375 -1.52783203125 -4.4232177734375
5.59228515625 14.00048828125 3.18310546875
-25.6474609375 -22.20849609375 -0.437255859375
23.802978515625 28.093505859375 -6.4190673828125
21.554443359375 15.004638671875 -8.2603759765625
-11.657470703125 -29.655517578125 6.081787109375
-50.4150390625 -43.689208984375 8.0416259765625
-31.022216796875 3.193115234375 -0.5128173828125
14.7138671875 21.25390625 -1.3760986328125
3.77001953125 12.960205078125 4.4627685546875
-12.48193359375 -0.473388671875 -3.4093017578125
-50.759521484375 -60.67041015625 27.9923095703125
-14.849365234375 6.95654296875 2.2918701171875
-42.391357421875 -18.115478515625 6.252685546875
-42.110595703125 -32.43994140625 9.607666015625
24.259521484375 19.616455078125 -8.2828369140625
23.50341796875 22.920654296875 -6.0030517578125
6.819091796875 13.187255859375 -0.6656494140625
-44.601806640625 -46.892333984375 27.25341796875
-40.25048828125 -17.790283203125 6.5096435546875
-26.5537109375 -25.752197265625 2.4495849609375
-9.2109375 -22.326416015625 4.29150390625
-41.42822265625 -18.727294921875 -3.428466796875
-4.583251953125 -22.033447265625 6.9705810546875
8.703125 24.89990234375 -39.928955078125
3.775634765625 -45.5244140625 22.0660400390625
8.158935546875 17.058349609375 1.00927734375
-13.645263671875 -27.930419921875 13.5423583984375
-43.734619140625 -19.449462890625 8.33154296875
-36.720947265625 -45.038330078125 23.539794921875
-49.46484375 -54.48681640625 21.6943359375
-7.606201171875 -34.409423828125 16.9000244140625
-10.53125 -24.852783203125 3.8616943359375
25.33935546875 29.456787109375 -3.2388916015625
-33.74755859375 -3.413330078125 -5.83154296875
-48.391845703125 -50.02685546875 29.79541015625
22.992431640625 28.791748046875 -9.591064453125
-47.850341796875 -61.103271484375 29.4344482421875
-44.290771484375 -47.900390625 24.2801513671875
-17.181396484375 -16.958740234375 17.7054443359375
-1.314453125 -19.282958984375 4.485595703125
15.404541015625 -30.842529296875 11.292236328125
-51.1611328125 -42.4912109375 6.571533203125
11.14013671875 16.364501953125 -2.162841796875
-43.5380859375 -40.80322265625 19.283203125
-6.867431640625 -36.5908203125 14.9761962890625
-48.597900390625 -59.602294921875 28.4202880859375
-24.4814453125 -26.87548828125 14.1607666015625
-8.296630859375 -20.6259765625 3.217041015625
-52.85205078125 -59.878662109375 26.0712890625
-33.975341796875 -25.246826171875 19.678466796875
-46.822509765625 -41.998291015625 20.322509765625
-1.5537109375 -41.36376953125 17.9627685546875
0.012939453125 -37.273681640625 13.5633544921875
27.82763671875 23.573486328125 -10.7703857421875
29.83349609375 19.026123046875 -13.1429443359375
-14.884521484375 -2.624755859375 -6.3182373046875
-2.025634765625 -19.16015625 7.31884765625
3.140380859375 -33.936279296875 9.7672119140625
-42.197998046875 -45.581787109375 26.332275390625
27.529052734375 24.81689453125 -9.95947265625
-37.318603515625 -22.08740234375 2.418701171875
-7.761474609375 -30.428955078125 7.721923828125
-39.688232421875 -36.937255859375 14.20849609375
-17.4755859375 -21.31884765625 -1.705810546875
24.322021484375 28.334228515625 -3.829345703125
-21.837890625 -15.9169921875 16.708984375
-20.55859375 -26.4775390625 3.3514404296875
-12.924072265625 -29.526123046875 13.1064453125
-25.312744140625 -26.775146484375 9.76611328125
23.0732421875 13.8212890625 -10.09814453125
-45.542724609375 -28.14501953125 7.85693359375
-6.64599609375 -33.113037109375 9.2783203125
-33.254638671875 -47.64208984375 27.654296875
3.2041015625 8.292724609375 5.5791015625
-22.792236328125 -28.3876953125 4.544189453125
-9.10595703125 -24.57763671875 5.5726318359375
-38.458984375 -21.233154296875 0.96923828125
-2.89208984375 -18.712890625 3.000244140625
23.234619140625 9.181640625 -13.1326904296875
6.093017578125 -48.3681640625 26.3564453125
5.8974609375 -46.44384765625 23.03759765625
20.3701171875 18.391845703125 -5.9010009765625
-3.437255859375 2.7041015625 -1.5537109375
-46.917724609375 -36.131103515625 13.88818359375
-23.94677734375 -25.344482421875 18.478759765625
-19.09765625 -25.954345703125 11.462646484375
-0.57177734375 9.060546875 3.6190185546875
21.744140625 23.143798828125 1.6634521484375
-1.136474609375 -20.87841796875 2.270263671875
-34.7646484375 -48.14501953125 30.0091552734375
-34.77490234375 -32.251953125 17.8177490234375
-7.568359375 7.234619140625 2.7442626953125
-26.35302734375 -29.720947265625 12.3974609375
-35.346923828125 -33.580322265625 13.976806640625
-44.71875 -21.440673828125 -0.98876953125
-34.84521484375 -40.749755859375 21.924072265625
9.652587890625 15.994140625 0.1151123046875
-59.449951171875 -57.463134765625 3.1802978515625
-8.607421875 2.709228515625 -0.88916015625
-20.410888671875 0.517578125 -2.572265625
6.2412109375 3.94384765625 -2.926513671875
-19.4365234375 -23.45849609375 12.963623046875
-17.8876953125 7.172119140625 2.2979736328125
-13.496826171875 7.61376953125 4.8984375
-47.361572265625 -22.81103515625 1.2579345703125
-6.4873046875 -0.03662109375 -3.6285400390625
16.634033203125 12.195556640625 -7.467529296875
-2.212646484375 -39.16748046875 15.266357421875
-0.961181640625 -18.307373046875 6.0284423828125
23.54052734375 26.3681640625 -4.239013671875
-23.8720703125 -3.08642578125 -5.709228515625
-24.011962890625 -23.287109375 0.9088134765625
-41.150634765625 -41.638671875 19.73828125
-3.353515625 -17.9208984375 5.05517578125
-42.46630859375 -43.554443359375 21.7674560546875
-33.037841796875 -46.26171875 22.41259765625
2.86962890625 -33.080810546875 8.6055908203125
-19.10986328125 -27.88818359375 6.941162109375
7.995361328125 26.872802734375 -43.19189453125
-59.91845703125 -49.31298828125 8.3714599609375
-28.66943359375 -23.4736328125 18.5423583984375
6.6904296875 13.56689453125 5.1124267578125
-45.70068359375 -48.58056640625 32.048828125
4.09716796875 -41.562744140625 19.1217041015625
6.8583984375 -50.32275390625 31.009765625
-23.10400390625 -27.785400390625 7.4525146484375
-48.56201171875 -45.69189453125 24.7593994140625
-32.71484375 -31.50732421875 7.3133544921875
-41.22705078125 -20.70654296875 9.9583740234375
0.43505859375 -22.566650390625 0.3046875
1.33935546875 -44.954345703125 21.9912109375
-29.361572265625 -24.84423828125 2.5638427734375
-46.292236328125 -24.361572265625 5.6929931640625
-40.917236328125 -33.660888671875 10.9991455078125
-14.759033203125 0.416748046875 -2.4451904296875
-16.874267578125 6.9931640625 3.8671875
-38.790771484375 -4.2978515625 -6.286865234375
-48.955810546875 -46.841552734375 23.6597900390625
3.72607421875 -40.7216796875 16.56201171875
-36.453125 -47.322998046875 27.6187744140625
-38.7041015625 -47.15185546875 22.8795166015625
-2.58544921875 -3.0380859375 -7.1343994140625
-26.536376953125 1.75927734375 -1.021728515625
-24.693115234375 -29.0634765625 12.3448486328125
-0.886474609375 -36.0322265625 11.170166015625
-29.99267578125 -22.40625 0.06298828125
-44.5810546875 -36.365966796875 14.9171142578125
-37.88134765625 -45.03076171875 30.5001220703125
-34.29638671875 -35.14990234375 23.0169677734375
-3.625244140625 9.988525390625 5.974609375
-50.42626953125 -51.3154296875 16.0169677734375
-47.48193359375 -37.32568359375 15.5047607421875
-9.9638671875 -28.928466796875 6.499755859375
-4.400390625 -36.426513671875 11.96142578125
-45.637939453125 -54.08984375 34.191650390625
0.406005859375 -34.0419921875 9.6090087890625
-34.72216796875 -1.52978515625 -3.4449462890625
-29.114990234375 -27.337646484375 15.9620361328125
-31.930419921875 -25.2314453125 2.7916259765625
-15.9169921875 -0.890625 -3.958251953125
-27.72216796875 -21.08642578125 -1.7108154296875
13.1787109375 21.227294921875 1.4136962890625
-39.010986328125 -1.335205078125 -3.2745361328125
-34.675048828125 -26.3369140625 4.680908203125
-49.341552734375 -39.89794921875 6.033935546875
-49.070556640625 -38.68310546875 15.395751953125
21.027587890625 24.859375 -2.5699462890625
-32.265380859375 -46.29736328125 25.9793701171875
-10.17578125 -31.556640625 8.675048828125
-31.426513671875 -23.4853515625 1.791259765625
-34.060302734375 -45.01123046875 23.241455078125
-49.4130859375 -30.94384765625 -5.0455322265625
-10.126953125 -22.235595703125 -1.4910888671875
-49.556396484375 -45.108642578125 10.37255859375
2.629150390625 2.83056640625 -1.8568115234375
-18.806640625 -31.306396484375 8.402099609375
-36.19970703125 -36.98876953125 18.3275146484375
9.95556640625 17.55908203125 3.9420166015625
-15.5478515625 -18.24169921875 18.570556640625
0.662841796875 -22.7041015625 2.985595703125
-48.9443359375 -48.93701171875 25.513916015625
-4.05029296875 -21.603515625 9.270263671875
8.3017578125 -51.88916015625 20.7620849609375
-45.10546875 -43.583251953125 22.0660400390625
-11.208984375 -32.294677734375 10.9232177734375
-46.6767578125 -48.71826171875 26.213134765625
-18.240966796875 -23.341796875 0.6263427734375
-40.57666015625 -21.176025390625 11.554931640625
-42.12158203125 -44.529052734375 28.8033447265625
-27.95166015625 -21.485595703125 20.6676025390625
-39.53759765625 -0.29833984375 -2.496826171875
-12.833740234375 -26.71875 4.1644287109375
-12.0947265625 8.489013671875 3.1947021484375
-3.342041015625 -19.935791015625 5.4893798828125
-45.408447265625 -40.549560546875 18.6468505859375
-5.353515625 -17.247314453125 4.10400390625
1.535888671875 4.065673828125 -0.9644775390625
4.911865234375 16.77001953125 -3.4307861328125
-45.233642578125 -39.40283203125 17.5093994140625
-34.193603515625 -21.552490234375 -1.00390625
-41.673828125 -37.938232421875 15.1343994140625
-20.833984375 -25.2392578125 2.769287109375
-42.058837890625 -20.37255859375 6.1182861328125
-17.826416015625 -24.728515625 2.5169677734375
-25.27734375 -29.69873046875 4.0867919921875
-10.064453125 -23.0947265625 2.8519287109375
-24.70751953125 -28.08154296875 8.9417724609375
-4.698974609375 -19.79345703125 -0.21337890625
-47.506103515625 -30.173583984375 7.1722412109375
-33.565185546875 -26.44873046875 17.1331787109375
-7.211181640625 -20.983154296875 -1.09716796875
-49.081787109375 -36.631591796875 13.582763671875
-10.792724609375 -0.10595703125 -3.09033203125
-43.974853515625 -39.278076171875 16.9337158203125
-40.50048828125 -40.473388671875 18.9984130859375
-46.96728515625 -27.78466796875 7.215576171875
3.6669921875 -43.331787109375 20.6632080078125
-38.971435546875 -32.72998046875 9.61328125
-17.62646484375 2.49462890625 -0.66552734375
-23.995361328125 -23.855712890625 21.0394287109375
5.73583984375 12.935546875 1.5936279296875
7.751220703125 -48.801513671875 22.3668212890625
-16.6044921875 -28.739990234375 8.262451171875
-2.141357421875 -20.505859375 7.929931640625
-20.4326171875 -28.14599609375 6.588134765625
-20.329345703125 -20.483642578125 -2.047119140625
-32.625 -20.62939453125 -1.42626953125
-50.568603515625 -35.85107421875 -1.090087890625
14.318603515625 -30.0419921875 11.5941162109375
-51.89306640625 -34.88330078125 -4.347900390625
-13.5517578125 4.135498046875 0.543701171875
8.572998046875 -47.78759765625 23.8695068359375
-47.698974609375 -15.80224609375 -5.456787109375
-48.4716796875 -27.782470703125 5.147705078125
3.70458984375 17.854248046875 -4.733154296875
-28.607666015625 -28.83154296875 13.7696533203125
21.078369140625 23.78076171875 0.61083984375
-51.412353515625 -45.45263671875 9.1397705078125
-43.512939453125 -33.87255859375 11.2650146484375
-26.986083984375 -22.2958984375 -0.742919921875
-21.364013671875 -26.4716796875 9.8092041015625
-40.674072265625 -46.602783203125 21.8447265625
-45.014404296875 -34.854248046875 12.5849609375
24.727294921875 25.97802734375 -0.5994873046875
-49.6923828125 -45.52978515625 13.0501708984375
10.346923828125 14.440185546875 -1.6767578125
3.57080078125 24.41259765625 -40.6595458984375
-42.68017578125 -3.9794921875 -6.1324462890625
-31.64892578125 -25.9892578125 14.7626953125
24.125 16.5947265625 -9.5032958984375
-39.927490234375 -46.70751953125 24.9376220703125
-43.0751953125 -3.298583984375 -4.5765380859375
6.8740234375 15.281005859375 1.1627197265625
-0.925537109375 -40.427490234375 16.698974609375
-35.634521484375 -32.058349609375 8.4525146484375
-40.34619140625 -20.04541015625 1.499755859375
12.52099609375 18.185302734375 -0.5706787109375
-11.921875 -31.396728515625 9.8363037109375
-48.9267578125 -31.427001953125 8.862548828125
-44.493896484375 -18.6298828125 -3.4580078125
8.353271484375 -50.099853515625 26.7069091796875
13.170166015625 6.8515625 -7.074951171875
-26.735595703125 -26.9404296875 3.0977783203125
-39.20947265625 -20.003662109375 9.4278564453125
-38.03466796875 -18.574951171875 5.5994873046875
3.96826171875 -51.864990234375 31.504638671875
4.789794921875 17.8701171875 -1.391357421875
-38.085693359375 -39.346923828125 18.0455322265625
-0.7734375 10.18896484375 4.357666015625
-43.07373046875 -25.819580078125 9.8946533203125
-30.310791015625 1.07177734375 -1.5872802734375
-50.53369140625 -47.0556640625 11.433837890625
-3.410888671875 -35.0224609375 10.76904296875
-36.4365234375 -46.2568359375 24.631591796875
8.3603515625 15.41552734375 4.484619140625
-6.692626953125 -35.854248046875 13.2763671875
11.888916015625 18.684326171875 4.8397216796875
2.2841796875 -48.056640625 25.910888671875
-33.2216796875 1.509765625 0.216796875
6.613037109375 15.058837890625 2.88037109375
-39.736083984375 -20.228759765625 -1.772705078125
-46.962890625 -45.40771484375 23.269287109375
-26.147216796875 -2.243896484375 -5.1925048828125
-1.931640625 -1.297119140625 -4.98388671875
-42.916015625 -44.21533203125 30.312744140625
-50.77734375 -53.419921875 18.83935546875
-37.72216796875 -42.979736328125 20.883056640625
1.837646484375 -37.30859375 13.341796875
-0.668701171875 -38.095947265625 14.3905029296875
-48.766357421875 -17.252197265625 -5.2451171875
-44.032470703125 -31.679931640625 9.1103515625
13.201416015625 13.606201171875 -34.7137451171875
-12.876220703125 -1.2314453125 -4.884521484375
-33.805419921875 -30.606201171875 11.736328125
14.6376953125 22.040771484375 0.5662841796875
-24.234130859375 -26.274169921875 2.4906005859375
-36.2880859375 -46.72705078125 30.4508056640625
-24.762939453125 4.525634765625 0.767333984375
4.0703125 24.763671875 -38.3975830078125
-17.048828125 -2.577392578125 -6.0235595703125
-31.77490234375 -19.35546875 -4.3798828125
6.3203125 26.948486328125 -42.0263671875
-44.656005859375 -17.45263671875 6.2486572265625
-46.60986328125 -23.09912109375 4.2391357421875
-12.251953125 -30.74560546875 7.2779541015625
-9.15283203125 -33.6875 16.31982421875
-54.49365234375 -52.26123046875 23.6448974609375
20.263671875 17.059814453125 -6.23388671875
1.942138671875 -34.59326171875 10.2266845703125
18.177001953125 10.845703125 -9.351806640625
-36.05712890625 -33.63916015625 10.87109375
-21.336181640625 -3.0712890625 -6.4815673828125
9.510009765625 -50.2978515625 22.810302734375
-29.650390625 -31.208984375 12.461181640625
-49.38818359375 -40.09521484375 14.6688232421875
2.98046875 17.817138671875 -2.907958984375
-14.75146484375 -29.822021484375 6.4207763671875
-2.07275390625 -33.45458984375 8.65380859375
-47.81689453125 -32.77099609375 9.321044921875
17.571533203125 21.715087890625 -2.0618896484375
-36.3173828125 -38.482177734375 19.38623046875
6.75634765625 14.482177734375 -3.3883056640625
-47.318603515625 -47.729736328125 25.5718994140625
3.3251953125 -31.826416015625 6.065185546875
-33.44921875 -47.704833984375 30.40380859375
-6.048583984375 -35.412109375 10.9971923828125
18.508544921875 19.282958984375 -4.115234375
-20.572509765625 1.672119140625 -1.8150634765625
-15.399169921875 8.022216796875 3.4993896484375
7.925537109375 13.7421875 -1.5419921875
-12.094970703125 -27.779296875 5.1966552734375
-38.949462890625 -2.602294921875 -4.935546875
-16.64208984375 1.365966796875 -1.960205078125
5.032958984375 8.103759765625 0.039794921875
-0.934326171875 3.30615234375 -1.2808837890625
-15.077880859375 2.5703125 -0.974365234375
-48.923583984375 -36.5419921875 15.3956298828125
22.689453125 21.120361328125 -5.9306640625
-43.08544921875 -47.242919921875 23.8189697265625
-50.3955078125 -47.3095703125 21.904541015625
15.74365234375 18.3681640625 -3.5550537109375
1.995361328125 8.93701171875 2.8262939453125
-45.871337890625 -23.61572265625 6.716064453125
16.703369140625 19.330322265625 1.78857421875
-1.633544921875 10.976318359375 6.833251953125
25.541748046875 26.130615234375 -8.037353515625
-6.110595703125 3.31005859375 -0.616943359375
2.528564453125 -46.0107421875 22.573974609375
5.152587890625 12.82470703125 -0.980224609375
-27.078857421875 3.6220703125 1.7105712890625
-44.6171875 -45.372802734375 29.371337890625
3.820068359375 8.010986328125 1.0501708984375
-3.30517578125 -20.10400390625 -0.4630126953125
3.4599609375 12.1328125 3.4281005859375
-17.33251953125 -20.201904296875 -2.8121337890625
-9.606201171875 -30.529296875 7.0062255859375
-11.0 8.053466796875 5.1260986328125
-8.613037109375 8.90380859375 5.032958984375
23.024169921875 26.41064453125 -5.460205078125
7.08056640625 25.86083984375 -41.1588134765625
-5.1025390625 10.35791015625 4.5108642578125
16.314453125 21.71533203125 -1.4652099609375
10.984375 17.66845703125 0.365966796875
-23.18603515625 -24.78125 2.26220703125
-49.482666015625 -33.5126953125 -0.1964111328125
-6.59423828125 -20.0791015625 -2.32177734375
19.68701171875 23.35791015625 -2.7823486328125
-12.5869140625 -21.2734375 -1.8575439453125
20.55908203125 21.237548828125 -4.7489013671875
1.005615234375 4.838134765625 0.17919921875
-49.5029296875 -37.00927734375 8.55029296875
19.629638671875 23.257080078125 2.82568359375
-14.951416015625 -22.32470703125 -0.4501953125
-50.47021484375 -58.49560546875 33.89990234375
-37.948974609375 -20.9306640625 2.3291015625
10.062744140625 18.336181640625 1.9539794921875
-48.45703125 -40.70361328125 18.97119140625
4.822509765625 -46.94091796875 25.8433837890625
-49.718017578125 -51.739990234375 18.14794921875
-54.101318359375 -54.328369140625 25.01611328125
-42.711669921875 -44.326416015625 27.5489501953125
-42.835205078125 -38.520751953125 16.05419921875
-22.123046875 -29.1044921875 5.6619873046875
-11.419677734375 -25.4560546875 2.4609375
18.464599609375 23.9814453125 0.996826171875
-1.2822265625 -3.002685546875 -7.2947998046875
-50.466064453125 -38.368408203125 1.0347900390625
-22.548583984375 -22.143310546875 -0.358642578125
2.2978515625 -46.64990234375 23.86474609375
-23.2666015625 -21.330322265625 -1.883544921875
-8.82373046875 -34.615966796875 12.4197998046875
-26.706298828125 -26.166748046875 15.4825439453125
12.614501953125 8.640380859375 -35.693359375
-30.69775390625 -29.974609375 7.875244140625
15.083740234375 -32.251220703125 15.1712646484375
