-33.47509765625 -57.093505859375 28.642333984375
28.796875 16.05029296875 -4.3212890625
-22.4541015625 -57.36767578125 4.37744140625
-8.651123046875 -19.673583984375 -3.52294921875
-5.389892578125 -21.992431640625 -6.7523193359375
-19.523193359375 -46.212158203125 -0.247802734375
2.68310546875 -35.8359375 6.1036376953125
-19.461181640625 -50.84033203125 -4.421630859375
-32.381591796875 -53.162353515625 21.4180908203125
-31.020751953125 -16.673095703125 0.18310546875
-24.7998046875 -19.441162109375 -2.883544921875
-36.563720703125 -45.97021484375 14.836181640625
-2.10693359375 6.322021484375 2.801025390625
11.892333984375 -18.89404296875 -0.9783935546875
-35.776611328125 -2.211669921875 -2.2239990234375
-22.440673828125 -59.01904296875 0.61669921875
7.24560546875 -37.344482421875 -6.5736083984375
9.441650390625 5.197265625 1.4644775390625
-35.55810546875 -17.860595703125 4.6866455078125
-29.771484375 2.695068359375 1.0543212890625
-36.737548828125 -23.8818359375 -4.887451171875
-4.789306640625 -9.199951171875 -1.85986328125
-21.56982421875 -53.107421875 -4.372802734375
-26.396484375 -16.537109375 -0.0341796875
-5.665283203125 7.205322265625 3.750732421875
3.764892578125 -33.23681640625 0.78662109375
8.046875 -18.95654296875 -2.255126953125
-17.785400390625 -31.636474609375 1.3199462890625
-37.473876953125 -22.555419921875 9.005859375
-20.330078125 -20.208984375 -3.610107421875
0.291015625 -9.81298828125 -1.00634765625
-38.868896484375 -44.10400390625 13.4815673828125
7.1650390625 8.179443359375 4.1143798828125
-22.260986328125 -53.158935546875 2.084228515625
-36.86962890625 -22.273681640625 3.9630126953125
26.160888671875 8.453125 -4.5968017578125
-33.083251953125 -32.2333984375 -5.8377685546875
-24.3388671875 -56.736572265625 21.4559326171875
19.813720703125 32.634033203125 -5.0394287109375
-23.068359375 -44.383544921875 4.932861328125
22.255126953125 23.56787109375 -9.9244384765625
-36.71875 -28.45361328125 -4.9102783203125
7.777099609375 3.546875 0.164306640625
-37.430908203125 -23.730224609375 0.83447265625
-34.552734375 -42.452880859375 11.313720703125
-20.396484375 -44.21826171875 -2.284912109375
10.73193359375 10.627197265625 6.117919921875
-21.328369140625 -54.332763671875 -6.7154541015625
-31.874267578125 -63.796875 28.455078125
-26.523193359375 -27.78564453125 -6.7215576171875
-23.33154296875 -40.849365234375 15.7578125
-33.1298828125 -21.853515625 -6.4464111328125
-37.253662109375 -30.88427734375 -1.1798095703125
-13.34619140625 -45.281494140625 -6.9642333984375
4.974609375 -34.046630859375 -2.339111328125
-34.54931640625 -13.725830078125 0.3626708984375
-14.759765625 -7.0712890625 -2.4871826171875
-20.99462890625 -33.496337890625 25.2271728515625
-27.32861328125 -47.61865234375 17.6793212890625
23.908447265625 19.931640625 -13.538818359375
4.979736328125 6.4384765625 2.7674560546875
-3.67041015625 3.745361328125 0.578857421875
23.068603515625 19.548828125 4.5908203125
-28.086669921875 -21.681884765625 -6.6600341796875
2.69970703125 9.41650390625 5.4140625
-31.67626953125 -59.04736328125 21.52392578125
26.526611328125 13.089599609375 -3.3511962890625
15.00537109375 -26.9755859375 -4.6719970703125
-23.321533203125 -50.27392578125 11.2105712890625
-35.06103515625 -70.88330078125 30.8934326171875
-33.378662109375 -2.2998046875 -2.173828125
-30.140625 -29.917724609375 -8.5594482421875
-25.113525390625 3.412109375 1.789794921875
5.050048828125 4.544921875 0.8909912109375
-31.805419921875 -64.18701171875 25.706787109375
-7.921875 -0.96533203125 -2.3546142578125
-26.720947265625 5.912841796875 3.7293701171875
-3.290771484375 -44.731201171875 -3.8389892578125
0.17529296875 -33.951171875 4.740234375
-13.027587890625 -48.201904296875 -9.439453125
-8.69775390625 8.162353515625 4.732421875
2.667236328125 7.03369140625 3.2657470703125
-20.818359375 -21.6552734375 -6.437744140625
-31.7236328125 -50.53515625 24.1861572265625
-1.7568359375 -21.55859375 -6.4044189453125
8.650146484375 -14.7666015625 1.9075927734375
-16.33935546875 -34.878173828125 1.5595703125
-29.730712890625 -27.722412109375 -6.535400390625
16.994384765625 23.785888671875 1.527587890625
-31.724609375 -59.919921875 24.935791015625
19.561279296875 30.5576171875 -7.364013671875
-31.0322265625 -44.619140625 13.078369140625
-10.8564453125 -30.954345703125 -0.8995361328125
-21.429443359375 -50.50927734375 15.5577392578125
-38.4521484375 -44.833984375 18.7239990234375
-17.23681640625 -17.59716796875 -1.0821533203125
-37.389892578125 -26.35400390625 -2.2579345703125
-8.602294921875 -9.677001953125 -1.67333984375
-1.614013671875 9.71923828125 5.9154052734375
-16.8330078125 -39.61328125 0.65380859375
-13.068359375 9.3828125 6.0130615234375
-12.569091796875 -8.498779296875 -2.3475341796875
28.6572265625 11.51806640625 -4.3885498046875
5.736328125 -2.630615234375 -2.50439453125
-38.219482421875 -54.510498046875 28.2401123046875
-23.282470703125 -15.698974609375 0.55517578125
-24.712646484375 -29.27197265625 -7.1583251953125
-37.035400390625 -25.596435546875 5.626220703125
-35.891357421875 -20.184326171875 0.9361572265625
-15.304443359375 -16.45849609375 -0.0450439453125
-16.087158203125 6.578857421875 3.6829833984375
11.008544921875 -31.386962890625 -7.6842041015625
-18.8837890625 -22.736328125 -7.4581298828125
18.00146484375 6.885498046875 2.1282958984375
2.0244140625 -29.17724609375 -2.24755859375
-33.40234375 -6.59375 -3.0672607421875
-31.7255859375 -59.93701171875 27.7225341796875
-33.19189453125 -51.0859375 25.8414306640625
12.747802734375 -3.044189453125 -2.8299560546875
14.995849609375 9.768798828125 4.4598388671875
-26.98046875 -9.083740234375 -2.2408447265625
-28.476318359375 -66.42724609375 21.55322265625
-15.416259765625 0.231689453125 -1.450439453125
-36.458740234375 -66.7861328125 34.7135009765625
-32.05615234375 -4.275634765625 -2.744140625
-12.776123046875 -21.57080078125 -6.728515625
-36.109130859375 -32.790283203125 0.5838623046875
-29.41552734375 -38.95361328125 -8.1495361328125
31.377197265625 8.843017578125 -3.0888671875
23.187744140625 22.193359375 -11.9105224609375
-16.897705078125 -21.612060546875 -6.31103515625
-36.781494140625 -4.500732421875 -2.80224609375
27.44677734375 18.43408203125 -0.339111328125
-16.225341796875 -13.927490234375 1.373779296875
-18.80908203125 -37.265869140625 1.0113525390625
-30.526123046875 -47.41015625 26.26025390625
19.46533203125 28.327880859375 -7.036376953125
26.96240234375 20.4853515625 3.3255615234375
-27.947509765625 -50.205078125 22.3365478515625
-24.789794921875 -45.277587890625 14.8319091796875
-35.987060546875 -62.9150390625 36.55224609375
-22.191650390625 -2.93798828125 -2.820068359375
11.560791015625 -12.202880859375 2.058837890625
3.1640625 -31.9375 3.361083984375
21.239501953125 7.5732421875 -0.9217529296875
-32.8818359375 -28.04150390625 -5.4952392578125
-33.33349609375 -64.802978515625 31.926025390625
7.717041015625 -25.194580078125 -5.4571533203125
15.9912109375 -23.8525390625 -5.8712158203125
-14.701416015625 -43.706298828125 -4.84130859375
-42.7705078125 -63.860107421875 34.9775390625
-18.802978515625 8.489990234375 5.3187255859375
-29.724609375 -36.14794921875 -10.710205078125
-22.537109375 -58.163330078125 -5.3773193359375
-23.640869140625 -42.70947265625 7.7154541015625
22.782958984375 26.832275390625 -9.4432373046875
24.00439453125 21.357177734375 -7.5885009765625
-38.1982421875 -52.36328125 31.61279296875
-29.60693359375 -49.060546875 23.985107421875
-16.474853515625 -8.5751953125 -2.34619140625
-3.454833984375 -11.934814453125 0.7554931640625
0.83642578125 4.885009765625 1.5545654296875
-8.865478515625 -31.121337890625 0.8157958984375
6.73486328125 -7.72021484375 -1.7159423828125
-31.507568359375 -47.153076171875 17.9774169921875
-37.12060546875 -20.5439453125 5.62353515625
-13.271484375 -40.161376953125 -2.5406494140625
-32.622802734375 0.922119140625 -0.1480712890625
-4.125244140625 9.35302734375 5.884521484375
-3.44287109375 -5.18896484375 -3.09619140625
-16.136962890625 -50.9833984375 -10.3486328125
-20.416259765625 2.692626953125 0.5157470703125
22.431640625 13.22265625 -5.5518798828125
18.203125 12.392578125 3.310791015625
-10.38037109375 -21.720947265625 -6.832275390625
9.138916015625 -36.742431640625 -7.4876708984375
4.201904296875 -4.16455078125 -2.7735595703125
6.912841796875 -12.781005859375 1.9000244140625
4.220458984375 -19.458984375 -3.6253662109375
-7.55029296875 4.60009765625 1.7921142578125
-32.79248046875 -35.45947265625 -3.35546875
-22.312744140625 -45.61279296875 1.7274169921875
-22.4638671875 4.26318359375 2.3577880859375
-37.86181640625 -29.555908203125 3.231201171875
11.263916015625 -16.662841796875 1.6826171875
-22.7314453125 -55.28564453125 -2.619140625
-29.7421875 5.886474609375 3.4835205078125
-36.486083984375 -24.810791015625 -8.06103515625
-7.672119140625 -34.818603515625 2.208740234375
-18.25048828125 -51.990234375 -6.7135009765625
-29.063720703125 -55.8525390625 19.920654296875
24.685302734375 11.943603515625 -3.0928955078125
4.594482421875 -23.6376953125 -0.3892822265625
-36.7783203125 -29.185546875 10.7440185546875
-30.405517578125 -14.4443359375 0.8839111328125
-33.1923828125 -60.083740234375 32.311767578125
-4.111572265625 -19.560791015625 -3.351806640625
-33.86279296875 -25.28564453125 -6.7529296875
-36.271484375 -54.343505859375 26.52099609375
-22.796630859375 -25.284912109375 -7.230224609375
-26.34716796875 -25.708740234375 -7.7083740234375
-7.2294921875 -4.796630859375 -2.6929931640625
-1.717529296875 -8.79736328125 -1.6685791015625
-4.485595703125 -49.099365234375 -7.445068359375
-26.16943359375 -18.282958984375 -1.688232421875
-11.59375 -15.110107421875 0.6900634765625
13.6904296875 7.22314453125 2.7972412109375
-4.474365234375 -1.3759765625 -2.4942626953125
-0.710693359375 -13.726806640625 1.688232421875
-15.381591796875 -41.64404296875 -3.120849609375
-34.367431640625 -10.891357421875 -2.224365234375
-34.81103515625 -31.9453125 -3.796142578125
-24.02490234375 -47.741455078125 17.5584716796875
-26.1923828125 -53.47607421875 20.434814453125
-36.600341796875 -62.080322265625 33.58642578125
-22.1005859375 -39.376708984375 19.2451171875
5.83935546875 -23.221435546875 -4.900634765625
-37.4541015625 -27.20849609375 8.9644775390625
-35.19580078125 -65.383544921875 32.8101806640625
-37.46240234375 -46.87939453125 16.5426025390625
-31.0478515625 -55.59716796875 20.7265625
-30.24951171875 -62.723388671875 18.921630859375
7.6103515625 -16.25732421875 0.796142578125
-18.63916015625 -14.228759765625 1.3544921875
-28.239013671875 -46.776611328125 25.26171875
-33.306396484375 -44.411865234375 13.2889404296875
2.103271484375 -26.043701171875 0.9197998046875
-22.42578125 1.02685546875 -0.775634765625
-23.192626953125 -51.14111328125 3.381103515625
-36.6513671875 -25.2822265625 12.716796875
-22.04638671875 -49.69140625 19.061767578125
-23.59521484375 -67.328125 -4.80419921875
-37.854248046875 -26.572021484375 -6.6474609375
-24.384033203125 -44.02685546875 9.609619140625
-6.275146484375 -39.86376953125 -0.5228271484375
-25.14892578125 -39.85205078125 9.913818359375
-17.260986328125 -49.826171875 -7.9283447265625
3.174072265625 3.348388671875 0.1229248046875
20.1982421875 13.52001953125 2.4837646484375
-5.01611328125 -41.89599609375 -2.09326171875
0.405517578125 10.46435546875 6.0205078125
-38.21484375 -63.4921875 33.818115234375
17.8056640625 30.65087890625 -3.5526123046875
-6.375732421875 1.953857421875 -0.9136962890625
-29.0087890625 -59.6650390625 19.2215576171875
-32.57470703125 -62.59619140625 31.091796875
-37.5263671875 -40.271728515625 8.76220703125
-34.139404296875 -33.90380859375 -2.0726318359375
9.7470703125 -3.87890625 -2.8302001953125
-23.038330078125 -56.98779296875 1.6512451171875
-23.334716796875 -62.360595703125 -5.0733642578125
-0.742431640625 2.313232421875 -0.6634521484375
-22.859375 -61.51513671875 -3.19921875
-15.49560546875 9.918701171875 6.200927734375
6.521484375 -21.0146484375 -5.8929443359375
-3.011474609375 -2.941162109375 -2.8265380859375
-38.10009765625 -51.946044921875 27.1690673828125
23.8056640625 23.102294921875 -2.773193359375
-28.32568359375 1.103515625 -0.109375
-1.093994140625 7.872802734375 3.9173583984375
-13.640869140625 -52.013671875 -12.0093994140625
-33.644287109375 4.361572265625 2.158447265625
-30.401123046875 -62.759033203125 21.3648681640625
0.042724609375 -19.492431640625 -3.0633544921875
1.579345703125 -22.202392578125 0.7021484375
-22.421875 -50.2548828125 -1.08935546875
13.9814453125 -19.218017578125 -4.2550048828125
-5.010498046875 -14.720458984375 1.0140380859375
-1.37548828125 -6.617919921875 -2.3983154296875
-22.151611328125 -55.2412109375 1.01416015625
-17.701416015625 -29.241943359375 -4.0537109375
-34.365478515625 -45.76416015625 14.5889892578125
-7.0380859375 -50.590087890625 -7.8951416015625
-40.42431640625 -58.97705078125 35.154052734375
-34.721435546875 -67.462158203125 31.3966064453125
12.95263671875 -6.512939453125 -2.23388671875
-4.4453125 -38.37060546875 1.18408203125
-22.830078125 -60.65185546875 -7.2261962890625
-30.325927734375 -46.223876953125 14.9888916015625
-18.3671875 -44.442626953125 -2.1220703125
-38.99267578125 -60.9970703125 34.7261962890625
-35.8369140625 1.338134765625 0.1258544921875
-11.013427734375 -34.771484375 0.6793212890625
-18.333984375 -40.626953125 -0.4912109375
-26.00830078125 -58.148681640625 19.8126220703125
-35.988525390625 -21.823974609375 2.1795654296875
33.89404296875 11.06982421875 -2.2110595703125
20.550048828125 13.941162109375 -4.28759765625
3.620361328125 -25.574462890625 -3.1502685546875
-24.721435546875 -42.259033203125 16.4703369140625
4.588623046875 10.640380859375 6.2037353515625
-35.835693359375 -58.1474609375 29.3642578125
19.06982421875 20.734619140625 4.3214111328125
9.685546875 -23.260986328125 -6.05712890625
9.489990234375 -27.211181640625 -7.0089111328125
-16.150390625 -10.62109375 -1.3040771484375
-33.814697265625 -54.559326171875 23.86279296875
35.06591796875 17.751708984375 -5.9410400390625
-25.921142578125 7.76171875 3.7850341796875
-34.23779296875 -40.36083984375 8.7646484375
-31.971435546875 -30.900146484375 -6.9654541015625
-2.182861328125 -37.225341796875 4.399658203125
-23.72216796875 -47.767578125 10.9705810546875
-21.31201171875 -37.4404296875 25.658203125
21.625244140625 25.646240234375 -10.5765380859375
18.8916015625 9.202880859375 1.413330078125
-36.893798828125 -42.68359375 11.271484375
-36.165771484375 -15.33740234375 5.8369140625
6.232421875 -33.154052734375 -6.7156982421875
9.6494140625 -8.643798828125 -1.281982421875
-3.718505859375 0.519287109375 -1.7401123046875
-28.187255859375 -54.07568359375 20.149658203125
11.668212890625 -14.73583984375 4.322021484375
-36.424560546875 -8.677734375 -2.979248046875
21.830322265625 24.7978515625 -5.5516357421875
-37.73486328125 -55.748046875 31.7802734375
34.2138671875 15.3623046875 -5.9439697265625
-27.15869140625 -11.17431640625 -1.2403564453125
-39.921630859375 -54.221435546875 34.39208984375
-32.747314453125 -17.72607421875 0.2777099609375
-19.337890625 -27.790771484375 -5.816162109375
-31.048095703125 -11.688232421875 -1.4908447265625
14.257568359375 -14.533447265625 1.8746337890625
-37.867431640625 -52.786376953125 24.6295166015625
-26.80322265625 -44.628662109375 13.88134765625
-17.22021484375 -42.23095703125 -2.227294921875
-4.430908203125 -10.828125 -0.6982421875
-30.09765625 -8.23779296875 -2.544189453125
-23.326904296875 -28.248046875 -6.18896484375
-29.401611328125 -0.857177734375 -1.5732421875
-25.145263671875 -41.100341796875 11.4447021484375
-37.185791015625 -58.697265625 32.21923828125
-17.162841796875 -18.520263671875 -2.8253173828125
-30.89990234375 -65.44873046875 30.0135498046875
11.1494140625 4.498779296875 0.7769775390625
-38.72314453125 -50.3212890625 23.474853515625
13.1357421875 -21.97119140625 -5.2232666015625
-13.99609375 -36.791748046875 0.2054443359375
-16.8154296875 7.901123046875 5.243896484375
-8.134765625 9.659423828125 5.9649658203125
-13.79248046875 -33.343505859375 1.1995849609375
5.061279296875 -36.18212890625 -1.7259521484375
14.00732421875 -12.109130859375 -2.2646484375
-36.238037109375 -47.916259765625 28.956298828125
-24.071044921875 -40.6240234375 8.217529296875
-35.065673828125 -22.053955078125 -5.744140625
-33.117431640625 6.18603515625 2.615478515625
-30.415771484375 -24.905517578125 -7.2315673828125
-37.375732421875 -18.46435546875 5.571533203125
5.668701171875 -22.2587890625 -1.7166748046875
-28.0244140625 -61.263916015625 17.1373291015625
-11.19970703125 -42.52294921875 -4.4259033203125
-23.561767578125 -39.784423828125 4.9342041015625
-33.710693359375 -56.676513671875 23.60546875
11.453125 -24.35791015625 -5.8458251953125
-18.8505859375 -5.90087890625 -2.605224609375
22.556640625 9.091796875 -1.0989990234375
-21.071044921875 -6.2294921875 -3.1624755859375
3.72705078125 -21.97802734375 0.124755859375
-27.20703125 -64.190673828125 19.899658203125
-32.24267578125 -58.706787109375 29.783935546875
32.224365234375 13.717529296875 -5.9407958984375
-13.823974609375 -4.391845703125 -2.926025390625
-27.17529296875 -31.22998046875 -7.7049560546875
13.205078125 -33.769775390625 -8.6097412109375
22.72998046875 12.522216796875 -3.574462890625
-22.510009765625 -41.129638671875 19.9332275390625
-25.66943359375 -1.21044921875 -1.8214111328125
-6.88916015625 -2.57568359375 -2.5703125
5.861083984375 -31.501953125 -7.865234375
-17.661865234375 3.565673828125 1.2281494140625
-12.69970703125 7.57373046875 4.598388671875
22.90087890625 22.9248046875 -8.2325439453125
-31.646728515625 -35.06494140625 -8.89892578125
-22.595458984375 -58.571533203125 -7.2529296875
20.795654296875 28.2275390625 -0.9183349609375
-31.69873046875 -37.089111328125 -6.8299560546875
-29.511962890625 -5.1953125 -2.6160888671875
-19.33251953125 -53.33251953125 -8.0347900390625
-23.908447265625 -64.8798828125 -4.897216796875
2.02490234375 -11.68994140625 0.7169189453125
25.47021484375 20.027099609375 -4.745361328125
2.59033203125 -14.658203125 1.152099609375
-15.721435546875 -1.59326171875 -2.3116455078125
-9.76220703125 -50.8388671875 -10.9246826171875
-19.8359375 -15.69482421875 0.677734375
-21.185302734375 -12.490234375 -0.257080078125
-29.456298828125 -52.054931640625 20.883056640625
-0.3720703125 -32.331787109375 2.408203125
-22.612548828125 -48.53857421875 7.572998046875
19.42431640625 18.153076171875 5.309814453125
13.331787109375 22.902587890625 -1.914794921875
-10.67236328125 -4.818359375 -2.6591796875
-10.739013671875 -45.87548828125 -6.7427978515625
-14.8779296875 1.686279296875 -0.252197265625
29.91943359375 13.48486328125 -4.61328125
-23.3525390625 -9.869384765625 -1.9044189453125
-32.16015625 -61.692138671875 29.2901611328125
-18.437255859375 -19.98486328125 -3.6329345703125
37.90576171875 15.376220703125 -6.87060546875
-29.436279296875 -66.9892578125 26.0201416015625
-18.31884765625 0.265625 -1.3890380859375
-29.869140625 -67.403564453125 23.2398681640625
-31.6572265625 -0.29638671875 -1.232666015625
-39.114990234375 -48.687255859375 20.26708984375
-15.630126953125 -38.666748046875 -0.458740234375
24.786865234375 22.015380859375 -1.4295654296875
3.142578125 -34.53564453125 3.7205810546875
-22.228515625 -41.776123046875 4.3592529296875
9.13525390625 -11.2421875 0.7789306640625
26.3076171875 14.7890625 -4.2437744140625
-12.45751953125 4.347900390625 1.8587646484375
-34.364501953125 -55.4580078125 27.244140625
2.21875 -0.444091796875 -2.08203125
-25.2265625 -49.542724609375 20.3544921875
-34.332275390625 -28.538330078125 -3.0880126953125
-11.581298828125 -39.13671875 -1.9482421875
-2.810791015625 -52.746337890625 -9.375244140625
-37.752197265625 -49.359619140625 26.5599365234375
-13.12890625 -24.62646484375 -7.880859375
-6.23388671875 5.7158203125 2.52490234375
-37.200927734375 -59.989990234375 33.8031005859375
-36.815673828125 -25.3828125 10.5718994140625
22.225341796875 26.83056640625 1.0860595703125
4.3515625 -33.344970703125 -6.5413818359375
27.974609375 9.131103515625 -4.966552734375
-19.564453125 -47.90576171875 -1.4986572265625
-12.2236328125 -10.11376953125 -1.1954345703125
-5.1611328125 -5.827880859375 -2.739990234375
-38.5458984375 -53.244873046875 33.5743408203125
24.5595703125 7.0380859375 -2.395263671875
-38.365966796875 0.15380859375 0.4443359375
-23.64208984375 -6.970947265625 -2.729248046875
-6.8115234375 -36.4384765625 2.551513671875
-16.499267578125 -45.5478515625 -4.1160888671875
-37.33544921875 -57.417236328125 28.4150390625
-11.703369140625 -50.176025390625 -10.8267822265625
-34.505126953125 -16.523681640625 3.3968505859375
-7.536376953125 -44.285888671875 -4.3052978515625
-25.9384765625 -61.955322265625 18.246826171875
1.310791015625 -30.86328125 2.125
-21.76806640625 -37.995361328125 21.955322265625
2.53076171875 -27.385498046875 -1.9361572265625
-32.28759765625 -13.445556640625 0.2352294921875
-19.335693359375 -36.47900390625 20.4468994140625
10.7294921875 -13.5849609375 2.9852294921875
20.97216796875 27.11669921875 -8.138427734375
-29.597900390625 -64.82861328125 22.4781494140625
-36.487060546875 -23.861572265625 5.2470703125
-17.600830078125 -48.1513671875 -2.309814453125
-12.15673828125 -36.625 -0.798583984375
-12.3466796875 -17.903076171875 -1.964599609375
-24.89599609375 -20.776123046875 -4.1669921875
-27.729736328125 -48.445068359375 25.8880615234375
-10.22802734375 -12.37939453125 0.13818359375
-22.127685546875 -54.4091796875 23.384765625
-14.884033203125 -19.546630859375 -3.2755126953125
-37.631591796875 -20.91650390625 8.150146484375
9.306884765625 -0.37158203125 -2.1470947265625
-8.09765625 -18.2685546875 -2.3314208984375
19.68701171875 28.10009765625 -5.1053466796875
-19.623291015625 -55.83642578125 -10.6878662109375
13.293212890625 -26.29638671875 -4.84521484375
1.65185546875 -16.161865234375 -0.65966796875
-37.9375 -26.905029296875 7.2054443359375
5.084716796875 -34.93212890625 -3.958740234375
-11.953857421875 -33.15380859375 1.038818359375
12.99365234375 -15.69970703125 -1.16796875
-33.43115234375 -41.520263671875 10.05859375
-33.558349609375 -16.49267578125 1.6480712890625
-8.187255859375 -13.778076171875 1.6947021484375
-1.672119140625 -12.1259765625 1.193603515625
13.28955078125 -12.4599609375 1.482666015625
-1.576171875 0.8310546875 -1.4639892578125
-22.5732421875 -49.003662109375 0.598388671875
-20.174560546875 6.90771484375 4.328125
-16.38671875 -25.812255859375 -7.028564453125
14.099609375 -10.71826171875 -1.0732421875
-3.856689453125 -34.4091796875 2.890869140625
22.757568359375 13.174072265625 -0.985595703125
-17.414794921875 -12.840087890625 0.34130859375
-22.8955078125 -46.8671875 8.261962890625
-23.768798828125 -32.088623046875 -6.8553466796875
-6.2099609375 -52.61865234375 -10.144775390625
-31.75537109375 -19.847412109375 -2.6646728515625
25.11474609375 12.778564453125 -4.743408203125
-43.413330078125 -57.943603515625 35.0382080078125
12.880859375 -19.286865234375 -2.7467041015625
25.84375 19.331298828125 -8.31005859375
-27.3291015625 -46.35498046875 16.132568359375
-25.0341796875 -12.551513671875 -0.2633056640625
-26.76318359375 -2.676513671875 -2.341796875
-8.4453125 -37.502685546875 0.3916015625
-21.836669921875 -17.75048828125 -1.5511474609375
-5.478759765625 -17.94287109375 -2.02783203125
-38.717041015625 -27.66552734375 0.233154296875
-17.87255859375 5.394775390625 2.9185791015625
10.3818359375 -35.34716796875 -8.51220703125
-15.914794921875 3.349365234375 0.81201171875
-4.8251953125 -45.308349609375 -4.8721923828125
5.896728515625 -18.779541015625 -2.4229736328125
25.457763671875 19.646240234375 -14.4217529296875
-9.26611328125 -20.687255859375 -5.586669921875
12.29736328125 -15.20751953125 1.92919921875
-12.741943359375 -20.208251953125 -4.7486572265625
11.870361328125 -9.678955078125 -1.1778564453125
-25.130615234375 -44.04736328125 13.550537109375
-17.360595703125 -51.490966796875 -5.0499267578125
-16.38623046875 -47.222900390625 -5.0714111328125
-30.33837890625 -3.630615234375 -2.9483642578125
3.254150390625 -32.089599609375 -3.1923828125
8.0537109375 -17.567626953125 -0.3597412109375
-6.49755859375 -20.372802734375 -5.8438720703125
-22.532470703125 -53.175048828125 7.680419921875
9.360107421875 -16.4375 1.9559326171875
24.922607421875 21.748046875 -14.92138671875
-14.544189453125 -31.294189453125 1.11279296875
-24.033447265625 -52.428955078125 22.01513671875
-23.09326171875 9.1220703125 4.7657470703125
-23.17822265625 -39.571044921875 14.510498046875
4.119873046875 -27.30810546875 -5.0958251953125
10.785400390625 -20.883544921875 -3.904541015625
-27.152099609375 3.538818359375 1.61669921875
-36.4755859375 3.9482421875 2.1043701171875
-41.6572265625 -62.491455078125 34.697265625
4.30517578125 -18.06201171875 -1.595703125
-31.0400390625 -61.568115234375 24.9892578125
-36.201904296875 -10.701416015625 -2.1009521484375
5.884033203125 -27.585205078125 -6.3670654296875
0.44140625 -5.9580078125 -2.6077880859375
-17.33984375 -50.227783203125 -3.0858154296875
-20.63330078125 -9.531494140625 -2.1513671875
-23.04736328125 -44.82470703125 3.14501953125
-18.1123046875 -53.642333984375 -9.291748046875
-23.18115234375 -62.80029296875 -1.4649658203125
18.498779296875 31.458251953125 -5.6195068359375
13.72998046875 -23.27001953125 -6.925048828125
23.191650390625 21.599365234375 -13.5831298828125
2.3046875 -30.84619140625 -1.2333984375
-25.75830078125 -52.153564453125 21.535400390625
-36.963623046875 -64.658935546875 32.2674560546875
-33.219970703125 -46.91259765625 15.64404296875
-6.4697265625 -8.95068359375 -1.292236328125
-4.669189453125 2.21728515625 -0.520263671875
-20.62548828125 -39.111083984375 2.5728759765625
-35.1103515625 -67.095947265625 33.5472412109375
15.4443359375 13.076904296875 5.70556640625
-12.52294921875 -13.04638671875 1.1583251953125
-26.3427734375 -49.634765625 21.861083984375
-2.691650390625 -19.86572265625 -4.357177734375
-32.251220703125 -8.1259765625 -2.991943359375
-40.7373046875 -55.577392578125 35.301025390625
-34.95068359375 -18.284912109375 3.08642578125
9.840087890625 -5.633544921875 -2.9637451171875
-6.0 -16.191162109375 -0.080078125
-0.45361328125 -0.8251953125 -2.3890380859375
-20.144775390625 -25.810791015625 -6.8681640625
-5.7958984375 10.497802734375 6.6754150390625
-8.44775390625 -7.99072265625 -2.7969970703125
-14.352294921875 -11.226318359375 -0.836181640625
-9.63037109375 5.683349609375 2.69140625
-32.12548828125 -57.388916015625 21.927490234375
-14.264404296875 -12.85498046875 0.7247314453125
-35.839111328125 -59.0087890625 31.055419921875
-17.35693359375 -33.279296875 1.7716064453125
-27.003662109375 -14.43603515625 1.0068359375
-33.14697265625 -29.76318359375 -6.3243408203125
-15.609130859375 -5.48388671875 -2.8240966796875
-24.482421875 -24.619140625 -6.71337890625
15.26611328125 -18.169921875 -3.6810302734375
-29.40673828125 -19.1376953125 -2.551513671875
-19.86328125 5.541015625 2.889404296875
-20.490478515625 -49.67626953125 -3.489013671875
4.8896484375 -13.472412109375 1.8043212890625
-14.38232421875 4.519287109375 1.9794921875
-30.702880859375 -33.322265625 -9.39208984375
-20.067138671875 -50.80517578125 18.0242919921875
27.880126953125 18.283203125 -2.9560546875
8.049560546875 -28.666259765625 -7.120361328125
-26.3994140625 -4.365966796875 -2.87255859375
-26.689697265625 0.8662109375 -0.6668701171875
-23.231689453125 -13.965087890625 0.9779052734375
-22.4697265625 -52.35009765625 -2.435791015625
-22.929931640625 -47.24853515625 13.430419921875
-5.55517578125 -32.455078125 2.028076171875
-28.4599609375 -20.7607421875 -3.7315673828125
-22.9384765625 -56.96240234375 -3.316162109375
6.6240234375 -36.51806640625 -4.99267578125
-14.85107421875 -35.168701171875 0.70947265625
-22.20703125 -56.51318359375 5.86865234375
-25.230224609375 -48.27001953125 18.796142578125
33.8623046875 11.85791015625 -3.757568359375
4.456298828125 -31.563232421875 -4.4288330078125
-36.889404296875 -24.257568359375 7.075439453125
-0.5107421875 -22.232177734375 -5.2767333984375
-30.380126953125 -63.227783203125 25.918701171875
-38.862548828125 -23.572509765625 8.8282470703125
33.0009765625 9.58935546875 -2.1505126953125
24.00244140625 21.955322265625 -5.8895263671875
-35.968505859375 -39.7041015625 8.28369140625
-26.48876953125 -32.84423828125 -8.47705078125
23.22265625 23.313720703125 -4.4493408203125
-35.946044921875 -38.05224609375 6.884765625
11.892578125 2.271240234375 -0.8748779296875
-22.870361328125 -47.341796875 2.109619140625
-36.624755859375 -31.169189453125 0.82421875
5.43896484375 -16.124755859375 -0.2408447265625
-2.452392578125 -33.380615234375 3.7711181640625
-30.264404296875 -59.350830078125 20.5240478515625
-26.16357421875 4.624755859375 2.7418212890625
-37.541748046875 -29.38037109375 7.4425048828125
-32.399658203125 -26.694580078125 -4.341064453125
14.507080078125 -20.5068359375 -5.255126953125
-37.785888671875 -27.685546875 -3.2733154296875
-12.10595703125 10.482177734375 7.02197265625
-24.44580078125 -44.863037109375 11.0987548828125
-27.510009765625 -5.772216796875 -2.557861328125
-20.88427734375 -0.11083984375 -1.692626953125
-28.307373046875 -24.256103515625 -7.5535888671875
-37.290283203125 -44.790283203125 13.67822265625
18.87744140625 28.99951171875 -3.775390625
-3.037109375 -54.02392578125 -10.7916259765625
-22.604736328125 -54.025146484375 5.6304931640625
-8.998291015625 -15.2138671875 0.895751953125
25.09521484375 9.718994140625 -3.608642578125
-22.49951171875 -59.427978515625 -1.2884521484375
-26.985595703125 -36.23974609375 -9.1724853515625
-34.58935546875 -33.483642578125 -0.2109375
-29.5986328125 -44.894775390625 13.9422607421875
-28.1826171875 -33.8759765625 -9.180419921875
-18.773681640625 2.01318359375 -0.15234375
3.182373046875 -6.018310546875 -2.2608642578125
-22.85205078125 -21.9052734375 -6.6942138671875
1.871337890625 -8.76904296875 -1.5513916015625
-40.092041015625 -57.23486328125 34.31103515625
-21.2373046875 -42.98681640625 1.5885009765625
-24.796142578125 2.06396484375 0.3681640625
-42.158447265625 -59.12158203125 35.4185791015625
-21.962890625 -20.41943359375 -3.9876708984375
18.851318359375 15.767822265625 4.86474609375
-32.879638671875 -35.099365234375 -5.1715087890625
-21.016357421875 -51.39599609375 -4.7550048828125
-37.157958984375 -41.030517578125 11.1131591796875
24.41748046875 20.146728515625 -11.9449462890625
5.74951171875 -36.218505859375 -7.1888427734375
6.775390625 -0.712646484375 -2.1583251953125
-36.87255859375 -50.103515625 30.9847412109375
-38.090576171875 -4.18408203125 -1.6798095703125
-19.19384765625 -16.97705078125 -0.9984130859375
-11.681640625 -7.085693359375 -2.259521484375
23.46044921875 10.445556640625 -2.7613525390625
-20.20556640625 -50.369384765625 22.3638916015625
-31.432861328125 -65.85107421875 25.1466064453125
-16.7412109375 -50.60595703125 -6.321044921875
12.101806640625 11.32275390625 6.766357421875
-3.34716796875 -36.5 3.3902587890625
-1.04443359375 -2.6796875 -2.848388671875
13.59716796875 8.61767578125 3.7054443359375
-19.885986328125 -11.08837890625 -1.121337890625
-30.442626953125 -17.955322265625 -1.616455078125
-37.148193359375 -12.806884765625 0.084716796875
-20.9453125 -55.951904296875 -8.8646240234375
-14.064453125 6.880859375 3.822265625
1.69580078125 -34.645751953125 5.493408203125
2.099853515625 -3.126953125 -2.7259521484375
-15.2578125 -21.86669921875 -6.87158203125
-17.16845703125 -52.733642578125 -10.8046875
-37.717041015625 -26.14892578125 4.215576171875
16.104248046875 15.477294921875 6.305419921875
-38.328857421875 -57.51171875 33.04052734375
-28.833984375 -13.84765625 0.395263671875
21.552978515625 17.351806640625 2.71533203125
-31.03955078125 -52.19287109375 21.46923828125
3.946044921875 -11.015869140625 0.66064453125
-9.987060546875 -47.91796875 -8.3115234375
-18.196533203125 -24.374267578125 -8.2386474609375
0.5693359375 -20.80029296875 -4.900390625
-31.345703125 -27.888671875 -6.0853271484375
-27.160888671875 -38.310546875 -8.1917724609375
-25.121826171875 -22.62451171875 -7.47607421875
-10.8115234375 -16.80712890625 -0.812744140625
-8.79150390625 -42.268310546875 -2.7469482421875
-19.5517578125 -30.265380859375 -3.2635498046875
3.81005859375 -33.70263671875 -0.8848876953125
-27.38232421875 -21.119873046875 -5.2822265625
-2.81494140625 -41.667236328125 -0.8287353515625
-5.3154296875 -7.566650390625 -2.462646484375
-9.95458984375 1.00048828125 -1.24609375
-23.445068359375 -64.001708984375 -6.4371337890625
3.697265625 11.949951171875 7.4984130859375
-36.02685546875 -45.30908203125 29.9564208984375
-17.3759765625 -36.26806640625 1.1756591796875
-38.23193359375 -24.7646484375 -1.7657470703125
-32.28076171875 -25.088623046875 -6.38720703125
1.1142578125 -13.07568359375 1.4844970703125
-9.916748046875 9.872314453125 6.3819580078125
-0.86376953125 -36.231201171875 4.274658203125
27.951171875 12.428955078125 -2.899658203125
-21.8203125 -23.0849609375 -7.6263427734375
-3.96533203125 6.96630859375 3.1807861328125
-10.048828125 -44.9560546875 -5.391357421875
22.755859375 25.457275390625 0.0538330078125
12.800537109375 12.814697265625 7.296142578125
-30.13134765625 -31.5615234375 -8.0107421875
-3.684814453125 -21.34765625 -6.271484375
-16.6923828125 -29.90234375 -1.55322265625
-14.711669921875 -30.1357421875 -2.3707275390625
-12.96630859375 -43.544677734375 -5.1529541015625
-0.39453125 -52.5390625 -11.0357666015625
7.261962890625 2.077880859375 -0.911865234375
-37.593017578125 -48.50341796875 25.191162109375
26.81298828125 20.161376953125 -0.234619140625
21.219482421875 11.322509765625 1.2662353515625
21.493408203125 26.218017578125 -4.2315673828125
-37.6279296875 -25.1728515625 -3.3359375
1.770751953125 -29.579833984375 -0.238037109375
20.043212890625 15.371337890625 3.3560791015625
-4.514404296875 -47.83056640625 -6.446044921875
13.061279296875 -11.211181640625 0.4881591796875
5.100341796875 -20.302490234375 -5.6241455078125
-33.66845703125 -53.692626953125 25.2685546875
-11.583251953125 5.406005859375 2.7030029296875
-29.46435546875 -16.509765625 -0.4097900390625
-21.655029296875 -38.015869140625 20.349853515625
-38.82421875 -51.191650390625 21.217529296875
7.703857421875 6.846435546875 3.093994140625
-8.908935546875 -10.96240234375 -0.7353515625
11.34326171875 -28.2978515625 -6.6531982421875
-2.700439453125 10.515380859375 6.7862548828125
-22.68212890625 -48.489013671875 15.42578125
7.402099609375 -11.032470703125 0.4871826171875
1.58203125 7.8291015625 4.135986328125
22.0908203125 24.195556640625 -7.6689453125
9.873046875 -9.884033203125 -0.2939453125
-24.4013671875 -41.40234375 14.55078125
-3.526611328125 -17.710693359375 -2.048095703125
-17.846923828125 -7.9296875 -2.923583984375
-24.452392578125 -4.528076171875 -2.854248046875
-11.819580078125 -41.303955078125 -3.5975341796875
-11.21826171875 -48.03857421875 -9.614013671875
-33.383056640625 -57.92822265625 24.904052734375
-12.22314453125 -1.54052734375 -2.197998046875
-23.314697265625 -43.543212890625 6.395263671875
-10.55517578125 3.223876953125 0.6666259765625
-29.59619140625 7.6083984375 3.2110595703125
25.15478515625 7.468017578125 -3.8533935546875
-28.205078125 -2.014404296875 -2.2257080078125
-22.874755859375 -53.629638671875 3.4735107421875
-31.806884765625 -51.829833984375 22.8211669921875
9.883544921875 -33.239501953125 -8.16162109375
21.375244140625 25.495849609375 -6.955322265625
13.06494140625 5.708740234375 1.5533447265625
-30.17431640625 4.017578125 2.3260498046875
0.942626953125 -18.48583984375 -2.2303466796875
-13.6220703125 -15.800537109375 0.451904296875
-3.600341796875 -15.46826171875 -0.1046142578125
-32.781982421875 -11.09228515625 -1.94970703125
-11.150390625 -31.78857421875 0.9844970703125
14.810546875 11.147216796875 5.2198486328125
-10.487548828125 -2.203857421875 -2.7235107421875
13.8173828125 -30.645751953125 -7.1417236328125
23.484375 23.492919921875 -12.8658447265625
-25.239013671875 -64.465087890625 19.9600830078125
-41.56396484375 -61.647705078125 37.022705078125
-22.692626953125 -40.319580078125 17.9521484375
7.66064453125 -33.04638671875 -8.46044921875
-18.740478515625 -2.89013671875 -2.708984375
6.71533203125 -6.000244140625 -2.2938232421875
1.720458984375 1.76123046875 -0.8648681640625
-32.133544921875 -33.406494140625 -6.89990234375
-27.86328125 -18.512939453125 -2.2122802734375
-22.871337890625 -60.73828125 2.951904296875
-42.322998046875 -57.85498046875 36.343994140625
-5.025634765625 8.27392578125 5.0235595703125
-2.66650390625 5.28173828125 1.683837890625
11.177001953125 -18.041259765625 0.487060546875
2.928955078125 -36.643310546875 8.0762939453125
-33.04833984375 -59.634765625 30.808349609375
-23.340576171875 -48.21240234375 3.6854248046875
-12.15966796875 2.9814453125 0.419677734375
4.860595703125 -33.970703125 1.645751953125
-1.611328125 -14.748046875 0.8431396484375
1.85302734375 -7.056640625 -2.126708984375
1.65771484375 -35.122314453125 3.656494140625
11.54443359375 -26.088623046875 -5.9766845703125
2.00537109375 4.11669921875 0.8387451171875
-5.5517578125 -19.762939453125 -4.142333984375
-21.906005859375 7.565185546875 4.84912109375
6.603271484375 4.318359375 0.8831787109375
-35.38134765625 -72.2001953125 31.847900390625
-30.0302734375 -37.398193359375 -9.8123779296875
-10.7587890625 -9.10107421875 -1.880615234375
-4.31201171875 -43.11474609375 -2.7840576171875
-23.5263671875 -49.472412109375 6.5875244140625
-16.260986328125 -28.25830078125 -4.7315673828125
11.937744140625 -35.188232421875 -8.427490234375
0.59814453125 -4.208984375 -2.88671875
0.017333984375 11.3916015625 7.23583984375
5.92041015625 -4.360595703125 -2.4892578125
-0.16064453125 3.794921875 0.5550537109375
9.451904296875 -18.765869140625 -1.5968017578125
-15.412353515625 -24.028076171875 -7.530029296875
4.726318359375 -14.86767578125 0.4649658203125
-8.0673828125 -49.420654296875 -7.7850341796875
-23.893310546875 -18.441650390625 -1.925048828125
1.332275390625 -37.274169921875 6.1171875
-34.293212890625 -63.596923828125 32.1734619140625
-39.31201171875 -46.63134765625 16.6380615234375
-32.02099609375 -42.212158203125 10.8028564453125
31.125 10.0888671875 -4.0947265625
-17.604248046875 -11.627685546875 -0.6226806640625
-23.45703125 -45.67724609375 5.7139892578125
13.40869140625 -28.5087890625 -6.6416015625
-7.153076171875 -47.22216796875 -5.8382568359375
2.89990234375 -16.907470703125 -1.221923828125
-37.68212890625 -43.586181640625 12.2677001953125
-8.986083984375 -34.10791015625 1.76611328125
-1.37060546875 -34.11328125 4.6339111328125
27.781005859375 16.035400390625 -2.6265869140625
-23.63134765625 -1.8369140625 -2.598388671875
-1.2216796875 -17.41064453125 -1.479248046875
-11.4013671875 -19.5556640625 -3.165771484375
5.36181640625 -24.551513671875 -4.252685546875
27.3271484375 7.78076171875 -3.7265625
-0.771240234375 -10.78857421875 -0.4296875
-22.6396484375 -55.70654296875 4.3646240234375
22.084716796875 18.419189453125 3.710205078125
-33.63818359375 -19.148681640625 -0.7845458984375
-15.4326171875 -15.145263671875 0.8267822265625
-22.82763671875 -51.46533203125 21.7603759765625
-37.935791015625 -54.907958984375 33.4737548828125
-20.0595703125 -35.23681640625 21.16162109375
-36.777099609375 -28.03173828125 7.3955078125
-38.146240234375 -29.753173828125 -1.753662109375
-29.111328125 -48.148193359375 25.1363525390625
3.64404296875 -28.63427734375 -4.44970703125
-23.262451171875 -11.52392578125 -1.1978759765625
-19.7666015625 9.677001953125 5.5733642578125
5.949951171875 -30.14990234375 -5.8619384765625
-3.255859375 -8.9990234375 -1.764404296875
-7.6171875 2.69189453125 -0.353271484375
24.6982421875 6.732666015625 -0.59619140625
16.6083984375 10.399658203125 3.795166015625
12.5576171875 -17.514892578125 -1.335205078125
2.74755859375 -21.4365234375 -5.5460205078125
-29.439453125 -11.46044921875 -1.109375
-22.625732421875 -52.7744140625 0.6331787109375
-6.98388671875 -42.948486328125 -3.12353515625
-6.573974609375 -13.56640625 1.9442138671875
-9.158203125 -0.229248046875 -1.7960205078125
-7.003173828125 -22.618896484375 -7.0869140625
-10.32275390625 -36.423583984375 -0.118896484375
-20.224853515625 -43.344970703125 -0.9576416015625
-7.672607421875 -39.12939453125 0.5849609375
-21.180419921875 -28.812255859375 -5.0267333984375
-26.58056640625 -7.370849609375 -2.9132080078125
-33.89794921875 -14.859619140625 1.345703125
-21.319091796875 3.5107421875 1.65673828125
-40.507568359375 -63.247314453125 33.9932861328125
-12.076904296875 0.248046875 -1.6270751953125
-23.12744140625 -54.92333984375 22.3026123046875
-21.10205078125 -37.467041015625 23.30712890625
-22.646240234375 -51.944580078125 -0.963134765625
-33.25732421875 -54.08740234375 22.2789306640625
-26.45361328125 -45.43017578125 15.271728515625
3.75634765625 -0.67578125 -2.09375
-2.975341796875 -16.731201171875 -0.95166015625
-22.763671875 -49.81298828125 8.800048828125
8.38232421875 -35.980224609375 -8.5845947265625
-14.346435546875 -2.72314453125 -2.6805419921875
-29.208984375 -62.204833984375 17.3935546875
-8.32470703125 -40.9345703125 -1.7054443359375
-16.941162109375 -48.520263671875 -3.756103515625
-17.861572265625 -38.444580078125 0.760009765625
-8.826904296875 -49.913818359375 -9.166748046875
-35.989013671875 -24.26220703125 -6.1685791015625
-20.942626953125 -18.54345703125 -2.677978515625
3.759765625 -24.652587890625 -1.936767578125
-38.863525390625 -47.38623046875 21.0528564453125
-9.082763671875 4.37646484375 1.6905517578125
13.8203125 -13.7666015625 0.46826171875
-14.739501953125 -39.444580078125 -1.588134765625
5.8173828125 7.496337890625 3.47705078125
-22.16064453125 -40.085205078125 3.9422607421875
-28.1240234375 -27.97802734375 -7.0882568359375
-30.912353515625 -38.695068359375 -8.270263671875
-34.012451171875 -26.08642578125 -5.466064453125
-23.514892578125 -20.151123046875 -3.287109375
-0.062255859375 -16.347412109375 -0.1973876953125
12.071533203125 -32.57373046875 -7.7967529296875
-13.8115234375 -27.214111328125 -7.0133056640625
-34.84765625 -30.277099609375 -3.528076171875
22.802978515625 7.28173828125 -1.8096923828125
-30.8876953125 -60.71435546875 26.4002685546875
-14.932861328125 5.8203125 2.97607421875
-34.150634765625 2.0498046875 0.7607421875
-6.316162109375 -45.023681640625 -4.8570556640625
-6.25048828125 -11.87548828125 0.2532958984375
-4.762939453125 -51.655029296875 -10.001708984375
10.79248046875 7.28662109375 3.1534423828125
11.834228515625 23.806396484375 -4.142578125
-20.69091796875 -47.165283203125 -0.808837890625
7.298583984375 -8.92626953125 -0.9970703125
-11.9873046875 -30.25146484375 -1.884765625
-38.09326171875 -28.08056640625 10.255126953125
-8.992919921875 -17.46533203125 -1.1900634765625
7.662109375 9.21484375 5.098388671875
-15.861083984375 -46.768798828125 -6.5899658203125
-26.489501953125 -63.274658203125 18.7362060546875
-21.2353515625 -45.947998046875 0.161865234375
-31.400146484375 1.999755859375 0.5606689453125
-23.01904296875 5.5546875 3.34765625
-37.197509765625 -1.555419921875 -2.10888671875
-0.420166015625 5.630126953125 2.1202392578125
-21.24365234375 -53.042236328125 23.508056640625
-16.720947265625 -31.492919921875 2.3765869140625
6.42626953125 1.0361328125 -1.609375
-30.959716796875 -64.532958984375 24.5045166015625
-30.486083984375 -43.30322265625 12.590576171875
-35.9287109375 -0.903564453125 -1.3707275390625
-17.82568359375 -45.661865234375 -3.090576171875
-24.85009765625 -28.0029296875 -6.3140869140625
13.022705078125 -4.763671875 -2.6654052734375
7.311767578125 -34.81689453125 -9.31201171875
-22.26953125 -53.99853515625 -3.2462158203125
5.622314453125 -34.9619140625 -8.005859375
-28.508544921875 -8.86669921875 -2.3729248046875
22.261474609375 14.60205078125 0.923583984375
-25.739501953125 -59.82958984375 19.9735107421875
-14.75732421875 -51.27978515625 -11.32568359375
-31.841796875 -36.571533203125 -1.818115234375
30.071533203125 9.02978515625 -4.2259521484375
-5.137939453125 -24.06982421875 -5.8582763671875
-37.767578125 -7.681884765625 -4.4041748046875
-22.0771484375 -56.881591796875 -6.0018310546875
15.6611328125 23.228515625 2.6541748046875
-39.2060546875 -49.135986328125 18.1385498046875
-23.243896484375 -51.1357421875 5.902587890625
-28.267333984375 6.10888671875 3.586181640625
-21.802490234375 -15.51123046875 0.6529541015625
-13.825439453125 -17.1806640625 -1.0048828125
-34.1494140625 -35.11572265625 -0.5936279296875
-32.500732421875 -63.8623046875 30.0167236328125
-36.399658203125 -19.236328125 4.591064453125
-8.015869140625 -16.004638671875 -0.103759765625
-22.785400390625 -26.944091796875 -6.6756591796875
-30.7734375 -21.072998046875 -4.5616455078125
8.748046875 2.278076171875 -0.9632568359375
-34.458740234375 -43.695556640625 12.1331787109375
-33.70361328125 -24.06591796875 -7.935546875
-28.6298828125 -35.58935546875 -9.4703369140625
-24.649169921875 6.676025390625 4.122314453125
-14.509521484375 -48.331787109375 -8.700927734375
-22.48779296875 -50.628662109375 10.0272216796875
9.674072265625 -30.65380859375 -7.2684326171875
-21.658935546875 -1.5576171875 -2.474609375
-28.178955078125 -12.123779296875 -0.6785888671875
4.5361328125 1.23681640625 -1.33251953125
17.739501953125 13.30908203125 4.384765625
-31.059326171875 -22.469482421875 -7.0718994140625
38.388671875 13.669189453125 -6.398681640625
-26.561279296875 -29.92236328125 -8.0484619140625
-40.684814453125 -60.703369140625 34.2197265625
-21.117919921875 4.8818359375 2.271728515625
-28.595458984375 -30.548583984375 -7.585205078125
-27.6181640625 -17.14013671875 -0.6361083984375
-16.798828125 -20.703369140625 -5.1298828125
-2.5908203125 9.066162109375 5.0111083984375
11.200927734375 9.718017578125 5.04736328125
-21.922119140625 -54.384033203125 -5.24755859375
-19.880859375 -45.419677734375 -1.592041015625
35.375 14.232421875 -5.1796875
22.150634765625 10.92578125 0.18896484375
11.208984375 -0.5751953125 -2.42578125
-17.029296875 9.238525390625 5.9832763671875
-31.754150390625 -46.77392578125 15.765625
-7.4482421875 7.420654296875 4.1695556640625
-36.483154296875 -27.21875 -5.9530029296875
-30.208251953125 -28.6455078125 -7.5826416015625
-35.676513671875 -27.490234375 -4.5074462890625
-1.800048828125 3.549072265625 0.305908203125
-21.912841796875 -58.0966796875 -8.4710693359375
-32.517333984375 -58.295654296875 28.3944091796875
-31.04052734375 -49.18505859375 24.879150390625
-4.832763671875 4.50927734375 1.2906494140625
16.133544921875 6.646484375 2.4461669921875
-37.3466796875 -29.311767578125 -3.6524658203125
3.173583984375 8.516357421875 4.353271484375
28.030029296875 17.666015625 -5.24560546875
-22.655029296875 -61.037353515625 -8.6722412109375
8.26220703125 -19.422119140625 -3.631591796875
-23.0966796875 -42.693115234375 5.2127685546875
21.169921875 26.56787109375 -9.528564453125
-23.933349609375 -50.280517578125 20.828369140625
-29.71484375 -66.564453125 24.6435546875
-9.114501953125 10.927734375 7.09228515625
-29.54296875 -22.281005859375 -6.8468017578125
-19.16796875 -0.768310546875 -2.2139892578125
-32.386962890625 -61.3017578125 31.7510986328125
-7.975341796875 -36.1513671875 1.445556640625
6.0302734375 -22.377197265625 -6.093505859375
-27.482666015625 -48.447021484375 22.679443359375
-23.85693359375 8.0869140625 4.071044921875
23.43701171875 24.44140625 -2.3233642578125
-4.2734375 -13.295654296875 1.667724609375
-1.412109375 -51.362060546875 -8.4405517578125
-6.00634765625 -49.66015625 -8.4609375
-33.805908203125 -57.115234375 26.11279296875
-38.7509765625 -29.351806640625 -0.1806640625
13.206787109375 0.635498046875 -1.5128173828125
-6.091796875 -51.76904296875 -8.9742431640625
-37.23876953125 -25.201416015625 -5.2216796875
-9.908447265625 7.51220703125 4.2523193359375
10.52978515625 -11.482666015625 1.3389892578125
-10.266357421875 -39.4208984375 -1.409912109375
15.28857421875 15.19189453125 -12.2447509765625
-15.98974609375 -48.461669921875 -7.963134765625
-16.949462890625 -50.635986328125 -9.2042236328125
14.732421875 -25.266845703125 -4.8355712890625
-38.476806640625 -51.5234375 33.149658203125
11.580322265625 -16.12353515625 3.1165771484375
3.23974609375 -9.002685546875 -1.000732421875
-21.240234375 -51.323974609375 22.047607421875
-30.83056640625 -35.421142578125 -10.0328369140625
-34.340087890625 -61.04296875 33.6019287109375
-19.125732421875 -26.963134765625 -6.977294921875
