-39.51171875 -21.2568359375 13.9002685546875
-9.281005859375 -49.2255859375 3.4222412109375
18.117919921875 7.0888671875 8.127685546875
-9.284423828125 -52.547607421875 1.013427734375
-36.078369140625 -13.338623046875 3.7171630859375
-20.696044921875 -21.470947265625 4.35888671875
-31.394287109375 -28.81201171875 -0.5623779296875
-8.07275390625 -5.251953125 2.3807373046875
27.009521484375 3.63427734375 -0.5743408203125
-16.14404296875 -6.671875 2.32666015625
-39.6015625 -28.139892578125 17.1802978515625
-37.340576171875 -7.77197265625 2.08935546875
26.585205078125 12.393798828125 -5.8753662109375
4.203125 -41.362548828125 0.5035400390625
-13.2451171875 -13.521240234375 4.016357421875
-35.893798828125 -17.151123046875 9.1441650390625
-37.85791015625 -11.47265625 2.5372314453125
-1.434814453125 -23.4287109375 2.898193359375
7.805419921875 -14.69482421875 5.3916015625
40.833740234375 11.2958984375 -1.81787109375
-22.743896484375 -58.935302734375 -1.79541015625
-8.100830078125 -44.171630859375 6.1959228515625
-12.60498046875 -42.666015625 5.5579833984375
13.05419921875 -36.098876953125 -4.3370361328125
-29.550048828125 -38.94482421875 -2.841796875
-5.529052734375 -24.157470703125 0.6346435546875
-23.43798828125 -23.815185546875 1.52978515625
-40.080322265625 -24.56884765625 14.28955078125
-16.58056640625 -13.718017578125 4.27197265625
-6.826171875 -9.393310546875 2.4912109375
3.406005859375 -21.85302734375 3.9930419921875
-13.34814453125 4.19970703125 9.4317626953125
4.946044921875 1.56640625 6.5859375
-34.03955078125 -6.30126953125 2.0792236328125
-11.422607421875 -34.27978515625 6.3077392578125
-14.443359375 -53.5078125 -2.9910888671875
-39.99365234375 -48.926513671875 30.1510009765625
11.3876953125 -22.765625 2.66259765625
-24.77294921875 -59.390380859375 10.8355712890625
-2.931884765625 -15.72216796875 6.344482421875
-26.3759765625 -7.378662109375 2.566650390625
21.534912109375 8.15673828125 6.912353515625
-4.2998046875 -20.0810546875 5.6162109375
17.479248046875 -29.44091796875 -0.901123046875
19.716064453125 13.869140625 3.189208984375
-34.7392578125 -59.5927734375 37.3968505859375
-23.70361328125 -30.085693359375 -0.759765625
-16.497802734375 -4.152099609375 2.693603515625
-0.09619140625 -37.08837890625 10.10498046875
-12.66845703125 -11.03125 2.763916015625
0.705078125 -26.868896484375 -1.572509765625
-37.75390625 -4.024658203125 3.22265625
-8.048828125 -36.142333984375 9.7308349609375
-25.052001953125 -51.17919921875 14.0206298828125
5.343505859375 -34.6591796875 -1.9495849609375
3.42333984375 -38.89453125 -0.4837646484375
26.67919921875 11.867919921875 3.6759033203125
11.348876953125 -17.1162109375 4.3355712890625
7.218505859375 -21.60546875 4.9761962890625
-26.662353515625 -2.30859375 3.9652099609375
2.783447265625 -37.410888671875 9.7705078125
-34.6435546875 -0.326416015625 5.361328125
1.56787109375 -18.42138671875 6.73779296875
-33.85302734375 -38.84912109375 7.8006591796875
-8.241943359375 -11.55517578125 3.2880859375
-13.848388671875 -1.296142578125 4.56494140625
-11.926025390625 -56.718017578125 -4.56787109375
5.1513671875 -26.6611328125 -1.849853515625
35.762451171875 21.074462890625 2.8260498046875
-23.180419921875 -53.668701171875 3.076416015625
27.008544921875 13.38916015625 5.6484375
8.976318359375 -38.32421875 -2.844482421875
-38.025634765625 -40.116455078125 12.5760498046875
-34.95458984375 -57.101318359375 29.072509765625
-36.746337890625 -26.23486328125 -0.517333984375
0.947998046875 4.97021484375 10.046142578125
19.01220703125 23.095703125 -1.0657958984375
-21.49609375 -61.72265625 -5.2230224609375
-9.7568359375 -3.639404296875 2.9857177734375
-29.4619140625 -59.49072265625 26.7486572265625
-21.016357421875 -47.88720703125 4.5086669921875
-18.935791015625 -3.009033203125 3.6116943359375
21.228271484375 18.503662109375 -5.539306640625
0.139404296875 -34.351318359375 1.657470703125
-2.66845703125 5.11474609375 10.0960693359375
-40.811767578125 -51.024658203125 29.3988037109375
-31.516845703125 -14.636962890625 4.7352294921875
-6.90869140625 -15.14208984375 5.80419921875
-3.324951171875 -27.875 -0.791015625
24.189208984375 17.19189453125 1.2783203125
17.7998046875 9.356201171875 9.2803955078125
-8.48193359375 -58.28466796875 -5.43310546875
-22.596923828125 -43.343017578125 9.1728515625
-14.138427734375 -3.096923828125 3.2752685546875
-36.7353515625 -22.94140625 9.7003173828125
-37.380859375 -59.635498046875 37.0089111328125
-32.034912109375 1.69091796875 7.3228759765625
11.185546875 -29.677490234375 0.6085205078125
5.741455078125 -4.227294921875 2.96923828125
-23.751708984375 -57.326171875 11.810546875
29.869384765625 3.81640625 -1.136962890625
-8.0244140625 -28.081787109375 -0.2515869140625
-34.3525390625 -22.1953125 5.0892333984375
-33.997802734375 -20.0517578125 6.5703125
-31.036865234375 -6.904541015625 2.1871337890625
-12.527099609375 -50.572265625 0.7562255859375
6.94580078125 -23.43994140625 2.2896728515625
-21.718505859375 -27.164794921875 -2.0379638671875
30.03369140625 6.935302734375 -0.8101806640625
-30.1083984375 -41.0380859375 13.64453125
11.547607421875 -13.2841796875 3.31005859375
-12.00830078125 -4.250732421875 2.622802734375
11.20166015625 -21.37255859375 5.413818359375
27.161376953125 8.238037109375 1.9842529296875
-1.346435546875 -25.229248046875 -0.02001953125
24.3310546875 -25.8203125 -4.49951171875
-24.576416015625 -50.3203125 16.3804931640625
-16.858154296875 -48.204833984375 2.5758056640625
2.756591796875 -31.801025390625 -1.0904541015625
12.44970703125 -25.3671875 0.36181640625
-35.703369140625 -17.17724609375 16.4984130859375
-38.378173828125 -30.302490234375 1.1519775390625
-15.060302734375 -9.53857421875 2.2825927734375
-8.513916015625 -7.400390625 2.365234375
-14.594482421875 -43.16015625 4.7891845703125
-1.111328125 -28.468994140625 3.109130859375
13.29443359375 -11.515380859375 2.1351318359375
-29.237548828125 -28.721923828125 -0.956787109375
-6.043212890625 -57.424560546875 -3.30224609375
-24.577392578125 -54.867919921875 15.2947998046875
10.86669921875 -20.4189453125 7.9554443359375
-31.638427734375 -2.6962890625 3.8101806640625
11.832763671875 4.014404296875 8.956298828125
-20.081787109375 -43.713134765625 6.956298828125
4.18505859375 -41.320068359375 2.68017578125
-5.944091796875 1.156005859375 6.5972900390625
-15.570556640625 -57.19384765625 -6.327880859375
-37.647216796875 -37.730224609375 9.4788818359375
15.544189453125 -30.824462890625 -1.42822265625
-40.6826171875 -47.002685546875 21.0694580078125
-24.047119140625 -56.9365234375 2.284912109375
-18.887939453125 -17.888671875 7.3388671875
-31.617431640625 -41.03125 -2.45751953125
31.922119140625 10.6005859375 -1.100341796875
-28.4580078125 -0.696533203125 5.095703125
-16.006103515625 -51.49658203125 -1.5274658203125
-40.757080078125 -55.134765625 33.240966796875
-10.32080078125 -17.380615234375 7.4058837890625
27.629150390625 13.52734375 1.34228515625
-35.529052734375 -24.083984375 0.802490234375
6.042236328125 -30.80322265625 -0.78955078125
-41.130126953125 -50.64013671875 27.2626953125
21.93115234375 21.02880859375 2.0606689453125
10.19482421875 -2.5859375 3.3812255859375
1.952392578125 -11.75439453125 3.15380859375
-20.87109375 -51.975341796875 4.4786376953125
-31.339111328125 -56.619873046875 27.877685546875
-30.28173828125 5.23681640625 8.0126953125
-29.314208984375 -18.09521484375 7.20703125
-39.49462890625 -29.205810546875 -0.559326171875
-25.0693359375 -56.13671875 6.020263671875
-1.739013671875 -17.308837890625 7.248779296875
-10.585205078125 -7.971435546875 2.2755126953125
23.14208984375 13.99853515625 6.371826171875
-27.5302734375 -47.8291015625 23.593505859375
-24.003173828125 -47.103271484375 8.266845703125
-15.206298828125 -16.4306640625 6.9423828125
11.91845703125 -17.766357421875 8.06982421875
-0.096923828125 -2.460205078125 3.6527099609375
11.77490234375 -34.44921875 -3.86279296875
-22.191650390625 -55.692626953125 -0.7562255859375
4.656982421875 -38.053955078125 -2.3453369140625
0.088623046875 -32.205322265625 3.1683349609375
-38.829833984375 -0.94091796875 7.1185302734375
-11.28369140625 -45.959716796875 4.353271484375
21.55908203125 22.6025390625 -4.219970703125
-36.46240234375 -39.271728515625 11.2918701171875
-34.82958984375 -19.1123046875 9.9415283203125
3.388671875 -39.64013671875 3.83642578125
0.6552734375 -35.472412109375 6.0457763671875
-19.39404296875 -23.11181640625 3.2252197265625
-12.50048828125 -15.4853515625 5.769775390625
19.32373046875 15.74755859375 4.94873046875
21.560546875 5.78271484375 4.630615234375
-15.488037109375 -36.056640625 8.3802490234375
-16.497314453125 0.293701171875 5.978515625
-19.713623046875 -15.1044921875 5.48876953125
2.098388671875 -7.537353515625 2.08544921875
-24.318115234375 -55.286865234375 11.8231201171875
-22.792236328125 -17.27734375 7.4774169921875
-10.419677734375 -23.501708984375 2.41357421875
-39.24609375 -34.08544921875 24.504638671875
-16.088134765625 -20.78662109375 4.599853515625
-1.71142578125 -39.218017578125 12.1458740234375
-7.87890625 -47.531494140625 3.3585205078125
-18.124755859375 -45.35009765625 3.8192138671875
-25.734130859375 -42.9248046875 15.0484619140625
-33.17822265625 -26.912353515625 -1.724853515625
28.921875 10.4375 0.027099609375
-24.740234375 -52.458740234375 6.7713623046875
29.599609375 10.71728515625 -2.6947021484375
-18.947021484375 -49.493408203125 2.3221435546875
1.509765625 -0.0791015625 5.3321533203125
-33.512939453125 -23.935791015625 1.724853515625
-38.853271484375 -35.408203125 6.9161376953125
-35.46826171875 -36.63623046875 1.5584716796875
-39.697265625 -7.5244140625 2.165283203125
-4.280517578125 -2.34619140625 3.58447265625
3.568359375 -37.8505859375 7.8914794921875
-25.907470703125 -47.830322265625 19.896728515625
34.10791015625 7.28662109375 -0.5302734375
-14.970458984375 -39.82080078125 6.67333984375
14.34619140625 6.95263671875 10.364013671875
-27.646240234375 -41.3310546875 15.2261962890625
2.001708984375 -38.033935546875 2.6697998046875
37.811767578125 18.351318359375 0.300537109375
-12.844970703125 -53.05419921875 -1.32958984375
-13.593505859375 -46.046630859375 3.135009765625
-15.2470703125 -25.95068359375 -0.4227294921875
-35.88671875 -37.76708984375 5.3846435546875
-28.11865234375 1.10595703125 6.5101318359375
-36.679931640625 -33.025390625 2.15625
-33.631591796875 -10.370849609375 2.44921875
-32.709228515625 -60.37255859375 27.7283935546875
-6.873291015625 -42.44140625 7.361328125
-29.53466796875 -15.29736328125 5.5140380859375
-27.517822265625 -23.567138671875 2.7978515625
1.109130859375 -36.35986328125 3.687744140625
3.092529296875 -25.0146484375 -0.291015625
-15.023681640625 -60.007568359375 -8.576171875
-29.802978515625 -4.707763671875 2.7364501953125
-34.909423828125 -59.999755859375 30.537353515625
-2.286376953125 -20.39599609375 5.5426025390625
-38.2197265625 -23.781982421875 11.122802734375
-37.55615234375 -43.47216796875 29.0257568359375
14.145751953125 -29.551513671875 0.3360595703125
38.505126953125 12.81494140625 -2.5963134765625
26.7373046875 -28.580078125 -0.6829833984375
20.091796875 22.598388671875 1.8431396484375
-4.882568359375 -8.42041015625 2.393310546875
-11.93310546875 -25.793212890625 -0.69091796875
-30.91162109375 -37.35498046875 -1.866455078125
15.265869140625 -23.960205078125 -0.0692138671875
24.424072265625 14.524658203125 -4.3282470703125
25.826171875 9.370849609375 0.976318359375
-8.990966796875 -54.1923828125 -0.117431640625
2.2490234375 -37.24658203125 0.1221923828125
-28.215087890625 -16.39404296875 6.74560546875
22.40771484375 16.302734375 -6.9361572265625
-35.19482421875 -30.9736328125 0.8634033203125
4.333740234375 -40.66259765625 14.1082763671875
22.12451171875 7.8662109375 2.5352783203125
-37.158203125 -17.802734375 14.0775146484375
-25.9375 -47.04296875 16.77587890625
-5.8056640625 -18.430908203125 6.4971923828125
-8.5234375 -39.522216796875 9.58642578125
21.609375 20.1416015625 -7.134765625
-3.349365234375 -23.552001953125 2.34814453125
-24.951904296875 -45.027099609375 11.50830078125
-38.41650390625 -25.738525390625 13.78955078125
-25.060546875 -57.358154296875 4.4451904296875
-9.92822265625 -14.13427734375 4.4053955078125
-16.8564453125 -41.544189453125 6.7274169921875
-24.42578125 -54.08935546875 5.6414794921875
-37.541748046875 -36.13037109375 8.2181396484375
2.359130859375 -39.481201171875 12.806640625
40.694580078125 12.49267578125 -3.3961181640625
-25.280517578125 0.89599609375 6.3104248046875
-38.087158203125 -27.7666015625 14.17822265625
-36.656494140625 -36.204833984375 4.259765625
13.37890625 -19.59228515625 4.103515625
-24.37890625 -59.369140625 0.8736572265625
-36.212890625 0.901611328125 6.8043212890625
-24.95458984375 -52.859130859375 8.6912841796875
-25.443603515625 -58.17529296875 30.220703125
26.4228515625 5.452880859375 0.8955078125
-34.71435546875 -55.4345703125 30.416748046875
-32.72119140625 -15.892822265625 5.8116455078125
8.09228515625 -7.536376953125 2.4278564453125
-35.110595703125 -39.057373046875 1.203125
-23.554931640625 -52.730224609375 23.3211669921875
38.108642578125 15.089599609375 -1.5927734375
14.029052734375 -32.6337890625 -2.85546875
1.740966796875 -29.2177734375 1.993896484375
-34.044921875 -40.262451171875 -0.2127685546875
25.279052734375 -27.473388671875 -4.01708984375
-20.383544921875 -54.4296875 1.332275390625
21.2568359375 19.858154296875 -0.3609619140625
-25.3203125 -56.951904296875 7.8504638671875
-38.279052734375 -30.761962890625 23.165771484375
23.369873046875 3.138427734375 2.5621337890625
24.138916015625 5.26025390625 0.7528076171875
-20.473876953125 -29.892578125 0.4310302734375
-11.0224609375 -10.10986328125 2.2601318359375
-10.864013671875 -55.879150390625 -2.9617919921875
-24.75634765625 2.74658203125 8.0084228515625
-13.3408203125 -18.861083984375 6.58154296875
13.045166015625 0.406494140625 6.01025390625
6.290283203125 -38.509765625 11.7750244140625
0.474609375 -16.740478515625 7.4903564453125
26.66015625 15.48388671875 4.524658203125
-12.494384765625 -27.93310546875 -1.636474609375
-6.908935546875 -24.700927734375 -0.6614990234375
14.49658203125 -27.006591796875 -0.5272216796875
-36.616455078125 -9.759033203125 2.341064453125
-25.583740234375 -52.0283203125 12.35205078125
15.619384765625 8.00390625 -5.528076171875
-5.90234375 -13.461181640625 4.3729248046875
-5.419677734375 -38.986328125 9.703857421875
34.96728515625 14.004150390625 -0.63232421875
23.916259765625 17.61376953125 -8.484375
-9.2177734375 -34.179443359375 6.5947265625
9.029052734375 1.432373046875 6.38671875
19.066650390625 10.7529296875 8.847900390625
-4.990234375 -15.8466796875 6.330810546875
26.4384765625 13.670654296875 -0.962890625
-32.12353515625 -52.47265625 29.31103515625
-25.84375 -19.173095703125 6.443603515625
-27.84033203125 -44.6005859375 17.8089599609375
-6.4658203125 -51.239013671875 1.53466796875
-21.18701171875 -32.337158203125 2.1949462890625
-38.577880859375 -46.393798828125 30.31787109375
-22.61279296875 -15.656494140625 6.330810546875
9.077392578125 -15.85791015625 6.39013671875
-0.838623046875 -5.157470703125 2.4517822265625
-22.757080078125 -10.035400390625 2.6641845703125
-0.31005859375 -37.89794921875 12.0087890625
-3.97265625 -10.87890625 2.8421630859375
-4.08984375 -12.940185546875 4.05615234375
23.326171875 17.38720703125 -0.601318359375
-33.6298828125 2.86376953125 7.96630859375
13.1484375 -21.405517578125 2.2340087890625
-25.534912109375 -27.349853515625 -1.8994140625
-10.70849609375 1.67919921875 7.147705078125
-8.80419921875 -16.056884765625 6.7158203125
-30.868408203125 -21.6162109375 4.5263671875
-11.604736328125 -33.50390625 4.5794677734375
-18.8994140625 -41.6015625 7.38623046875
-19.0283203125 -8.545654296875 2.3883056640625
1.5390625 -15.465576171875 6.0980224609375
-2.30859375 -36.313232421875 10.6700439453125
14.191162109375 -16.182373046875 2.4378662109375
-39.15234375 -20.491943359375 12.189697265625
24.09375 -0.796142578125 1.919189453125
-28.530029296875 -55.730712890625 28.560302734375
-22.505126953125 -3.284912109375 3.463134765625
-17.42578125 -58.03515625 -6.2156982421875
-41.210205078125 -45.76318359375 22.682861328125
-24.991455078125 -61.04443359375 15.766357421875
9.8134765625 -36.6142578125 -3.054443359375
-24.037841796875 -52.363525390625 17.87353515625
3.581787109375 -13.31787109375 3.91796875
-40.658447265625 -51.812255859375 33.6900634765625
-14.216552734375 -7.387451171875 2.1639404296875
-1.1298828125 -28.12841796875 0.8828125
-37.068603515625 -34.569580078125 5.2445068359375
-25.796875 -59.819580078125 13.0289306640625
-24.595947265625 -6.434814453125 2.3369140625
-28.574462890625 -27.1005859375 -2.0750732421875
-22.40673828125 -19.84521484375 5.6258544921875
-10.391357421875 -57.503173828125 -3.8155517578125
-20.47509765625 -58.0888671875 -3.4674072265625
-14.39794921875 -28.020751953125 -1.500732421875
-35.108154296875 -13.780517578125 16.92822265625
-16.796142578125 -17.7578125 7.4912109375
-30.08935546875 -25.485107421875 -0.5694580078125
-4.75732421875 -46.160888671875 5.79296875
18.57666015625 16.851806640625 3.23486328125
-8.438720703125 -19.89404296875 5.540283203125
-30.5869140625 -0.881591796875 4.8160400390625
-13.758056640625 -23.66748046875 2.6737060546875
-37.31591796875 -36.480712890625 25.130615234375
-26.81396484375 -32.671630859375 -0.457275390625
24.633544921875 14.57177734375 -9.079345703125
-32.70361328125 -17.052734375 7.2978515625
-0.325439453125 -23.880859375 0.77490234375
-24.716796875 -50.67529296875 23.1806640625
-26.337890625 -16.285888671875 6.624755859375
-12.211669921875 -6.40234375 2.20166015625
-30.299560546875 -39.849365234375 11.8709716796875
22.003173828125 2.282958984375 4.3529052734375
-17.37841796875 -34.15576171875 4.8704833984375
-19.8564453125 -11.89697265625 3.1956787109375
-13.583251953125 -25.0234375 -0.1241455078125
-14.09716796875 2.28466796875 7.430419921875
20.01220703125 3.95947265625 5.3997802734375
3.760986328125 -20.00244140625 6.8226318359375
7.4697265625 5.901123046875 9.6385498046875
-35.830810546875 -3.88037109375 3.2296142578125
-21.73193359375 -46.2509765625 5.7723388671875
-15.051513671875 -47.756103515625 1.59716796875
3.121826171875 -3.554931640625 2.994384765625
-39.619384765625 -27.420654296875 3.9439697265625
-9.560302734375 -45.060791015625 5.4754638671875
-12.069091796875 -20.56103515625 4.619873046875
-26.824462890625 -46.14599609375 23.2716064453125
-23.94384765625 -22.916748046875 3.826171875
-15.450927734375 -50.652099609375 0.0902099609375
-34.235595703125 -13.225830078125 3.59228515625
-0.3115234375 -35.448486328125 8.376953125
-36.78125 -52.978759765625 32.0107421875
-25.660888671875 -22.16455078125 4.252197265625
23.8837890625 7.9677734375 1.97705078125
-25.470703125 -29.775390625 -1.2037353515625
-25.740478515625 -14.277587890625 4.6312255859375
13.001220703125 -32.1640625 0.0999755859375
-27.605712890625 -3.684326171875 3.17626953125
9.628173828125 -12.52734375 3.6138916015625
4.14794921875 -28.345458984375 -0.4202880859375
-23.531494140625 -49.56982421875 6.5628662109375
-15.15625 -34.4677734375 5.2025146484375
-41.35888671875 -49.028564453125 24.5809326171875
-40.251953125 -41.38330078125 14.301513671875
-18.5654296875 -53.593017578125 -1.798583984375
8.22216796875 -31.54833984375 -0.6868896484375
20.6884765625 19.904296875 -4.035400390625
-33.82861328125 -2.00390625 4.23291015625
-9.044921875 -60.32666015625 -6.3572998046875
-39.384521484375 -22.861083984375 14.776611328125
-22.97216796875 -61.74951171875 -3.78955078125
11.03369140625 -1.142822265625 4.6187744140625
-21.4169921875 -18.46044921875 7.2344970703125
8.62890625 -28.143310546875 -0.694091796875
-25.288818359375 -60.199951171875 4.660888671875
-7.505126953125 2.86181640625 8.173095703125
28.190185546875 12.366943359375 2.7772216796875
-4.73974609375 -42.80078125 6.7462158203125
4.725830078125 -9.45849609375 2.7650146484375
-11.057861328125 -49.27685546875 3.012939453125
-1.2763671875 -30.123046875 4.269775390625
20.0068359375 7.1572265625 7.0078125
-33.245849609375 -57.899169921875 27.83154296875
-12.056884765625 -59.560546875 -7.09130859375
-9.639404296875 -1.865478515625 4.006103515625
-39.201416015625 -30.193603515625 16.893310546875
12.4306640625 -24.02783203125 1.856201171875
-27.48193359375 3.3994140625 8.4259033203125
10.919677734375 -9.53076171875 1.867431640625
-41.08154296875 -53.507080078125 29.5479736328125
5.161865234375 -39.8173828125 12.3359375
-16.953857421875 -24.32861328125 0.841064453125
-38.36962890625 -31.466064453125 2.6080322265625
-27.806396484375 -19.28759765625 6.4300537109375
11.022705078125 1.625732421875 6.9609375
-39.091796875 -39.71484375 13.9869384765625
-14.192626953125 -37.26513671875 8.0006103515625
-1.378662109375 -8.18994140625 2.265869140625
-7.104248046875 0.139892578125 5.5921630859375
-9.239990234375 -37.438232421875 10.146240234375
-18.38720703125 -44.504150390625 5.7254638671875
-23.513671875 -26.42236328125 -1.740234375
-17.87060546875 -51.522705078125 0.8516845703125
-5.0224609375 -17.052978515625 7.72265625
8.646240234375 -34.5166015625 -1.683837890625
-7.781005859375 -34.920166015625 7.9359130859375
6.8896484375 -1.92578125 3.957275390625
18.382568359375 5.26025390625 6.925537109375
9.94287109375 -33.5859375 -0.5640869140625
-19.577392578125 -52.794189453125 -0.3193359375
-25.07421875 -58.984130859375 8.102294921875
-11.6806640625 -14.22216796875 4.8046875
12.588134765625 -34.46533203125 -5.6253662109375
5.276123046875 -23.989013671875 1.3790283203125
5.607421875 -17.30322265625 7.356689453125
-13.36767578125 -40.591552734375 6.7862548828125
-6.197998046875 -2.0478515625 3.7989501953125
-18.181640625 -38.251220703125 7.932861328125
-17.7431640625 4.71484375 9.6978759765625
-29.292236328125 -54.076904296875 29.037841796875
-11.6025390625 -51.788330078125 -0.15576171875
5.84521484375 -42.578857421875 -0.15478515625
-40.447021484375 -53.061767578125 32.30517578125
-14.790283203125 -44.837890625 3.6485595703125
-28.279541015625 -20.63134765625 4.8388671875
28.171630859375 13.268798828125 -2.3131103515625
7.87939453125 -21.034912109375 7.4259033203125
-34.651611328125 -39.797119140625 3.400146484375
-30.797607421875 -12.212158203125 2.9739990234375
16.284912109375 0.266845703125 6.7874755859375
25.36962890625 15.28369140625 -1.595947265625
-34.792724609375 -60.841064453125 35.5595703125
-24.80810546875 -17.8193359375 7.376953125
-25.147705078125 -33.383544921875 0.5657958984375
-8.577392578125 -42.907470703125 7.807861328125
6.40234375 -11.05810546875 2.8409423828125
-40.206787109375 -58.020263671875 36.41796875
32.253662109375 7.947021484375 -1.48193359375
-32.7744140625 -22.16748046875 3.771484375
-39.86865234375 -47.728759765625 26.400390625
-5.46728515625 -44.51611328125 5.5841064453125
19.29345703125 25.59375 -2.779296875
3.612548828125 -34.29638671875 -1.457763671875
-15.555419921875 -0.968994140625 5.0489501953125
-0.398681640625 -33.424560546875 5.370361328125
-24.73974609375 -24.3505859375 0.252685546875
-35.711181640625 -34.629638671875 1.309814453125
-27.83935546875 -11.597900390625 3.066650390625
-30.107421875 -9.33447265625 1.9603271484375
-23.8515625 -60.16455078125 -0.5987548828125
-24.94921875 -55.30615234375 10.0648193359375
11.441162109375 -15.37939453125 4.5430908203125
-20.27587890625 -60.4990234375 -5.509033203125
-8.020263671875 -51.28369140625 0.7286376953125
-7.776123046875 -21.1826171875 4.1993408203125
17.87548828125 15.7021484375 5.9300537109375
-24.8701171875 -60.99560546875 2.2550048828125
-26.54443359375 -45.406494140625 16.7012939453125
-28.53271484375 -42.97021484375 17.5955810546875
-27.552001953125 -60.289794921875 26.623779296875
-6.3564453125 -5.111328125 2.65771484375
-36.802490234375 -19.98388671875 11.3629150390625
-1.941162109375 -33.04541015625 6.13134765625
-22.473876953125 -7.525146484375 2.4947509765625
2.509521484375 -27.97900390625 0.20703125
-17.76806640625 -54.8017578125 -3.61669921875
-17.89599609375 -15.005615234375 5.2288818359375
-33.53369140625 -39.962646484375 12.0986328125
11.16259765625 -36.166015625 -4.05859375
14.631103515625 3.69921875 7.6214599609375
-33.732177734375 -32.17529296875 -0.6854248046875
-9.78955078125 -41.685302734375 8.326171875
-4.989501953125 -21.4365234375 4.536376953125
-27.922607421875 -14.01904296875 4.3026123046875
-3.509765625 -44.840087890625 7.6949462890625
-19.96826171875 -27.502197265625 -2.3868408203125
-38.95849609375 -32.935302734375 21.0625
0.644287109375 -8.483642578125 2.1859130859375
-31.550537109375 -35.360595703125 -1.984130859375
-38.71435546875 -55.923828125 32.571533203125
-0.32080078125 -14.357421875 4.9669189453125
-3.48291015625 -41.869873046875 9.3944091796875
-11.30615234375 -47.62646484375 3.480224609375
-34.572265625 -61.6787109375 37.509765625
-39.490478515625 -11.144775390625 3.009033203125
-6.569580078125 -40.294677734375 9.433837890625
-5.7392578125 -26.7841796875 -2.01708984375
-20.125732421875 -51.9716796875 2.6204833984375
-23.890380859375 -32.08251953125 1.077392578125
5.12451171875 -21.718505859375 4.9652099609375
-36.759521484375 -27.109375 -2.108642578125
-19.05908203125 -20.08056640625 5.427001953125
-31.92529296875 0.339599609375 5.86279296875
-18.159912109375 -35.776123046875 7.359130859375
-20.39990234375 -24.95361328125 0.0902099609375
-10.812744140625 -28.230712890625 -0.65283203125
-40.438720703125 -29.572021484375 1.7017822265625
20.311279296875 11.964111328125 6.14111328125
26.120361328125 11.255615234375 2.1717529296875
-19.326416015625 -10.22607421875 2.591064453125
-32.265380859375 -54.142333984375 28.9466552734375
-36.020751953125 -36.902099609375 7.5340576171875
-30.28466796875 -23.739013671875 2.2598876953125
-38.165771484375 -6.166748046875 2.4146728515625
1.65771484375 -30.91552734375 1.7916259765625
-11.659912109375 -42.19140625 7.0020751953125
-38.417236328125 -15.04638671875 5.2286376953125
-29.37255859375 -6.348388671875 2.5399169921875
-10.2529296875 -22.578125 4.2060546875
-28.427490234375 -9.61328125 2.2803955078125
-31.56396484375 -10.6318359375 2.637939453125
10.2158203125 -22.34375 3.9881591796875
36.656494140625 12.2509765625 -2.1146240234375
-36.029052734375 -58.362060546875 33.6650390625
-4.5322265625 0.338134765625 5.6075439453125
1.662841796875 -5.845458984375 2.2880859375
-2.22998046875 1.94189453125 7.5411376953125
9.806884765625 -4.382080078125 2.757568359375
-24.698486328125 -56.516357421875 15.7655029296875
-35.649658203125 -55.445068359375 32.9091796875
5.2578125 -36.34814453125 -2.148193359375
-38.4970703125 -18.033447265625 11.093017578125
-22.207763671875 -29.98779296875 0.03271484375
-35.516357421875 -58.35302734375 30.4588623046875
-9.999755859375 -11.266357421875 2.958984375
-24.644287109375 -47.083251953125 11.087158203125
13.580322265625 -24.052001953125 -0.2069091796875
-37.49169921875 -1.847900390625 4.56396484375
-20.1396484375 -33.84912109375 5.2078857421875
2.5615234375 -35.560791015625 -0.0841064453125
11.764892578125 -6.035400390625 1.72607421875
8.01708984375 -13.4521484375 4.265625
-36.449951171875 -21.288330078125 9.5037841796875
30.899169921875 5.26806640625 -0.455322265625
4.530029296875 4.7568359375 9.152587890625
-10.1943359375 -32.217041015625 3.757080078125
-22.484130859375 -60.137451171875 -2.950439453125
-0.005859375 0.72607421875 6.1881103515625
-23.955322265625 -61.82373046875 9.6669921875
-24.3330078125 -49.161865234375 8.38037109375
-38.691650390625 -47.657958984375 29.2081298828125
-36.22412109375 -41.21630859375 15.443115234375
28.118408203125 6.919189453125 1.0184326171875
20.56640625 15.119873046875 6.620849609375
8.921630859375 0.055419921875 5.42626953125
-28.56787109375 -32.356201171875 -0.9002685546875
-3.659912109375 -36.76318359375 11.674560546875
-16.69482421875 -10.457275390625 2.7843017578125
-39.04833984375 -4.467041015625 4.193359375
15.69287109375 6.094482421875 9.2054443359375
-11.8076171875 3.83935546875 8.6705322265625
-40.568603515625 -52.249267578125 30.528076171875
-39.10986328125 -36.920166015625 26.932373046875
-32.84228515625 -7.434814453125 2.365234375
4.602783203125 -41.381103515625 -1.1217041015625
1.19482421875 -21.948486328125 4.5325927734375
-24.910400390625 -20.407958984375 5.52685546875
-16.381103515625 3.4677734375 8.628662109375
3.2275390625 -18.3193359375 6.887939453125
-38.936767578125 -1.074462890625 5.3861083984375
7.348876953125 -40.4716796875 -2.31103515625
-19.8681640625 -58.884033203125 -4.80224609375
5.218994140625 -0.710205078125 4.6246337890625
-23.861328125 -44.190185546875 10.20458984375
-38.322021484375 -25.572021484375 7.717041015625
17.642578125 26.968017578125 -0.567138671875
28.407958984375 11.78564453125 0.852294921875
-35.223388671875 -28.998291015625 -0.5609130859375
-24.23486328125 -58.154541015625 14.069580078125
12.568603515625 -16.243896484375 3.1259765625
1.7060546875 -36.6796875 6.7572021484375
-31.337158203125 -60.34912109375 26.7952880859375
-12.826904296875 1.020751953125 6.2242431640625
14.2802734375 -12.715576171875 2.71142578125
24.36962890625 8.76953125 0.466552734375
-21.145263671875 -43.309814453125 8.377685546875
-31.168701171875 -41.792724609375 -1.0577392578125
-1.2841796875 -27.776611328125 -0.792236328125
-22.5966796875 -57.31884765625 -1.47265625
-0.869140625 -11.912841796875 3.55517578125
-40.4638671875 -43.394287109375 16.1588134765625
-9.440673828125 4.498046875 9.1937255859375
-35.93994140625 -16.410888671875 7.57275390625
-38.189208984375 -16.8681640625 9.3389892578125
-5.402099609375 3.9541015625 9.05859375
21.281494140625 17.768310546875 -4.0487060546875
-23.460205078125 -14.5244140625 5.096435546875
-31.59619140625 -30.4375 -0.231689453125
-3.303466796875 -40.14013671875 11.259521484375
-24.521240234375 -61.026611328125 12.6558837890625
-2.343994140625 -18.666015625 6.29736328125
-33.89208984375 -52.500732421875 31.2164306640625
11.984619140625 -18.796142578125 4.4091796875
-14.105712890625 -54.726318359375 -4.0234375
-17.68310546875 -7.205322265625 2.239013671875
-13.59912109375 -22.3603515625 3.734619140625
8.798828125 -22.3779296875 4.9503173828125
-29.499267578125 1.905517578125 7.4779052734375
-25.44287109375 -49.038330078125 22.130126953125
-37.705078125 0.951416015625 9.0712890625
11.533447265625 -17.452880859375 6.05810546875
7.97216796875 -10.095947265625 2.8792724609375
23.137451171875 4.911865234375 3.0518798828125
21.08935546875 7.997314453125 -0.3204345703125
-20.58251953125 -55.259033203125 -1.9879150390625
-17.545166015625 2.01953125 7.5399169921875
-40.330078125 -55.119384765625 34.7998046875
13.8984375 -0.910888671875 4.9124755859375
-32.96533203125 -28.48876953125 -0.7423095703125
4.982666015625 -5.5947265625 2.5718994140625
-34.676025390625 -62.0634765625 29.955322265625
10.541259765625 -28.461181640625 -0.2327880859375
-38.14501953125 -57.155029296875 33.44091796875
17.954833984375 24.390380859375 -0.2476806640625
-26.06591796875 -58.596923828125 14.227783203125
-21.94482421875 -57.283447265625 20.8603515625
-16.563232421875 -22.100830078125 3.806396484375
-35.930419921875 -23.080078125 5.57763671875
8.51953125 -24.2119140625 2.2603759765625
-23.406982421875 4.655517578125 9.4521484375
-6.086181640625 -23.707275390625 2.070068359375
0.378662109375 -28.42724609375 2.2960205078125
3.421630859375 2.37548828125 7.4462890625
10.076904296875 4.29736328125 8.74658203125
-25.154296875 -44.574462890625 14.3045654296875
-23.765625 -51.215576171875 6.0943603515625
11.5830078125 -26.708251953125 -0.1676025390625
-25.449462890625 -47.89697265625 13.6138916015625
20.364990234375 10.323486328125 7.6317138671875
-14.612060546875 -33.239013671875 3.8406982421875
-14.804443359375 -13.203125 3.95849609375
-30.0 -61.983154296875 26.4764404296875
23.396484375 16.064697265625 -10.6512451171875
-17.2900390625 -46.9736328125 3.4901123046875
-34.79150390625 -51.27783203125 30.616943359375
-25.45458984375 -8.989013671875 2.3709716796875
6.013916015625 3.500732421875 8.201416015625
28.291259765625 2.041748046875 0.3409423828125
-0.771728515625 5.248779296875 9.8363037109375
-27.635986328125 -61.9462890625 25.5689697265625
-35.2001953125 -60.42724609375 34.083740234375
33.350341796875 5.379150390625 -1.5828857421875
-30.979248046875 3.527587890625 8.3438720703125
20.959228515625 11.467529296875 4.7828369140625
-25.015380859375 -49.9873046875 9.5479736328125
8.5185546875 3.24755859375 7.994384765625
-36.062255859375 3.562744140625 8.7860107421875
-27.349609375 -21.859619140625 3.9273681640625
39.5615234375 11.56103515625 -2.7191162109375
-4.47900390625 -6.69873046875 2.3240966796875
-17.888427734375 -26.53759765625 -1.4334716796875
18.699951171875 2.128173828125 5.7454833984375
-28.7529296875 -36.446533203125 -1.447509765625
0.9423828125 2.62890625 7.6531982421875
-22.562744140625 -13.2626953125 4.2772216796875
2.61669921875 4.623046875 9.41455078125
3.67529296875 -15.76171875 6.1636962890625
-39.61474609375 -30.2958984375 2.979248046875
-22.829833984375 -46.26416015625 7.103271484375
-7.32861328125 -56.218994140625 -2.9210205078125
-20.580322265625 -13.13525390625 4.2864990234375
9.5556640625 -10.854248046875 2.8507080078125
14.862060546875 10.026123046875 -6.47216796875
25.116943359375 -26.681640625 -5.632568359375
22.641845703125 15.10009765625 -5.949951171875
24.67578125 16.21484375 -0.3011474609375
-7.946044921875 -53.765625 -1.49951171875
-11.92919921875 -39.2578125 8.2742919921875
18.01904296875 -31.598876953125 -2.4234619140625
4.77197265625 -30.002197265625 -0.34912109375
24.990234375 18.959716796875 5.3675537109375
-28.68212890625 4.6025390625 8.941162109375
-38.91455078125 -54.2705078125 32.3665771484375
-4.44921875 2.18310546875 7.3333740234375
-9.578369140625 -24.3681640625 0.631103515625
-36.0859375 -58.780029296875 36.81884765625
-5.838623046875 -34.444580078125 7.07958984375
6.649169921875 -24.780029296875 1.0745849609375
-10.70703125 -60.35107421875 -6.608154296875
-6.447998046875 5.2216796875 9.865478515625
1.23486328125 -14.26123046875 4.97509765625
-16.333740234375 -42.782958984375 5.939453125
-9.9423828125 -36.232421875 9.1639404296875
-7.470947265625 -59.89794921875 -5.498779296875
-22.64404296875 -28.82470703125 -1.3074951171875
9.742431640625 -25.90478515625 0.9605712890625
4.399169921875 -37.77294921875 9.8387451171875
-40.65478515625 -24.952880859375 15.680419921875
-31.361572265625 -19.95654296875 5.3880615234375
34.077880859375 10.33251953125 -1.189453125
6.917724609375 -15.559814453125 6.3236083984375
0.245361328125 -19.83203125 5.505615234375
-28.11474609375 -58.638671875 28.2227783203125
-10.0732421875 -0.55859375 4.9420166015625
5.9892578125 -19.9033203125 6.2835693359375
-32.744140625 -25.639404296875 -0.9609375
-7.430419921875 -23.314697265625 3.09912109375
6.0927734375 -12.309326171875 3.82421875
9.961669921875 -24.11572265625 2.8150634765625
-1.27783203125 -1.652099609375 4.2318115234375
-15.805419921875 -54.357666015625 -4.3289794921875
-24.959228515625 -42.0908203125 14.0062255859375
-16.176513671875 -12.480712890625 3.445556640625
-23.986328125 -55.313232421875 2.48095703125
-18.743896484375 -24.8564453125 0.35693359375
0.150634765625 -23.373779296875 2.220947265625
-9.7158203125 -40.007080078125 8.5321044921875
-21.733154296875 -54.45458984375 2.2547607421875
23.20654296875 19.46484375 2.9835205078125
25.256591796875 1.4443359375 1.374267578125
-3.245361328125 -27.08251953125 -2.104736328125
-3.32958984375 -4.47216796875 2.6148681640625
-6.559814453125 -36.506103515625 9.6597900390625
-19.2255859375 -0.3662109375 5.6048583984375
-5.294189453125 -37.272216796875 10.739501953125
19.061767578125 16.708740234375 6.1141357421875
-19.687744140625 -46.62109375 4.3641357421875
-38.63818359375 -22.114013671875 12.126708984375
-2.010498046875 -10.758056640625 2.7115478515625
-38.538818359375 -42.65673828125 29.8724365234375
-30.744140625 -39.807373046875 -3.25830078125
2.6806640625 -38.3896484375 4.3624267578125
-2.556884765625 -25.7509765625 -1.0487060546875
-7.150146484375 -18.955322265625 5.9918212890625
4.169921875 -25.8330078125 -1.002685546875
21.793701171875 7.2060546875 5.744384765625
-34.267333984375 -60.81396484375 29.12255859375
7.027587890625 -5.0244140625 2.525390625
-39.707275390625 -28.21142578125 15.417724609375
-39.335693359375 -26.101806640625 6.03662109375
27.653076171875 12.887939453125 4.2823486328125
-35.04931640625 -21.3203125 7.1121826171875
-38.382568359375 -19.672607421875 11.1595458984375
-14.861572265625 3.59130859375 8.642578125
1.487548828125 -34.7451171875 0.62548828125
-33.61669921875 -38.383544921875 9.75341796875
-25.3447265625 -1.33203125 4.54150390625
-5.390625 -42.379150390625 8.056396484375
-33.369873046875 -4.98876953125 2.460205078125
-21.514892578125 -54.864501953125 0.326171875
-38.29345703125 -24.962646484375 12.479736328125
0.094482421875 -25.6123046875 -0.915771484375
-24.48046875 -61.783447265625 -0.9217529296875
-8.4033203125 -45.865478515625 4.9073486328125
17.154541015625 2.06884765625 6.581787109375
-8.859619140625 -14.87060546875 5.1947021484375
26.7275390625 -26.6044921875 -5.64111328125
-30.127685546875 -55.76611328125 27.53466796875
-37.461669921875 -58.38720703125 36.14990234375
-8.923583984375 -12.842529296875 3.711669921875
-27.51953125 -45.38720703125 19.8375244140625
13.09326171875 -26.665283203125 -0.989990234375
3.4248046875 -21.786376953125 5.5078125
-34.8603515625 -60.83203125 32.177734375
-21.6630859375 -25.89306640625 -1.13330078125
-14.9697265625 -19.8408203125 5.58642578125
-37.42578125 -45.116943359375 29.926513671875
-22.47900390625 -22.0068359375 3.8651123046875
2.036376953125 -38.48681640625 1.2257080078125
-21.33251953125 -5.751708984375 2.83154296875
-25.794677734375 -11.454345703125 3.207275390625
1.693115234375 -31.3818359375 0.3485107421875
-23.743896484375 -4.24267578125 3.023193359375
11.56787109375 3.03515625 7.790771484375
-21.8505859375 -49.136474609375 4.6551513671875
30.681396484375 2.5810546875 -0.8365478515625
-16.45849609375 -44.894287109375 3.3743896484375
-15.70556640625 -23.799072265625 1.996826171875
-8.324462890625 -25.604736328125 -0.5584716796875
5.2646484375 -39.30322265625 -3.0008544921875
-26.225830078125 -44.17041015625 15.7366943359375
-13.48046875 -59.581787109375 -7.7314453125
-34.65478515625 -15.05517578125 15.9932861328125
-28.5068359375 -42.169677734375 16.1298828125
26.480712890625 14.750732421875 1.3209228515625
-21.48779296875 -0.570556640625 5.185302734375
20.197998046875 22.063232421875 -3.8839111328125
-15.221435546875 -26.8359375 -1.9176025390625
-32.641845703125 -39.629638671875 7.3780517578125
-13.079833984375 -57.147216796875 -5.5596923828125
-40.0751953125 -55.53955078125 31.9158935546875
-11.0068359375 -35.458740234375 8.3690185546875
-7.628662109375 -57.862060546875 -4.171142578125
22.187255859375 18.60107421875 -0.62109375
9.4423828125 -16.63720703125 7.6129150390625
-38.205078125 -35.28662109375 24.54296875
12.1796875 -10.295654296875 2.113525390625
-23.838134765625 -54.013427734375 18.0780029296875
18.88330078125 24.318603515625 -1.9224853515625
-17.525146484375 -59.6474609375 -7.18212890625
-33.38916015625 -54.99560546875 29.4306640625
-35.161865234375 -38.0966796875 7.2918701171875
-22.908447265625 -45.83447265625 8.5289306640625
-26.37255859375 -26.123291015625 -0.8656005859375
-30.501708984375 -3.479736328125 3.2489013671875
-19.406005859375 -4.3564453125 2.8194580078125
-18.0771484375 -50.7001953125 2.0767822265625
-19.9970703125 -48.69580078125 3.0157470703125
-24.48828125 -52.772216796875 20.2530517578125
-22.412353515625 -1.53173828125 4.471923828125
-31.283447265625 -13.443603515625 3.654296875
-38.42626953125 0.27392578125 6.3043212890625
-8.190185546875 -17.24755859375 7.559814453125
-8.533935546875 -50.4580078125 2.2335205078125
-32.711669921875 -37.845703125 -2.4632568359375
-35.435791015625 -6.81103515625 2.1259765625
0.936767578125 -39.102783203125 13.0150146484375
-21.474365234375 -53.494873046875 27.3939208984375
-33.932861328125 -33.7939453125 -0.3558349609375
-36.34228515625 -38.482177734375 9.9915771484375
3.644775390625 -2.174560546875 3.805419921875
5.701416015625 -7.72412109375 2.0084228515625
-14.84228515625 -35.6484375 7.114013671875
6.198974609375 -32.902099609375 -0.6663818359375
35.084228515625 12.185546875 -1.264892578125
-29.03466796875 -12.483642578125 3.4295654296875
-26.13330078125 -3.57421875 3.1815185546875
-24.646240234375 -50.722412109375 17.798583984375
-19.139404296875 -6.8837890625 2.31884765625
-32.83349609375 -40.27734375 -2.8133544921875
-30.0849609375 -58.25732421875 27.4168701171875
-31.606689453125 -40.2861328125 12.84765625
-25.30615234375 -48.3310546875 11.4996337890625
0.994140625 -10.569091796875 2.5833740234375
-31.343505859375 -32.90576171875 -1.5013427734375
-3.150390625 -16.95556640625 7.4620361328125
-24.555908203125 -52.39794921875 14.7222900390625
-32.920654296875 -13.9365234375 4.0960693359375
-0.515869140625 -3.818603515625 2.9825439453125
-11.30224609375 -44.30224609375 4.4193115234375
-7.385009765625 -27.68017578125 -1.5101318359375
-40.324951171875 -33.535888671875 3.8963623046875
-37.30078125 -12.618408203125 3.34814453125
27.33203125 12.52099609375 0.180908203125
6.8837890625 -22.927734375 4.43994140625
22.67236328125 6.70166015625 3.964599609375
-34.72802734375 -36.677734375 -1.0498046875
-35.9208984375 -32.2138671875 1.142333984375
-37.0908203125 -14.18994140625 4.341796875
-33.278564453125 -35.402587890625 -0.939697265625
-28.0048828125 -29.46533203125 -0.5948486328125
-27.941650390625 -40.5400390625 14.0330810546875
16.68408203125 3.85107421875 7.49609375
-2.829345703125 -2.247802734375 3.4530029296875
-0.264404296875 -22.478515625 3.8922119140625
28.43798828125 3.725341796875 -0.8553466796875
-22.798583984375 -53.122802734375 24.5050048828125
20.09619140625 20.55322265625 -1.165771484375
-34.041259765625 -37.874267578125 -1.5516357421875
29.8056640625 8.71826171875 -0.3214111328125
-25.356201171875 -55.7275390625 8.6358642578125
-6.186279296875 -3.37744140625 2.9974365234375
13.802001953125 -30.862060546875 -0.1937255859375
23.99560546875 -0.274169921875 3.2713623046875
-15.666259765625 -52.718505859375 -2.5625
-27.1240234375 -27.027587890625 -2.077880859375
-21.815185546875 -58.1123046875 -2.5501708984375
14.231689453125 1.873291015625 6.9840087890625
-7.029541015625 -12.308837890625 3.5316162109375
19.8427734375 14.083740234375 5.5887451171875
14.5166015625 -30.040771484375 -2.0784912109375
-16.545654296875 -26.44921875 -0.90380859375
19.76416015625 13.36962890625 7.6806640625
1.82080078125 -25.9658203125 -1.4068603515625
26.10693359375 2.7548828125 0.373291015625
-40.095703125 -26.126953125 16.5159912109375
-27.830810546875 -24.525146484375 -0.0123291015625
-28.97216796875 -41.38916015625 14.660888671875
-16.482666015625 -39.444091796875 7.4224853515625
-12.29248046875 -23.623779296875 1.8699951171875
-36.71044921875 -57.957763671875 34.999267578125
-5.245849609375 -25.0263671875 -0.476318359375
-2.1806640625 0.06494140625 5.2593994140625
8.8720703125 5.1181640625 9.334716796875
-13.4130859375 -9.836181640625 2.4730224609375
-23.494384765625 -56.5234375 0.9193115234375
8.10986328125 -17.992431640625 7.8985595703125
8.913330078125 -35.37939453125 -2.8013916015625
-25.23779296875 -49.4794921875 19.2850341796875
-40.9716796875 -49.79931640625 28.4134521484375
-21.122802734375 -23.668701171875 2.0672607421875
-26.280517578125 -47.8583984375 18.513916015625
-11.907470703125 -57.937744140625 -5.3343505859375
-8.99560546875 -23.431884765625 2.2822265625
-17.380615234375 -32.5419921875 3.4595947265625
-35.600341796875 -14.50244140625 4.39892578125
-13.757080078125 -12.331787109375 3.3194580078125
-3.70849609375 4.5390625 9.3009033203125
3.034912109375 -40.73046875 12.9705810546875
-14.150390625 -52.678466796875 -1.7747802734375
36.52783203125 17.76708984375 0.0697021484375
39.294677734375 15.58740234375 -2.215576171875
-19.087158203125 -18.791748046875 6.2200927734375
-21.804931640625 2.55712890625 7.9483642578125
-20.9521484375 -44.98681640625 6.2958984375
-38.29931640625 -32.53271484375 19.7958984375
25.846923828125 16.7158203125 4.218017578125
-25.146484375 -48.26708984375 16.393310546875
-10.35400390625 -43.832763671875 5.859375
-17.56396484375 -3.342041015625 3.39794921875
-22.52490234375 -32.802001953125 2.3748779296875
-9.4365234375 0.411865234375 5.9381103515625
1.969482421875 -12.994873046875 3.859375
-37.953857421875 -25.431640625 10.6551513671875
-21.78369140625 -52.818359375 3.7769775390625
-38.575927734375 -8.300048828125 1.610107421875
-15.88037109375 -49.42626953125 0.999755859375
-11.64404296875 -26.652587890625 -1.7906494140625
-21.856689453125 4.364501953125 9.518798828125
-19.01513671875 2.33203125 7.613525390625
-36.05859375 -24.050048828125 2.244873046875
-28.925537109375 -34.81201171875 -0.862060546875
3.44091796875 -40.136474609375 0.2127685546875
12.093994140625 -0.193115234375 4.6583251953125
-30.59228515625 -31.63720703125 -0.9986572265625
-24.4130859375 -58.157958984375 1.6436767578125
24.640625 13.383056640625 -7.68115234375
-36.4013671875 -24.97314453125 0.116455078125
6.15576171875 -27.433349609375 -1.20458984375
-16.484130859375 -14.925048828125 5.1015625
-23.64111328125 -12.1298828125 3.4500732421875
-17.1162109375 -5.47412109375 2.4404296875
-38.904296875 -28.563232421875 5.017333984375
-36.98193359375 -34.201171875 3.878662109375
-40.991455078125 -51.8779296875 26.5870361328125
-29.0263671875 -23.239501953125 2.742919921875
-24.749755859375 -0.378662109375 5.520751953125
-22.28955078125 0.28857421875 6.2969970703125
-1.3310546875 1.07958984375 6.5428466796875
-19.552001953125 -1.7490234375 4.2664794921875
-26.60986328125 -31.040283203125 -0.789306640625
19.15771484375 12.18798828125 -0.5726318359375
-15.61376953125 -5.365966796875 2.444580078125
8.611572265625 -19.656005859375 8.530517578125
2.5986328125 -23.22216796875 2.7740478515625
-26.47998046875 4.3896484375 9.28515625
-12.989013671875 -0.34228515625 5.1478271484375
-11.6201171875 -16.6328125 7.02001953125
-24.661865234375 -53.65087890625 12.158935546875
36.662841796875 10.414794921875 -2.8858642578125
12.564697265625 -29.62353515625 0.335205078125
19.3037109375 -30.227783203125 -1.347900390625
-18.32421875 -22.215087890625 3.3961181640625
2.71044921875 -38.23095703125 11.123291015625
4.22900390625 -17.370361328125 7.623779296875
-26.676513671875 0.795166015625 6.4359130859375
-11.146484375 -3.3037109375 3.201416015625
15.099609375 -32.140625 -2.0914306640625
21.8935546875 9.31982421875 4.488525390625
22.455322265625 17.060302734375 -8.28173828125
-35.996337890625 -36.6181640625 2.9981689453125
37.597900390625 16.45263671875 -0.7620849609375
-33.74169921875 -23.0771484375 2.9422607421875
-19.876953125 -35.440673828125 7.0255126953125
-21.9443359375 -24.18017578125 0.78515625
4.0234375 -31.313232421875 -0.736572265625
18.856201171875 17.8623046875 4.397705078125
10.8740234375 5.322265625 9.9193115234375
16.34765625 -29.52001953125 -1.723388671875
22.958984375 1.851806640625 3.4239501953125
6.943115234375 -29.8984375 -0.2132568359375
16.955810546875 6.600830078125 8.7384033203125
-27.59912109375 -8.322021484375 2.1312255859375
-33.152099609375 -30.923828125 -0.4432373046875
4.31494140625 -14.503662109375 4.9051513671875
28.189453125 11.446044921875 -3.0777587890625
-8.8935546875 -61.537109375 -7.6446533203125
-7.505615234375 -1.695556640625 4.1519775390625
-26.904541015625 -61.5263671875 26.7919921875
35.635498046875 6.843505859375 -2.1702880859375
-18.08642578125 -12.5966796875 3.572998046875
-26.49462890625 -24.873779296875 -0.2257080078125
-23.478515625 -48.3291015625 7.483154296875
6.228759765625 -14.791015625 5.3826904296875
26.511474609375 14.6884765625 5.769775390625
-4.1865234375 -23.131103515625 3.38232421875
-38.845947265625 -31.652099609375 22.1505126953125
-41.022216796875 -56.383544921875 32.680419921875
17.8466796875 24.951904296875 1.098388671875
1.415283203125 -37.456298828125 10.0338134765625
26.791748046875 6.843505859375 1.4390869140625
-39.132080078125 -12.731689453125 3.4730224609375
-39.810546875 -28.373291015625 0.5115966796875
7.28173828125 -34.564697265625 -1.4105224609375
-33.72265625 -13.698486328125 16.8162841796875
-14.197265625 -35.2412109375 5.849853515625
