21.94189453125 25.630615234375 -18.041748046875
-61.796142578125 -24.91162109375 -4.8372802734375
6.751708984375 14.482177734375 -10.4566650390625
-33.2978515625 -23.24365234375 -8.7318115234375
15.56640625 33.42138671875 -12.775634765625
-52.852783203125 -36.792236328125 9.8873291015625
7.68701171875 35.134765625 -2.669677734375
-21.38623046875 -40.33056640625 -9.53955078125
-12.02001953125 12.68310546875 -14.8505859375
11.3779296875 22.009521484375 -17.521728515625
-46.586669921875 -11.689208984375 0.070556640625
-12.914306640625 -21.88818359375 -9.2293701171875
-34.840087890625 2.98291015625 -0.459716796875
-35.670166015625 -8.1767578125 -3.1177978515625
-17.972412109375 -5.429443359375 -5.598388671875
-47.978515625 -37.090576171875 19.870849609375
-41.203369140625 -27.291748046875 -5.0430908203125
-6.611572265625 26.798828125 -12.1571044921875
-0.324951171875 19.716552734375 -0.7232666015625
-66.649169921875 -38.858642578125 9.7647705078125
-35.13525390625 -39.51708984375 -1.9588623046875
-55.7080078125 -38.487548828125 1.3028564453125
-29.81494140625 -14.077880859375 0.7506103515625
-63.470458984375 -29.73779296875 13.20947265625
-16.328125 -16.786865234375 -0.070556640625
-62.224365234375 -40.465576171875 24.5015869140625
-24.1171875 -27.43115234375 -6.682373046875
-50.39990234375 -30.94140625 -2.586181640625
-55.66357421875 -46.4599609375 18.0911865234375
-9.814208984375 21.081787109375 -0.517578125
14.321044921875 39.629638671875 -6.35791015625
-27.526611328125 -37.6552734375 3.470947265625
-66.024658203125 -26.24267578125 2.4432373046875
-21.6826171875 3.032470703125 -2.1231689453125
6.31591796875 33.51416015625 -10.6199951171875
-9.09521484375 9.723876953125 -0.340087890625
-24.618408203125 -25.27978515625 1.181884765625
-45.857666015625 -19.604248046875 -2.392578125
10.52685546875 35.995849609375 -19.1448974609375
-23.414794921875 -10.82763671875 -3.23046875
-0.663330078125 17.380615234375 -10.2796630859375
-23.3779296875 -35.392333984375 -3.5035400390625
-53.7421875 -19.998046875 -2.1307373046875
-48.1484375 -46.781494140625 22.458984375
-58.248046875 -41.0986328125 13.2874755859375
-62.524169921875 -32.2119140625 -2.2825927734375
-16.20166015625 8.38623046875 1.795654296875
-60.80908203125 -20.286865234375 1.9918212890625
-47.064697265625 -39.497314453125 6.3778076171875
-63.458740234375 -36.73974609375 16.995849609375
-44.688232421875 -41.423828125 -2.5306396484375
-30.442138671875 7.7490234375 2.948486328125
-20.841796875 -21.839111328125 -9.661376953125
-56.663330078125 -29.976806640625 -6.402099609375
-37.0 -31.67578125 -1.0743408203125
-35.741455078125 -45.6923828125 -6.02734375
15.666015625 26.607421875 -14.362060546875
-63.59033203125 -47.115234375 23.255615234375
-31.1396484375 -19.30029296875 -3.501953125
-39.697021484375 -20.59912109375 -5.9779052734375
10.80908203125 20.1328125 -10.8251953125
4.8623046875 28.989501953125 -2.9351806640625
-60.400634765625 -17.275634765625 7.927978515625
-3.5361328125 22.5751953125 -7.2738037109375
-8.65771484375 31.695068359375 -8.1778564453125
-6.35498046875 15.75927734375 1.376953125
-50.587158203125 -44.57080078125 8.843505859375
14.96337890625 31.1328125 -18.9927978515625
13.773193359375 30.01220703125 -7.5084228515625
17.84228515625 20.85986328125 -16.87548828125
-5.385498046875 6.32958984375 -4.296142578125
-11.593505859375 -27.775146484375 -7.260986328125
-28.557861328125 2.989013671875 -1.2740478515625
-27.06591796875 -22.119140625 -8.7626953125
-2.58544921875 11.626953125 -8.139892578125
-16.759521484375 -11.29052734375 -3.048828125
-22.729248046875 -33.2626953125 -9.41796875
12.02783203125 38.845703125 -13.1973876953125
-9.04931640625 -18.657958984375 -5.5625
-29.531982421875 -9.074462890625 -3.429931640625
-41.875244140625 -8.54345703125 -2.3931884765625
-59.021728515625 -37.392333984375 8.1082763671875
-51.22216796875 -40.093505859375 15.6146240234375
-37.107177734375 -1.947509765625 -3.173583984375
-50.42529296875 -16.453857421875 1.4268798828125
11.740966796875 15.156494140625 -14.07568359375
-17.072021484375 -19.47900390625 -5.381591796875
-56.1484375 -23.860107421875 -6.5614013671875
3.314208984375 9.34423828125 -10.7403564453125
-33.434814453125 -35.312744140625 2.065673828125
-62.68701171875 -26.765625 19.1334228515625
-40.619384765625 2.125732421875 -0.5537109375
-27.875 11.991943359375 5.97607421875
-65.976318359375 -33.12841796875 9.1295166015625
0.57275390625 15.140380859375 -4.773681640625
10.110107421875 27.653076171875 -17.3565673828125
-59.9111328125 -37.380615234375 -2.5120849609375
-66.538818359375 -31.9462890625 1.8721923828125
-43.900390625 -46.366943359375 0.2744140625
-52.269775390625 -11.19873046875 -0.0194091796875
4.49755859375 25.92333984375 -21.9599609375
-12.29736328125 -6.7841796875 -5.427001953125
-47.27734375 -6.8046875 -2.6190185546875
-44.635986328125 -30.304931640625 -1.56396484375
-2.3212890625 24.551025390625 1.3199462890625
-44.438720703125 -23.33154296875 -7.7469482421875
-38.572998046875 6.2353515625 2.5576171875
-43.43603515625 -16.0791015625 1.2393798828125
-27.7158203125 -41.4140625 -0.5748291015625
-39.674560546875 -41.683349609375 -4.7760009765625
-17.684326171875 -36.4482421875 -10.7100830078125
-4.523681640625 11.725830078125 -2.8980712890625
-35.302978515625 -12.715087890625 -0.1485595703125
-24.512451171875 -15.08056640625 -0.0594482421875
-11.372802734375 -14.7841796875 0.7962646484375
-21.899169921875 -1.808837890625 -4.8310546875
-16.468017578125 -25.859619140625 -8.47900390625
18.2509765625 29.349365234375 -10.561767578125
11.05029296875 27.685791015625 -11.5091552734375
-63.890625 -22.8388671875 5.9134521484375
-4.929443359375 21.25146484375 -12.4871826171875
-23.130859375 -34.975341796875 1.7418212890625
16.264404296875 34.803955078125 -7.098388671875
-14.7060546875 -1.33447265625 -5.3426513671875
-8.111083984375 11.88232421875 -11.456298828125
-32.426513671875 -4.197509765625 -4.10595703125
9.713134765625 30.296630859375 -3.9962158203125
-20.552001953125 12.587158203125 5.677490234375
-36.244140625 -26.259521484375 -5.9405517578125
-47.048583984375 -27.12158203125 -4.6439208984375
-62.45703125 -35.47998046875 25.39990234375
-22.822509765625 -23.9716796875 -3.3743896484375
-47.8408203125 -40.721923828125 1.608642578125
-8.968505859375 4.44140625 -1.21875
19.59716796875 30.31787109375 -4.827392578125
-26.01513671875 -31.699951171875 -5.299072265625
-7.704345703125 27.016357421875 -7.2855224609375
-23.921875 -6.218505859375 -4.9639892578125
-63.601806640625 -41.2392578125 12.6466064453125
-63.705078125 -40.887939453125 19.9453125
-40.375732421875 -12.581787109375 0.0469970703125
-50.747314453125 -45.1142578125 18.802734375
2.14794921875 13.722900390625 -9.1552734375
-27.88525390625 -23.786865234375 -4.410888671875
13.98583984375 19.3095703125 -14.6397705078125
-64.60693359375 -27.438232421875 -2.03662109375
-7.694580078125 19.74169921875 3.4788818359375
-26.118408203125 -27.907470703125 -2.3826904296875
-60.84912109375 -35.835693359375 21.02734375
-20.121337890625 -13.567626953125 -0.5438232421875
-51.96875 -27.33349609375 -5.1890869140625
-59.470703125 -44.4560546875 16.3123779296875
-12.703125 11.345703125 2.942626953125
-20.35400390625 6.7021484375 0.5548095703125
-24.92822265625 5.468994140625 0.151123046875
-39.0595703125 -37.146240234375 -1.4874267578125
-58.3388671875 -20.23291015625 -2.301513671875
-14.008544921875 -15.44970703125 -3.99072265625
-32.51513671875 -43.169921875 -3.60400390625
-65.6865234375 -35.1552734375 5.001708984375
-63.515625 -32.19970703125 17.35205078125
-55.818603515625 -34.809814453125 -6.317626953125
-61.064697265625 -29.33837890625 -5.5860595703125
-33.57763671875 -17.263671875 -0.2872314453125
-0.450439453125 19.416015625 -5.7691650390625
-59.39990234375 -35.75439453125 2.651123046875
-35.70556640625 -19.955810546875 -4.048828125
-64.15478515625 -25.237060546875 12.61474609375
-66.271240234375 -29.887939453125 6.079833984375
-32.288330078125 0.09521484375 -2.90673828125
-61.91552734375 -44.22265625 26.87060546875
18.58447265625 28.37158203125 -19.0274658203125
-20.573486328125 -28.564453125 -9.0806884765625
-27.667236328125 -33.437255859375 2.18359375
12.388916015625 23.715087890625 -12.8775634765625
-54.62451171875 -43.08251953125 14.7740478515625
-18.071044921875 1.070068359375 -3.9010009765625
23.100830078125 21.817138671875 -16.2398681640625
-12.48974609375 6.852783203125 0.0965576171875
-2.36181640625 23.833984375 -2.980224609375
-44.979736328125 -45.510009765625 -3.9625244140625
-0.65478515625 16.27783203125 -14.4254150390625
-39.456787109375 -24.345947265625 -8.025390625
11.91748046875 32.847412109375 -21.7247314453125
-50.4873046875 -40.873046875 11.489501953125
-30.650146484375 -38.57177734375 0.633544921875
-27.66162109375 -17.825439453125 -1.592529296875
-3.878173828125 17.128662109375 -1.7672119140625
-22.423828125 -38.795166015625 6.63916015625
-10.80029296875 15.938720703125 -12.4681396484375
-47.551025390625 -32.472900390625 0.570556640625
-65.624267578125 -36.388916015625 13.018798828125
-32.258544921875 11.18505859375 5.7744140625
-25.18359375 1.013916015625 -3.308837890625
9.283203125 39.921142578125 -18.3642578125
10.42578125 12.547119140625 -10.9962158203125
-59.56201171875 -46.978271484375 19.6458740234375
-19.878662109375 -17.858154296875 -1.9244384765625
-41.720947265625 -19.394287109375 -2.3271484375
-34.637451171875 7.4189453125 2.992431640625
19.3330078125 24.2314453125 -15.0086669921875
7.332275390625 33.9091796875 -6.6351318359375
-55.767578125 -17.991455078125 0.85791015625
-52.7197265625 -21.64501953125 -5.769775390625
-17.14111328125 4.70947265625 -1.067138671875
-47.961181640625 -46.4306640625 -1.1583251953125
-39.159423828125 -5.463134765625 -3.39501953125
6.838134765625 31.48388671875 -14.888671875
-63.205810546875 -37.116455078125 8.5035400390625
-20.385498046875 -8.551513671875 -4.731201171875
14.402099609375 37.5654296875 -9.814453125
-57.537841796875 -38.5068359375 -5.5621337890625
-46.06982421875 -37.381103515625 2.9498291015625
-48.231689453125 -21.015380859375 -5.7886962890625
-22.9482421875 -37.041015625 -7.89794921875
-49.84521484375 -19.37841796875 -1.558349609375
-25.456787109375 -32.938232421875 -1.173583984375
-13.755859375 -18.49169921875 -7.3243408203125
-40.481689453125 -30.14697265625 -2.17919921875
-4.42041015625 23.276123046875 -15.840576171875
-60.888916015625 -33.3701171875 -5.685791015625
-26.8515625 -12.262939453125 -1.5277099609375
-56.1064453125 -38.96044921875 10.7813720703125
-58.12158203125 -26.776611328125 -4.6812744140625
-30.4296875 -20.586181640625 -7.5264892578125
-49.043212890625 -42.84619140625 5.43896484375
-47.153076171875 -14.5830078125 2.6072998046875
-53.578125 -31.8857421875 -5.01708984375
-51.210205078125 -38.794921875 7.0098876953125
-2.927978515625 7.693603515625 -7.41357421875
13.27880859375 33.79248046875 -16.7545166015625
13.879150390625 28.9287109375 -23.67529296875
-9.301513671875 13.32421875 1.7420654296875
-3.41015625 27.679931640625 -10.2664794921875
-48.966552734375 -37.10791015625 16.21875
-23.693115234375 -23.635986328125 -7.9429931640625
-62.392578125 -33.01025390625 1.406494140625
-64.649169921875 -40.475830078125 16.3155517578125
-32.826416015625 -10.512451171875 -2.2969970703125
16.582275390625 30.669677734375 -15.137451171875
-61.024658203125 -39.105712890625 10.8255615234375
14.603271484375 22.854248046875 -15.775634765625
-45.56884765625 -38.173828125 -0.6715087890625
-38.8095703125 -46.1376953125 -8.10986328125
-31.9267578125 4.961181640625 0.7576904296875
10.16748046875 29.598388671875 -8.3338623046875
-64.181640625 -47.0703125 19.355712890625
12.220703125 32.38623046875 -9.8905029296875
-26.8935546875 8.518798828125 4.165771484375
-33.4482421875 -30.29248046875 -1.795654296875
-19.798095703125 9.895263671875 2.912841796875
11.860107421875 24.77587890625 -9.34423828125
-46.997802734375 -17.536376953125 0.4422607421875
-24.227294921875 12.28857421875 5.827392578125
-27.419677734375 -19.55810546875 -4.8902587890625
-5.470458984375 19.776611328125 0.6251220703125
-40.306884765625 -32.62548828125 0.68505859375
0.15966796875 8.7333984375 -9.0963134765625
-17.273193359375 -22.073974609375 -7.878662109375
-36.98974609375 -29.1865234375 -3.6754150390625
-61.699462890625 -19.858154296875 5.785400390625
-42.194091796875 -38.892578125 -1.7001953125
-1.522216796875 5.505859375 -9.9503173828125
-38.319091796875 -10.410400390625 -1.932373046875
-21.22314453125 -36.137939453125 -11.0997314453125
-36.821533203125 -21.732177734375 -7.76513671875
-49.778076171875 -9.005615234375 -1.31689453125
9.27392578125 16.81982421875 -12.1240234375
-13.89990234375 -12.814208984375 -1.5916748046875
-63.735107421875 -29.81689453125 0.4503173828125
-15.90966796875 -8.29248046875 -5.241943359375
-52.748779296875 -14.0654296875 2.6341552734375
-63.38427734375 -43.380615234375 22.4383544921875
-13.314208984375 -25.3134765625 -9.94775390625
-29.051513671875 -5.688232421875 -4.651123046875
-22.8056640625 -20.211181640625 -7.254150390625
6.3359375 31.915283203125 -1.685791015625
10.998779296875 36.22705078125 -22.6109619140625
-5.693359375 23.53125 -9.85595703125
-40.38623046875 -0.890869140625 -2.5931396484375
-58.850830078125 -21.9365234375 -5.30419921875
7.201416015625 26.8818359375 -4.4122314453125
-9.0224609375 16.539794921875 3.7177734375
-51.01123046875 -43.83251953125 15.5843505859375
-20.09033203125 -25.172607421875 -8.92333984375
-36.365966796875 -35.82080078125 0.170654296875
-15.190185546875 -29.193115234375 -7.764404296875
-15.69384765625 -19.364013671875 -2.2247314453125
-44.031982421875 -5.770751953125 -3.0098876953125
-53.886474609375 -40.1513671875 13.1888427734375
6.012451171875 11.281494140625 -11.5093994140625
-44.052001953125 -32.34375 1.9124755859375
-24.23681640625 -30.38330078125 -8.4193115234375
-15.897216796875 12.005615234375 3.8504638671875
-28.500244140625 5.66796875 1.1160888671875
-36.153564453125 -42.836669921875 -4.2816162109375
10.693115234375 37.57568359375 -16.1727294921875
-47.344970703125 -43.1494140625 -0.73095703125
-24.299560546875 -37.13916015625 4.271240234375
-43.247314453125 -20.7724609375 -5.922607421875
-37.720458984375 -14.5029296875 1.3935546875
-18.626220703125 -2.0380859375 -5.513916015625
-6.589599609375 12.99560546875 -0.4964599609375
-4.484619140625 25.242431640625 -5.506103515625
-26.316162109375 -8.47021484375 -4.0552978515625
17.51904296875 17.800048828125 -15.3740234375
10.339111328125 32.426513671875 -6.5992431640625
-30.87353515625 -33.127197265625 1.44580078125
-58.764404296875 -17.710693359375 2.309814453125
-14.19140625 -21.481689453125 -5.9998779296875
-42.52978515625 -43.80029296875 -5.3477783203125
-37.319580078125 1.047607421875 -1.8232421875
16.427734375 32.372802734375 -9.7823486328125
-45.0947265625 -9.148193359375 -1.91357421875
-3.833984375 25.263427734375 -12.97607421875
-28.412353515625 0.353271484375 -3.379638671875
-62.074951171875 -40.484375 27.762451171875
15.35546875 36.703125 -4.605712890625
-61.460205078125 -28.119384765625 -2.50927734375
-19.094970703125 -33.556884765625 -10.263916015625
-49.888427734375 -46.166259765625 6.1024169921875
-35.607421875 -4.810791015625 -3.4837646484375
-31.1044921875 -41.075439453125 -1.5635986328125
-64.27734375 -24.041259765625 9.6043701171875
-2.71728515625 19.85546875 -9.8807373046875
-32.3916015625 -7.5634765625 -3.6055908203125
-7.5986328125 29.052734375 -9.7957763671875
-8.6064453125 13.73046875 -8.5201416015625
-6.9814453125 8.9072265625 -2.6402587890625
-52.517333984375 -38.389892578125 0.88232421875
-13.781982421875 -10.71337890625 -4.0887451171875
-37.797119140625 3.65478515625 0.5634765625
10.772216796875 22.564453125 -7.3101806640625
18.57080078125 27.24560546875 -15.732421875
-58.137939453125 -32.869384765625 -7.3359375
-3.01318359375 16.391845703125 -16.5703125
-4.916015625 12.412353515625 -6.1181640625
-43.4736328125 -12.744140625 0.7445068359375
-38.62890625 -19.249755859375 -3.0302734375
6.868408203125 28.102783203125 -19.0841064453125
-61.312744140625 -42.4248046875 14.489990234375
-48.122314453125 -46.71630859375 18.056884765625
-49.889892578125 -46.651123046875 11.11376953125
14.88427734375 15.845703125 -14.4521484375
-1.624755859375 20.03076171875 -16.0552978515625
-24.558349609375 -34.16455078125 -7.0302734375
9.22216796875 23.468994140625 -19.2728271484375
-19.88671875 -11.4677734375 -2.8941650390625
-59.77587890625 -35.36376953125 5.739013671875
-63.576904296875 -29.70703125 19.744140625
-47.81201171875 -29.19580078125 -2.3541259765625
-61.74267578125 -38.77294921875 21.6370849609375
-44.12451171875 -25.353515625 -5.3828125
-60.624755859375 -37.39111328125 -5.6580810546875
-61.265625 -35.0 -0.7056884765625
-20.991455078125 -4.757568359375 -5.25390625
-49.352294921875 -12.658935546875 1.1124267578125
-52.6923828125 -18.254638671875 0.212646484375
-20.59423828125 -19.63671875 -4.363037109375
0.058349609375 17.838134765625 -3.158203125
-66.289794921875 -37.61474609375 6.7730712890625
-55.5517578125 -20.95068359375 -4.7694091796875
-54.8310546875 -26.228515625 -4.901123046875
-4.392578125 9.4423828125 -4.9603271484375
-26.282958984375 -34.66162109375 4.6458740234375
-33.703369140625 -32.388916015625 0.5142822265625
8.15087890625 13.147216796875 -12.9619140625
-37.799072265625 -39.581298828125 -3.4661865234375
-15.494873046875 -33.43359375 -11.157470703125
-32.869140625 -14.244384765625 0.891845703125
-29.734619140625 -23.4921875 -8.2039794921875
-16.827392578125 -13.81396484375 -0.511474609375
-33.213623046875 -20.285888671875 -6.3262939453125
13.8974609375 35.95751953125 -12.5361328125
-62.904296875 -35.0615234375 6.234619140625
-5.301513671875 12.218505859375 -9.3616943359375
-14.312744140625 -4.315185546875 -5.038330078125
-47.260986328125 -25.095458984375 -6.874267578125
-43.683837890625 -28.21142578125 -3.6026611328125
-53.314208984375 -44.73779296875 17.2855224609375
-29.973388671875 -12.015625 -1.4219970703125
-52.779296875 -24.523681640625 -6.79248046875
-31.57080078125 2.347412109375 -1.0830078125
-49.613525390625 -43.75537109375 11.7674560546875
-62.20849609375 -33.39013671875 19.959228515625
-25.29052734375 -24.064697265625 -1.7203369140625
-4.208251953125 18.579833984375 -14.49462890625
-30.6904296875 -16.695556640625 -0.6090087890625
-65.27294921875 -42.93505859375 14.3895263671875
-21.623291015625 -36.18701171875 -1.2718505859375
-40.671142578125 -15.0830078125 1.5740966796875
0.75732421875 16.31201171875 -7.936279296875
-13.235595703125 -16.2119140625 -0.9698486328125
10.192626953125 24.60107421875 -16.74267578125
-29.10302734375 -43.10009765625 -2.538818359375
-29.8125 10.03662109375 4.67431640625
-62.036376953125 -46.58642578125 17.442626953125
-50.6435546875 -41.671142578125 7.571533203125
-24.41552734375 -3.257080078125 -4.7027587890625
-0.82373046875 22.800537109375 -0.4500732421875
20.72607421875 22.866455078125 -17.5325927734375
16.383056640625 28.92529296875 -20.8309326171875
-64.503662109375 -44.20556640625 19.8963623046875
-38.089599609375 -43.684814453125 -6.2608642578125
17.655029296875 31.406982421875 -12.509521484375
-30.17138671875 -1.912353515625 -3.7569580078125
-22.531982421875 -16.71337890625 -1.7930908203125
-33.01123046875 -46.059814453125 -5.1756591796875
-22.827880859375 -12.878662109375 -1.210205078125
0.282958984375 11.4228515625 -8.1046142578125
-64.38134765625 -33.079345703125 3.513916015625
-63.688232421875 -20.747314453125 7.8641357421875
-66.12353515625 -29.088134765625 2.75341796875
-0.60888671875 21.330078125 -3.0706787109375
-15.03173828125 1.275390625 -4.1954345703125
-65.689453125 -35.974853515625 9.287109375
5.6044921875 35.372314453125 -8.6142578125
-25.05615234375 3.235595703125 -1.5833740234375
-33.277099609375 -37.809326171875 -0.0260009765625
11.829833984375 18.31640625 -13.1298828125
-27.41845703125 -30.484619140625 -2.1846923828125
7.975341796875 29.677001953125 -17.037841796875
-45.489013671875 -34.87890625 1.83447265625
-41.412841796875 -22.364501953125 -7.73583984375
-22.23388671875 0.781494140625 -3.691162109375
-19.7724609375 -37.776123046875 -9.3558349609375
-41.25341796875 -17.24365234375 -0.1053466796875
-24.856201171875 -25.7578125 -4.0614013671875
-35.1474609375 5.170654296875 1.42041015625
-63.77587890625 -39.184326171875 10.380615234375
-61.655517578125 -35.41455078125 -3.4388427734375
-45.072509765625 -40.637939453125 0.5250244140625
-62.393310546875 -29.674072265625 17.0560302734375
-26.99560546875 -14.343017578125 0.9464111328125
-21.66748046875 -36.631103515625 3.5491943359375
-62.446533203125 -47.16162109375 28.0379638671875
18.0869140625 27.832763671875 -12.8709716796875
-25.208251953125 -16.866455078125 -2.50048828125
-25.20654296875 -27.85546875 0.2215576171875
-6.227783203125 23.748291015625 -12.5533447265625
-56.961669921875 -36.901123046875 3.21337890625
-14.454833984375 5.34423828125 -1.098876953125
9.6962890625 38.452880859375 -20.651611328125
-17.749755859375 -28.033447265625 -9.5601806640625
-65.90283203125 -39.666015625 12.2799072265625
-56.556640625 -44.386474609375 16.2216796875
-2.571533203125 27.146240234375 0.4654541015625
-4.702392578125 14.7900390625 -2.93115234375
-42.163330078125 -40.93408203125 -3.9229736328125
8.6630859375 39.618408203125 -15.71875
-1.141357421875 13.93115234375 -8.311279296875
9.156982421875 32.952392578125 -3.81787109375
-34.02978515625 -2.161376953125 -3.2840576171875
-41.62109375 -4.35791015625 -3.1307373046875
-11.692138671875 9.154296875 1.2608642578125
-23.02099609375 6.963623046875 1.33984375
-25.894775390625 -28.75439453125 -4.9342041015625
-30.179931640625 -36.045166015625 1.4525146484375
8.368896484375 27.172119140625 -15.3558349609375
-21.268798828125 -31.11572265625 -10.140380859375
-12.814697265625 -9.421142578125 -6.24658203125
-37.468017578125 8.5361328125 4.244140625
9.4267578125 28.34912109375 -5.8306884765625
-38.818603515625 -34.652099609375 -0.2603759765625
-36.31396484375 -33.3173828125 1.1405029296875
-10.051513671875 6.990966796875 -1.0184326171875
-2.749267578125 18.23291015625 0.4002685546875
1.6533203125 16.225341796875 -10.978271484375
-66.26123046875 -27.451904296875 4.872314453125
-35.656494140625 -10.67041015625 -1.880615234375
-9.996337890625 12.946533203125 -13.0255126953125
4.11328125 13.356201171875 -10.9273681640625
-20.030517578125 -20.08447265625 -7.8197021484375
-49.91748046875 -28.467529296875 -3.8209228515625
-35.79150390625 -24.180419921875 -7.9586181640625
-51.828125 -39.241943359375 9.6986083984375
-35.96728515625 -18.250244140625 -1.46533203125
12.735107421875 21.09228515625 -12.60986328125
-42.327392578125 -31.4560546875 -0.58740234375
-42.26708984375 -11.042236328125 -1.005859375
-49.638671875 -26.4228515625 -6.07373046875
-58.646728515625 -19.38720703125 0.1812744140625
-44.15771484375 -17.822998046875 -0.607421875
11.0703125 27.0166015625 -8.0946044921875
-62.25048828125 -37.97802734375 26.224609375
4.390869140625 28.23876953125 -19.95458984375
-62.654541015625 -34.6513671875 22.913330078125
-33.813720703125 9.691162109375 4.2781982421875
1.732177734375 6.650634765625 -9.373046875
-52.76171875 -38.05419921875 15.0230712890625
-58.861572265625 -24.387939453125 -6.2347412109375
-65.687744140625 -32.716064453125 5.954833984375
-25.83740234375 7.634765625 1.9415283203125
-18.255126953125 -23.412109375 -9.8994140625
-7.39501953125 6.2490234375 -2.62548828125
-53.875 -29.457275390625 -5.933837890625
-41.540771484375 -25.252685546875 -6.7391357421875
-11.59130859375 4.66259765625 -1.7119140625
-45.8154296875 -21.322265625 -6.683349609375
16.805419921875 29.6279296875 -17.633056640625
-27.96728515625 -32.605224609375 -0.2647705078125
-38.867919921875 -26.786865234375 -6.02685546875
-38.233154296875 -7.9140625 -3.033447265625
-12.80859375 14.835693359375 -13.6485595703125
-18.970703125 3.232177734375 -2.1142578125
-15.140380859375 -23.25927734375 -8.6898193359375
19.4892578125 25.79736328125 -18.7947998046875
-26.55322265625 -5.106689453125 -4.826171875
-65.2431640625 -38.4326171875 14.874267578125
-35.771484375 -16.102783203125 0.3741455078125
-14.626708984375 -18.069580078125 -4.9464111328125
-56.627685546875 -36.4951171875 8.06201171875
-11.15771484375 13.707275390625 3.654052734375
-54.18994140625 -16.23583984375 1.830078125
12.90185546875 35.663330078125 -15.065185546875
15.872802734375 35.031982421875 -9.6053466796875
-47.780517578125 -39.501708984375 3.9329833984375
-34.885498046875 0.36376953125 -2.1295166015625
-63.26171875 -45.059326171875 24.720703125
-58.600341796875 -39.855224609375 10.6859130859375
-56.048095703125 -19.68701171875 -1.115478515625
-62.728759765625 -30.203857421875 -3.8193359375
-59.049072265625 -30.877197265625 -5.652587890625
-22.07861328125 -26.51513671875 -8.1246337890625
-22.21923828125 10.66064453125 4.783203125
-40.716796875 -44.5556640625 -7.1072998046875
-13.93310546875 13.51025390625 4.34912109375
-3.266845703125 21.552734375 -17.260498046875
12.64404296875 34.072509765625 -24.168212890625
7.630615234375 29.25390625 -3.0689697265625
-49.88623046875 -46.791259765625 20.653564453125
-16.19140625 2.977294921875 -2.7691650390625
-13.752685546875 -26.590087890625 -7.8408203125
-51.7998046875 -20.33642578125 -3.6688232421875
21.14501953125 20.32275390625 -15.8328857421875
-45.87451171875 -45.151611328125 -1.6649169921875
12.1865234375 22.666015625 -15.20166015625
12.28857421875 13.0498046875 -12.868408203125
16.8603515625 23.992431640625 -15.148681640625
-2.23876953125 22.392822265625 -5.003662109375
12.3623046875 28.859619140625 -9.224609375
-61.81298828125 -43.69189453125 16.57568359375
-48.96826171875 -44.634033203125 17.0146484375
-51.35791015625 -39.250244140625 13.2928466796875
-11.438720703125 -18.362060546875 -6.4681396484375
-49.389892578125 -40.3857421875 5.87451171875
10.45849609375 22.3896484375 -9.7498779296875
-34.395751953125 -41.98291015625 -2.54833984375
-55.979248046875 -41.028564453125 12.239990234375
-8.916259765625 21.317138671875 2.0386962890625
-52.50244140625 -46.82177734375 19.0281982421875
-55.661376953125 -32.372802734375 -6.591064453125
-32.929443359375 -12.1630859375 -0.445556640625
-25.76806640625 -20.361083984375 -7.6444091796875
8.075439453125 32.453125 -9.278564453125
-23.052490234375 -37.056396484375 -5.275634765625
-49.990478515625 -42.123291015625 13.5555419921875
-43.59716796875 -37.708740234375 0.6900634765625
-18.241455078125 -9.68994140625 -4.142578125
-63.556640625 -39.221435546875 18.09423828125
17.407470703125 33.853515625 -3.041748046875
-24.823974609375 -33.756591796875 -4.5811767578125
-22.06640625 5.2333984375 -0.3604736328125
-15.254638671875 -6.136962890625 -6.3486328125
-65.87060546875 -29.09814453125 -0.467529296875
-4.176513671875 9.781494140625 -7.4400634765625
-58.12353515625 -43.16943359375 14.749267578125
-25.553466796875 -34.6328125 2.08544921875
-26.50439453125 -23.3291015625 -6.73486328125
-48.7001953125 -20.1796875 -3.5595703125
-18.09765625 -19.486572265625 -2.529296875
-33.377197265625 -18.562744140625 -2.927734375
-48.09814453125 -42.79931640625 3.2066650390625
-61.825439453125 -44.248046875 29.2906494140625
-47.50146484375 -9.708984375 -1.7491455078125
-37.971435546875 -12.44873046875 -0.2054443359375
-39.281494140625 -28.448486328125 -3.920654296875
2.80908203125 11.134765625 -9.192626953125
11.68310546875 33.888671875 -19.2620849609375
-31.073974609375 -29.786376953125 -2.78564453125
-2.056884765625 18.48291015625 -11.9005126953125
-17.673095703125 6.471435546875 0.477783203125
15.144775390625 37.4150390625 -6.890869140625
-44.8310546875 -14.040771484375 2.31982421875
-22.716552734375 -8.25390625 -4.239013671875
13.52783203125 24.9482421875 -16.2359619140625
-50.2509765625 -14.34130859375 2.5654296875
-57.90771484375 -45.677001953125 17.7896728515625
-19.270263671875 -30.618896484375 -8.9241943359375
-6.99462890625 26.032958984375 -9.92431640625
-13.97998046875 9.43994140625 1.890625
-40.13671875 -39.23681640625 -3.1197509765625
-53.890625 -12.508544921875 1.144287109375
-60.273193359375 -18.574951171875 4.3670654296875
9.005615234375 18.669921875 -10.2943115234375
-59.14208984375 -34.9228515625 -6.1348876953125
12.956298828125 30.72216796875 -21.976318359375
-64.408203125 -42.126708984375 18.0068359375
-25.35546875 10.411376953125 4.9141845703125
-62.575927734375 -37.560791015625 23.4986572265625
-6.96484375 10.73583984375 -1.107666015625
1.037109375 17.353759765625 -5.465087890625
-41.412841796875 -36.809326171875 -0.46044921875
-19.0087890625 -15.6513671875 -0.6483154296875
-16.58203125 -3.197509765625 -5.7620849609375
14.76611328125 32.22900390625 -15.7947998046875
-50.322265625 -21.951416015625 -6.6597900390625
-31.131591796875 -45.208251953125 -3.9970703125
15.649658203125 20.7119140625 -16.0272216796875
-25.939453125 -10.545166015625 -3.0106201171875
-63.414794921875 -47.148681640625 25.78857421875
-17.533935546875 10.52099609375 3.054443359375
-3.2724609375 26.0361328125 -1.8726806640625
-33.997314453125 -25.75048828125 -6.37890625
-60.98486328125 -34.178955078125 3.3575439453125
-63.11376953125 -26.170166015625 -3.308349609375
-4.8759765625 21.095458984375 -15.1571044921875
-62.619873046875 -30.93310546875 15.109619140625
-10.098876953125 11.03759765625 1.29052734375
-7.099853515625 17.5341796875 2.6712646484375
-39.196533203125 -2.937255859375 -3.2523193359375
-36.41845703125 -37.48046875 -1.4346923828125
-32.57568359375 6.685546875 2.1485595703125
7.24169921875 16.73583984375 -10.435791015625
-61.3486328125 -40.765625 12.385986328125
-25.210205078125 -1.158935546875 -4.1947021484375
-23.734619140625 -24.8828125 -6.010498046875
-21.92724609375 -14.94287109375 -0.1805419921875
11.6650390625 25.337158203125 -14.31591796875
-20.046630859375 0.050537109375 -4.41064453125
-28.302490234375 -16.1376953125 -0.2100830078125
-5.79736328125 15.25146484375 -0.7679443359375
-60.310791015625 -26.455078125 -3.5439453125
-12.654541015625 -12.78662109375 -3.490478515625
-49.6171875 -46.608642578125 8.612548828125
-5.84912109375 17.496337890625 0.009521484375
-5.550537109375 25.45263671875 -7.49658203125
-43.953369140625 -45.459228515625 -6.03515625
-64.162353515625 -24.8818359375 7.5032958984375
-8.523681640625 29.1201171875 -7.4769287109375
-28.108154296875 -35.562255859375 2.849609375
-22.8251953125 -28.654296875 -9.2294921875
-3.428466796875 5.96435546875 -6.0604248046875
11.59375 35.360595703125 -17.270263671875
-48.32958984375 -44.826416015625 0.57861328125
12.150634765625 31.8115234375 -24.1741943359375
-14.345703125 -17.58544921875 -2.4749755859375
-50.251953125 -37.5732421875 17.9945068359375
-4.240966796875 21.44873046875 -10.267822265625
-66.186767578125 -31.11474609375 3.9146728515625
13.143798828125 20.91943359375 -16.2080078125
-62.6083984375 -29.7822265625 -1.4754638671875
-44.137939453125 -43.03515625 -4.0032958984375
-45.8525390625 -28.296630859375 -3.0845947265625
-26.82470703125 4.014892578125 -0.3262939453125
-61.1630859375 -36.22998046875 7.24462890625
-48.944091796875 -11.006591796875 -0.3160400390625
-19.819091796875 4.944580078125 -0.9862060546875
-14.984375 7.112548828125 0.4505615234375
-52.84521484375 -42.19921875 13.7911376953125
-52.0751953125 -30.196533203125 -4.873046875
12.986328125 32.2041015625 -19.8619384765625
-15.078369140625 -14.993896484375 0.2540283203125
-24.004638671875 -34.574951171875 -1.4791259765625
-37.116455078125 -20.472412109375 -5.9803466796875
-55.590576171875 -36.88037109375 10.2664794921875
-18.003662109375 -7.55908203125 -5.0859375
-18.475341796875 8.63818359375 1.7078857421875
-2.2060546875 9.450927734375 -8.4932861328125
-28.37158203125 7.04443359375 2.8074951171875
-61.97607421875 -42.13671875 26.2283935546875
-57.13330078125 -36.87353515625 -6.9521484375
-41.60498046875 -28.95458984375 -3.6199951171875
-1.380126953125 19.188232421875 -8.2950439453125
-33.08447265625 -39.88037109375 -1.3270263671875
-34.24560546875 -44.449462890625 -3.927490234375
-20.715087890625 -38.312744140625 5.389404296875
-24.625732421875 -22.00830078125 -9.0362548828125
-33.82177734375 -5.9765625 -3.990478515625
-0.063232421875 16.442138671875 -12.3448486328125
-44.64892578125 -11.177734375 -0.7528076171875
-13.950439453125 -17.952392578125 0.099609375
-46.710693359375 -30.38232421875 -0.9178466796875
-38.94482421875 -22.24951171875 -7.8731689453125
-21.898193359375 -23.98876953125 -9.09765625
-46.837890625 -23.029296875 -7.5235595703125
12.09814453125 25.539794921875 -11.7601318359375
-25.776123046875 -29.598388671875 -6.9158935546875
-16.909912109375 -0.598388671875 -4.6187744140625
-44.13427734375 -46.336181640625 -2.159912109375
-65.609130859375 -35.154541015625 7.295654296875
-41.567138671875 -20.25 -4.2918701171875
-30.269775390625 1.11572265625 -2.2642822265625
-41.236328125 -6.4404296875 -3.472900390625
-37.682373046875 -25.086181640625 -7.0855712890625
-49.5830078125 -18.089599609375 0.33642578125
-35.1025390625 -14.357177734375 1.412353515625
-21.99951171875 -18.414794921875 -3.313720703125
-62.54052734375 -22.38623046875 4.3193359375
-18.256103515625 -12.628662109375 -1.5701904296875
-29.010498046875 -19.193359375 -3.471435546875
-21.502685546875 -38.671142578125 -8.2069091796875
-48.183349609375 -16.326171875 1.7337646484375
-57.865966796875 -36.1201171875 6.291015625
20.030517578125 25.076171875 -16.8714599609375
15.440673828125 18.044677734375 -15.72607421875
-63.4609375 -31.0166015625 2.1776123046875
-45.91064453125 -39.020751953125 1.6148681640625
-64.12451171875 -23.1787109375 12.1195068359375
-40.0654296875 -18.459716796875 -1.402587890625
-40.7236328125 -34.71728515625 0.653564453125
-63.3017578125 -42.892578125 15.1514892578125
-46.87841796875 -46.662841796875 16.185791015625
-24.93505859375 -32.0830078125 -7.3751220703125
-22.4541015625 -35.3466796875 -9.2052001953125
-28.102294921875 -20.478759765625 -7.9283447265625
-65.819091796875 -27.0634765625 0.51220703125
-61.005859375 -31.35400390625 -4.9725341796875
-62.31494140625 -42.5419921875 24.1561279296875
11.471435546875 40.246337890625 -11.725341796875
-58.572265625 -28.831787109375 -5.50048828125
-41.867919921875 0.30126953125 -1.691650390625
-32.325439453125 -21.52099609375 -8.0142822265625
-20.99560546875 8.45068359375 1.9630126953125
-45.092529296875 -20.4345703125 -4.92138671875
-45.938232421875 -43.097900390625 -2.289794921875
-49.317626953125 -44.107666015625 7.094970703125
-48.9755859375 -43.359619140625 14.9144287109375
-17.260498046875 -18.56103515625 -0.6907958984375
-34.427001953125 -21.621337890625 -8.033935546875
-65.614990234375 -31.078125 7.673828125
9.885498046875 14.14208984375 -13.5858154296875
-24.8271484375 -23.6435546875 -3.8748779296875
13.1669921875 17.03515625 -14.3514404296875
13.99462890625 38.361328125 -4.7310791015625
-55.496337890625 -28.2978515625 -5.3118896484375
-39.865234375 3.9248046875 0.614990234375
-49.82861328125 -42.50048828125 10.115234375
-13.152587890625 -12.429443359375 -5.4832763671875
-51.7041015625 -12.7900390625 1.359130859375
-28.39697265625 -10.68408203125 -2.7489013671875
-56.909423828125 -16.376220703125 2.2276611328125
17.7275390625 29.02978515625 -14.5811767578125
10.306396484375 30.214599609375 -6.0670166015625
-40.37158203125 -10.113037109375 -1.8759765625
-54.159912109375 -22.95068359375 -6.4932861328125
-62.484375 -27.6044921875 17.118896484375
-60.599609375 -45.33056640625 18.2435302734375
-53.960205078125 -38.849609375 2.3485107421875
-35.7509765625 -30.38134765625 -2.0950927734375
-45.8154296875 -16.202880859375 1.4871826171875
-39.145751953125 -31.339111328125 -1.15234375
-59.010498046875 -37.73876953125 -6.8916015625
5.96044921875 30.828857421875 -16.631591796875
-65.037109375 -38.39697265625 8.5709228515625
-31.6259765625 -18.035400390625 -1.9544677734375
-1.157470703125 6.4873046875 -8.078125
18.438720703125 22.7421875 -16.102783203125
-43.75927734375 -7.8369140625 -2.7989501953125
-61.44873046875 -33.387939453125 -3.668701171875
19.838134765625 21.015625 -17.284423828125
-52.58056640625 -37.603271484375 8.0333251953125
-43.839111328125 -39.360107421875 -0.4853515625
8.405029296875 14.9892578125 -11.8836669921875
15.038818359375 30.726806640625 -24.9307861328125
-31.955322265625 8.9619140625 3.8658447265625
-30.420654296875 3.75244140625 -0.156494140625
-27.25341796875 1.75341796875 -2.458984375
-57.667236328125 -34.87158203125 -7.538818359375
-42.58154296875 -14.34375 1.84814453125
-47.475830078125 -18.834228515625 -1.0396728515625
-26.070068359375 -32.119384765625 -3.3167724609375
14.09716796875 33.596435546875 -14.4654541015625
-19.04443359375 -26.8125 -8.3836669921875
-32.553466796875 -33.60595703125 2.6802978515625
-39.327880859375 0.905517578125 -1.724365234375
-25.93603515625 -26.2041015625 -1.3218994140625
-21.666748046875 -9.882568359375 -3.689453125
-8.333740234375 15.201904296875 2.3795166015625
-11.833740234375 -26.092041015625 -8.8267822265625
12.064697265625 22.44580078125 -11.27880859375
-56.8251953125 -25.5078125 -5.5491943359375
-8.130126953125 11.58837890625 0.2908935546875
-12.854736328125 -20.587158203125 -7.699951171875
-62.639892578125 -31.385009765625 4.0701904296875
-3.63232421875 19.62744140625 -12.374267578125
-33.44189453125 1.76708984375 -1.50390625
9.889404296875 37.758056640625 -18.4461669921875
8.30224609375 31.13330078125 -2.85400390625
-17.342529296875 -34.33740234375 -10.82177734375
-29.501708984375 -38.1279296875 2.2052001953125
-26.0615234375 -18.203369140625 -3.7117919921875
-20.98681640625 -34.039794921875 -10.658203125
-24.633544921875 -33.754638671875 0.552734375
-21.906494140625 -6.52294921875 -5.161865234375
0.4619140625 14.57275390625 -7.016357421875
-57.72607421875 -20.64306640625 -4.2969970703125
-45.829833984375 -5.0400390625 -2.598876953125
-43.69873046875 -19.492431640625 -2.228271484375
-37.0478515625 -6.167236328125 -3.4122314453125
-31.2919921875 -5.816650390625 -4.120361328125
-2.447509765625 18.586669921875 -17.12109375
-13.87646484375 -7.761962890625 -6.0955810546875
-24.740478515625 -12.569091796875 -1.584228515625
-62.025146484375 -33.3857421875 17.9959716796875
11.1669921875 34.581787109375 -21.162353515625
-5.23876953125 26.97314453125 -4.9400634765625
-34.21044921875 11.034423828125 5.9964599609375
-7.526123046875 20.49267578125 0.9132080078125
-8.463134765625 7.95556640625 -1.7596435546875
-48.13232421875 -42.777587890625 1.027099609375
-31.977783203125 -31.49169921875 -1.31787109375
8.28466796875 25.13916015625 -5.2928466796875
-52.091064453125 -19.486572265625 -1.1759033203125
-49.574951171875 -44.494384765625 4.54248046875
-25.3232421875 -19.8779296875 -4.9534912109375
-52.713623046875 -43.048828125 16.1099853515625
-20.05810546875 1.827392578125 -2.9090576171875
-19.522705078125 -6.363037109375 -4.8660888671875
-30.898193359375 -10.4033203125 -2.53125
-36.64794921875 6.37548828125 2.33154296875
1.09375 7.855224609375 -10.757568359375
17.760009765625 31.210205078125 -8.981689453125
-65.73974609375 -34.753173828125 10.7945556640625
-30.08935546875 -4.05517578125 -4.5030517578125
-27.64111328125 10.216064453125 4.7249755859375
-61.366455078125 -37.875 8.245361328125
-15.68017578125 10.21142578125 2.5899658203125
-2.050048828125 24.4208984375 -1.16259765625
-26.091552734375 -16.45703125 -0.8282470703125
-0.941162109375 19.497314453125 -3.5867919921875
-65.5439453125 -41.298095703125 13.400634765625
-13.368408203125 -14.52490234375 -2.4224853515625
-56.040771484375 -41.873291015625 14.2713623046875
16.84912109375 32.546875 -7.9107666015625
8.614013671875 23.720458984375 -7.0511474609375
-3.11669921875 20.794189453125 -8.2476806640625
15.542236328125 25.157958984375 -15.9300537109375
-33.797119140625 -19.86474609375 -4.2845458984375
-28.28564453125 -13.15869140625 0.029052734375
-49.95703125 -46.54541015625 3.82373046875
-35.119873046875 -20.3759765625 -6.0872802734375
-45.09423828125 -31.55810546875 -0.1810302734375
-28.1181640625 -7.3134765625 -4.2392578125
4.1728515625 11.158935546875 -10.978271484375
-23.249267578125 3.8115234375 -1.294677734375
-65.519287109375 -40.459716796875 10.57666015625
-44.905517578125 -27.02978515625 -4.4864501953125
-63.70068359375 -27.62939453125 20.5103759765625
-35.949462890625 -40.7744140625 -3.152587890625
-14.24072265625 -20.18359375 -4.5948486328125
-18.319091796875 -20.41455078125 -7.0343017578125
-62.3369140625 -33.416748046875 -0.6943359375
-37.997802734375 -30.0517578125 -2.3028564453125
-16.072021484375 -21.57373046875 -6.3199462890625
-35.60009765625 9.136474609375 4.681884765625
11.929931640625 23.834228515625 -17.4642333984375
-5.293212890625 22.85986328125 -14.19970703125
-22.076904296875 -37.425048828125 -9.546142578125
-42.465576171875 -24.0673828125 -7.9022216796875
7.82861328125 33.4033203125 -1.8992919921875
-49.36328125 -31.719482421875 -1.1973876953125
-52.322509765625 -16.968017578125 1.5595703125
-32.132080078125 -15.907958984375 0.3426513671875
6.70751953125 33.689208984375 -8.77099609375
-54.644775390625 -25.014404296875 -6.6448974609375
-66.27197265625 -33.553955078125 2.837646484375
-32.25927734375 -1.6298828125 -3.6961669921875
8.16796875 34.11962890625 -4.9337158203125
-39.14501953125 -15.856201171875 0.7637939453125
-25.663330078125 -13.438720703125 -0.0482177734375
8.5888671875 32.64794921875 -7.281982421875
-7.072509765625 30.867919921875 -9.73046875
-40.71630859375 -43.34423828125 -5.6241455078125
18.546142578125 19.182373046875 -16.1533203125
-50.515380859375 -40.856201171875 9.2720947265625
-22.741455078125 -21.493408203125 -8.6373291015625
-54.748291015625 -13.763916015625 2.6805419921875
13.946533203125 32.429443359375 -18.0770263671875
-23.59765625 2.44482421875 -2.54541015625
-5.715087890625 25.50537109375 -13.19384765625
-31.1953125 -12.90673828125 -0.2979736328125
-23.30712890625 -0.609375 -4.4775390625
-15.731689453125 -18.575439453125 -6.381591796875
-42.53955078125 -33.1201171875 1.1085205078125
18.706787109375 27.137451171875 -17.6044921875
-33.07275390625 3.552978515625 -0.1710205078125
-65.340576171875 -30.68896484375 0.8824462890625
-15.133544921875 -24.963623046875 -9.4761962890625
-45.359130859375 -12.84765625 0.970458984375
-63.800537109375 -21.95849609375 9.7781982421875
-33.949951171875 -8.90966796875 -2.975830078125
-10.679443359375 15.99267578125 4.4144287109375
-62.99365234375 -27.767822265625 -1.1416015625
-46.716796875 -41.50244140625 0.283203125
-56.684814453125 -22.24560546875 -5.777099609375
-65.927978515625 -37.619140625 10.9697265625
-48.7412109375 -22.70556640625 -7.3280029296875
-22.503173828125 -3.567626953125 -5.034423828125
8.522705078125 41.32470703125 -16.4718017578125
-36.598876953125 2.41552734375 -0.7470703125
-63.619873046875 -45.807861328125 18.09716796875
-39.9814453125 -8.431884765625 -2.6253662109375
-14.81396484375 -11.599365234375 -2.6756591796875
-29.69775390625 -34.349365234375 2.2252197265625
-58.173828125 -36.1259765625 4.399658203125
-49.453369140625 -38.798583984375 16.8333740234375
-21.122802734375 -12.3671875 -1.75927734375
-57.66796875 -37.765625 9.3321533203125
-5.4970703125 9.860595703125 -3.5223388671875
-14.8271484375 -15.4462890625 -1.5528564453125
-35.35595703125 -32.031494140625 -0.2821044921875
-53.748291015625 -27.81494140625 -4.9156494140625
-29.439208984375 -18.344482421875 -1.8775634765625
4.882568359375 30.8408203125 -2.1063232421875
11.833740234375 26.52197265625 -9.968017578125
-59.9326171875 -38.24658203125 9.5999755859375
-4.17919921875 7.682373046875 -5.4969482421875
-30.462890625 -7.44921875 -3.8421630859375
-37.48876953125 -23.428466796875 -8.0899658203125
-24.62548828125 -7.955810546875 -4.60498046875
-31.94482421875 -36.51904296875 1.161376953125
-23.726806640625 -35.8134765625 -6.75537109375
-26.2119140625 -35.9248046875 3.232421875
-64.512451171875 -46.691650390625 21.1337890625
-38.150390625 -32.96533203125 0.0782470703125
10.397216796875 24.25341796875 -8.350341796875
-26.64208984375 5.79443359375 0.748779296875
-30.718994140625 5.953857421875 1.7342529296875
-14.325927734375 -9.0400390625 -4.668701171875
-42.36376953125 -30.21875 -1.9490966796875
-52.03125 -22.85693359375 -7.0113525390625
-53.16064453125 -26.16650390625 -6.0601806640625
-63.775634765625 -33.869384765625 5.057861328125
-62.28857421875 -42.57763671875 27.9840087890625
-7.121337890625 12.0595703125 -9.543212890625
-17.62841796875 -29.713623046875 -8.8311767578125
-3.9716796875 11.2275390625 -5.02685546875
-44.198486328125 -34.0068359375 0.8641357421875
-7.756591796875 13.850830078125 0.9046630859375
-18.134033203125 -25.09033203125 -9.1702880859375
-48.448974609375 -41.171875 4.2764892578125
-61.20751953125 -18.982177734375 7.3148193359375
-13.57275390625 -28.703125 -7.0628662109375
-20.930419921875 -16.189208984375 -1.07421875
-21.918701171875 -37.854736328125 -6.6241455078125
-63.01806640625 -31.413818359375 -0.078125
-28.708251953125 8.794189453125 3.9134521484375
-49.38671875 -46.4931640625 1.0767822265625
-25.285400390625 9.047607421875 3.4820556640625
10.460205078125 18.296142578125 -11.332275390625
1.762451171875 9.7021484375 -9.847900390625
-43.147705078125 -22.027587890625 -7.2796630859375
-59.760498046875 -25.224609375 -4.769775390625
-59.951416015625 -28.071533203125 -4.58447265625
-19.44287109375 -3.80078125 -5.2867431640625
10.667724609375 28.651123046875 -9.85498046875
10.609619140625 16.42919921875 -13.29638671875
10.128662109375 36.7060546875 -20.9111328125
14.464599609375 38.58935546875 -8.31396484375
-6.38818359375 28.646240234375 -11.0892333984375
-63.685791015625 -45.455078125 22.5225830078125
7.8203125 28.89892578125 -15.229736328125
-1.988037109375 21.020751953125 -6.16552734375
-38.385498046875 -0.753173828125 -2.6937255859375
-26.58154296875 -33.821044921875 0.7823486328125
-36.89306640625 -27.52587890625 -4.816650390625
16.42626953125 33.630615234375 -11.08837890625
-5.374267578125 13.473388671875 -1.751953125
-15.780517578125 -9.9638671875 -3.7991943359375
-7.07568359375 18.790771484375 1.3701171875
-63.087646484375 -31.34619140625 20.32568359375
-4.448974609375 13.43115234375 -4.0933837890625
-43.037109375 -26.95263671875 -4.719970703125
-5.81982421875 8.05859375 -4.0335693359375
-64.164306640625 -22.827880859375 7.6932373046875
-31.54248046875 -23.577880859375 -8.5126953125
-59.9453125 -41.55908203125 13.665771484375
-24.258056640625 -35.862060546875 3.0068359375
12.697998046875 37.1259765625 -13.1876220703125
-11.049072265625 2.955078125 -1.836669921875
15.760986328125 36.471435546875 -8.2874755859375
-34.805908203125 -34.101806640625 1.715087890625
-65.12548828125 -42.538818359375 16.1331787109375
-50.53173828125 -45.5009765625 16.8685302734375
-38.01904296875 -4.14111328125 -3.8638916015625
-34.358154296875 -36.593017578125 0.71875
-21.719482421875 -37.02734375 -2.848388671875
-38.190673828125 -20.087646484375 -4.604248046875
-51.76025390625 -43.871337890625 17.4320068359375
-4.624267578125 11.47314453125 -7.88818359375
-1.109619140625 22.881103515625 1.309326171875
-43.939208984375 -24.95068359375 -7.19189453125
-26.1865234375 -30.443603515625 -4.046142578125
-39.335693359375 -13.751953125 1.377685546875
-51.418701171875 -26.09375 -6.4227294921875
-45.8759765625 -25.43359375 -5.694091796875
-41.149658203125 -2.64404296875 -3.0609130859375
-3.397705078125 23.56982421875 -5.6597900390625
16.846435546875 16.470703125 -14.1861572265625
-60.6884765625 -35.783447265625 -4.904296875
-47.33251953125 -12.959716796875 1.0626220703125
-50.893798828125 -10.307861328125 -0.8558349609375
-43.491455078125 -40.161865234375 -2.181884765625
13.53466796875 30.640625 -23.9847412109375
-28.735107421875 4.31396484375 -0.0010986328125
-62.921875 -28.441650390625 18.615234375
-18.883056640625 -21.733154296875 -8.5289306640625
-38.40478515625 2.268310546875 -1.0758056640625
-62.740478515625 -21.546875 6.2772216796875
-30.92626953125 -42.30859375 -2.813720703125
-12.91015625 -23.597900390625 -10.0166015625
-41.605224609375 -21.114990234375 -6.508056640625
-61.505615234375 -37.10693359375 22.1602783203125
-50.38916015625 -45.00048828125 10.53955078125
6.76220703125 13.08642578125 -11.884765625
-38.107666015625 -40.819091796875 -4.67626953125
-61.28857421875 -34.59765625 5.0377197265625
-48.303466796875 -8.101806640625 -2.0242919921875
