-27.138916015625 -30.478515625 -15.9334716796875
-68.690185546875 -40.95751953125 -10.6641845703125
12.2626953125 9.37841796875 -21.7740478515625
1.498046875 -1.67333984375 -19.947998046875
-32.413818359375 0.37548828125 -5.2938232421875
11.363525390625 28.088623046875 -13.812255859375
8.912353515625 13.5078125 -18.357177734375
-60.32763671875 -27.927490234375 -13.5980224609375
15.015625 14.717041015625 -23.4556884765625
16.04052734375 18.537109375 -25.739501953125
51.082763671875 7.68359375 10.153564453125
-25.208984375 -26.103759765625 -7.99072265625
-67.867919921875 -28.2060546875 4.8802490234375
-16.5078125 12.435302734375 0.4490966796875
-12.97119140625 13.7822265625 -5.6783447265625
-69.155029296875 -45.629150390625 23.278076171875
-46.47705078125 -44.95068359375 -5.290283203125
-39.683837890625 -13.66064453125 -10.5682373046875
-73.1337890625 -43.5390625 5.12744140625
-37.891357421875 -35.77587890625 -8.50341796875
-50.20849609375 -25.275146484375 -9.3099365234375
-40.204345703125 -43.20654296875 -5.1903076171875
-25.930419921875 -1.5947265625 -7.28759765625
-41.85791015625 -49.29736328125 -10.835693359375
-7.701171875 0.1689453125 -13.402587890625
6.40478515625 32.791748046875 -22.4932861328125
-7.715576171875 8.263671875 -23.8238525390625
-32.23681640625 -39.92529296875 -9.280517578125
10.559814453125 31.484130859375 -14.849609375
-10.819580078125 21.721435546875 -10.8375244140625
-11.15625 1.2890625 -8.723876953125
-19.963623046875 -13.00927734375 -13.3017578125
-69.607666015625 -38.694091796875 -5.6170654296875
-62.47216796875 -47.123779296875 5.695556640625
-55.0126953125 -54.677734375 -10.700439453125
2.4404296875 24.939697265625 -7.798583984375
-7.99267578125 13.46044921875 -7.822509765625
-31.141357421875 -17.04150390625 -9.6361083984375
14.092041015625 17.722900390625 -19.890380859375
-25.651611328125 -5.732177734375 -10.346435546875
-70.34619140625 -40.9541015625 -1.6505126953125
7.97509765625 27.36328125 -27.90087890625
5.416259765625 23.915283203125 -14.5726318359375
13.316650390625 19.760009765625 -24.8773193359375
-58.370849609375 -21.1181640625 -5.23193359375
-15.9638671875 4.999267578125 -3.6766357421875
-69.219970703125 -46.9833984375 20.88818359375
-37.884033203125 -8.545654296875 -11.0386962890625
-41.197021484375 -32.37353515625 -13.6884765625
-53.077880859375 -37.678955078125 -7.50244140625
-17.470458984375 -2.01708984375 -7.5728759765625
-50.44091796875 -14.072509765625 -9.7833251953125
-47.136962890625 -36.750732421875 -7.7252197265625
-50.47412109375 -17.665771484375 -7.6612548828125
-42.424560546875 -45.3916015625 -6.77099609375
11.26708984375 26.0498046875 -19.335205078125
-12.13916015625 5.388916015625 -6.5557861328125
-48.49072265625 -32.5576171875 -13.840576171875
-42.135009765625 -4.365478515625 -9.10791015625
-16.238037109375 13.890625 -10.5223388671875
55.828369140625 -0.685791015625 15.0389404296875
-30.594482421875 -42.23046875 -14.00244140625
4.5791015625 3.17236328125 -17.0870361328125
0.705078125 -0.178466796875 -17.543212890625
-57.6123046875 -50.683837890625 -1.6849365234375
-33.587158203125 -23.848876953125 -8.5556640625
-53.42529296875 -25.393798828125 -9.555419921875
-10.505859375 17.960205078125 -20.684326171875
0.44287109375 28.06298828125 -17.2034912109375
-19.81298828125 1.572265625 -5.034423828125
-59.78076171875 -32.35791015625 -12.7733154296875
-53.467529296875 -56.761474609375 -12.0096435546875
-50.416015625 -44.89013671875 -2.97119140625
-71.7080078125 -51.4599609375 12.5386962890625
-67.291015625 -45.915283203125 5.859619140625
7.508056640625 29.95849609375 -21.1236572265625
-9.2861328125 12.845947265625 -24.4892578125
-22.26220703125 -29.458251953125 -15.1966552734375
-23.210205078125 -34.134765625 -14.938232421875
7.078125 19.95458984375 -15.236572265625
-23.7841796875 -8.79052734375 -12.0467529296875
-35.33837890625 -11.815673828125 -11.0863037109375
-38.07861328125 -47.072265625 -7.873046875
-7.365966796875 19.251220703125 -7.8685302734375
-72.526611328125 -37.89697265625 -4.9166259765625
-39.1796875 -27.781494140625 -14.531005859375
-55.761474609375 -33.117919921875 -13.419921875
-21.205810546875 10.31298828125 0.0875244140625
-45.248779296875 -23.31591796875 -7.434326171875
-36.685546875 -30.646484375 -14.6270751953125
-5.26025390625 4.134521484375 -14.622314453125
-40.498291015625 -1.037353515625 -6.22900390625
-71.68310546875 -37.73095703125 14.0228271484375
-56.6708984375 -35.84423828125 -10.4544677734375
-6.704833984375 14.43701171875 -11.811767578125
4.45947265625 17.732177734375 -25.040283203125
-20.57861328125 -8.209228515625 -12.1102294921875
-40.64990234375 -20.538818359375 -6.1392822265625
0.623046875 23.35498046875 -8.5819091796875
-57.415283203125 -51.396728515625 1.482421875
-56.621826171875 -58.327392578125 -10.1121826171875
-34.19189453125 2.099853515625 -4.15283203125
-56.61572265625 -65.13623046875 -4.3831787109375
-2.9619140625 7.930419921875 -13.281005859375
9.16455078125 9.730224609375 -20.667724609375
-49.575927734375 -55.073486328125 -10.132080078125
-45.88232421875 -12.258544921875 -10.57470703125
-25.51171875 -28.701416015625 -15.249755859375
-56.619384765625 -54.957763671875 -6.628662109375
11.7265625 16.945068359375 -21.257568359375
-57.630859375 -49.902099609375 8.4337158203125
50.4560546875 5.408935546875 11.65576171875
1.103271484375 4.27294921875 -17.1787109375
-53.77490234375 -50.087890625 -8.3236083984375
13.086669921875 22.9287109375 -20.5225830078125
6.236083984375 34.79150390625 -20.712890625
-72.1865234375 -49.480712890625 10.303955078125
-56.58544921875 -59.31103515625 -0.838623046875
-28.694580078125 -2.25390625 -8.0849609375
-54.2490234375 -53.96240234375 11.9384765625
-69.980712890625 -33.76708984375 9.87060546875
-32.692626953125 4.110107421875 -2.173095703125
-56.84814453125 -57.513671875 4.5333251953125
-6.927001953125 13.02490234375 -4.3760986328125
-61.97998046875 -60.113525390625 15.3912353515625
-48.22998046875 -19.54248046875 -5.9365234375
6.81005859375 17.500244140625 -20.93212890625
-58.281494140625 -25.53271484375 -9.3231201171875
-28.67822265625 3.38916015625 -3.218017578125
-9.465576171875 16.715576171875 -13.202880859375
3.706787109375 27.604736328125 -16.0216064453125
-6.198486328125 9.277587890625 -19.3048095703125
-55.80517578125 -29.06591796875 -14.231689453125
-7.198974609375 19.93896484375 -2.0416259765625
-36.82373046875 -20.010498046875 -6.6221923828125
-69.248779296875 -48.90673828125 25.4454345703125
-44.244140625 -32.858154296875 -13.621337890625
8.470947265625 15.78466796875 -17.5772705078125
-41.635009765625 -25.482177734375 -10.2108154296875
-34.504638671875 6.265869140625 -1.071044921875
-43.02001953125 -37.126220703125 -8.4075927734375
-16.134521484375 16.208740234375 -5.5313720703125
-58.244140625 -43.045654296875 3.098388671875
48.958251953125 10.09326171875 6.973876953125
-11.684326171875 18.6904296875 -17.370849609375
-12.66943359375 15.668701171875 3.198486328125
-7.6552734375 -3.5595703125 -11.191650390625
7.0849609375 30.66259765625 -25.6806640625
-72.070556640625 -49.72119140625 14.9755859375
-67.668212890625 -41.848388671875 -12.70166015625
-69.51220703125 -41.527099609375 21.1810302734375
53.879638671875 5.229248046875 7.676025390625
-68.755126953125 -38.537353515625 -10.7808837890625
-25.834716796875 -17.686767578125 -9.66015625
-28.944091796875 7.16162109375 -0.0673828125
-20.64599609375 -5.456298828125 -10.16943359375
3.451171875 16.861328125 -12.620361328125
-59.739990234375 -47.505126953125 6.0579833984375
-54.408447265625 -23.622802734375 -7.4197998046875
-19.409912109375 -21.8359375 -11.0340576171875
-27.675537109375 -36.424072265625 -16.506103515625
-59.1083984375 -58.42626953125 16.6884765625
-33.524169921875 -34.41064453125 -8.291015625
-21.30029296875 11.838134765625 2.085693359375
-32.718017578125 -37.7158203125 -7.16455078125
-49.51318359375 -51.68310546875 -7.287353515625
-41.825439453125 -53.510498046875 -12.804931640625
-44.037841796875 -40.79296875 -6.227783203125
-55.08056640625 -44.97412109375 -3.8516845703125
-6.362548828125 -4.1552734375 -13.7181396484375
7.728515625 6.14501953125 -20.2259521484375
-13.0908203125 16.509765625 -0.9334716796875
-9.798583984375 6.880859375 -10.625244140625
-28.07861328125 -41.107421875 -17.614013671875
18.78173828125 14.12890625 -23.1627197265625
-22.5556640625 -39.363525390625 -18.0908203125
-12.764892578125 21.11181640625 -14.638427734375
-29.92529296875 -43.76953125 -11.031982421875
-47.991455078125 -43.780517578125 -6.694091796875
-34.858642578125 -14.7060546875 -10.4000244140625
-4.010986328125 -0.713623046875 -15.72314453125
-21.417724609375 -19.979248046875 -8.085693359375
-12.330322265625 3.09521484375 -7.448486328125
-43.031982421875 -8.374267578125 -10.9656982421875
-64.30224609375 -44.23388671875 -12.7554931640625
-16.980712890625 15.39501953125 -12.18994140625
-8.062744140625 5.386474609375 -9.1251220703125
-2.6220703125 3.33203125 -15.5023193359375
-58.149169921875 -50.42724609375 5.487060546875
-25.666259765625 -26.469482421875 -13.4298095703125
-45.44140625 -44.61474609375 -7.3931884765625
-56.439208984375 -25.994873046875 -10.9525146484375
-37.977783203125 -44.493408203125 -6.37744140625
-65.886962890625 -42.0478515625 -0.10791015625
10.947021484375 25.41943359375 -16.9700927734375
-50.775146484375 -37.58056640625 -6.40576171875
-26.46630859375 -22.69580078125 -7.59716796875
-24.9599609375 -38.896240234375 -16.39111328125
-10.318115234375 14.964599609375 -20.3837890625
-9.462158203125 -0.683837890625 -12.114501953125
-15.134765625 1.747802734375 -6.0716552734375
-26.78076171875 -19.3173828125 -8.0701904296875
-24.839111328125 8.8564453125 1.05859375
-22.124755859375 -23.787353515625 -6.82958984375
-67.713623046875 -43.12939453125 22.442626953125
-4.392578125 11.38623046875 -8.8873291015625
-10.28564453125 6.77490234375 -7.051025390625
-32.123779296875 -10.871337890625 -11.736083984375
-14.679443359375 8.75927734375 -2.1041259765625
-9.658935546875 16.141357421875 -6.4658203125
-53.212646484375 -32.60302734375 -12.67529296875
4.593994140625 21.3095703125 -20.9359130859375
-49.125732421875 -40.312255859375 -3.3580322265625
-57.04541015625 -57.798583984375 -5.785400390625
-41.509765625 -26.11474609375 -13.5164794921875
-28.879638671875 -8.5830078125 -11.7049560546875
-23.934814453125 -21.67041015625 -6.41748046875
-19.8212890625 -28.604736328125 -16.2255859375
-44.0546875 -47.521240234375 -7.559326171875
-34.318359375 -26.787353515625 -14.335693359375
-56.954833984375 -53.879150390625 1.44970703125
-28.37646484375 -32.127685546875 -14.7528076171875
-48.90673828125 -47.5419921875 -7.2060546875
-38.721923828125 -25.408935546875 -10.4849853515625
-34.61669921875 -43.931640625 -3.976318359375
-2.1044921875 1.475341796875 -16.87939453125
4.370361328125 26.4921875 -11.062744140625
0.640380859375 2.371337890625 -18.3648681640625
-29.7294921875 -24.65283203125 -9.736572265625
-44.796142578125 -34.415771484375 -11.563232421875
-47.00439453125 -10.2294921875 -10.7342529296875
10.8212890625 24.4833984375 -24.5328369140625
-3.115966796875 5.86767578125 -16.1629638671875
-36.14111328125 -17.213623046875 -9.2664794921875
-66.446533203125 -37.4013671875 -13.0938720703125
-45.54638671875 -45.631103515625 -1.8642578125
55.002685546875 1.450927734375 12.6109619140625
-12.95361328125 24.12255859375 -14.9405517578125
-69.795654296875 -38.009521484375 -8.0438232421875
-21.88916015625 -25.548583984375 -14.115966796875
-33.279052734375 -36.1875 -10.0272216796875
-57.89306640625 -54.42529296875 -2.7635498046875
11.7802734375 13.78076171875 -21.7816162109375
-24.9189453125 -34.67724609375 -16.42431640625
-54.2939453125 -26.466064453125 -12.8602294921875
-45.170654296875 -8.009521484375 -10.368408203125
-67.098876953125 -53.78466796875 17.3565673828125
56.291015625 2.153076171875 9.0390625
-58.795166015625 -67.515869140625 -1.780029296875
-53.954345703125 -52.197998046875 -9.95263671875
-8.069091796875 11.317138671875 -7.1715087890625
8.132568359375 11.14306640625 -19.2095947265625
-59.60693359375 -53.414794921875 15.9102783203125
-70.863525390625 -38.997802734375 -3.15673828125
-56.7841796875 -60.4990234375 1.0418701171875
-62.29833984375 -42.337646484375 1.5394287109375
8.017333984375 14.723876953125 -22.81591796875
7.65673828125 28.5078125 -25.62744140625
0.993408203125 26.0107421875 -5.392333984375
5.9794921875 17.173095703125 -23.24560546875
-20.355224609375 3.48828125 -2.9462890625
-26.122802734375 1.22607421875 -4.7716064453125
-5.685302734375 11.12451171875 -14.6207275390625
-61.6015625 -43.904052734375 3.299560546875
-57.4072265625 -68.839111328125 -6.8802490234375
5.448486328125 21.215576171875 -18.566162109375
-31.0888671875 -6.451171875 -10.45458984375
-68.891357421875 -30.67529296875 5.5711669921875
-15.5068359375 -1.06591796875 -7.887939453125
6.92529296875 36.741943359375 -19.953369140625
2.2138671875 27.76904296875 -13.69189453125
-57.872314453125 -28.31201171875 -14.3370361328125
-31.541015625 -42.600341796875 -3.4090576171875
-5.947021484375 15.189453125 -9.503662109375
6.51513671875 16.3603515625 -15.12744140625
-36.5615234375 -22.191650390625 -7.64208984375
-56.13427734375 -55.024658203125 -8.7633056640625
-40.267578125 -22.745361328125 -7.7027587890625
-38.180419921875 -23.56591796875 -8.3883056640625
-32.5830078125 -15.070556640625 -10.87255859375
-32.023193359375 -29.60595703125 -13.3448486328125
-12.9228515625 -1.442138671875 -8.7967529296875
-23.630615234375 -4.720947265625 -9.84228515625
-22.72314453125 -0.921142578125 -6.6409912109375
-13.1240234375 9.58056640625 -3.671142578125
-35.11181640625 -38.5849609375 -6.8359375
-21.4521484375 -27.5849609375 -12.829345703125
-7.8837890625 3.25732421875 -13.0103759765625
-5.64404296875 7.334228515625 -13.1044921875
-59.6279296875 -51.0029296875 12.88232421875
6.6865234375 34.89453125 -23.5704345703125
-23.641357421875 10.11279296875 -0.246826171875
-21.588134765625 7.899169921875 -1.7939453125
-40.149169921875 -18.146240234375 -8.3175048828125
-8.422119140625 11.366943359375 -22.73193359375
-21.605712890625 -23.578125 -10.34228515625
-45.874267578125 -31.702392578125 -14.4583740234375
-35.746826171875 7.601318359375 0.0966796875
-11.653564453125 16.60107421875 -16.59912109375
-48.619873046875 -42.355712890625 -2.625244140625
-49.16357421875 -26.255615234375 -12.065185546875
-21.011474609375 15.50048828125 -12.450927734375
-49.583984375 -41.249267578125 -5.405517578125
-56.782958984375 -46.88916015625 0.184814453125
14.292236328125 20.645263671875 -21.766357421875
49.060791015625 9.041748046875 10.682373046875
-40.171142578125 -50.553466796875 -11.3233642578125
-29.85888671875 -27.986572265625 -15.3779296875
-13.921630859375 12.762939453125 -10.3585205078125
-47.09765625 -39.587646484375 -6.221435546875
15.324951171875 18.86962890625 -18.4962158203125
-20.740478515625 -2.260986328125 -8.26123046875
15.65966796875 16.25244140625 -22.0894775390625
-22.214599609375 -15.522216796875 -11.2840576171875
-44.182373046875 -18.23974609375 -7.45849609375
-52.142333984375 -46.694091796875 -6.078857421875
-41.965576171875 -24.124267578125 -8.575927734375
-48.06787109375 -13.987548828125 -10.0306396484375
1.93017578125 -2.289794921875 -17.3837890625
-61.9951171875 -36.094482421875 -13.0625
11.056396484375 21.84521484375 -28.1954345703125
-30.869384765625 -12.916259765625 -11.4442138671875
-63.001953125 -46.626708984375 7.8436279296875
-32.92236328125 -18.30029296875 -8.469482421875
57.6103515625 -1.10595703125 9.185791015625
52.99951171875 4.6025390625 11.69287109375
-70.1513671875 -31.668212890625 10.345947265625
-61.7529296875 -31.9560546875 -12.062255859375
-72.627197265625 -46.688720703125 8.1318359375
-39.6318359375 -37.04345703125 -8.0245361328125
-45.53466796875 -49.188720703125 -7.45556640625
-47.304443359375 -52.20361328125 -10.5389404296875
-56.042236328125 -52.0849609375 -6.55224609375
-27.5849609375 -16.116455078125 -10.572998046875
-29.49072265625 -18.995849609375 -8.1287841796875
-26.136962890625 4.533447265625 -2.0108642578125
4.26123046875 23.57275390625 -16.6265869140625
-36.8525390625 -48.75537109375 -8.2967529296875
-28.737060546875 -22.783935546875 -7.770263671875
-32.225341796875 -21.556640625 -6.7874755859375
-42.844482421875 -35.970703125 -10.28662109375
-51.203125 -27.236572265625 -13.4610595703125
-49.25341796875 -29.33837890625 -14.9300537109375
-63.353515625 -53.749267578125 18.53466796875
-41.4619140625 -6.547119140625 -10.2728271484375
-48.815673828125 -56.76953125 -11.848876953125
3.986572265625 24.4248046875 -9.3929443359375
-68.27197265625 -42.43603515625 19.2926025390625
-21.7890625 0.979736328125 -5.466064453125
-68.8037109375 -41.29443359375 16.9554443359375
-63.6591796875 -40.23291015625 -13.9827880859375
-17.094482421875 -4.74560546875 -9.13232421875
-24.1923828125 2.24560546875 -4.3828125
-72.02197265625 -44.810302734375 3.8780517578125
-29.1103515625 -39.412353515625 -16.9290771484375
-72.843505859375 -38.10986328125 -1.0499267578125
-29.95947265625 -43.955322265625 -15.203857421875
-38.41357421875 -16.478759765625 -9.51708984375
-68.10107421875 -40.666015625 -4.818359375
4.995361328125 4.298828125 -19.3375244140625
-32.916259765625 -2.48388671875 -8.0313720703125
15.2587890625 11.8056640625 -21.751220703125
-11.440673828125 11.597412109375 -6.5068359375
-68.740966796875 -47.58203125 27.007568359375
-57.406005859375 -47.642578125 2.181396484375
10.975341796875 29.6171875 -15.6822509765625
-58.375732421875 -46.3154296875 4.3912353515625
-44.041259765625 -51.33447265625 -9.5836181640625
-6.202880859375 1.914794921875 -14.3511962890625
-56.890625 -48.606201171875 -1.3887939453125
-4.497314453125 -2.72607421875 -13.52685546875
4.3486328125 18.74951171875 -12.2783203125
10.481201171875 32.179443359375 -12.896728515625
-58.23193359375 -61.91650390625 -7.424560546875
-37.763427734375 -4.59228515625 -9.5404052734375
-27.4306640625 -10.2353515625 -11.87353515625
10.293212890625 26.189453125 -21.1514892578125
-50.58984375 -53.4072265625 -9.4588623046875
-57.44580078125 -52.3720703125 -2.859375
-30.116455078125 -44.22998046875 -2.1895751953125
7.93408203125 32.189208984375 -17.963134765625
-18.234375 5.427734375 -2.3621826171875
-37.428955078125 -27.251953125 -13.5968017578125
-70.7763671875 -33.976318359375 13.89697265625
-4.09033203125 9.46240234375 -10.5543212890625
-20.052978515625 13.589599609375 -14.658203125
-68.124267578125 -40.49365234375 -1.251708984375
53.710205078125 3.435302734375 8.9610595703125
-71.143798828125 -42.4833984375 0.79931640625
-18.559326171875 -8.5576171875 -12.3023681640625
9.33447265625 24.8984375 -30.917236328125
-57.758056640625 -24.1806640625 -7.8876953125
-56.255859375 -50.6865234375 9.71630859375
-25.857666015625 -20.90869140625 -6.8355712890625
-13.522705078125 12.884033203125 -1.4139404296875
3.660400390625 25.01611328125 -15.3253173828125
-31.48681640625 -38.0029296875 -13.1796875
-46.027587890625 -19.49609375 -6.43798828125
-19.901611328125 -20.6962890625 -6.8187255859375
-40.56298828125 -33.52001953125 -12.125732421875
-32.044677734375 -34.1962890625 -12.5985107421875
-45.548095703125 -26.6474609375 -13.3990478515625
-4.58740234375 10.464111328125 -4.913330078125
-12.24365234375 20.821044921875 -17.4256591796875
-56.935302734375 -54.154296875 5.82958984375
-41.408935546875 -29.982666015625 -15.39453125
-8.14404296875 13.90869140625 -15.6414794921875
-27.18798828125 -12.38720703125 -12.2119140625
1.73583984375 20.522216796875 -10.6351318359375
-57.68017578125 -50.09130859375 3.2569580078125
-43.418701171875 -11.73828125 -10.7371826171875
1.733154296875 27.483642578125 -15.6390380859375
-31.503173828125 7.878662109375 0.079345703125
-16.069091796875 3.159912109375 -4.4803466796875
-24.424072265625 -15.19140625 -11.3583984375
-68.112548828125 -36.52734375 -11.2803955078125
-22.106201171875 4.30810546875 -2.404052734375
52.746826171875 6.669677734375 8.4949951171875
-39.0751953125 0.370361328125 -5.7384033203125
-48.431396484375 -45.380126953125 -5.16357421875
-6.63623046875 16.916015625 -5.5040283203125
-17.58544921875 1.7080078125 -4.9869384765625
53.268798828125 2.39453125 13.4951171875
-50.582275390625 -48.801025390625 -7.4027099609375
5.73876953125 22.088623046875 -11.3837890625
-38.77978515625 -19.646240234375 -6.443359375
-8.261474609375 9.0771484375 -7.3626708984375
15.96875 16.901123046875 -24.4376220703125
-44.908447265625 -46.18359375 -5.2296142578125
8.734130859375 16.8466796875 -24.05517578125
-10.380859375 14.823486328125 -17.728759765625
13.622802734375 21.43798828125 -25.91162109375
-23.39599609375 -18.4208984375 -9.2738037109375
-31.18798828125 -30.318603515625 -11.545654296875
-69.7607421875 -51.869384765625 12.5316162109375
-9.779296875 14.2646484375 -23.098876953125
7.796142578125 16.8984375 -19.080322265625
-34.08837890625 -25.224853515625 -9.8956298828125
-57.633544921875 -55.192138671875 -0.951904296875
-30.40478515625 4.20166015625 -2.680419921875
-64.398681640625 -46.7509765625 5.03955078125
-49.14013671875 -24.30908203125 -7.8427734375
-48.498046875 -17.593505859375 -7.7515869140625
-56.732177734375 -31.1328125 -14.1025390625
-43.942138671875 -53.46923828125 -11.504638671875
-19.28662109375 -18.76611328125 -10.246826171875
-39.416015625 -9.883056640625 -10.969482421875
-51.347900390625 -21.752197265625 -5.9893798828125
-46.165771484375 -16.3212890625 -8.792724609375
9.491943359375 13.769775390625 -20.395263671875
-31.5712890625 -41.461669921875 -6.279052734375
-9.956298828125 2.547607421875 -10.0318603515625
50.28759765625 9.44677734375 9.2039794921875
5.683349609375 16.8056640625 -26.2628173828125
10.018310546875 22.777099609375 -30.7362060546875
-31.876220703125 -40.06591796875 -12.27099609375
-52.392822265625 -53.4453125 -10.5606689453125
-2.357177734375 30.294921875 -18.578125
-29.92138671875 -20.6064453125 -6.564208984375
6.4501953125 31.2998046875 -23.74951171875
8.271728515625 25.507080078125 -28.8382568359375
-22.648681640625 6.1611328125 -1.01318359375
2.188720703125 8.35888671875 -16.6640625
-70.129150390625 -44.0068359375 3.060546875
-59.5888671875 -49.047119140625 9.227783203125
-58.778564453125 -22.879638671875 -6.5086669921875
-53.19580078125 -47.58642578125 -7.5435791015625
-73.687744140625 -39.599365234375 2.062744140625
-40.458984375 -39.416748046875 -4.88818359375
-67.91943359375 -45.16796875 4.1812744140625
-36.25537109375 -44.8564453125 -5.4583740234375
-21.805419921875 -3.7392578125 -9.6016845703125
-7.21923828125 -2.4287109375 -13.4368896484375
-72.915771484375 -41.60986328125 2.5091552734375
-47.326904296875 -27.59619140625 -14.4117431640625
-69.73779296875 -46.83740234375 24.6766357421875
-29.4765625 -35.560302734375 -15.4239501953125
-52.67529296875 -19.696044921875 -5.7418212890625
-42.095703125 -43.249267578125 -5.6505126953125
-68.984375 -43.869873046875 25.0753173828125
-70.13818359375 -38.493408203125 14.895263671875
0.041748046875 18.691162109375 -28.909423828125
-21.9404296875 -41.002685546875 -17.27783203125
-58.403564453125 -27.01220703125 -12.99951171875
0.247314453125 26.96240234375 -18.77685546875
-34.5966796875 0.66845703125 -5.38232421875
-54.042724609375 -39.343994140625 -7.421875
-8.505615234375 14.9365234375 -14.046142578125
-21.7939453125 -23.78759765625 -13.3427734375
-68.607421875 -42.0966796875 -9.1158447265625
-33.44970703125 -30.643798828125 -8.9556884765625
-4.096923828125 10.708984375 -7.111572265625
-33.35498046875 -19.90380859375 -6.9114990234375
-20.23828125 -30.264892578125 -15.350341796875
-51.00439453125 -39.188232421875 -5.28857421875
-39.64599609375 -47.14111328125 -9.2816162109375
55.2587890625 -0.418212890625 12.95458984375
-18.810546875 -14.66845703125 -13.1834716796875
-43.74951171875 -29.196044921875 -15.0908203125
-5.655029296875 14.521728515625 -7.732177734375
-56.980224609375 -65.576171875 -6.3118896484375
-48.779541015625 -37.583740234375 -7.1639404296875
-20.962646484375 -13.791748046875 -11.79443359375
-64.67919921875 -42.709716796875 -14.7105712890625
-35.2197265625 -47.484375 -8.230224609375
-29.7666015625 1.026123046875 -4.6199951171875
-49.5185546875 -21.239501953125 -5.5745849609375
-0.958984375 -2.76611328125 -16.0740966796875
-1.27587890625 29.23583984375 -17.247802734375
-8.844970703125 4.253173828125 -15.5931396484375
-23.415283203125 -30.80712890625 -15.952392578125
-36.975830078125 -13.164794921875 -11.1470947265625
-37.139404296875 2.8779296875 -3.1539306640625
-13.013671875 15.04296875 -2.2259521484375
-36.56787109375 4.778076171875 -1.6929931640625
-19.38525390625 -17.2158203125 -12.4798583984375
-45.52490234375 -25.582763671875 -9.890625
-64.783203125 -44.332763671875 3.72119140625
6.02783203125 9.772705078125 -18.2607421875
17.76171875 12.06884765625 -20.90771484375
5.95556640625 19.74560546875 -12.4459228515625
10.180908203125 27.834716796875 -18.614013671875
10.616455078125 22.589111328125 -32.6885986328125
-60.44189453125 -30.389892578125 -13.7305908203125
-10.420654296875 -2.398193359375 -11.1944580078125
-43.61572265625 -27.060546875 -14.2520751953125
-47.881103515625 -25.684326171875 -10.311279296875
-39.2236328125 -35.023681640625 -9.6058349609375
-32.559814453125 -35.8505859375 -11.8609619140625
-26.17431640625 -40.640869140625 -17.22607421875
-8.306884765625 20.611572265625 -6.9722900390625
-47.570556640625 -22.95263671875 -7.103515625
-30.703857421875 -43.607666015625 -7.1922607421875
-31.025634765625 -39.815185546875 -15.9808349609375
4.794189453125 10.704833984375 -17.026123046875
-27.85302734375 2.041259765625 -4.2320556640625
-24.461669921875 -43.522705078125 -16.34326171875
-47.903076171875 -33.657958984375 -11.627197265625
-33.129150390625 -27.668701171875 -15.5167236328125
-56.427978515625 -67.16748046875 -3.383056640625
-42.0947265625 -17.420654296875 -8.853759765625
-10.68017578125 9.99169921875 -5.51318359375
-47.5625 -48.7578125 -6.73779296875
17.0439453125 14.37939453125 -23.8079833984375
4.787841796875 15.86669921875 -14.4312744140625
-67.933349609375 -44.56884765625 28.2635498046875
-25.21142578125 -2.954345703125 -8.43017578125
-57.05859375 -61.447021484375 -4.3448486328125
5.662353515625 13.010986328125 -16.736572265625
-51.851806640625 -49.67236328125 -8.4554443359375
8.289306640625 28.501953125 -29.567138671875
-6.66259765625 19.125244140625 -5.585693359375
-55.914306640625 -48.7666015625 -5.7012939453125
-51.8056640625 -36.0185546875 -7.863525390625
-42.061279296875 -2.954345703125 -7.6173095703125
-13.23486328125 5.90087890625 -5.14599609375
-55.20751953125 -21.45458984375 -5.7283935546875
-70.111083984375 -37.810302734375 11.93115234375
-63.7822265625 -55.04736328125 17.1395263671875
-46.55908203125 -34.84716796875 -11.1676025390625
-45.864013671875 -54.289794921875 -11.32470703125
-5.39990234375 9.0693359375 -17.648193359375
-60.19140625 -33.95361328125 -11.931640625
-4.709716796875 5.986083984375 -13.9931640625
-33.615478515625 -32.77099609375 -9.1385498046875
5.569580078125 7.9228515625 -18.75390625
-7.37939453125 18.84765625 -3.6600341796875
11.598388671875 11.091796875 -21.9178466796875
6.697509765625 19.71435546875 -17.0487060546875
-7.186279296875 12.1337890625 -16.482421875
-70.2119140625 -39.22216796875 17.0498046875
9.658935546875 13.58154296875 -22.2186279296875
59.467529296875 -0.66552734375 7.683837890625
-49.841796875 -35.23193359375 -9.370849609375
5.735107421875 23.26171875 -12.7987060546875
-18.775634765625 0.253662109375 -5.7840576171875
-27.62841796875 -1.20458984375 -6.7044677734375
-16.590576171875 13.896240234375 1.74462890625
-23.352294921875 -36.72265625 -15.750732421875
10.808837890625 29.838623046875 -13.8253173828125
-65.986572265625 -41.814697265625 -3.861328125
-34.95849609375 -5.33349609375 -9.9931640625
0.353271484375 -0.9228515625 -15.9034423828125
-23.803466796875 -11.7900390625 -12.012451171875
-58.84423828125 -44.6875 3.695068359375
-20.058837890625 15.394775390625 -14.01123046875
-60.628173828125 -56.3251953125 16.646484375
-40.927001953125 -34.690673828125 -10.5074462890625
2.00341796875 26.711669921875 -7.67529296875
-24.73095703125 -7.049560546875 -11.218017578125
-28.86474609375 -13.691162109375 -11.5906982421875
-38.35595703125 -2.31689453125 -7.5562744140625
-37.03173828125 -36.958740234375 -7.33056640625
-23.20849609375 -23.298828125 -5.4423828125
-45.412109375 -37.157958984375 -8.163330078125
-33.315673828125 -8.337890625 -11.2607421875
-13.4638671875 15.78271484375 0.740966796875
-18.1376953125 9.171875 -0.1748046875
-5.555908203125 0.21630859375 -14.2049560546875
6.74853515625 18.185546875 -14.8970947265625
-45.88037109375 -45.713134765625 -3.7469482421875
-66.5419921875 -43.232421875 1.1102294921875
-57.02099609375 -57.69921875 -2.1947021484375
-23.76025390625 3.6982421875 -3.1357421875
-65.443115234375 -34.138427734375 -13.0919189453125
-47.902099609375 -50.84716796875 -7.17822265625
-35.0625 -2.60693359375 -8.0706787109375
-4.41552734375 7.961669921875 -20.508544921875
-11.701416015625 12.650390625 -4.7493896484375
-10.173095703125 0.76171875 -10.2626953125
-25.48388671875 -13.154296875 -12.072021484375
-52.82421875 -30.21875 -14.2623291015625
-44.587158203125 -21.922607421875 -5.83837890625
8.4931640625 7.91015625 -20.7281494140625
-28.9833984375 -4.082763671875 -9.132080078125
-14.78662109375 12.48681640625 -0.18310546875
-55.35791015625 -18.619140625 -6.6866455078125
-50.195556640625 -32.16015625 -13.399169921875
-7.478759765625 -4.962890625 -12.321533203125
-9.959228515625 8.59521484375 -6.68017578125
-13.839111328125 15.1201171875 -8.9093017578125
-30.392822265625 -3.21630859375 -8.1953125
-57.254638671875 -51.473876953125 11.2071533203125
-18.8603515625 -5.346435546875 -9.9766845703125
-38.413818359375 -6.8212890625 -10.3758544921875
-31.641845703125 -28.85107421875 -14.9293212890625
47.3759765625 12.06298828125 8.681884765625
-55.150634765625 -54.02685546875 9.888427734375
-65.97021484375 -54.566650390625 19.0853271484375
-21.7900390625 -36.80419921875 -17.856201171875
-9.888916015625 13.31982421875 -19.8194580078125
-28.75048828125 -29.258056640625 -15.97802734375
-70.9990234375 -47.136474609375 6.911376953125
-35.517822265625 -7.550048828125 -10.6988525390625
-36.849365234375 -10.24609375 -11.7257080078125
-32.877197265625 -37.8369140625 -9.467041015625
-30.826904296875 -0.0302734375 -6.0072021484375
-54.5791015625 -48.822509765625 -7.3536376953125
-43.4521484375 -39.1083984375 -6.1551513671875
-39.43017578125 -32.274169921875 -12.7120361328125
-70.11181640625 -36.863525390625 14.1761474609375
-37.669677734375 -34.15283203125 -9.6304931640625
-62.6240234375 -56.7578125 15.8975830078125
-57.325927734375 -59.09033203125 -8.286865234375
-58.06591796875 -31.9296875 -13.1651611328125
-22.541015625 -25.506591796875 -6.6358642578125
-57.06201171875 -61.397216796875 -2.214111328125
-68.736083984375 -50.2470703125 23.176513671875
9.58056640625 28.243896484375 -22.0374755859375
-51.132080078125 -54.685791015625 -10.8909912109375
-43.826416015625 -15.04541015625 -9.837158203125
-7.012451171875 4.454345703125 -14.7171630859375
57.06884765625 0.843505859375 9.9453125
4.406494140625 22.5673828125 -10.228515625
-31.963623046875 -39.83544921875 -7.5263671875
-58.38525390625 -51.11669921875 9.543212890625
-30.029052734375 -9.925537109375 -11.7899169921875
-53.568115234375 -34.911376953125 -9.633544921875
-58.484619140625 -36.76171875 -11.5927734375
-24.0224609375 -29.474853515625 -14.6990966796875
5.0634765625 14.442138671875 -15.4361572265625
-68.259521484375 -47.037353515625 30.0870361328125
-36.1865234375 -41.450927734375 -4.716796875
-21.3798828125 -12.1376953125 -12.361083984375
-48.594482421875 -36.432861328125 -9.0360107421875
-56.382080078125 -57.16357421875 2.3076171875
57.065185546875 -2.5419921875 15.049072265625
-57.1728515625 -53.79638671875 4.02734375
-4.603271484375 13.1845703125 -8.492431640625
-4.990966796875 11.558837890625 -11.01806640625
-39.3251953125 -4.18798828125 -8.8330078125
-56.35791015625 -56.30078125 -10.4661865234375
-44.4072265625 -13.456298828125 -10.6514892578125
14.801025390625 12.975341796875 -22.981689453125
-25.297607421875 -30.412353515625 -15.6265869140625
-3.885009765625 7.472412109375 -17.1346435546875
-45.27392578125 -30.0654296875 -15.056640625
-29.681396484375 -43.190673828125 -16.909912109375
-40.995361328125 -44.518798828125 -6.245361328125
-22.6572265625 -26.68994140625 -11.6290283203125
-26.62255859375 -32.153564453125 -15.921630859375
-70.770751953125 -37.841796875 -4.4688720703125
-33.337158203125 7.293212890625 -0.2279052734375
-45.028564453125 -42.088134765625 -6.8629150390625
-35.09326171875 -30.561767578125 -13.9073486328125
7.2998046875 13.04052734375 -17.5242919921875
-32.61962890625 -41.40966796875 -4.86669921875
-4.617431640625 -3.93310546875 -12.27001953125
-8.989501953125 4.337890625 -10.255126953125
-15.537353515625 6.833984375 -3.1661376953125
-1.796142578125 27.444580078125 -20.55810546875
-20.987548828125 -16.744140625 -11.073974609375
9.885986328125 26.768310546875 -16.2032470703125
-42.443115234375 -20.997802734375 -5.7467041015625
-37.34228515625 -50.0625 -9.6268310546875
-24.578857421875 6.50634765625 -0.703369140625
-37.345947265625 -25.89453125 -12.1221923828125
-35.94873046875 -51.318115234375 -9.8326416015625
-30.043701171875 -31.71240234375 -14.1715087890625
-57.295166015625 -58.158447265625 -4.0072021484375
-35.79833984375 -35.3134765625 -8.5074462890625
-63.5107421875 -36.9775390625 -13.8072509765625
-34.40234375 -40.60205078125 -5.151611328125
6.318115234375 21.728515625 -14.8148193359375
-50.55029296875 -15.70068359375 -9.2073974609375
-37.237060546875 -32.55126953125 -11.1695556640625
-54.790283203125 -51.29833984375 -7.6204833984375
-38.503173828125 1.897705078125 -3.562255859375
-30.228759765625 -43.431884765625 -12.8153076171875
-73.34228515625 -39.71240234375 -0.3353271484375
-62.57421875 -58.4453125 15.2349853515625
-26.0263671875 -0.1865234375 -6.0316162109375
-42.619384765625 -10.047119140625 -11.082275390625
-59.941650390625 -25.5537109375 -8.848388671875
-41.33740234375 -51.85693359375 -12.86767578125
-51.868896484375 -31.802001953125 -13.6180419921875
-63.76123046875 -31.2373046875 -12.8236083984375
-67.692626953125 -43.431884765625 -12.017578125
-69.937255859375 -36.363037109375 -7.5518798828125
10.572509765625 9.713623046875 -21.7235107421875
-30.471435546875 6.567138671875 -0.6663818359375
-73.185302734375 -38.216552734375 -3.0113525390625
-57.464111328125 -64.657958984375 -1.3267822265625
-56.212158203125 -55.43603515625 4.7081298828125
-56.958740234375 -55.31640625 -4.9808349609375
-55.843505859375 -37.409423828125 -9.2711181640625
-56.328857421875 -69.23291015625 -4.6383056640625
-48.401123046875 -42.119140625 -6.5784912109375
-41.138427734375 -14.5546875 -10.4119873046875
-18.75927734375 -20.467041015625 -10.2332763671875
-56.20458984375 -54.5146484375 7.6253662109375
-66.244873046875 -39.47607421875 -14.1866455078125
-30.044677734375 -30.36572265625 -12.818603515625
-74.15576171875 -42.394287109375 3.568359375
-50.027099609375 -34.500244140625 -11.03955078125
-47.622314453125 -46.66015625 -6.144287109375
-51.442138671875 -28.957763671875 -14.4622802734375
-6.821533203125 7.009765625 -6.918212890625
-33.030029296875 -5.19091796875 -9.539794921875
-59.313720703125 -53.078125 13.363525390625
-0.067138671875 5.51171875 -17.2515869140625
-33.081787109375 -36.517578125 -8.366455078125
3.74658203125 13.80859375 -16.306640625
-72.333251953125 -47.872314453125 9.32861328125
-3.795166015625 3.389892578125 -14.1885986328125
-36.8154296875 0.096923828125 -5.5185546875
-61.031005859375 -47.888427734375 7.0936279296875
-69.080322265625 -40.34375 -6.2598876953125
-15.351318359375 11.0478515625 -0.8822021484375
-19.486328125 11.9873046875 2.30810546875
2.6669921875 -2.916259765625 -19.8780517578125
3.806884765625 24.632568359375 -18.5595703125
3.55322265625 27.985107421875 -9.308837890625
-17.770263671875 12.038330078125 1.6785888671875
-13.20751953125 14.404541015625 -3.876220703125
-43.68212890625 -44.939697265625 -5.680419921875
-3.682861328125 -2.404296875 -15.283203125
-2.41162109375 11.116943359375 -4.3330078125
-39.967529296875 -29.12060546875 -15.55712890625
-21.103759765625 -28.102783203125 -14.4375
-48.38671875 -51.723876953125 -8.53759765625
3.854736328125 7.441650390625 -18.058349609375
-12.49658203125 0.310791015625 -8.993896484375
-56.61474609375 -48.672119140625 -3.1400146484375
-56.4326171875 -51.620849609375 -4.9844970703125
-29.380126953125 8.959228515625 0.7548828125
11.74560546875 24.574462890625 -20.7706298828125
-61.8837890625 -40.183837890625 -13.5584716796875
-63.22021484375 -32.80615234375 -12.033935546875
-29.3154296875 -16.57275390625 -10.0380859375
1.988037109375 17.134521484375 -28.5833740234375
11.71484375 22.830078125 -24.1260986328125
-8.563232421875 1.826416015625 -13.8160400390625
13.447998046875 13.889404296875 -21.876220703125
-9.23291015625 11.0634765625 -21.002685546875
-67.847412109375 -42.107177734375 -0.829833984375
-51.927001953125 -18.49658203125 -6.8408203125
-71.67041015625 -41.744384765625 -0.7213134765625
14.074951171875 22.252685546875 -19.3592529296875
-41.399658203125 -37.50927734375 -8.304931640625
-20.212158203125 -22.457275390625 -7.1834716796875
-42.1787109375 -15.805419921875 -9.6951904296875
-69.35986328125 -43.158447265625 22.1865234375
-30.9267578125 -41.187744140625 -9.6185302734375
13.667724609375 10.38671875 -21.52490234375
-23.068115234375 -20.421142578125 -7.4158935546875
-58.1748046875 -49.5439453125 6.9024658203125
-45.548583984375 -51.31298828125 -8.845703125
-49.336181640625 -30.996826171875 -15.018798828125
15.206787109375 15.4970703125 -20.568115234375
-33.964599609375 -10.927734375 -11.3751220703125
14.96044921875 19.794921875 -25.671630859375
-11.23974609375 18.115234375 -18.8623046875
7.170166015625 31.650146484375 -21.5653076171875
-47.295654296875 -37.93994140625 -6.5177001953125
-68.767578125 -53.42578125 15.554931640625
-55.13037109375 -46.658203125 -4.6151123046875
-6.41943359375 13.02685546875 -12.8104248046875
-37.6640625 -41.9189453125 -5.2921142578125
-34.926513671875 -28.114501953125 -15.1112060546875
-39.87353515625 -38.633544921875 -6.2196044921875
-26.45751953125 -44.378173828125 -16.150146484375
-19.08447265625 -1.669189453125 -7.5458984375
-56.43408203125 -45.592529296875 1.3939208984375
-8.10595703125 9.626953125 -22.9814453125
-29.319091796875 -42.758056640625 -7.47705078125
-2.966064453125 7.279296875 -15.3309326171875
-20.24609375 -6.8056640625 -11.02099609375
-60.884765625 -61.387451171875 14.8018798828125
-72.75537109375 -44.707275390625 6.4468994140625
-30.908203125 -37.220703125 -14.505126953125
-53.85205078125 -53.83056640625 -9.788818359375
-70.708984375 -49.500732421875 9.585205078125
-12.285400390625 11.952392578125 -2.651611328125
-17.2568359375 10.594970703125 0.2276611328125
0.814697265625 7.361083984375 -16.9207763671875
-2.5419921875 4.893310546875 -17.4920654296875
-63.548095703125 -34.101318359375 -13.1907958984375
-69.52978515625 -34.5087890625 11.3060302734375
-52.211669921875 -55.916015625 -10.974609375
-15.267822265625 0.348388671875 -6.9134521484375
9.289306640625 6.2919921875 -19.753662109375
-42.75439453125 -48.411865234375 -9.2752685546875
-21.380615234375 -23.88623046875 -8.657958984375
56.817626953125 -0.788818359375 13.28369140625
-60.49853515625 -52.277099609375 12.3409423828125
-28.039794921875 -7.226806640625 -11.3316650390625
-40.959228515625 -48.026123046875 -10.339599609375
-37.76708984375 -29.424560546875 -14.699462890625
5.794677734375 35.9189453125 -21.9400634765625
-46.510009765625 -43.383056640625 -7.472900390625
-12.614990234375 8.2158203125 -4.406494140625
51.064697265625 5.781494140625 10.189697265625
-38.0166015625 -39.423583984375 -5.807373046875
-17.33251953125 8.2333984375 -1.2498779296875
-65.99951171875 -43.98046875 2.6466064453125
-57.4033203125 -50.62060546875 0.05078125
4.956298828125 24.951171875 -13.0843505859375
12.01416015625 23.137939453125 -21.7703857421875
-40.74365234375 -45.874267578125 -8.6875
-22.119140625 -8.70458984375 -11.9910888671875
-35.181884765625 -23.0087890625 -7.8896484375
-25.721435546875 -16.068115234375 -10.9351806640625
-13.692626953125 2.680908203125 -6.3624267578125
-12.001220703125 6.801513671875 -5.709716796875
7.874755859375 32.002197265625 -26.1409912109375
14.4296875 18.451416015625 -21.5462646484375
-56.794189453125 -21.468505859375 -5.12451171875
8.60009765625 24.344970703125 -27.761474609375
10.689453125 26.029541015625 -22.711669921875
-12.26416015625 19.6728515625 -16.051025390625
-9.675048828125 5.363037109375 -8.350341796875
-53.663330078125 -46.26513671875 -5.3876953125
13.453125 20.38818359375 -23.397705078125
-25.314208984375 -9.283203125 -11.9281005859375
-5.2724609375 13.2880859375 -3.0147705078125
-3.6435546875 9.1005859375 -5.8140869140625
18.56689453125 12.8974609375 -22.0296630859375
-55.835693359375 -46.943115234375 -1.3311767578125
-56.137939453125 -34.266845703125 -11.83251953125
-32.5107421875 -3.822021484375 -8.8760986328125
3.327392578125 -1.12060546875 -19.817138671875
-3.945068359375 9.56884765625 -13.8314208984375
5.7841796875 5.624267578125 -19.794677734375
4.900146484375 25.805908203125 -9.71337890625
3.400390625 5.599365234375 -18.550537109375
7.1806640625 18.25244140625 -18.482421875
-26.385498046875 8.254150390625 0.4532470703125
-43.200927734375 -50.123046875 -10.5518798828125
-29.488525390625 -1.341064453125 -7.0364990234375
-51.51904296875 -47.59326171875 -8.01904296875
3.54052734375 9.796142578125 -16.4500732421875
-41.03076171875 -12.912109375 -10.9927978515625
-9.604736328125 11.74609375 -6.302734375
-51.824462890625 -34.10888671875 -10.72900390625
-67.7861328125 -37.78466796875 -12.2073974609375
1.469970703125 22.043212890625 -8.910888671875
-32.305419921875 1.75244140625 -4.4635009765625
-3.87109375 8.8486328125 -12.3458251953125
-0.489990234375 1.495361328125 -17.6590576171875
-56.1201171875 -52.376953125 9.194580078125
-9.76806640625 14.355224609375 -6.5645751953125
-54.21484375 -17.420166015625 -7.9326171875
-9.080078125 17.75439453125 -12.0557861328125
-25.5341796875 -4.36279296875 -9.5224609375
-29.91064453125 -42.83203125 -8.9490966796875
-2.901123046875 0.658203125 -15.775634765625
-56.981201171875 -65.101318359375 -2.7718505859375
-67.44287109375 -40.574462890625 -3.1328125
-51.615966796875 -25.26220703125 -8.4444580078125
-20.17724609375 -11.269287109375 -12.9193115234375
-14.48876953125 14.91455078125 1.5821533203125
-33.994140625 4.93017578125 -1.7930908203125
-60.974609375 -46.282958984375 5.6986083984375
-0.549560546875 -1.1376953125 -17.66455078125
-47.69287109375 -53.846435546875 -10.3502197265625
7.17724609375 16.024658203125 -22.4864501953125
-26.953857421875 -4.9072265625 -9.9613037109375
-60.650146484375 -59.2939453125 15.138671875
-43.699951171875 -37.912353515625 -7.2156982421875
7.47802734375 28.736083984375 -27.1795654296875
-45.4306640625 -26.12646484375 -11.8536376953125
-56.60009765625 -53.342041015625 -7.326904296875
8.20166015625 26.78662109375 -25.6177978515625
55.960205078125 1.818359375 10.8154296875
-28.28076171875 -38.120361328125 -16.568359375
-6.807861328125 10.607666015625 -18.716552734375
-5.5859375 11.73046875 -13.1361083984375
-31.2041015625 5.123046875 -1.6231689453125
-5.298583984375 13.0546875 -5.154296875
12.213134765625 21.451171875 -24.8541259765625
-1.975830078125 -1.8720703125 -15.276123046875
-17.431640625 4.494140625 -3.4326171875
-18.638427734375 6.80615234375 -1.491455078125
-14.94873046875 5.856689453125 -4.5115966796875
-3.238525390625 6.878173828125 -19.06201171875
-32.336669921875 -39.58056640625 -10.807861328125
-68.783935546875 -39.27734375 -9.3985595703125
-39.382080078125 -11.985595703125 -10.8900146484375
-22.628173828125 9.2216796875 -1.0421142578125
-25.17333984375 -41.89111328125 -17.2843017578125
-69.006103515625 -36.573486328125 11.3660888671875
-24.38818359375 -25.51904296875 -12.4937744140625
-12.1181640625 21.341796875 -13.1453857421875
-18.364501953125 -13.42626953125 -14.022705078125
54.0146484375 2.792724609375 12.175048828125
-10.960693359375 16.560791015625 -21.2081298828125
-15.22802734375 13.00244140625 -11.3150634765625
-52.653076171875 -17.352294921875 -7.8712158203125
-39.2880859375 -15.286865234375 -10.0103759765625
-18.26220703125 -11.6943359375 -13.93017578125
-57.031005859375 -51.6396484375 6.396484375
-53.4052734375 -25.94482421875 -11.630615234375
-23.805908203125 -35.9541015625 -17.0264892578125
-27.936767578125 6.27587890625 -0.8577880859375
-57.65478515625 -63.94189453125 -6.581787109375
-7.05517578125 9.546875 -24.40478515625
-57.809814453125 -62.376953125 -9.6348876953125
-15.398681640625 -2.723876953125 -7.0166015625
11.85107421875 28.39306640625 -15.3055419921875
51.448486328125 7.538818359375 8.43310546875
-31.8505859375 -32.835693359375 -10.98291015625
-40.708251953125 -41.92138671875 -4.48388671875
-24.022216796875 -1.949462890625 -7.604736328125
-32.30810546875 -1.025390625 -6.543701171875
-69.8203125 -35.2080078125 13.8634033203125
-38.14599609375 -14.017578125 -10.5992431640625
6.478515625 7.002685546875 -19.689697265625
-31.267822265625 -41.023681640625 -14.9019775390625
-19.971923828125 -9.5205078125 -12.6942138671875
-31.643310546875 -23.80078125 -8.781005859375
-35.69677734375 -15.988525390625 -10.0947265625
-17.494384765625 -3.386962890625 -8.2742919921875
-33.437744140625 -43.45703125 -3.1082763671875
-31.386474609375 -18.24609375 -8.539794921875
-36.46337890625 -1.7451171875 -7.138916015625
-41.558349609375 -21.873291015625 -6.6480712890625
-28.91796875 -26.704833984375 -15.5576171875
-28.535888671875 -34.28759765625 -15.603515625
10.234619140625 21.58740234375 -29.7926025390625
10.49853515625 32.90283203125 -14.272216796875
-56.910400390625 -38.291259765625 -10.0582275390625
-50.678955078125 -51.306396484375 -8.207763671875
5.450927734375 20.09326171875 -20.570068359375
-25.82177734375 -33.419677734375 -16.2374267578125
-46.827880859375 -28.867919921875 -15.101806640625
-63.3740234375 -38.622802734375 -14.294189453125
-29.99755859375 -7.3056640625 -11.1007080078125
-56.02685546875 -47.895263671875 -4.4500732421875
-54.69580078125 -55.931640625 -11.6390380859375
-29.861572265625 -17.820068359375 -9.3360595703125
-35.80615234375 -27.243896484375 -14.215576171875
-33.4814453125 -22.5166015625 -7.7374267578125
-35.873291015625 -4.027587890625 -9.129150390625
-67.831787109375 -41.1875 -7.280029296875
-31.27734375 -41.345458984375 -12.8443603515625
-68.73828125 -43.964599609375 3.68115234375
-22.012939453125 -38.123779296875 -18.7884521484375
-23.256103515625 -38.087158203125 -17.6455078125
-57.18701171875 -52.6015625 2.5465087890625
-54.329833984375 -29.4375 -14.2674560546875
-40.63330078125 -26.981201171875 -14.4078369140625
57.97314453125 -1.34423828125 11.7327880859375
-68.756103515625 -43.24267578125 1.4591064453125
-23.392333984375 -39.29443359375 -16.4312744140625
-9.514892578125 2.89404296875 -15.7012939453125
59.3818359375 -1.5078125 9.03271484375
-57.501953125 -62.60693359375 -1.40234375
-31.0771484375 -34.678955078125 -14.0843505859375
-30.96875 -33.3681640625 -13.2779541015625
-48.317138671875 -40.451416015625 -6.4847412109375
-58.855224609375 -35.162353515625 -12.134765625
-17.97705078125 -0.672119140625 -6.846923828125
-27.156494140625 -27.060791015625 -15.337646484375
-52.690673828125 -26.866455078125 -13.4263916015625
-26.063720703125 -37.654541015625 -16.46240234375
-50.031005859375 -45.36962890625 -4.5582275390625
-53.911865234375 -20.546630859375 -5.3345947265625
-58.323974609375 -65.886474609375 -1.833740234375
-55.962890625 -23.67919921875 -7.4818115234375
-55.7939453125 -59.26806640625 1.01318359375
-20.61083984375 -22.744140625 -11.1634521484375
-40.2314453125 -18.896728515625 -7.0087890625
-64.52880859375 -56.726318359375 16.76904296875
-51.029541015625 -23.059814453125 -6.9478759765625
-57.79541015625 -60.716552734375 -8.228515625
-37.344482421875 -45.82763671875 -8.305419921875
-26.10205078125 -35.515869140625 -15.870849609375
-66.561279296875 -52.556640625 16.6654052734375
-9.060546875 12.11328125 -19.4580078125
-53.41650390625 -24.884033203125 -8.136962890625
