1.38818359375 -5.689697265625 -2.8126220703125
31.22314453125 16.7490234375 -8.1015625
-9.00537109375 -50.461181640625 -5.279052734375
-28.013427734375 -46.783935546875 2.174560546875
-0.231689453125 -26.8271484375 -7.6199951171875
-42.5615234375 -38.1494140625 27.6240234375
-19.702392578125 -51.158447265625 -11.647216796875
-44.517578125 -46.99853515625 26.83447265625
-43.038818359375 -36.5498046875 7.388671875
-9.9921875 -5.196533203125 -2.86669921875
-1.154052734375 1.019287109375 -2.4080810546875
27.779541015625 14.3359375 -6.9061279296875
-17.98974609375 -24.30078125 -6.0804443359375
-24.300048828125 -53.280517578125 -9.113037109375
-23.3193359375 -49.55322265625 -0.5946044921875
5.125 3.27978515625 -1.5389404296875
-15.803955078125 -51.05224609375 -8.745849609375
-12.69921875 1.883056640625 -1.976318359375
-6.11279296875 -24.043212890625 -4.1322021484375
4.067626953125 -14.668212890625 2.87060546875
19.7939453125 21.909423828125 1.81982421875
5.117919921875 -2.020263671875 -3.286865234375
-28.8408203125 -48.76513671875 14.01513671875
-29.4169921875 -44.2978515625 7.0858154296875
18.759033203125 14.1455078125 -5.1156005859375
17.632080078125 6.135009765625 0.434814453125
22.558349609375 16.436279296875 -7.9620361328125
-43.947998046875 -15.288818359375 5.8609619140625
-25.28173828125 -34.32958984375 1.877197265625
-3.92578125 -8.54345703125 -1.64794921875
-43.5107421875 -23.683349609375 11.564697265625
-38.09423828125 0.3828125 -1.5242919921875
-15.66552734375 -21.302978515625 -6.91943359375
0.3193359375 -18.17236328125 -3.4522705078125
-7.702392578125 -12.867431640625 1.6412353515625
-18.506103515625 -32.805908203125 1.74072265625
-19.083740234375 -18.849609375 -3.6595458984375
-22.0595703125 -42.1474609375 -2.75634765625
-40.96533203125 -14.35205078125 12.5111083984375
22.496337890625 18.453125 0.151123046875
-5.67822265625 -33.7939453125 8.1202392578125
19.978515625 7.6640625 -5.1795654296875
0.603271484375 -14.110107421875 0.903564453125
-26.7666015625 -40.602294921875 0.6898193359375
-32.68310546875 2.963134765625 -0.4666748046875
-27.145263671875 -40.143310546875 3.97705078125
-39.74853515625 -11.97216796875 1.188232421875
-39.587646484375 -29.01904296875 -5.1524658203125
-31.93115234375 -53.798583984375 23.0419921875
-16.21337890625 -8.090087890625 -1.73193359375
23.482666015625 10.063232421875 -6.2220458984375
-13.43359375 -16.34423828125 -1.7965087890625
23.06689453125 12.865966796875 -3.73779296875
-40.75341796875 -51.06298828125 27.203369140625
-9.049560546875 -20.0693359375 -6.001708984375
-21.58056640625 -47.109619140625 -7.5802001953125
17.965576171875 9.88330078125 -2.673095703125
-0.863525390625 -36.89501953125 -6.053955078125
-35.634521484375 -32.96826171875 -7.48779296875
-13.940185546875 -32.548095703125 4.1456298828125
-43.224853515625 -45.2646484375 29.2314453125
10.622802734375 10.58251953125 2.8363037109375
-8.346435546875 -43.32763671875 -0.1844482421875
6.227783203125 -11.582763671875 1.5980224609375
-21.98681640625 12.397216796875 6.0367431640625
7.279052734375 14.117919921875 6.59130859375
-28.90869140625 -47.049072265625 19.62255859375
-34.88427734375 -43.904052734375 18.0428466796875
-16.84765625 -12.585693359375 1.6297607421875
-42.159912109375 -36.1337890625 23.4957275390625
-36.730712890625 3.098876953125 0.0755615234375
-5.225341796875 -29.343505859375 -0.0982666015625
-45.1865234375 -37.352294921875 11.707763671875
-39.8515625 -53.962646484375 26.0364990234375
-38.605712890625 -24.89453125 -4.827392578125
-27.404052734375 1.62646484375 -1.5167236328125
-33.50146484375 7.3671875 3.19921875
-41.310546875 -43.3046875 16.2008056640625
-25.6318359375 8.511962890625 4.0087890625
-8.119140625 -17.32275390625 -2.2381591796875
-4.4111328125 -28.58984375 -4.112060546875
-44.330078125 -33.748046875 7.0263671875
16.46630859375 23.439697265625 -11.5396728515625
19.5361328125 23.873779296875 -0.7001953125
-12.8798828125 -14.08056640625 0.6800537109375
-23.218017578125 -15.15283203125 0.1231689453125
-12.46484375 7.35205078125 2.4931640625
-18.03466796875 -1.9482421875 -2.6220703125
8.463134765625 -32.861328125 -10.968017578125
0.212646484375 -10.72509765625 0.5030517578125
-36.970703125 -35.1201171875 5.670166015625
-36.734375 -53.8994140625 23.947265625
2.04833984375 6.252685546875 0.965087890625
-31.479736328125 5.308837890625 1.5966796875
1.312744140625 -20.375244140625 -6.5843505859375
-18.95263671875 -15.75341796875 -0.23828125
-43.7666015625 -21.944091796875 4.0863037109375
5.38330078125 -16.972900390625 -2.10400390625
-34.4287109375 -35.74951171875 -7.274169921875
-39.52197265625 -36.816162109375 7.6651611328125
-19.421142578125 9.489501953125 4.378662109375
-12.88623046875 -26.043701171875 -3.769287109375
14.19189453125 16.23486328125 3.5816650390625
-2.196044921875 -33.445068359375 -0.372802734375
-34.666015625 -38.228271484375 10.012451171875
-29.76611328125 -49.283203125 3.08642578125
-12.041259765625 10.147705078125 4.828125
-24.66455078125 -44.2978515625 -3.88134765625
-27.82373046875 -37.139404296875 10.12060546875
-24.407958984375 -0.721923828125 -2.3824462890625
19.76171875 21.86962890625 -3.4456787109375
-34.60595703125 -50.940673828125 22.0400390625
13.948486328125 21.958984375 3.48974609375
-41.36328125 -10.114501953125 -0.53466796875
-29.3525390625 -18.940185546875 -2.00927734375
-27.5 -29.947509765625 -0.559326171875
-8.00732421875 0.48876953125 -2.6549072265625
17.50634765625 26.81298828125 -0.3843994140625
30.8759765625 19.473876953125 -7.0106201171875
-35.578125 -11.302001953125 0.9603271484375
-42.25 -14.166259765625 9.574951171875
-3.31640625 -32.76953125 -4.9581298828125
-30.501708984375 0.94921875 -1.7900390625
-11.06689453125 -30.015625 0.247802734375
-31.189453125 -39.758056640625 10.033447265625
16.161865234375 27.75732421875 -2.9456787109375
-43.8740234375 -19.2685546875 8.8792724609375
-3.342041015625 -15.224609375 0.376220703125
6.945068359375 8.030029296875 2.0277099609375
6.08837890625 -20.01904296875 -4.2127685546875
-42.531494140625 -31.629638671875 20.74462890625
15.82373046875 16.377197265625 -1.6435546875
-26.780517578125 -45.136474609375 -0.3839111328125
28.371337890625 11.848876953125 -5.4754638671875
12.24609375 16.07421875 -6.6051025390625
-35.94921875 -30.12939453125 -7.0426025390625
-45.015380859375 -38.230712890625 8.7220458984375
-11.520263671875 -23.58349609375 -6.84716796875
8.392822265625 25.178466796875 1.0921630859375
-15.708740234375 5.718994140625 1.339599609375
6.86328125 -7.887451171875 -2.5673828125
-26.3466796875 3.940673828125 0.276611328125
-29.802001953125 -47.181396484375 8.6219482421875
-45.406005859375 -41.016845703125 13.4691162109375
-39.75244140625 -33.883544921875 -4.98193359375
-44.8642578125 -23.720947265625 2.1314697265625
-14.09521484375 -42.299072265625 -2.7135009765625
-12.0439453125 -9.87939453125 -0.8756103515625
2.567626953125 -35.96240234375 -7.724609375
-41.419189453125 -32.18603515625 0.157958984375
-39.838623046875 -42.053955078125 13.933349609375
-7.05029296875 9.12890625 3.014404296875
-1.467529296875 -21.8359375 -7.6820068359375
-14.504150390625 -37.259521484375 0.7308349609375
-1.017333984375 -31.923583984375 -8.2501220703125
8.35400390625 -23.025634765625 -7.78515625
-4.744384765625 -17.1083984375 -1.774658203125
-29.103271484375 -49.2080078125 11.185302734375
-21.398193359375 -37.532470703125 0.060302734375
2.7822265625 11.436767578125 5.3201904296875
-20.177734375 -27.61083984375 -2.8023681640625
-8.5 -28.260986328125 -1.11767578125
2.160888671875 -8.15380859375 -1.8193359375
-42.41796875 -2.491455078125 -2.50244140625
-5.025390625 -3.1533203125 -2.9837646484375
-14.068115234375 -0.812744140625 -2.6549072265625
15.363037109375 8.417236328125 -1.8663330078125
14.817138671875 27.07177734375 -8.5194091796875
-26.129150390625 -20.5673828125 -5.474365234375
-39.447998046875 -15.198486328125 2.236083984375
-41.982177734375 -30.25048828125 -2.1826171875
-45.268310546875 -44.23583984375 17.5108642578125
6.06103515625 -29.090576171875 -8.337158203125
-36.9287109375 -37.05029296875 -6.7740478515625
-23.469482421875 -19.0576171875 -2.794677734375
12.2578125 8.785888671875 0.544189453125
-24.09521484375 -47.98828125 -6.9908447265625
-30.4619140625 -53.80224609375 0.1412353515625
-1.591064453125 3.6884765625 -0.6519775390625
-4.91455078125 -13.145751953125 1.1978759765625
-44.79052734375 -43.334716796875 21.686279296875
-29.145263671875 9.9755859375 4.8221435546875
-31.731201171875 -29.048583984375 -4.86474609375
-8.403076171875 -32.27392578125 5.6463623046875
-19.576171875 -4.177001953125 -2.8087158203125
-30.1259765625 -44.18701171875 17.0264892578125
22.27294921875 21.038330078125 4.4453125
-15.51416015625 3.022705078125 -0.814697265625
-38.015869140625 -34.8154296875 3.1998291015625
13.875 31.55517578125 -6.682373046875
-45.063232421875 -31.070068359375 2.0465087890625
-21.539306640625 3.880859375 0.01220703125
9.72900390625 -26.70068359375 -5.2850341796875
17.82421875 21.14453125 -14.1495361328125
-4.527587890625 -19.825439453125 -6.0792236328125
3.361328125 -24.48583984375 -6.0692138671875
-28.156982421875 -42.63232421875 5.3125
-9.82861328125 -34.905517578125 4.1204833984375
-2.049072265625 -1.6640625 -3.08447265625
17.19287109375 24.5341796875 -5.3697509765625
-16.498779296875 -31.045654296875 1.8603515625
-37.708251953125 -16.427734375 0.290283203125
9.904541015625 13.2685546875 4.2105712890625
-20.922607421875 -10.82080078125 0.0904541015625
14.686767578125 12.986328125 1.1220703125
-30.947509765625 -14.31884765625 1.16748046875
-43.99755859375 -41.610595703125 24.023681640625
-7.300048828125 -31.884521484375 2.74365234375
33.31005859375 15.19921875 -7.5963134765625
14.014404296875 13.877197265625 -8.6744384765625
-30.77978515625 -19.949951171875 -4.316650390625
-3.593994140625 -10.552001953125 0.244384765625
-16.97216796875 10.180419921875 5.0755615234375
-38.69873046875 -47.24365234375 27.7213134765625
-45.490966796875 -36.259765625 6.4774169921875
-35.77734375 -41.110595703125 12.750732421875
-41.673828125 -19.82373046875 2.970703125
-42.2880859375 -17.580078125 7.66064453125
-30.0146484375 -10.965087890625 0.5377197265625
4.604736328125 -29.50732421875 -6.0069580078125
-29.330078125 -45.865478515625 14.2154541015625
17.842041015625 18.637451171875 1.9920654296875
-45.08251953125 -47.90185546875 20.811767578125
-43.0537109375 -39.747314453125 11.1131591796875
-33.596923828125 -24.273681640625 -5.9808349609375
-23.874755859375 -24.597900390625 -6.0230712890625
-43.125 -49.887451171875 24.860107421875
-28.9091796875 5.5322265625 1.78515625
-39.1552734375 -35.129150390625 -7.16455078125
-43.51513671875 -26.695068359375 -2.890380859375
-7.0078125 4.58642578125 -0.21142578125
-12.95751953125 -44.76806640625 -4.142578125
-33.11669921875 -17.45361328125 -0.93896484375
-42.708740234375 -19.801025390625 14.019775390625
0.882568359375 -37.633544921875 -4.315185546875
-18.248291015625 -35.308837890625 1.2249755859375
-42.987548828125 -33.251708984375 23.1304931640625
-40.53955078125 -39.63720703125 12.13720703125
-17.803955078125 -10.609619140625 0.28515625
-14.695068359375 -19.51513671875 -5.369384765625
-42.523681640625 -34.129150390625 5.2568359375
-31.17919921875 -43.8701171875 12.1397705078125
3.935791015625 7.802978515625 2.244873046875
-19.5966796875 -25.994873046875 -4.84814453125
-1.373779296875 10.591796875 4.5718994140625
-10.307373046875 -41.716796875 -0.0086669921875
-28.441650390625 -48.731201171875 17.0574951171875
-43.83251953125 -53.628173828125 28.31396484375
-24.0888671875 5.00146484375 0.7642822265625
-37.91259765625 -48.49609375 25.65576171875
5.459716796875 11.667724609375 5.3841552734375
-32.7158203125 -43.436279296875 16.8365478515625
-1.606201171875 8.2470703125 2.586181640625
-23.3134765625 -36.3251953125 1.75439453125
25.802978515625 8.999267578125 -5.34423828125
15.059326171875 30.904296875 -1.3531494140625
-21.09765625 7.981201171875 3.2542724609375
-19.289306640625 -6.6611328125 -2.5147705078125
8.44189453125 -13.246337890625 0.174560546875
2.529296875 -3.49609375 -3.315185546875
-17.44140625 -16.99853515625 -1.81640625
-22.931396484375 -22.097900390625 -6.693603515625
-44.92578125 -54.06005859375 33.0850830078125
-41.417236328125 -4.894287109375 -2.5970458984375
-44.829345703125 -45.80322265625 23.0693359375
-39.871826171875 -35.455810546875 -2.974365234375
19.421875 19.23583984375 -12.79833984375
-24.322998046875 11.72021484375 5.47802734375
-26.9970703125 -3.86669921875 -2.7572021484375
-25.6318359375 -52.082275390625 -5.097412109375
-28.086669921875 -51.682861328125 7.1641845703125
15.337646484375 6.325927734375 -0.49853515625
-44.281005859375 -51.136962890625 29.412109375
-12.587158203125 -34.583740234375 4.5546875
-44.885498046875 -51.5537109375 32.5244140625
-34.183837890625 -13.214599609375 2.294189453125
-42.122802734375 -22.23779296875 -4.94580078125
-1.745361328125 -23.8916015625 -5.960693359375
10.711181640625 15.5029296875 -11.68310546875
7.1298828125 -24.292236328125 -5.8865966796875
-8.8271484375 -10.46728515625 0.0968017578125
-23.972412109375 6.84375 2.606689453125
-17.487060546875 -50.693115234375 -10.5081787109375
-40.105224609375 -31.45849609375 -4.6185302734375
-41.324951171875 -20.36572265625 -0.411865234375
-45.489013671875 -29.533935546875 -0.117431640625
-24.579345703125 -50.859130859375 -9.3995361328125
3.201171875 4.50537109375 -0.4771728515625
-15.220458984375 -26.593017578125 -4.29052734375
-28.072998046875 -15.022216796875 0.25
0.31787109375 -15.934326171875 -1.1031494140625
-14.781005859375 -5.92822265625 -2.489501953125
-22.278076171875 -12.497802734375 1.740234375
10.8046875 -34.024658203125 -10.6683349609375
-9.733642578125 10.807861328125 5.25
-10.403076171875 1.1787109375 -2.3836669921875
3.01953125 -22.00341796875 -7.17919921875
-25.206298828125 -50.01953125 -2.0382080078125
-29.43701171875 -44.752197265625 3.9091796875
-28.482177734375 -49.284912109375 -1.7928466796875
-15.762939453125 -2.6533203125 -3.027587890625
-23.083984375 -32.982666015625 2.3177490234375
-35.6298828125 -25.5830078125 -5.4744873046875
-32.478271484375 -7.927001953125 -1.621826171875
-17.166748046875 -20.068359375 -5.3543701171875
16.52294921875 11.220703125 -0.88916015625
-7.08447265625 -21.260498046875 -6.90380859375
-25.48681640625 -49.6357421875 -4.7237548828125
-34.512939453125 -28.406982421875 -6.1729736328125
-23.83447265625 -16.94775390625 -1.7060546875
12.916015625 11.113037109375 1.5687255859375
-27.97900390625 7.4189453125 3.371826171875
-23.772705078125 -7.76416015625 -1.8232421875
16.950927734375 22.369140625 -9.46240234375
-27.074462890625 -50.40380859375 10.4364013671875
-14.481201171875 -12.449951171875 1.40625
-40.698486328125 -16.7978515625 4.794677734375
22.983642578125 17.280029296875 -3.6837158203125
-29.832275390625 -48.85205078125 6.114990234375
-37.499267578125 -42.37890625 14.605224609375
-43.735107421875 -23.58984375 -6.1234130859375
-33.020263671875 -20.50830078125 -4.8275146484375
1.75244140625 -27.9794921875 -7.0474853515625
-42.673095703125 -12.449462890625 3.429931640625
-30.1708984375 -38.936767578125 7.7999267578125
-24.48828125 -53.69287109375 -11.65478515625
-39.6025390625 -23.37939453125 -6.3294677734375
18.327880859375 11.979248046875 -4.3133544921875
-6.473876953125 -8.28271484375 -1.6038818359375
-33.618896484375 -3.0712890625 -2.3448486328125
-28.2958984375 -7.661376953125 -1.9486083984375
6.537841796875 -33.722412109375 -8.60107421875
26.213134765625 11.556640625 -6.89892578125
-3.8857421875 5.323974609375 0.622802734375
4.870849609375 -16.46875 0.17724609375
-11.9287109375 -31.2421875 2.68359375
-8.44140625 -26.64697265625 -3.20166015625
-13.540283203125 -22.465087890625 -7.5472412109375
2.653564453125 -32.18603515625 -8.1634521484375
-22.325439453125 0.28955078125 -2.1759033203125
-37.35546875 5.24560546875 1.5604248046875
-28.58251953125 -52.55322265625 -4.437255859375
-11.08544921875 3.35400390625 -1.00732421875
-39.2578125 -53.5380859375 23.7884521484375
16.53369140625 13.505615234375 -5.2333984375
-5.542724609375 10.674560546875 4.56494140625
-21.498779296875 -8.425537109375 -1.419677734375
-43.5380859375 -39.95849609375 22.470458984375
-32.849853515625 -36.938232421875 9.111572265625
19.34619140625 20.296630859375 4.1446533203125
-27.937744140625 -23.1962890625 -6.92138671875
-45.058837890625 -39.679931640625 18.2340087890625
-0.46044921875 -29.35302734375 -7.3297119140625
-20.8681640625 -19.838134765625 -4.9210205078125
-8.311279296875 7.208740234375 1.8040771484375
19.55078125 19.963623046875 -9.68896484375
-39.733154296875 1.954833984375 -0.9488525390625
-17.770751953125 2.394775390625 -1.2127685546875
-5.854248046875 2.00048828125 -1.67578125
-12.447265625 -18.95458984375 -4.9862060546875
-34.8583984375 -19.677978515625 -2.319580078125
-44.5576171875 -49.4912109375 27.39208984375
8.22509765625 9.532958984375 3.1656494140625
17.2314453125 25.5966796875 -12.6075439453125
-36.1083984375 -39.076416015625 11.553466796875
21.49755859375 6.563720703125 -3.8934326171875
-26.035888671875 -46.365478515625 -2.3465576171875
-4.61181640625 -25.631103515625 -3.51025390625
7.754638671875 -34.98681640625 -10.59375
-34.937744140625 -7.266845703125 -1.627197265625
-42.367919921875 -28.201171875 -1.1156005859375
-27.958251953125 -17.166748046875 -1.2447509765625
-18.840087890625 0.129638671875 -2.203857421875
5.130615234375 -25.63671875 -5.0850830078125
-29.595947265625 -45.09423828125 9.8814697265625
14.208740234375 28.911376953125 -7.0692138671875
-4.009521484375 -34.61181640625 6.7374267578125
-43.307861328125 -47.336181640625 31.4342041015625
-32.6689453125 -41.40087890625 13.85595703125
12.039794921875 17.060302734375 5.132080078125
12.58154296875 31.62158203125 -4.7557373046875
-44.969970703125 -42.55517578125 18.97509765625
-34.680908203125 -21.879638671875 -6.01708984375
30.62255859375 12.872802734375 -6.1099853515625
-35.681640625 7.639892578125 3.640869140625
-44.327880859375 -10.27685546875 0.0677490234375
-26.569091796875 -43.060791015625 0.84521484375
-43.73828125 -22.5322265625 9.6624755859375
21.978759765625 17.894775390625 -5.7559814453125
29.757568359375 14.865966796875 -7.9130859375
16.34130859375 13.452392578125 -0.302001953125
-2.062255859375 -28.117919921875 -5.881103515625
2.4111328125 -10.186767578125 -0.055908203125
-11.39599609375 -39.233642578125 0.7623291015625
-45.71533203125 -25.576171875 -2.546142578125
-36.318603515625 -51.809814453125 23.1734619140625
24.796142578125 15.31640625 -7.92626953125
-4.0244140625 -6.463134765625 -2.43994140625
-28.6279296875 -48.859130859375 1.06787109375
-3.4853515625 1.72998046875 -1.9970703125
-2.08984375 -34.832275390625 -5.5059814453125
-8.421630859375 -18.697021484375 -4.2581787109375
-31.975341796875 -9.885498046875 -0.17724609375
-31.46484375 -41.394287109375 11.8468017578125
-4.854248046875 7.965576171875 2.37890625
-17.41015625 -28.69140625 -1.6766357421875
9.7294921875 5.636474609375 2.1036376953125
33.31591796875 17.3037109375 -8.9713134765625
-42.992919921875 -6.6240234375 -2.1724853515625
-0.37939453125 -4.111328125 -3.0369873046875
-15.388671875 -38.987548828125 -0.7086181640625
20.92138671875 20.16650390625 1.0518798828125
7.564453125 6.2265625 0.5648193359375
-14.4365234375 -53.4736328125 -8.3140869140625
-43.716796875 -42.9951171875 14.5723876953125
-1.6328125 -33.322998046875 3.473388671875
-13.236328125 -29.303955078125 -0.7000732421875
-21.035888671875 -15.006103515625 0.434326171875
3.00439453125 -1.31103515625 -3.280517578125
1.040771484375 1.195556640625 -2.2354736328125
7.42578125 23.853759765625 -2.591552734375
-9.6171875 -13.8662109375 1.0166015625
9.52294921875 -36.613037109375 8.9241943359375
-29.321044921875 -2.3466796875 -2.4537353515625
-37.82080078125 -20.330810546875 -4.0274658203125
-42.16259765625 -40.252197265625 26.476318359375
-24.07861328125 -29.37744140625 -0.543701171875
-9.824462890625 -31.169189453125 2.0474853515625
-42.541015625 -19.6875 7.083984375
-38.031982421875 -1.740234375 -2.34423828125
-43.93603515625 -44.894287109375 27.1871337890625
-3.512451171875 -30.661376953125 -4.3955078125
19.3369140625 6.169189453125 -0.9385986328125
-27.467529296875 -48.687255859375 19.451904296875
-1.858154296875 -18.3017578125 -3.6209716796875
-20.15625 -49.53564453125 -10.0220947265625
-43.92724609375 -23.892822265625 6.847412109375
-1.0869140625 -6.277587890625 -2.665771484375
-16.197265625 -23.4169921875 -7.0830078125
-30.417724609375 -45.407470703125 20.4857177734375
-45.5888671875 -25.879638671875 -0.015869140625
-29.411376953125 -51.34765625 -2.625244140625
-30.366455078125 -6.978759765625 -2.079345703125
1.417724609375 -25.449462890625 -6.6707763671875
8.03857421875 -18.701171875 -5.8353271484375
-40.548095703125 -25.344970703125 -3.37451171875
-42.68994140625 -32.52685546875 18.7640380859375
-39.84716796875 -33.658203125 3.415283203125
-17.3232421875 -43.680419921875 -5.4093017578125
-0.35107421875 -35.66650390625 -8.2064208984375
-42.594482421875 -36.509521484375 26.033447265625
-10.837890625 -3.16015625 -3.258544921875
-30.2958984375 -41.41650390625 8.2159423828125
-38.662841796875 -18.17236328125 -0.59716796875
-22.5751953125 -51.6279296875 -10.843505859375
-37.751708984375 -33.4736328125 -7.8526611328125
-5.166748046875 -29.408203125 -2.2694091796875
-27.025390625 -45.10107421875 3.074951171875
21.569580078125 9.108642578125 -5.1705322265625
-39.333984375 -26.95703125 -4.6029052734375
4.2197265625 -37.174560546875 -8.3668212890625
-39.228759765625 -5.53662109375 -2.2025146484375
-16.107177734375 -45.304443359375 -6.6558837890625
-13.55126953125 -51.40380859375 -7.6229248046875
-1.20849609375 -14.27392578125 -0.2301025390625
-3.909423828125 -23.951171875 -4.6405029296875
-37.456298828125 -36.318115234375 7.943359375
-38.865478515625 -7.959716796875 -1.7808837890625
-14.1318359375 -35.943115234375 2.8946533203125
12.215087890625 15.195068359375 3.77978515625
-19.3349609375 -23.173828125 -7.299560546875
19.35546875 21.001220703125 -7.718505859375
-19.543701171875 -47.05908203125 -8.212646484375
-20.396484375 -43.779052734375 -5.5821533203125
-12.515869140625 -41.389892578125 -1.0404052734375
-26.900634765625 -27.121826171875 -3.270263671875
-40.411376953125 -12.59033203125 13.5689697265625
-7.417236328125 -34.31591796875 7.01611328125
-11.13134765625 -51.34765625 -7.728271484375
-20.8896484375 10.720703125 5.2960205078125
-33.1640625 -33.244873046875 -6.632080078125
-6.122802734375 -30.601318359375 1.5296630859375
-8.1123046875 -24.17041015625 -4.8333740234375
-2.486083984375 -37.47021484375 9.6201171875
-35.303466796875 -4.83349609375 -2.05078125
-24.037109375 -11.411376953125 0.6168212890625
-31.4755859375 -24.973388671875 -5.7276611328125
-31.152587890625 -3.722900390625 -2.341064453125
-45.355224609375 -46.2900390625 18.013671875
-45.72119140625 -38.916748046875 16.34228515625
-19.365966796875 5.408935546875 1.129638671875
-3.489501953125 10.9072265625 5.31005859375
-26.99755859375 -52.459716796875 14.366943359375
-25.49658203125 -40.591552734375 -1.1478271484375
-37.908935546875 -29.791015625 -6.3350830078125
-42.359619140625 -23.265625 0.028564453125
-3.64599609375 -18.450927734375 -4.7303466796875
-42.400634765625 -40.2216796875 28.5692138671875
-17.0634765625 -46.989501953125 -8.1866455078125
-24.1845703125 -5.731201171875 -2.3377685546875
-25.278564453125 -9.081787109375 -1.1702880859375
-24.515380859375 -27.010009765625 -3.365478515625
-18.67431640625 -40.384765625 -2.7598876953125
-36.581787109375 -8.597900390625 -1.249267578125
-13.902587890625 -8.75732421875 -1.324951171875
20.45068359375 20.42138671875 -5.5203857421875
-33.0185546875 -35.7451171875 7.34423828125
-7.5595703125 -4.611572265625 -3.0126953125
-23.664794921875 -40.957275390625 -2.1300048828125
-13.035400390625 -11.1318359375 0.609619140625
4.457275390625 -20.99462890625 -5.0908203125
-19.511962890625 -37.4814453125 -0.8409423828125
6.619873046875 -32.06591796875 -9.8726806640625
-21.873046875 -3.900634765625 -2.4918212890625
-8.678955078125 -6.78271484375 -2.5152587890625
-19.56884765625 -28.77490234375 -1.178466796875
-42.876708984375 -24.82373046875 13.3533935546875
-38.78662109375 -13.069091796875 2.6800537109375
-2.6103515625 -32.372314453125 -6.8790283203125
-30.73876953125 -26.947509765625 -4.693603515625
-37.1943359375 -19.769775390625 -1.43701171875
-25.241943359375 -14.821044921875 0.841796875
-22.32373046875 -27.69580078125 -2.3043212890625
-40.140625 -1.035888671875 -1.8148193359375
14.235595703125 19.73046875 3.03955078125
-37.29736328125 -21.594970703125 -5.576904296875
-10.803955078125 -48.85546875 -5.628173828125
21.063720703125 13.97998046875 -4.197509765625
-45.3994140625 -38.96044921875 13.6412353515625
-28.2998046875 -26.003662109375 -4.6220703125
5.164794921875 0.149658203125 -3.12109375
-32.712890625 0.80419921875 -1.4290771484375
-26.637939453125 -11.966552734375 1.150634765625
-42.98779296875 -30.96728515625 2.355224609375
-34.686279296875 3.2744140625 0.2486572265625
-40.329345703125 -11.648193359375 15.3963623046875
-31.12255859375 -17.784423828125 -1.6517333984375
-36.027587890625 -43.55078125 16.166015625
0.5068359375 -18.674560546875 -5.4375
23.6494140625 12.30029296875 -5.915283203125
-26.0146484375 -44.31689453125 -2.186767578125
-14.614990234375 7.162353515625 2.3101806640625
-12.04150390625 -5.3408203125 -2.899169921875
-39.12548828125 -50.19580078125 25.9273681640625
-33.42529296875 9.13916015625 4.2252197265625
-18.070556640625 -38.689697265625 -1.7412109375
-30.091552734375 -51.75244140625 1.6337890625
-37.61279296875 -11.443359375 0.7862548828125
-10.6875 -16.626708984375 -2.2423095703125
1.61962890625 13.2060546875 6.78076171875
6.549560546875 -9.92724609375 -0.1177978515625
-6.355224609375 -1.089111328125 -2.56884765625
8.786376953125 -27.545166015625 -3.6966552734375
16.09912109375 25.251708984375 -10.5089111328125
-44.369384765625 -22.562255859375 -0.1041259765625
-29.94189453125 -22.89453125 -6.99267578125
-22.829833984375 -30.53076171875 0.5596923828125
6.266357421875 -28.177978515625 -6.5404052734375
3.8818359375 -7.208984375 -2.301513671875
-33.603271484375 -0.981689453125 -2.1844482421875
0.22021484375 7.004150390625 1.3846435546875
15.95947265625 17.418212890625 0.081787109375
-37.428955078125 -4.175537109375 -2.31396484375
-13.224609375 -27.675048828125 -2.1048583984375
-41.12744140625 -29.452880859375 -3.8272705078125
-19.44970703125 -17.95458984375 -1.8885498046875
-36.3349609375 -0.751953125 -1.8809814453125
30.070556640625 17.65478515625 -6.6759033203125
-6.384033203125 -23.28662109375 -5.98193359375
-13.546630859375 -18.079833984375 -2.8175048828125
21.885009765625 19.529296875 -2.1273193359375
-44.990234375 -6.774658203125 -2.337646484375
-32.880615234375 -52.150146484375 22.3939208984375
0.51025390625 5.208984375 0.203857421875
-5.89501953125 12.53271484375 6.450439453125
-3.802490234375 -32.245849609375 -0.4119873046875
-39.918212890625 -34.199462890625 -1.4163818359375
6.927978515625 -21.358154296875 -6.7772216796875
-27.849365234375 -28.791259765625 -2.56591796875
3.97314453125 -30.02978515625 -8.394775390625
-27.155517578125 -24.75634765625 -5.8021240234375
3.734375 -33.441162109375 -9.6165771484375
-20.94482421875 -21.99072265625 -6.6695556640625
15.230224609375 28.70947265625 -10.093505859375
22.133056640625 18.489501953125 -9.188232421875
14.533203125 29.366455078125 -2.892333984375
-15.780029296875 -33.059326171875 3.6075439453125
-25.5751953125 0.908935546875 -1.790771484375
6.194091796875 4.722412109375 -0.7005615234375
-23.57470703125 -46.326904296875 -5.3392333984375
-42.42431640625 -43.555419921875 29.9290771484375
4.579345703125 -10.865966796875 0.7740478515625
-41.28125 -35.66552734375 7.208984375
19.220458984375 9.010498046875 -3.948974609375
0.69970703125 10.326416015625 4.529541015625
4.591064453125 -12.51416015625 2.2186279296875
-10.380859375 -21.42138671875 -6.541748046875
32.18408203125 20.8896484375 -7.4296875
-35.80810546875 -15.90185546875 0.2801513671875
-11.994384765625 -24.804443359375 -5.3736572265625
-42.356201171875 -8.579345703125 -1.2685546875
-41.628662109375 -52.74755859375 28.048583984375
3.292724609375 2.679931640625 -1.9339599609375
-16.265380859375 -36.4833984375 1.139404296875
-43.73583984375 -13.68359375 4.7442626953125
-8.1494140625 -15.0966796875 0.0997314453125
-30.073486328125 -45.837646484375 18.601806640625
18.7763671875 23.563232421875 -3.2420654296875
-11.78271484375 6.020263671875 1.1451416015625
-16.591064453125 12.050537109375 6.5467529296875
-28.03466796875 -50.824951171875 13.59375
16.218017578125 19.890625 2.7984619140625
11.77734375 7.0517578125 1.2947998046875
-16.5078125 8.370361328125 3.356689453125
23.55322265625 15.948974609375 -9.564208984375
7.008056640625 2.097900390625 -1.911376953125
6.65185546875 -1.096923828125 -4.0499267578125
-45.326416015625 -36.0908203125 13.1815185546875
-15.507568359375 -16.89111328125 -1.9180908203125
0.509765625 -21.736572265625 -7.795166015625
-10.44091796875 7.084716796875 2.4476318359375
-9.0400390625 12.255615234375 6.37109375
-3.254150390625 -21.07080078125 -7.2620849609375
-13.974853515625 10.42919921875 5.0096435546875
-25.90185546875 -17.9091796875 -1.9127197265625
-16.287109375 -29.83935546875 -0.0343017578125
-23.905029296875 -38.025390625 0.72802734375
-11.042236328125 -26.355712890625 -3.290283203125
-15.961669921875 -42.368408203125 -3.276611328125
-42.144287109375 -29.917236328125 21.541748046875
-6.3408203125 -16.39013671875 -2.57763671875
-44.7998046875 -34.628662109375 5.3792724609375
-42.0458984375 -15.588134765625 5.822998046875
-2.07666015625 -9.64111328125 -0.5111083984375
-27.5927734375 -52.48583984375 10.25
-3.178955078125 6.756591796875 1.7314453125
-30.45751953125 -12.576904296875 2.0587158203125
-28.9765625 -53.763427734375 4.8262939453125
5.983154296875 -3.703369140625 -3.6253662109375
9.51123046875 23.453369140625 0.3326416015625
-10.502197265625 -7.31298828125 -2.2252197265625
-29.3369140625 -50.48876953125 5.2430419921875
-8.204345703125 10.006103515625 4.413330078125
-0.164306640625 -12.41796875 1.381103515625
-20.4296875 -32.88427734375 1.83544921875
-16.637451171875 -25.43359375 -4.85498046875
-12.11181640625 -15.361572265625 -0.5174560546875
19.2314453125 6.868408203125 -3.2791748046875
-28.08935546875 -19.815185546875 -4.6732177734375
-22.316650390625 2.03662109375 -1.2930908203125
-20.427001953125 -41.277587890625 -3.2237548828125
-22.0107421875 -40.070556640625 -1.7987060546875
-24.987548828125 9.92919921875 5.107421875
2.666015625 -14.812255859375 1.5947265625
-20.494873046875 -45.433349609375 -6.577392578125
-20.328125 -30.417724609375 0.608642578125
14.464599609375 14.3916015625 2.37548828125
-25.0341796875 -47.973876953125 -2.4044189453125
-19.359130859375 3.1669921875 -0.5267333984375
-0.63818359375 -33.6103515625 -9.2548828125
-0.987548828125 -25.558349609375 -6.429931640625
-6.760498046875 -32.604248046875 6.5625
-21.946533203125 -25.302490234375 -5.373779296875
16.969970703125 22.470458984375 -13.0771484375
-17.372314453125 -14.35009765625 0.727783203125
20.755615234375 22.738525390625 0.179443359375
-22.89111328125 -2.29150390625 -2.4329833984375
-10.546630859375 -19.276611328125 -5.179931640625
4.60986328125 -18.779296875 -3.2891845703125
22.385498046875 11.4091796875 -4.714599609375
-27.129638671875 9.300048828125 4.830810546875
-32.88671875 -38.566162109375 10.5196533203125
21.101806640625 18.682373046875 4.243408203125
-33.51025390625 -10.782958984375 0.4212646484375
6.330322265625 10.339599609375 4.287841796875
-13.560546875 3.167724609375 -0.915283203125
-1.71728515625 12.45703125 6.4649658203125
-14.65283203125 1.740478515625 -1.873779296875
-22.893798828125 -48.77978515625 -8.1884765625
-19.286865234375 -11.50634765625 1.0289306640625
-14.110595703125 -15.05615234375 -0.467041015625
19.424072265625 23.753173828125 2.8883056640625
2.411376953125 -18.053955078125 -3.4207763671875
-28.597900390625 0.24951171875 -1.928466796875
0.780517578125 -9.477294921875 -0.87158203125
15.3056640625 16.6533203125 2.1417236328125
18.535400390625 22.847412109375 -15.30078125
19.18408203125 19.9296875 -14.5382080078125
-33.2919921875 4.277099609375 0.9837646484375
-22.053466796875 -43.4033203125 -4.33349609375
-12.795166015625 -38.025634765625 0.995849609375
-7.23974609375 -19.9521484375 -5.575927734375
-9.122314453125 -1.312744140625 -2.884765625
-24.57421875 -21.337158203125 -6.1500244140625
-28.81298828125 -10.117431640625 -0.60400390625
-17.7138671875 -21.8330078125 -7.0279541015625
-27.041748046875 -41.4033203125 2.513916015625
-40.612548828125 -12.761962890625 2.858642578125
-39.414794921875 -37.59521484375 9.37353515625
-26.2021484375 -39.3134765625 2.428466796875
-43.027099609375 -48.650390625 23.475830078125
28.769287109375 12.63671875 -7.1112060546875
-25.424560546875 -39.322021484375 0.57373046875
13.6142578125 7.93408203125 -0.5894775390625
-3.085693359375 -33.13232421875 -3.15185546875
14.6396484375 28.281005859375 -5.0213623046875
-39.34228515625 -38.79296875 10.9996337890625
-36.31201171875 1.394287109375 -0.9239501953125
1.31982421875 -17.624755859375 -1.9847412109375
-37.78515625 -49.756591796875 24.126953125
-29.6884765625 -52.16015625 -0.8245849609375
-27.751708984375 -5.9921875 -2.5302734375
-16.40771484375 -48.614013671875 -8.776123046875
-38.84326171875 -37.125 -6.7974853515625
-44.269775390625 -24.309814453125 -3.1832275390625
-19.6884765625 -36.214111328125 0.4857177734375
5.84375 -13.758056640625 1.6986083984375
-20.91064453125 -48.32568359375 -8.8681640625
-14.527099609375 -45.65966796875 -5.7950439453125
-9.081298828125 4.42041015625 -0.249755859375
-40.70556640625 -18.67578125 -0.06103515625
-31.89013671875 -15.66259765625 0.3568115234375
-44.333740234375 -16.052978515625 7.5506591796875
-45.588134765625 -4.359619140625 -2.36767578125
-27.849853515625 -47.504150390625 12.5360107421875
8.251220703125 12.802734375 5.633544921875
-2.22265625 -7.6044921875 -2.127197265625
28.686279296875 16.16748046875 -7.0989990234375
-25.0556640625 -52.079345703125 -7.962890625
-35.3583984375 -47.5947265625 25.11865234375
16.15966796875 14.617431640625 -1.9967041015625
-44.501220703125 -47.815185546875 28.4664306640625
2.632568359375 9.096435546875 3.4638671875
-46.1025390625 -42.67529296875 13.76708984375
-6.86279296875 -25.303466796875 -3.052978515625
-12.683837890625 11.9345703125 6.2791748046875
-33.984130859375 -49.666015625 23.1787109375
-42.9375 -20.601806640625 5.56298828125
-42.909423828125 -32.957275390625 3.9130859375
-26.021484375 -53.3125 -6.529296875
21.565673828125 17.68603515625 -2.633056640625
23.233642578125 15.113525390625 -3.42724609375
-35.200927734375 -14.57080078125 1.34716796875
-11.87451171875 8.76318359375 3.460205078125
-30.75390625 -21.25048828125 -5.882568359375
15.6005859375 29.18017578125 -1.4234619140625
-45.498046875 -26.828125 -3.8319091796875
-45.435791015625 -27.87255859375 0.87646484375
-41.292236328125 -18.121337890625 3.7216796875
24.570556640625 13.74560546875 -5.357421875
-42.943115234375 -25.498046875 -4.193115234375
-1.0068359375 -36.014892578125 -3.99658203125
-28.939208984375 -44.585205078125 15.737060546875
-3.0908203125 -17.46630859375 -2.3787841796875
-31.39013671875 8.89794921875 4.3212890625
10.9501953125 9.2080078125 1.7293701171875
-44.0732421875 -28.679443359375 -0.8382568359375
-28.49169921875 -38.469482421875 7.3922119140625
6.129638671875 -18.335205078125 -4.8187255859375
-23.324462890625 8.256103515625 3.7012939453125
21.7275390625 17.83740234375 -11.21044921875
-30.019775390625 -44.22412109375 14.002685546875
-45.69970703125 -42.6123046875 16.8992919921875
16.402099609375 14.2353515625 -6.858642578125
21.8486328125 6.904541015625 -5.611083984375
-18.197265625 -7.799072265625 -1.679443359375
-35.884765625 6.270263671875 2.4344482421875
-36.967041015625 8.81982421875 4.0068359375
-2.7197265625 0.040283203125 -2.471923828125
-7.243896484375 -29.01123046875 -0.04833984375
-43.860595703125 -47.8564453125 22.10205078125
-44.7919921875 -11.041259765625 1.6038818359375
-23.71044921875 -43.027587890625 -3.0848388671875
-14.438720703125 -34.25048828125 4.054443359375
-26.97998046875 -46.76953125 0.7314453125
-17.142822265625 -9.3701171875 -0.928466796875
-30.508056640625 -45.515869140625 11.53271484375
-39.679931640625 -51.878173828125 25.67041015625
-42.603271484375 -38.606689453125 25.848388671875
-0.52978515625 -20.4921875 -7.0107421875
26.328125 13.34716796875 -6.6817626953125
-45.093994140625 -26.4951171875 4.702392578125
0.828857421875 -36.842529296875 -6.5711669921875
0.90869140625 -32.267333984375 -8.44970703125
-41.015625 -20.429931640625 -2.2451171875
9.985595703125 -35.755615234375 -11.1495361328125
-8.578369140625 -31.484375 3.8983154296875
-30.2470703125 -45.549560546875 8.0150146484375
0.087646484375 -0.21142578125 -2.92529296875
20.15087890625 12.537109375 -4.7564697265625
-44.0068359375 -3.45361328125 -2.828369140625
-2.9599609375 -14.857421875 -1.3070068359375
-42.219970703125 -54.008056640625 29.4222412109375
-27.229248046875 -8.79150390625 -1.1192626953125
-39.027587890625 5.560546875 2.01220703125
14.333740234375 17.97509765625 3.10107421875
17.593994140625 27.426513671875 1.26171875
-17.00146484375 -6.477783203125 -2.073486328125
-20.950439453125 -52.40234375 -11.384033203125
-43.375 -37.7509765625 9.1240234375
-4.5 -4.82666015625 -3.0518798828125
-16.103515625 -0.9658203125 -2.6876220703125
-17.8916015625 -52.7412109375 -11.9635009765625
-29.179931640625 -42.630615234375 7.57763671875
-14.93505859375 4.4130859375 0.1375732421875
-30.052490234375 -46.79541015625 6.6795654296875
-44.252685546875 -22.07177734375 1.6934814453125
-29.1806640625 1.930419921875 -1.1947021484375
-41.924560546875 -50.264892578125 26.075927734375
-27.94287109375 -47.84716796875 21.1502685546875
8.992431640625 14.659423828125 6.017578125
-17.619384765625 6.0048828125 1.52490234375
8.13330078125 -31.17919921875 -10.6300048828125
19.782470703125 24.069580078125 1.141845703125
1.712158203125 7.609130859375 2.0596923828125
11.16552734375 12.392578125 2.92919921875
-15.388671875 -13.80859375 0.7183837890625
-23.5673828125 -34.66552734375 2.2294921875
-4.33251953125 -30.533935546875 1.1558837890625
-29.849609375 -45.1552734375 5.5546875
-42.682373046875 -0.831787109375 -2.0379638671875
15.82373046875 25.544677734375 -7.20263671875
-35.884765625 -37.0595703125 8.8895263671875
-24.719482421875 -19.630615234375 -4.757568359375
-27.42236328125 -40.946533203125 5.814208984375
-10.794189453125 -10.587646484375 0.1959228515625
-44.522705078125 -41.017333984375 11.7454833984375
-15.2431640625 -4.309326171875 -3.0950927734375
23.2255859375 16.697265625 -5.5887451171875
-32.543212890625 -13.971435546875 1.7554931640625
-0.20361328125 2.428466796875 -1.71728515625
-23.947265625 -25.790283203125 -4.692138671875
-40.35302734375 -16.451171875 3.0225830078125
-38.61572265625 -35.567138671875 6.8790283203125
22.29541015625 20.194091796875 -0.0548095703125
-17.560302734375 -41.5966796875 -3.3970947265625
-5.20263671875 -11.474365234375 0.859619140625
-36.301025390625 -10.168212890625 -0.126708984375
-44.499755859375 -45.76708984375 25.30224609375
-19.023681640625 -31.15771484375 1.807861328125
-38.775146484375 -27.794189453125 -6.061767578125
-40.38037109375 -8.8515625 -1.1856689453125
-29.265380859375 -46.3974609375 3.300537109375
-12.66455078125 -1.996337890625 -2.8922119140625
-31.60693359375 3.95947265625 0.529052734375
-25.984375 2.62939453125 -0.7828369140625
-24.832763671875 -35.953125 2.4796142578125
-12.63232421875 0.13720703125 -2.7288818359375
-20.53076171875 -0.01806640625 -2.5008544921875
-14.987548828125 -31.37646484375 2.6177978515625
-9.523681640625 -27.0712890625 -1.821533203125
-9.157470703125 -3.451171875 -3.04833984375
1.75146484375 -15.359375 0.246826171875
7.647216796875 -9.502685546875 -1.5296630859375
-41.45703125 -36.873779296875 8.4154052734375
18.182373046875 21.18603515625 -9.300537109375
8.57421875 -25.0537109375 -5.361083984375
-10.003173828125 -23.895751953125 -6.1129150390625
-37.185302734375 -26.04833984375 -4.9268798828125
-26.859130859375 -13.634765625 1.4716796875
-9.62548828125 -51.7216796875 -7.0020751953125
-39.8017578125 -43.68017578125 15.483642578125
-25.693115234375 -29.872802734375 -0.7923583984375
26.12841796875 15.078125 -6.8865966796875
-45.394775390625 -25.328857421875 3.495361328125
5.431396484375 -30.85693359375 -10.02978515625
-44.18359375 -22.0380859375 12.16748046875
-39.62158203125 -10.383544921875 -0.0579833984375
-17.594482421875 -18.3125 -2.882080078125
-36.876220703125 -46.345458984375 28.420166015625
-31.79736328125 -23.808349609375 -6.9200439453125
-25.4365234375 -2.065185546875 -2.52294921875
-27.077880859375 -21.8896484375 -6.2657470703125
-44.255126953125 -18.00048828125 9.9388427734375
-42.34765625 -34.452880859375 24.1346435546875
-36.09814453125 -50.138916015625 22.8555908203125
0.343017578125 -7.006103515625 -2.1341552734375
-43.902587890625 -17.65087890625 8.153076171875
-27.35302734375 -52.123291015625 -5.51318359375
-21.111572265625 -50.7822265625 -10.7972412109375
1.942626953125 -13.147705078125 1.3834228515625
6.374267578125 -6.2333984375 -3.185302734375
-44.5546875 -47.432861328125 25.06982421875
-34.564208984375 -31.697021484375 -7.2274169921875
-30.25048828125 -43.885986328125 8.9071044921875
-27.7021484375 -18.8330078125 -1.7152099609375
-25.4130859375 -48.422607421875 -6.044189453125
-28.59326171875 -49.998779296875 15.1268310546875
-3.04052734375 -3.018798828125 -3.089111328125
-24.054443359375 -50.026123046875 -7.7979736328125
-26.6904296875 -49.240234375 -2.0260009765625
-33.086181640625 -29.56591796875 -6.2740478515625
18.032470703125 25.45458984375 -1.209716796875
-9.342529296875 -29.53125 -0.1746826171875
16.65478515625 9.425048828125 -1.526123046875
-41.046630859375 -33.6767578125 4.581787109375
-32.716064453125 -42.2099609375 15.3194580078125
-44.676513671875 -49.9228515625 25.4832763671875
6.002685546875 13.09912109375 6.235107421875
-44.382080078125 -23.631103515625 3.7288818359375
-42.04736328125 -37.78076171875 24.3846435546875
-30.328125 -0.749267578125 -2.395263671875
-31.379638671875 -38.110107421875 9.83837890625
-19.8125 6.718505859375 2.063720703125
-0.44189453125 -16.88427734375 -2.2484130859375
-37.298583984375 -24.456787109375 -5.7684326171875
-2.920166015625 -23.1435546875 -6.880126953125
-25.8134765625 -5.43994140625 -2.5462646484375
-45.3955078125 -36.994873046875 9.7747802734375
-7.5078125 -9.588623046875 -0.9306640625
-9.066650390625 -11.698974609375 1.1939697265625
-22.172607421875 -19.03173828125 -3.83935546875
-38.7744140625 -33.47802734375 -6.442138671875
-9.648681640625 -17.8681640625 -3.025390625
-37.09765625 -31.41015625 -7.4334716796875
4.159423828125 -3.806884765625 -3.240966796875
19.820556640625 15.17919921875 -4.365966796875
-43.983642578125 -35.3779296875 6.6898193359375
-7.182861328125 3.208984375 -1.299072265625
-23.640869140625 3.70166015625 -0.1627197265625
-6.6552734375 -14.12060546875 0.850341796875
-44.788330078125 -43.309814453125 23.343994140625
-31.048095703125 -5.37548828125 -2.281494140625
-38.109619140625 2.104248046875 -0.653564453125
-33.04638671875 6.072509765625 2.2750244140625
-43.71435546875 -24.21728515625 8.775390625
-27.09521484375 -52.06640625 8.724853515625
-30.4814453125 6.2978515625 2.4652099609375
-45.561279296875 -39.00537109375 11.748046875
-12.29541015625 -12.725830078125 1.635498046875
-39.70361328125 -15.490478515625 4.9449462890625
-43.845703125 -20.8876953125 9.606201171875
16.0849609375 24.52783203125 -13.4691162109375
-41.215576171875 -42.0849609375 14.8375244140625
-8.55419921875 -16.03564453125 -1.3065185546875
-44.901123046875 -50.727294921875 30.879150390625
25.32470703125 7.58837890625 -6.0361328125
4.880615234375 -15.535888671875 1.7379150390625
-35.37744140625 -34.590087890625 -7.9442138671875
-37.997802734375 -15.149169921875 1.469482421875
-30.95263671875 2.233642578125 -0.87353515625
-41.605224609375 -35.311767578125 22.037109375
-15.19287109375 -27.79150390625 -2.80810546875
-34.232666015625 1.99169921875 -0.6669921875
-8.827880859375 -41.656982421875 0.6959228515625
-9.57421875 -48.81591796875 -4.54638671875
-4.181396484375 -26.906494140625 -4.4383544921875
-42.09521484375 -25.8095703125 -2.830322265625
-40.31689453125 -52.72119140625 26.9918212890625
8.54248046875 -33.73583984375 -12.342529296875
-46.003173828125 -36.65185546875 7.9737548828125
-28.134765625 -48.44921875 -0.4281005859375
7.031982421875 -20.0361328125 -5.836181640625
-0.034912109375 -30.62255859375 -8.2523193359375
-7.77880859375 5.902099609375 0.9991455078125
-43.02734375 -20.718017578125 3.0340576171875
-29.293701171875 -47.521728515625 14.95556640625
9.703125 11.463134765625 3.842041015625
-21.731689453125 -15.9404296875 -0.6932373046875
-41.259033203125 -31.06689453125 -3.3814697265625
-13.975341796875 -21.199951171875 -6.6334228515625
2.419677734375 -34.30859375 -8.5927734375
-38.99267578125 -16.45361328125 1.3248291015625
-41.61962890625 -11.3056640625 0.5262451171875
5.492919921875 8.8603515625 3.016357421875
-13.749267578125 5.869384765625 1.2425537109375
-11.6171875 4.650634765625 -0.208984375
-4.13232421875 -1.817138671875 -3.1168212890625
-41.61376953125 -19.0634765625 1.552734375
-28.67333984375 -11.68359375 1.0616455078125
-3.070556640625 4.445068359375 -0.5020751953125
-1.679931640625 -32.941162109375 1.912353515625
-44.11669921875 -38.98486328125 10.1807861328125
-26.78857421875 -44.706787109375 1.1636962890625
7.244140625 -12.8212890625 1.489013671875
-45.760986328125 -25.02294921875 1.3309326171875
-28.033203125 -50.418212890625 12.042236328125
-6.53662109375 -28.17333984375 -1.21875
24.71728515625 11.00537109375 -6.72607421875
-29.62060546875 -50.10693359375 1.7203369140625
8.95263671875 15.633056640625 -13.369384765625
-27.9287109375 -53.7314453125 11.19775390625
17.88037109375 19.669189453125 3.5936279296875
4.687744140625 1.901611328125 -2.2254638671875
-44.736083984375 -41.671142578125 21.9154052734375
31.899658203125 18.6025390625 -7.878662109375
-2.3779296875 -31.135498046875 -7.9600830078125
-26.322265625 -41.83642578125 -0.2236328125
15.326904296875 26.973388671875 -10.0291748046875
-43.09912109375 -31.6103515625 22.2437744140625
-18.021240234375 -3.63818359375 -2.6976318359375
5.3427734375 -32.951904296875 -9.51708984375
-40.978759765625 -20.9033203125 -3.76708984375
-5.533203125 9.3115234375 3.7403564453125
-27.93017578125 3.802490234375 0.111572265625
-34.41845703125 -40.6376953125 13.4296875
15.503662109375 12.0830078125 -0.0262451171875
-42.02099609375 -29.796875 -0.65966796875
-32.968017578125 -48.78955078125 24.9481201171875
16.799072265625 6.371337890625 -1.4522705078125
-30.711669921875 -19.458984375 -2.64697265625
3.598876953125 -35.9560546875 -9.1904296875
-40.8798828125 -40.867431640625 13.0792236328125
-4.69970703125 -30.6103515625 -0.894775390625
18.095458984375 8.091064453125 -3.307373046875
-33.88232421875 -18.7607421875 -1.472900390625
3.98095703125 -32.962646484375 -7.78271484375
-19.484130859375 -14.487060546875 0.55126953125
-0.93701171875 9.2490234375 3.6143798828125
-44.515625 -51.981201171875 28.093505859375
-12.75439453125 -43.089599609375 -2.9970703125
-40.21923828125 -33.86083984375 -3.427978515625
-29.23291015625 -48.3974609375 9.45703125
20.594482421875 20.58544921875 -3.8421630859375
1.663330078125 -0.09375 -2.9007568359375
18.294677734375 20.438720703125 -12.8187255859375
-10.553955078125 -9.360107421875 -0.8975830078125
-43.033203125 -16.8544921875 6.473876953125
-19.587158203125 -34.52294921875 1.505859375
-6.269287109375 0.639404296875 -2.3544921875
1.15087890625 -35.189697265625 -8.23974609375
-15.03515625 -41.071533203125 -1.802978515625
-29.460205078125 -43.49609375 5.5093994140625
-28.4423828125 -47.05224609375 17.9747314453125
21.72900390625 17.71533203125 -7.567138671875
-25.47900390625 -10.703369140625 -0.0443115234375
-39.310546875 -48.52587890625 26.5703125
-1.88427734375 -10.859619140625 0.4630126953125
-5.594970703125 -20.76171875 -6.93505859375
-10.380126953125 9.80859375 4.2244873046875
