-37.263671875 -11.97900390625 5.39013671875
-9.04248046875 4.2939453125 10.3192138671875
5.03173828125 -22.1318359375 3.9849853515625
31.271728515625 10.283935546875 -1.6412353515625
-33.69287109375 -17.87744140625 8.0264892578125
-11.426025390625 -53.1328125 2.8016357421875
-22.925048828125 -28.31103515625 8.4541015625
-38.441162109375 -26.194091796875 -0.0911865234375
-26.48046875 -54.605224609375 30.142333984375
-38.029052734375 -61.996337890625 31.248291015625
-31.739013671875 -64.306396484375 24.604736328125
-6.2900390625 -36.818359375 12.274658203125
-21.849365234375 -52.04443359375 6.7154541015625
1.194091796875 -13.533447265625 7.0809326171875
-6.656005859375 -28.584228515625 3.5775146484375
-14.38671875 -26.921875 -0.418212890625
-28.7490234375 -57.15869140625 6.67724609375
12.496826171875 2.36328125 7.603271484375
-9.549560546875 -34.647705078125 7.3466796875
-6.42822265625 -45.408935546875 10.387451171875
-40.28271484375 -67.72265625 33.6346435546875
22.9951171875 3.411865234375 2.238525390625
-27.3544921875 -58.597412109375 -1.70361328125
-31.890625 -7.433837890625 3.700439453125
-32.780029296875 -45.4306640625 29.1107177734375
-24.834228515625 -47.078857421875 7.1461181640625
4.582763671875 -49.29345703125 24.5091552734375
-44.727783203125 -54.125732421875 34.2921142578125
-42.614990234375 -2.251708984375 6.529296875
-43.479248046875 -27.451171875 11.852783203125
25.227783203125 12.313720703125 -0.6849365234375
-22.5283203125 -21.06982421875 5.013671875
-15.03125 -33.786376953125 8.1314697265625
-18.0927734375 -29.955322265625 2.408203125
-8.1943359375 -5.445068359375 4.0009765625
28.92431640625 20.72021484375 4.737548828125
-12.810791015625 -58.474609375 -3.35546875
-35.77392578125 -54.202880859375 29.0118408203125
3.296142578125 -2.999755859375 4.8922119140625
-5.05126953125 -22.055908203125 4.5390625
-40.10546875 -32.23291015625 4.8558349609375
7.830322265625 -7.12451171875 3.687255859375
20.4375 14.8740234375 -7.223876953125
-36.08154296875 -37.3076171875 -2.451904296875
-42.6103515625 -12.39111328125 6.0286865234375
-25.181884765625 -23.628173828125 1.144287109375
-25.367919921875 -12.487548828125 6.0001220703125
-44.60791015625 -47.236572265625 25.0794677734375
2.88916015625 -28.9130859375 0.6746826171875
-42.244384765625 -24.1171875 5.248779296875
-0.037841796875 5.171142578125 10.3961181640625
-10.77978515625 -11.280517578125 5.1055908203125
-3.89892578125 -59.631591796875 -3.0538330078125
-28.683349609375 -50.7265625 22.502197265625
-40.381103515625 -49.67236328125 27.258544921875
-4.04150390625 -14.354248046875 7.43408203125
-15.116943359375 -58.984130859375 -8.2818603515625
-22.64013671875 -42.181396484375 11.080322265625
-18.30712890625 -44.813232421875 3.5472412109375
-28.3681640625 0.576171875 7.981201171875
-42.29296875 -58.23876953125 36.2349853515625
-17.05859375 -10.413330078125 4.871337890625
-43.211669921875 -63.725830078125 32.9593505859375
-34.00244140625 -28.007568359375 1.5806884765625
-27.03564453125 -8.2763671875 3.9420166015625
17.467041015625 9.65087890625 3.4471435546875
8.35791015625 -22.006591796875 7.6806640625
-36.728271484375 -20.87451171875 10.426513671875
-29.419677734375 -60.413818359375 26.4322509765625
-28.341552734375 -47.927978515625 12.0576171875
32.53662109375 19.098876953125 1.4017333984375
-26.7880859375 -16.700439453125 7.9552001953125
10.945556640625 -26.129150390625 0.694580078125
5.73046875 -44.6787109375 25.2626953125
-24.37060546875 -59.28759765625 -6.5633544921875
-32.297607421875 -23.357666015625 4.2652587890625
-30.951904296875 -56.001708984375 28.728515625
-28.029541015625 -56.25537109375 12.5667724609375
15.0400390625 9.73291015625 -1.11572265625
33.295166015625 14.918701171875 -1.112060546875
-14.9609375 -2.58837890625 4.934326171875
-18.956787109375 -31.144287109375 12.01318359375
-1.3720703125 -36.802734375 11.0345458984375
-4.937744140625 -25.458251953125 0.166748046875
-17.526611328125 -17.946533203125 6.8475341796875
-28.23583984375 -45.46435546875 20.1676025390625
-6.763671875 -52.802490234375 2.3037109375
-18.451171875 -5.826171875 3.6795654296875
-22.89306640625 -4.635009765625 4.7421875
-20.127685546875 2.625732421875 9.07666015625
-23.82666015625 -0.210693359375 7.2100830078125
-10.30517578125 -48.034912109375 4.800537109375
-36.73681640625 -7.464599609375 4.6241455078125
-32.338134765625 -36.096923828125 1.048828125
-0.740478515625 -35.32666015625 -0.83154296875
12.720458984375 6.529052734375 9.381591796875
-41.99755859375 -17.620849609375 11.61865234375
-35.057373046875 -43.009765625 22.2943115234375
-9.556640625 -20.757568359375 4.4306640625
23.124755859375 13.913818359375 2.901123046875
-27.27783203125 -52.41552734375 14.924560546875
-36.097900390625 0.5517578125 8.19677734375
-4.748779296875 -30.15478515625 7.2667236328125
2.173095703125 -39.550048828125 -0.4013671875
-29.39794921875 -63.38232421875 -1.63525390625
-5.822265625 -0.956298828125 5.7120361328125
-16.06298828125 -50.077880859375 -1.22021484375
-28.978271484375 -62.514404296875 7.01416015625
-37.90673828125 -28.541015625 3.9356689453125
-31.57763671875 -1.8212890625 6.1251220703125
-8.987060546875 -60.0439453125 -4.8348388671875
10.05615234375 -14.588623046875 9.8699951171875
32.8955078125 6.447998046875 0.7490234375
-10.25927734375 -28.3349609375 1.133056640625
7.84130859375 1.93701171875 7.34765625
-18.394775390625 -56.2685546875 -6.5516357421875
-6.457763671875 -63.230224609375 -2.98583984375
-20.62353515625 -12.91552734375 5.8087158203125
20.061279296875 17.2744140625 0.2330322265625
4.14697265625 -24.78759765625 0.625732421875
-42.126953125 -41.465087890625 16.7054443359375
-1.034423828125 -10.4912109375 4.9967041015625
-34.800048828125 -23.87939453125 0.6981201171875
-6.9326171875 -41.037841796875 12.7642822265625
-36.213134765625 -62.80810546875 27.2127685546875
-12.021484375 -18.029541015625 7.3878173828125
-40.96337890625 -52.576904296875 30.8514404296875
19.48681640625 6.35107421875 1.6619873046875
-0.474609375 -0.94775390625 5.6578369140625
-37.763671875 -39.241455078125 1.2882080078125
38.228271484375 16.650634765625 -0.44677734375
-28.4853515625 -57.46142578125 2.463623046875
-19.40283203125 -38.352294921875 9.2425537109375
-18.1982421875 -22.33837890625 4.830810546875
-27.78515625 -53.004638671875 5.904541015625
-20.9814453125 -33.432861328125 14.8961181640625
-41.94677734375 -27.12060546875 2.1046142578125
-0.47021484375 -42.316162109375 20.0882568359375
-9.322998046875 -14.330322265625 7.630859375
-16.297119140625 1.035888671875 7.4259033203125
-13.252685546875 -23.3984375 1.5689697265625
-2.037353515625 -22.721923828125 7.6304931640625
-1.10986328125 -37.6015625 15.1341552734375
-32.967041015625 -31.491455078125 -0.553466796875
-28.391357421875 -60.286376953125 15.141357421875
-37.3740234375 -57.98681640625 29.3468017578125
7.925537109375 -25.029541015625 3.234130859375
-14.412841796875 -42.968505859375 4.65869140625
27.712646484375 9.3671875 0.642578125
-38.507080078125 -59.541015625 35.4796142578125
-27.13916015625 -52.111328125 26.994384765625
4.7236328125 -11.814208984375 5.8397216796875
4.026123046875 5.19189453125 10.3660888671875
3.17041015625 -19.829345703125 7.2613525390625
-5.029541015625 4.731201171875 10.285888671875
-40.0 -44.376953125 20.4854736328125
-11.543212890625 -56.083984375 0.06298828125
-29.227783203125 -53.29638671875 19.46923828125
17.55615234375 7.468994140625 6.7635498046875
-2.549560546875 -34.860595703125 3.579833984375
11.902099609375 16.73681640625 2.4136962890625
-9.892333984375 -35.8056640625 11.087890625
-12.3466796875 2.2529296875 8.5687255859375
16.67333984375 16.3291015625 6.1002197265625
-34.785400390625 -49.50390625 28.200927734375
-15.338134765625 -37.9365234375 8.3148193359375
-41.82958984375 -13.82275390625 9.676513671875
6.597412109375 -14.8828125 8.0911865234375
19.549560546875 13.017578125 4.1453857421875
1.29248046875 -32.037841796875 -1.17724609375
25.020263671875 6.799560546875 1.7398681640625
-39.5869140625 -4.638427734375 5.2119140625
-34.209716796875 -14.10986328125 6.6854248046875
-38.826171875 -35.256591796875 2.1297607421875
-23.293212890625 -53.149658203125 -0.9483642578125
-19.298583984375 -52.62158203125 -3.014892578125
-33.72607421875 -10.725830078125 4.4716796875
-30.10302734375 -43.154541015625 22.598388671875
-22.3701171875 -25.559814453125 -0.749755859375
-2.496337890625 -26.5263671875 2.9249267578125
-17.310302734375 -31.8798828125 5.6298828125
-8.854248046875 -31.530029296875 4.655029296875
-7.6181640625 1.45068359375 8.0875244140625
36.382080078125 10.280029296875 0.375244140625
-12.968994140625 -40.80029296875 7.4268798828125
-33.2685546875 -48.778564453125 32.9007568359375
-33.3935546875 -39.816162109375 23.4942626953125
-30.543212890625 -28.974609375 2.8416748046875
-43.265869140625 -25.57275390625 8.6103515625
-21.403076171875 -50.425048828125 3.1912841796875
-39.51953125 -22.750244140625 8.4093017578125
5.595947265625 -31.942138671875 1.692138671875
-31.5341796875 -48.09228515625 26.0250244140625
-32.596435546875 -66.726806640625 27.2501220703125
-18.24365234375 -26.881103515625 -0.2208251953125
-38.0068359375 -65.7802734375 31.12060546875
-1.02490234375 -16.505859375 8.17041015625
-17.914306640625 -47.411376953125 0.948486328125
-42.476806640625 -46.568359375 22.1749267578125
-22.32080078125 -49.0166015625 9.2021484375
8.61767578125 -46.916259765625 25.440673828125
-30.656982421875 -15.85888671875 8.1302490234375
-39.315185546875 -1.064208984375 7.50732421875
-9.524658203125 -41.077880859375 9.480224609375
-4.25830078125 -57.343994140625 1.7232666015625
-11.418212890625 -3.826904296875 4.9063720703125
-13.559814453125 -35.710693359375 10.8143310546875
34.985595703125 21.671630859375 0.7520751953125
-24.486083984375 -43.507568359375 8.291748046875
14.737060546875 4.931884765625 6.5089111328125
-4.7939453125 -7.0859375 3.5340576171875
-28.263916015625 -57.928955078125 30.0037841796875
0.62890625 -5.447265625 3.7548828125
-0.51123046875 -22.042236328125 3.60302734375
13.273681640625 13.859375 0.20068359375
-34.15087890625 -20.553955078125 5.279296875
-4.129150390625 -18.9091796875 7.02392578125
-24.714111328125 -51.335205078125 4.83740234375
-42.624755859375 -37.244384765625 11.3341064453125
-4.484130859375 -38.742431640625 14.5506591796875
-26.39208984375 -26.7822265625 0.033935546875
8.273681640625 -17.5927734375 10.9671630859375
-3.654052734375 -31.5888671875 4.3037109375
39.015869140625 15.85693359375 -3.724365234375
-25.58837890625 -22.66796875 4.9130859375
-40.14404296875 -10.293212890625 4.5391845703125
-8.17724609375 -45.8408203125 6.9765625
-27.22412109375 -48.854736328125 8.947021484375
-28.71044921875 -44.782470703125 13.6751708984375
5.462158203125 -0.113037109375 5.8896484375
27.584716796875 17.74853515625 3.7205810546875
-6.576416015625 -35.2890625 9.2615966796875
-25.216064453125 -55.846923828125 -1.6143798828125
-39.267333984375 -24.367919921875 2.623291015625
2.700439453125 -47.283935546875 22.1434326171875
-13.3515625 -52.75439453125 0.0614013671875
19.7744140625 15.64697265625 -3.5787353515625
8.34619140625 -21.362060546875 4.387939453125
-25.191162109375 -19.06884765625 6.196533203125
-6.773193359375 -60.1513671875 -1.4189453125
-40.172119140625 -63.14794921875 34.2310791015625
-8.516357421875 -8.76123046875 4.177734375
-34.003173828125 -45.44091796875 25.3836669921875
-12.973876953125 -46.441650390625 5.9940185546875
-14.883544921875 -29.534423828125 1.6380615234375
-17.919677734375 -14.65673828125 7.12060546875
-38.549560546875 -13.741943359375 7.8916015625
-34.4755859375 -34.622314453125 -1.3619384765625
-17.87109375 -32.145263671875 8.884521484375
-16.29150390625 -24.0986328125 0.4530029296875
-36.40869140625 -17.583740234375 10.2510986328125
-25.814697265625 -40.7255859375 9.6099853515625
4.783447265625 -5.881591796875 4.0081787109375
29.42529296875 12.330322265625 0.4483642578125
-21.258056640625 -57.82958984375 -6.2066650390625
-10.93994140625 -59.27099609375 -0.7879638671875
-29.8720703125 -9.924560546875 4.4228515625
2.2470703125 -16.967041015625 8.4453125
6.47216796875 -20.448974609375 9.7923583984375
2.23046875 -22.34228515625 1.511474609375
19.61328125 2.95947265625 2.87841796875
0.074462890625 2.71923828125 8.3099365234375
-30.457763671875 -43.277587890625 28.165283203125
-5.55419921875 -48.208740234375 9.05517578125
-8.993896484375 -50.812744140625 3.4862060546875
-44.78076171875 -52.940673828125 31.3056640625
25.0810546875 10.580078125 2.0078125
-13.972900390625 -11.2509765625 4.844970703125
-25.3544921875 -61.846435546875 -8.2088623046875
-30.733642578125 -4.624267578125 4.6812744140625
-35.91162109375 -40.685791015625 -0.8662109375
-42.758544921875 0.106201171875 8.84326171875
-37.81201171875 -52.685302734375 31.022216796875
0.167236328125 -27.7138671875 1.7265625
-17.753662109375 -35.472900390625 9.0579833984375
-19.60595703125 -50.213134765625 8.1529541015625
-3.198486328125 -23.08984375 1.29296875
-39.01171875 -18.8681640625 11.4600830078125
-20.775634765625 -28.17333984375 1.123046875
-29.052001953125 2.981689453125 9.885986328125
-31.10009765625 -19.04443359375 6.69384765625
-6.8681640625 -13.005859375 5.9652099609375
-24.37841796875 -51.192138671875 10.717529296875
-27.854736328125 -62.815185546875 28.321044921875
-30.394775390625 -57.659423828125 14.531982421875
-20.683837890625 -18.72607421875 6.589599609375
-43.41357421875 -26.447265625 14.80517578125
-31.622802734375 -23.55322265625 1.2274169921875
-7.9453125 -26.25390625 0.35888671875
-22.941162109375 -34.68212890625 10.577880859375
7.29248046875 -10.082763671875 4.4593505859375
6.600341796875 -26.926025390625 1.05126953125
19.354248046875 17.751953125 -6.5035400390625
-26.58056640625 -59.891845703125 -4.4041748046875
-13.78466796875 -55.716796875 -2.35888671875
-41.1865234375 -30.031005859375 2.978515625
-12.635009765625 -50.13720703125 2.0634765625
34.203369140625 11.982177734375 -1.25
-33.589599609375 -61.8798828125 25.818359375
35.952392578125 15.8056640625 -2.3447265625
-26.8515625 -45.5712890625 8.918212890625
-28.345947265625 -23.559814453125 0.7532958984375
-11.245361328125 -25.75634765625 -0.18115234375
-28.47509765625 -23.391357421875 4.0772705078125
12.875 18.400390625 4.7725830078125
-42.6865234375 -51.809814453125 28.197021484375
10.238037109375 4.001953125 8.8162841796875
-22.029541015625 -22.9619140625 2.6915283203125
34.36669921875 17.874755859375 -0.7034912109375
-28.166259765625 -14.14697265625 6.626708984375
25.963134765625 20.259033203125 4.320068359375
-11.583740234375 -32.48779296875 6.756591796875
-9.068115234375 -57.8671875 -2.70068359375
5.756591796875 -46.585205078125 22.918212890625
-19.203857421875 -30.97119140625 15.01904296875
-29.345947265625 -53.617919921875 29.6536865234375
-1.560302734375 -7.521240234375 3.7957763671875
5.806640625 -51.9716796875 25.16064453125
2.1806640625 -21.320068359375 4.751220703125
-6.233154296875 -23.066162109375 1.4774169921875
-15.279052734375 -56.539794921875 -5.1856689453125
-3.92919921875 -28.31396484375 4.87158203125
-9.050048828125 -54.62255859375 0.8887939453125
-28.628173828125 -47.8291015625 15.0458984375
-29.323974609375 -50.241455078125 25.8897705078125
-6.366943359375 -32.650634765625 7.5987548828125
-34.354248046875 -5.412109375 4.14697265625
-28.165771484375 -57.1279296875 9.609619140625
-41.287841796875 -48.0927734375 24.4757080078125
-32.9287109375 -53.775390625 28.238525390625
22.027587890625 6.321533203125 3.2725830078125
26.76708984375 14.40380859375 0.7637939453125
-23.300048828125 -52.7587890625 2.65185546875
-43.133056640625 -4.61767578125 4.816162109375
-8.110595703125 -38.748779296875 10.947998046875
-8.407470703125 -2.578369140625 4.7171630859375
-38.822509765625 -59.069091796875 31.6923828125
-42.184326171875 -55.8408203125 33.8485107421875
-13.4580078125 -0.587646484375 6.67236328125
-25.446044921875 -52.455810546875 7.634765625
6.5322265625 -3.379638671875 3.9691162109375
-36.00390625 -19.86572265625 7.4779052734375
-33.24560546875 -37.4443359375 -1.6419677734375
-34.0517578125 -56.7509765625 28.7249755859375
-32.537353515625 -42.876953125 24.5943603515625
30.296630859375 7.712158203125 0.1756591796875
-42.080078125 -44.080810546875 18.07470703125
-33.222412109375 0.164306640625 7.734375
-43.26025390625 -49.510498046875 26.48046875
2.375732421875 -0.124755859375 6.0694580078125
-36.085205078125 -15.035888671875 8.7584228515625
-37.137939453125 -35.457763671875 -0.4632568359375
-24.685302734375 -9.943359375 4.3656005859375
1.593017578125 -36.93896484375 -1.7244873046875
-24.8427734375 -2.6123046875 5.47802734375
-35.45166015625 -29.859130859375 -0.24609375
-28.74658203125 -60.835205078125 0.3358154296875
1.781982421875 -11.3515625 5.270751953125
-29.624755859375 -47.7646484375 22.4801025390625
-24.3583984375 -7.068115234375 4.193603515625
31.40185546875 21.187255859375 3.049560546875
-15.835693359375 -22.641357421875 2.9058837890625
-39.44775390625 -32.376708984375 1.68505859375
-33.025146484375 -25.83935546875 -0.45458984375
2.927490234375 -46.313720703125 25.1148681640625
6.27734375 3.975341796875 9.1505126953125
-38.400146484375 -55.552978515625 30.416259765625
9.55126953125 -0.186279296875 8.100830078125
-24.663330078125 -57.622314453125 -3.7447509765625
-23.71044921875 -14.6025390625 6.880615234375
-1.855224609375 -13.04931640625 6.2125244140625
-29.71044921875 -59.622802734375 3.7967529296875
-18.91162109375 -42.0146484375 4.4080810546875
-28.351806640625 -55.23291015625 4.1815185546875
-28.338623046875 -54.946044921875 15.550048828125
-40.777587890625 -64.978515625 32.1976318359375
-14.68505859375 -17.17919921875 7.40576171875
-17.62939453125 -3.408203125 4.8223876953125
-5.562744140625 -4.20458984375 3.9619140625
-29.752197265625 -64.221435546875 4.7034912109375
-15.351806640625 -45.264404296875 3.224365234375
-21.169189453125 0.614990234375 7.3262939453125
-14.176025390625 -32.356689453125 5.7484130859375
-10.76171875 -6.6884765625 4.186279296875
-27.0224609375 -56.055419921875 0.5615234375
13.507568359375 10.60498046875 -3.58935546875
6.7080078125 -48.6904296875 26.4012451171875
-12.07080078125 -21.91015625 3.587158203125
-19.833251953125 -54.85107421875 -4.55517578125
-22.196044921875 -1.7939453125 5.5908203125
-6.1416015625 -19.606689453125 5.2698974609375
5.332275390625 -21.504638671875 6.955078125
-26.8173828125 -53.792236328125 12.3907470703125
-3.759521484375 -35.473876953125 10.7403564453125
19.2939453125 5.856689453125 4.354248046875
-5.3798828125 -16.491943359375 8.5069580078125
31.78125 16.564208984375 0.6832275390625
4.019775390625 -13.985107421875 7.3572998046875
-16.11865234375 -7.90087890625 3.9620361328125
-28.28662109375 -50.822021484375 12.0797119140625
22.173095703125 18.978759765625 -0.1043701171875
-42.285400390625 -20.18603515625 13.26611328125
-0.914794921875 -29.16455078125 4.550048828125
-34.555419921875 -64.90966796875 26.767578125
-11.620361328125 -15.614501953125 8.553466796875
-5.0322265625 -61.8056640625 -4.885986328125
-21.88916015625 -46.69189453125 10.51513671875
-31.415771484375 -58.757080078125 27.1917724609375
10.4052734375 -20.316650390625 7.1982421875
-20.41455078125 -31.30078125 9.19580078125
-11.57763671875 -60.77294921875 -4.7862548828125
-44.541259765625 -44.900634765625 22.6197509765625
-37.74267578125 2.1318359375 9.8131103515625
19.899169921875 8.400634765625 3.728759765625
-2.9931640625 -0.1357421875 6.1224365234375
-27.53759765625 -11.183837890625 4.8438720703125
-28.385986328125 -54.021240234375 21.9141845703125
-40.357177734375 -61.20947265625 32.3280029296875
-37.026123046875 -60.8916015625 28.903076171875
-20.349609375 -3.8076171875 4.5618896484375
30.329833984375 18.21533203125 2.6343994140625
-21.34375 -32.716064453125 11.4442138671875
-43.755615234375 -66.365478515625 33.91845703125
-0.400634765625 -37.87451171875 -0.087646484375
14.9990234375 7.4150390625 8.296630859375
-28.943115234375 -1.4140625 6.24169921875
-2.1201171875 -36.311767578125 1.2374267578125
-11.427001953125 -34.3818359375 9.443359375
-42.38623046875 -63.859375 37.0699462890625
-25.56640625 1.38720703125 8.5399169921875
-36.953857421875 -64.687255859375 28.9322509765625
-16.77001953125 -19.911376953125 5.2364501953125
-5.155517578125 -26.491455078125 2.9560546875
-11.560302734375 -13.419677734375 6.4588623046875
-36.903076171875 -27.178955078125 1.898193359375
-37.218505859375 -30.42626953125 2.0712890625
-39.76318359375 -12.78857421875 5.567626953125
-18.012451171875 3.845947265625 10.0911865234375
-28.648193359375 -6.248779296875 4.38037109375
-18.779052734375 -8.70947265625 3.8521728515625
-9.745849609375 -18.812255859375 6.33544921875
-43.089111328125 -27.03662109375 6.4383544921875
-31.33447265625 -20.95068359375 4.6710205078125
3.13916015625 -32.681396484375 1.1412353515625
-27.600830078125 -54.587158203125 8.8477783203125
-9.788818359375 -61.365478515625 -6.946044921875
-19.934814453125 -32.348388671875 6.8363037109375
-28.1328125 -61.25439453125 -2.809326171875
-20.89013671875 -6.664306640625 4.15185546875
-39.442138671875 -7.43798828125 4.219970703125
-15.242919921875 -5.02587890625 4.0760498046875
-40.817138671875 -60.451171875 36.580078125
-25.9384765625 -58.295166015625 28.91748046875
-2.28125 -25.904052734375 0.134765625
-42.3896484375 -24.564453125 11.3807373046875
-36.97998046875 -23.12744140625 1.8671875
-17.70556640625 -58.094970703125 -8.2408447265625
-28.745361328125 -52.614990234375 17.03955078125
-29.76416015625 -62.95263671875 26.6060791015625
-22.9365234375 -61.236328125 -7.4169921875
-35.2255859375 -51.73876953125 29.4625244140625
1.885009765625 -25.99072265625 0.518310546875
-0.34228515625 -44.5859375 21.50244140625
-28.98193359375 -59.664794921875 7.13818359375
31.69970703125 12.790771484375 -0.62744140625
-38.31982421875 -49.560302734375 29.5911865234375
-42.6552734375 -9.88525390625 4.7080078125
0.372314453125 -2.976806640625 4.330078125
-34.300048828125 -8.263916015625 4.1688232421875
-28.7861328125 -47.911376953125 19.730712890625
-39.886474609375 -20.81298828125 10.0091552734375
-4.71337890625 -58.275390625 -0.593994140625
5.218994140625 -8.377197265625 3.874755859375
-22.8486328125 1.798583984375 8.809326171875
-21.7294921875 -29.84765625 6.8341064453125
0.4462890625 -29.6572265625 0.1278076171875
2.2783203125 3.533447265625 9.3365478515625
-30.824951171875 0.965576171875 8.4410400390625
-2.109619140625 3.9248046875 9.6688232421875
23.322509765625 14.298583984375 5.4483642578125
-19.203125 -16.785400390625 8.3314208984375
-2.714599609375 -20.935302734375 5.98583984375
-23.03759765625 -11.6376953125 5.237548828125
-15.29736328125 -30.953125 3.9879150390625
-12.09130859375 -9.15625 4.073486328125
-9.890625 -29.740234375 3.1839599609375
-16.199951171875 -12.53466796875 5.9078369140625
19.2509765625 14.661376953125 6.69140625
-29.163818359375 -58.5888671875 11.7005615234375
-42.061767578125 -39.458740234375 12.970458984375
-27.647216796875 -18.6650390625 6.6571044921875
5.548583984375 -29.449462890625 1.673095703125
-36.9296875 -1.447021484375 6.904296875
10.052978515625 -24.123779296875 1.8701171875
-41.83349609375 -23.593017578125 9.1671142578125
-35.42333984375 -26.2451171875 0.0103759765625
-34.9765625 -22.899169921875 4.0023193359375
-8.325927734375 -22.321533203125 2.9605712890625
-33.18798828125 -3.4169921875 5.1343994140625
8.938720703125 -20.011474609375 9.16552734375
-1.724365234375 -33.840087890625 1.2127685546875
-28.75244140625 -46.81982421875 17.2967529296875
-32.0068359375 -33.65673828125 0.881591796875
-30.521484375 -45.518798828125 21.23974609375
-3.4208984375 -36.914306640625 12.7103271484375
1.605224609375 -34.479248046875 -1.5987548828125
37.156982421875 17.927978515625 -2.6756591796875
21.923583984375 11.79248046875 3.230712890625
-38.251220703125 -48.45263671875 27.09912109375
-24.837646484375 -48.982666015625 9.5186767578125
-36.3115234375 -9.901123046875 4.4937744140625
17.567138671875 14.248779296875 4.906005859375
-3.577392578125 -9.197998046875 4.274169921875
-16.74951171875 -0.984619140625 6.1171875
-18.374267578125 -50.781005859375 -1.6121826171875
-26.5859375 -0.611328125 6.7984619140625
-37.06494140625 -5.040771484375 5.0433349609375
-11.937255859375 -19.95703125 5.18603515625
-19.975830078125 -20.67431640625 4.8369140625
-28.727294921875 -61.14892578125 9.05615234375
-40.202392578125 -34.62841796875 4.442626953125
25.267578125 4.26318359375 2.2047119140625
-4.9931640625 -40.923583984375 15.4832763671875
-9.662353515625 -16.83056640625 7.8021240234375
-2.935302734375 -29.821044921875 2.80908203125
-22.326904296875 -51.3271484375 0.6048583984375
-23.99462890625 -40.082275390625 11.07373046875
-3.923583984375 -2.166015625 4.813720703125
-24.21240234375 -17.534912109375 7.7911376953125
-12.60302734375 -28.770263671875 1.8944091796875
-28.3056640625 -45.753173828125 11.0010986328125
-19.56640625 -10.830322265625 5.194580078125
-18.8251953125 1.018798828125 7.7447509765625
-6.651611328125 -30.419921875 5.8037109375
-5.628662109375 2.688720703125 8.6578369140625
-26.122314453125 -5.427001953125 4.2003173828125
15.2919921875 12.61962890625 0.6273193359375
-4.333251953125 -12.171630859375 5.6368408203125
-43.805908203125 -56.436767578125 35.7354736328125
-40.939453125 -25.6591796875 3.94775390625
-15.039794921875 -52.453369140625 -2.0787353515625
-8.41455078125 -48.244140625 6.25732421875
-29.28515625 -42.576416015625 25.0574951171875
-42.50244140625 -54.290283203125 31.482421875
-11.373046875 3.875244140625 10.0404052734375
-14.843017578125 -40.61572265625 5.96728515625
-0.466552734375 -21.790771484375 5.9700927734375
-44.36572265625 -27.6298828125 9.0738525390625
26.734619140625 5.584228515625 0.387451171875
-34.82275390625 2.1513671875 9.495361328125
-42.257568359375 -45.121826171875 20.1927490234375
-23.638671875 -50.482666015625 7.896728515625
-33.8955078125 -47.70849609375 26.9473876953125
-31.45361328125 -27.231689453125 1.5418701171875
9.402099609375 -27.482421875 2.347900390625
-31.49169921875 -30.456298828125 1.2802734375
-40.430908203125 -57.31640625 35.133056640625
-21.076416015625 -28.427001953125 14.8577880859375
-14.88916015625 2.234375 8.8878173828125
-21.427490234375 -53.77734375 -2.97265625
5.36181640625 -24.11181640625 2.5177001953125
-10.0166015625 2.251220703125 8.84716796875
-43.176513671875 -29.121826171875 2.135986328125
-12.471435546875 -47.04345703125 3.7896728515625
-31.544189453125 -52.724609375 29.7955322265625
-7.036865234375 -14.769287109375 7.762451171875
-8.136474609375 -10.8779296875 5.0745849609375
-39.968017578125 -16.38818359375 11.2998046875
5.466064453125 -44.37353515625 22.275146484375
-16.86767578125 -28.22900390625 1.0726318359375
-6.788330078125 -55.1181640625 1.008544921875
-16.712158203125 -42.886474609375 4.3905029296875
-17.794677734375 -38.64501953125 7.6026611328125
4.4013671875 -19.54931640625 9.19873046875
-16.14892578125 -15.565673828125 8.295166015625
-39.758056640625 -28.375732421875 2.23046875
-11.37060546875 -50.006103515625 4.240234375
-3.60498046875 -32.204833984375 6.6771240234375
-37.092041015625 -37.87890625 -0.4447021484375
-19.957275390625 -50.77880859375 5.9525146484375
21.527587890625 1.700439453125 3.0157470703125
-10.30126953125 -41.687255859375 7.408935546875
16.564208984375 13.016845703125 2.5367431640625
-28.44287109375 -55.4873046875 30.927001953125
-11.70654296875 -36.700927734375 12.158447265625
-44.373046875 -41.797607421875 16.41845703125
-20.4951171875 -14.64892578125 7.292236328125
27.139404296875 11.888916015625 0.4810791015625
24.767822265625 13.11279296875 1.3948974609375
-8.26416015625 -0.567138671875 6.325927734375
1.229736328125 -18.53857421875 6.9705810546875
-19.424560546875 -41.811279296875 6.611328125
-20.105712890625 -25.6103515625 -0.493408203125
12.83642578125 4.4443359375 8.4891357421875
7.09228515625 -18.31201171875 9.167236328125
3.965087890625 -30.939453125 -0.0555419921875
-31.4931640625 -61.07080078125 25.5057373046875
-28.4462890625 -54.793701171875 17.8106689453125
-21.31982421875 -51.936279296875 -1.4163818359375
-32.87646484375 -15.424072265625 7.9998779296875
0.535400390625 0.66943359375 7.1251220703125
4.5986328125 -15.744384765625 8.7161865234375
0.3642578125 -8.787109375 4.079833984375
7.9013671875 -0.124267578125 6.314208984375
-36.626220703125 -59.04736328125 27.492919921875
-22.910888671875 -19.1083984375 6.467529296875
-13.884765625 -18.74755859375 5.9332275390625
-14.121337890625 -49.5078125 0.4803466796875
-40.191650390625 -2.6396484375 6.0726318359375
-14.177734375 -38.14013671875 10.2403564453125
-37.27294921875 -55.771484375 28.3970947265625
-38.81298828125 -47.690185546875 24.013916015625
-29.3203125 -58.938720703125 28.131591796875
10.718505859375 -20.98779296875 4.6571044921875
-21.68994140625 -31.38623046875 15.4869384765625
16.6162109375 5.80908203125 5.5821533203125
-9.078369140625 -52.702880859375 2.0394287109375
-13.444580078125 -24.9091796875 -0.1578369140625
-8.206298828125 -32.921142578125 6.282958984375
-29.92626953125 -63.652099609375 0.517578125
-36.41455078125 -13.6796875 6.5579833984375
-34.062255859375 -1.83544921875 6.4417724609375
-10.071044921875 -45.63916015625 5.5155029296875
-28.9580078125 -51.7763671875 28.2340087890625
-19.981689453125 -22.636962890625 3.5377197265625
4.37451171875 -27.311279296875 1.0828857421875
-27.9931640625 -51.388427734375 24.5079345703125
-27.885009765625 -58.447021484375 0.4486083984375
-5.2841796875 1.0712890625 7.17578125
-1.15673828125 -40.863037109375 18.379638671875
-37.25 -63.835693359375 32.2066650390625
-11.078369140625 -22.600830078125 1.53515625
-16.103515625 -48.164306640625 -0.081787109375
10.369873046875 6.069091796875 10.3125
-40.444091796875 -54.037109375 32.43017578125
-17.7509765625 -54.08544921875 -4.7376708984375
10.357177734375 1.925048828125 7.9267578125
-9.675537109375 -56.85400390625 -0.8250732421875
3.389404296875 -38.2109375 -1.740478515625
5.7119140625 1.50048828125 7.67041015625
13.76220703125 16.7451171875 3.5819091796875
-14.28759765625 -9.149169921875 4.097900390625
-3.154052734375 -16.090576171875 8.4847412109375
-27.553955078125 -60.669677734375 27.993408203125
-41.76025390625 -20.034423828125 10.8994140625
31.87646484375 11.581298828125 -3.2874755859375
-42.944091796875 -26.870361328125 4.2681884765625
0.86572265625 -15.2822265625 8.4439697265625
-26.8740234375 2.990234375 9.868896484375
-33.958740234375 -39.47509765625 -1.3309326171875
-27.28173828125 -52.7763671875 29.1844482421875
10.9443359375 -16.695068359375 9.7281494140625
18.024658203125 3.22265625 7.6983642578125
-33.2236328125 -50.880859375 28.8387451171875
-2.99658203125 -32.6923828125 2.5386962890625
-6.928955078125 -51.779296875 4.204345703125
-34.93408203125 -47.785888671875 31.939697265625
29.79736328125 9.8134765625 0.16552734375
-43.10009765625 -40.458984375 15.06103515625
-5.923583984375 -63.79638671875 -4.99853515625
-9.092041015625 -12.579345703125 5.9842529296875
33.095703125 21.2177734375 1.6778564453125
-12.880126953125 -33.81103515625 7.964111328125
13.59375 8.6474609375 9.358154296875
-7.76953125 -36.23583984375 10.77587890625
3.7587890625 -10.07763671875 4.6458740234375
19.981201171875 10.91943359375 4.0074462890625
-41.21337890625 -13.709716796875 7.6240234375
8.19921875 -15.83203125 9.7427978515625
-35.163818359375 -12.38916015625 5.2259521484375
34.494140625 19.552734375 0.6253662109375
-44.698974609375 -48.332275390625 27.54736328125
-1.504150390625 -36.97998046875 3.8795166015625
6.662841796875 -12.6767578125 6.125732421875
-26.826416015625 -52.776611328125 3.709228515625
-28.497314453125 -63.10791015625 -3.9228515625
-18.491943359375 -12.918701171875 5.64013671875
-24.4638671875 -25.950439453125 -0.5736083984375
30.6962890625 14.45068359375 0.2662353515625
-17.2021484375 -52.258056640625 -3.1932373046875
-42.230712890625 -23.063232421875 13.2880859375
6.973876953125 -23.425048828125 4.2705078125
-7.03369140625 3.9033203125 9.707275390625
20.54150390625 19.388427734375 -1.7105712890625
-33.7470703125 -44.41943359375 23.529541015625
8.42138671875 -25.298583984375 1.162353515625
-32.8603515625 -12.83349609375 5.6414794921875
-38.650634765625 -37.202392578125 1.28369140625
8.775390625 -13.627197265625 7.911865234375
-8.558349609375 -42.660400390625 8.44091796875
-26.338623046875 -20.64111328125 5.343017578125
-15.954345703125 -57.50341796875 -7.0089111328125
-16.985595703125 2.217529296875 9.20263671875
-25.110107421875 -54.41796875 -0.052001953125
13.807861328125 15.515625 1.510986328125
-16.78955078125 -33.65283203125 6.963623046875
-23.837890625 -22.604736328125 3.7275390625
-12.604248046875 -42.730712890625 5.9610595703125
16.732421875 9.120361328125 8.1171875
-15.818115234375 -35.8564453125 8.3028564453125
-38.753173828125 -65.154541015625 32.9945068359375
-19.827392578125 -36.288818359375 9.378173828125
-5.68603515625 -60.782958984375 -3.1611328125
-13.048828125 -5.027587890625 4.0517578125
-38.198486328125 0.541259765625 8.3616943359375
-29.367919921875 -61.7861328125 4.6800537109375
-6.893310546875 -7.095458984375 3.8521728515625
35.34716796875 13.685302734375 -1.725341796875
-40.015380859375 -50.795654296875 29.750244140625
-18.418701171875 -48.87255859375 -0.4765625
20.8193359375 4.623291015625 3.5986328125
-33.742919921875 -41.214599609375 25.0430908203125
8.723876953125 -22.943115234375 3.060302734375
-31.641357421875 -44.4384765625 23.2225341796875
-1.241943359375 -14.388671875 7.707275390625
-23.173095703125 -24.02783203125 0.6884765625
-10.4560546875 -59.419921875 -2.954345703125
-27.957275390625 -25.488525390625 -0.671630859375
-2.030517578125 -18.074951171875 6.6998291015625
-25.8896484375 -60.902099609375 -6.1014404296875
-35.4697265625 -60.69140625 26.8885498046875
-29.6318359375 -17.45458984375 7.2528076171875
-42.58251953125 -63.588134765625 35.0078125
-10.127685546875 -37.92919921875 11.556396484375
-32.6650390625 -60.422119140625 27.3570556640625
7.790771484375 -5.037109375 3.6712646484375
-28.564453125 -49.773193359375 13.862548828125
-38.1923828125 -3.0283203125 5.6197509765625
-5.047119140625 -34.0126953125 8.64111328125
18.078857421875 7.9423828125 4.80029296875
-7.339599609375 -21.193359375 4.409912109375
-22.937255859375 -57.53369140625 -4.907958984375
-26.216796875 -14.603759765625 7.1983642578125
-12.492919921875 -2.20263671875 5.6417236328125
0.6123046875 -29.459716796875 2.7640380859375
-0.161376953125 -33.313720703125 -0.4185791015625
-37.007568359375 -24.640625 0.44775390625
-30.500732421875 -23.305419921875 3.230224609375
-40.838623046875 -23.447021484375 6.9688720703125
-7.145263671875 -46.854736328125 8.4613037109375
-16.25048828125 -26.057373046875 -0.687744140625
-39.093994140625 -60.13818359375 33.5843505859375
-18.642333984375 -19.5400390625 6.134521484375
-21.85107421875 -59.2060546875 -7.8743896484375
28.21142578125 7.266845703125 0.65283203125
-22.0703125 3.423095703125 9.828125
6.9072265625 -20.30322265625 7.5303955078125
-20.362060546875 -48.719970703125 9.7764892578125
-35.021728515625 -32.682373046875 -0.3724365234375
-45.76513671875 -66.18701171875 33.12060546875
-1.625 -39.365234375 16.0670166015625
-11.8779296875 0.633056640625 7.3885498046875
-28.5087890625 -55.065185546875 6.2200927734375
-37.983154296875 -67.2822265625 29.7269287109375
-21.515869140625 -55.87451171875 -5.6527099609375
-39.015869140625 -30.076416015625 3.096435546875
-2.038818359375 -35.803466796875 9.378173828125
-12.414794921875 -27.4033203125 0.1375732421875
-31.470458984375 -11.15869140625 4.74072265625
-7.8798828125 -60.302001953125 -3.130859375
-29.910888671875 -7.88134765625 4.4072265625
-22.836181640625 -27.26025390625 0.277099609375
-11.193603515625 -54.166259765625 1.05859375
-40.810546875 0.131591796875 8.2415771484375
6.580078125 -47.246826171875 24.967529296875
-27.478759765625 -51.626953125 8.087890625
-38.611572265625 -67.552978515625 31.914306640625
-32.822021484375 -49.472412109375 27.4285888671875
-16.246826171875 -46.74462890625 1.9365234375
-38.178955078125 -15.43994140625 8.926025390625
-38.0556640625 -33.92919921875 0.6781005859375
18.84326171875 17.3115234375 -4.6004638671875
-3.125244140625 -35.02099609375 5.507568359375
21.55859375 13.87255859375 4.567138671875
2.81103515625 -5.859130859375 3.585693359375
-7.7314453125 -28.0283203125 1.973876953125
5.456787109375 -1.739990234375 4.7108154296875
-1.20068359375 -22.739990234375 1.85107421875
-29.1162109375 -57.676025390625 4.3544921875
-45.197509765625 -27.8193359375 6.4656982421875
-38.380859375 -51.099365234375 32.1046142578125
-26.3154296875 -42.746337890625 9.334228515625
-42.70166015625 -25.911376953125 13.01708984375
14.9140625 16.740234375 5.213623046875
-18.282470703125 -24.8388671875 -0.236572265625
-38.414306640625 -9.08740234375 4.6552734375
-26.427490234375 -56.158935546875 28.8997802734375
-29.86767578125 -22.221923828125 5.101318359375
-1.748291015625 -2.573974609375 4.6458740234375
-36.519287109375 -20.9775390625 5.888671875
-14.276123046875 -58.2294921875 -4.9044189453125
11.404541015625 18.3935546875 3.4462890625
-17.515869140625 -22.960693359375 1.909912109375
36.12548828125 11.57470703125 -1.124267578125
-43.463134765625 -52.399658203125 29.9053955078125
-19.48486328125 -57.7607421875 -7.225830078125
-12.347900390625 -57.02001953125 -2.0826416015625
-32.181640625 -9.48583984375 4.009765625
-13.5361328125 3.861083984375 10.2064208984375
-13.610107421875 -12.953125 5.737548828125
-14.369384765625 -39.6279296875 8.4678955078125
-39.437744140625 -62.9326171875 32.3458251953125
-38.062255859375 -21.580322265625 8.9730224609375
-13.721923828125 -44.6943359375 5.252197265625
-39.234375 -57.976318359375 33.2523193359375
14.23974609375 3.21728515625 7.4302978515625
-28.541015625 -15.864990234375 7.96435546875
-29.291259765625 -49.953857421875 19.443603515625
-29.7509765625 -3.007080078125 5.0947265625
-26.010498046875 -50.6337890625 9.8369140625
-28.720947265625 -56.45068359375 14.364013671875
-28.338134765625 -49.432861328125 10.733642578125
-30.264404296875 -57.790283203125 29.369140625
19.224853515625 17.295654296875 -2.7042236328125
-7.6689453125 -34.2919921875 7.62353515625
-43.182373046875 -47.994140625 24.01513671875
1.599853515625 -1.76171875 5.1973876953125
-33.845458984375 -48.85205078125 29.7578125
13.571044921875 12.63720703125 -1.2652587890625
-1.375244140625 0.675048828125 6.844482421875
-39.406005859375 -56.8994140625 31.3599853515625
-17.58154296875 -31.27783203125 13.35546875
-31.5166015625 -14.552978515625 6.9552001953125
-8.39501953125 -49.77099609375 5.0880126953125
-32.455078125 -39.140625 25.0284423828125
-33.463134765625 -29.5556640625 0.5819091796875
-34.464599609375 -67.037109375 26.938720703125
-26.379638671875 -24.7607421875 0.1614990234375
5.891845703125 5.618408203125 10.5003662109375
23.412353515625 5.516357421875 2.2169189453125
-41.080078125 -5.82421875 4.514404296875
-44.26123046875 -50.8408203125 27.4132080078125
-6.52197265625 -2.5888671875 4.992431640625
-10.795166015625 -31.048828125 4.2314453125
-11.36474609375 -40.607666015625 9.3424072265625
-21.9765625 -32.966796875 9.6663818359375
6.5234375 -16.680419921875 10.0645751953125
-13.501953125 -15.583984375 8.272216796875
-24.115966796875 -45.545166015625 8.0096435546875
-35.67236328125 -57.431884765625 27.79296875
-28.114013671875 -50.484130859375 16.4173583984375
-1.900390625 -23.00390625 5.697021484375
-34.166015625 -19.00732421875 6.5775146484375
-36.066650390625 -51.04296875 31.0174560546875
31.78076171875 22.8837890625 3.935791015625
-27.712646484375 -47.3232421875 10.120361328125
-6.984130859375 -24.64208984375 0.6243896484375
25.763427734375 8.9150390625 1.415771484375
-17.3837890625 -30.533203125 4.3006591796875
-41.638427734375 -66.40185546875 33.61669921875
2.118896484375 -30.48486328125 -0.1802978515625
20.3720703125 14.84619140625 -5.3341064453125
33.520263671875 10.28271484375 -0.7808837890625
3.062744140625 -12.658203125 6.1610107421875
0.1640625 -39.452392578125 -0.95703125
27.998779296875 16.07763671875 2.5283203125
-43.4501953125 -42.793212890625 17.919189453125
-40.007080078125 -58.757080078125 36.4146728515625
-29.0205078125 -59.83056640625 2.056396484375
-0.20166015625 -12.2080078125 5.8922119140625
-28.876708984375 -58.640625 8.743408203125
-31.26806640625 -47.90185546875 24.1715087890625
23.4384765625 7.61572265625 2.349365234375
-16.189208984375 -21.505615234375 4.36279296875
-2.684814453125 -11.33203125 5.31689453125
-18.478515625 -40.326171875 8.0654296875
-44.56787109375 -48.114501953125 29.40283203125
-35.192626953125 -16.681640625 8.763671875
28.943603515625 19.0341796875 3.6956787109375
-21.341552734375 -50.990966796875 8.1746826171875
-22.818359375 -54.650390625 -2.088134765625
-30.384033203125 -0.62890625 7.1280517578125
-29.841552734375 -42.97802734375 20.76123046875
4.69140625 3.146728515625 8.567626953125
-13.92822265625 1.027099609375 7.84912109375
-26.741943359375 -58.884033203125 30.488037109375
-9.806640625 -4.6357421875 4.453857421875
-9.220458984375 0.6396484375 7.3641357421875
-29.418701171875 -49.228271484375 24.33642578125
-38.3271484375 -17.20361328125 10.99951171875
2.004638671875 -4.206787109375 3.877685546875
-31.54150390625 -17.485107421875 8.0040283203125
-8.186279296875 -19.616943359375 5.7344970703125
-2.672119140625 -39.200439453125 14.5447998046875
-18.979736328125 -28.61962890625 1.2479248046875
-29.450439453125 -46.452392578125 13.9912109375
-5.53369140625 -8.75537109375 3.85009765625
-10.097412109375 -9.605712890625 4.643310546875
-12.286376953125 -44.881591796875 6.7127685546875
-44.39501953125 -45.509033203125 24.4542236328125
-10.39892578125 -2.189208984375 5.3250732421875
-16.185546875 -39.46240234375 7.1510009765625
-21.417724609375 -10.807373046875 4.921142578125
-3.4287109375 -5.851318359375 3.6561279296875
-35.83837890625 -28.7568359375 1.1800537109375
-16.815673828125 -5.86767578125 4.5396728515625
-25.010498046875 -15.89892578125 8.080322265625
-14.038818359375 -22.260009765625 3.027587890625
36.923828125 14.537109375 -1.3076171875
-11.76318359375 -24.184326171875 0.8289794921875
-9.643310546875 -34.830078125 9.432373046875
-22.140625 -13.763427734375 6.41796875
-24.481689453125 -41.992431640625 9.6090087890625
-18.216796875 -46.34814453125 2.5391845703125
-38.404052734375 -60.579345703125 30.1422119140625
-10.739013671875 -51.58935546875 3.5125732421875
-33.0029296875 -57.93798828125 27.8033447265625
31.576171875 9.4091796875 -0.0035400390625
18.763671875 10.106201171875 2.236083984375
-36.6962890625 -39.362060546875 -1.859619140625
-3.90478515625 -26.406982421875 1.6207275390625
-32.702880859375 -46.71826171875 25.2403564453125
15.9453125 6.181884765625 7.2408447265625
24.08056640625 11.817138671875 2.90673828125
-29.148193359375 -12.0107421875 5.1590576171875
9.673095703125 -18.38134765625 9.902587890625
1.5791015625 -23.9501953125 0.9456787109375
-9.991455078125 -39.5166015625 10.66796875
7.0546875 -45.31494140625 22.751220703125
-41.008544921875 -21.968017578125 9.1474609375
-2.257080078125 -42.1708984375 19.00927734375
4.02978515625 -23.191650390625 1.49560546875
-4.814697265625 -31.893798828125 8.1748046875
0.15966796875 -31.74267578125 0.4403076171875
-21.3994140625 -23.651123046875 0.806396484375
-39.870361328125 -48.31103515625 26.1688232421875
8.091064453125 3.9833984375 9.1358642578125
-35.57177734375 -36.2548828125 -0.90625
-16.85546875 -55.593994140625 -5.876220703125
-33.158203125 -63.976806640625 25.680419921875
2.217529296875 5.1826171875 10.37939453125
-8.185546875 -40.806396484375 10.66455078125
-32.228759765625 -28.8564453125 1.7083740234375
-36.925048828125 -63.20263671875 30.4801025390625
-36.41748046875 -33.83154296875 -0.7711181640625
-27.656005859375 -55.858642578125 2.440673828125
-32.97021484375 -33.9052734375 -0.6768798828125
-18.379150390625 -37.062744140625 8.48291015625
16.000732421875 3.68310546875 6.2059326171875
-45.30126953125 -51.22412109375 31.1343994140625
-24.99169921875 -59.1005859375 -4.7197265625
1.708740234375 1.90234375 7.8526611328125
28.419677734375 13.990234375 1.343017578125
-26.25537109375 -58.41552734375 -3.42919921875
-44.381591796875 -37.728515625 12.528564453125
-27.45263671875 -61.45654296875 -4.518798828125
-34.237548828125 -55.00244140625 28.2442626953125
-27.550537109375 -54.377685546875 14.0421142578125
-28.578125 -58.564453125 14.6790771484375
-22.614501953125 -7.48193359375 4.177490234375
-27.14697265625 -12.880615234375 5.875
1.4111328125 -20.16162109375 6.2362060546875
13.990234375 5.728515625 8.0162353515625
-18.8271484375 -33.7587890625 8.6090087890625
-9.4462890625 -25.3798828125 -0.063720703125
-19.733154296875 -48.558349609375 0.6925048828125
-29.335693359375 -55.744140625 19.0328369140625
-30.834716796875 -60.502197265625 27.51708984375
-1.210205078125 -30.24951171875 2.644775390625
-4.415283203125 -20.02783203125 5.1072998046875
-26.70263671875 -57.087890625 -1.01123046875
-27.489501953125 -21.7978515625 4.4898681640625
-7.1630859375 -16.478759765625 8.5220947265625
-30.145751953125 -24.329833984375 0.49609375
-27.086181640625 -51.783935546875 12.9732666015625
-15.227783203125 -0.177001953125 6.6861572265625
-9.66552734375 -58.4658203125 -4.264404296875
-37.14404296875 -54.305908203125 30.2554931640625
-22.74853515625 -43.1357421875 8.2733154296875
-5.53515625 -36.27783203125 10.759765625
-1.541015625 -5.45166015625 3.9268798828125
3.94677734375 -0.935302734375 5.464111328125
-42.738525390625 -25.209228515625 3.67724609375
6.85400390625 -30.70361328125 1.5194091796875
-25.768798828125 -22.951171875 3.1715087890625
33.07666015625 16.59326171875 -0.527099609375
8.53955078125 -48.42333984375 27.513916015625
4.517578125 -45.858642578125 24.4827880859375
-32.5888671875 -5.42041015625 4.272216796875
-44.513427734375 -64.946044921875 32.96142578125
-41.247314453125 -11.93603515625 4.9976806640625
-1.72021484375 2.712646484375 8.3253173828125
-5.309326171875 -37.380615234375 13.6337890625
-14.565673828125 -35.143310546875 9.3260498046875
-22.8427734375 -47.335693359375 9.0455322265625
-36.192138671875 -19.1796875 9.5260009765625
-4.12939453125 3.515869140625 9.087890625
-6.611328125 -26.3603515625 1.50830078125
13.801513671875 10.98681640625 -1.84228515625
2.7861328125 -15.3125 8.72802734375
-35.128662109375 -0.637451171875 7.1728515625
2.174072265625 -33.379150390625 -0.158203125
-32.213623046875 -62.60986328125 24.591552734375
-27.828369140625 -43.85302734375 12.468994140625
-6.805908203125 -39.29296875 11.9957275390625
-15.643310546875 -18.732177734375 5.9508056640625
-38.910888671875 -54.41552734375 31.65673828125
3.94921875 0.69384765625 6.6446533203125
7.693359375 -45.91943359375 24.327392578125
-7.787353515625 -29.84375 4.0413818359375
-30.64599609375 -42.667236328125 26.2947998046875
35.5126953125 18.324462890625 -2.2099609375
-3.556640625 -33.6767578125 4.466552734375
-9.046142578125 -7.09814453125 4.0234375
-31.294921875 -49.850830078125 26.6585693359375
-16.225341796875 -14.245361328125 6.95361328125
4.864990234375 -3.809326171875 4.2877197265625
-33.2958984375 -47.076416015625 28.8095703125
-9.968994140625 -33.3056640625 6.303466796875
-3.515869140625 -34.9140625 9.083740234375
3.67041015625 -48.29541015625 23.402099609375
-34.609619140625 -49.440185546875 31.482421875
-26.534423828125 -2.208984375 5.6385498046875
-31.3779296875 -54.3154296875 28.8704833984375
34.515380859375 16.19921875 -1.4364013671875
-24.072998046875 -20.272705078125 5.60888671875
-32.938720703125 -21.7705078125 4.9853515625
-32.50341796875 -55.458740234375 28.0968017578125
-25.49072265625 -52.315185546875 9.9937744140625
1.493896484375 -7.10498046875 3.6103515625
-30.84130859375 2.979248046875 9.752197265625
-24.586181640625 -4.22998046875 4.9033203125
31.49609375 6.468017578125 -0.277099609375
-19.47705078125 -43.599853515625 3.98876953125
-44.4140625 -46.599365234375 22.9368896484375
-26.417724609375 -9.93701171875 4.384765625
-6.51123046875 -21.93798828125 3.0828857421875
21.1689453125 3.404541015625 2.26025390625
-5.75341796875 -18.091064453125 7.4791259765625
-16.716552734375 -59.227294921875 -9.09326171875
-36.1650390625 -65.333251953125 27.2320556640625
0.517578125 -22.74853515625 1.6829833984375
