-42.50634765625 -53.178466796875 -60.502685546875
-68.400634765625 -46.52490234375 -57.263427734375
-21.27685546875 25.82080078125 -107.2724609375
25.1376953125 -19.0400390625 100.39697265625
30.774658203125 -6.709716796875 86.53857421875
-27.213134765625 35.1982421875 -106.832763671875
-87.4794921875 -45.53369140625 -47.851806640625
-43.9521484375 1.1171875 -100.537841796875
-102.281494140625 -44.34912109375 -52.79736328125
-53.040283203125 -1.765380859375 -92.84814453125
-104.9990234375 -62.7802734375 -40.80810546875
21.843505859375 -9.22021484375 -81.427490234375
-20.37890625 -54.48388671875 -34.601318359375
-117.0029296875 -48.377197265625 -47.477783203125
20.06298828125 -14.4658203125 33.6708984375
8.4384765625 -2.889892578125 -105.926513671875
33.02001953125 -12.4921875 102.9560546875
-25.58154296875 -38.952392578125 -46.826171875
-13.0625 45.9072265625 -108.389404296875
4.96875 -69.8330078125 -14.744384765625
2.496826171875 -20.763671875 -36.095703125
17.17138671875 -16.099365234375 92.51123046875
-44.5595703125 -58.331787109375 -44.192626953125
36.24951171875 -0.83056640625 -88.706298828125
-50.725341796875 -47.467529296875 -64.4345703125
-12.3076171875 28.801513671875 -108.175537109375
-9.748779296875 37.083740234375 -117.21240234375
-39.281005859375 21.786865234375 -106.54345703125
-65.257568359375 -59.384033203125 -43.088623046875
20.86865234375 -10.838134765625 19.438232421875
12.51611328125 -42.526611328125 -14.102783203125
-31.343994140625 12.90673828125 -93.579345703125
-50.236083984375 35.3896484375 -97.304443359375
-58.046142578125 13.2568359375 -100.65869140625
-26.342041015625 -32.471435546875 -54.25048828125
43.38427734375 4.239013671875 -104.25439453125
-75.475830078125 -38.732666015625 -58.16015625
-20.635986328125 20.048828125 -80.96484375
8.743896484375 -9.3955078125 -95.202880859375
-0.965087890625 -25.287353515625 -86.619384765625
24.3203125 -7.94091796875 67.0751953125
-36.833740234375 -19.6318359375 -77.074951171875
-17.755859375 29.46240234375 -92.784423828125
-74.61083984375 -54.437255859375 -44.12548828125
-0.533447265625 -60.93017578125 -24.738525390625
34.873779296875 -38.018310546875 -41.802978515625
35.84326171875 -26.462646484375 -49.25634765625
-26.50146484375 18.76171875 -105.67138671875
-35.65234375 -58.36279296875 -43.652099609375
15.033447265625 -23.98779296875 -10.861572265625
34.753662109375 -3.7763671875 30.27880859375
-42.652099609375 -5.06494140625 -93.582275390625
21.491455078125 -13.104736328125 74.23291015625
-49.392333984375 5.164794921875 -88.131103515625
38.216796875 -5.396240234375 -75.34912109375
-64.8359375 24.332763671875 -94.9921875
-97.650390625 -47.661376953125 -43.647705078125
-24.648193359375 -30.02978515625 -67.46923828125
-38.661865234375 -25.734619140625 -68.091796875
25.685302734375 -4.231689453125 -87.606201171875
-47.499755859375 -20.75146484375 -84.88720703125
5.89697265625 -32.580810546875 -73.517822265625
-6.302734375 -45.72802734375 -30.38623046875
-48.972412109375 -29.279296875 -74.222900390625
19.06689453125 -13.2421875 -10.2119140625
36.61328125 -7.59521484375 76.776611328125
-21.37939453125 58.788818359375 -116.446533203125
-58.08740234375 2.37939453125 -87.481201171875
-22.3720703125 43.535888671875 -108.5302734375
-14.38671875 -31.111083984375 -38.220458984375
-19.635986328125 -62.908203125 -40.20849609375
-15.45654296875 -29.052978515625 -53.24560546875
7.408935546875 -19.96533203125 -19.6611328125
-46.17333984375 34.420654296875 -116.684814453125
10.927490234375 -35.959228515625 -65.806640625
-68.626953125 -46.2861328125 -42.902587890625
-118.8408203125 -64.997314453125 -37.622802734375
-52.487060546875 12.601806640625 -91.146484375
29.621826171875 3.862060546875 21.016845703125
-5.955322265625 -42.473876953125 -84.083740234375
23.300048828125 -10.14013671875 86.747802734375
-16.953857421875 -38.733154296875 -39.753662109375
-47.78759765625 -44.602783203125 -46.109130859375
22.9072265625 -36.323974609375 -52.669921875
9.416748046875 -18.0791015625 -82.146728515625
-28.836669921875 51.370849609375 -114.656982421875
32.96044921875 5.71044921875 -113.978759765625
-44.70068359375 -8.20068359375 -80.505126953125
23.531494140625 0.480712890625 -102.1298828125
34.5986328125 2.013427734375 -98.2646484375
17.658203125 -21.606201171875 -70.072509765625
-7.362060546875 -31.155517578125 -30.967041015625
-34.87646484375 3.0166015625 -101.76708984375
23.531982421875 -12.86865234375 -73.510986328125
3.054931640625 -45.248779296875 -18.21875
-39.050048828125 46.427978515625 -115.089111328125
17.4873046875 -14.57421875 -24.611572265625
13.0908203125 -49.701416015625 -6.31201171875
-38.4599609375 -46.099365234375 -49.019287109375
11.13232421875 -66.49951171875 -7.610107421875
-55.568115234375 6.48486328125 -95.540771484375
19.700439453125 -4.335693359375 -92.790283203125
-13.495849609375 20.081298828125 -107.276123046875
34.343994140625 -7.453125 94.094482421875
-23.625244140625 -45.400146484375 -34.84326171875
26.056396484375 -6.968505859375 41.60400390625
-0.2158203125 -45.321533203125 -76.125
-0.666259765625 32.63427734375 -122.50634765625
-61.48388671875 -45.78076171875 -51.01904296875
-49.354248046875 -52.429931640625 -42.86181640625
34.122314453125 -6.265625 68.991943359375
41.87109375 -1.8515625 28.081298828125
-52.74658203125 26.983642578125 -97.995361328125
-12.327392578125 -71.10009765625 -27.226318359375
33.360595703125 -10.72265625 -7.7841796875
-103.059326171875 -53.425537109375 -41.600830078125
-47.823486328125 34.36962890625 -109.2763671875
19.305908203125 -25.88134765625 -64.0888671875
30.529296875 -17.25 -62.316162109375
-27.107177734375 -66.54736328125 -35.602783203125
-5.26708984375 26.257568359375 -110.038330078125
-4.190673828125 -24.018798828125 -42.7998046875
-43.496337890625 -15.302490234375 -78.670654296875
-22.5263671875 14.548583984375 -95.13427734375
23.2216796875 -12.2060546875 -18.595458984375
-51.832275390625 -55.546142578125 -66.0009765625
-7.446044921875 -63.356201171875 -23.850341796875
41.42041015625 -9.158935546875 42.2685546875
0.9013671875 -14.734375 -95.847412109375
-28.52880859375 22.716796875 -87.95849609375
29.052734375 -13.649169921875 108.9091796875
4.48876953125 -30.0673828125 -21.245361328125
10.5927734375 -23.796142578125 -74.855712890625
-60.0068359375 -53.535400390625 -63.849853515625
-15.82763671875 -44.42822265625 -34.517822265625
22.1552734375 -11.177490234375 27.65087890625
-37.182861328125 40.00439453125 -111.61474609375
-14.562744140625 56.72900390625 -112.5859375
-109.764404296875 -46.227294921875 -49.572998046875
-120.93017578125 -55.598876953125 -40.214599609375
-32.718994140625 19.07421875 -102.174560546875
41.7109375 2.18701171875 21.613525390625
-112.687255859375 -51.239013671875 -38.609130859375
-0.311279296875 -30.983642578125 -82.504150390625
16.281982421875 -21.20556640625 64.029052734375
-44.534423828125 1.9228515625 -92.08154296875
-34.215087890625 -45.556396484375 -42.59521484375
-22.550537109375 29.248779296875 -82.91064453125
-90.62890625 -49.033935546875 -42.680419921875
15.103271484375 -0.39111328125 -106.390869140625
-39.91748046875 -32.5751953125 -62.68798828125
-79.272216796875 -48.875 -46.32470703125
-13.643310546875 -61.981201171875 -32.69921875
-10.52490234375 -26.195068359375 -40.99462890625
-52.6181640625 -23.5498046875 -75.19775390625
24.778564453125 -24.853759765625 94.706787109375
39.3330078125 -14.8955078125 103.759521484375
-95.341064453125 -45.125244140625 -50.203125
-35.24658203125 -53.2802734375 -39.24755859375
-69.990478515625 -46.2705078125 -50.729736328125
-21.4560546875 21.0263671875 -88.262451171875
42.492919921875 -15.51318359375 -56.201416015625
36.128662109375 -11.41455078125 -65.906005859375
-32.675048828125 -64.53564453125 -38.604736328125
25.793701171875 -22.90478515625 -60.72412109375
13.163818359375 -10.62841796875 79.5615234375
30.779296875 -5.27783203125 36.4443359375
39.76806640625 -5.326416015625 65.1357421875
-8.788818359375 -69.8193359375 -21.854736328125
36.07763671875 -6.4228515625 51.5712890625
16.736328125 -31.60400390625 -62.232421875
-53.50439453125 -8.574951171875 -88.918212890625
-27.627197265625 -45.1328125 -40.802978515625
-43.889404296875 -35.751953125 -66.76611328125
10.518310546875 -16.5712890625 -24.26904296875
26.40234375 3.937744140625 -112.30517578125
-47.89697265625 -54.283447265625 -72.053466796875
21.937744140625 -7.186279296875 54.101806640625
-84.503662109375 -43.200927734375 -53.09814453125
21.20703125 -10.144287109375 11.625732421875
-36.148193359375 -35.307373046875 -58.258056640625
-49.633056640625 -62.194580078125 -43.44677734375
23.088623046875 -15.714111328125 95.33544921875
29.602783203125 -27.611083984375 -52.994384765625
-21.096435546875 32.1787109375 -106.88525390625
-44.621337890625 48.384765625 -118.004638671875
11.410888671875 -59.583740234375 -15.21435546875
43.057861328125 0.53515625 -89.18359375
26.1220703125 -1.263427734375 60.4287109375
-60.44384765625 -55.24072265625 -47.31640625
26.8466796875 -9.22412109375 -77.532958984375
-3.801025390625 -26.232421875 -29.16357421875
36.89453125 -32.20654296875 -44.2236328125
-34.813232421875 52.404052734375 -116.482421875
-39.6455078125 -5.73974609375 -84.712158203125
-5.470703125 -26.521240234375 -91.516845703125
16.19091796875 -9.71484375 61.57080078125
24.28466796875 -10.09912109375 -6.891845703125
-52.841552734375 33.6396484375 -102.744384765625
41.129638671875 -35.078125 -39.5390625
-10.0576171875 41.452392578125 -112.7236328125
24.49072265625 -8.423095703125 48.420654296875
-25.8671875 -51.1015625 -32.787353515625
-111.031494140625 -63.002685546875 -39.17822265625
-0.140380859375 -64.156494140625 -19.40625
-49.568359375 21.765869140625 -96.728271484375
-64.548095703125 6.849609375 -100.47607421875
-39.44482421875 13.7138671875 -103.171630859375
16.223876953125 -11.559326171875 -83.1552734375
36.5830078125 -2.78955078125 -82.36669921875
-84.34033203125 -58.96484375 -44.53466796875
-101.541015625 -57.810302734375 -45.68212890625
21.933837890625 -10.552001953125 38.720947265625
-10.34912109375 -58.62841796875 -26.77294921875
11.0 -13.57470703125 -86.0205078125
-35.722412109375 58.552001953125 -119.214111328125
-62.606201171875 18.855224609375 -93.33935546875
-48.15625 15.9609375 -93.910888671875
7.5966796875 -64.548583984375 -13.093994140625
-14.1708984375 2.487060546875 -90.483154296875
21.482421875 -11.08544921875 5.582763671875
-39.41064453125 6.5751953125 -104.457275390625
-32.970947265625 34.173583984375 -108.5810546875
36.94384765625 -6.404296875 36.658203125
-9.800537109375 33.605224609375 -112.221435546875
-113.936767578125 -46.583740234375 -42.55224609375
40.0712890625 -8.90234375 90.525634765625
27.969482421875 -14.597412109375 -67.48193359375
-89.178955078125 -54.922607421875 -42.650634765625
-38.5166015625 28.5146484375 -106.489501953125
-19.283203125 -48.9013671875 -32.453857421875
30.489501953125 -12.988525390625 97.524658203125
14.974853515625 -17.999267578125 -11.3232421875
-91.518798828125 -34.366455078125 29.619384765625
-44.0810546875 -26.47705078125 -70.484130859375
36.595458984375 -19.888427734375 -55.303466796875
-52.862548828125 -52.23779296875 -60.763671875
22.508544921875 -9.8603515625 80.869873046875
29.29541015625 -9.454345703125 -3.4931640625
11.299560546875 -21.27490234375 -14.629638671875
-22.6240234375 -41.244873046875 -39.770751953125
-4.071533203125 -36.420166015625 -84.23095703125
-80.169921875 -60.07373046875 -40.361328125
31.798095703125 -0.06640625 25.171630859375
-60.87109375 6.8828125 -92.77001953125
-24.84521484375 29.162109375 -103.512939453125
-14.014892578125 -27.34765625 -45.995361328125
8.378662109375 -5.7607421875 -100.815673828125
-26.454833984375 -30.068359375 -59.58349609375
-40.122314453125 -22.779052734375 -72.920654296875
12.09814453125 -44.17919921875 -8.481201171875
27.195556640625 -5.637451171875 26.029052734375
-46.1748046875 14.169677734375 -100.42333984375
-50.416748046875 38.475341796875 -112.5078125
-30.152587890625 21.4287109375 -95.85791015625
-15.42822265625 50.96533203125 -110.48193359375
-73.1708984375 -50.721923828125 -48.3701171875
31.193359375 -2.79345703125 -86.398681640625
39.336181640625 4.7646484375 -108.390869140625
-58.247314453125 25.25927734375 -95.297119140625
-31.216064453125 -44.930908203125 -53.132080078125
5.036865234375 -19.0556640625 -28.943115234375
25.05419921875 -7.017822265625 15.397216796875
-16.637451171875 22.052734375 -85.002197265625
-57.4375 -0.694580078125 83.2021484375
-24.2607421875 -33.612548828125 -48.62744140625
35.126953125 -7.2509765625 82.76416015625
18.2783203125 -21.5615234375 90.95654296875
-20.212158203125 9.212158203125 -94.105224609375
-50.65283203125 -18.227294921875 -76.214111328125
3.518310546875 -21.928466796875 -85.2822265625
-107.6845703125 -42.91552734375 -55.197998046875
37.632568359375 -7.89404296875 -70.169189453125
26.35791015625 2.382080078125 -106.725830078125
-7.511962890625 49.8076171875 -112.57080078125
-21.02734375 -30.2978515625 -53.104248046875
19.914306640625 -14.431640625 -4.661865234375
-27.344970703125 20.25537109375 -80.51220703125
10.0185546875 -32.15283203125 -20.021728515625
29.107421875 1.659423828125 -100.391357421875
26.843505859375 -14.443603515625 103.266357421875
-108.758544921875 -55.40966796875 -42.2548828125
28.07861328125 -9.611083984375 2.51220703125
-20.9345703125 38.1044921875 -106.2197265625
-30.922607421875 -28.433349609375 -66.482666015625
-40.333740234375 -54.765869140625 -43.05126953125
36.1904296875 -14.181884765625 98.583251953125
-44.720703125 -64.8828125 -42.8056640625
8.41162109375 -43.669189453125 -18.704833984375
-42.993408203125 38.727783203125 -112.92919921875
-62.20166015625 -77.06396484375 -46.407958984375
-19.648193359375 25.00341796875 -101.992431640625
20.117431640625 -14.60595703125 87.68994140625
-21.9287109375 -36.258056640625 -43.609130859375
32.6796875 -0.03662109375 -93.045654296875
42.273681640625 -11.67138671875 -62.45458984375
-8.48291015625 -47.611083984375 -25.64111328125
-52.046875 -8.581787109375 -83.56298828125
13.554443359375 -6.8701171875 -94.092529296875
32.789794921875 -7.078857421875 -76.0576171875
8.70849609375 -41.671142578125 -66.12939453125
-22.98095703125 -62.842041015625 -34.36376953125
26.69873046875 -32.368896484375 -52.22607421875
-5.469482421875 34.537109375 -119.5390625
30.7763671875 -5.613525390625 46.724609375
-40.84619140625 28.0546875 -111.441162109375
28.123291015625 -7.27685546875 70.978271484375
-47.171630859375 -22.4541015625 -78.9423828125
-52.648681640625 -53.19287109375 -47.162109375
-55.823486328125 14.908203125 -94.8115234375
40.09912109375 2.86181640625 -99.775146484375
35.86376953125 -1.63232421875 58.1171875
-45.965087890625 7.5810546875 -99.8408203125
1.220458984375 -19.1474609375 -90.615966796875
-40.44775390625 -56.464111328125 -72.072021484375
1.17822265625 -44.554443359375 -23.218505859375
21.638916015625 -1.4228515625 -97.480224609375
-104.49658203125 -47.016845703125 -48.698974609375
-31.1181640625 39.173095703125 -109.447509765625
41.197509765625 -24.012451171875 -47.60595703125
-16.87744140625 42.67138671875 -106.51904296875
-54.685546875 -16.672119140625 -80.99609375
27.823486328125 -7.034423828125 82.1142578125
-25.187744140625 15.443359375 -81.42919921875
-68.22021484375 -55.360595703125 -44.91552734375
-25.918701171875 46.380615234375 -111.289794921875
5.755126953125 -25.161376953125 -19.60791015625
3.150634765625 -38.228515625 -74.629150390625
41.356689453125 -6.5810546875 54.1142578125
12.619873046875 -39.46337890625 -61.87548828125
19.59765625 -7.5654296875 -86.731689453125
37.7216796875 1.2626953125 -93.838623046875
-107.47509765625 -50.799560546875 -39.22314453125
21.5400390625 -16.841064453125 -70.70458984375
-14.085205078125 25.934326171875 -94.08203125
-19.107177734375 30.351318359375 -86.8125
-118.20263671875 -60.405029296875 -41.640625
40.964111328125 -9.84912109375 74.922607421875
-2.096923828125 -22.39404296875 -38.0146484375
-75.167236328125 -44.8310546875 -56.230224609375
-33.29248046875 47.9365234375 -114.229248046875
-11.255859375 -45.061767578125 -32.063720703125
-13.048583984375 -63.24560546875 -27.66455078125
37.994384765625 -7.125732421875 46.491943359375
22.584716796875 -10.97314453125 91.845947265625
-21.653564453125 -42.186767578125 -44.802001953125
-24.66650390625 18.064697265625 -91.101318359375
-31.655029296875 -33.592529296875 -56.2646484375
-54.366943359375 38.510009765625 -96.776123046875
19.013427734375 -12.80322265625 -15.383056640625
-0.331787109375 -49.2333984375 -18.52880859375
-85.219482421875 -49.345458984375 -44.26708984375
-56.721435546875 1.464599609375 -95.9599609375
-28.890380859375 -37.500244140625 -50.509033203125
-7.068115234375 31.31982421875 -108.489990234375
42.154052734375 -6.05517578125 -71.807373046875
-19.61669921875 27.093994140625 -97.291015625
-18.479248046875 46.768798828125 -109.44091796875
2.317138671875 -44.65478515625 -71.700927734375
-60.594970703125 1.017822265625 -91.7578125
-12.0048828125 25.004150390625 -104.7392578125
3.58056640625 -30.83203125 -77.745849609375
38.03369140625 5.539306640625 -114.59130859375
-29.914306640625 30.745849609375 -105.9814453125
-10.897705078125 -28.3857421875 -35.693603515625
-46.7998046875 35.7734375 -90.594482421875
-48.06689453125 -51.00048828125 -61.90673828125
0.89404296875 -21.256103515625 -30.862548828125
-53.73486328125 -66.32958984375 27.558837890625
-25.73388671875 55.30029296875 -115.231689453125
8.197509765625 -12.22705078125 -91.076416015625
-2.45361328125 -42.051025390625 -79.837646484375
-59.795654296875 -61.1650390625 -42.761474609375
23.866943359375 -8.12548828125 23.1982421875
28.240234375 -6.968994140625 91.651123046875
2.21435546875 -69.039306640625 -18.8720703125
-54.350830078125 -63.30908203125 -42.14404296875
29.714111328125 -4.94921875 66.826904296875
7.13720703125 -44.968505859375 -14.029541015625
-39.90966796875 -60.246826171875 -41.82568359375
-0.3896484375 -5.22802734375 107.4736328125
-55.287109375 -11.02099609375 -79.97607421875
-79.3828125 -41.15478515625 -56.2421875
35.4755859375 -6.93505859375 88.154052734375
20.166259765625 -7.551513671875 64.376953125
-55.353271484375 -2.022216796875 -87.33056640625
25.709228515625 -17.20703125 114.340087890625
39.363037109375 -5.50341796875 30.915283203125
-98.14697265625 -52.821533203125 -41.2568359375
18.49560546875 -12.792236328125 -78.92431640625
-50.84423828125 -13.237060546875 -84.72900390625
-82.168701171875 -46.1865234375 -49.9189453125
-15.472900390625 5.64990234375 -94.22412109375
-63.134765625 10.03173828125 -95.828125
9.77880859375 -30.5947265625 -71.070556640625
-46.10498046875 -48.5419921875 -42.830322265625
-19.80029296875 17.46923828125 -85.297119140625
7.56298828125 -27.54931640625 -75.803466796875
20.70849609375 -34.630615234375 -56.720458984375
0.56787109375 -28.7783203125 -24.177001953125
-45.971435546875 -16.118408203125 -84.44580078125
-36.567138671875 -29.983642578125 -65.1474609375
-35.20751953125 23.290283203125 -104.263671875
-90.169921875 -44.19091796875 -51.707763671875
19.486328125 -16.260986328125 28.786376953125
-2.94873046875 -44.508056640625 -27.08251953125
-32.9140625 -22.495849609375 -76.859375
-50.946533203125 -44.85986328125 -49.787353515625
-23.869140625 24.62158203125 -82.2841796875
19.404541015625 -14.474609375 16.58154296875
-15.785888671875 31.843994140625 -109.64501953125
6.598876953125 -19.435791015625 -33.880615234375
3.25634765625 -59.2001953125 -22.337158203125
-101.6865234375 -48.494140625 -41.17333984375
-10.19482421875 22.46337890625 -110.063232421875
14.01416015625 -20.4541015625 -74.447998046875
34.36865234375 4.5732421875 20.995361328125
15.065673828125 -16.039794921875 63.504638671875
-14.12451171875 40.44970703125 -110.39453125
-26.892333984375 23.45068359375 -104.78662109375
40.92626953125 -9.1337890625 79.7314453125
-5.021728515625 -35.29736328125 -30.465576171875
-32.399658203125 8.672607421875 -95.52197265625
-16.418701171875 27.7109375 -106.00537109375
18.8583984375 -0.57666015625 -102.64892578125
1.872314453125 -26.652587890625 -82.5009765625
-37.198974609375 -40.248046875 -58.9296875
4.515380859375 -6.591064453125 -103.516845703125
32.24169921875 -6.6259765625 74.2646484375
34.66943359375 -23.345947265625 -52.657470703125
23.137451171875 -9.124755859375 34.23046875
-49.267333984375 -18.67138671875 -81.00244140625
7.64306640625 -35.393798828125 -70.122802734375
-60.706298828125 -49.396484375 -48.060791015625
-108.26123046875 -60.16748046875 -43.010986328125
-37.066162109375 -48.420654296875 -39.766845703125
-30.24267578125 13.343017578125 -98.13427734375
-27.830322265625 -27.650390625 -69.982666015625
-65.94384765625 -45.54833984375 -53.3779296875
-72.131103515625 -58.15625 -42.69921875
-17.919677734375 -62.399169921875 -34.97265625
-36.2314453125 -16.1767578125 -80.179443359375
-49.172607421875 -57.631103515625 -44.34130859375
-8.595947265625 38.170654296875 -123.80126953125
18.788330078125 -13.40380859375 24.566650390625
36.9462890625 -1.894775390625 62.647705078125
22.482421875 -26.23779296875 -60.3173828125
-10.90478515625 50.02880859375 -108.72705078125
-0.8203125 29.120849609375 -119.446044921875
37.876708984375 -39.433837890625 -38.23876953125
19.681396484375 -15.3994140625 38.209716796875
40.27685546875 -0.712646484375 -85.464599609375
-39.707763671875 2.42138671875 -102.408935546875
-55.621337890625 31.309326171875 -99.859375
-48.144775390625 9.85107421875 -90.830322265625
-2.8525390625 -59.916015625 -28.6826171875
13.2509765625 -16.134521484375 -80.441162109375
12.270263671875 -61.797607421875 -9.4794921875
-42.439208984375 -4.014404296875 -98.078369140625
-5.39111328125 -71.222412109375 -24.823486328125
-3.123779296875 26.46728515625 -114.125244140625
20.5869140625 -21.00244140625 94.90869140625
3.54541015625 -64.036865234375 -16.211669921875
-2.828369140625 -22.85009765625 -33.39306640625
15.654052734375 -41.926513671875 -10.301025390625
-78.844482421875 -55.48681640625 -42.713623046875
13.35302734375 -24.787353515625 -71.139404296875
33.115966796875 -18.89794921875 -58.92236328125
-116.53271484375 -53.686279296875 -38.985595703125
-22.7822265625 -68.01904296875 -30.558837890625
-56.857666015625 11.262939453125 -91.223876953125
-43.41552734375 -25.5771484375 -74.90283203125
-42.375732421875 -45.398193359375 -46.80029296875
-54.45458984375 -20.50341796875 -83.44677734375
-19.057861328125 27.082275390625 -80.953125
-16.799072265625 -52.388427734375 -30.91015625
-98.825927734375 -47.9775390625 -48.030517578125
26.078857421875 -5.922607421875 -83.402099609375
24.117919921875 -4.278076171875 64.387939453125
-53.20556640625 -50.310302734375 -66.95166015625
26.097900390625 -35.7119140625 -49.225830078125
-4.172607421875 -30.069091796875 -87.39892578125
31.375244140625 -1.235595703125 58.353271484375
26.6669921875 -4.52294921875 55.221435546875
30.562744140625 3.7353515625 -109.390380859375
23.906494140625 -9.6923828125 72.55859375
-45.900634765625 5.113525390625 -95.85986328125
-43.82763671875 -31.54296875 -60.71728515625
12.220947265625 -3.4267578125 -101.885009765625
-55.946533203125 -4.158935546875 -95.291259765625
-20.1904296875 55.190673828125 -113.597900390625
21.467529296875 -12.12890625 68.41650390625
-56.912841796875 6.790771484375 -90.695556640625
-9.616455078125 45.65966796875 -111.282470703125
17.819091796875 -11.7607421875 9.230712890625
34.937255859375 0.289306640625 28.4921875
-34.150390625 -26.523193359375 -68.865478515625
20.50341796875 -16.148193359375 70.08544921875
3.4365234375 -11.368408203125 -97.203857421875
32.054443359375 -13.175537109375 -66.551513671875
38.390625 -28.174072265625 -46.077880859375
-35.015869140625 43.7744140625 -112.80517578125
-10.07958984375 -67.177001953125 -25.144287109375
9.6328125 -48.53125 -9.23388671875
-13.941162109375 -36.899658203125 -37.035888671875
33.329833984375 -13.08544921875 110.174072265625
2.907470703125 -48.568603515625 -15.337158203125
-49.274658203125 -25.26416015625 -72.454833984375
8.31640625 -21.77490234375 -79.51025390625
-3.91357421875 -65.801513671875 -20.93701171875
-31.51025390625 -60.33349609375 -41.4013671875
-26.861572265625 39.814208984375 -108.592041015625
24.694580078125 -19.774169921875 95.8447265625
22.893310546875 -11.42138671875 -13.87353515625
32.3876953125 -4.29443359375 26.175048828125
-57.181396484375 -45.004638671875 -51.216064453125
17.16748046875 -17.779541015625 -7.29541015625
-35.484619140625 -22.7763671875 -73.333251953125
40.55810546875 -3.167236328125 -78.290771484375
-31.8662109375 -0.08447265625 -101.20263671875
36.484375 -14.22900390625 106.989990234375
10.00830078125 -69.1552734375 -10.8642578125
-110.390625 -40.117919921875 -57.134521484375
28.4296875 -9.920166015625 -8.47021484375
-51.07421875 -48.590576171875 -46.31005859375
-55.937744140625 -54.2890625 -65.385009765625
-25.65087890625 -45.787109375 -44.599609375
-46.761474609375 -29.820068359375 -69.8623046875
-43.185546875 0.13525390625 -95.78662109375
-93.16455078125 -29.776611328125 30.46142578125
-3.129638671875 -17.916748046875 -96.950439453125
18.47705078125 -13.35546875 -20.590576171875
24.8271484375 -2.517333984375 -92.749755859375
4.14501953125 -22.317138671875 -22.419677734375
-17.952880859375 -34.5712890625 -40.2197265625
-37.07861328125 -0.585693359375 -100.81103515625
11.0234375 -17.989501953125 -17.387451171875
32.628173828125 -6.105224609375 79.46337890625
-1.50927734375 -13.99853515625 -99.3251953125
-59.800537109375 14.304443359375 -96.316162109375
-52.0634765625 17.04443359375 -92.502197265625
31.84912109375 -36.592529296875 -45.392578125
26.7734375 -15.10986328125 97.750732421875
30.678466796875 -8.981689453125 96.028076171875
40.631103515625 -13.065673828125 91.35009765625
35.205322265625 4.546142578125 -110.18701171875
3.231689453125 -33.990234375 -24.422607421875
-88.669189453125 -45.5498046875 -56.617919921875
27.449462890625 -25.93701171875 -56.2666015625
21.242431640625 -13.1591796875 83.239501953125
13.011962890625 -16.587890625 -27.821044921875
29.428466796875 -1.678955078125 -90.857666015625
-16.5859375 27.821044921875 -101.144775390625
-46.889892578125 1.9072265625 -87.0556640625
40.334716796875 -8.672119140625 37.780029296875
-50.520751953125 -17.0927734375 -86.401123046875
-21.77685546875 -30.9697265625 -64.530517578125
35.56787109375 -5.1513671875 -78.61181640625
-114.922607421875 -45.454833984375 -49.680908203125
-62.11376953125 28.182861328125 -96.103271484375
-40.818603515625 -7.8525390625 -96.145263671875
-56.400390625 0.701416015625 -91.826171875
-27.44482421875 -46.04638671875 -36.71337890625
34.16064453125 -11.494384765625 96.083740234375
-41.749267578125 -18.212646484375 -76.208251953125
-6.131591796875 21.760986328125 -110.814208984375
-40.3798828125 -9.446044921875 -82.90185546875
21.22119140625 -14.49755859375 0.260498046875
-45.224609375 -53.072021484375 -42.669921875
-55.166259765625 -4.96044921875 -91.18896484375
29.998291015625 -5.58837890625 41.706298828125
11.594482421875 -32.132080078125 -67.467529296875
-23.59228515625 -61.0869140625 -39.61328125
-47.68017578125 24.212890625 -99.53271484375
26.013427734375 -7.050048828125 36.42431640625
-53.096435546875 -20.24462890625 -79.516357421875
-44.067626953125 -4.914306640625 -82.976318359375
-2.647216796875 -29.47119140625 -26.831787109375
38.049072265625 -6.904052734375 41.1533203125
-28.915771484375 -29.40478515625 -62.8544921875
38.189208984375 -23.136962890625 -50.484619140625
-5.75390625 32.738525390625 -112.337158203125
35.781005859375 -11.61865234375 -3.878173828125
-23.23095703125 28.61328125 -78.7744140625
-14.924072265625 27.85693359375 -88.0302734375
37.899658203125 3.869384765625 -104.63037109375
6.3798828125 -8.64501953125 -98.6533203125
37.39697265625 -7.519287109375 71.1552734375
-12.22216796875 37.601806640625 -112.681884765625
-56.235107421875 35.96533203125 -102.6796875
24.922607421875 -8.055908203125 6.4814453125
-56.580322265625 -53.78173828125 -48.211181640625
-8.027587890625 -27.53173828125 -32.77978515625
-34.5322265625 7.094970703125 -103.00048828125
-69.346435546875 -49.65234375 -45.134765625
-21.447021484375 22.5029296875 -104.865478515625
34.80517578125 -29.89453125 -47.2734375
-14.345703125 -28.36767578125 -42.045654296875
-33.77490234375 29.929443359375 -107.0517578125
-15.772705078125 23.565185546875 -104.093505859375
-30.9384765625 23.654541015625 -91.119384765625
-13.84716796875 -69.442138671875 -23.825439453125
-30.85888671875 55.08447265625 -116.464599609375
-9.359130859375 26.942138671875 -110.267822265625
-117.372802734375 -46.52294921875 -40.390625
-93.940185546875 -52.497802734375 -42.08935546875
-42.6318359375 33.405517578125 -112.294677734375
34.18115234375 -15.130859375 -62.8193359375
-16.143798828125 19.6513671875 -88.2265625
-94.138427734375 -47.609375 -45.658935546875
-37.583984375 -45.327880859375 -44.82373046875
13.96044921875 -26.60986328125 -13.748779296875
-24.1865234375 -55.534423828125 -35.4638671875
27.0205078125 -12.33154296875 -16.2841796875
-42.125732421875 43.400634765625 -114.55859375
-20.224853515625 -46.01416015625 -37.683349609375
37.65234375 -4.455810546875 54.714599609375
-55.798828125 14.995849609375 -90.143798828125
-32.728759765625 -46.9775390625 -39.068115234375
-2.328125 -22.808349609375 -90.63916015625
34.593017578125 -4.298828125 65.51416015625
-121.326904296875 -61.963623046875 -38.48388671875
-15.372314453125 -67.02294921875 -31.079833984375
-54.00830078125 10.05224609375 -93.848388671875
41.23583984375 1.2294921875 25.588623046875
-41.651611328125 -28.205322265625 -67.06201171875
-41.982421875 -3.0205078125 -88.4248046875
-75.20751953125 -47.431640625 -49.545166015625
-57.114013671875 17.76416015625 -97.31591796875
-56.69580078125 -69.033203125 27.649169921875
-60.505859375 21.962158203125 -94.96728515625
15.455322265625 -46.686767578125 -5.173095703125
-110.02685546875 -47.08056640625 -41.4033203125
-43.42529296875 -67.718505859375 -40.30859375
-46.97216796875 36.494384765625 -112.874267578125
-3.218505859375 -45.95703125 -79.755126953125
-91.8466796875 -45.7021484375 -48.386962890625
32.3583984375 2.757080078125 -102.654541015625
-41.931396484375 -46.70458984375 -50.868408203125
-36.053466796875 -47.677001953125 -51.767333984375
10.750732421875 -6.159423828125 -97.648681640625
31.525390625 -5.927978515625 31.149169921875
18.813720703125 -16.434326171875 -73.655029296875
26.835693359375 -19.751953125 -63.182861328125
-112.59130859375 -47.953857421875 -47.39013671875
-42.808837890625 -11.792236328125 -80.8203125
-24.7529296875 49.960205078125 -112.895263671875
6.574951171875 -17.8818359375 -85.5244140625
-25.483154296875 58.8818359375 -116.908447265625
-66.65087890625 -47.433349609375 -48.944091796875
-104.3818359375 -59.54052734375 -43.4912109375
-29.39599609375 -42.24365234375 -50.866455078125
-36.07373046875 36.26611328125 -109.86865234375
-22.587890625 -29.968994140625 -56.7255859375
0.53466796875 -41.43798828125 -76.2197265625
-33.266845703125 -45.2158203125 -48.99609375
-16.994384765625 -29.16357421875 -48.029296875
-46.6513671875 -43.975341796875 -49.8291015625
16.4716796875 -22.208984375 -7.656494140625
-36.75146484375 -63.058837890625 -39.2177734375
2.88232421875 -34.563720703125 -76.70361328125
-29.69140625 21.735595703125 -102.62744140625
-39.49951171875 58.3408203125 -120.248046875
-113.7333984375 -65.63818359375 -38.126708984375
19.1044921875 -19.500732421875 66.13623046875
-48.36328125 -65.150146484375 -41.106201171875
20.92822265625 -14.4873046875 92.25146484375
4.812255859375 -13.80810546875 -92.212646484375
-54.233154296875 24.300537109375 -95.580322265625
17.287353515625 -6.86865234375 -91.060791015625
-77.868408203125 -51.7265625 -43.076904296875
-37.4130859375 55.1396484375 -118.37451171875
-47.763427734375 -55.80322265625 -68.468505859375
11.73779296875 -19.039306640625 -78.343994140625
-5.01953125 36.273681640625 -123.00927734375
20.498779296875 -29.65478515625 -59.88427734375
17.50048828125 -12.684326171875 79.669921875
-102.63134765625 -47.510498046875 -45.33544921875
17.85546875 -3.631103515625 -96.2431640625
23.1142578125 -28.345703125 94.710693359375
27.196044921875 -11.739501953125 -72.228759765625
16.150146484375 -24.597412109375 -68.1455078125
-38.654541015625 51.38330078125 -117.117431640625
15.107666015625 -36.165283203125 -61.75048828125
40.496826171875 -15.32080078125 95.3583984375
23.237548828125 -9.109619140625 43.134033203125
-30.231689453125 -31.229736328125 -59.158935546875
-44.16796875 -55.49951171875 -71.830078125
-61.102783203125 -73.152099609375 -45.223876953125
-51.54150390625 35.427001953125 -105.897216796875
26.472900390625 -6.934814453125 45.430908203125
-54.345703125 -5.4521484375 -82.283447265625
24.738525390625 -8.981689453125 77.447509765625
-80.475830078125 -44.063232421875 -53.98388671875
30.901123046875 0.83740234375 -97.100830078125
-114.302001953125 -61.370361328125 -40.3427734375
-70.74072265625 -45.046875 -54.61865234375
-65.45068359375 20.685302734375 -95.970458984375
20.407470703125 -21.640625 -67.415771484375
-60.4541015625 -57.6728515625 -44.368896484375
-59.155517578125 -2.331787109375 -87.3515625
16.82080078125 -12.61572265625 64.083740234375
-22.145263671875 47.05615234375 -110.390380859375
15.951416015625 -28.863525390625 -64.73388671875
34.655029296875 -5.756103515625 33.509033203125
-60.154296875 -54.990966796875 -68.26416015625
-11.775390625 -34.068359375 -34.5234375
-45.88232421875 4.83251953125 -90.0703125
-76.86669921875 -58.660888671875 -42.1318359375
0.50341796875 -33.7939453125 -79.927490234375
-11.93798828125 -27.0 -50.02099609375
33.610595703125 -8.545166015625 -72.426025390625
-40.556396484375 10.06298828125 -105.95556640625
-6.284423828125 -24.234375 -39.42431640625
21.223876953125 1.003662109375 -105.128662109375
5.961669921875 -21.32958984375 -82.424560546875
39.47021484375 0.449462890625 -90.599609375
38.051025390625 -16.9716796875 -57.195556640625
13.893310546875 -32.893798828125 -64.34326171875
38.967529296875 -16.188720703125 100.239990234375
-95.7373046875 -44.315673828125 -53.859619140625
8.432373046875 -38.280517578125 -67.744873046875
24.354736328125 -10.484619140625 3.138671875
-6.227783203125 34.48291015625 -115.85302734375
-106.980712890625 -44.614501953125 -51.91650390625
24.75830078125 -15.891357421875 -68.946533203125
-63.630615234375 -55.936767578125 -45.368408203125
31.751220703125 -29.13818359375 -50.321533203125
16.418701171875 -14.744384765625 -12.490234375
15.065673828125 -19.647705078125 90.730224609375
-7.885498046875 -61.4091796875 -27.230224609375
-51.483642578125 -6.048095703125 -90.800048828125
23.506591796875 -8.781982421875 30.177490234375
11.932861328125 -16.014404296875 -20.423828125
4.767578125 -44.488525390625 -21.4482421875
6.962646484375 -18.75048828125 -23.156494140625
-39.706787109375 -51.041748046875 -40.382080078125
-36.427734375 19.24560546875 -102.328857421875
38.28466796875 -12.325439453125 -63.0224609375
2.968505859375 -26.7646484375 -21.9951171875
-86.766845703125 -52.1845703125 -41.97119140625
25.95751953125 -5.828369140625 20.39990234375
-29.594970703125 -62.499267578125 -37.30908203125
25.942138671875 -29.4521484375 -54.382080078125
17.7490234375 -17.36572265625 88.395263671875
29.924072265625 -20.690673828125 -59.476806640625
41.7080078125 -31.63525390625 -40.758056640625
-56.662353515625 -8.731201171875 -82.531494140625
-29.131591796875 47.321044921875 -112.85693359375
-56.369140625 27.701171875 -98.093017578125
22.024169921875 -11.16796875 48.588134765625
28.3349609375 -2.455078125 64.460205078125
-25.815185546875 -62.12939453125 -36.602294921875
-43.348388671875 -61.5146484375 -42.169921875
-30.27685546875 17.226318359375 -104.215087890625
9.9453125 -27.39697265625 -72.88037109375
-28.454345703125 -52.153564453125 -35.822509765625
20.992431640625 -11.591064453125 31.5888671875
-36.755126953125 9.46630859375 -104.69189453125
-23.39599609375 22.07763671875 -84.875732421875
-20.4052734375 -31.21728515625 -48.86083984375
-50.818603515625 36.56103515625 -109.4189453125
-24.53564453125 33.351806640625 -105.16748046875
23.092529296875 -22.770263671875 -63.17919921875
-59.025390625 18.568603515625 -94.320068359375
-1.91552734375 32.55322265625 -118.924560546875
34.210693359375 -5.835205078125 48.507080078125
-6.213623046875 -25.42529296875 -45.74462890625
-112.098876953125 -54.369384765625 -40.351806640625
22.557373046875 -11.9306640625 -3.871826171875
38.941650390625 -9.207275390625 93.951171875
-13.79345703125 34.47509765625 -111.131103515625
29.171875 2.417236328125 25.018310546875
-19.5341796875 -40.533203125 -42.39453125
34.838623046875 -1.892333984375 -85.3955078125
-8.20263671875 -35.284423828125 -32.168212890625
22.22900390625 -11.048095703125 -78.34423828125
23.027587890625 -2.944580078125 61.1865234375
-54.446533203125 -56.480712890625 -47.010986328125
-29.213623046875 -34.34814453125 -53.183349609375
-42.941650390625 -32.5810546875 -65.3759765625
-4.250244140625 -32.448486328125 -28.034912109375
-50.492431640625 -53.595703125 -69.673583984375
-5.526123046875 -69.384033203125 -20.42822265625
37.97607421875 -1.5849609375 28.82421875
-24.771240234375 -43.253173828125 -41.878662109375
19.078857421875 -9.394775390625 -83.69775390625
-46.064697265625 16.249755859375 -96.80029296875
-46.654296875 -23.5791015625 -82.298583984375
-81.569580078125 -50.775146484375 -43.604736328125
21.6630859375 -10.048095703125 15.171875
27.256103515625 -14.47705078125 112.62548828125
-28.6611328125 20.15234375 -98.845458984375
-24.14501953125 -66.058837890625 -33.328857421875
11.78564453125 -1.746826171875 -105.4326171875
-19.174560546875 28.92822265625 -107.90771484375
-47.77001953125 32.837890625 -96.989990234375
40.26220703125 -3.020263671875 62.045166015625
22.44140625 -5.201904296875 -88.6669921875
-26.4794921875 -42.069091796875 -48.854736328125
37.610107421875 -35.781982421875 -41.538818359375
-17.56884765625 53.2666015625 -112.11669921875
-4.183349609375 -62.589599609375 -22.70458984375
-110.42822265625 -44.41796875 -52.687255859375
-122.531982421875 -58.737060546875 -40.53515625
-51.516845703125 39.274658203125 -92.1904296875
-89.793701171875 -47.1904296875 -45.57470703125
-52.15869140625 -59.442138671875 -43.84619140625
-121.019775390625 -52.511474609375 -38.512939453125
-46.411376953125 6.24951171875 -103.0732421875
38.06103515625 -7.286376953125 80.609130859375
30.44970703125 -10.9345703125 -11.166015625
-45.069580078125 -32.7021484375 -68.1748046875
-18.592041015625 23.608642578125 -82.527587890625
19.6005859375 -11.018310546875 65.527099609375
-11.462646484375 55.2705078125 -111.096435546875
18.723388671875 -17.718017578125 81.920166015625
26.0107421875 -9.412109375 -2.2685546875
-40.2373046875 -35.98583984375 -61.950927734375
19.61767578125 -37.95458984375 -56.802978515625
27.44970703125 -7.729248046875 86.892333984375
-81.21875 -45.97607421875 -46.4521484375
19.5830078125 -18.700439453125 92.48388671875
-43.510009765625 0.446044921875 -89.08984375
-97.232177734375 -58.58935546875 -44.876220703125
13.66162109375 -17.644287109375 -14.53515625
38.88427734375 -9.254150390625 -67.21533203125
9.853271484375 -44.4921875 -11.127685546875
11.0947265625 -10.29345703125 -91.15234375
1.830322265625 -16.18603515625 -92.8203125
36.46875 2.880615234375 -101.063232421875
-53.903564453125 -5.709716796875 -86.996337890625
32.290283203125 -12.741943359375 106.34130859375
23.828857421875 -7.99267578125 18.71728515625
-39.943359375 -58.426513671875 -44.77734375
-24.24755859375 37.4365234375 -106.985595703125
34.88134765625 -9.808837890625 -69.296875
-18.26806640625 2.640869140625 -89.7939453125
-49.5654296875 32.10009765625 -105.14599609375
25.068115234375 -8.344482421875 -80.55419921875
17.460205078125 0.83349609375 -108.59521484375
9.530517578125 -17.228515625 -27.5078125
-10.35107421875 37.4091796875 -120.593017578125
29.029541015625 -13.55810546875 100.591064453125
-99.30419921875 -45.101806640625 -51.240234375
-10.959716796875 -49.216796875 -27.889404296875
-29.28857421875 -46.047119140625 -43.67431640625
43.485595703125 4.834228515625 -110.53125
14.5166015625 -14.955810546875 -22.421142578125
-27.46337890625 23.669921875 -80.82080078125
24.709716796875 -12.6943359375 95.46533203125
21.683349609375 -11.711181640625 -8.6103515625
9.43603515625 -64.551025390625 -10.20166015625
-63.1796875 -53.31298828125 -48.811279296875
40.57861328125 -18.953125 -53.5673828125
-56.714111328125 -61.801513671875 -44.14990234375
41.260009765625 -14.17919921875 -59.1044921875
-89.906494140625 -51.42041015625 -45.018798828125
-36.498291015625 48.69873046875 -115.177001953125
25.52490234375 -9.104248046875 83.561767578125
26.799560546875 1.623046875 -103.427001953125
39.27001953125 -8.08544921875 67.08154296875
-81.580078125 -57.829833984375 -42.883056640625
-51.56982421875 -26.779052734375 -74.910888671875
-10.628173828125 -62.956787109375 -24.9814453125
-46.343505859375 10.346435546875 -102.464111328125
-1.368408203125 -23.1298828125 -29.15869140625
30.09619140625 -7.143798828125 -78.124755859375
-115.8173828125 -48.177490234375 -37.865966796875
-47.390869140625 -17.92919921875 -87.400390625
13.328125 -14.044677734375 -83.10546875
31.121826171875 -6.995361328125 82.87451171875
5.1943359375 -36.414306640625 -72.63330078125
-2.81103515625 -32.139892578125 -84.466796875
28.4326171875 -4.8701171875 29.08056640625
29.6162109375 3.043212890625 -106.1181640625
-39.319580078125 -14.99072265625 -79.489501953125
-46.57177734375 -60.626220703125 -42.74267578125
27.65771484375 -3.99462890625 22.953857421875
-16.8134765625 -30.649658203125 -42.3564453125
-54.173095703125 -53.1376953125 -68.5068359375
21.230712890625 -13.21337890625 -75.9462890625
39.0322265625 3.998046875 22.552734375
-5.16552734375 -45.765869140625 -24.48388671875
-0.67333984375 -17.64990234375 -94.525634765625
-24.46240234375 25.595458984375 -106.21484375
-6.25439453125 -39.48388671875 -85.59326171875
8.593994140625 -14.289306640625 -88.25732421875
-22.8798828125 -52.286865234375 -34.138916015625
-115.973388671875 -56.226318359375 -41.476806640625
-23.937255859375 20.07080078125 -103.94873046875
-22.923095703125 -30.70751953125 -61.017822265625
-3.821533203125 -40.24365234375 -82.308349609375
19.800048828125 -16.94482421875 -2.4462890625
-69.9208984375 -52.837158203125 -46.318359375
2.715087890625 -62.0615234375 -18.786865234375
-60.203125 15.695556640625 -93.064453125
34.19677734375 -33.60205078125 -45.629638671875
42.26708984375 -4.250732421875 -75.627197265625
-50.7236328125 -29.92431640625 -76.998291015625
-14.017822265625 27.369384765625 -103.500732421875
-33.819580078125 -36.72314453125 -56.09912109375
8.015869140625 -24.59228515625 -17.21484375
-17.43505859375 -29.158447265625 -55.935546875
-72.8017578125 -51.635009765625 -44.15185546875
-11.987060546875 -60.53369140625 -29.28955078125
-45.08251953125 -46.150146484375 -44.92333984375
-56.1298828125 -52.19677734375 -60.149658203125
-42.481201171875 -37.54345703125 -64.348388671875
24.294189453125 -8.262451171875 26.992919921875
-35.93408203125 26.46142578125 -106.126708984375
-106.524658203125 -57.179443359375 -44.412353515625
43.2587890625 2.701904296875 -98.786376953125
17.29833984375 -19.377685546875 -72.498779296875
34.252685546875 -5.63525390625 38.748291015625
-51.489990234375 -64.387451171875 -40.324462890625
-36.92919921875 -31.211181640625 -62.093505859375
-40.34130859375 36.953857421875 -112.0517578125
-39.899169921875 41.507080078125 -113.007080078125
-40.909423828125 -27.60302734375 -70.2216796875
-47.968017578125 19.015625 -95.86474609375
-0.5751953125 -46.113525390625 -19.565673828125
33.07861328125 -1.13232421875 -89.552978515625
41.357177734375 -9.454345703125 46.2529296875
-23.66650390625 20.45556640625 -79.739990234375
-46.247314453125 7.310791015625 -92.208984375
-8.626220703125 44.663818359375 -117.01220703125
-47.07568359375 40.136474609375 -113.7333984375
-111.01123046875 -47.065673828125 -44.541748046875
-18.166259765625 57.732421875 -114.094970703125
33.22119140625 -26.028564453125 -51.1884765625
23.0458984375 -33.396484375 -54.77001953125
31.8359375 -7.298583984375 91.981201171875
-50.3974609375 -21.1416015625 -74.7255859375
29.75 -8.716552734375 -0.329833984375
29.18603515625 -36.504638671875 -47.780517578125
-27.6220703125 42.4970703125 -110.318115234375
-70.923095703125 -48.346435546875 -48.14013671875
-50.768798828125 7.098388671875 -90.391357421875
-32.801513671875 8.409912109375 -100.5478515625
-24.11669921875 14.94677734375 -91.92822265625
6.288818359375 -30.30126953125 -18.5234375
-44.876220703125 4.528564453125 -99.438720703125
-46.58251953125 -55.174560546875 -44.767578125
38.680419921875 2.0390625 -96.86181640625
27.6650390625 -6.566162109375 48.446044921875
18.934814453125 -33.50341796875 -59.208984375
-19.121337890625 34.7138671875 -108.542236328125
-33.94384765625 -50.6103515625 -37.916259765625
-49.021240234375 38.117919921875 -88.448486328125
-22.419921875 25.21728515625 -95.49560546875
-11.549072265625 43.242919921875 -109.47265625
-44.71142578125 45.970947265625 -115.8310546875
-104.267578125 -51.201904296875 -39.53955078125
-10.368408203125 30.8984375 -109.72216796875
24.9072265625 -0.024658203125 -99.232177734375
33.644287109375 -0.74853515625 60.888916015625
41.62255859375 -7.814453125 30.642578125
10.724853515625 -39.36083984375 -65.080322265625
37.387451171875 -11.735107421875 95.946533203125
-51.77685546875 20.112548828125 -93.497314453125
29.750244140625 -3.548583984375 55.389404296875
16.424560546875 -5.21142578125 -93.704833984375
3.649658203125 -19.283203125 -87.14404296875
-47.533935546875 -1.115478515625 -85.041748046875
-33.611572265625 -28.735107421875 -64.707275390625
29.426025390625 -13.042724609375 104.86572265625
-26.87255859375 13.7490234375 -83.609619140625
28.028564453125 -23.086669921875 -58.396240234375
-28.284912109375 27.480712890625 -104.217529296875
15.018310546875 -59.261962890625 -11.79833984375
-53.746337890625 41.51806640625 -90.201171875
-39.47314453125 30.2294921875 -109.1552734375
31.218505859375 -3.99951171875 23.190185546875
-5.106689453125 -61.4091796875 -25.612060546875
-17.788330078125 38.596435546875 -107.7177734375
0.990234375 -45.71533203125 -26.207763671875
37.7265625 -6.845703125 33.580322265625
-16.326904296875 -47.21337890625 -30.785888671875
-50.92138671875 -9.28955078125 -90.673583984375
-34.087158203125 55.414306640625 -117.30029296875
-34.435546875 -45.235595703125 -46.014892578125
19.43603515625 -12.77099609375 12.084228515625
30.17578125 -15.2568359375 -65.01025390625
11.524658203125 -24.554931640625 -14.0244140625
18.725830078125 -28.51708984375 -62.37744140625
24.510498046875 -8.79296875 90.531494140625
-23.471435546875 -49.1669921875 -33.823486328125
-12.5283203125 -46.2373046875 -28.515380859375
-20.239501953125 41.40283203125 -107.508056640625
-21.186279296875 35.004150390625 -105.42431640625
-87.536865234375 -43.65380859375 -53.939697265625
-11.5859375 -26.259765625 -44.2578125
-27.538818359375 -48.406005859375 -34.58740234375
28.4111328125 -5.764404296875 34.38623046875
-24.964599609375 -43.673828125 -37.146484375
33.401611328125 -3.700439453125 -82.46875
-54.19140625 -13.994384765625 -79.36962890625
-72.939208984375 -42.576904296875 -56.13623046875
21.9072265625 -7.44189453125 -84.5673828125
13.609375 -4.802734375 -97.76220703125
35.37939453125 -5.711669921875 45.008056640625
-115.1337890625 -67.4208984375 -35.91748046875
21.01904296875 -12.05908203125 35.48974609375
2.75537109375 -28.398681640625 -80.0166015625
38.676513671875 -8.399658203125 87.733154296875
30.4775390625 -8.6591796875 -74.59130859375
-27.9951171875 20.771728515625 -90.392578125
30.615234375 -24.9638671875 -54.577392578125
-49.56005859375 14.175048828125 -91.723388671875
-86.587646484375 -56.712646484375 -42.5185546875
3.590576171875 -19.81640625 -31.634521484375
-15.1162109375 48.3681640625 -108.72998046875
30.82421875 -13.76220703125 111.953125
40.7626953125 5.204345703125 -112.06103515625
16.1015625 -14.464111328125 -80.091064453125
-63.464111328125 -48.197265625 -48.970947265625
18.229736328125 -7.314208984375 60.98876953125
-83.897216796875 -51.44384765625 -46.189453125
