-52.45361328125 -57.02294921875 -18.1171875
-54.224609375 -54.604248046875 -24.11328125
40.181640625 58.9052734375 37.103515625
-46.839111328125 -55.521728515625 14.448974609375
-74.653564453125 -48.269775390625 -4.094970703125
-11.989990234375 -8.55322265625 26.923828125
-35.148681640625 -40.773193359375 19.373779296875
11.508056640625 19.61181640625 33.00927734375
-57.8447265625 -32.805908203125 19.902099609375
-56.99072265625 -58.68505859375 13.2470703125
-54.862548828125 -55.192626953125 -19.898681640625
-34.4267578125 -36.0966796875 20.311279296875
-54.826416015625 -60.127197265625 7.382080078125
-44.1884765625 -38.331787109375 19.5185546875
-57.33935546875 -55.626953125 15.60888671875
-62.677734375 -52.349365234375 -14.9697265625
-76.449951171875 -40.581787109375 17.55712890625
-70.840576171875 -51.75146484375 3.248291015625
-41.233154296875 -42.185302734375 18.848876953125
-69.638916015625 -48.2900390625 -15.743896484375
-59.073486328125 -47.44140625 16.936279296875
-51.82568359375 -33.236083984375 20.113525390625
-75.198486328125 -46.638671875 -10.501220703125
-48.94140625 -61.292236328125 -7.694091796875
-38.905517578125 -38.59423828125 19.544921875
-46.342041015625 -61.021484375 -14.520263671875
46.897705078125 59.11474609375 34.06103515625
14.577392578125 16.1689453125 32.985595703125
-46.91552734375 -41.806396484375 18.539794921875
33.844482421875 64.078857421875 34.2802734375
-75.97802734375 -44.679443359375 -17.82275390625
-56.593994140625 -56.79833984375 -6.347900390625
-15.36376953125 -11.620361328125 26.10302734375
34.689697265625 59.850341796875 36.812744140625
-36.74853515625 -31.06396484375 21.297119140625
-49.341064453125 -62.57861328125 -0.215087890625
-41.742919921875 -33.576904296875 20.677001953125
4.659423828125 11.60986328125 31.344970703125
25.010009765625 63.48876953125 36.056884765625
-57.4619140625 -58.582763671875 2.226806640625
-57.96484375 -57.56005859375 -0.73583984375
-77.321533203125 -49.64599609375 9.636962890625
-30.831298828125 -38.463134765625 19.840576171875
-65.246337890625 -54.920166015625 4.244873046875
-55.653076171875 -56.92333984375 -10.74365234375
51.01806640625 57.3896484375 33.90625
-56.739013671875 -43.3154296875 17.749267578125
-71.896240234375 -45.162841796875 -25.474609375
-78.372314453125 -47.5029296875 2.218505859375
-53.885498046875 -59.775146484375 -1.49853515625
-62.124267578125 -35.347900390625 19.20556640625
-77.39599609375 -43.97607421875 16.9345703125
-71.071044921875 -48.727294921875 -10.954833984375
-67.580322265625 -47.16064453125 -26.904052734375
-41.68017578125 -48.044677734375 17.8203125
6.3095703125 6.415771484375 30.795166015625
-48.346923828125 -60.7890625 -11.3662109375
-64.614013671875 -42.705810546875 17.78125
-78.383544921875 -46.37060546875 -3.33837890625
-46.4091796875 -45.826171875 17.910400390625
-78.421875 -43.607421875 -13.56103515625
7.837158203125 12.842529296875 31.535400390625
-49.418701171875 -55.362060546875 14.064208984375
-27.504150390625 -21.61328125 23.40234375
-50.0546875 -61.2548828125 3.654541015625
-0.560546875 8.482421875 30.41552734375
-16.962158203125 -8.235107421875 24.864990234375
-62.424072265625 -57.25439453125 8.352783203125
-71.191162109375 -50.508056640625 -1.824462890625
-51.004638671875 -43.031005859375 18.1982421875
-29.86669921875 -26.87548828125 22.18310546875
-57.58349609375 -27.459228515625 21.131591796875
-56.12353515625 -58.34912109375 -2.36083984375
-65.821533203125 -53.950439453125 1.74560546875
-25.1494140625 -13.631591796875 23.13623046875
-75.072265625 -35.671142578125 16.422607421875
-67.767333984375 -41.706298828125 17.742919921875
-52.24658203125 -59.79248046875 -5.743896484375
-71.838134765625 -47.3662109375 -14.8037109375
-66.724609375 -34.7060546875 19.32421875
-76.026123046875 -50.4775390625 14.141845703125
-32.767578125 -33.0849609375 21.02734375
-61.873046875 -57.27783203125 13.30615234375
-62.857421875 -49.84814453125 -27.83203125
-52.71044921875 -38.601806640625 19.092041015625
-26.2470703125 -17.830322265625 23.29248046875
-81.177734375 -45.94775390625 9.445556640625
-63.455078125 -53.66064453125 -5.658203125
31.845947265625 60.810302734375 37.293212890625
-71.529296875 -53.039794921875 12.197021484375
-79.45751953125 -47.6298828125 5.0302734375
-61.454345703125 -51.582275390625 16.18359375
1.84912109375 4.030517578125 29.9404296875
-10.8916015625 -17.16357421875 24.939697265625
-36.81591796875 -35.199462890625 20.400390625
-4.893310546875 -0.459228515625 28.52783203125
-24.888671875 -32.704345703125 21.398193359375
40.989990234375 66.6845703125 31.0830078125
-54.865966796875 -60.157470703125 2.201171875
-42.816162109375 -52.970947265625 16.384033203125
-71.462890625 -40.755859375 17.904052734375
-41.760498046875 -36.631591796875 19.899658203125
35.176513671875 57.79345703125 38.97412109375
19.29150390625 17.04638671875 32.90234375
-65.173095703125 -50.1181640625 16.2099609375
-19.73974609375 -23.481201171875 23.667236328125
31.54443359375 64.96875 34.18115234375
-52.80615234375 -58.819091796875 -9.94580078125
-64.984375 -50.973876953125 -15.37939453125
-48.678466796875 -58.113037109375 6.222900390625
-51.012451171875 -28.39697265625 21.340087890625
-46.726318359375 -57.8583984375 9.094482421875
-19.155517578125 -16.126220703125 24.961669921875
-23.161376953125 -18.70947265625 24.2802734375
-36.051025390625 -54.216552734375 -28.38037109375
-51.33740234375 -56.524658203125 -23.313720703125
-49.36572265625 -59.239990234375 -16.464599609375
-70.473876953125 -29.720458984375 19.90625
-33.440185546875 -38.25048828125 19.776123046875
-53.0751953125 -60.031982421875 5.5400390625
-70.2216796875 -53.225341796875 8.648681640625
2.686279296875 0.3837890625 29.27197265625
-59.322021484375 -35.217529296875 19.459228515625
-75.817626953125 -42.7783203125 -26.008544921875
-79.388427734375 -45.271728515625 -5.73974609375
-77.14208984375 -42.6298828125 -22.2109375
-46.350341796875 -33.737548828125 20.13720703125
-64.890869140625 -49.7900390625 -22.03125
-61.66162109375 -51.870361328125 -19.24462890625
-33.75341796875 -27.8203125 21.55517578125
-13.43798828125 -6.638427734375 26.860595703125
-18.863037109375 -19.5546875 24.491943359375
-77.079833984375 -42.661865234375 -18.921142578125
-47.76416015625 -59.326416015625 -19.128173828125
28.5771484375 61.98583984375 36.90283203125
-73.3916015625 -48.522705078125 -6.09326171875
-66.808837890625 -52.33447265625 -3.2392578125
-73.9033203125 -32.518310546875 17.478271484375
-62.91357421875 -53.11181640625 -10.5205078125
38.4951171875 64.85888671875 33.004638671875
-53.14306640625 -51.37548828125 16.52099609375
-45.865234375 -58.677490234375 -23.4375
-66.432373046875 -51.42626953125 -7.726806640625
-66.02294921875 -28.4384765625 20.490966796875
-45.73681640625 -55.04443359375 12.336669921875
-60.318603515625 -40.17041015625 18.410400390625
-54.375244140625 -49.85009765625 -7.391845703125
-72.89990234375 -47.97900390625 -9.70068359375
-73.302001953125 -51.17724609375 6.72412109375
-64.20654296875 -54.4072265625 -0.295654296875
8.40869140625 8.319091796875 31.107177734375
-29.38330078125 -34.647216796875 20.8193359375
-56.82568359375 -52.05029296875 -9.46533203125
-11.302734375 -3.0419921875 26.6513671875
-57.043212890625 -52.447509765625 16.148681640625
-57.491943359375 -38.53125 19.013671875
-1.58251953125 2.55908203125 29.487060546875
-38.001953125 -33.22119140625 20.636474609375
-51.104736328125 -58.793701171875 -13.472900390625
-41.264404296875 -30.08056640625 21.6083984375
-75.5439453125 -50.922119140625 10.58837890625
-52.09033203125 -60.625244140625 -2.684814453125
-69.5830078125 -45.40673828125 17.077392578125
-59.3720703125 -54.322509765625 -13.50146484375
-74.892578125 -46.281494140625 -13.183349609375
-49.291259765625 -56.219970703125 11.879150390625
-76.586669921875 -46.524658203125 -7.987060546875
-73.3408203125 -50.87744140625 14.5107421875
-60.852783203125 -58.26513671875 9.7021484375
-44.0029296875 -40.672119140625 18.90185546875
-79.7578125 -44.244384765625 -1.52783203125
-60.266357421875 -42.61181640625 17.906494140625
-75.51416015625 -49.799072265625 5.493896484375
-4.727294921875 1.8828125 29.21337890625
-67.6015625 -55.2333984375 12.294921875
-72.848876953125 -44.558349609375 17.1376953125
-67.52099609375 -47.652587890625 -24.66259765625
-11.276123046875 -14.3271484375 26.032958984375
34.030029296875 62.313720703125 36.934326171875
-59.347412109375 -50.147705078125 16.634521484375
-59.978271484375 -56.43896484375 -0.77099609375
-78.459716796875 -48.87841796875 14.102783203125
-66.183349609375 -52.00537109375 14.36328125
-81.539794921875 -46.864501953125 11.8193359375
-54.996826171875 -36.701416015625 19.288330078125
-77.01708984375 -44.742919921875 -14.936767578125
-69.32080078125 -52.8193359375 5.03271484375
-58.144287109375 -52.62109375 -24.944580078125
51.22216796875 58.164794921875 36.064208984375
-74.7353515625 -42.69189453125 -28.56396484375
-78.45751953125 -41.920166015625 -3.172607421875
-43.737548828125 -49.36962890625 17.25439453125
-58.80419921875 -59.3232421875 9.31591796875
-65.819091796875 -51.3046875 -11.258056640625
-11.347412109375 -10.653076171875 26.411376953125
-66.414306640625 -55.058837890625 7.881103515625
-54.556884765625 -58.413818359375 -6.160888671875
-48.779541015625 -29.883056640625 21.050048828125
-67.954833984375 -54.549560546875 9.449462890625
-57.228759765625 -56.865234375 -8.537109375
-69.440185546875 -46.955810546875 -22.899658203125
-62.5927734375 -31.746826171875 19.926513671875
-52.99462890625 -44.35107421875 18.022705078125
-59.622802734375 -54.771728515625 14.93896484375
-73.61279296875 -45.967041015625 -17.474365234375
-61.717041015625 -52.984130859375 -13.064453125
-55.72509765625 -57.5 -4.403564453125
-72.127197265625 -34.380859375 19.019287109375
39.411376953125 62.595458984375 33.72119140625
-64.239501953125 -56.515625 12.3125
-61.79443359375 -56.13916015625 0.995361328125
-55.84228515625 -40.995849609375 18.385009765625
-64.350830078125 -56.58740234375 9.216064453125
-71.96435546875 -44.66650390625 -27.713623046875
-61.403564453125 -46.634765625 17.07666015625
-50.5126953125 -62.141357421875 1.6796875
3.468017578125 9.397705078125 30.863037109375
-15.082763671875 -16.682373046875 25.183837890625
-53.656005859375 -55.724609375 15.58935546875
-15.0322265625 -6.4599609375 25.141845703125
-70.644287109375 -37.970458984375 18.3916015625
-14.85888671875 -14.35791015625 25.376708984375
-69.733154296875 -33.5654296875 19.1845703125
-57.643310546875 -53.701904296875 -20.585693359375
-56.886474609375 -47.4072265625 16.99658203125
-72.976806640625 -30.602783203125 18.199462890625
-50.03466796875 -61.73828125 -2.259521484375
12.87109375 14.616943359375 32.45263671875
-8.950927734375 -3.619873046875 27.844482421875
-42.710693359375 -44.501953125 18.356689453125
-60.590576171875 -51.87109375 -21.323486328125
7.122802734375 2.726806640625 29.255859375
-61.837890625 -50.97900390625 -23.648193359375
-51.096435546875 -57.306884765625 -20.2080078125
-54.359375 -34.5908203125 19.69140625
-59.53662109375 -31.363525390625 20.03662109375
-29.639892578125 -30.27783203125 21.782958984375
27.473876953125 59.6328125 38.1103515625
-61.27880859375 -52.542724609375 -17.090576171875
-74.759521484375 -36.939697265625 18.271728515625
-17.123046875 -23.756103515625 23.384033203125
-33.52099609375 -42.34228515625 18.888671875
-74.999267578125 -47.08154296875 15.882080078125
-77.489990234375 -45.328857421875 -10.07421875
-49.7236328125 -60.51708984375 -9.709716796875
11.27392578125 9.23583984375 31.453125
-75.630859375 -42.767578125 17.149169921875
-68.144287109375 -52.12744140625 -0.80615234375
-65.888671875 -31.35888671875 19.683349609375
-64.89306640625 -45.438720703125 17.0947265625
-80.4990234375 -45.435546875 14.532470703125
-7.737548828125 -10.616943359375 26.655517578125
-1.031982421875 4.719970703125 29.691650390625
-19.82861328125 -11.944091796875 24.514892578125
-7.632080078125 -13.19384765625 25.5595703125
-66.87451171875 -54.48193359375 5.879638671875
46.8662109375 57.817626953125 35.745361328125
-68.858642578125 -51.565673828125 14.75048828125
-48.938232421875 -39.646728515625 18.980712890625
-77.4541015625 -47.56640625 0.3115234375
-72.427490234375 -47.553955078125 14.3623046875
-68.985595703125 -49.767578125 -10.986083984375
-20.629150390625 -25.833740234375 22.872314453125
-34.313232421875 -54.2177734375 -26.051025390625
-69.19189453125 -49.454833984375 16.18994140625
-72.29541015625 -36.55517578125 18.52392578125
-62.551025390625 -56.86767578125 6.291015625
-64.556396484375 -52.67626953125 -7.198486328125
-45.764892578125 -53.60498046875 16.33251953125
-49.546630859375 -32.637451171875 20.435791015625
-46.411865234375 -61.55908203125 -12.24560546875
-53.4794921875 -47.263671875 17.425537109375
-48.9990234375 -41.700927734375 18.37548828125
-23.38427734375 -23.10009765625 23.396240234375
-36.6640625 -43.11572265625 18.875244140625
-79.0732421875 -43.198974609375 2.676025390625
-70.22021484375 -27.42822265625 20.361328125
-56.015625 -30.561279296875 20.29345703125
-1.835205078125 -3.6875 28.02880859375
-48.267822265625 -62.1513671875 -4.3935546875
-32.2255859375 -31.0654296875 21.548583984375
-59.43310546875 -53.351318359375 -17.5234375
-21.621826171875 -16.25390625 24.87353515625
-47.2958984375 -55.92529296875 10.71484375
-80.02001953125 -44.58740234375 1.475341796875
-4.76708984375 -10.101318359375 26.54443359375
-44.47265625 -33.02734375 20.567138671875
-79.578125 -43.086669921875 15.845458984375
-30.508056640625 -24.8701171875 22.67236328125
-53.543212890625 -58.03662109375 13.464111328125
-74.087158203125 -44.794921875 -21.825927734375
42.775390625 59.54296875 35.42333984375
-66.816650390625 -48.706298828125 16.342529296875
-58.971923828125 -54.969482421875 -10.971435546875
-65.372314453125 -50.301513671875 -17.52197265625
-38.327880859375 -54.158935546875 -26.660888671875
32.027099609375 59.095458984375 38.527099609375
-1.6591796875 -6.7841796875 27.4375
-53.60400390625 -60.497314453125 0.650390625
-39.9931640625 -49.51708984375 17.2919921875
-61.1259765625 -50.8017578125 -26.08447265625
-27.0029296875 -26.877685546875 22.560791015625
-55.340576171875 -51.399169921875 16.462158203125
-63.64453125 -50.680419921875 -19.71630859375
-14.876220703125 -19.661865234375 24.615966796875
-17.9580078125 -13.447265625 25.619384765625
-50.73193359375 -57.97216796875 6.088134765625
3.035888671875 2.349365234375 29.580322265625
-66.8056640625 -46.23974609375 16.786865234375
-63.85546875 -54.250244140625 14.6416015625
-53.086181640625 -27.794189453125 21.420166015625
-79.482421875 -48.82763671875 12.10009765625
-58.021484375 -53.028076171875 -22.758056640625
-53.172607421875 -31.448486328125 20.4443359375
-48.874267578125 -57.833984375 -24.23876953125
-53.548583984375 -57.00830078125 -16.043701171875
-9.338134765625 -6.682373046875 27.4189453125
-39.427734375 -43.569580078125 18.66259765625
-70.915283203125 -49.669677734375 -6.23193359375
-5.69873046875 -6.63037109375 27.668701171875
38.361328125 59.05078125 36.10302734375
-57.525390625 -45.52783203125 17.454833984375
-50.58544921875 -60.773681640625 -6.44091796875
-70.273193359375 -50.595947265625 -4.145263671875
-78.970458984375 -46.45166015625 15.4873046875
-80.03857421875 -47.776611328125 8.045654296875
-63.50830078125 -49.0703125 16.521240234375
-54.299072265625 -55.177490234375 -22.208984375
-80.68212890625 -45.842041015625 5.294189453125
-78.7978515625 -43.111572265625 -8.30224609375
-69.307861328125 -50.115966796875 -8.3056640625
-74.9970703125 -39.171630859375 17.829345703125
-13.632568359375 -10.046142578125 26.486328125
1.7666015625 8.3935546875 30.680419921875
-53.366943359375 -58.825927734375 -7.6884765625
-53.521728515625 -40.3515625 18.648681640625
-45.138916015625 -62.404052734375 -10.78955078125
-21.927734375 -13.866943359375 23.931640625
-73.988037109375 -49.7265625 0.5458984375
47.894775390625 60.6904296875 33.029541015625
-46.172119140625 -43.628173828125 18.414794921875
8.655517578125 6.31689453125 30.62841796875
-60.4873046875 -54.8818359375 -7.981689453125
-67.1494140625 -48.8974609375 -20.21337890625
-23.467041015625 -28.36083984375 22.302978515625
-66.850830078125 -49.15576171875 -18.171630859375
-45.524658203125 -29.92041015625 21.259765625
-45.654296875 -61.41650390625 -16.306884765625
-70.29150390625 -45.6484375 -26.7783203125
-69.75341796875 -53.349853515625 13.24658203125
-29.919677734375 -20.66943359375 22.214599609375
-54.922607421875 -59.733154296875 10.08154296875
-48.61865234375 -58.594970703125 -20.720947265625
-67.72021484375 -53.249267578125 1.8056640625
-52.42724609375 -53.172607421875 16.01513671875
-63.718505859375 -55.9697265625 4.829833984375
-31.43603515625 -23.622314453125 21.379150390625
-72.3212890625 -51.192626953125 4.397216796875
-67.95654296875 -49.24658203125 -14.419921875
-57.496826171875 -56.112548828125 -10.3232421875
-55.5224609375 -51.3828125 -7.702880859375
-57.741455078125 -59.829345703125 11.875
-55.712890625 -28.746337890625 20.8984375
-18.330322265625 -6.79931640625 24.8974609375
11.530517578125 11.1513671875 31.38720703125
35.22998046875 65.45556640625 33.19482421875
-75.375244140625 -46.90234375 13.998046875
38.324462890625 66.624755859375 31.2646484375
-69.636474609375 -31.448974609375 19.733154296875
-70.4208984375 -51.298095703125 -0.244873046875
-77.179931640625 -45.666259765625 13.849853515625
10.41162109375 15.2001953125 32.081298828125
-26.411865234375 -29.956298828125 21.955810546875
-39.714111328125 -46.803466796875 18.046630859375
-19.723876953125 -21.37646484375 23.95556640625
-63.885498046875 -49.843994140625 -23.657958984375
46.841796875 59.640625 36.32470703125
-61.249267578125 -53.33740234375 15.453857421875
-67.089111328125 -39.06884765625 18.32861328125
-74.081787109375 -51.47607421875 9.4609375
-50.820556640625 -34.833984375 19.83837890625
-57.490966796875 -57.2080078125 14.552734375
49.373291015625 58.33154296875 34.104736328125
-62.63720703125 -28.73681640625 20.688720703125
24.3515625 62.171630859375 37.411865234375
-67.987548828125 -51.42724609375 -4.717041015625
-71.00634765625 -48.212890625 16.0400390625
-16.803955078125 -9.719482421875 26.0400390625
-23.56689453125 -21.17578125 23.784423828125
-25.169921875 -25.2275390625 22.8203125
-49.965087890625 -53.904052734375 16.208984375
-45.935791015625 -62.58203125 -7.55859375
-44.89794921875 -55.76806640625 13.875244140625
-70.97900390625 -48.09375 -13.24658203125
-40.119873046875 -40.68896484375 19.29248046875
-54.788330078125 -53.20947265625 -6.5546875
-18.211669921875 -9.918212890625 24.3779296875
0.56494140625 -3.707763671875 28.233154296875
-38.126708984375 -36.885986328125 20.04931640625
-8.1806640625 -0.732666015625 28.21484375
-37.523193359375 -39.872314453125 19.464111328125
-49.859130859375 -45.46533203125 17.722412109375
-2.256103515625 -1.34521484375 28.875
-66.23779296875 -54.007080078125 14.59423828125
-53.350830078125 -57.330810546875 -13.942626953125
-76.78125 -49.562255859375 7.056884765625
-48.843994140625 -59.71337890625 5.1640625
-67.7705078125 -26.566650390625 20.92138671875
-16.46435546875 -20.552978515625 24.04541015625
10.329833984375 17.955078125 32.803466796875
-54.6435546875 -60.928955078125 4.771484375
-55.840576171875 -55.139404296875 -6.762939453125
-46.93212890625 -57.55810546875 6.657470703125
-60.318603515625 -58.287353515625 13.080078125
-46.839111328125 -52.112060546875 16.652099609375
-67.206298828125 -30.101318359375 20.149169921875
-64.135986328125 -49.02783203125 -26.3564453125
-77.441650390625 -39.511962890625 16.39453125
13.24365234375 17.790283203125 32.9677734375
-44.2705078125 -62.17138671875 -14.5
-59.99658203125 -57.455810546875 3.17529296875
-47.653076171875 -58.744384765625 -22.299072265625
7.6474609375 10.422607421875 31.26318359375
-76.435302734375 -47.486572265625 -3.692626953125
-71.8388671875 -52.274169921875 7.736572265625
-63.2392578125 -46.857421875 16.961669921875
-79.54248046875 -43.493896484375 14.0
-68.920654296875 -46.36767578125 -27.9072265625
-75.05859375 -48.734619140625 -0.584228515625
6.166259765625 4.623779296875 30.3779296875
-77.571533203125 -42.16552734375 17.23291015625
-62.592041015625 -54.3828125 -2.50244140625
-63.51171875 -40.174072265625 18.26513671875
-48.024658203125 -60.033447265625 -15.460693359375
-22.358642578125 -26.857177734375 22.82275390625
-73.520263671875 -44.695068359375 -24.576171875
-74.97509765625 -47.52880859375 -6.236083984375
-76.13818359375 -51.035400390625 12.398681640625
-69.572265625 -41.436767578125 17.868896484375
-5.87060546875 3.0458984375 28.38671875
-56.715576171875 -53.34130859375 -23.997314453125
-52.3701171875 -61.3486328125 1.688232421875
-12.353759765625 -4.5576171875 26.892822265625
-21.53466796875 -23.52294921875 23.3740234375
-49.072998046875 -49.19921875 17.340576171875
-78.33154296875 -46.866455078125 -1.59228515625
-68.710205078125 -47.826416015625 -20.8056640625
-63.41162109375 -55.77587890625 13.77099609375
-25.29443359375 -15.368896484375 23.6279296875
16.300537109375 16.6005859375 33.328857421875
-68.479248046875 -48.681640625 -17.29150390625
-12.416259765625 -2.959228515625 25.2333984375
-13.427734375 -17.84130859375 24.998046875
4.868408203125 2.34814453125 29.95361328125
12.89013671875 12.3798828125 32.07177734375
-75.537109375 -49.27001953125 2.952880859375
-76.04736328125 -48.539306640625 14.33740234375
-69.85693359375 -52.856689453125 6.822021484375
-71.30859375 -46.76904296875 -19.330322265625
-78.90185546875 -48.6845703125 9.10791015625
35.382568359375 61.17236328125 35.44482421875
-79.88720703125 -46.4619140625 1.637451171875
-61.175537109375 -54.010986328125 -9.646728515625
-55.411865234375 -55.353271484375 15.671142578125
2.919189453125 11.695068359375 30.9140625
-73.08154296875 -46.50830078125 -15.849853515625
-76.870361328125 -45.425048828125 16.01953125
0.113525390625 -0.291748046875 28.83642578125
15.27587890625 14.54052734375 32.7275390625
-55.743896484375 -55.06884765625 -3.560546875
-72.84326171875 -52.338134765625 13.220703125
-7.4052734375 -7.09033203125 27.403076171875
-54.49169921875 -53.83447265625 -25.959228515625
-72.894287109375 -52.35009765625 11.281982421875
-55.748046875 -56.509033203125 -12.48974609375
-50.80712890625 -38.857177734375 19.356689453125
-71.076904296875 -53.075927734375 10.478759765625
-79.326416015625 -43.673095703125 -6.70166015625
-53.841552734375 -49.88037109375 -5.521484375
-41.51416015625 -31.8388671875 20.94287109375
-24.616455078125 -17.397705078125 23.9521484375
-5.5478515625 -4.325927734375 27.923828125
-51.536865234375 -60.61572265625 4.37890625
-64.8330078125 -38.42529296875 18.5888671875
-69.10888671875 -52.59521484375 3.29345703125
-70.06005859375 -47.630615234375 -18.279052734375
-68.569580078125 -35.469970703125 18.958251953125
-46.181884765625 -60.41162109375 -18.529052734375
-26.9453125 -17.395751953125 21.713623046875
-68.677978515625 -43.562255859375 17.4091796875
9.763427734375 12.352783203125 31.57861328125
-76.591552734375 -40.963134765625 -25.9345703125
-72.014404296875 -45.88330078125 -21.017822265625
-28.315673828125 -23.397216796875 23.281982421875
-39.98095703125 -34.003662109375 20.651123046875
-51.02587890625 -58.2333984375 -17.00390625
-49.804931640625 -50.83349609375 16.855712890625
-26.861328125 -19.451171875 23.479248046875
-73.4462890625 -46.8984375 -13.93603515625
-62.100830078125 -56.431396484375 2.8017578125
-73.465576171875 -50.254150390625 2.1220703125
-60.283203125 -57.726806640625 5.360595703125
-50.23681640625 -59.016357421875 -14.9658203125
-64.97509765625 -35.043212890625 19.248291015625
-58.728515625 -58.760498046875 6.331787109375
-55.9775390625 -60.187744140625 12.16943359375
-36.07666015625 -45.58642578125 17.755615234375
-11.40576171875 -6.94384765625 27.212890625
-31.598876953125 -26.89794921875 22.301513671875
-67.156982421875 -48.261474609375 -28.352783203125
-58.58740234375 -43.03955078125 17.876953125
-41.989990234375 -46.3408203125 17.839111328125
-18.10986328125 -17.82177734375 24.668701171875
-43.18408203125 -29.810791015625 22.129638671875
21.9560546875 64.201416015625 36.181396484375
-48.857177734375 -61.69873046875 -5.956787109375
12.7578125 20.763916015625 33.314208984375
-72.214111328125 -42.958251953125 17.2333984375
15.71435546875 18.33935546875 33.535888671875
-59.78173828125 -51.59716796875 -25.078369140625
26.978271484375 62.916015625 36.63037109375
-48.515869140625 -36.238525390625 19.498779296875
-77.963134765625 -45.88134765625 -6.473388671875
-70.614990234375 -46.01318359375 -24.01611328125
-52.525146484375 -41.93115234375 18.37646484375
-72.701416015625 -48.32666015625 -8.03564453125
-58.986572265625 -28.28369140625 20.60009765625
-65.127685546875 -51.130859375 -13.627197265625
-58.09814453125 -54.14111328125 -16.524169921875
-32.92626953125 -34.754638671875 20.708740234375
-31.18359375 -34.214599609375 20.84521484375
-72.943603515625 -49.15478515625 -3.22998046875
-71.7275390625 -50.3369140625 14.574951171875
-77.947265625 -48.66796875 5.610107421875
-63.117919921875 -50.66455078125 16.0751953125
-65.877685546875 -56.0751953125 12.349853515625
2.37353515625 5.614013671875 30.296142578125
9.06591796875 13.967529296875 31.833740234375
-73.099853515625 -40.337158203125 17.93310546875
-40.179931640625 -37.22216796875 19.972412109375
-66.1416015625 -33.129150390625 19.47607421875
-72.143310546875 -29.827880859375 19.686767578125
-28.677490234375 -32.999267578125 20.98193359375
-25.36767578125 -21.761962890625 23.63720703125
-56.576416015625 -55.2529296875 -16.726806640625
-55.631591796875 -48.724365234375 16.966552734375
-58.64990234375 -58.238525390625 13.283203125
-66.101318359375 -41.62353515625 17.956787109375
29.070556640625 63.7431640625 35.9599609375
-66.239990234375 -47.953369140625 -25.90087890625
42.15380859375 60.22412109375 34.022216796875
-47.665283203125 -60.693603515625 -13.30419921875
-56.0654296875 -60.256103515625 6.2607421875
-51.08203125 -56.79443359375 -24.997802734375
-20.053466796875 -27.3955078125 22.691650390625
-53.068115234375 -55.57080078125 -23.3896484375
-73.220947265625 -32.913330078125 18.952392578125
-54.1123046875 -56.017578125 -18.65576171875
-69.450927734375 -46.833984375 -29.61962890625
-73.1435546875 -43.719970703125 -28.83544921875
-55.807373046875 -55.051513671875 -18.335205078125
-65.95947265625 -48.75439453125 -22.807373046875
-62.870849609375 -43.055419921875 17.702880859375
-38.240966796875 -30.379150390625 21.57177734375
-75.181640625 -48.316162109375 -2.27783203125
-3.702392578125 5.596923828125 28.911865234375
-51.046630859375 -37.06201171875 19.328369140625
5.064697265625 7.50927734375 30.874267578125
-79.7763671875 -45.746826171875 -2.22705078125
-56.408935546875 -54.588134765625 -19.925048828125
-45.654296875 -40.66552734375 19.023193359375
7.139404296875 14.455078125 31.7900390625
-29.566162109375 -28.669921875 22.156494140625
-66.1669921875 -36.1787109375 18.772705078125
-44.677978515625 -36.759765625 19.6396484375
-57.307861328125 -58.439208984375 0.51806640625
-54.1142578125 -58.013427734375 -10.545654296875
-51.449462890625 -61.988525390625 3.171875
-35.62255859375 -29.52392578125 21.353271484375
-68.001953125 -49.82080078125 -12.5673828125
-76.022705078125 -43.026123046875 -24.173828125
-61.32666015625 -58.2197265625 11.43408203125
-74.728759765625 -44.970703125 -19.032958984375
-4.384033203125 -7.607421875 27.539306640625
-65.759765625 -53.34912109375 -2.486572265625
-75.8369140625 -41.667236328125 -29.74609375
-22.2470703125 -29.85400390625 21.91455078125
-62.224365234375 -36.953369140625 18.901611328125
-54.7822265625 -53.21337890625 -4.91943359375
-50.900146484375 -55.698974609375 13.464599609375
-72.352294921875 -50.1357421875 -0.718505859375
36.33935546875 69.7490234375 31.09619140625
0.09423828125 3.5380859375 29.664794921875
-63.47265625 -53.149169921875 -8.666015625
-64.16455078125 -28.166259765625 20.616455078125
-47.122314453125 -29.8671875 20.931884765625
-67.16552734375 -51.632568359375 -6.167724609375
-20.764892578125 -19.691650390625 24.24658203125
-57.431640625 -59.535888671875 5.71875
-55.22802734375 -58.564453125 13.401611328125
-47.5029296875 -61.99267578125 -7.994384765625
-9.662841796875 -10.20458984375 26.672607421875
44.276123046875 58.504150390625 34.338134765625
-57.746337890625 -54.05322265625 15.6728515625
-57.44677734375 -59.06005859375 3.975830078125
-46.2666015625 -50.1357421875 17.09423828125
-63.080322265625 -55.346435546875 0.40234375
-56.25390625 -59.449951171875 2.873291015625
35.111083984375 66.62939453125 32.039306640625
-44.294677734375 -44.426025390625 18.037109375
-56.577392578125 -55.7646484375 -13.661865234375
-67.93798828125 -50.8369140625 -7.766357421875
-48.263427734375 -61.197998046875 -9.6162109375
-70.8017578125 -51.19091796875 1.458740234375
33.029541015625 62.623291015625 35.70947265625
-81.400146484375 -45.77294921875 12.99560546875
-45.927734375 -37.902099609375 19.5458984375
-46.81201171875 -62.831298828125 -4.295654296875
-51.365234375 -47.8134765625 17.290771484375
-55.79638671875 -33.918212890625 19.96142578125
-59.133056640625 -52.547607421875 -21.240234375
-72.114990234375 -50.9658203125 2.6591796875
-21.548583984375 -11.918701171875 24.165283203125
-13.2939453125 -14.010986328125 25.68505859375
-64.29052734375 -31.850830078125 19.705322265625
-73.73046875 -47.238525390625 -10.85595703125
-56.9609375 -54.6552734375 -8.55224609375
-76.73095703125 -48.412841796875 2.31396484375
-44.287109375 -47.88671875 17.812255859375
-26.239013671875 -28.257080078125 22.28076171875
-78.454833984375 -49.28076171875 10.70654296875
-1.10302734375 0.795654296875 29.342529296875
6.270263671875 12.528076171875 31.582763671875
-45.315185546875 -62.5439453125 -9.031494140625
-73.684814453125 -46.329833984375 16.3828125
-55.8935546875 -55.6396484375 -15.201904296875
-71.063720703125 -44.832275390625 17.010986328125
-79.507080078125 -45.434814453125 -4.033447265625
-16.7509765625 -12.347900390625 25.83837890625
-58.07080078125 -37.062744140625 19.181396484375
-56.1171875 -60.30517578125 8.2861328125
40.781982421875 61.4150390625 33.635498046875
-34.7919921875 -31.846923828125 21.31591796875
-74.51123046875 -43.58251953125 -25.41064453125
-52.42578125 -49.26025390625 16.861572265625
-76.10546875 -45.41064453125 -13.83251953125
-59.29833984375 -33.6796875 19.814697265625
-62.611328125 -33.28466796875 19.571533203125
-52.18017578125 -30.008056640625 20.9404296875
-60.683837890625 -36.00244140625 19.32470703125
-75.798583984375 -43.881103515625 -22.299560546875
35.884765625 35.615966796875 32.793212890625
34.023681640625 38.052001953125 33.65234375
33.044921875 38.354736328125 32.453857421875
-35.35986328125 -26.703125 21.33447265625
-48.5439453125 -52.156982421875 16.825439453125
-52.968994140625 -56.48583984375 -19.767822265625
-51.969482421875 -58.57177734375 -11.985107421875
36.6767578125 59.28955078125 36.454833984375
-35.04248046875 -42.6826171875 19.055419921875
-69.075927734375 -37.463623046875 18.515869140625
-42.742919921875 -42.538330078125 18.62060546875
-41.2861328125 -43.728759765625 18.490478515625
-48.547607421875 -61.39501953125 3.16650390625
-48.813232421875 -54.829345703125 15.699951171875
-25.556396484375 -31.24755859375 21.62646484375
10.1767578125 20.1025390625 32.359619140625
-1.220458984375 6.204345703125 30.259765625
-47.9384765625 -37.725830078125 19.328857421875
34.123291015625 58.666259765625 37.653564453125
-80.289306640625 -44.63330078125 11.07958984375
-47.993408203125 -55.078125 13.503173828125
-42.498779296875 -40.8212890625 19.273681640625
-73.7607421875 -43.24658203125 -30.43408203125
-43.38330078125 -51.51171875 16.549560546875
-70.08349609375 -49.318115234375 -9.90771484375
-53.524169921875 -54.972412109375 -25.5185546875
-42.332763671875 -38.159912109375 19.693359375
-47.95751953125 -45.732177734375 17.983642578125
-43.038818359375 -32.217041015625 20.707763671875
-55.12646484375 -44.317138671875 17.91015625
-52.162841796875 -56.3349609375 15.2705078125
-65.050048828125 -53.16455078125 -4.42236328125
-67.171142578125 -50.5634765625 -11.405029296875
-59.8837890625 -51.610595703125 16.06005859375
-66.451416015625 -51.420166015625 -9.3486328125
-77.266357421875 -42.7998046875 -20.448486328125
-80.242919921875 -47.435302734375 6.434814453125
-41.795654296875 -35.14697265625 20.312744140625
-75.054443359375 -41.225830078125 17.672119140625
-46.84033203125 -54.55029296875 15.76318359375
-74.236572265625 -43.4130859375 17.263671875
-68.072265625 -33.978271484375 19.1572265625
-80.129150390625 -44.64892578125 -0.0595703125
-34.99560546875 -39.12939453125 19.687255859375
-71.345703125 -45.050048828125 -29.91943359375
-48.8330078125 -59.26953125 -17.904541015625
-79.094970703125 -44.380126953125 -9.380859375
-62.84375 -53.614013671875 -3.873779296875
-78.513427734375 -42.121337890625 1.727783203125
-57.48876953125 -60.078125 9.09130859375
-76.71142578125 -44.408935546875 -16.399658203125
-47.18603515625 -60.203857421875 5.9462890625
-62.080810546875 -53.877197265625 -6.501708984375
41.695556640625 59.103271484375 37.17431640625
-52.08056640625 -56.743408203125 13.77490234375
-61.060302734375 -31.2958984375 20.105712890625
-64.54541015625 -52.12158203125 -11.055419921875
-75.4462890625 -35.588134765625 18.102294921875
-49.59814453125 -59.92529296875 -12.42236328125
-52.93310546875 -59.908203125 -4.23388671875
6.017333984375 10.614013671875 31.213623046875
26.970458984375 64.19384765625 35.440185546875
-78.50927734375 -45.5419921875 16.61376953125
-37.704345703125 -47.01513671875 17.866943359375
-30.298583984375 -36.981689453125 20.501708984375
-23.890869140625 -13.545654296875 24.004150390625
-63.779541015625 -56.53955078125 7.81298828125
-56.6669921875 -39.763671875 18.69921875
-9.194091796875 -13.526123046875 26.08740234375
-57.9462890625 -55.0146484375 -13.808349609375
-51.5205078125 -50.8984375 16.641845703125
-58.945556640625 -38.88623046875 18.78857421875
-58.859619140625 -54.343994140625 -14.924560546875
-74.1962890625 -50.52392578125 5.648681640625
-57.1064453125 -57.275146484375 -1.9462890625
-47.462646484375 -56.55908203125 9.35498046875
-76.2822265625 -46.196044921875 -9.427978515625
-73.89892578125 -46.9794921875 14.299072265625
-61.209228515625 -53.00341796875 -14.484619140625
-35.62255859375 -54.3408203125 -26.7890625
-65.847900390625 -49.1826171875 -21.037841796875
-64.013916015625 -48.882568359375 -28.55517578125
-45.59326171875 -32.0234375 20.641357421875
4.19921875 5.61376953125 30.23974609375
-6.25537109375 -10.359619140625 26.60009765625
-46.87744140625 -47.234619140625 17.662109375
-47.478759765625 -58.59716796875 -24.09765625
-81.1669921875 -47.414794921875 9.1181640625
-5.32470703125 -2.49169921875 28.27685546875
-78.992431640625 -42.987060546875 -1.8212890625
-58.01904296875 -51.3828125 16.555908203125
-64.008544921875 -56.774658203125 10.735107421875
-32.8125 -36.1748046875 20.24072265625
-35.181640625 -34.744384765625 20.58544921875
-65.599853515625 -55.7841796875 9.008544921875
-67.130126953125 -52.652099609375 -1.8095703125
29.682373046875 64.38037109375 34.75
-78.263427734375 -46.209228515625 -5.043212890625
-68.552978515625 -49.320556640625 14.753662109375
-79.140869140625 -43.536376953125 -5.20361328125
-53.520751953125 -57.53759765625 15.289306640625
-44.97998046875 -56.328369140625 12.4638671875
-66.706298828125 -50.081298828125 -14.613525390625
-78.376220703125 -44.619140625 -12.0087890625
-73.60205078125 -35.81884765625 18.740966796875
-48.018310546875 -62.88623046875 -0.99658203125
-33.52197265625 -26.054931640625 21.423095703125
-56.549560546875 -32.087890625 20.088134765625
-61.19921875 -44.969970703125 17.7099609375
-60.0029296875 -54.92236328125 -9.781494140625
-56.224365234375 -54.142333984375 15.980224609375
-78.466064453125 -47.416748046875 14.4375
-65.368408203125 -51.75732421875 15.585693359375
-47.831298828125 -40.640625 18.90673828125
-64.832275390625 -26.76513671875 20.8349609375
-60.994140625 -56.006591796875 14.197021484375
-36.330322265625 -36.7900390625 20.277099609375
-32.307861328125 -39.263916015625 19.700927734375
-57.66845703125 -50.83837890625 -7.91162109375
-71.7236328125 -48.867919921875 14.91259765625
-54.706298828125 -59.039794921875 -2.65234375
-52.609375 -60.593994140625 -1.291748046875
-68.046630859375 -53.605224609375 5.6220703125
-73.106201171875 -51.514892578125 8.341064453125
-66.143310546875 -54.263916015625 3.160400390625
-51.270263671875 -61.3603515625 -1.529296875
-11.35498046875 -12.263427734375 25.964599609375
-76.97802734375 -50.33056640625 10.9072265625
14.153076171875 11.273681640625 31.991943359375
-33.60693359375 -40.41259765625 19.60595703125
-66.790771484375 -54.98779296875 13.51123046875
-27.666015625 -18.076416015625 22.943115234375
-56.635009765625 -58.3212890625 -0.9716796875
-32.802734375 -29.534423828125 21.724853515625
-43.253662109375 -36.473388671875 19.92041015625
-16.352294921875 -22.0263671875 23.970458984375
-53.541748046875 -54.167724609375 15.884521484375
-55.302734375 -59.083984375 -1.208251953125
-59.809326171875 -46.148193359375 17.197998046875
-45.219970703125 -46.741455078125 17.787109375
-71.55859375 -48.714599609375 -9.553466796875
-77.572509765625 -44.8125 -13.47314453125
-70.85546875 -46.271484375 -22.58203125
-58.315673828125 -48.716796875 17.05908203125
-53.728759765625 -37.533203125 19.116455078125
7.1220703125 7.7119140625 30.714599609375
-78.16943359375 -47.84619140625 3.84326171875
-13.428466796875 -8.249267578125 26.83154296875
9.8671875 8.5244140625 31.11083984375
-53.29052734375 -33.084716796875 20.1337890625
-62.53173828125 -53.52734375 14.76171875
-63.54150390625 -35.6953125 19.3671875
-47.446533203125 -35.2529296875 19.69140625
8.28662109375 17.211181640625 32.181640625
-37.851318359375 -44.16552734375 18.7333984375
-77.181640625 -49.61279296875 13.8857421875
-19.653564453125 -10.173583984375 24.43701171875
38.9287109375 58.93310546875 37.8603515625
-69.426513671875 -51.337158203125 -1.397705078125
-50.84326171875 -57.082763671875 -22.05517578125
-68.887939453125 -30.208251953125 19.928466796875
-67.95556640625 -45.347412109375 16.90771484375
-23.915283203125 -26.175537109375 22.693603515625
-27.8125 -30.17919921875 21.61328125
-63.491455078125 -37.65234375 18.720458984375
4.34619140625 13.0126953125 31.10498046875
-36.576904296875 -41.037841796875 19.4892578125
-80.68359375 -48.021240234375 12.27001953125
-26.78369140625 -24.08642578125 23.004150390625
-68.561767578125 -54.1826171875 12.697509765625
-58.7861328125 -57.823974609375 2.459228515625
-50.991943359375 -59.671142578125 -9.5185546875
-61.970703125 -53.22998046875 -11.655029296875
-59.595458984375 -29.89404296875 20.443359375
-15.244140625 -5.030029296875 25.271484375
-56.628173828125 -37.218994140625 19.15966796875
-67.72900390625 -52.74609375 0.4462890625
-60.89501953125 -56.7978515625 2.0859375
-17.74365234375 -16.435546875 25.05029296875
-49.989013671875 -44.096923828125 18.174072265625
-57.9921875 -60.048095703125 10.446044921875
-62.242431640625 -47.903564453125 16.93798828125
-39.66650390625 -30.1474609375 21.540283203125
-76.485595703125 -44.120361328125 -19.053955078125
-60.681640625 -28.38330078125 20.766357421875
-78.1962890625 -43.348388671875 -14.963134765625
-66.338623046875 -37.85107421875 18.519775390625
-38.21044921875 -31.8837890625 21.153564453125
-64.75341796875 -54.9423828125 2.878173828125
-71.01708984375 -47.565673828125 -16.283203125
-77.21875 -43.850830078125 -17.62744140625
-74.5927734375 -51.068603515625 13.82763671875
-63.763916015625 -51.33740234375 -16.135498046875
-65.43701171875 -29.9140625 20.322265625
-60.16943359375 -48.44873046875 16.8037109375
-61.744873046875 -40.0107421875 18.432861328125
-53.61865234375 -56.57275390625 -17.4091796875
-79.43603515625 -47.06494140625 3.257080078125
-57.585693359375 -53.23583984375 -9.2001953125
-69.76708984375 -50.457763671875 14.725341796875
-67.543701171875 -55.159423828125 10.677978515625
-27.019775390625 -33.058837890625 21.31591796875
0.9765625 -2.248779296875 28.63427734375
51.060302734375 56.78857421875 35.43505859375
4.337646484375 -0.322021484375 28.555419921875
-71.380859375 -39.181396484375 18.20166015625
-6.260009765625 -0.065185546875 28.38037109375
47.875732421875 57.505126953125 36.9814453125
-67.914794921875 -40.357666015625 18.1865234375
-22.34521484375 -17.440185546875 24.55078125
35.86865234375 59.106201171875 37.61572265625
-11.483642578125 -16.10546875 25.690673828125
-49.91650390625 -47.986328125 17.26611328125
-53.781982421875 -45.56494140625 17.830810546875
-48.064453125 -42.848388671875 18.400390625
43.472412109375 59.55712890625 36.6640625
-56.0869140625 -56.82373046875 -9.385498046875
-72.201171875 -48.877197265625 -6.824462890625
-64.472900390625 -54.142333984375 -1.8935546875
-56.8759765625 -41.952880859375 18.198486328125
-60.431640625 -52.75341796875 -18.58642578125
-62.41162109375 -30.04345703125 20.18505859375
-60.71142578125 -38.541015625 18.865478515625
-32.80859375 -54.4462890625 -26.979736328125
-67.369384765625 -51.650146484375 15.053466796875
7.2763671875 16.281494140625 31.777099609375
-47.746826171875 -33.503662109375 20.108154296875
-56.326416015625 -57.0625 -3.108642578125
-48.879150390625 -62.190185546875 -2.9384765625
-49.31494140625 -54.78271484375 12.658447265625
-64.452880859375 -54.6474609375 1.074951171875
-75.584716796875 -42.514404296875 -27.44873046875
-48.820556640625 -31.451904296875 20.686767578125
-2.89697265625 -7.350341796875 27.06103515625
-71.688232421875 -49.961181640625 -3.026123046875
-70.423828125 -26.070068359375 20.039306640625
-28.375 -26.5625 22.476806640625
-2.37890625 4.034912109375 29.786865234375
-64.509765625 -50.49072265625 -18.617431640625
-62.242919921875 -51.38818359375 -20.43115234375
-54.381591796875 -60.697998046875 3.404052734375
-49.7939453125 -58.140625 -20.006103515625
-44.285888671875 -29.27783203125 21.1044921875
-69.819091796875 -47.37548828125 -19.701171875
-47.618896484375 -49.37451171875 17.316162109375
-3.551025390625 -4.14990234375 28.185302734375
-39.172607421875 -53.88037109375 -25.577392578125
-52.201904296875 -34.600341796875 19.809814453125
-61.28271484375 -43.558349609375 17.72216796875
-30.449951171875 -21.67138671875 21.391845703125
-16.1689453125 -13.9501953125 25.651611328125
-65.48974609375 -55.158447265625 5.601318359375
-56.366943359375 -56.68896484375 15.202880859375
-64.519287109375 -41.125 18.080322265625
-44.923095703125 -39.501220703125 19.270263671875
-18.888427734375 -14.825927734375 25.39501953125
-7.390625 -3.826904296875 27.887451171875
-31.6767578125 -37.1904296875 20.16552734375
-19.518798828125 -17.511474609375 24.58056640625
-28.99267578125 -21.39990234375 22.960205078125
-73.67724609375 -44.878173828125 -23.2021484375
-7.520751953125 -8.810791015625 27.0029296875
-80.30810546875 -44.944091796875 4.079833984375
-75.471435546875 -45.2373046875 -16.593994140625
-54.22900390625 -60.564208984375 6.111083984375
36.18212890625 58.7548828125 39.00830078125
-69.95849609375 -48.6181640625 -14.27685546875
-61.9462890625 -27.556884765625 20.9375
-34.751953125 -37.398681640625 19.95166015625
-21.278076171875 -14.8779296875 24.841552734375
45.494384765625 59.03857421875 33.938720703125
-8.28271484375 -2.466796875 28.234375
30.05419921875 60.932861328125 37.230224609375
-74.31103515625 -46.76025390625 -12.01904296875
-52.761474609375 -57.8271484375 12.34130859375
-49.9677734375 -57.30419921875 -23.57666015625
-76.5625 -45.92138671875 -11.0380859375
-73.40576171875 -47.522705078125 15.471923828125
-19.27587890625 -13.051025390625 25.478759765625
-55.549560546875 -53.7890625 -24.7177734375
-62.505859375 -52.176513671875 -16.3310546875
-39.56640625 -42.195068359375 18.7265625
-76.03759765625 -50.3837890625 9.415283203125
27.8994140625 60.6904296875 37.330078125
-28.971923828125 -31.729736328125 21.5556640625
-39.032470703125 -45.2099609375 18.592529296875
-58.468505859375 -55.668701171875 14.817138671875
-10.620849609375 -8.384765625 26.920166015625
-69.329833984375 -53.876953125 9.72216796875
-59.5478515625 -54.4921875 -12.14501953125
-54.404296875 -28.01416015625 21.087890625
-61.1728515625 -51.387451171875 -22.5146484375
-70.405029296875 -47.16552734375 16.69970703125
-63.7939453125 -51.89208984375 -13.876953125
-55.525634765625 -54.785400390625 -21.03271484375
-40.4931640625 -38.51220703125 19.6162109375
-51.106689453125 -32.055908203125 20.363037109375
11.696044921875 18.076171875 32.86279296875
-48.775146484375 -63.0478515625 0.944091796875
-40.28662109375 -48.29638671875 17.84619140625
-64.226806640625 -50.197509765625 -20.90234375
-16.391357421875 -6.63134765625 25.1484375
-75.728759765625 -46.10107421875 -12.109130859375
-52.301025390625 -57.384033203125 -16.806640625
-42.24609375 -49.529296875 17.620849609375
-53.781494140625 -55.716796875 -20.552978515625
12.72021484375 19.014892578125 33.271728515625
-53.513427734375 -60.90087890625 2.3564453125
-22.5810546875 -20.284423828125 24.09765625
-42.532958984375 -30.735595703125 21.365478515625
-70.569580078125 -52.016845703125 4.82666015625
-72.767822265625 -46.148193359375 -18.564208984375
-58.24365234375 -53.75634765625 -19.086669921875
48.222900390625 58.48388671875 34.818603515625
-79.916748046875 -44.391357421875 15.18505859375
-54.625244140625 -56.48486328125 -15.397705078125
-74.87109375 -49.8828125 14.733642578125
-45.595947265625 -54.91796875 15.059326171875
-54.60498046875 -57.46337890625 -11.77734375
-68.31005859375 -49.04833984375 -15.995361328125
-10.201904296875 -3.131591796875 27.6474609375
-36.494140625 -33.893798828125 20.760498046875
-38.15673828125 -35.395751953125 20.464111328125
-45.232666015625 -34.7392578125 20.06298828125
-74.3681640625 -47.378662109375 -9.34765625
3.08349609375 -0.900390625 28.601318359375
-55.4765625 -54.23095703125 -23.334228515625
-72.25830078125 -47.83984375 -11.2119140625
-62.914306640625 -51.522216796875 -18.87890625
-26.564697265625 -25.447509765625 22.881103515625
-61.576416015625 -57.449951171875 7.322509765625
-53.855712890625 -58.27783203125 -8.915283203125
-8.012939453125 -11.93603515625 26.63330078125
-78.02783203125 -40.604248046875 16.919921875
-62.1220703125 -50.697021484375 -26.982666015625
-55.99169921875 -57.236572265625 -7.649169921875
-53.5341796875 -59.950927734375 -2.78369140625
-45.4482421875 -61.713623046875 -13.7958984375
-45.6142578125 -42.127685546875 18.616455078125
-56.07568359375 -59.2890625 1.5537109375
34.954833984375 61.34326171875 36.912353515625
-29.28125 -24.2744140625 22.973388671875
-72.712646484375 -44.392822265625 -26.2578125
-77.389404296875 -45.770263671875 -8.747314453125
-44.110595703125 -52.6396484375 16.310791015625
-47.45654296875 -61.478271484375 -10.645751953125
-68.643310546875 -46.6474609375 -26.244140625
-55.602294921875 -47.22265625 17.314697265625
-79.01318359375 -44.052734375 16.72607421875
-47.151611328125 -44.51025390625 18.177001953125
-68.3017578125 -47.390869140625 -23.6123046875
-74.321044921875 -45.053955078125 -20.4013671875
-59.180908203125 -57.19091796875 -0.011962890625
-66.4716796875 -53.5537109375 0.651611328125
-66.54443359375 -48.26953125 -23.997314453125
9.880859375 16.414794921875 31.94482421875
-60.436279296875 -53.80517578125 -12.86181640625
-49.9970703125 -60.751708984375 -8.300537109375
-18.4150390625 -23.341796875 23.658447265625
-52.08056640625 -58.177490234375 -14.137451171875
1.856201171875 6.8046875 30.591796875
-52.150146484375 -59.220703125 -8.827392578125
-76.41064453125 -46.888671875 -6.718994140625
-65.694580078125 -43.722900390625 17.646728515625
-63.31005859375 -53.509033203125 -7.38623046875
-51.37646484375 -44.861083984375 18.04248046875
-63.551513671875 -55.80517578125 3.521484375
-61.00537109375 -41.311767578125 18.169677734375
-76.235107421875 -48.383056640625 0.13134765625
-68.95068359375 -27.21142578125 20.686279296875
-56.541259765625 -56.236328125 -11.460693359375
-57.73583984375 -31.177490234375 20.210693359375
-14.682861328125 -13.136474609375 25.864501953125
46.193603515625 59.052734375 35.183349609375
14.795166015625 17.50341796875 33.072998046875
-71.976318359375 -45.268798828125 -24.155517578125
