-59.600830078125 -38.291748046875 -5.9951171875
-8.079345703125 1.945068359375 27.801025390625
30.3837890625 18.74365234375 -19.141357421875
-47.16845703125 -33.398681640625 19.036865234375
-80.21923828125 -24.545654296875 19.099365234375
-74.82763671875 -40.361572265625 10.888427734375
2.68701171875 4.88623046875 26.066162109375
-49.53173828125 -40.659912109375 17.621337890625
-0.747802734375 6.271240234375 28.71826171875
-51.986328125 -30.87841796875 19.479248046875
-16.19287109375 0.671875 27.40673828125
-68.892822265625 -36.631103515625 -24.094970703125
-12.990966796875 -1.031494140625 27.27783203125
-15.07470703125 -9.89892578125 24.235595703125
-7.970703125 3.6123046875 28.158447265625
-76.268798828125 -33.581787109375 -19.650634765625
-73.9384765625 -35.79345703125 17.490966796875
-42.775634765625 -41.454833984375 -24.244384765625
-76.061767578125 -32.68505859375 -23.87548828125
-62.31689453125 -30.773193359375 19.039306640625
17.478515625 19.599365234375 27.6552734375
-34.53125 -21.4794921875 21.938232421875
-59.44921875 -44.0693359375 -12.042724609375
-20.425048828125 2.76025390625 27.24853515625
-49.699462890625 -47.00732421875 6.3642578125
-47.557861328125 -38.221435546875 18.31298828125
-56.09716796875 -40.09765625 17.694091796875
-47.492431640625 -50.74609375 6.045654296875
-26.68896484375 -3.802734375 25.52685546875
-45.418212890625 -47.235107421875 9.744873046875
-57.645263671875 -38.847900390625 17.78173828125
-13.272216796875 2.52294921875 27.8134765625
8.41552734375 20.997802734375 32.339599609375
-49.03759765625 -45.10986328125 9.856689453125
-20.932861328125 -5.20458984375 26.020751953125
-57.0703125 -46.36328125 -7.86376953125
-24.880615234375 -3.093994140625 26.181396484375
-52.91943359375 -49.216796875 4.32421875
0.710693359375 21.547607421875 31.81982421875
-71.58154296875 -25.82373046875 19.3154296875
-22.831298828125 -5.697509765625 25.883544921875
-64.29248046875 -40.281494140625 -17.93505859375
-50.54443359375 -38.072998046875 18.126953125
-54.477294921875 -39.26123046875 17.82958984375
-68.201904296875 -37.921630859375 -18.594970703125
-50.189208984375 -51.107177734375 4.361083984375
-44.4443359375 -33.36181640625 19.421142578125
15.959716796875 23.7666015625 32.01123046875
-29.341064453125 -20.533447265625 22.544921875
-64.0576171875 -42.683837890625 -0.193603515625
-72.521240234375 -41.581298828125 12.96337890625
-11.317138671875 9.48193359375 29.18603515625
-3.986328125 1.9716796875 28.028076171875
-68.78662109375 -41.572509765625 16.121826171875
-66.689697265625 -41.41748046875 16.386474609375
-26.289794921875 -6.85302734375 25.408935546875
-44.588623046875 -19.5615234375 22.229248046875
-72.0185546875 -39.881591796875 1.298828125
-60.4345703125 -25.7001953125 19.992431640625
-58.675048828125 -42.012451171875 16.988037109375
-80.404541015625 -32.85302734375 17.861083984375
5.5830078125 25.9736328125 33.071044921875
-32.919677734375 -22.7802734375 21.846923828125
-37.63623046875 -32.389404296875 19.6787109375
45.3505859375 33.091796875 -14.291259765625
-60.346923828125 -41.57958984375 -22.302734375
-21.98046875 -21.6904296875 18.08447265625
-38.440673828125 -33.788818359375 18.94873046875
-50.673095703125 -44.91748046875 -25.00927734375
-25.887451171875 -12.864990234375 24.494140625
-34.92578125 -19.95166015625 22.58154296875
-47.162109375 -21.436279296875 21.36669921875
-51.422607421875 -22.4658203125 21.18505859375
-73.9208984375 -37.75634765625 -4.567138671875
18.454345703125 17.407470703125 26.57763671875
-60.51220703125 -40.694580078125 -24.256591796875
1.4580078125 7.659423828125 28.7216796875
-29.7763671875 -11.671142578125 24.228759765625
-65.47802734375 -39.35791015625 -19.560791015625
-67.2724609375 -42.35107421875 -0.13623046875
6.825927734375 13.717041015625 27.599365234375
-79.8466796875 -37.606689453125 9.291015625
-61.197265625 -46.54296875 3.695068359375
-52.824951171875 -47.862548828125 -12.334228515625
-72.378662109375 -22.54248046875 20.0322265625
-75.844482421875 -18.460693359375 20.772216796875
-51.723388671875 -32.542724609375 18.968505859375
-71.890625 -39.456298828125 -2.13427734375
-68.969482421875 -43.89111328125 13.31591796875
-71.15185546875 -41.87890625 13.8037109375
-48.219482421875 -44.4658203125 11.9697265625
-51.804443359375 -46.16796875 7.35498046875
-28.8916015625 -18.159423828125 23.0439453125
-5.036376953125 19.315185546875 30.662109375
42.667724609375 30.14501953125 -21.56103515625
-47.486328125 -26.295166015625 20.5634765625
-47.150634765625 -43.962890625 15.745849609375
-38.729248046875 -29.272705078125 20.224365234375
-15.91650390625 4.703369140625 28.0302734375
-58.400634765625 -25.999755859375 19.947509765625
-45.3984375 -45.01220703125 14.587158203125
-71.50244140625 -37.55908203125 -11.71337890625
-43.47998046875 -26.23193359375 20.998779296875
8.007568359375 29.585205078125 33.960693359375
-72.68408203125 -38.8876953125 16.437744140625
-64.32373046875 -20.405029296875 20.9267578125
44.133544921875 34.335693359375 -7.646484375
-21.1181640625 -14.425537109375 23.728515625
-53.88671875 -18.884521484375 21.714111328125
-74.273193359375 -40.170654296875 7.6884765625
-16.239990234375 -5.132080078125 26.235107421875
-43.78369140625 -45.34619140625 14.84130859375
-73.57080078125 -33.55908203125 -26.23681640625
-44.133056640625 -42.12158203125 16.202880859375
-52.8857421875 -45.008056640625 -24.24560546875
-55.725341796875 -18.86279296875 21.617919921875
-23.468505859375 -15.8193359375 23.48779296875
-69.629150390625 -36.568603515625 -28.432861328125
-68.5634765625 -21.915771484375 20.42724609375
-61.237060546875 -42.352294921875 -16.167236328125
-69.822509765625 -37.56591796875 -16.8837890625
-30.003173828125 -25.874755859375 20.039306640625
-72.942138671875 -36.988037109375 -11.146484375
-60.6513671875 -36.794921875 17.933349609375
-62.476806640625 -40.732666015625 -21.237060546875
-45.0478515625 -45.4599609375 13.000732421875
-59.925537109375 -43.38916015625 -15.11865234375
-50.6201171875 -46.7041015625 -21.393798828125
-2.9052734375 6.138671875 28.661376953125
-35.630126953125 -42.482421875 -21.224609375
-53.73828125 -37.66064453125 18.078125
-19.7685546875 -15.754150390625 20.0546875
-59.190673828125 -46.97412109375 0.850341796875
-59.30419921875 -39.59228515625 -5.1103515625
-62.066162109375 -39.189208984375 -7.33447265625
-27.186279296875 -20.57080078125 22.02099609375
-9.128662109375 13.4140625 30.060791015625
-34.1416015625 -44.477783203125 -20.1552734375
-59.615966796875 -30.091796875 19.33251953125
-46.2431640625 -19.243408203125 21.9619140625
-54.281005859375 -40.985595703125 17.3828125
-5.584228515625 8.674072265625 29.3544921875
-34.523681640625 -14.9677734375 23.4111328125
-58.1484375 -16.710693359375 21.765869140625
-4.062744140625 10.42431640625 29.77685546875
-77.590087890625 -34.901611328125 -8.7578125
-37.22998046875 -18.135986328125 22.648193359375
-54.743408203125 -47.42578125 5.9423828125
-77.92626953125 -39.105712890625 13.068603515625
-65.043212890625 -44.00146484375 2.573486328125
-43.5224609375 -50.3017578125 -5.77392578125
-56.6767578125 -47.730224609375 8.31640625
12.545654296875 30.962158203125 34.568603515625
8.4013671875 13.725830078125 29.04052734375
-57.677001953125 -46.273193359375 -5.996826171875
-80.90673828125 -33.578857421875 -6.821044921875
12.414306640625 23.419921875 31.274169921875
-39.422607421875 -27.901123046875 20.611572265625
-16.041748046875 -11.191650390625 23.982421875
-33.7880859375 -11.855224609375 24.13720703125
-44.969970703125 -48.365234375 8.603759765625
-3.4482421875 15.892333984375 30.699951171875
-78.403076171875 -34.0263671875 -11.5966796875
-66.488525390625 -43.95703125 5.970703125
-49.963623046875 -19.198974609375 21.767822265625
15.180419921875 18.28955078125 29.6025390625
-52.850341796875 -43.1044921875 13.801513671875
-43.60546875 -23.779541015625 21.37646484375
-77.300537109375 -30.2421875 18.469970703125
-61.05078125 -45.08251953125 15.81591796875
-51.1015625 -41.40478515625 17.4296875
-1.97705078125 18.20556640625 31.163818359375
-68.385986328125 -41.894287109375 1.120361328125
-41.2080078125 -32.362060546875 19.8515625
-39.638671875 -38.599609375 16.904541015625
-64.814453125 -37.274658203125 17.7978515625
-18.398193359375 -6.2626953125 25.80859375
-40.99169921875 -23.6572265625 21.410400390625
-78.9150390625 -36.24609375 0.971435546875
-68.812744140625 -37.864013671875 17.126708984375
-72.05126953125 -41.0126953125 6.111083984375
-62.655029296875 -40.242431640625 -26.546630859375
-48.37841796875 -31.906982421875 19.31298828125
-67.07177734375 -24.765869140625 20.0771484375
-65.093017578125 -14.320556640625 21.864990234375
-42.02392578125 -36.650390625 18.43017578125
-55.89990234375 -45.120361328125 -17.5205078125
-63.36181640625 -46.4755859375 11.729248046875
-48.02587890625 -43.140869140625 16.75634765625
-79.968994140625 -27.45361328125 18.77099609375
-67.906494140625 -39.14453125 17.048095703125
-67.69873046875 -38.922607421875 -15.94140625
-76.8681640625 -38.453125 8.058349609375
-33.2333984375 -44.90966796875 -23.232421875
25.169921875 18.4541015625 -15.06591796875
-68.07958984375 -19.9951171875 20.82080078125
-52.72265625 -40.24169921875 17.57373046875
-41.92724609375 -38.25390625 17.562744140625
-4.822509765625 13.70947265625 30.180908203125
-36.4541015625 -31.370361328125 19.716064453125
-74.374755859375 -39.488037109375 4.44140625
-32.142333984375 -15.224609375 23.679931640625
-61.05078125 -22.747802734375 20.636962890625
-82.112060546875 -36.30419921875 9.9296875
-36.325927734375 -29.452392578125 20.426025390625
-67.152099609375 -37.164306640625 -27.371337890625
-75.26025390625 -40.107666015625 12.55712890625
-5.095703125 -1.071044921875 26.437744140625
-55.1015625 -43.421142578125 -24.692138671875
-41.7705078125 -26.2041015625 20.734130859375
-65.6767578125 -38.053955078125 -28.4130859375
-67.8017578125 -41.408203125 -1.725341796875
-35.859375 -43.454345703125 -22.8916015625
-46.223388671875 -51.070556640625 -5.565185546875
-37.717041015625 -42.489013671875 -23.5615234375
-77.97265625 -35.75 -4.062255859375
-19.640869140625 -0.416748046875 26.862060546875
-54.05810546875 -32.06005859375 19.2080078125
-66.35107421875 -40.8427734375 -4.318115234375
-42.64697265625 -44.738037109375 13.52734375
2.757080078125 12.461181640625 29.7265625
-2.427734375 12.931640625 30.1171875
40.187255859375 28.29736328125 -21.97119140625
-9.57568359375 -9.62255859375 21.064208984375
-61.113037109375 -19.260986328125 21.30517578125
-33.61474609375 -30.169189453125 19.066162109375
-82.08837890625 -31.270751953125 18.0263671875
-29.36328125 -16.44921875 23.269287109375
-76.938232421875 -32.938720703125 18.03466796875
-60.494873046875 -43.859130859375 -5.099365234375
-32.80712890625 -45.964599609375 -17.095703125
-56.08984375 -23.250732421875 20.843017578125
-66.533935546875 -43.5205078125 3.175048828125
-46.67431640625 -29.229736328125 20.21435546875
13.634033203125 24.132080078125 31.980224609375
-44.3076171875 -46.466064453125 12.099609375
-23.46337890625 -19.494384765625 19.910888671875
-56.762939453125 -31.254150390625 19.22998046875
16.065185546875 15.804931640625 25.63720703125
-47.419921875 -47.540771484375 7.06884765625
-64.756103515625 -44.083740234375 15.694580078125
-56.916259765625 -37.250244140625 18.029541015625
13.404296875 27.969482421875 33.565673828125
-83.124755859375 -33.958740234375 0.637451171875
-81.22021484375 -34.377197265625 17.273193359375
5.4248046875 29.24169921875 33.61572265625
-35.96337890625 -35.34912109375 17.7978515625
-69.806884765625 -22.87548828125 20.036865234375
-54.162109375 -28.71533203125 19.924560546875
-11.294189453125 -1.16796875 27.127685546875
-77.260986328125 -35.597412109375 -7.010009765625
-51.79541015625 -43.119384765625 12.583984375
-46.6875 -50.657470703125 -1.98291015625
-80.944580078125 -37.76904296875 15.178955078125
-62.853515625 -46.4580078125 7.6875
-61.03857421875 -34.170654296875 18.428955078125
12.4111328125 15.57666015625 28.924560546875
-68.295654296875 -30.701416015625 18.77783203125
18.90234375 19.5302734375 26.76416015625
-42.688232421875 -21.026611328125 21.94189453125
-59.817626953125 -42.755615234375 -18.181396484375
17.074951171875 18.287841796875 24.9619140625
-51.63525390625 -46.589599609375 -20.138916015625
-17.408935546875 -17.338623046875 19.49609375
-72.072021484375 -17.26025390625 21.14111328125
-61.8740234375 -46.267578125 14.71484375
0.450927734375 14.655029296875 30.6640625
-77.4521484375 -33.224365234375 -18.27294921875
-12.107666015625 4.702880859375 27.935302734375
-28.381591796875 -11.226806640625 24.676513671875
-54.988037109375 -25.798095703125 20.2705078125
-81.142333984375 -36.01904296875 16.4912109375
-59.77001953125 -41.142578125 -5.988037109375
16.124755859375 18.45751953125 27.53271484375
-72.582763671875 -41.699951171875 11.193603515625
-61.16259765625 -40.105224609375 17.242431640625
-34.0 -28.914794921875 20.1787109375
4.766845703125 21.41015625 32.185791015625
6.05419921875 19.08544921875 31.898681640625
-14.934814453125 -13.97607421875 21.473876953125
13.49609375 17.0009765625 29.20263671875
-16.85107421875 -1.439208984375 26.9677734375
-42.749755859375 -50.2880859375 -8.71337890625
-51.962890625 -47.420654296875 -15.920654296875
13.39501953125 19.7255859375 30.703125
-6.278564453125 15.76513671875 30.5791015625
-63.4765625 -32.160400390625 18.62890625
1.822509765625 25.266357421875 32.513427734375
-46.488525390625 -50.648193359375 -12.0380859375
6.862548828125 10.11572265625 27.648193359375
-5.348388671875 -2.692626953125 24.736083984375
-67.194580078125 -14.136474609375 21.963134765625
-74.109619140625 -24.5498046875 19.656494140625
-63.95068359375 -36.034912109375 17.96484375
-71.5927734375 -39.893798828125 16.19384765625
-45.01318359375 -24.291259765625 21.001953125
-78.94287109375 -30.6474609375 18.358154296875
-50.572265625 -21.252685546875 21.42138671875
-21.875244140625 -2.273193359375 26.518310546875
-63.44970703125 -42.322265625 -7.769287109375
-74.2841796875 -27.78662109375 19.196533203125
6.794189453125 11.30126953125 28.641357421875
-78.725830078125 -37.124267578125 5.602783203125
-29.871337890625 -21.849365234375 22.045654296875
-48.161865234375 -40.185546875 17.982177734375
-40.83447265625 -19.607421875 22.42578125
-17.931640625 5.0078125 28.38427734375
-60.938232421875 -27.6083984375 19.6005859375
-49.962890625 -51.252685546875 0.968017578125
-50.738037109375 -25.906494140625 20.507568359375
-73.978271484375 -35.001220703125 -18.339599609375
-48.977294921875 -50.29736328125 4.777099609375
-75.537109375 -39.32568359375 15.41357421875
-35.227783203125 -45.24951171875 -23.63916015625
-0.499755859375 13.371337890625 30.328125
16.37060546875 20.18310546875 30.312255859375
-66.560546875 -17.1220703125 21.312744140625
-61.53466796875 -15.979248046875 21.789306640625
-19.69921875 -13.710693359375 23.690673828125
-70.032470703125 -32.962158203125 17.980712890625
-41.9560546875 -42.086181640625 14.662109375
-12.57666015625 -8.677978515625 23.96044921875
15.708740234375 21.87451171875 31.69189453125
-16.527099609375 -14.62744140625 21.143310546875
-1.35888671875 8.837158203125 29.530517578125
4.50146484375 14.47314453125 30.036376953125
-68.534912109375 -24.261962890625 19.707275390625
-31.72607421875 -19.384033203125 22.69873046875
-59.5390625 -39.80712890625 17.408203125
-59.4267578125 -48.1416015625 8.546875
-46.489013671875 -17.7900390625 22.961181640625
-67.329833984375 -39.800048828125 -12.73876953125
-74.661865234375 -36.5224609375 -8.9111328125
-34.656494140625 -44.693115234375 -17.3125
-84.965087890625 -35.322509765625 11.977294921875
-2.669677734375 0.60498046875 26.256103515625
-35.1513671875 -26.9912109375 20.84814453125
-55.380615234375 -33.638427734375 18.906494140625
-75.4521484375 -36.4873046875 -7.345947265625
-77.7158203125 -36.73388671875 16.7470703125
-48.52294921875 -51.005615234375 0.808349609375
-34.85302734375 -33.8212890625 18.7724609375
-40.724853515625 -41.3251953125 -24.3603515625
-8.529541015625 9.592041015625 29.30224609375
-72.076416015625 -35.242431640625 -21.76806640625
-1.1298828125 3.597900390625 27.5859375
-56.073486328125 -44.311767578125 -20.3974609375
9.22216796875 15.433837890625 29.4697265625
25.880615234375 17.556884765625 -18.138916015625
18.832275390625 23.1201171875 31.216796875
-4.2841796875 3.387451171875 28.1806640625
-44.062744140625 -42.379150390625 -25.587158203125
45.61572265625 34.58203125 -11.832275390625
-72.589599609375 -37.6240234375 -8.466552734375
-13.524658203125 -5.982666015625 25.906005859375
-50.876953125 -42.5634765625 15.998046875
-30.37353515625 -15.1748046875 23.41455078125
-8.388427734375 -3.380859375 25.305908203125
-55.5087890625 -47.8251953125 -5.564453125
3.00537109375 11.50634765625 28.6171875
4.2744140625 16.072265625 31.124267578125
-56.2001953125 -48.9970703125 2.562255859375
-54.3505859375 -22.81787109375 20.96337890625
-58.482177734375 -43.7314453125 -16.19091796875
-59.484130859375 -41.87060546875 -23.427001953125
-65.062255859375 -44.854248046875 13.723388671875
-43.8251953125 -34.808837890625 19.09521484375
2.61181640625 16.943359375 31.188720703125
9.9658203125 26.20849609375 33.26611328125
-45.206787109375 -50.27392578125 -0.31201171875
-12.18896484375 -10.9072265625 22.368408203125
-13.328125 -12.728271484375 21.774658203125
-19.1796875 -3.400146484375 26.680908203125
-35.103515625 -31.577392578125 19.259033203125
-39.2919921875 -36.982177734375 17.464111328125
5.897705078125 8.17578125 26.358642578125
2.4404296875 13.9384765625 30.869140625
-60.45947265625 -45.697021484375 -1.61279296875
-10.052978515625 0.813720703125 27.6845703125
-54.81640625 -45.8876953125 -16.328857421875
-78.949951171875 -23.506103515625 19.42822265625
-57.70751953125 -48.2109375 3.595947265625
-76.34033203125 -38.8525390625 6.783203125
-48.290771484375 -43.658447265625 13.327392578125
-70.2783203125 -42.918212890625 13.268798828125
-22.343994140625 0.71044921875 26.69873046875
-19.504150390625 -5.063232421875 26.015869140625
-75.331298828125 -34.298095703125 -18.827392578125
-42.78271484375 -46.719970703125 11.03271484375
-78.018798828125 -26.279541015625 19.035888671875
-42.64697265625 -49.388916015625 -5.10693359375
-63.344482421875 -39.923095703125 -22.134033203125
-22.44287109375 -9.061279296875 25.305908203125
-23.45947265625 -2.94970703125 26.1767578125
-76.841796875 -24.793701171875 19.38916015625
-75.169677734375 -20.4541015625 20.4794921875
9.700927734375 28.7060546875 33.896484375
42.9306640625 32.35986328125 -18.052490234375
-66.900390625 -39.516357421875 -14.554931640625
-44.23193359375 -22.304931640625 21.70849609375
43.47265625 30.992919921875 -19.4326171875
-40.361572265625 -40.187744140625 15.690185546875
28.97900390625 18.587890625 -18.711669921875
-0.28466796875 18.952880859375 31.529296875
-48.96240234375 -44.6162109375 -24.916748046875
-50.60498046875 -48.126220703125 -15.430908203125
-0.01416015625 5.07177734375 27.795166015625
-62.373291015625 -42.39892578125 -12.8779296875
-77.935302734375 -38.838623046875 11.6708984375
-48.76220703125 -49.54150390625 -13.786865234375
-69.265869140625 -39.299560546875 -9.86669921875
-14.873046875 -4.493408203125 26.260498046875
-25.813232421875 -10.685302734375 24.806396484375
-85.166259765625 -33.18994140625 2.5849609375
-25.112060546875 -8.53125 25.17431640625
-19.065185546875 -15.330322265625 21.4541015625
-25.586669921875 -5.276611328125 25.808349609375
-43.780029296875 -29.8515625 20.080810546875
-51.93603515625 -49.2568359375 -7.146240234375
-68.871337890625 -35.04931640625 17.798095703125
-67.174560546875 -38.787109375 -17.339599609375
-45.237548828125 -27.522216796875 20.46728515625
-72.66748046875 -33.33154296875 18.122314453125
7.92431640625 24.420654296875 33.093017578125
-19.314453125 0.94140625 27.06689453125
-44.87841796875 -37.1083984375 18.630126953125
-62.5263671875 -47.249267578125 12.5625
-45.50048828125 -32.229248046875 19.616455078125
-66.1943359375 -28.500244140625 19.333984375
-78.952880859375 -34.543212890625 -8.693115234375
-22.217529296875 -17.739013671875 21.802978515625
-77.9453125 -27.6572265625 18.669677734375
-69.681884765625 -25.36962890625 19.7265625
3.163330078125 21.751953125 32.2158203125
-69.990478515625 -38.06396484375 -14.2666015625
26.8212890625 18.648681640625 -15.13818359375
-58.44970703125 -44.544921875 16.150634765625
-62.173095703125 -21.713134765625 20.8876953125
-45.160400390625 -50.92138671875 -3.083984375
-64.757080078125 -40.32177734375 -16.598876953125
-53.920166015625 -45.91650390625 -18.9453125
-48.931640625 -33.26025390625 18.8896484375
-18.8154296875 -10.124755859375 24.830322265625
-66.26171875 -36.770751953125 17.433349609375
-54.188720703125 -46.051513671875 7.240478515625
-83.09423828125 -32.9892578125 -4.713134765625
-70.62890625 -36.455322265625 17.4033203125
-48.21630859375 -23.504638671875 21.32958984375
-48.80859375 -20.8125 21.543701171875
-71.116943359375 -14.899658203125 21.613525390625
-34.75048828125 -44.048828125 -18.77392578125
-74.070068359375 -35.4140625 -15.78125
-75.06494140625 -37.087158203125 -5.66455078125
-55.00927734375 -44.492919921875 -25.586181640625
-61.563720703125 -45.468505859375 0.126953125
-58.129638671875 -27.369384765625 19.871826171875
-65.289306640625 -37.46435546875 -26.845703125
-76.00244140625 -34.079833984375 -17.35498046875
-28.25 -5.66357421875 25.24609375
-64.72509765625 -22.788330078125 20.50634765625
-77.41748046875 -23.271484375 19.65380859375
-52.9560546875 -46.80224609375 -16.679443359375
-36.12109375 -15.39404296875 23.5908203125
-57.8154296875 -47.640625 0.362548828125
-75.51220703125 -34.84326171875 -15.20751953125
-78.51171875 -33.5908203125 -13.499755859375
-67.694580078125 -42.579345703125 15.8779296875
-62.52587890625 -29.3251953125 19.057373046875
-40.288330078125 -29.66064453125 20.4072265625
-63.2998046875 -17.086181640625 21.752685546875
-42.364013671875 -30.211181640625 20.042236328125
-63.729248046875 -44.48974609375 0.710205078125
-45.18994140625 -49.2978515625 7.00439453125
-66.146240234375 -37.178955078125 -25.713623046875
-28.261474609375 -21.4375 21.86279296875
11.890869140625 29.432373046875 34.001953125
-46.701416015625 -40.757568359375 17.451904296875
-59.361083984375 -43.709716796875 -13.59326171875
-5.854736328125 -4.9580078125 22.74658203125
-55.426513671875 -43.8212890625 -23.403076171875
-71.68994140625 -36.137451171875 -18.528076171875
-62.959716796875 -27.3076171875 19.64599609375
-53.212158203125 -47.849609375 6.24609375
-75.84619140625 -38.720703125 5.46484375
-61.5439453125 -41.447998046875 -20.408203125
-10.5361328125 6.86083984375 28.761962890625
-51.516357421875 -45.413330078125 -23.306640625
-69.80322265625 -15.33984375 21.632080078125
-12.989990234375 5.962158203125 28.468505859375
-52.556884765625 -16.360595703125 22.442626953125
-78.6552734375 -24.85693359375 19.3544921875
-82.40380859375 -28.4853515625 18.4052734375
-63.62451171875 -39.467529296875 -23.445556640625
-70.418701171875 -38.60107421875 -9.0673828125
-51.56005859375 -48.418701171875 -12.275146484375
-66.499267578125 -41.563720703125 -1.290283203125
-14.6796875 -11.205322265625 23.080322265625
-56.60888671875 -16.55712890625 22.057373046875
-68.48095703125 -37.1845703125 -21.40380859375
-63.579833984375 -24.371337890625 20.286865234375
-43.9833984375 -50.7412109375 -7.74267578125
-59.735107421875 -44.9033203125 -7.910400390625
-63.948486328125 -42.212158203125 -9.776123046875
-82.59130859375 -36.439453125 11.23046875
-6.091064453125 -0.82373046875 27.553955078125
-71.40380859375 -37.15380859375 -14.2509765625
14.34423828125 30.201171875 34.445068359375
-59.076416015625 -48.03564453125 5.97802734375
-66.947998046875 -26.0673828125 19.64990234375
-31.9794921875 -16.4921875 23.172607421875
-50.01904296875 -16.88671875 22.565185546875
-33.045166015625 -17.366455078125 23.01220703125
-74.111572265625 -16.419677734375 21.154052734375
-79.86962890625 -34.714599609375 -4.14794921875
-54.41015625 -42.94970703125 14.910888671875
-16.046142578125 -12.420654296875 23.091552734375
-55.418701171875 -28.17138671875 19.850830078125
-51.839599609375 -47.74072265625 -14.05712890625
-79.37841796875 -35.46435546875 -2.064697265625
-52.10302734375 -50.117919921875 -2.693359375
31.150634765625 20.30029296875 -19.74658203125
-60.19677734375 -45.89404296875 14.819091796875
-66.988525390625 -38.00927734375 -21.487548828125
-70.68310546875 -35.91259765625 -22.287841796875
-48.396484375 -46.63232421875 6.766357421875
-64.279541015625 -40.00537109375 -19.43896484375
-70.0166015625 -39.984375 -3.9765625
-67.17333984375 -44.251220703125 10.1953125
-67.4365234375 -29.441650390625 18.94775390625
-66.7919921875 -44.14501953125 15.3759765625
-70.3125 -40.621337890625 0.558349609375
-23.2275390625 -7.135498046875 25.740234375
-17.396728515625 -11.812744140625 23.9619140625
-25.41552734375 -15.80224609375 23.3857421875
-60.36572265625 -15.144287109375 23.211181640625
-42.702392578125 -46.265869140625 12.315673828125
8.3525390625 11.7802734375 28.131103515625
-65.318603515625 -25.740478515625 19.82177734375
-76.6962890625 -39.34033203125 10.797119140625
-72.65380859375 -37.439697265625 -9.873291015625
-49.294921875 -50.252685546875 -8.0732421875
-73.077392578125 -35.18701171875 -19.5146484375
-67.996337890625 -36.9599609375 17.805908203125
-81.680908203125 -33.5498046875 -5.2666015625
-50.970458984375 -49.20556640625 -9.773681640625
-65.40478515625 -41.86474609375 16.4013671875
-75.766845703125 -38.054931640625 1.595458984375
15.989013671875 27.30810546875 33.44482421875
-74.153564453125 -29.07177734375 18.7744140625
-49.332275390625 -50.509765625 -6.599853515625
-64.491455078125 -16.44775390625 21.6220703125
-52.601806640625 -27.380126953125 20.09326171875
-57.1689453125 -25.6884765625 20.42724609375
-37.01318359375 -45.504638671875 -27.15478515625
34.0322265625 21.31103515625 -20.684326171875
-7.654296875 7.698486328125 28.791748046875
-36.51611328125 -26.227294921875 21.2744140625
-6.06689453125 4.64697265625 28.33544921875
-53.08740234375 -49.083984375 -6.298828125
-68.92919921875 -40.200927734375 -5.7294921875
-20.76025390625 -1.3466796875 26.689697265625
8.654052734375 30.772216796875 34.035400390625
-69.96435546875 -38.2822265625 -11.855224609375
-81.86376953125 -35.9287109375 6.921630859375
-68.60546875 -27.033203125 19.564697265625
-22.217529296875 -15.314208984375 23.56494140625
-71.852294921875 -36.640625 -15.902099609375
-71.033447265625 -34.9755859375 -26.573974609375
-55.611083984375 -46.94580078125 -8.42724609375
-54.0166015625 -33.45166015625 18.8359375
-61.88525390625 -47.05810546875 8.41259765625
-44.595947265625 -40.448486328125 17.31396484375
-55.34033203125 -37.036376953125 18.25390625
-16.62890625 -3.856689453125 26.44091796875
-79.79833984375 -38.112548828125 11.1552734375
-81.894775390625 -34.180908203125 -1.699462890625
-44.220703125 -49.923828125 -2.477783203125
-19.44091796875 -8.581787109375 25.177978515625
-37.629150390625 -44.514892578125 -25.8271484375
-57.776611328125 -48.19482421875 6.415283203125
-0.468017578125 7.560791015625 28.990234375
-73.984619140625 -40.232177734375 14.814697265625
-33.767333984375 -13.9130859375 23.77197265625
-44.466796875 -44.01318359375 15.217041015625
-79.63330078125 -33.764404296875 -10.18408203125
-46.83203125 -22.736083984375 21.2314453125
-55.65576171875 -42.908203125 16.716064453125
-73.28076171875 -39.102294921875 0.761474609375
-3.170654296875 17.2060546875 30.976806640625
-60.680419921875 -41.949951171875 -19.072998046875
-74.29443359375 -40.70556640625 13.274169921875
-56.63916015625 -48.277099609375 0.486572265625
-58.92041015625 -48.767333984375 10.52734375
-74.704345703125 -31.660888671875 18.533447265625
-44.5595703125 -21.00146484375 21.8447265625
-52.976318359375 -36.593505859375 18.359619140625
-68.841064453125 -40.620361328125 -3.853271484375
-69.408935546875 -35.8994140625 -25.2705078125
-74.756103515625 -38.899169921875 2.797119140625
-59.947021484375 -42.388916015625 16.5771484375
-61.46630859375 -46.109130859375 2.455810546875
-82.911865234375 -36.631103515625 12.87255859375
-55.17626953125 -31.029296875 19.457763671875
-62.450439453125 -20.33251953125 20.965087890625
-80.16552734375 -34.2626953125 -5.402587890625
-14.029296875 -9.093505859375 24.460693359375
-71.611083984375 -40.974365234375 4.847412109375
-70.26220703125 -39.2333984375 -7.674072265625
-54.554443359375 -49.60791015625 1.40625
-66.221923828125 -37.861328125 -24.564697265625
-51.296630859375 -50.97802734375 3.3134765625
-62.643310546875 -41.163330078125 -17.64990234375
-52.812255859375 -50.48583984375 3.916259765625
-64.66943359375 -19.1201171875 21.06005859375
-73.49365234375 -40.212890625 6.179931640625
-58.562255859375 -43.280029296875 16.56884765625
-65.9482421875 -41.224609375 -7.890625
-71.14208984375 -41.704345703125 6.89453125
-57.50439453125 -44.121826171875 14.9716796875
-5.957275390625 -4.380859375 24.7099609375
-66.763916015625 -43.521240234375 4.7392578125
-82.4541015625 -35.03955078125 4.471923828125
6.953857421875 28.78369140625 33.64599609375
-58.815673828125 -46.303955078125 -2.780517578125
-68.218994140625 -40.094970703125 -7.7138671875
-40.9208984375 -27.637939453125 20.706787109375
-77.229248046875 -36.704833984375 -1.207275390625
-28.022216796875 -23.79052734375 20.431640625
-12.323486328125 -6.47998046875 25.611328125
-58.262451171875 -48.476806640625 9.099609375
-26.4423828125 -8.5625 25.123046875
-64.029541015625 -45.33544921875 5.674072265625
-64.753173828125 -45.39111328125 9.439697265625
-79.858642578125 -37.336181640625 7.882568359375
-6.41357421875 -1.940185546875 25.884033203125
-65.0703125 -21.509765625 20.638671875
5.5126953125 11.166748046875 28.971435546875
-65.75341796875 -39.701904296875 -17.35595703125
12.46826171875 26.087158203125 33.180419921875
-65.32421875 -44.587158203125 6.094970703125
-6.458740234375 10.246337890625 29.392578125
-46.432373046875 -50.983642578125 -9.193359375
-49.4365234375 -24.939453125 20.904541015625
16.880126953125 17.222412109375 26.58203125
-73.95751953125 -40.5498046875 9.797607421875
-66.539794921875 -35.14208984375 17.93310546875
-53.814208984375 -47.247314453125 -13.087890625
-80.2333984375 -28.7490234375 18.65087890625
-69.53857421875 -42.29638671875 5.757080078125
-70.108642578125 -42.216552734375 7.5615234375
8.961669921875 27.06689453125 33.392578125
-68.56494140625 -38.117431640625 -16.826904296875
6.737060546875 21.87353515625 32.404052734375
-84.529541015625 -35.240234375 9.79541015625
-80.932373046875 -35.710205078125 3.38916015625
-84.369873046875 -34.988037109375 7.793701171875
-61.972900390625 -42.45361328125 -14.13916015625
-68.96435546875 -43.630859375 11.9150390625
-84.138427734375 -35.55224609375 14.584228515625
-79.435302734375 -34.0390625 17.7275390625
-78.72021484375 -33.00048828125 -15.839599609375
-75.43017578125 -39.54443359375 7.564453125
-73.364990234375 -40.861328125 8.46875
-81.9853515625 -36.40869140625 13.975830078125
-70.158447265625 -30.213623046875 18.713134765625
-64.847412109375 -40.9619140625 -13.551025390625
1.97900390625 18.585693359375 31.559326171875
-82.978271484375 -34.09423828125 16.733642578125
-47.7607421875 -44.41259765625 -24.41064453125
-76.445068359375 -37.17578125 16.761962890625
-9.487060546875 -6.6650390625 24.232666015625
-48.1455078125 -46.171142578125 9.310791015625
-17.17041015625 -16.08251953125 20.695068359375
-45.42626953125 -35.57568359375 18.898193359375
-0.000732421875 20.278564453125 31.80908203125
-70.500732421875 -41.193115234375 15.525634765625
-46.206298828125 -30.62353515625 19.52978515625
-10.18896484375 8.25244140625 28.9736328125
-56.835205078125 -45.12158203125 -13.91552734375
-75.209716796875 -35.860595703125 -10.966552734375
-85.93310546875 -34.7236328125 11.261474609375
5.82958984375 16.229736328125 30.136474609375
0.0654296875 15.994873046875 30.881591796875
-7.4306640625 -2.911865234375 27.054931640625
-83.394287109375 -32.663818359375 17.3359375
-79.85546875 -35.256591796875 17.26513671875
-51.306640625 -34.26123046875 18.813232421875
-44.70947265625 -38.312744140625 18.144775390625
-38.562255859375 -25.56884765625 20.786376953125
-62.0966796875 -46.34326171875 4.806640625
-42.843017578125 -50.513671875 -10.515869140625
-50.623046875 -48.626220703125 -13.439697265625
-67.79345703125 -40.114501953125 -9.944091796875
-8.46240234375 -2.233642578125 26.271240234375
-74.0224609375 -37.05517578125 -7.90576171875
-13.623291015625 7.55419921875 28.827392578125
-65.806640625 -41.0712890625 -9.923095703125
-50.8720703125 -36.816650390625 18.256103515625
-29.335205078125 -7.163818359375 25.107666015625
-81.55029296875 -33.044921875 -7.822265625
-8.776123046875 -1.1220703125 26.916748046875
-73.34130859375 -34.117919921875 -24.853515625
-48.473876953125 -50.14892578125 -11.073486328125
-43.865478515625 -50.696533203125 -9.729736328125
-2.72216796875 10.998046875 29.86865234375
4.584228515625 23.993896484375 32.749267578125
-11.2578125 -5.060302734375 25.8115234375
-20.910888671875 1.181884765625 27.15869140625
-11.76513671875 0.013671875 27.394287109375
-66.752197265625 -37.99951171875 -23.1416015625
-54.430908203125 -48.085693359375 -6.34716796875
-72.49609375 -34.72314453125 -28.39453125
-72.771240234375 -41.05859375 14.4599609375
4.755126953125 7.009521484375 26.62890625
-68.112060546875 -33.06396484375 18.417724609375
-68.601806640625 -42.927490234375 7.435546875
-52.70068359375 -48.180419921875 -10.485595703125
-3.328125 1.288818359375 27.142578125
-18.61083984375 -1.730224609375 26.71142578125
6.856689453125 25.812744140625 33.254150390625
-50.120849609375 -43.6591796875 12.34521484375
-58.639404296875 -44.183837890625 -14.566162109375
-71.572265625 -39.026611328125 -4.321044921875
-75.823486328125 -36.718017578125 -4.65283203125
-52.420654296875 -48.854736328125 -8.71875
-14.35986328125 -1.39404296875 26.757568359375
-50.37451171875 -51.186279296875 2.192626953125
-15.89794921875 6.8759765625 28.417724609375
-6.56396484375 13.826171875 30.32958984375
-78.807861328125 -31.919677734375 17.940185546875
-4.953125 11.37255859375 29.841552734375
9.4921875 22.09912109375 32.13916015625
-55.260009765625 -48.945556640625 -0.001953125
-54.5927734375 -19.906982421875 21.36474609375
-1.570556640625 14.097412109375 30.5107421875
-43.63134765625 -18.494140625 22.888427734375
-74.32861328125 -38.04052734375 -2.797607421875
-50.927001953125 -42.44775390625 13.734375
-46.768798828125 -25.28369140625 20.9111328125
-15.219482421875 -7.359375 25.651123046875
-40.25732421875 -22.63232421875 21.762451171875
-37.465576171875 -28.4013671875 20.6806640625
-69.59716796875 -35.3056640625 -27.67822265625
-48.791259765625 -50.941162109375 -1.795654296875
-46.377685546875 -42.308349609375 16.89013671875
-49.96923828125 -45.36376953125 -24.02978515625
-71.978271484375 -34.826171875 -24.362060546875
-64.872314453125 -37.736572265625 -25.66015625
-54.090576171875 -49.1591796875 -2.719482421875
-45.984619140625 -20.647705078125 21.882080078125
-57.244140625 -42.28369140625 16.891845703125
-73.629150390625 -38.7490234375 -0.42236328125
0.709716796875 11.6044921875 30.07958984375
-80.150390625 -36.894287109375 6.66162109375
-10.931884765625 1.745849609375 27.747802734375
-57.03076171875 -47.033447265625 -4.510009765625
26.90966796875 18.251953125 -17.81884765625
-26.18408203125 -19.80078125 22.237548828125
-55.452392578125 -48.14697265625 5.1552734375
-14.89306640625 1.82861328125 27.465087890625
-45.411865234375 -23.090576171875 21.193603515625
-83.43017578125 -34.4345703125 3.745849609375
-21.7265625 -6.296142578125 25.64892578125
-63.1064453125 -40.40966796875 -19.817138671875
1.1982421875 17.519287109375 31.101806640625
-24.946533203125 -18.413818359375 22.7353515625
-70.415771484375 -38.32568359375 -10.539794921875
44.543701171875 32.96875 -15.369873046875
45.3486328125 33.81640625 -13.241455078125
-52.12109375 -21.39990234375 21.13037109375
-50.419921875 -46.536376953125 7.30517578125
-10.196044921875 -4.883544921875 25.109130859375
-20.690673828125 -3.968994140625 26.281005859375
-69.275634765625 -39.84619140625 -6.9306640625
-57.072509765625 -43.689697265625 -21.1611328125
-9.5791015625 -8.337890625 22.925048828125
-81.681884765625 -34.758544921875 0.56591796875
-56.315185546875 -43.305419921875 15.404052734375
-7.42724609375 -4.20263671875 25.1845703125
-68.05712890625 -42.77392578125 5.1611328125
-26.87451171875 -21.634033203125 21.400634765625
-20.703369140625 -7.59619140625 25.5
-84.965576171875 -34.097900390625 5.3515625
-34.95166015625 -44.8232421875 -27.343505859375
-58.923828125 -47.40771484375 2.094970703125
-23.466064453125 -11.3564453125 24.680908203125
-58.42919921875 -23.084716796875 20.642822265625
-84.325927734375 -33.08837890625 0.041748046875
-72.095947265625 -21.21728515625 20.15673828125
-63.279052734375 -23.04150390625 20.41259765625
-52.69921875 -42.267333984375 15.448486328125
-63.693603515625 -45.6796875 6.845703125
-38.27587890625 -35.008544921875 18.458251953125
-53.069091796875 -45.972412109375 -20.564697265625
-72.17236328125 -30.544189453125 18.845703125
-74.1962890625 -18.97265625 20.54296875
-19.69384765625 -11.8994140625 24.548095703125
-85.857421875 -34.286376953125 7.918701171875
-62.756591796875 -37.49658203125 17.694580078125
-11.762451171875 -7.2626953125 24.79638671875
-73.36376953125 -21.32763671875 20.16943359375
-72.427490234375 -40.961181640625 7.313232421875
-70.59375 -40.476318359375 -1.1181640625
-73.166259765625 -23.7275390625 19.803955078125
-80.38232421875 -36.360595703125 5.379150390625
-58.527587890625 -43.040283203125 -19.6318359375
-61.4814453125 -44.817626953125 -0.947021484375
-23.780029296875 -13.573486328125 24.05615234375
-59.176513671875 -28.287353515625 19.77880859375
-63.575439453125 -45.303955078125 4.40625
7.155517578125 27.165771484375 33.5400390625
-46.0244140625 -38.099853515625 18.595947265625
-60.9990234375 -41.737548828125 -6.874267578125
-69.575927734375 -38.331298828125 -13.111328125
-53.96142578125 -46.384521484375 -15.001220703125
12.003662109375 16.6220703125 29.655517578125
-33.223388671875 -45.0908203125 -21.750244140625
-8.237548828125 12.139404296875 29.521728515625
-50.416259765625 -49.089599609375 -11.1572265625
-64.747314453125 -39.248046875 -21.613525390625
-52.634521484375 -18.8662109375 21.759521484375
-41.33447265625 -41.8974609375 -25.293701171875
-76.6884765625 -28.729736328125 18.7724609375
14.427978515625 19.184814453125 30.06298828125
3.611572265625 9.576416015625 28.75732421875
-46.784423828125 -50.8271484375 -8.001708984375
-10.74072265625 -2.240478515625 26.80322265625
14.600830078125 27.6875 33.810302734375
-43.545654296875 -37.865478515625 18.210205078125
20.03369140625 22.49609375 30.968994140625
-50.30810546875 -22.949951171875 20.901611328125
-69.0703125 -37.4169921875 -19.92626953125
10.21826171875 31.317626953125 34.533447265625
-56.817138671875 -45.865234375 -11.44384765625
-75.060546875 -33.02294921875 -24.628662109375
-80.665771484375 -26.129638671875 19.1435546875
6.80029296875 18.197998046875 31.442138671875
-77.630615234375 -31.623046875 18.405517578125
-62.420166015625 -35.282470703125 18.156494140625
-5.211181640625 2.1455078125 27.854736328125
-55.202880859375 -34.838623046875 18.423828125
5.3544921875 18.130615234375 31.3798828125
-67.65625 -39.656982421875 -11.546875
-64.764892578125 -41.864501953125 -7.767578125
-29.221923828125 -13.87744140625 23.97265625
-51.6416015625 -49.860107421875 -4.4736328125
-83.141845703125 -35.794189453125 9.267333984375
-61.1474609375 -43.093017578125 -6.589111328125
-77.707275390625 -37.388427734375 2.99658203125
-66.19677734375 -44.590576171875 9.5068359375
-75.34619140625 -35.184326171875 -13.359130859375
-72.432373046875 -34.875732421875 -23.0087890625
-84.736083984375 -32.3310546875 15.563720703125
-37.176513671875 -43.26025390625 -24.367431640625
-75.1337890625 -39.902099609375 14.26611328125
-62.761962890625 -42.853515625 -9.6533203125
-50.920166015625 -50.45849609375 -2.135009765625
-61.029296875 -42.892333984375 -14.811279296875
-34.389892578125 -44.396728515625 -22.90966796875
-35.70703125 -44.20263671875 -24.385986328125
-76.86962890625 -37.333984375 1.41259765625
-62.041015625 -39.618408203125 -24.677490234375
-84.26513671875 -31.6279296875 17.868896484375
-50.646728515625 -50.8232421875 0.033203125
-39.340576171875 -42.424560546875 -25.278564453125
-41.34375 -42.272705078125 -26.71435546875
-67.037353515625 -40.73388671875 -7.5908203125
-67.426025390625 -37.2109375 -24.68603515625
-76.501708984375 -33.02587890625 -21.016357421875
-33.898681640625 -44.934814453125 -18.82373046875
-76.986572265625 -34.02783203125 -15.127197265625
-54.0087890625 -48.724609375 4.61328125
-76.698974609375 -36.09423828125 17.28759765625
-84.810546875 -34.211669921875 14.01513671875
-68.067138671875 -35.77001953125 -26.367431640625
-48.76025390625 -51.106689453125 -0.401611328125
-57.076416015625 -43.897216796875 -18.70654296875
-58.77197265625 -45.779052734375 -5.698486328125
-57.60400390625 -44.976806640625 -12.38720703125
-79.29150390625 -38.517333984375 12.654052734375
-62.597412109375 -45.1513671875 1.799072265625
-69.653076171875 -41.38232421875 2.018798828125
-77.9208984375 -32.41552734375 -21.439208984375
-69.20654296875 -43.16943359375 9.7548828125
-82.579345703125 -35.250244140625 14.742919921875
-61.411376953125 -46.771728515625 5.729248046875
-71.345947265625 -38.170166015625 -8.40625
-53.904296875 -48.033447265625 -8.641845703125
-54.464599609375 -44.266845703125 -24.09228515625
-55.02587890625 -49.632568359375 2.6865234375
-60.8671875 -44.939453125 -4.68212890625
-79.795166015625 -34.3056640625 -6.63671875
-73.57861328125 -37.009765625 -9.21142578125
-68.00244140625 -40.6328125 -6.386474609375
-58.081298828125 -47.2060546875 -0.88720703125
-46.98095703125 -50.7265625 -6.450927734375
-75.739990234375 -30.557373046875 18.7236328125
-48.71337890625 -51.031982421875 -5.591796875
-68.746337890625 -42.343017578125 4.239013671875
-55.08837890625 -44.1796875 -22.155517578125
-64.718505859375 -44.147216796875 1.41552734375
-60.635498046875 -43.932861328125 -10.19482421875
-63.91455078125 -46.16748046875 10.27685546875
-55.07568359375 -44.933349609375 -19.63427734375
-72.64990234375 -40.001953125 15.621337890625
-59.8232421875 -47.888916015625 7.435546875
-54.80810546875 -45.38037109375 -18.33056640625
-83.380615234375 -33.136962890625 -2.10205078125
-34.850341796875 -43.466064453125 -21.2060546875
-83.098876953125 -29.5478515625 18.12890625
-67.752197265625 -44.720703125 12.9599609375
-74.893310546875 -37.968505859375 -0.960693359375
-76.58642578125 -34.9189453125 -11.9384765625
-72.2392578125 -40.184326171875 2.43798828125
-63.17822265625 -46.310546875 8.83056640625
-63.8251953125 -38.32958984375 -25.9111328125
-69.878662109375 -38.831298828125 17.096435546875
-75.6669921875 -21.811767578125 20.05908203125
-77.51806640625 -39.363525390625 14.162109375
-55.447509765625 -46.8037109375 -10.46728515625
-62.58349609375 -38.44384765625 -6.55859375
-80.649658203125 -33.186767578125 -9.94580078125
-61.7255859375 -43.643798828125 -7.497314453125
-63.833251953125 -41.39697265625 -7.12158203125
-60.0498046875 -38.663330078125 -7.035400390625
-72.83740234375 -39.871337890625 3.784912109375
-45.08447265625 -50.474853515625 -6.95166015625
-71.138427734375 -35.96044921875 -20.9404296875
-77.620361328125 -38.112060546875 7.201171875
-66.061279296875 -41.61669921875 -5.38427734375
-58.819091796875 -44.59912109375 -11.0263671875
-72.52099609375 -41.346435546875 9.73095703125
-72.90380859375 -38.8798828125 -1.901611328125
-43.807373046875 -50.05615234375 -4.647705078125
-72.172607421875 -34.230712890625 -26.762939453125
-81.03076171875 -37.61328125 12.02685546875
-36.01025390625 -45.581298828125 -26.436767578125
-51.867431640625 -48.0498046875 4.8173828125
-81.017822265625 -37.590087890625 13.844482421875
-60.30322265625 -47.581787109375 10.964111328125
-59.951904296875 -45.63916015625 -3.87939453125
-69.9111328125 -41.712646484375 4.114990234375
-62.1787109375 -46.394775390625 6.718994140625
-84.06787109375 -33.908203125 2.76708984375
-76.55908203125 -37.471923828125 0.255859375
-82.3203125 -34.230224609375 -0.419921875
-61.36669921875 -41.231201171875 -21.55126953125
-57.052978515625 -48.492919921875 9.12939453125
-56.967041015625 -47.439208984375 -2.6328125
-72.89111328125 -31.6103515625 18.56640625
-68.2041015625 -43.74072265625 9.5302734375
-73.53125 -34.667724609375 -21.183349609375
-77.821533203125 -38.684326171875 9.72998046875
-84.064208984375 -33.38427734375 16.553466796875
-63.1689453125 -43.443603515625 -0.3056640625
-76.13671875 -36.580078125 -3.4833984375
-69.960205078125 -42.799072265625 10.73388671875
-71.599853515625 -35.26318359375 17.537353515625
-38.571044921875 -42.2236328125 -24.41748046875
-63.281005859375 -40.626953125 -18.678955078125
-59.638427734375 -42.541015625 -19.3193359375
-71.18017578125 -42.52490234375 12.070068359375
-79.65625 -37.8857421875 14.681396484375
-75.354248046875 -32.6298828125 18.200927734375
-68.299560546875 -42.306884765625 2.96826171875
-77.81005859375 -21.163818359375 20.18359375
-83.61328125 -35.01953125 6.29052734375
-81.296875 -35.665771484375 4.595458984375
-47.431640625 -50.740478515625 -11.314453125
-67.618408203125 -44.2841796875 11.444580078125
-70.452880859375 -35.8994140625 -23.942626953125
-62.3662109375 -41.61376953125 -16.3544921875
-83.24951171875 -35.96826171875 13.962890625
-76.15771484375 -34.3046875 -16.227294921875
-83.88427734375 -33.98876953125 15.118896484375
-73.911865234375 -35.19091796875 -16.908203125
-65.3818359375 -41.544677734375 -6.3876953125
-71.5205078125 -34.7958984375 -27.690185546875
-63.11279296875 -39.39208984375 -25.82275390625
-81.5322265625 -36.609375 8.6044921875
-72.428466796875 -39.6201171875 0.17578125
-65.69580078125 -43.244140625 1.113037109375
-44.8837890625 -50.878662109375 -8.9462890625
-64.09033203125 -39.624755859375 -26.971923828125
-75.728759765625 -39.939208984375 11.515869140625
-44.621826171875 -50.641357421875 -5.86279296875
-76.65234375 -38.64697265625 16.16796875
-70.063232421875 -42.005859375 14.83349609375
-64.766845703125 -45.19384765625 7.130615234375
-57.41064453125 -42.5087890625 -23.988525390625
-75.5126953125 -37.8310546875 16.596923828125
-79.539794921875 -36.24658203125 16.685546875
-82.8974609375 -36.026611328125 15.53076171875
-81.336181640625 -32.198486328125 18.026123046875
-71.07568359375 -36.149169921875 -19.500244140625
-56.596923828125 -46.332763671875 -9.175537109375
-81.6064453125 -34.94384765625 1.938232421875
-65.391845703125 -38.820068359375 -27.533447265625
-65.352294921875 -40.243896484375 -14.699462890625
-61.673095703125 -43.140869140625 -12.3623046875
-79.48388671875 -33.54052734375 -11.294189453125
-48.54638671875 -51.1923828125 3.16455078125
-51.75732421875 -50.814208984375 2.2470703125
-71.72705078125 -33.99072265625 17.956298828125
-73.5400390625 -34.037109375 17.924560546875
-76.0634765625 -33.6865234375 17.92431640625
-60.41259765625 -45.869140625 -0.2255859375
-79.430908203125 -32.55419921875 -16.794921875
-75.85693359375 -39.851806640625 10.2255859375
-54.3525390625 -48.724853515625 -3.97900390625
-65.18896484375 -41.08984375 -10.87548828125
-76.116455078125 -34.833251953125 -14.247314453125
-82.445068359375 -35.05078125 16.4443359375
-35.3154296875 -45.162841796875 -25.054443359375
-72.816650390625 -35.885498046875 17.585205078125
-48.922607421875 -50.69775390625 -4.533935546875
-80.490234375 -32.63916015625 -13.5185546875
-39.48681640625 -43.23779296875 -26.044677734375
-77.80419921875 -34.03515625 -12.5498046875
-78.2177734375 -36.977294921875 1.46728515625
-75.9912109375 -33.183349609375 -22.86962890625
-39.739501953125 -42.464599609375 -26.93798828125
-52.10009765625 -50.539306640625 0.14990234375
-55.0751953125 -49.060546875 4.51171875
-59.4375 -46.2783203125 -1.84619140625
-60.283203125 -47.62109375 9.12353515625
-85.6962890625 -34.94677734375 10.188720703125
-68.945556640625 -41.01171875 -1.37158203125
-75.908935546875 -37.11962890625 -2.171875
-78.76123046875 -38.5966796875 13.63623046875
-61.736328125 -45.674072265625 1.213134765625
