-17.963623046875 -8.56005859375 25.31201171875
-14.828369140625 3.87646484375 27.869873046875
-3.7978515625 8.93701171875 29.15380859375
-69.96923828125 -40.233154296875 -28.8857421875
-56.387939453125 -47.4560546875 13.64453125
-46.28466796875 -52.072265625 5.4052734375
-83.66259765625 -37.089111328125 -2.054443359375
-40.68310546875 -44.817626953125 -27.52978515625
-79.2333984375 -41.980712890625 11.117919921875
-56.559814453125 -51.552978515625 1.322021484375
-41.030517578125 -52.55712890625 -9.217529296875
-75.382568359375 -32.52392578125 18.52978515625
3.40966796875 12.115234375 29.27099609375
-34.083251953125 -47.085205078125 -23.877685546875
-49.63623046875 -50.75634765625 5.3916015625
-76.762451171875 -38.072021484375 -14.514892578125
-74.96142578125 -37.685546875 -19.90771484375
-60.626708984375 -49.296875 0.35205078125
-65.5986328125 -42.223388671875 -22.198974609375
-36.4921875 -45.129638671875 -25.269775390625
-51.64404296875 -26.114013671875 20.55517578125
-62.4921875 -42.584228515625 -7.658447265625
-69.75830078125 -44.42138671875 15.7919921875
-9.777587890625 -11.715087890625 20.508544921875
3.82568359375 22.154541015625 32.140869140625
-80.78857421875 -36.875732421875 17.582763671875
-48.12451171875 -53.267333984375 -10.448486328125
-24.799560546875 -25.044677734375 16.272216796875
41.591064453125 30.452392578125 -19.716064453125
-55.20654296875 -48.5576171875 -16.7119140625
-59.17529296875 -44.890869140625 -24.885498046875
41.8095703125 32.65576171875 -16.197265625
-60.072265625 -35.889892578125 18.295166015625
-74.63818359375 -39.7509765625 -12.05908203125
-65.41015625 -40.40966796875 -27.08447265625
-2.601806640625 19.72021484375 30.927734375
-65.703369140625 -44.73291015625 -9.159912109375
-19.351318359375 -17.416748046875 21.998291015625
-67.138671875 -41.77490234375 -19.588623046875
-74.6044921875 -37.4130859375 -22.69189453125
-65.326416015625 -18.347900390625 21.65869140625
-68.875 -43.4609375 -6.8955078125
-56.679931640625 -41.596923828125 17.357666015625
-49.21826171875 -29.80419921875 20.103759765625
-76.6494140625 -38.2392578125 17.410888671875
23.177978515625 16.53369140625 -17.074462890625
-0.310546875 12.97021484375 30.16748046875
-65.1767578125 -43.68896484375 -15.972412109375
-80.682373046875 -35.05859375 -20.17333984375
-14.3720703125 -8.09619140625 25.283447265625
-70.45263671875 -46.121337890625 9.1865234375
-15.9609375 -12.86767578125 23.735595703125
42.846435546875 34.6416015625 -12.130615234375
-55.403564453125 -50.857421875 7.793212890625
3.960205078125 5.09814453125 25.251220703125
-44.16357421875 -49.18212890625 9.573974609375
-59.165283203125 -49.28271484375 -3.098388671875
-75.903564453125 -44.044189453125 14.383544921875
-67.005615234375 -25.1083984375 20.326904296875
-82.491455078125 -35.21240234375 -15.276611328125
-4.657958984375 2.284423828125 27.548095703125
-23.000732421875 -25.130859375 18.35205078125
-37.376953125 -22.294677734375 21.912841796875
-55.010498046875 -46.683349609375 -25.916748046875
8.109130859375 9.970703125 26.8173828125
-51.862548828125 -19.62158203125 21.985595703125
-68.272705078125 -42.56103515625 -13.242919921875
4.076171875 17.2958984375 31.135009765625
-3.625244140625 -1.669677734375 25.590087890625
-77.610595703125 -41.162353515625 3.272705078125
-57.0615234375 -49.567138671875 -7.96484375
-27.890869140625 -24.39990234375 21.17041015625
-9.22216796875 12.693359375 29.615234375
-70.58349609375 -42.111328125 -9.1103515625
-35.350341796875 -19.610595703125 22.657958984375
-51.48681640625 -52.021728515625 3.653076171875
-39.661376953125 -50.835205078125 -7.121337890625
-78.570068359375 -37.144287109375 -16.139892578125
-35.7509765625 -30.57763671875 20.028076171875
-55.249755859375 -51.76416015625 -1.03271484375
-68.68798828125 -47.287353515625 12.1474609375
-50.85546875 -54.13134765625 0.650390625
0.74755859375 -1.7333984375 21.284423828125
-32.642822265625 -48.989990234375 -18.842529296875
-77.7216796875 -41.669921875 5.760986328125
-80.89404296875 -36.519775390625 -11.49267578125
-51.4287109375 -28.551025390625 20.1630859375
-55.18798828125 -50.905029296875 5.329345703125
-66.81494140625 -39.27099609375 17.599365234375
-51.6650390625 -45.485595703125 15.059814453125
-65.0546875 -33.19287109375 18.857421875
-44.8583984375 -32.41162109375 20.040771484375
-50.85009765625 -21.8115234375 21.467041015625
-78.31494140625 -31.022216796875 18.680908203125
-46.283935546875 -27.8525390625 20.646484375
-64.97412109375 -47.42431640625 2.450927734375
-81.016845703125 -31.974609375 18.51025390625
39.54736328125 27.844970703125 -23.062255859375
-33.66259765625 -21.75146484375 22.123046875
-21.414794921875 -10.421875 24.869140625
-59.401123046875 -31.814453125 19.234130859375
-54.480712890625 -52.559814453125 3.615478515625
-46.091064453125 -22.958984375 21.4873046875
-42.2138671875 -51.907958984375 -3.21044921875
-68.52001953125 -16.1591796875 22.3369140625
-79.102783203125 -41.521728515625 16.000732421875
-82.183837890625 -38.51513671875 0.787353515625
-52.779541015625 -51.62939453125 -8.092529296875
-18.3876953125 -11.0380859375 24.779052734375
-9.131103515625 -1.552734375 26.780029296875
-15.65673828125 -15.90869140625 21.326416015625
-60.940185546875 -18.044921875 22.680419921875
-42.11181640625 -26.23388671875 20.84423828125
-61.716796875 -47.49560546875 -8.493896484375
-59.689697265625 -46.70654296875 -15.44287109375
-79.381103515625 -39.59326171875 -1.22607421875
-7.06787109375 -8.471435546875 22.38427734375
-58.78955078125 -50.40478515625 1.4482421875
-73.71533203125 -42.6953125 0.971435546875
-12.1650390625 -9.9775390625 23.91650390625
13.455810546875 16.838623046875 29.121337890625
-73.233642578125 -40.9853515625 -8.650390625
-52.6494140625 -52.22119140625 -4.80517578125
-56.924560546875 -50.43603515625 -3.22802734375
-31.066650390625 -30.5146484375 18.646484375
-75.93359375 -40.61376953125 -3.2763671875
-16.51953125 -0.814697265625 26.814453125
-43.589599609375 -28.114501953125 20.637939453125
-48.940185546875 -46.94873046875 10.482177734375
-58.36279296875 -50.45703125 9.926025390625
-72.287841796875 -35.01171875 18.377685546875
-73.27001953125 -43.8408203125 5.45947265625
-50.500244140625 -54.112060546875 3.1728515625
-45.572998046875 -53.89404296875 -0.02587890625
-13.6865234375 -5.86962890625 25.671875
-61.632568359375 -45.931640625 -13.090576171875
-44.8251953125 -53.6494140625 -12.41748046875
-38.050048828125 -26.03564453125 21.266357421875
-27.947998046875 -12.767333984375 24.201416015625
-67.342041015625 -44.59912109375 16.3115234375
-60.7236328125 -22.728271484375 21.1220703125
-56.128662109375 -29.561279296875 19.898193359375
-11.7822265625 -3.7685546875 26.226318359375
-63.586669921875 -43.171875 -21.1923828125
-60.8349609375 -41.5732421875 17.15625
-26.082763671875 -25.85302734375 18.6259765625
-61.1201171875 -46.772216796875 16.103515625
-84.7197265625 -38.02783203125 5.022216796875
-74.5693359375 -18.951904296875 21.44677734375
-71.01220703125 -43.079345703125 -4.350830078125
4.010986328125 7.487548828125 27.5712890625
-49.948486328125 -44.39697265625 16.927978515625
6.8076171875 18.581787109375 31.322998046875
-74.020263671875 -23.138671875 20.589111328125
-71.18017578125 -45.1416015625 7.297607421875
-77.829345703125 -36.44189453125 18.06689453125
-52.031982421875 -48.81689453125 9.700927734375
-45.274169921875 -37.545166015625 18.47802734375
-69.14892578125 -39.899658203125 -24.17822265625
-53.83349609375 -50.291259765625 -11.279541015625
-23.88525390625 -12.449462890625 24.27734375
-50.5673828125 -50.015380859375 -20.569580078125
-61.683837890625 -43.75634765625 16.638671875
1.212646484375 9.985107421875 29.286865234375
-70.98046875 -39.92919921875 -19.284423828125
-64.329833984375 -46.1884765625 -0.54248046875
-44.281005859375 -53.702392578125 -4.28759765625
4.4697265625 10.93359375 26.674072265625
-55.2607421875 -47.2890625 -23.174560546875
-38.296142578125 -42.082763671875 15.3447265625
-63.95556640625 -39.7099609375 17.3916015625
-52.101806640625 -50.816650390625 -13.485595703125
-54.0205078125 -48.59765625 -26.8759765625
-80.293701171875 -41.56640625 14.158935546875
-12.44921875 2.55419921875 27.810302734375
-76.52783203125 -38.66748046875 -12.1884765625
-45.916259765625 -48.724853515625 10.790283203125
-29.110107421875 -20.02783203125 22.6416015625
-30.820068359375 -21.902099609375 22.060791015625
-46.9140625 -46.5400390625 14.049072265625
-5.8076171875 11.18408203125 29.400146484375
8.092529296875 11.60400390625 28.247314453125
-70.50146484375 -28.1572265625 19.50537109375
-57.49072265625 -18.3037109375 22.11376953125
-79.9365234375 -37.884765625 -7.70703125
-41.072021484375 -52.743408203125 -12.023193359375
-10.73876953125 -8.266845703125 24.31982421875
-6.68212890625 7.037353515625 28.675048828125
-73.18994140625 -28.390380859375 19.193115234375
-45.830810546875 -54.0576171875 -2.154541015625
-37.693115234375 -34.59814453125 18.9140625
-66.720947265625 -46.96337890625 12.93505859375
-58.0576171875 -49.0380859375 13.6630859375
34.947509765625 24.09033203125 -22.406005859375
-79.80908203125 -41.34130859375 9.161865234375
7.420166015625 21.404052734375 31.845458984375
-70.3984375 -18.230712890625 21.586181640625
-63.597412109375 -44.93603515625 -13.15673828125
-7.336669921875 15.10693359375 29.754638671875
-71.40869140625 -40.2890625 -16.4541015625
-44.0224609375 -34.508056640625 19.173095703125
-53.0615234375 -33.14501953125 19.442138671875
-38.444091796875 -38.07958984375 17.876708984375
-52.693115234375 -53.0224609375 -0.44970703125
-76.925537109375 -35.302001953125 -28.1103515625
-40.996337890625 -44.459716796875 15.157958984375
-65.657470703125 -48.073974609375 9.06884765625
-57.46630859375 -33.7392578125 18.960693359375
-63.069091796875 -49.002685546875 4.478271484375
-49.72998046875 -49.661376953125 7.18994140625
-25.681884765625 -4.7392578125 25.496826171875
11.371826171875 15.5478515625 28.99658203125
-34.51611328125 -33.325439453125 18.92236328125
-33.01171875 -18.64111328125 22.861328125
-64.370849609375 -36.712158203125 18.28271484375
-45.19287109375 -53.75146484375 4.331298828125
-43.495849609375 -53.680419921875 -9.130615234375
-50.459716796875 -48.47509765625 -24.2998046875
-49.91064453125 -52.559326171875 -9.666748046875
-69.5224609375 -32.496826171875 18.81640625
-77.517578125 -42.928955078125 11.786865234375
-4.340087890625 -3.353759765625 24.20166015625
-64.574951171875 -25.95458984375 20.046630859375
-61.422119140625 -39.15625 17.78076171875
-23.479736328125 -27.707763671875 16.03125
-73.117431640625 -32.62744140625 18.7099609375
-22.4775390625 -6.015625 25.803955078125
-37.66845703125 -29.733154296875 20.361572265625
-54.714111328125 -52.3935546875 0.98046875
-53.19091796875 -39.67236328125 17.86669921875
-42.0830078125 -48.736572265625 12.188232421875
10.94140625 13.302001953125 27.85546875
1.7841796875 22.157958984375 31.96728515625
-54.32421875 -30.48974609375 19.625244140625
-9.848388671875 9.84521484375 29.169677734375
-67.08056640625 -44.656005859375 -3.837646484375
-48.680419921875 -52.39111328125 -13.006591796875
-76.70849609375 -35.960693359375 -24.699951171875
-73.54296875 -37.281982421875 -28.014892578125
7.177490234375 8.325439453125 25.99853515625
-73.01904296875 -45.268798828125 12.837646484375
-72.89404296875 -40.438232421875 -12.8408203125
-65.747802734375 -44.2080078125 -11.116455078125
-0.880859375 7.989501953125 29.244140625
-60.572265625 -44.8544921875 -7.374267578125
-32.731201171875 -30.44921875 19.791015625
-72.06494140625 -45.29638671875 10.750244140625
-7.0859375 -2.0947265625 26.905517578125
-58.734375 -45.2705078125 16.48583984375
-54.13623046875 -35.97607421875 18.63916015625
-47.8955078125 -48.6630859375 10.368408203125
-69.8017578125 -41.830322265625 -12.160888671875
-43.4609375 -48.294677734375 14.048583984375
31.916748046875 21.439453125 -21.242919921875
-82.00341796875 -37.138916015625 -6.6767578125
-51.605712890625 -43.282470703125 17.088134765625
-70.308349609375 -25.9775390625 20.0458984375
-27.90087890625 -26.9267578125 18.54052734375
-83.576416015625 -40.02783203125 10.927001953125
-32.382080078125 -23.25244140625 21.821044921875
-42.03173828125 -52.716552734375 -7.500732421875
-16.4921875 -17.743408203125 20.09423828125
-45.011962890625 -47.561767578125 15.084228515625
-42.377685546875 -51.641357421875 8.077392578125
7.812255859375 14.650634765625 26.8642578125
-59.04248046875 -46.427978515625 -4.0517578125
4.757568359375 14.691650390625 30.28564453125
-37.710205078125 -39.716796875 17.0390625
-2.75244140625 1.813232421875 27.294189453125
-37.533203125 -20.369140625 22.342529296875
-4.17919921875 4.2412109375 28.1259765625
-59.83154296875 -51.488525390625 8.377197265625
4.6044921875 26.8935546875 32.99951171875
-62.64794921875 -22.30224609375 21.065673828125
-62.003173828125 -43.281982421875 -24.38525390625
-79.20751953125 -35.532470703125 -21.770263671875
-66.330810546875 -47.626220703125 7.210205078125
-62.447021484375 -46.198486328125 -10.02734375
-22.265625 -1.919921875 26.385498046875
-39.90771484375 -26.63037109375 21.204833984375
2.297119140625 16.37353515625 30.829345703125
-62.3798828125 -29.345703125 19.740966796875
-68.687255859375 -20.870361328125 21.093017578125
-63.91357421875 -41.237060546875 -26.163330078125
-32.2861328125 -13.2294921875 23.872802734375
-66.917724609375 -42.748291015625 16.698486328125
-73.742919921875 -42.477783203125 16.228515625
-53.49755859375 -46.109619140625 15.0703125
-50.7880859375 -47.572021484375 10.50439453125
-63.632568359375 -27.896240234375 20.0322265625
-31.25390625 -29.22998046875 20.079833984375
-54.84765625 -50.760009765625 -7.115478515625
-59.0361328125 -26.326416015625 20.270263671875
-73.829345703125 -36.8330078125 17.89599609375
26.896240234375 16.131591796875 -19.5888671875
-46.435791015625 -48.0849609375 8.78857421875
-45.498046875 -47.457763671875 13.125244140625
-58.923828125 -49.778564453125 11.635986328125
-66.842041015625 -17.283935546875 22.175537109375
-64.75341796875 -47.819091796875 14.78076171875
-62.551513671875 -50.4658203125 11.64208984375
-64.950927734375 -45.37939453125 -5.84130859375
-84.67919921875 -37.223876953125 13.679443359375
-77.064697265625 -28.376220703125 19.278076171875
-48.057861328125 -53.8857421875 -6.155517578125
-21.9482421875 -20.5517578125 20.16357421875
-26.817138671875 -21.623046875 22.12744140625
-54.765380859375 -48.2587890625 -18.548583984375
-47.3720703125 -53.8623046875 -8.09130859375
-52.65380859375 -45.124755859375 16.650634765625
-53.568359375 -20.996826171875 21.447998046875
6.319091796875 26.0673828125 32.920654296875
-63.748291015625 -34.5341796875 18.513427734375
-75.23828125 -36.139892578125 -27.83984375
-73.320068359375 -37.585693359375 -25.173095703125
-46.705810546875 -54.494873046875 3.205078125
-48.29248046875 -53.83056640625 -3.634033203125
-56.825439453125 -47.228515625 -25.8671875
-67.346435546875 -45.344970703125 -1.179931640625
-67.731689453125 -35.5224609375 18.306640625
-54.34521484375 -48.017578125 -21.339111328125
3.0107421875 10.209716796875 27.636474609375
-36.984130859375 -24.478759765625 21.341064453125
-32.4951171875 -47.39697265625 -20.62548828125
-60.484375 -42.29736328125 -7.80615234375
-57.747802734375 -43.024658203125 -5.974365234375
-40.1025390625 -45.312255859375 13.218994140625
-1.20751953125 -0.254150390625 23.9541015625
-56.493408203125 -49.38671875 -10.326416015625
-45.718505859375 -44.728515625 16.694091796875
-15.446044921875 -6.497802734375 25.91357421875
1.529052734375 20.158203125 31.697265625
-39.879638671875 -39.257080078125 17.59814453125
3.486572265625 25.281005859375 32.7646484375
-26.58837890625 -16.367431640625 23.511474609375
-46.269775390625 -20.745849609375 22.359619140625
-46.294189453125 -46.459228515625 15.892822265625
-75.361328125 -39.557861328125 17.072998046875
-16.477294921875 -2.965087890625 26.41650390625
-56.41162109375 -44.771484375 16.57861328125
-45.553955078125 -26.1513671875 20.917236328125
-21.324951171875 -14.019775390625 24.0703125
-85.25439453125 -39.361572265625 11.653564453125
-54.337890625 -41.0849609375 17.453369140625
-65.311279296875 -48.10009765625 12.485595703125
-73.112060546875 -41.4208984375 -6.770263671875
-30.0576171875 -14.93408203125 23.413818359375
-80.95751953125 -34.985595703125 17.92724609375
-52.859375 -51.21240234375 -9.988037109375
0.692138671875 17.313720703125 30.849609375
-69.80322265625 -46.294677734375 14.225830078125
-77.322509765625 -42.046142578125 16.10400390625
-52.138916015625 -47.134765625 12.359130859375
-66.7998046875 -26.966552734375 19.9140625
-11.531005859375 6.753662109375 28.46630859375
-13.28759765625 -0.877197265625 27.08056640625
-3.952392578125 7.1181640625 28.836669921875
-28.7783203125 -18.30810546875 23.24072265625
-59.634765625 -50.41552734375 3.9423828125
-77.68701171875 -40.31298828125 -1.01708984375
-42.842529296875 -20.240234375 22.265380859375
-57.775634765625 -39.047607421875 17.884521484375
-76.394287109375 -41.381591796875 1.90185546875
-25.628662109375 -11.869384765625 24.4697265625
-70.826416015625 -43.065673828125 16.419921875
-39.28515625 -30.58056640625 20.159912109375
5.708740234375 8.574462890625 27.421142578125
-35.667236328125 -21.31591796875 22.064208984375
-36.947509765625 -46.20166015625 -28.22607421875
-33.9208984375 -46.772216796875 -22.080078125
-81.439453125 -40.215087890625 6.541748046875
-79.202392578125 -37.251708984375 -13.196533203125
-84.81591796875 -38.876220703125 8.012939453125
-64.567626953125 -21.877197265625 21.009521484375
-71.5283203125 -37.931396484375 -26.557373046875
-49.060791015625 -34.125732421875 18.99951171875
-25.4150390625 -8.43408203125 25.064208984375
-34.894775390625 -25.384521484375 21.368408203125
-52.5751953125 -50.07958984375 -15.6279296875
-82.10986328125 -38.68505859375 16.520263671875
-30.875244140625 -11.458251953125 24.21044921875
-59.7490234375 -34.17822265625 18.8046875
-72.49072265625 -19.0712890625 21.337890625
-65.98681640625 -46.117919921875 15.49072265625
-4.223876953125 -0.575439453125 26.898681640625
-47.1376953125 -49.7841796875 5.77392578125
-67.403564453125 -39.401123046875 -27.14501953125
-59.554931640625 -38.124755859375 18.155029296875
-69.95703125 -39.8994140625 -22.549560546875
-82.2822265625 -37.65185546875 -3.5205078125
-30.140625 -16.89697265625 23.602783203125
-76.896240234375 -37.286376953125 -18.9150390625
-39.2724609375 -22.330078125 21.823486328125
-58.473388671875 -41.60009765625 17.279052734375
-10.741943359375 3.09912109375 27.628662109375
-59.00439453125 -22.232666015625 21.238525390625
-66.396484375 -34.360595703125 18.581298828125
-53.0458984375 -48.037353515625 -25.28173828125
-32.564697265625 -26.557861328125 21.251708984375
-61.23779296875 -19.455078125 21.6318359375
-54.617919921875 -44.7734375 16.65576171875
-78.071044921875 -24.97119140625 19.61572265625
-34.6728515625 -27.194091796875 20.885009765625
-29.967041015625 -24.32763671875 21.6474609375
-56.708251953125 -20.22509765625 21.738525390625
-72.10595703125 -44.157958984375 4.153076171875
-65.54052734375 -31.491943359375 19.026123046875
5.368408203125 21.408447265625 31.671875
-66.504638671875 -48.148193359375 10.628662109375
-59.98779296875 -47.27490234375 -6.053955078125
-57.09814453125 -46.6181640625 -21.353515625
-3.256103515625 15.52587890625 30.513916015625
-18.54736328125 -3.7529296875 26.397216796875
-19.77587890625 -16.13916015625 23.154541015625
-57.36279296875 -43.21435546875 17.10302734375
-12.204833984375 -12.240478515625 22.629150390625
-59.72607421875 -48.049560546875 -4.254638671875
-5.849609375 16.30322265625 30.208984375
-12.015625 -13.57568359375 21.143310546875
-39.473876953125 -34.768310546875 19.2451171875
-63.641357421875 -44.033203125 16.727294921875
-42.41357421875 -24.533447265625 21.381103515625
-82.4375 -38.26708984375 -0.937255859375
-74.732421875 -44.00830078125 9.828125
-54.083251953125 -38.003173828125 18.341064453125
-67.453857421875 -41.0283203125 -22.393798828125
-69.46142578125 -37.0 17.906005859375
-1.42333984375 18.18017578125 31.2001953125
-62.937255859375 -49.893798828125 10.027099609375
-6.72705078125 3.149169921875 27.895263671875
-77.134521484375 -32.54150390625 18.449951171875
30.00341796875 17.950927734375 -20.23828125
-58.81396484375 -47.46484375 -12.64404296875
9.6142578125 16.557861328125 27.626708984375
-53.513671875 -26.800537109375 20.5517578125
-24.4296875 -24.1337890625 18.31591796875
-17.316162109375 -16.39990234375 21.51806640625
-60.669677734375 -25.75927734375 20.457763671875
-63.812255859375 -45.817138671875 -9.02978515625
-5.817138671875 -4.45556640625 24.73681640625
-65.279296875 -41.781982421875 -28.431640625
1.898681640625 6.45849609375 27.99169921875
-64.30029296875 -43.60205078125 -17.64208984375
-68.422607421875 -40.669189453125 -29.562744140625
-40.6513671875 -48.84765625 9.790283203125
-57.0439453125 -21.9970703125 21.213623046875
-71.0947265625 -43.811279296875 0.52978515625
-57.697509765625 -49.541259765625 -5.11865234375
-71.22265625 -39.6767578125 -21.087158203125
-41.4345703125 -21.222900390625 22.301025390625
-61.795654296875 -44.462158203125 -20.931640625
-65.687744140625 -44.1630859375 16.41455078125
-18.146240234375 -0.01220703125 26.892578125
8.461669921875 18.92626953125 30.264404296875
-62.436767578125 -41.002685546875 17.343017578125
-49.689453125 -38.66650390625 18.027587890625
-82.8056640625 -39.65380859375 7.97314453125
-34.271484375 -31.76123046875 19.560302734375
-81.01904296875 -39.152099609375 1.859130859375
-10.4482421875 5.4443359375 28.297607421875
-79.14599609375 -40.834716796875 3.9384765625
-34.758544921875 -45.988037109375 -24.99267578125
-48.0966796875 -48.4287109375 8.6416015625
25.337890625 17.21875 -15.948974609375
-7.366943359375 1.594482421875 27.413330078125
-55.674072265625 -18.931640625 22.283447265625
-53.113525390625 -50.109619140625 9.252197265625
-58.219482421875 -28.771240234375 19.927978515625
-19.371826171875 -9.659423828125 24.88427734375
-57.606201171875 -47.296630859375 -17.9384765625
0.166748046875 2.71044921875 26.33447265625
-69.61669921875 -38.738037109375 -27.95556640625
-70.579833984375 -29.837646484375 19.290283203125
-61.916259765625 -49.633056640625 5.548583984375
-42.693359375 -32.859619140625 19.4853515625
-5.501220703125 14.217041015625 30.060546875
-46.725341796875 -53.6630859375 -11.454345703125
-14.906494140625 -13.577880859375 22.595703125
-60.944580078125 -46.97119140625 -10.11767578125
-55.792236328125 -49.01806640625 -12.827880859375
-53.716552734375 -49.09619140625 -17.3017578125
4.4326171875 24.0 32.197509765625
2.5478515625 23.921875 32.413818359375
-26.611083984375 -10.5009765625 24.57421875
0.145263671875 4.942626953125 27.719970703125
-64.886962890625 -45.30419921875 -7.800537109375
-41.7412109375 -42.239501953125 16.865478515625
-73.655517578125 -20.6435546875 20.96826171875
25.498046875 16.28271484375 -18.6435546875
-52.327880859375 -30.82666015625 19.6240234375
-78.609375 -38.92431640625 -5.721923828125
-70.185546875 -20.110107421875 21.1689453125
-43.507568359375 -49.93212890625 11.023681640625
-9.56591796875 -5.339111328125 25.320068359375
-72.384033203125 -40.048583984375 17.211181640625
-54.502197265625 -32.2822265625 19.463134765625
-70.34228515625 -44.4697265625 1.92041015625
-33.542724609375 -47.573974609375 -18.837646484375
-59.428955078125 -49.626953125 -0.9755859375
-32.230712890625 -16.87841796875 23.143798828125
-46.41650390625 -53.864990234375 1.525146484375
-29.912109375 -10.0380859375 24.409423828125
-58.317138671875 -44.760009765625 -4.82958984375
-41.216552734375 -27.650390625 20.802001953125
-66.4287109375 -46.332275390625 2.00537109375
-21.19677734375 -3.201904296875 26.220947265625
-18.833740234375 -22.6845703125 16.7666015625
-7.4697265625 11.36376953125 29.500244140625
-75.002685546875 -41.62841796875 -1.954833984375
-56.263427734375 -50.40478515625 -5.145263671875
-60.3583984375 -47.856689453125 -7.584716796875
-0.198486328125 6.696533203125 28.364501953125
-10.287353515625 -0.36669921875 27.0048828125
-61.93359375 -27.415771484375 20.145263671875
-75.450439453125 -34.1796875 18.31884765625
-44.997802734375 -52.52392578125 6.36962890625
-70.5126953125 -39.856689453125 17.178955078125
4.534912109375 6.261474609375 26.301513671875
-77.34228515625 -39.0546875 -9.08203125
-13.624267578125 -9.52587890625 24.86083984375
-59.527099609375 -48.84228515625 14.71435546875
-8.335205078125 0.21337890625 27.142333984375
-25.22802734375 -23.0322265625 21.140380859375
-51.43408203125 -23.323486328125 21.082763671875
-60.625732421875 -50.529052734375 12.058349609375
-63.078857421875 -32.88818359375 18.772705078125
-48.29248046875 -22.263427734375 21.572509765625
-13.4736328125 -4.293701171875 26.40966796875
0.281494140625 11.241455078125 29.84375
-72.08935546875 -26.005859375 19.962646484375
-23.927490234375 -22.43798828125 20.2158203125
-67.1728515625 -46.830322265625 5.42578125
-73.56298828125 -24.60107421875 19.95703125
8.098388671875 13.22265625 28.686767578125
-64.8603515625 -48.3837890625 7.129638671875
-4.31884765625 11.73193359375 29.873779296875
-66.675048828125 -44.3701171875 -7.510009765625
-58.350830078125 -45.47314453125 -23.4814453125
-62.5888671875 -46.01708984375 16.179931640625
-68.97216796875 -34.093017578125 18.593994140625
-30.886474609375 -26.56982421875 21.033935546875
-36.469970703125 -46.06103515625 -26.634765625
-78.55517578125 -39.498779296875 -2.827880859375
-70.7216796875 -38.054931640625 17.579833984375
-76.24462890625 -42.091064453125 5.1572265625
-11.210693359375 1.479248046875 27.52734375
-48.94189453125 -25.407470703125 20.907470703125
-57.383544921875 -46.212890625 16.519775390625
8.986572265625 15.0654296875 28.06884765625
-35.847900390625 -35.84375 18.193359375
-37.176025390625 -44.82568359375 -23.804443359375
-82.56298828125 -35.74462890625 -10.778076171875
-18.9072265625 -5.54296875 25.77734375
-55.728759765625 -27.719970703125 20.360595703125
-61.593017578125 -49.871826171875 14.062744140625
9.81591796875 15.64892578125 29.489990234375
-55.38623046875 -36.953857421875 18.250732421875
-82.23828125 -36.1298828125 17.657958984375
-60.384033203125 -46.503662109375 -13.97216796875
-23.2861328125 -17.154541015625 23.2158203125
-68.50927734375 -41.397216796875 -18.56591796875
-0.381591796875 9.64892578125 29.35107421875
42.15869140625 33.916015625 -14.335205078125
-71.837646484375 -36.446044921875 17.755126953125
-18.634765625 -14.196044921875 23.69775390625
-47.15478515625 -53.621337890625 4.8251953125
-7.064453125 -4.256103515625 26.5048828125
-18.5361328125 -18.481689453125 20.091796875
-78.1748046875 -35.436279296875 -24.100341796875
-61.75927734375 -46.399658203125 -11.484375
-38.9677734375 -45.054443359375 -26.3447265625
-23.200439453125 -8.647705078125 25.013427734375
-25.462890625 -17.513671875 23.294189453125
13.73828125 15.547119140625 27.496337890625
-52.403564453125 -52.211669921875 -6.406494140625
-33.157470703125 -24.986328125 21.544189453125
-8.27685546875 -9.5419921875 22.276611328125
-51.618896484375 -52.060302734375 -9.388916015625
-68.367919921875 -40.15966796875 17.466064453125
-27.158447265625 -25.822021484375 19.830322265625
-32.56494140625 -46.45458984375 -23.64111328125
2.01611328125 3.05078125 25.609375
-20.689697265625 -17.44287109375 22.900634765625
-67.192138671875 -42.158935546875 -18.024169921875
-63.948974609375 -29.626953125 19.518310546875
-75.36962890625 -38.689697265625 -15.03369140625
7.336669921875 22.92822265625 32.35302734375
-46.17333984375 -50.996337890625 6.595703125
-75.234375 -25.731201171875 19.92626953125
-48.45166015625 -52.1416015625 -15.1318359375
-61.6171875 -32.162109375 19.02197265625
-74.896728515625 -27.379638671875 19.407470703125
-68.568359375 -25.396728515625 20.103271484375
-43.716064453125 -22.479736328125 21.654052734375
-49.223876953125 -46.429931640625 12.017333984375
-56.177001953125 -48.426025390625 -14.537109375
-7.575927734375 5.750244140625 28.341552734375
-72.190673828125 -17.3115234375 21.857666015625
-16.273193359375 -9.251220703125 25.176025390625
-15.160400390625 -4.528076171875 26.101806640625
-27.406005859375 -15.07421875 23.982421875
0.028564453125 0.5556640625 24.569580078125
-47.51318359375 -51.23095703125 4.817626953125
-52.4873046875 -41.917236328125 17.1259765625
-33.64501953125 -20.1884765625 22.467041015625
-61.68603515625 -35.3203125 18.482421875
-62.94970703125 -44.32421875 -18.102294921875
-51.87255859375 -38.606201171875 18.1982421875
-42.55908203125 -29.325927734375 20.483642578125
-47.112548828125 -26.34326171875 20.63232421875
-71.931396484375 -41.73779296875 -8.117431640625
-60.03564453125 -21.025634765625 21.39208984375
-48.989501953125 -53.507080078125 -7.39306640625
-69.634521484375 -40.64892578125 -19.745849609375
-46.898681640625 -54.0673828125 -0.893798828125
-47.029052734375 -47.484619140625 -25.656005859375
-49.907470703125 -24.09521484375 21.005859375
-54.9638671875 -25.93310546875 20.572509765625
-47.706787109375 -45.5439453125 16.812255859375
-30.323974609375 -18.411865234375 22.888916015625
-27.24072265625 -17.93212890625 23.112548828125
-57.548828125 -30.20068359375 19.58935546875
-69.21875 -42.770263671875 -8.638671875
-45.0078125 -49.304931640625 7.420166015625
-17.017333984375 -11.8779296875 24.385986328125
-69.137451171875 -41.737548828125 -15.106201171875
-46.27685546875 -30.887939453125 19.979248046875
3.31640625 20.108154296875 31.53955078125
-66.3583984375 -43.024658203125 -15.1513671875
-20.85595703125 -0.797119140625 26.81884765625
-13.79638671875 5.37744140625 28.083984375
-34.4423828125 -15.490234375 23.146728515625
-70.236572265625 -42.803466796875 -7.3662109375
6.5654296875 12.0224609375 28.231689453125
-41.2021484375 -23.03662109375 21.81689453125
-64.4833984375 -48.150390625 4.50244140625
-8.691162109375 2.559814453125 27.75537109375
-73.323974609375 -38.569091796875 -20.576416015625
-48.034912109375 -48.989013671875 6.8046875
-76.7001953125 -39.61767578125 -7.107666015625
-66.1494140625 -40.663330078125 17.269287109375
-57.6201171875 -45.029052734375 -25.110595703125
-54.27685546875 -22.70947265625 21.17626953125
-78.77783203125 -35.186767578125 18.15966796875
-57.31689453125 -47.917236328125 14.828125
-55.947265625 -23.105712890625 21.00390625
-57.236572265625 -51.819091796875 6.494384765625
-82.997314453125 -38.611572265625 2.372802734375
-50.187744140625 -42.6728515625 17.389404296875
-47.009521484375 -39.492431640625 18.04150390625
-65.077880859375 -47.0048828125 0.605224609375
-73.6513671875 -42.281005859375 -1.48779296875
-84.097412109375 -36.912109375 0.6181640625
-57.909423828125 -23.3388671875 21.029052734375
-57.769287109375 -46.65869140625 -19.364013671875
-27.0048828125 -23.128662109375 21.417236328125
-74.054931640625 -39.113037109375 -16.9765625
-73.8173828125 -35.279541015625 18.16064453125
-74.89697265625 -43.031494140625 5.191162109375
-73.571044921875 -40.997802734375 16.833740234375
-52.666015625 -22.412109375 21.4052734375
-54.0263671875 -47.320068359375 -24.1376953125
-77.04296875 -41.162841796875 0.49365234375
-46.513916015625 -54.0341796875 -6.3505859375
-47.83740234375 -28.04150390625 20.36279296875
-80.47802734375 -37.469970703125 -9.26171875
-63.96240234375 -49.084716796875 8.851806640625
-80.787841796875 -38.41357421875 17.3212890625
-51.26708984375 -53.68017578125 -2.835693359375
-62.3984375 -18.44775390625 21.897216796875
-3.311767578125 10.288818359375 29.7607421875
-80.144775390625 -35.828857421875 -18.02587890625
-59.7138671875 -18.95263671875 22.359130859375
-6.18359375 -7.2275390625 22.701904296875
-69.961181640625 -46.552490234375 11.630615234375
-72.57861328125 -44.587158203125 6.89208984375
-59.466552734375 -29.768310546875 19.53515625
-51.8603515625 -50.40771484375 6.9833984375
-35.12060546875 -45.427490234375 -21.353515625
-8.523681640625 -5.06005859375 26.5380859375
-52.996337890625 -29.392333984375 19.9638671875
-42.6953125 -43.916259765625 16.311279296875
-48.66064453125 -45.571533203125 13.365966796875
-75.13330078125 -37.977783203125 17.62548828125
-12.848876953125 -7.800537109375 25.214111328125
-48.008544921875 -43.914306640625 17.32958984375
-62.955810546875 -48.060791015625 15.311279296875
-49.7919921875 -32.792724609375 19.394775390625
-47.906494140625 -35.1279296875 18.735595703125
-40.687744140625 -31.12841796875 19.7900390625
-7.774658203125 -5.314697265625 25.099853515625
-48.8583984375 -54.63623046875 3.876953125
-50.99072265625 -34.8837890625 19.055908203125
-45.775390625 -33.47509765625 19.3916015625
-66.20556640625 -22.27197265625 20.8388671875
-70.8701171875 -44.94091796875 14.852783203125
-51.20361328125 -36.4140625 18.4306640625
-63.137939453125 -23.69775390625 20.631103515625
-61.233154296875 -30.341064453125 19.478759765625
-68.4443359375 -39.755615234375 -28.2236328125
-44.8955078125 -48.224609375 8.614990234375
-35.199462890625 -37.336181640625 16.935546875
-37.89404296875 -27.937744140625 20.841552734375
-14.0712890625 2.420654296875 27.440185546875
-18.31201171875 -21.328369140625 17.2724609375
-70.78125 -21.702392578125 20.846435546875
-51.402099609375 -49.97509765625 8.908447265625
-52.971923828125 -52.408935546875 3.86962890625
1.28271484375 14.2841796875 30.565673828125
-49.54150390625 -49.2900390625 -25.378662109375
-83.428955078125 -38.33447265625 15.63720703125
-54.800537109375 -20.08544921875 21.770751953125
-33.644287109375 -34.47998046875 18.408447265625
-77.098876953125 -36.28857421875 -22.84716796875
-65.13720703125 -35.15673828125 18.2109375
-37.538818359375 -36.46826171875 18.497314453125
-30.309814453125 -27.87890625 20.265380859375
-51.443115234375 -48.730712890625 -25.448486328125
-78.167724609375 -38.20947265625 17.623046875
-21.750732421875 -15.872802734375 23.520263671875
-50.6123046875 -45.6796875 16.156005859375
-13.683837890625 -14.67138671875 21.363525390625
-45.276123046875 -36.050048828125 18.806640625
-16.31591796875 -14.943359375 22.662841796875
-22.957763671875 -20.697509765625 21.801025390625
-61.56298828125 -21.2236328125 21.108642578125
-76.622314453125 -31.09765625 18.816162109375
-55.54296875 -42.583984375 17.09765625
-63.914794921875 -48.65380859375 12.891357421875
-62.75146484375 -42.68310546875 16.841796875
5.516845703125 16.7607421875 31.21142578125
-48.032958984375 -36.814697265625 18.51953125
-75.350830078125 -42.876220703125 15.1923828125
-56.872802734375 -51.803955078125 8.98583984375
-15.268310546875 1.322509765625 27.321044921875
-48.12548828125 -30.90869140625 19.89453125
1.968017578125 12.338623046875 29.699951171875
-40.5908203125 -51.873046875 -7.72900390625
-68.404296875 -43.53271484375 16.512939453125
-36.229248046875 -26.107421875 21.410888671875
-72.04443359375 -27.498046875 19.63623046875
9.565673828125 12.66748046875 27.767333984375
-83.58740234375 -38.669189453125 4.2421875
-77.754150390625 -42.042236328125 7.23095703125
-50.6943359375 -29.8916015625 19.76611328125
-66.5546875 -47.28662109375 14.677978515625
-21.736083984375 -19.57421875 21.847412109375
-68.234375 -40.05322265625 -25.37646484375
-35.478515625 -46.228759765625 -27.86572265625
-63.326171875 -42.5283203125 -26.9033203125
-72.50634765625 -43.26513671875 15.86279296875
-73.83935546875 -43.532958984375 15.060791015625
-41.0146484375 -40.293701171875 17.5634765625
-34.4208984375 -29.8671875 19.982666015625
-63.6806640625 -48.709228515625 5.82568359375
-0.081298828125 20.44970703125 31.737548828125
-78.617919921875 -40.257080078125 0.166259765625
-5.295166015625 9.351806640625 29.1376953125
-68.261962890625 -42.84619140625 -11.764892578125
-82.56689453125 -40.3017578125 13.874755859375
0.169677734375 22.4482421875 32.00732421875
-79.287109375 -40.769287109375 5.435546875
-3.942626953125 18.432373046875 30.855712890625
-46.220947265625 -41.900390625 17.705322265625
-45.18115234375 -53.85986328125 -5.482177734375
-73.701416015625 -44.22119140625 13.6728515625
-57.0234375 -47.60986328125 -16.411376953125
-55.858642578125 -32.81884765625 19.10009765625
-34.48193359375 -18.331787109375 22.907470703125
-24.405517578125 -19.074951171875 22.677978515625
-71.011962890625 -32.380126953125 18.97412109375
-44.2158203125 -52.795166015625 1.18115234375
-14.615966796875 -12.199462890625 23.754638671875
-58.64111328125 -44.067626953125 -6.579345703125
-37.690185546875 -18.4365234375 22.774169921875
-74.6171875 -40.03955078125 -10.587890625
-8.364990234375 10.06298828125 29.163818359375
-84.85302734375 -37.966064453125 6.51416015625
-43.912109375 -53.25 7.5078125
-2.6796875 3.499755859375 27.6650390625
-48.462646484375 -47.98681640625 -23.973876953125
-50.614501953125 -27.32080078125 20.4013671875
-1.445556640625 4.3154296875 28.286376953125
-68.975830078125 -45.615234375 15.35595703125
-71.947998046875 -41.452392578125 -9.58203125
-9.363037109375 -7.902587890625 23.871826171875
-53.60205078125 -51.25146484375 4.660888671875
-63.7373046875 -46.864990234375 15.748291015625
-33.940673828125 -47.260986328125 -25.438232421875
-50.78466796875 -49.473876953125 -21.94091796875
-67.763427734375 -42.401123046875 -14.63134765625
-73.57470703125 -37.024169921875 -26.55078125
-28.766845703125 -13.9677734375 23.88916015625
-75.40283203125 -43.854248046875 12.152099609375
-35.807861328125 -29.146728515625 20.421142578125
-68.86328125 -43.74267578125 -5.438232421875
-39.796630859375 -43.341552734375 15.130126953125
-66.8623046875 -43.468017578125 -12.28076171875
-1.969970703125 9.313720703125 29.4150390625
-14.671630859375 -0.350830078125 27.008544921875
-74.91357421875 -43.6787109375 8.074951171875
-62.36328125 -44.0712890625 -19.574462890625
-24.3876953125 -14.09765625 24.2431640625
-36.3984375 -39.033203125 16.98779296875
-68.85498046875 -41.615478515625 -16.800537109375
-53.1640625 -25.34423828125 20.6318359375
-60.576904296875 -45.642578125 -17.813720703125
-26.73095703125 -9.105712890625 25.042724609375
-71.998046875 -40.590576171875 -14.00439453125
-66.0703125 -42.90478515625 -16.847412109375
-70.997314453125 -43.3603515625 -2.903076171875
-76.482177734375 -40.413818359375 16.6416015625
-46.573486328125 -43.60205078125 17.1962890625
7.6650390625 19.80615234375 31.72998046875
-69.62841796875 -16.985595703125 21.826416015625
-58.462646484375 -36.163818359375 18.54248046875
-62.4755859375 -42.46435546875 -25.6220703125
-60.578857421875 -45.924560546875 -16.31787109375
12.75341796875 15.20556640625 28.62109375
-13.275146484375 -10.9287109375 23.748291015625
-20.101806640625 -2.23486328125 26.394287109375
-77.64990234375 -37.923583984375 -13.3515625
-51.5947265625 -40.88330078125 17.761962890625
-60.760009765625 -24.345458984375 20.844970703125
-65.065185546875 -44.40625 -12.575927734375
-42.6162109375 -45.892578125 15.05810546875
-66.23193359375 -23.88330078125 20.5634765625
-69.164306640625 -22.263427734375 20.659912109375
-39.597900390625 -51.105224609375 -8.5625
-43.689453125 -30.696044921875 19.99853515625
-71.802734375 -45.185546875 13.7490234375
-67.977294921875 -43.61767578125 -8.043212890625
-65.3515625 -27.1748046875 19.8115234375
-25.691162109375 -15.067138671875 23.765625
-2.6259765625 7.731201171875 28.925048828125
-52.24267578125 -48.896728515625 -22.35546875
-65.907470703125 -45.572998046875 -1.305908203125
-9.47314453125 -10.9267578125 21.701904296875
4.9423828125 25.4052734375 32.822998046875
-51.2275390625 -50.705810546875 5.627197265625
-33.681884765625 -17.151123046875 23.21484375
-73.696044921875 -42.975341796875 2.4013671875
-32.0810546875 -20.973388671875 22.389404296875
-56.217529296875 -35.1845703125 18.670166015625
-65.502197265625 -42.677978515625 17.02294921875
-53.564697265625 -50.836669921875 6.8984375
-43.4375 -47.06982421875 14.83349609375
-43.857666015625 -37.863037109375 18.42919921875
41.54736328125 29.9541015625 -21.284423828125
-67.9443359375 -38.29052734375 17.857666015625
-41.941162109375 -37.757568359375 18.454833984375
-60.351806640625 -43.28125 -25.695556640625
-69.83154296875 -43.998779296875 -1.821044921875
-9.302734375 -6.257080078125 24.2314453125
-78.27294921875 -40.510986328125 16.6201171875
-82.68896484375 -35.24951171875 -13.657958984375
-66.688232421875 -40.49951171875 -28.0205078125
-66.7177734375 -29.01220703125 19.613037109375
-26.935791015625 -20.257568359375 22.587646484375
-55.588623046875 -31.185791015625 19.67041015625
-67.848876953125 -45.4970703125 0.163330078125
-1.517578125 20.3330078125 31.68115234375
-47.753662109375 -33.68603515625 19.420166015625
-5.534912109375 -1.16796875 26.814697265625
-51.39306640625 -33.0703125 19.1708984375
-74.399658203125 -30.0166015625 18.888427734375
-57.822509765625 -24.75927734375 20.64013671875
-50.706298828125 -51.209228515625 -14.49853515625
-14.838134765625 -16.939453125 20.36181640625
-16.932373046875 3.6806640625 27.82373046875
-63.923583984375 -18.649169921875 21.61279296875
-20.755615234375 -24.464111328125 16.7744140625
-58.873291015625 -47.2802734375 -14.06494140625
-25.3076171875 -6.70654296875 25.363037109375
-74.67919921875 -40.464111328125 -8.0791015625
-35.653076171875 -46.28466796875 -23.77734375
-23.907958984375 -5.91845703125 25.327880859375
-26.259765625 -24.81982421875 20.554931640625
-40.63330078125 -46.662109375 12.7998046875
-47.673828125 -21.0078125 22.430908203125
-55.280517578125 -46.69482421875 14.1318359375
-50.3974609375 -51.889892578125 -12.7236328125
-81.732421875 -40.750244140625 10.544189453125
-45.48828125 -24.518798828125 21.19775390625
-43.666015625 -51.9921875 8.58203125
-72.522216796875 -15.926513671875 21.94775390625
-4.677734375 15.416259765625 30.45947265625
-41.135009765625 -44.1640625 -25.301025390625
-44.1884765625 -26.562255859375 20.92626953125
42.897705078125 32.4853515625 -15.291259765625
43.934326171875 34.471435546875 -11.224853515625
-61.04052734375 -37.365234375 18.2314453125
-48.87109375 -40.1376953125 18.04443359375
-50.3974609375 -20.495849609375 21.96484375
-29.607177734375 -25.946044921875 21.04736328125
-72.705322265625 -39.81982421875 -15.505615234375
-64.048828125 -38.341064453125 17.767578125
-0.58935546875 -2.003662109375 21.68603515625
-59.70751953125 -45.04833984375 -23.459228515625
-82.759765625 -35.78076171875 -9.174072265625
-71.537353515625 -33.826171875 18.6064453125
-40.924560546875 -29.038818359375 20.712158203125
-67.056884765625 -47.518798828125 8.662841796875
-49.172119140625 -49.8017578125 -20.711181640625
-29.291259765625 -12.248046875 24.132568359375
-57.968017578125 -48.277587890625 -10.785400390625
-65.344970703125 -41.8525390625 -24.424072265625
-45.221435546875 -53.684814453125 -6.89013671875
-16.771484375 -4.33349609375 26.203857421875
-69.592041015625 -24.205322265625 20.254638671875
-56.627197265625 -46.55908203125 -22.707275390625
-56.255859375 -47.720703125 -17.956787109375
-67.37109375 -47.3701171875 11.6357421875
-68.098388671875 -28.70556640625 19.660400390625
-50.331787109375 -25.659912109375 20.98046875
-74.288818359375 -37.87451171875 -21.392578125
-43.979248046875 -44.581787109375 16.36328125
-58.056396484375 -45.925537109375 -22.174560546875
-42.74072265625 -50.105224609375 8.643310546875
-48.968994140625 -53.2392578125 -8.8642578125
-56.31884765625 -50.225830078125 -6.54443359375
-43.26611328125 -39.383544921875 18.147216796875
-47.252197265625 -25.01416015625 21.080322265625
-46.621337890625 -37.131591796875 18.470947265625
-60.348876953125 -45.614501953125 16.32666015625
-20.156005859375 -6.71923828125 25.720703125
-72.803466796875 -22.430908203125 20.5458984375
-38.64697265625 -24.47021484375 21.5576171875
1.447265625 18.408203125 31.311767578125
-53.90673828125 -51.438232421875 -6.318115234375
-81.37353515625 -36.303955078125 -13.559814453125
-10.90576171875 8.94921875 28.92919921875
-53.50732421875 -51.958740234375 -3.723388671875
-60.455078125 -46.180419921875 -6.800048828125
3.997802734375 13.603759765625 29.825439453125
24.03076171875 16.464599609375 -15.537353515625
-67.147216796875 -43.586181640625 -10.602294921875
-65.850830078125 -42.592529296875 -19.985107421875
-38.638916015625 -44.800048828125 -24.167236328125
24.326904296875 17.02001953125 -18.424560546875
-35.065673828125 -34.71875 18.48583984375
-15.9794921875 -7.897705078125 25.385986328125
-61.87939453125 -44.098388671875 -7.91015625
-37.984130859375 -31.093994140625 20.22509765625
-17.673095703125 -7.20654296875 25.52197265625
-47.351318359375 -45.746337890625 12.90283203125
-63.3916015625 -42.899169921875 -23.34765625
-62.702880859375 -47.634765625 -0.1728515625
-62.526123046875 -48.823486328125 2.187744140625
41.82763671875 31.796142578125 -19.40966796875
-49.5322265625 -54.255859375 1.080078125
-9.42041015625 8.5361328125 28.945068359375
-83.96240234375 -37.605224609375 -0.793212890625
-58.274169921875 -51.09423828125 2.54638671875
-51.02001953125 -50.31103515625 -18.721923828125
-49.4658203125 -53.553955078125 -6.083984375
-76.3271484375 -43.479248046875 10.96142578125
-37.7392578125 -40.964111328125 16.241943359375
-63.58935546875 -48.312744140625 3.386474609375
-51.033203125 -49.4814453125 7.659912109375
-2.499267578125 14.35791015625 30.553955078125
-49.15234375 -41.747802734375 17.479248046875
-55.626953125 -52.223876953125 2.105712890625
-76.699951171875 -43.182373046875 15.326171875
-6.564697265625 -8.452880859375 21.089599609375
-77.244384765625 -37.557861328125 -16.156494140625
-65.597412109375 -38.604736328125 17.550537109375
-4.484375 0.647705078125 27.50048828125
-77.033447265625 -40.501953125 -2.439208984375
-62.772216796875 -45.8095703125 -12.22509765625
-56.729736328125 -25.863037109375 20.431396484375
-59.6943359375 -50.238525390625 2.57080078125
-76.234619140625 -39.164794921875 -9.93603515625
-41.610595703125 -35.171630859375 19.386474609375
-61.3759765625 -48.346435546875 -0.612548828125
-56.220703125 -52.15966796875 3.932373046875
-67.3623046875 -41.323486328125 17.318603515625
-52.712158203125 -28.04345703125 20.0986328125
-13.36767578125 4.0830078125 27.862060546875
-66.680419921875 -18.6103515625 21.72998046875
-52.9169921875 -34.446044921875 19.00244140625
5.3779296875 7.44873046875 26.6943359375
-52.273681640625 -49.453125 -19.33203125
-5.6103515625 17.63134765625 30.493896484375
-10.17822265625 -2.4189453125 26.546142578125
-68.869384765625 -46.692626953125 8.99365234375
-49.632568359375 -37.085205078125 18.2978515625
-67.19482421875 -30.3798828125 19.185791015625
-17.377685546875 -13.64013671875 23.7744140625
-83.624267578125 -36.20703125 17.335205078125
-28.54638671875 -11.1494140625 24.5029296875
-64.964111328125 -17.1396484375 22.2080078125
-4.882568359375 -6.036376953125 22.751708984375
-70.365234375 -38.64306640625 -26.37939453125
-65.698486328125 -30.19775390625 19.46240234375
-62.736328125 -38.748291015625 17.774169921875
-41.17431640625 -53.108154296875 -10.468017578125
-75.334716796875 -22.7392578125 20.580322265625
-7.895751953125 -8.03466796875 23.38916015625
-51.728759765625 -49.304443359375 -20.747314453125
-49.1552734375 -52.162109375 3.807861328125
-18.596923828125 2.201416015625 27.5576171875
-50.97119140625 -50.492431640625 -17.2841796875
-77.50244140625 -37.0029296875 -17.50439453125
-66.310546875 -41.15576171875 -25.248046875
-42.105224609375 -44.9853515625 -26.40576171875
-65.80517578125 -47.17138671875 3.5107421875
-43.462646484375 -41.454345703125 17.55029296875
-35.778564453125 -33.624267578125 19.3583984375
-68.356689453125 -17.486572265625 21.891357421875
40.607177734375 30.7568359375 -20.699951171875
-46.212890625 -29.27392578125 20.256103515625
-58.31298828125 -37.450927734375 18.107177734375
5.282470703125 22.930419921875 32.17822265625
-66.38916015625 -41.875 -21.14111328125
-68.28662109375 -41.36962890625 -20.207763671875
-47.724365234375 -41.133056640625 17.7822265625
8.87646484375 11.054443359375 27.2734375
-70.87841796875 -41.333740234375 -12.838134765625
-17.117431640625 0.8544921875 27.1259765625
-8.814697265625 -10.694091796875 20.29345703125
-53.7294921875 -49.373046875 -15.8046875
-75.387451171875 -42.25634765625 2.19140625
-44.542236328125 -48.513671875 10.701904296875
-56.099609375 -51.50341796875 0.03857421875
-58.732421875 -33.23486328125 18.8974609375
-73.895751953125 -41.41748046875 -5.21044921875
-77.256103515625 -35.2119140625 17.94775390625
