-56.20654296875 -46.291259765625 13.15087890625
10.685791015625 11.046630859375 28.90576171875
42.343994140625 32.656982421875 -43.525390625
-63.66259765625 -65.8092041015625 3.919921875
-48.349853515625 -46.282958984375 13.51708984375
44.389892578125 51.874755859375 27.773193359375
-36.014892578125 -41.227294921875 11.75830078125
-50.8603515625 -34.28955078125 -39.614990234375
2.876953125 -2.391357421875 24.456298828125
-21.776611328125 -26.183837890625 17.0400390625
35.563720703125 39.541259765625 25.1064453125
-54.89990234375 -39.681640625 14.1240234375
-27.673095703125 -15.4970703125 18.393310546875
-45.924072265625 -35.068115234375 15.983642578125
-18.4375 -5.827880859375 23.750244140625
-57.322021484375 -43.345947265625 13.006591796875
-7.112548828125 0.0009765625 25.157470703125
-66.640380859375 -39.1552734375 12.80419921875
-72.498291015625 -58.515380859375 8.933837890625
-9.460205078125 6.269775390625 25.1484375
-16.841552734375 -19.613037109375 20.517578125
-39.260986328125 -41.679931640625 15.07470703125
48.421630859375 51.960205078125 26.48193359375
-35.658935546875 -25.08837890625 18.6962890625
-77.1396484375 -37.4140625 12.2958984375
-29.8359375 -28.25439453125 18.538818359375
-89.5703125 -43.487060546875 9.53759765625
1.82177734375 18.076416015625 -39.040283203125
-2.1884765625 2.7421875 26.288330078125
27.23193359375 47.9521484375 31.225341796875
-44.34716796875 -54.207275390625 10.955810546875
29.498779296875 42.135986328125 24.94677734375
-57.440185546875 -68.6754150390625 -3.516357421875
-90.540771484375 -49.193115234375 9.133544921875
-64.367919921875 -53.030517578125 10.98046875
-12.52734375 1.4091796875 24.855712890625
-87.79150390625 -54.34716796875 8.28271484375
-45.207763671875 -32.359375 -40.595703125
-52.515869140625 -55.326904296875 11.721435546875
-47.986572265625 -40.406494140625 14.881591796875
-82.540283203125 -57.177734375 7.80078125
-51.596435546875 -35.666748046875 15.01806640625
-18.056640625 -26.541015625 12.16845703125
-84.44970703125 -42.8564453125 10.823974609375
31.375732421875 35.3037109375 26.664306640625
-67.12255859375 -42.02392578125 12.601806640625
-37.217041015625 -37.570068359375 16.059814453125
-72.920166015625 -53.4169921875 10.229736328125
-17.47021484375 -13.32373046875 22.21875
-32.267333984375 -18.177001953125 19.667724609375
-17.33642578125 -23.88525390625 16.68896484375
-22.289306640625 -18.149169921875 20.379150390625
18.26318359375 51.39013671875 35.3046875
-53.40478515625 -14.490966796875 35.2421875
-45.870849609375 -29.21240234375 -41.31982421875
-29.061767578125 -33.06689453125 14.321533203125
-38.891845703125 -47.728271484375 12.270751953125
1.4833984375 2.628173828125 26.9677734375
-79.977294921875 -40.18359375 11.501220703125
38.470947265625 46.02294921875 22.33837890625
-71.126708984375 -43.105712890625 11.69287109375
-41.210205078125 -44.15087890625 13.888427734375
-3.481201171875 6.083251953125 26.732421875
-54.47900390625 -63.56396484375 7.093017578125
-46.916015625 -26.513916015625 -42.537353515625
-84.90087890625 -34.261962890625 10.50048828125
32.17333984375 53.829345703125 30.063232421875
-34.763916015625 -31.3935546875 17.422607421875
31.517822265625 28.939208984375 28.3154296875
-65.87158203125 -65.859130859375 2.04150390625
36.212158203125 48.8662109375 29.36083984375
4.82958984375 0.042724609375 25.482177734375
-57.645263671875 -32.722900390625 -41.646728515625
12.138427734375 50.8671875 37.09375
-76.428466796875 -61.355224609375 6.974609375
-59.31640625 -66.533203125 -4.544677734375
33.08203125 37.850830078125 25.747802734375
50.79150390625 54.707763671875 23.8408203125
-41.2587890625 -31.604736328125 -39.75537109375
-32.203369140625 -42.27001953125 11.669189453125
-52.445068359375 -50.71826171875 12.222412109375
-37.26123046875 -44.97900390625 11.005615234375
-55.109130859375 -70.166748046875 -0.134033203125
-0.900146484375 -1.852783203125 25.723876953125
14.263916015625 51.779052734375 35.79931640625
-80.373291015625 -33.52001953125 13.194091796875
-33.92822265625 -34.360107421875 16.980712890625
-38.59765625 -26.285888671875 16.492919921875
-51.720947265625 -42.308837890625 14.4228515625
-86.29638671875 -39.93017578125 10.280029296875
-39.672119140625 -34.952392578125 16.1640625
27.47216796875 26.02685546875 29.6650390625
27.96630859375 36.201904296875 26.38916015625
1.163818359375 7.60205078125 27.164306640625
-6.907958984375 -12.9140625 21.086181640625
-62.15185546875 -35.203125 13.916015625
-87.7275390625 -45.993408203125 10.22412109375
-4.740478515625 -7.1328125 23.3818359375
30.29833984375 49.061767578125 32.6572265625
-27.08056640625 -15.45068359375 21.37646484375
-68.4931640625 -57.848388671875 9.8564453125
-63.146240234375 -31.965576171875 -40.555419921875
-65.195068359375 -58.47119140625 9.78369140625
-78.48486328125 -43.95361328125 11.482421875
-23.6396484375 -15.177734375 21.1494140625
18.640380859375 49.23193359375 36.64697265625
-28.835205078125 -35.23974609375 12.969482421875
-83.585693359375 -36.68505859375 12.1357421875
-24.90771484375 -10.185546875 20.053955078125
-87.34375 -51.45556640625 8.794921875
-55.43505859375 -15.495361328125 39.480712890625
49.338623046875 45.62109375 20.767578125
24.5283203125 30.71826171875 28.373779296875
-30.755126953125 -37.734619140625 11.6142578125
-74.724609375 -33.787353515625 13.40380859375
29.360595703125 31.058837890625 28.387451171875
-74.60791015625 -65.557373046875 7.556884765625
12.403076171875 9.786376953125 27.34375
-78.892822265625 -49.795166015625 9.96875
33.756103515625 33.55859375 27.322265625
-69.981689453125 -64.21923828125 7.3330078125
-54.609619140625 -64.814453125 2.8837890625
-56.037353515625 -60.7431640625 9.321533203125
24.4912109375 51.518310546875 33.35546875
-23.870361328125 -34.2744140625 11.980712890625
-56.81298828125 -35.04345703125 14.147216796875
-31.93359375 -19.897705078125 17.86962890625
-82.1357421875 -54.244140625 8.625244140625
-30.30029296875 -24.05712890625 19.3779296875
-53.75537109375 -53.14697265625 12.06591796875
-78.614501953125 -62.39404296875 7.628662109375
-0.272216796875 19.459228515625 -37.96337890625
36.077880859375 50.79833984375 31.260009765625
-15.782470703125 -2.2021484375 23.797119140625
-77.352783203125 -56.990966796875 8.795654296875
-71.9296875 -37.22900390625 12.98291015625
-66.755859375 -52.51513671875 10.526611328125
-41.4638671875 -52.822998046875 9.472412109375
-43.10888671875 -50.197509765625 9.6845703125
-0.8623046875 13.4345703125 27.440673828125
-40.349365234375 -28.27587890625 16.507080078125
-38.113037109375 -49.59814453125 10.244140625
-71.36767578125 -61.484375 8.92041015625
-54.57666015625 -30.58544921875 -40.75341796875
44.23046875 31.613525390625 -41.83447265625
25.220947265625 39.53466796875 27.06982421875
37.04833984375 37.7978515625 25.819580078125
-11.805419921875 -19.90966796875 17.453369140625
-19.4599609375 -17.415283203125 21.08642578125
-47.538818359375 -58.346435546875 9.265869140625
-65.11962890625 -48.39501953125 11.538818359375
10.2998046875 5.695068359375 26.668701171875
-69.031005859375 -66.351806640625 3.40283203125
-93.02587890625 -51.395263671875 5.528076171875
28.553955078125 52.467529296875 31.63427734375
-65.220458984375 -32.817626953125 -41.755615234375
43.838134765625 50.083984375 29.2021484375
-65.523681640625 -64.444580078125 7.936767578125
-62.75830078125 -67.74267578125 -1.982666015625
-62.6904296875 -40.1328125 13.61474609375
-11.533447265625 -17.341552734375 20.12158203125
-62.29736328125 -58.225341796875 9.87451171875
-54.995361328125 -65.9171142578125 0.076904296875
-28.683349609375 -17.0537109375 20.765380859375
-19.99560546875 -30.22509765625 12.54638671875
-52.5283203125 -62.326171875 8.168212890625
-60.410888671875 -70.2193603515625 -3.88427734375
4.13427734375 18.019287109375 -38.90283203125
-13.352783203125 -8.07373046875 23.488037109375
35.6259765625 42.149169921875 23.82373046875
-48.468017578125 -52.73095703125 10.751708984375
-8.833251953125 -15.367431640625 19.900390625
-41.84375 -33.81298828125 -39.466064453125
-17.21240234375 -0.093994140625 24.731689453125
-34.936767578125 -32.34423828125 -39.658935546875
-25.516845703125 -36.3291015625 11.36767578125
-33.779052734375 -37.45556640625 13.828125
-52.492431640625 -46.90625 13.209716796875
-42.78173828125 -46.211669921875 12.970947265625
-49.721923828125 -26.821533203125 -42.059326171875
41.6318359375 54.474853515625 26.962158203125
31.86181640625 46.093994140625 22.124755859375
3.58349609375 12.0673828125 28.25341796875
-12.090576171875 -11.853759765625 23.0498046875
-43.3779296875 -52.195556640625 10.683349609375
-63.38037109375 -29.311767578125 -41.307861328125
-67.65625 -62.143310546875 8.815673828125
-59.536865234375 -64.25390625 9.506103515625
29.077880859375 28.9443359375 29.05419921875
3.285400390625 9.195556640625 27.447265625
-74.511962890625 -56.302490234375 9.184814453125
-45.892822265625 -45.556640625 13.941162109375
-30.762451171875 -33.726318359375 16.141357421875
42.901611328125 35.441162109375 -43.4580078125
-22.5205078125 -30.4560546875 14.119140625
42.018310546875 37.8291015625 24.310791015625
-84.50244140625 -48.6826171875 9.590576171875
-80.10791015625 -45.537841796875 11.02783203125
-51.846923828125 -29.3642578125 -40.7021484375
-76.875244140625 -48.21923828125 10.54931640625
-63.07861328125 -43.885009765625 12.663330078125
38.153564453125 29.51220703125 -44.526611328125
-75.210693359375 -41.216552734375 12.09521484375
-30.211669921875 -30.33544921875 18.005859375
38.29248046875 49.02099609375 21.817138671875
-18.924072265625 -22.514404296875 18.137939453125
-76.78076171875 -31.6064453125 14.103515625
20.3271484375 54.0322265625 33.079833984375
44.73779296875 47.901611328125 30.254638671875
-56.592041015625 -68.468017578125 -1.0166015625
38.10009765625 48.77197265625 25.0361328125
-78.968505859375 -54.373291015625 9.315185546875
-36.54150390625 -34.02880859375 -38.7392578125
-36.800537109375 -21.734375 18.69140625
42.16259765625 45.59521484375 21.97265625
13.813720703125 9.365478515625 25.46826171875
35.838623046875 49.09130859375 26.52197265625
37.43896484375 52.147705078125 29.959228515625
-28.74658203125 -37.065673828125 10.367431640625
-8.24072265625 3.3330078125 26.637451171875
-69.217041015625 -54.483642578125 9.983642578125
-9.855224609375 1.322998046875 26.03857421875
-61.43310546875 -45.229736328125 12.425048828125
-9.35400390625 -11.551025390625 22.418701171875
-61.059326171875 -66.12841796875 -1.67626953125
-26.955322265625 -32.741943359375 14.477294921875
-35.478515625 -9.913818359375 12.36376953125
34.865478515625 46.8818359375 22.534912109375
-34.33154296875 -22.247802734375 18.843017578125
47.04931640625 45.541015625 22.14013671875
-66.80859375 -47.020751953125 12.0869140625
-66.39990234375 -32.587646484375 12.783203125
52.81396484375 54.643310546875 24.48779296875
25.425048828125 28.15478515625 29.430908203125
-35.02685546875 -46.41064453125 10.258544921875
-62.34619140625 -52.28369140625 11.431396484375
-20.67431640625 -13.63232421875 21.374755859375
-37.78369140625 -42.379638671875 11.91064453125
37.34033203125 48.711181640625 31.241455078125
8.159423828125 11.5283203125 28.7431640625
-38.04248046875 -31.25732421875 17.031005859375
-54.720458984375 -26.587646484375 -41.727783203125
12.12451171875 52.59814453125 35.893310546875
-60.254638671875 -55.7939453125 10.593994140625
16.02001953125 48.31689453125 38.10986328125
-35.532470703125 -28.450927734375 17.555419921875
39.371826171875 47.29736328125 27.71875
-81.801025390625 -31.454833984375 12.337890625
-54.515380859375 -51.027099609375 12.06982421875
-18.369873046875 -8.727294921875 23.066650390625
-19.539306640625 -25.460205078125 16.72021484375
-25.263671875 -24.272216796875 19.508056640625
-71.606689453125 -47.653076171875 11.07080078125
-57.48095703125 -58.85302734375 10.7744140625
-58.699951171875 -65.2340087890625 4.470458984375
-7.981689453125 -4.9384765625 24.5810546875
41.822509765625 41.65673828125 23.924560546875
-15.626708984375 -17.98681640625 21.00634765625
-26.775634765625 -35.3232421875 13.29248046875
-14.611572265625 -14.670166015625 22.52294921875
33.569580078125 30.19775390625 27.5654296875
-2.086669921875 -6.394287109375 23.199462890625
4.03466796875 5.03564453125 27.35498046875
-27.6103515625 -13.38818359375 20.30615234375
-50.4609375 -55.205078125 9.714599609375
23.20458984375 28.666015625 28.20068359375
-58.222900390625 -52.936279296875 11.457763671875
-57.914794921875 -72.529296875 -4.03369140625
-70.460205078125 -31.57177734375 12.743408203125
-71.967529296875 -45.14208984375 11.343505859375
-9.596435546875 -7.788330078125 23.848876953125
-5.06591796875 -2.133544921875 25.234130859375
-16.184326171875 -11.71240234375 22.39990234375
-58.9794921875 -36.153076171875 14.477294921875
-1.857666015625 7.271240234375 27.202880859375
-47.17236328125 -37.51318359375 15.518798828125
-7.332763671875 5.36767578125 26.682373046875
-21.951416015625 -23.15234375 20.0234375
39.699462890625 28.035888671875 -43.346435546875
-49.98388671875 -38.239013671875 14.8154296875
22.7861328125 50.198486328125 34.507080078125
-47.968017578125 -48.81591796875 13.24365234375
-56.130126953125 -64.9991455078125 4.268798828125
-81.760498046875 -50.45849609375 9.889404296875
4.09033203125 23.07080078125 -39.920654296875
-64.3349609375 -50.943359375 11.23583984375
-60.67578125 -49.86181640625 11.867919921875
25.16943359375 25.697265625 28.60888671875
-65.53515625 -43.339599609375 12.672607421875
-50.134765625 -30.7783203125 -40.486572265625
-81.189453125 -35.548583984375 12.694580078125
-69.102294921875 -43.20361328125 11.855224609375
39.27978515625 42.549072265625 23.596435546875
-42.57080078125 -36.073486328125 15.778564453125
-45.063232421875 -49.980224609375 11.061279296875
21.075927734375 49.69580078125 35.779541015625
-74.068603515625 -50.449951171875 10.39697265625
-61.747802734375 -30.246337890625 -40.5595703125
-57.279541015625 -15.839599609375 38.60595703125
-86.107421875 -47.342529296875 9.830810546875
-0.4326171875 11.7451171875 28.79296875
-58.312744140625 -62.6181640625 9.9970703125
-40.26171875 -49.4658203125 10.39501953125
-38.96337890625 -37.506103515625 -38.59619140625
-54.365234375 -12.83544921875 36.39306640625
-56.92919921875 -22.856201171875 41.839599609375
-11.0966796875 -13.5654296875 22.27490234375
-52.982666015625 -33.318359375 -40.13720703125
-36.522705078125 -11.146484375 11.07666015625
-91.60009765625 -53.872802734375 6.404052734375
-61.70068359375 -63.638671875 10.114013671875
-56.813232421875 -70.3154296875 -2.5615234375
-25.708251953125 -33.830810546875 10.69873046875
37.83056640625 39.52392578125 24.973388671875
46.698486328125 53.23974609375 26.3984375
24.23388671875 54.13720703125 31.684326171875
-45.87646484375 -55.0341796875 9.99951171875
-48.28857421875 -33.92431640625 -38.809814453125
-91.571533203125 -51.783935546875 6.815185546875
-32.25390625 -36.755615234375 12.77978515625
-49.899658203125 -57.00537109375 8.6279296875
35.504150390625 52.5283203125 30.505126953125
42.815673828125 34.1171875 -44.906005859375
-26.099365234375 -27.15869140625 19.025390625
21.52978515625 32.918212890625 26.99560546875
-24.09228515625 -31.67724609375 13.3291015625
-61.796630859375 -69.1829833984375 -2.990234375
-42.989013671875 -38.983642578125 15.266357421875
28.5634765625 48.0517578125 29.811279296875
-32.684814453125 -34.2646484375 -39.84326171875
-30.6923828125 -26.54443359375 18.857666015625
39.5615234375 38.656982421875 25.04443359375
-91.021484375 -46.441650390625 7.26318359375
-81.781494140625 -52.5458984375 9.48046875
2.1708984375 21.6826171875 -38.071044921875
-1.78759765625 -0.1669921875 26.035888671875
27.33447265625 37.91943359375 25.781494140625
26.74072265625 54.216064453125 30.65478515625
-45.410400390625 -34.1103515625 -39.815673828125
-30.159423828125 -32.44140625 17.444091796875
-34.228759765625 -44.73828125 10.7841796875
38.7734375 52.666259765625 28.674072265625
-53.75 -16.37158203125 38.84814453125
-7.99169921875 1.680908203125 25.46923828125
-84.801025390625 -58.017822265625 6.13671875
-19.472412109375 -28.418212890625 16.01953125
-72.782470703125 -41.33642578125 12.22802734375
-21.368408203125 -10.271240234375 22.991943359375
32.45068359375 39.574951171875 25.137451171875
-73.10400390625 -31.1025390625 11.3974609375
-0.197509765625 -3.538818359375 24.521240234375
1.39599609375 18.9453125 -37.2119140625
39.828857421875 30.2978515625 -41.93115234375
-34.356689453125 -11.61474609375 12.78857421875
-81.271728515625 -60.677734375 6.550537109375
-68.536376953125 -65.7281494140625 5.70166015625
-55.337646484375 -28.326171875 -41.085205078125
-37.2529296875 -29.614013671875 17.546630859375
-53.327880859375 -25.3037109375 -41.720703125
-55.79345703125 -67.880859375 -3.023193359375
-31.41455078125 -42.84521484375 9.91552734375
-85.70068359375 -44.437744140625 10.648193359375
-34.425048828125 -40.432861328125 12.401123046875
25.47705078125 37.5078125 26.05126953125
-29.4990234375 -21.174072265625 20.01220703125
-56.37353515625 -31.40478515625 -40.908935546875
-26.306396484375 -30.205078125 15.755615234375
-14.558349609375 -10.5224609375 22.87109375
8.884765625 4.4853515625 26.931640625
37.834716796875 36.09765625 25.96630859375
-47.35400390625 -30.927001953125 -40.948486328125
-64.776611328125 -62.3154296875 8.91650390625
-26.951904296875 -20.0361328125 20.12158203125
0.234375 21.26318359375 -37.873291015625
-46.673828125 -43.852783203125 13.955078125
36.449462890625 53.477783203125 29.085205078125
-42.986083984375 -42.761474609375 14.591796875
-39.811767578125 -47.3798828125 10.623779296875
-13.43115234375 -20.694091796875 16.96630859375
-62.327880859375 -61.597412109375 9.33837890625
-5.423583984375 0.775634765625 25.335205078125
-70.486572265625 -57.3427734375 9.528564453125
-33.0556640625 -30.6435546875 17.4423828125
-10.396240234375 -6.103515625 23.857666015625
-30.763427734375 -19.045166015625 20.34521484375
41.794189453125 32.117431640625 -41.79443359375
-0.51025390625 -5.611083984375 23.837646484375
-54.076904296875 -38.050048828125 14.4853515625
-53.51513671875 -65.4569091796875 1.385009765625
25.91650390625 31.952392578125 28.263916015625
-36.167724609375 -23.0439453125 17.46826171875
-17.886474609375 -16.633056640625 21.72216796875
-7.8935546875 7.0439453125 25.78125
1.781982421875 11.694580078125 28.516357421875
9.05712890625 9.8544921875 28.433837890625
-39.287353515625 -39.1513671875 15.627685546875
-69.220458984375 -47.33056640625 11.656005859375
-15.948974609375 -6.3251953125 23.9072265625
-41.414306640625 -33.595947265625 16.70654296875
-39.739013671875 -43.45654296875 13.0
-78.932861328125 -48.09130859375 10.69677734375
-23.085693359375 -8.5546875 23.35791015625
-46.357421875 -48.038818359375 13.726318359375
-41.89501953125 -31.88818359375 17.3056640625
-43.534912109375 -33.310302734375 -40.02490234375
-8.742431640625 -3.257568359375 24.43701171875
45.358154296875 54.60986328125 25.228515625
-78.902099609375 -64.16552734375 6.297607421875
-44.59765625 -39.759765625 14.78466796875
-1.0703125 9.30712890625 27.701904296875
-88.945068359375 -50.1123046875 9.035888671875
5.545654296875 53.376708984375 36.65771484375
-61.838623046875 -48.149658203125 11.757080078125
40.527099609375 50.471923828125 29.82763671875
-58.056640625 -30.904296875 -41.465087890625
-69.977783203125 -38.958251953125 13.189453125
-54.81201171875 -59.10546875 9.8134765625
30.547119140625 39.5703125 25.552490234375
-58.331787109375 -70.7646484375 -3.718017578125
-54.5751953125 -45.530029296875 13.476806640625
-52.419189453125 -37.298095703125 14.656982421875
-56.529052734375 -40.443359375 13.798583984375
10.615478515625 51.73291015625 36.57421875
-20.7890625 -11.95947265625 22.094970703125
-82.01904296875 -38.404296875 12.063232421875
-32.6064453125 -36.22509765625 14.48681640625
-78.034423828125 -41.912353515625 11.7060546875
-86.1494140625 -55.30419921875 7.8740234375
-17.982666015625 -21.253173828125 19.720458984375
13.150634765625 49.174560546875 37.804931640625
-76.445556640625 -44.485107421875 11.346923828125
24.466796875 35.835205078125 26.302001953125
25.526123046875 50.218017578125 34.06591796875
43.29150390625 53.187744140625 27.2001953125
10.84130859375 9.397216796875 28.19189453125
-5.18505859375 4.89453125 26.565185546875
37.52880859375 42.9921875 23.53759765625
-81.60693359375 -40.927490234375 11.33251953125
-2.65966796875 -2.210205078125 25.8388671875
-50.3779296875 -61.207275390625 8.13916015625
-86.1318359375 -49.423095703125 9.4228515625
-53.742919921875 -14.83349609375 36.97412109375
-54.478759765625 -61.430419921875 7.51123046875
26.30224609375 47.840576171875 32.7578125
-66.695068359375 -36.21484375 13.803955078125
-44.9580078125 -35.9482421875 -40.18017578125
-18.274658203125 -28.1875 12.84423828125
-93.23876953125 -51.94775390625 3.696533203125
-34.98583984375 -38.67626953125 13.32470703125
-10.599853515625 -18.68896484375 17.957763671875
49.0986328125 53.792724609375 24.725830078125
-57.87255859375 -27.798583984375 -41.913818359375
-2.9912109375 4.42041015625 26.2958984375
27.2080078125 28.129150390625 29.330078125
-74.105712890625 -60.556396484375 8.175048828125
-56.57177734375 -51.76220703125 11.772705078125
-36.63330078125 -31.83984375 -40.2197265625
-10.32177734375 -14.874267578125 20.743896484375
40.3564453125 53.13623046875 27.971923828125
-11.2939453125 -1.106689453125 24.69140625
22.225341796875 52.320556640625 33.75244140625
15.018798828125 53.081787109375 34.853759765625
-73.3095703125 -55.091796875 9.68310546875
26.83056640625 51.13916015625 32.795654296875
-33.526123046875 -21.09375 17.24462890625
-43.89404296875 -56.133544921875 8.323486328125
-54.94482421875 -35.20263671875 12.950439453125
-46.70751953125 -56.68994140625 9.6328125
-43.4697265625 -47.4970703125 11.970947265625
-57.33837890625 -34.69580078125 12.495361328125
-0.973876953125 1.463134765625 26.39599609375
-14.7626953125 -20.580322265625 18.886474609375
32.101806640625 31.031982421875 28.080810546875
-68.823974609375 -49.024658203125 11.361328125
-32.066162109375 -34.91357421875 16.10498046875
-7.453857421875 -1.643310546875 24.618896484375
40.123046875 40.8525390625 23.58740234375
31.434814453125 41.734130859375 24.38720703125
-59.494873046875 -51.163330078125 11.9677734375
18.570068359375 54.03125 33.17578125
-27.4169921875 -18.349609375 20.56396484375
13.698974609375 11.02587890625 26.036865234375
-4.091552734375 7.73974609375 27.621337890625
-10.728515625 5.069580078125 24.955810546875
-40.928955078125 -39.917236328125 15.300048828125
10.33056640625 13.12744140625 28.875732421875
-59.0234375 -54.592529296875 10.938720703125
-37.787353515625 -40.9814453125 14.189697265625
-35.839599609375 -38.51123046875 15.376708984375
-36.8203125 -35.906982421875 16.45068359375
-68.886474609375 -63.34423828125 8.470947265625
7.010009765625 7.01953125 27.728271484375
-55.5595703125 -24.757080078125 -41.68212890625
-49.2158203125 -41.606201171875 14.537353515625
-49.763671875 -53.909423828125 10.718017578125
40.541748046875 28.860595703125 -41.229736328125
-13.755859375 0.2099609375 24.51171875
-22.13330078125 -5.2919921875 23.369140625
-55.36572265625 -56.0361328125 11.171875
-61.147705078125 -54.4404296875 11.242431640625
-21.562255859375 -21.495849609375 20.412841796875
33.829345703125 52.970703125 30.289794921875
-49.988037109375 -47.04638671875 13.190185546875
-33.104248046875 -26.874267578125 18.266845703125
7.416259765625 4.120849609375 25.978759765625
-14.526611328125 -16.345703125 21.954833984375
-73.193115234375 -42.984130859375 11.839111328125
-63.840576171875 -69.9625244140625 -3.61083984375
-61.983154296875 -33.60107421875 13.256591796875
27.05224609375 39.616455078125 25.454833984375
-24.02880859375 -16.82666015625 20.761474609375
-33.3134765625 -18.99267578125 18.546142578125
-58.575927734375 -44.53125 12.8173828125
22.73388671875 48.447265625 35.8681640625
-90.106689453125 -47.1416015625 9.51123046875
-72.500732421875 -56.822265625 9.3564453125
-85.43310546875 -35.839599609375 11.033935546875
-9.19921875 0.066650390625 24.983642578125
-43.49853515625 -32.661865234375 16.825439453125
-83.792236328125 -52.441162109375 9.320556640625
13.901123046875 50.46826171875 36.8662109375
-76.122802734375 -52.84912109375 9.837158203125
8.60009765625 6.1591796875 26.6083984375
-53.52685546875 -27.96044921875 -41.100341796875
5.2607421875 12.434814453125 28.44384765625
18.26953125 47.924560546875 37.71337890625
-28.607421875 -23.7158203125 19.410400390625
24.294921875 32.41259765625 27.896728515625
-11.63818359375 -2.749755859375 24.1533203125
-63.065673828125 -38.458251953125 13.753662109375
-41.759521484375 -27.76123046875 17.349365234375
-23.9892578125 -18.495361328125 20.345947265625
28.996826171875 43.567138671875 22.51220703125
-17.9248046875 -3.782958984375 23.6689453125
-31.99072265625 -23.56640625 19.47705078125
-69.899658203125 -35.247802734375 13.551513671875
39.484619140625 48.6826171875 31.421630859375
-68.84326171875 -56.1728515625 9.84228515625
-22.7861328125 -19.784912109375 20.450439453125
29.677978515625 35.33837890625 26.4609375
-60.20361328125 -29.92578125 -41.8037109375
-80.216796875 -30.6904296875 12.8125
-53.741455078125 -59.292724609375 8.4970703125
-50.85205078125 -50.35498046875 12.7158203125
-42.007568359375 -49.3466796875 10.672607421875
-61.087890625 -59.551025390625 9.817626953125
-25.302490234375 -22.59716796875 19.9248046875
-75.00146484375 -63.84375 7.855712890625
-38.407470703125 -32.92431640625 16.48681640625
-19.115966796875 -14.095458984375 21.889892578125
40.6328125 47.076904296875 30.502685546875
-15.585693359375 -0.5576171875 24.94140625
-24.99755859375 -14.286865234375 21.66650390625
-35.126708984375 -33.062255859375 16.8779296875
-56.5986328125 -57.239501953125 10.826416015625
-2.4453125 10.572021484375 28.197998046875
-29.474853515625 -36.529052734375 11.805908203125
-62.671630859375 -42.230712890625 13.05322265625
-48.431396484375 -28.224609375 -41.980712890625
28.449462890625 40.864013671875 25.34228515625
-48.429931640625 -56.9931640625 9.764892578125
-82.08740234375 -46.29296875 10.4267578125
6.029052734375 14.057373046875 28.953857421875
-45.05126953125 -43.501708984375 14.293212890625
-69.1865234375 -50.7099609375 10.66064453125
-64.23779296875 -39.6728515625 13.103271484375
-48.400634765625 -38.7119140625 15.1748046875
-35.106201171875 -42.56298828125 11.2607421875
-85.360595703125 -51.123046875 9.25244140625
-74.85107421875 -61.833984375 7.332275390625
11.927001953125 47.875732421875 38.908935546875
-59.06201171875 -49.513427734375 12.20458984375
-80.187255859375 -61.916015625 7.27197265625
2.654296875 0.525390625 25.6015625
-8.180419921875 -9.922607421875 23.060302734375
-66.857421875 -57.517578125 10.036865234375
20.35546875 48.40771484375 36.5771484375
-63.78173828125 -35.543212890625 13.734375
-68.286376953125 -35.736083984375 13.600830078125
-5.275146484375 -8.79345703125 21.94482421875
-83.69580078125 -59.27197265625 6.70166015625
-35.12890625 -35.573974609375 16.48095703125
-34.17529296875 -12.892333984375 11.726318359375
-64.414306640625 -67.6544189453125 -2.172119140625
10.41162109375 7.358154296875 26.4716796875
-75.147216796875 -31.275390625 14.13134765625
-62.541259765625 -66.328369140625 -0.433837890625
-78.80126953125 -37.3125 12.56494140625
-16.499755859375 -20.5048828125 18.997802734375
6.0478515625 2.9130859375 26.08984375
32.329833984375 49.115966796875 31.8046875
-65.458984375 -34.615478515625 14.134521484375
-53.107421875 -57.5283203125 9.9619140625
23.057373046875 33.686279296875 27.787353515625
42.3388671875 47.314453125 21.61328125
-34.826171875 -27.205322265625 18.388916015625
33.855224609375 51.21728515625 31.372314453125
-24.2919921875 -26.842041015625 18.59521484375
42.543212890625 39.5166015625 24.23876953125
-38.7841796875 -33.92919921875 -38.874755859375
-64.4091796875 -55.95947265625 10.591552734375
-75.9453125 -36.216796875 12.789794921875
-50.05029296875 -39.886962890625 14.859375
-54.64208984375 -64.125732421875 5.551513671875
-76.86962890625 -59.185302734375 7.73095703125
-17.4482421875 -10.007080078125 22.5888671875
-51.531982421875 -64.609375 6.898193359375
-56.830078125 -67.089111328125 -4.24951171875
-70.843505859375 -52.2900390625 10.358154296875
42.28564453125 42.583251953125 22.651611328125
-25.604736328125 -11.415283203125 19.22119140625
-32.486328125 -10.443603515625 12.167724609375
-22.886474609375 -9.812744140625 22.326171875
-53.275634765625 -39.753662109375 14.317626953125
-70.467529296875 -62.8642578125 8.11279296875
-56.7001953125 -63.778076171875 7.731689453125
11.7490234375 12.274658203125 28.367431640625
-79.59130859375 -41.86279296875 11.2080078125
-60.24267578125 -48.212890625 12.1044921875
-89.354736328125 -45.893798828125 10.341796875
33.627685546875 36.531494140625 26.654296875
9.0654296875 52.99462890625 36.191162109375
-63.459228515625 -48.0732421875 11.56494140625
46.194091796875 51.45263671875 27.6806640625
33.637451171875 31.874267578125 27.520751953125
35.245849609375 33.146728515625 26.793701171875
-1.674072265625 -3.48779296875 25.210693359375
-57.853271484375 -50.828857421875 12.1494140625
-69.061767578125 -33.219970703125 13.8994140625
-6.904052734375 -10.825927734375 21.339111328125
-80.50048828125 -59.419921875 7.236572265625
-38.082275390625 -26.66162109375 17.986328125
-74.530517578125 -53.338134765625 10.038818359375
45.317138671875 40.8466796875 22.818359375
19.05712890625 52.297119140625 34.217529296875
6.224365234375 0.83251953125 25.228515625
44.81884765625 53.2265625 26.658203125
-89.703125 -54.314697265625 7.349365234375
-35.739990234375 -35.40283203125 -38.429443359375
30.05419921875 52.920166015625 31.095703125
-73.073486328125 -34.292724609375 13.146484375
-24.419921875 -10.59423828125 21.54052734375
-51.577392578125 -28.085205078125 -42.01953125
32.2685546875 52.50390625 30.983154296875
43.79296875 42.51171875 23.481201171875
-59.222412109375 -69.374267578125 -3.1943359375
-60.364501953125 -66.3421630859375 -3.333740234375
-56.108154296875 -38.37744140625 14.177490234375
-15.336669921875 -19.28369140625 19.653564453125
-53.77978515625 -31.951904296875 -40.4453125
-27.69580078125 -33.99609375 13.78759765625
23.89697265625 52.820068359375 32.6201171875
-26.859130859375 -34.5546875 11.8857421875
-58.806396484375 -29.1015625 -41.967529296875
-55.362548828125 -49.707763671875 12.406005859375
-17.410400390625 -18.322509765625 21.279541015625
-60.943359375 -28.57861328125 -42.47705078125
-51.64208984375 -48.22265625 12.87451171875
37.59130859375 54.366943359375 28.3994140625
-56.230712890625 -17.848876953125 39.01953125
-33.330322265625 -40.56103515625 11.242431640625
-21.729248046875 -24.866943359375 18.835693359375
-88.259765625 -42.77978515625 8.96435546875
6.919677734375 9.085205078125 28.279541015625
-67.050048828125 -32.891845703125 14.205322265625
2.802490234375 1.760986328125 26.760986328125
-33.579345703125 -23.9287109375 18.985107421875
-77.541015625 -32.829833984375 13.429931640625
-85.603515625 -39.074951171875 11.427490234375
49.7744140625 52.7919921875 26.53564453125
-6.704345703125 8.242431640625 26.277099609375
1.451904296875 -1.928955078125 24.983154296875
-91.884521484375 -48.038330078125 7.212646484375
-14.246826171875 -5.970458984375 23.94287109375
2.677001953125 13.322021484375 28.572998046875
-6.590087890625 -8.72607421875 23.685546875
7.3115234375 53.3896484375 36.419189453125
-77.608154296875 -36.116943359375 13.05810546875
3.591552734375 -1.16552734375 25.135498046875
-56.530517578125 -26.954833984375 -41.712158203125
43.2080078125 29.771484375 -41.878173828125
-74.135498046875 -58.417724609375 8.898681640625
-23.7314453125 -29.908203125 15.727783203125
33.109130859375 34.85791015625 26.72509765625
30.32568359375 34.04052734375 27.057373046875
40.7001953125 46.002685546875 22.357666015625
-90.89599609375 -52.99267578125 7.562255859375
-47.8125 -60.53271484375 8.090576171875
-9.60791015625 7.5244140625 24.229248046875
28.943115234375 25.60595703125 29.143310546875
48.242919921875 49.72802734375 28.059326171875
-58.50634765625 -67.865966796875 -4.579833984375
-0.17626953125 6.810791015625 27.26318359375
-73.281494140625 -64.85791015625 7.13037109375
-57.77880859375 -39.538818359375 14.01708984375
-79.61279296875 -36.02490234375 12.896240234375
-40.03759765625 -42.921142578125 14.544921875
-58.1572265625 -41.20458984375 13.47314453125
-20.310546875 -26.700439453125 16.188232421875
-87.0009765625 -53.11669921875 8.80859375
-71.80712890625 -31.88037109375 13.45458984375
-61.44775390625 -41.0361328125 13.39599609375
-30.663330078125 -17.403076171875 20.148193359375
-53.734375 -41.387939453125 14.236083984375
-23.1796875 -13.539306640625 21.231201171875
-41.740966796875 -37.36865234375 15.600341796875
23.576171875 37.0888671875 26.47412109375
-24.41455078125 -20.14208984375 20.110595703125
-52.6328125 -35.6796875 13.869873046875
-12.9755859375 -16.8505859375 20.809326171875
-8.068603515625 -14.1337890625 20.43017578125
-21.145751953125 -17.348876953125 21.041748046875
-24.57861328125 -12.6806640625 20.093017578125
-46.34765625 -38.806884765625 15.340576171875
-67.5634765625 -51.212890625 10.7080078125
34.018310546875 43.454833984375 23.431396484375
-3.781005859375 2.37890625 25.795166015625
-55.167236328125 -67.3531494140625 -1.6376953125
-37.83984375 -47.012939453125 11.405517578125
-17.856689453125 -14.973876953125 21.8310546875
-51.927978515625 -59.473388671875 7.744140625
-92.5732421875 -54.421630859375 4.169189453125
21.943359375 32.833251953125 28.470947265625
-46.52197265625 -58.91748046875 8.269775390625
25.643798828125 48.09619140625 34.844970703125
-38.455810546875 -45.788330078125 10.489013671875
45.03271484375 50.56298828125 28.371337890625
-47.195556640625 -33.5771484375 -39.825439453125
-54.034423828125 -13.28662109375 34.53564453125
-33.414794921875 -43.49755859375 11.1630859375
42.24853515625 49.619384765625 29.902099609375
-49.58544921875 -45.380859375 13.58203125
-28.224609375 -38.701416015625 11.614501953125
-63.552001953125 -63.231201171875 8.84765625
39.25927734375 51.322509765625 29.72802734375
-2.283935546875 -5.1337890625 24.085693359375
-39.857666015625 -32.134033203125 -40.065673828125
-21.58642578125 -8.62060546875 22.365478515625
-65.99951171875 -61.401123046875 8.985107421875
-66.435302734375 -63.057861328125 8.7470703125
-82.096435546875 -58.500244140625 7.180908203125
-8.579833984375 -12.01904296875 21.01904296875
4.98828125 3.768798828125 26.881103515625
-61.187744140625 -68.635498046875 -1.44677734375
-63.486572265625 -59.0302734375 9.362548828125
25.732177734375 33.65625 27.633544921875
-49.8876953125 -32.09375 -39.58447265625
30.671142578125 30.205810546875 28.333251953125
22.317626953125 29.921142578125 28.370849609375
-53.326904296875 -56.55908203125 11.34619140625
-58.70361328125 -60.486083984375 10.2841796875
41.302490234375 34.133544921875 -44.7568359375
-61.485595703125 -56.99560546875 10.249267578125
31.238525390625 50.3046875 32.575439453125
-11.6416015625 3.857421875 25.041015625
4.038330078125 10.40771484375 27.969482421875
-18.24609375 -20.37353515625 20.9287109375
-81.3544921875 -56.379150390625 8.3095703125
-38.453369140625 -40.451416015625 15.448974609375
-63.598876953125 -54.73291015625 10.96533203125
-65.53662109375 -66.5311279296875 -0.191162109375
-39.099365234375 -48.642578125 11.068603515625
-78.043212890625 -61.27197265625 6.78466796875
17.18359375 47.065673828125 38.369140625
-84.08447265625 -57.143310546875 7.14453125
-31.017822265625 -29.052001953125 18.02880859375
-46.265625 -40.51318359375 14.612060546875
-76.19580078125 -62.51953125 7.913818359375
-23.198486328125 -26.51513671875 17.600830078125
-80.538818359375 -57.697021484375 7.97119140625
-83.258544921875 -41.240478515625 11.460205078125
-52.331298828125 -65.6754150390625 4.15283203125
-60.228515625 -41.9296875 13.3310546875
30.627685546875 36.586669921875 26.375244140625
-35.566650390625 -30.111328125 17.445556640625
50.911376953125 52.9453125 29.63818359375
-44.742919921875 -34.27197265625 16.492431640625
-51.14404296875 -55.041259765625 11.153564453125
-39.4853515625 -50.756591796875 10.525634765625
20.483154296875 52.733154296875 33.8369140625
-54.85009765625 -69.4769287109375 -1.452392578125
-71.717041015625 -59.8076171875 8.906494140625
-2.608154296875 1.1005859375 26.054443359375
-18.28173828125 -12.05078125 22.2392578125
-43.916748046875 -35.562744140625 16.315185546875
2.07666015625 -3.615234375 24.082763671875
-57.787353515625 -45.816650390625 12.792236328125
-40.236328125 -52.02587890625 9.83203125
-38.7529296875 -24.58349609375 17.5263671875
34.13818359375 39.1220703125 25.35205078125
26.265625 26.892333984375 29.413818359375
15.70556640625 51.814453125 35.28515625
-17.194580078125 -7.936767578125 23.573974609375
25.2724609375 29.442626953125 28.6611328125
-25.72998046875 -31.9462890625 14.83642578125
-13.93359375 1.450439453125 25.388671875
6.043212890625 51.663818359375 37.6826171875
-50.743896484375 -58.229248046875 8.407470703125
-32.5439453125 -21.093017578125 18.5458984375
-38.460693359375 -35.836669921875 16.25537109375
-84.76220703125 -37.471923828125 11.63232421875
-22.240478515625 -27.835205078125 16.95751953125
-27.385498046875 -27.932373046875 18.976806640625
-21.9609375 -14.41162109375 21.324951171875
-0.89013671875 -7.26611328125 23.448486328125
-19.245849609375 -4.56298828125 23.77001953125
-73.290771484375 -51.733642578125 10.370361328125
-6.358154296875 4.107177734375 26.05810546875
38.930908203125 40.388671875 24.431396484375
-79.171142578125 -38.973388671875 11.870849609375
-46.9736328125 -54.193603515625 9.28173828125
-22.16748046875 -11.48583984375 22.62158203125
-57.0517578125 -61.4306640625 10.1865234375
-3.958984375 -8.406005859375 23.51513671875
5.626708984375 7.466796875 28.0966796875
-36.692138671875 -24.667724609375 17.694091796875
-4.063232421875 11.44189453125 27.975341796875
-0.931640625 3.531005859375 26.49267578125
-0.15234375 0.195556640625 26.37744140625
-12.10986328125 -5.630126953125 23.9521484375
-54.753173828125 -15.163818359375 38.02783203125
-18.896484375 -7.462890625 23.668701171875
-6.304931640625 2.45556640625 25.64697265625
-10.446044921875 -10.2490234375 23.51025390625
-22.79052734375 -24.369140625 19.80419921875
3.195556640625 3.819091796875 27.1357421875
5.25146484375 5.82568359375 27.71142578125
-50.02734375 -51.6630859375 12.534912109375
-5.84423828125 -0.866455078125 25.10107421875
-11.359375 -16.070556640625 21.293701171875
-22.109619140625 -29.125732421875 16.213623046875
-37.55859375 -34.641357421875 16.16552734375
-75.93994140625 -38.299072265625 12.230712890625
2.312255859375 6.73779296875 27.564697265625
-21.103759765625 -19.019775390625 20.6259765625
38.20947265625 44.7109375 22.997314453125
-65.528564453125 -50.054931640625 11.1474609375
-82.818603515625 -42.533447265625 10.849365234375
39.657958984375 32.275634765625 -44.366455078125
38.656494140625 47.55859375 29.853759765625
-29.213623046875 -16.6533203125 19.431396484375
-51.778076171875 -26.322265625 -43.12255859375
-11.10498046875 0.537353515625 25.835205078125
-78.267333984375 -64.0693359375 7.64208984375
7.60302734375 50.8134765625 38.0537109375
-28.999267578125 -25.370361328125 19.021240234375
-21.96630859375 -12.75146484375 21.586669921875
-13.88427734375 -3.913818359375 24.4697265625
26.556396484375 35.788330078125 26.63232421875
-83.697509765625 -47.04736328125 10.1044921875
-35.411865234375 -21.398681640625 18.136962890625
-26.90673828125 -12.609619140625 19.183349609375
-14.5703125 -1.4150390625 24.15234375
-22.21630859375 -7.3486328125 23.424072265625
-8.684326171875 5.007568359375 25.28125
-25.703125 -19.254150390625 20.323974609375
-47.13525390625 -35.8544921875 15.62890625
-29.552490234375 -18.259033203125 20.699951171875
-55.302001953125 -37.158447265625 14.54931640625
-36.526611328125 -26.291748046875 18.63134765625
17.7763671875 53.11962890625 34.266357421875
43.083740234375 32.531982421875 -41.19091796875
-58.592041015625 -38.2490234375 14.19580078125
-74.822998046875 -49.180908203125 10.2685546875
-47.918701171875 -44.629638671875 13.75390625
-16.73388671875 -23.034912109375 17.853515625
-74.900146484375 -51.65576171875 10.179443359375
-62.557861328125 -36.851318359375 13.527099609375
-76.898681640625 -51.5654296875 9.86376953125
-50.9140625 -41.08642578125 14.79541015625
19.4501953125 50.54345703125 35.5537109375
-71.130126953125 -41.431884765625 12.111572265625
-55.779296875 -43.3837890625 13.663330078125
-92.277099609375 -52.662841796875 5.655029296875
-50.4375 -44.067626953125 13.916748046875
-45.562744140625 -30.552490234375 -40.7802734375
-34.296142578125 -35.94775390625 -38.921875
-61.485107421875 -51.086669921875 11.49462890625
-76.0390625 -42.417724609375 11.878662109375
-71.10107421875 -36.02783203125 13.199462890625
-40.981201171875 -41.996826171875 15.200439453125
-88.5966796875 -53.038330078125 8.619384765625
14.88525390625 49.1708984375 37.714599609375
-11.691162109375 -18.200439453125 18.93408203125
-92.498046875 -49.82421875 4.98583984375
39.253662109375 29.4404296875 -43.33447265625
-36.72021484375 -36.69970703125 -38.3017578125
-68.285888671875 -41.155029296875 12.35888671875
-54.78369140625 -16.692626953125 40.0361328125
-12.8642578125 -14.325439453125 22.404541015625
-30.20166015625 -39.067626953125 10.829833984375
-68.014404296875 -53.271728515625 10.482421875
-27.533935546875 -30.48974609375 17.37451171875
-33.1318359375 -32.87939453125 -39.649169921875
-3.74853515625 10.221435546875 26.64794921875
28.982666015625 50.71044921875 32.83642578125
-60.99951171875 -32.04296875 -40.05908203125
11.780517578125 49.56201171875 38.155029296875
-31.5458984375 -31.511962890625 18.122802734375
-65.410400390625 -38.383544921875 13.00341796875
-36.857421875 -27.959716796875 17.935791015625
34.9677734375 49.4150390625 22.46728515625
-78.4794921875 -57.4111328125 7.964111328125
28.504150390625 48.6513671875 32.765380859375
28.513916015625 27.275634765625 29.276611328125
-20.100341796875 -22.83642578125 19.4404296875
-77.240478515625 -43.19775390625 11.526611328125
-44.487548828125 -50.9228515625 10.112060546875
-84.255859375 -35.052734375 11.537841796875
-35.8291015625 -39.899169921875 13.104248046875
-13.983642578125 -18.092041015625 19.537353515625
-42.107666015625 -46.34033203125 11.692138671875
36.577392578125 49.36376953125 22.982177734375
-44.220458984375 -48.758544921875 11.281494140625
2.974609375 18.92919921875 -37.906005859375
28.59765625 34.486328125 26.99658203125
-67.592529296875 -48.25390625 11.560546875
7.263671875 13.198486328125 29.0517578125
-53.23388671875 -29.74267578125 -40.55126953125
-28.25830078125 -14.211181640625 19.310302734375
-49.231689453125 -58.6640625 9.2412109375
-3.349365234375 -7.184814453125 22.9951171875
47.6552734375 51.054443359375 27.304931640625
12.049560546875 53.9130859375 34.84765625
-88.4453125 -43.081298828125 10.360595703125
-65.56396484375 -59.745361328125 9.222900390625
-30.770263671875 -41.54296875 11.084716796875
-90.807373046875 -48.010009765625 8.359375
-56.1953125 -59.79931640625 10.394775390625
-60.32373046875 -60.8330078125 9.94677734375
19.49853515625 47.091064453125 37.814697265625
-58.416259765625 -34.563232421875 13.943115234375
16.5634765625 45.810302734375 38.86474609375
-6.164794921875 9.88232421875 26.0556640625
-6.262939453125 -13.790771484375 20.154296875
12.929443359375 8.531982421875 26.893798828125
-76.97705078125 -55.725830078125 9.353515625
34.971923828125 49.204345703125 30.467041015625
-24.43408203125 -32.947265625 12.763916015625
41.76904296875 53.149169921875 27.740478515625
-71.60693359375 -53.541748046875 9.675048828125
15.7900390625 47.04833984375 38.72998046875
34.462158203125 42.10498046875 24.654052734375
31.2958984375 38.2861328125 25.841796875
29.180908203125 39.161376953125 25.642578125
47.147705078125 43.36181640625 22.95458984375
-41.9189453125 -36.513916015625 -39.577392578125
-84.031005859375 -44.14013671875 10.36572265625
-46.288330078125 -49.334228515625 13.137939453125
-12.576904296875 -9.341796875 23.62060546875
-40.47607421875 -33.42626953125 -39.433837890625
-56.416748046875 -16.619873046875 40.262451171875
-40.426025390625 -45.58447265625 11.8642578125
42.599609375 47.104248046875 29.94384765625
-8.27197265625 -8.252197265625 23.6279296875
-8.797119140625 -6.56982421875 24.220703125
-40.2275390625 -37.016845703125 -39.018310546875
-38.481689453125 -36.17431640625 -38.495361328125
48.486572265625 45.546142578125 21.89990234375
39.5234375 46.888427734375 21.947509765625
9.8447265625 50.834228515625 37.648193359375
-30.994140625 -35.969970703125 12.982421875
33.338134765625 54.3115234375 29.240234375
-19.731689453125 -8.673583984375 23.450439453125
30.2333984375 43.0234375 24.1240234375
45.5087890625 44.251953125 22.57080078125
-4.9951171875 8.6083984375 26.314453125
-59.06640625 -26.427001953125 -42.541015625
41.050537109375 32.2412109375 -44.13134765625
-42.93896484375 -53.501708984375 10.37255859375
-58.961181640625 -32.2158203125 -41.701416015625
-1.47021484375 12.200927734375 27.952392578125
-88.52880859375 -55.199951171875 7.435302734375
-90.831787109375 -50.935546875 7.66259765625
-42.5927734375 -32.00244140625 -39.970458984375
36.669921875 34.812255859375 26.67041015625
31.2568359375 44.80908203125 22.497802734375
35.3955078125 43.869384765625 23.3388671875
-48.648681640625 -30.4287109375 -41.18701171875
-12.323974609375 2.64453125 24.21484375
-48.390625 -26.422607421875 -41.844970703125
39.3369140625 35.68798828125 25.43359375
41.04638671875 48.7255859375 30.738037109375
-27.16650390625 -31.843994140625 15.546142578125
0.134521484375 12.97509765625 28.43310546875
38.3916015625 37.364990234375 25.75146484375
-51.657470703125 -32.922607421875 -39.923095703125
29.706787109375 51.599853515625 32.0361328125
-74.001708984375 -63.181396484375 6.83447265625
36.65380859375 33.138916015625 26.56103515625
30.298095703125 40.861083984375 25.081787109375
-55.806884765625 -61.30859375 7.918701171875
-47.106689453125 -42.564697265625 14.2607421875
-21.06298828125 -28.36767578125 15.5107421875
-79.291748046875 -58.635009765625 7.5908203125
-3.392822265625 -3.845947265625 25.173828125
27.195556640625 48.9638671875 34.153564453125
-40.478515625 -36.177001953125 15.79052734375
-47.235595703125 -29.6015625 -41.35107421875
-56.55224609375 -36.25830078125 14.76708984375
-55.40576171875 -48.00390625 12.98193359375
22.237548828125 36.603515625 27.91357421875
-33.514404296875 -41.76708984375 11.90478515625
30.7822265625 53.815673828125 30.290283203125
26.024169921875 38.76806640625 25.837890625
-52.502197265625 -58.0830078125 8.84423828125
-36.386474609375 -11.128173828125 12.4560546875
-40.09326171875 -33.2587890625 16.456787109375
-36.10009765625 -44.157958984375 11.67919921875
-82.9423828125 -55.888916015625 8.10888671875
-50.41259765625 -36.95947265625 15.119384765625
-44.149169921875 -41.47119140625 14.335205078125
27.303466796875 53.309814453125 31.534912109375
36.440673828125 36.522705078125 26.188720703125
-37.66455078125 -38.0068359375 -38.356689453125
30.48681640625 28.10302734375 28.69482421875
-26.504150390625 -21.306640625 19.820556640625
-9.281982421875 8.747314453125 24.778564453125
-63.489013671875 -30.627685546875 -40.908447265625
-49.61474609375 -34.319580078125 -39.0244140625
-5.26123046875 -10.464111328125 21.68115234375
-54.143798828125 -54.404296875 11.661865234375
-26.8046875 -14.659912109375 20.28466796875
-70.882080078125 -58.59716796875 9.124755859375
-68.698486328125 -39.879638671875 12.663330078125
-3.602294921875 -6.33544921875 24.04541015625
23.2744140625 31.575439453125 28.275390625
9.67724609375 7.778564453125 27.552978515625
-20.69677734375 -26.198486328125 17.885498046875
2.319091796875 10.039794921875 27.9306640625
-60.94482421875 -71.41552734375 -3.490234375
-50.0517578125 -42.818359375 14.31884765625
-24.742919921875 -28.15087890625 16.67333984375
37.785400390625 47.75244140625 21.87841796875
-57.06884765625 -67.3634033203125 -2.93212890625
-6.6962890625 -5.396484375 24.513427734375
-56.93359375 -42.099609375 13.408203125
35.7587890625 38.239013671875 25.732666015625
