-9.39697265625 104.379638671875 -2.556640625
-14.410400390625 -81.45458984375 -13.69482421875
-35.4677734375 32.314453125 6.422607421875
-101.699462890625 -10.814697265625 40.938232421875
-12.40380859375 88.6923828125 -19.013671875
1.858154296875 34.519287109375 -37.2421875
-30.28173828125 85.160888671875 -30.223876953125
-78.56201171875 36.7265625 35.789306640625
-34.37060546875 86.147705078125 -27.70703125
-110.975341796875 -12.404052734375 38.54541015625
85.502197265625 37.771484375 -35.764404296875
-13.4033203125 99.446044921875 5.347900390625
-27.5126953125 85.792236328125 -40.135498046875
-34.12255859375 88.404296875 -1.698486328125
-72.85693359375 -1.7099609375 45.831787109375
-32.660888671875 36.720947265625 13.687744140625
-34.427978515625 89.47900390625 -13.703125
6.497802734375 112.14013671875 2.3515625
34.443603515625 100.044189453125 76.747802734375
-84.378662109375 57.955078125 -17.167236328125
-10.230224609375 -51.021728515625 -26.337646484375
-79.937744140625 51.691162109375 15.68701171875
-1.279296875 -9.21923828125 -33.8681640625
-4.8330078125 31.697265625 8.1630859375
-20.501953125 89.087646484375 -21.472900390625
-4.382080078125 103.484130859375 -7.49365234375
2.083740234375 56.423583984375 48.272216796875
-77.234375 -1.817138671875 41.93359375
49.307861328125 -52.98193359375 61.499755859375
-85.742919921875 53.710693359375 -17.135498046875
-70.132080078125 44.080078125 -43.48193359375
39.24658203125 55.95068359375 55.51025390625
-75.8779296875 37.515625 4.461181640625
-95.708251953125 -10.824951171875 45.751220703125
-67.317138671875 69.53759765625 -32.514892578125
-77.0390625 49.044921875 10.579345703125
-51.983642578125 78.83203125 -7.67724609375
7.49951171875 68.25927734375 -42.265625
-62.22216796875 34.73388671875 5.612548828125
-44.934326171875 39.5703125 16.136474609375
-55.4921875 82.058349609375 -14.52587890625
-57.25537109375 36.9736328125 10.19970703125
33.5087890625 54.98779296875 54.12939453125
-86.65380859375 46.52294921875 -12.650146484375
-14.3115234375 82.86962890625 -36.193603515625
-3.964111328125 -28.5703125 -31.972412109375
-15.17919921875 79.427978515625 -28.976806640625
3.600341796875 35.12939453125 17.441162109375
-35.2841796875 11.044921875 58.948486328125
-37.29443359375 40.87451171875 19.76123046875
-5.31884765625 50.180908203125 39.996826171875
8.002685546875 36.230712890625 18.93603515625
39.87841796875 -41.677001953125 55.542724609375
-83.373779296875 33.15234375 -1.308349609375
75.968994140625 20.048583984375 -28.0498046875
-63.853271484375 33.175537109375 22.717529296875
52.612548828125 -46.838623046875 54.436767578125
-28.46630859375 72.908935546875 52.09521484375
-7.84130859375 -71.435546875 -25.34423828125
-9.591064453125 41.455322265625 27.475341796875
-7.110107421875 -54.80712890625 -14.553466796875
97.691650390625 -4.941650390625 -60.30078125
-25.38037109375 96.902587890625 -3.0810546875
-49.7685546875 72.188232421875 -0.326904296875
-4.19140625 -44.58935546875 -34.2705078125
-44.6962890625 61.54736328125 33.335205078125
29.450927734375 -42.346435546875 60.265869140625
-84.21923828125 31.595703125 -9.392822265625
-94.85595703125 42.541748046875 -9.100830078125
-89.896484375 -6.423583984375 41.392578125
-23.2294921875 37.393310546875 16.98681640625
-28.44482421875 90.938232421875 0.885986328125
-23.538330078125 28.740234375 -3.14208984375
-78.0400390625 30.499755859375 33.731689453125
-76.431884765625 2.28125 40.2392578125
-70.762451171875 69.24169921875 -28.841064453125
80.54345703125 -20.601318359375 -81.41162109375
-55.88037109375 32.352783203125 2.209716796875
-12.785400390625 45.211669921875 28.43994140625
4.41357421875 26.0087890625 -43.931396484375
-26.732177734375 28.603271484375 3.057861328125
-63.352783203125 -1.6767578125 49.282958984375
14.268798828125 -8.054443359375 -41.252197265625
-75.64404296875 43.17724609375 4.6015625
6.324951171875 39.618896484375 25.478515625
6.612060546875 69.12890625 -37.203369140625
3.34423828125 109.50048828125 10.212646484375
-27.1259765625 83.96142578125 -26.376708984375
-3.09765625 -62.694580078125 -31.847900390625
-10.68603515625 -63.759765625 -22.82275390625
-83.908447265625 63.16748046875 -31.789306640625
-19.6787109375 98.25146484375 -6.745849609375
-70.646240234375 18.802490234375 32.267822265625
-75.6455078125 18.29296875 34.4521484375
-80.795654296875 65.962158203125 -19.369384765625
-102.7158203125 -5.695556640625 34.54150390625
-7.109130859375 -44.7705078125 -31.311279296875
-22.493408203125 -88.57568359375 10.93505859375
-25.2978515625 -76.624267578125 3.315673828125
-16.62060546875 8.473388671875 58.734375
-28.316162109375 -78.287353515625 12.569091796875
-65.246337890625 76.70361328125 -19.66796875
0.804443359375 36.906982421875 21.383544921875
-16.7158203125 75.63232421875 -29.70166015625
-76.393310546875 51.392333984375 6.1630859375
-41.232421875 80.218994140625 -29.814697265625
-28.112060546875 42.16064453125 23.164306640625
-52.753173828125 40.3037109375 15.779541015625
-46.8603515625 80.501953125 -5.28662109375
-78.27197265625 39.018798828125 30.1845703125
83.330322265625 42.90283203125 -29.541748046875
-38.98193359375 38.498779296875 16.24609375
-38.822509765625 84.54541015625 -19.406494140625
-92.888671875 45.460205078125 -12.4453125
-14.3115234375 88.06201171875 -24.811279296875
-13.649169921875 -58.123779296875 -24.6572265625
32.80908203125 111.208984375 63.424560546875
-10.59326171875 -88.591552734375 9.693603515625
-76.27392578125 31.177490234375 29.836669921875
9.361328125 22.637939453125 -22.2275390625
36.650390625 97.41162109375 73.107421875
7.6005859375 91.8251953125 -17.8095703125
-19.543701171875 35.125 9.1962890625
0.4365234375 6.32763671875 -33.992919921875
-31.69384765625 -71.689453125 -49.45068359375
-44.573974609375 57.721435546875 22.127197265625
-9.296630859375 -87.934814453125 -9.985107421875
-2.3486328125 51.552490234375 42.396484375
-63.58935546875 27.680908203125 27.601806640625
-61.438232421875 76.9697265625 -21.131591796875
1.500244140625 2.279052734375 -29.829833984375
-0.15185546875 108.319580078125 -0.974365234375
-21.558349609375 45.005126953125 29.177978515625
-104.582275390625 -12.931640625 44.448974609375
-0.5029296875 110.564453125 3.560302734375
11.652587890625 18.42138671875 -22.71435546875
-16.4970703125 -89.8740234375 11.1142578125
-20.6279296875 32.517578125 -8.695068359375
-8.92919921875 -84.55712890625 -13.05810546875
-88.485595703125 59.2587890625 -19.979248046875
-81.89306640625 39.232421875 27.63232421875
1.29833984375 11.333984375 -30.305419921875
-5.5947265625 44.16943359375 30.530517578125
-22.566650390625 -49.50439453125 42.389892578125
-28.9658203125 61.994873046875 9.4033203125
-32.010498046875 83.486083984375 3.668212890625
-21.44189453125 80.626220703125 -38.548828125
-8.88232421875 88.276123046875 -22.533935546875
-9.91552734375 82.540771484375 -37.78955078125
-67.720947265625 31.972900390625 21.688232421875
0.459716796875 29.35205078125 -30.030029296875
-31.564697265625 31.877685546875 7.216064453125
-81.705078125 34.772216796875 34.257080078125
34.13232421875 104.773193359375 73.882568359375
-22.8515625 -52.86279296875 39.848876953125
80.58544921875 -15.825439453125 -82.4140625
10.212158203125 64.558349609375 -40.359130859375
-4.634521484375 -37.585693359375 -76.1025390625
-48.9453125 33.297119140625 3.848876953125
2.303466796875 -5.948974609375 1.6044921875
-90.046142578125 39.802734375 -6.7919921875
3.240966796875 112.29541015625 5.513671875
-98.02392578125 -5.523681640625 36.013671875
-86.941650390625 42.42578125 -9.21240234375
-42.4228515625 11.577880859375 53.68603515625
-0.677734375 -1.60400390625 -34.37060546875
-3.86181640625 12.892578125 64.016845703125
-46.636474609375 8.369140625 56.7822265625
-82.294189453125 44.019287109375 -14.126953125
-17.409423828125 26.5625 -4.9228515625
-5.671142578125 -50.441650390625 -31.862060546875
-52.6875 34.836181640625 1.898193359375
-56.681640625 70.140625 -4.714111328125
-1.727294921875 -13.55419921875 -31.99560546875
-77.861572265625 33.4677734375 0.1044921875
-40.4130859375 83.112060546875 -2.219970703125
-12.432373046875 99.982666015625 -7.441162109375
1.501220703125 47.443359375 36.821044921875
-64.66259765625 13.84423828125 36.963134765625
-31.390380859375 81.996826171875 -32.260498046875
-84.732177734375 63.212646484375 -38.67333984375
-16.468994140625 27.065673828125 -0.870849609375
-9.778564453125 11.92236328125 58.559814453125
-53.128662109375 73.65283203125 -4.5654296875
81.9970703125 -37.651611328125 2.711669921875
-61.402587890625 36.032470703125 21.635498046875
-3.576904296875 -76.006591796875 -22.9873046875
-5.33447265625 -39.146484375 -34.123291015625
-18.194580078125 -67.437744140625 -15.647216796875
-70.29736328125 31.78125 -0.548095703125
-87.36328125 64.075439453125 18.805908203125
-81.689453125 50.781005859375 -15.293212890625
-92.115478515625 36.61962890625 -3.525634765625
27.2861328125 57.5087890625 56.997802734375
-87.32373046875 50.20263671875 -16.65771484375
-11.33251953125 -59.497314453125 -7.085205078125
-81.25927734375 43.486083984375 20.163818359375
-24.115478515625 81.58935546875 -35.927978515625
-109.71826171875 -7.20703125 32.944091796875
-0.843994140625 -21.430419921875 -29.3916015625
-45.083740234375 78.23095703125 -2.11669921875
39.424560546875 57.843017578125 61.11279296875
-16.037353515625 36.39306640625 15.893798828125
-15.267578125 79.683349609375 -34.052490234375
2.70458984375 47.41015625 -30.915283203125
-71.22607421875 73.732421875 -18.99609375
-77.744384765625 46.19482421875 13.1982421875
81.939208984375 -22.025634765625 -74.39697265625
-0.21533203125 27.22900390625 -36.297119140625
-4.6923828125 -32.159423828125 -36.613037109375
-7.595947265625 84.91796875 -34.7734375
-65.9560546875 39.4052734375 15.923583984375
9.823486328125 54.83056640625 50.011474609375
-74.23486328125 68.08447265625 -15.21923828125
83.635498046875 -12.552978515625 -78.48681640625
-10.012451171875 29.95849609375 0.418212890625
-20.22216796875 96.372314453125 -10.229736328125
0.86181640625 16.36181640625 -38.330810546875
-7.412109375 90.193359375 -16.66455078125
-114.846435546875 -11.689453125 36.937744140625
-10.59228515625 50.260498046875 38.425537109375
99.869873046875 -11.169921875 -56.611328125
-4.19189453125 47.997802734375 37.10498046875
3.879150390625 107.88232421875 -2.117431640625
17.2509765625 48.014892578125 39.30078125
-40.37158203125 89.100341796875 -12.828857421875
13.461181640625 32.71435546875 -42.3701171875
-22.996826171875 90.548828125 5.5927734375
19.8095703125 59.2646484375 57.186279296875
-69.86767578125 25.6962890625 26.149169921875
-17.511474609375 -79.327392578125 -13.06396484375
0.235107421875 23.255859375 -35.534912109375
75.345458984375 -37.580810546875 -0.516845703125
-12.7265625 103.283447265625 3.320068359375
92.1787109375 33.185546875 -36.45068359375
-46.363037109375 61.381591796875 21.434326171875
-25.958740234375 72.41259765625 55.631591796875
-46.808837890625 85.640869140625 -13.580810546875
5.57373046875 23.363037109375 -26.42529296875
-32.260986328125 85.111572265625 -21.6298828125
-78.119873046875 40.793701171875 -16.509033203125
2.28759765625 -33.773681640625 -39.05078125
-65.16796875 32.48974609375 -2.50732421875
-84.690185546875 60.057861328125 31.244384765625
-62.89697265625 67.516357421875 -7.252197265625
3.021728515625 49.737548828125 -34.8662109375
15.061767578125 55.350341796875 52.19287109375
1.4423828125 39.63037109375 24.46875
-22.521728515625 -85.47509765625 3.454833984375
-11.240966796875 -84.565185546875 -9.51904296875
-1.973876953125 -16.9248046875 -33.80615234375
88.792236328125 35.014404296875 -35.17431640625
-59.17236328125 72.747314453125 -30.05029296875
-56.162109375 75.595947265625 -25.7041015625
-74.664306640625 37.379638671875 18.5322265625
-5.1162109375 40.236328125 24.241455078125
38.80615234375 -48.05322265625 56.490966796875
-6.09619140625 41.853759765625 20.240234375
-75.503662109375 70.389404296875 -24.77392578125
-89.40478515625 42.57421875 3.540771484375
22.8369140625 50.597900390625 45.492431640625
-104.181396484375 -9.442138671875 38.06103515625
-87.593017578125 66.986083984375 16.49365234375
-22.64404296875 36.910400390625 11.2529296875
4.928466796875 61.0927734375 -37.097412109375
55.084716796875 -51.293701171875 57.94775390625
78.596435546875 -18.956787109375 -84.101806640625
-47.771728515625 78.5302734375 -24.940185546875
-43.05419921875 49.8388671875 22.3076171875
31.3671875 -42.62744140625 57.115234375
-1.950927734375 43.556396484375 30.43603515625
-36.167724609375 62.712158203125 31.81005859375
-32.8349609375 86.149658203125 -37.236328125
-63.685546875 71.95361328125 -27.32080078125
-76.357177734375 -5.89013671875 49.89990234375
-76.373046875 40.853515625 17.030029296875
-47.469482421875 83.1787109375 -17.42724609375
14.33447265625 51.029052734375 45.397705078125
-60.650390625 32.6591796875 3.031005859375
-61.848388671875 17.59423828125 35.773193359375
-41.90185546875 34.8984375 9.903076171875
-63.28125 21.150390625 31.86328125
-61.17529296875 41.177490234375 13.213134765625
-12.765625 30.844482421875 5.958984375
29.781494140625 52.103515625 46.578857421875
-80.187744140625 38.449951171875 23.509765625
-67.36474609375 -3.191162109375 49.66796875
-29.507080078125 14.4931640625 56.49560546875
47.94921875 -50.037353515625 56.245361328125
-55.8447265625 80.23779296875 -19.165771484375
-30.063720703125 72.76611328125 45.354248046875
10.88037109375 45.8837890625 34.54443359375
21.655029296875 52.667724609375 48.445556640625
4.876708984375 64.423095703125 -35.614990234375
43.118408203125 -23.11279296875 59.843017578125
-22.307861328125 30.8984375 -16.352783203125
-34.3525390625 44.30712890625 25.347412109375
-79.0693359375 62.5537109375 -36.191650390625
-10.763427734375 -79.06298828125 -17.337890625
32.847900390625 57.470703125 61.11279296875
-88.898193359375 30.83154296875 -5.36083984375
-14.36669921875 95.869384765625 -11.673583984375
-95.82421875 -9.482421875 42.41064453125
-88.019775390625 -3.710205078125 39.6953125
1.30224609375 101.46044921875 -5.215576171875
10.48828125 38.017333984375 16.65771484375
9.00830078125 24.54931640625 -25.2431640625
-49.766357421875 56.802978515625 25.876953125
2.665771484375 34.556884765625 11.4306640625
-64.467529296875 40.2509765625 11.041015625
-81.34326171875 58.360595703125 17.9892578125
-18.389404296875 -72.228759765625 -11.8408203125
-69.122314453125 44.570556640625 12.265869140625
-32.348388671875 40.525634765625 19.842041015625
-84.69775390625 50.487060546875 23.144287109375
-17.407958984375 44.38671875 -15.11669921875
-85.959228515625 59.5009765625 27.975341796875
-72.724853515625 47.508544921875 9.60205078125
-111.6708984375 -13.94091796875 41.66455078125
-48.54296875 36.41845703125 10.21435546875
-30.863525390625 91.424560546875 -12.361328125
44.454833984375 -46.368408203125 53.33447265625
-84.6826171875 38.347412109375 0.279296875
-5.68017578125 -68.544189453125 -27.69921875
83.222900390625 -27.6669921875 -69.934814453125
48.3203125 -26.3955078125 57.00537109375
-83.2490234375 43.17822265625 2.9716796875
32.89501953125 108.506103515625 68.662841796875
-42.2490234375 82.699951171875 -21.14013671875
10.03564453125 113.00341796875 2.240478515625
22.454345703125 54.602294921875 51.65380859375
-53.843017578125 38.174072265625 12.841796875
-69.3017578125 38.750244140625 16.753173828125
-12.130126953125 9.455810546875 62.62841796875
9.3564453125 37.341552734375 22.3828125
-37.974609375 34.404052734375 9.400634765625
-67.312255859375 63.881591796875 -7.047607421875
-8.99951171875 -5.928466796875 21.219482421875
-69.416748046875 -1.399169921875 46.385009765625
-43.493408203125 62.9365234375 30.04541015625
-86.5810546875 60.8623046875 17.668701171875
1.505615234375 20.531005859375 61.16357421875
-14.011962890625 -68.447021484375 -15.734619140625
-68.517822265625 33.770263671875 3.1787109375
-0.84423828125 103.40087890625 -7.203125
-72.128662109375 42.44189453125 13.422607421875
-86.64306640625 66.073486328125 10.84814453125
-84.3828125 51.1728515625 28.4150390625
-86.802001953125 45.03173828125 8.265625
-14.506591796875 43.18408203125 25.748046875
-36.53369140625 85.9560546875 -1.1826171875
-26.947021484375 74.565673828125 46.0078125
-67.956298828125 7.409423828125 43.45068359375
-12.964111328125 -70.30517578125 -22.635009765625
41.260498046875 -50.286376953125 58.186767578125
-3.72021484375 103.814697265625 10.02001953125
-0.30615234375 11.154296875 62.491943359375
-83.3349609375 47.6826171875 7.6318359375
-76.3359375 42.9521484375 14.286865234375
8.3369140625 85.73828125 -15.220458984375
-18.2900390625 50.873779296875 -17.02099609375
-21.125732421875 81.94482421875 -43.0849609375
-75.682373046875 32.839599609375 22.950927734375
31.106689453125 66.143310546875 -3.642578125
-15.333251953125 79.471435546875 -42.818115234375
-15.220947265625 88.720703125 -21.568115234375
-76.678466796875 29.90771484375 -4.675048828125
-26.224853515625 27.240478515625 -0.047119140625
-83.895751953125 42.014404296875 26.8876953125
-32.150634765625 94.091064453125 -6.227783203125
-40.994873046875 42.238525390625 21.6884765625
-50.00048828125 79.224609375 -22.36865234375
7.1884765625 51.885009765625 44.591796875
13.2333984375 48.21728515625 40.22509765625
-110.71533203125 -9.88916015625 35.111328125
-61.83447265625 40.300537109375 18.637939453125
79.413330078125 -20.515380859375 -77.968505859375
-84.28271484375 29.056396484375 37.3154296875
-88.215087890625 57.274658203125 31.73486328125
-85.558349609375 -7.127685546875 45.5029296875
-3.79345703125 34.679443359375 14.804931640625
-34.2646484375 91.863525390625 -9.360107421875
4.693603515625 100.97509765625 -4.95947265625
-26.351318359375 -83.87158203125 14.013671875
-28.8857421875 34.24169921875 10.33837890625
2.200439453125 41.549560546875 -36.097900390625
-8.461181640625 -84.681884765625 -6.25390625
-40.950439453125 51.9853515625 24.572998046875
-74.08740234375 -4.64990234375 47.613037109375
-80.61865234375 48.3681640625 15.674560546875
-28.136962890625 62.352783203125 5.89453125
87.34814453125 31.603759765625 -37.718017578125
10.794921875 47.1142578125 37.92578125
-7.1689453125 -73.92138671875 -23.1494140625
9.5078125 19.720703125 -25.00048828125
7.55908203125 30.593994140625 -24.61376953125
4.400634765625 58.207275390625 -33.568603515625
-46.317138671875 86.25439453125 -10.301513671875
-16.842529296875 -88.39013671875 0.417724609375
-8.65478515625 102.88037109375 8.976318359375
-22.921142578125 16.06201171875 59.034912109375
-0.784423828125 -9.49560546875 -37.18212890625
76.54736328125 17.66064453125 -25.334716796875
-85.188720703125 43.20166015625 33.253662109375
-91.614013671875 56.45751953125 33.77734375
-14.288330078125 -63.79248046875 -20.42529296875
-74.41162109375 30.7373046875 -2.30126953125
-73.62158203125 13.847900390625 36.99755859375
-0.3486328125 41.354248046875 27.18212890625
-9.58056640625 -57.579833984375 -30.520263671875
14.965087890625 116.25341796875 5.91650390625
-31.21875 82.304931640625 6.8857421875
-25.693359375 -82.501220703125 7.149658203125
1.01611328125 -64.535400390625 -28.53955078125
-24.3115234375 -5.284912109375 55.33837890625
-60.089111328125 70.356689453125 -7.229736328125
-45.9208984375 42.2177734375 19.805908203125
-16.66552734375 34.62939453125 12.98681640625
7.152099609375 114.015380859375 5.023193359375
0.933349609375 51.168212890625 42.765869140625
-52.529296875 82.9462890625 -12.413818359375
-55.01953125 93.93310546875 -36.99365234375
-20.063720703125 43.711669921875 26.50927734375
-10.85595703125 -64.4931640625 -27.490966796875
-24.18701171875 95.100830078125 -10.169921875
3.603271484375 -14.809326171875 6.022216796875
-46.56396484375 63.675048828125 31.567138671875
-42.7255859375 86.16064453125 -15.500244140625
86.213134765625 35.130859375 -38.164306640625
-18.821044921875 -83.564697265625 -7.916015625
1.6279296875 19.212890625 -35.590087890625
-88.919189453125 -7.651123046875 44.52001953125
-74.6181640625 37.726318359375 33.4638671875
-87.13525390625 29.09423828125 -9.447998046875
-14.560302734375 37.874267578125 18.43603515625
-21.522216796875 46.567138671875 32.0703125
-28.19580078125 95.785400390625 -4.35400390625
-81.85888671875 -5.863525390625 45.857666015625
-84.876220703125 54.62255859375 33.541015625
-83.632080078125 -2.53857421875 41.306884765625
-27.203125 82.1552734375 -37.019287109375
-80.3603515625 19.542724609375 36.070556640625
-50.33251953125 9.59130859375 53.043701171875
-90.089111328125 40.056640625 1.55908203125
-38.306396484375 46.149658203125 26.426513671875
-13.51123046875 81.358154296875 -26.92529296875
-16.497314453125 -89.59423828125 5.548828125
-40.05810546875 60.55810546875 27.466064453125
-11.16455078125 -89.12646484375 6.190673828125
-19.839599609375 27.041015625 0.55029296875
2.480224609375 27.32177734375 -40.944580078125
-24.56298828125 86.844482421875 7.002197265625
-26.123779296875 37.32177734375 9.6064453125
-98.98046875 -8.738037109375 40.1005859375
-14.605712890625 67.049072265625 -27.6396484375
-84.0263671875 44.620849609375 22.52001953125
0.9619140625 5.17138671875 -36.9833984375
77.955810546875 -38.144775390625 3.16162109375
-12.890625 86.96435546875 -14.45361328125
30.898193359375 -36.41064453125 53.35986328125
-86.344970703125 60.809814453125 13.798583984375
-20.633056640625 39.061279296875 9.01220703125
-94.55859375 39.02099609375 -5.21337890625
-43.285888671875 34.17724609375 5.365234375
4.599609375 45.280517578125 34.173828125
-29.2236328125 69.7802734375 51.540283203125
-39.082763671875 80.060791015625 -27.404296875
-81.708740234375 29.595703125 -6.8388671875
-40.76708984375 37.1240234375 13.724365234375
88.016845703125 -25.84619140625 -66.323486328125
-69.13427734375 16.163330078125 33.356201171875
-17.549072265625 58.703369140625 -21.461669921875
-21.6708984375 -88.355224609375 5.106201171875
-73.500732421875 20.212890625 31.66943359375
-77.32763671875 33.923095703125 34.71728515625
-20.5947265625 -85.596435546875 -3.055908203125
27.17138671875 60.8974609375 61.793212890625
-19.885498046875 90.076171875 8.210205078125
-87.280517578125 66.302490234375 21.68115234375
-0.90771484375 46.322265625 35.008544921875
-3.287109375 107.01611328125 -0.859375
-7.197509765625 106.2568359375 -0.77685546875
-13.06298828125 46.0771484375 31.679931640625
-105.999267578125 -7.515380859375 33.807861328125
-12.791015625 -62.65625 -3.221923828125
-73.7109375 68.555419921875 -27.781982421875
-79.927490234375 25.027099609375 33.152099609375
-5.189208984375 31.54736328125 4.558349609375
-5.2724609375 52.87646484375 43.581787109375
-23.0810546875 41.813232421875 23.2587890625
-18.515625 100.589111328125 -2.19970703125
-3.530517578125 14.998046875 59.09033203125
8.690185546875 88.6640625 -16.4619140625
-2.968994140625 108.60546875 5.1337890625
-31.455322265625 87.802490234375 -17.73046875
-64.28076171875 36.832763671875 9.006103515625
-15.599609375 -85.9599609375 -5.94189453125
-41.5537109375 66.177978515625 34.304443359375
3.811279296875 13.621826171875 63.0693359375
35.660400390625 102.917236328125 69.7451171875
-11.276611328125 96.31396484375 -9.967529296875
-19.74658203125 91.612548828125 -17.069091796875
-20.1376953125 84.0869140625 -28.65478515625
-26.9638671875 77.98388671875 45.067138671875
-31.627197265625 91.1845703125 -1.25732421875
-82.265625 55.907958984375 19.767822265625
-0.47705078125 -6.44091796875 -31.189697265625
-5.999267578125 31.91162109375 -3.91357421875
-55.8212890625 76.9072265625 -9.052734375
-64.8974609375 22.181884765625 29.266845703125
-0.773193359375 -34.3896484375 -83.984619140625
-54.18701171875 35.398193359375 8.224853515625
-91.269775390625 51.193359375 -16.084716796875
-7.319091796875 46.0693359375 33.282958984375
3.8427734375 43.294189453125 30.635009765625
2.2021484375 12.3505859375 -37.94775390625
-59.72412109375 44.769775390625 18.51416015625
-16.5498046875 80.7890625 -37.78564453125
-80.280029296875 37.226806640625 31.813720703125
-50.392822265625 34.752197265625 7.70166015625
8.8837890625 106.157470703125 -2.293212890625
36.048095703125 58.44482421875 60.2529296875
-37.54296875 80.142822265625 2.399658203125
-33.427734375 85.5361328125 -31.3388671875
-107.097412109375 -11.132080078125 38.53955078125
-93.141357421875 -7.649658203125 41.51904296875
-2.557861328125 44.262451171875 -32.732666015625
33.90185546875 106.846923828125 76.212158203125
-95.092529296875 -4.913818359375 36.9150390625
-11.77392578125 101.962890625 -4.857177734375
-9.3994140625 -56.95458984375 -27.3701171875
-79.193603515625 46.45458984375 -9.87890625
-15.3564453125 -67.2001953125 -18.439453125
3.5322265625 -26.408203125 -40.36181640625
31.896484375 57.326416015625 57.5986328125
-82.154541015625 -0.049072265625 38.67626953125
3.79443359375 52.64013671875 -33.355224609375
-64.545166015625 68.751708984375 -9.95458984375
-11.7470703125 -76.465576171875 -20.267822265625
-26.491455078125 14.45068359375 59.978759765625
11.0009765625 35.58056640625 -25.018798828125
-19.381103515625 41.232666015625 20.490478515625
-84.370361328125 36.929931640625 34.202392578125
-18.170166015625 96.24853515625 4.634765625
5.592041015625 55.841552734375 -39.044189453125
-86.98583984375 62.9755859375 -31.588623046875
-76.639892578125 49.02197265625 4.198486328125
3.9658203125 47.22802734375 -37.59521484375
-23.185302734375 25.58056640625 -1.19482421875
-36.33740234375 42.432861328125 22.2470703125
-93.235595703125 53.33837890625 37.004150390625
-38.111572265625 33.443115234375 4.957763671875
-6.693603515625 107.00439453125 4.6591796875
-26.31640625 70.907958984375 51.169189453125
-71.57470703125 30.130615234375 -3.329833984375
-52.9267578125 82.4091796875 -16.5517578125
-41.560791015625 76.96728515625 1.75244140625
-12.17578125 80.250732421875 -32.444580078125
-45.43408203125 59.5966796875 25.372802734375
-68.814697265625 23.03955078125 28.04248046875
-85.49267578125 61.02880859375 21.712158203125
-28.2822265625 -79.4970703125 15.80908203125
-76.59375 24.335693359375 30.152099609375
-79.053466796875 68.849853515625 -25.125244140625
-81.08203125 46.176025390625 4.748779296875
-45.423583984375 85.300048828125 -7.54638671875
14.41796875 26.9794921875 65.472900390625
-11.361572265625 87.891357421875 -25.546875
-13.611083984375 96.9296875 8.466064453125
-34.08740234375 83.420654296875 -25.979248046875
-24.32470703125 92.9873046875 -13.600341796875
-19.62841796875 -86.628662109375 -0.075927734375
-29.264404296875 95.017822265625 -7.786865234375
-9.567626953125 -61.43603515625 -28.775634765625
-6.212158203125 -81.69091796875 -8.428955078125
-26.720458984375 85.422119140625 -23.50927734375
-17.401123046875 87.856689453125 -24.107666015625
-14.63427734375 -87.63623046875 -1.5166015625
-8.505615234375 84.380126953125 -31.582275390625
78.679443359375 -14.948486328125 -85.966064453125
-68.515869140625 2.62939453125 -66.40869140625
-32.985107421875 46.98828125 28.94091796875
-15.4853515625 14.04248046875 60.252685546875
-63.58251953125 10.369873046875 39.527099609375
-92.516845703125 40.66015625 -9.44775390625
-44.517333984375 81.958984375 -4.054931640625
-79.483642578125 50.59326171875 9.6162109375
-89.351318359375 45.7705078125 -13.781005859375
5.5859375 -40.9287109375 -36.67529296875
-24.531982421875 89.107421875 -19.444580078125
1.9443359375 42.40771484375 -32.955810546875
-6.7578125 42.39111328125 27.91552734375
-33.44873046875 91.73583984375 -39.39306640625
-51.27001953125 81.7509765625 -9.669677734375
-5.949951171875 10.562744140625 63.75244140625
29.21923828125 67.407470703125 -5.618896484375
10.03466796875 98.92431640625 -14.3447265625
-66.41357421875 34.06005859375 19.96337890625
31.27001953125 53.423583984375 51.228759765625
7.054443359375 35.956787109375 15.63427734375
-15.337646484375 50.3984375 37.391357421875
-25.30908203125 -77.158447265625 6.270263671875
-85.666259765625 65.087646484375 24.345947265625
7.722412109375 53.297119140625 47.183349609375
-77.193603515625 35.58251953125 21.410400390625
-80.597412109375 65.703857421875 -37.02734375
36.341064453125 -47.186279296875 57.95947265625
-73.09521484375 67.246826171875 -30.40673828125
-23.8583984375 -55.67822265625 39.6728515625
-84.43017578125 45.2744140625 25.529541015625
-76.713623046875 27.279052734375 28.431396484375
20.35009765625 55.763916015625 53.431884765625
-10.76318359375 47.152587890625 33.906982421875
4.549072265625 11.374267578125 -28.35498046875
-2.939208984375 -31.073486328125 -33.224609375
-58.033447265625 67.97998046875 -2.7861328125
-44.867919921875 78.704833984375 -25.620849609375
-39.150390625 58.947509765625 25.1337890625
-6.879150390625 -63.90478515625 -31.014404296875
-57.237548828125 78.7578125 -12.63720703125
35.610107421875 106.002685546875 67.649658203125
-2.85205078125 -23.965576171875 -33.73876953125
2.46728515625 10.59619140625 -41.418701171875
29.497802734375 56.518310546875 55.242919921875
-26.38134765625 44.5595703125 27.20751953125
-83.6591796875 62.5244140625 -18.95458984375
-17.083984375 90.006591796875 -14.606689453125
81.406494140625 -25.19775390625 -74.78564453125
46.373046875 -52.152099609375 61.193115234375
38.80908203125 -45.84619140625 54.2998046875
-26.204833984375 84.524169921875 -29.973876953125
33.69287109375 110.455078125 71.109375
-10.17529296875 -6.726318359375 18.45166015625
-24.464599609375 -86.1298828125 10.24169921875
-17.69140625 83.23828125 -34.5419921875
37.955078125 75.5078125 -4.333984375
33.614013671875 -45.30908203125 57.436279296875
-34.4404296875 85.470947265625 0.822998046875
-77.3828125 36.4345703125 29.112060546875
-93.125244140625 40.965576171875 1.33349609375
-80.003662109375 -6.011962890625 48.119873046875
-86.55712890625 47.469482421875 -15.93603515625
-74.116943359375 29.207275390625 25.22265625
86.6552734375 36.194091796875 -33.36865234375
6.109619140625 22.91015625 -22.4560546875
10.16796875 68.71728515625 -41.176025390625
-28.76318359375 30.54736328125 4.767822265625
-78.075927734375 38.7265625 25.49755859375
-85.93701171875 35.68701171875 -0.50537109375
-68.490234375 28.13818359375 25.36083984375
-83.92236328125 68.46630859375 27.593505859375
1.595703125 15.271240234375 -35.30078125
-84.633544921875 55.997314453125 23.382568359375
45.55419921875 -28.4248046875 56.727294921875
-30.420654296875 38.977783203125 15.481201171875
-1.139404296875 -38.181640625 -35.805419921875
26.600341796875 55.874267578125 54.285400390625
-19.49462890625 48.223388671875 34.32958984375
0.60107421875 -0.46875 -30.01318359375
-35.959228515625 37.876953125 15.20068359375
-15.109619140625 86.90673828125 -19.314208984375
-71.303466796875 12.1181640625 37.064208984375
-6.443603515625 -78.948974609375 -16.19873046875
-11.30615234375 85.00390625 -13.037109375
6.78955078125 25.1904296875 -41.6279296875
-58.62158203125 78.8134765625 -19.46728515625
0.58642578125 5.040771484375 -31.050537109375
-83.848876953125 32.42919921875 35.333740234375
-55.153076171875 74.030029296875 -28.82177734375
-23.779052734375 36.849853515625 14.21826171875
-78.52978515625 58.9443359375 17.94189453125
6.852294921875 18.205078125 -25.70263671875
-81.913818359375 50.57763671875 20.4853515625
-7.841064453125 12.223388671875 60.65673828125
-85.325439453125 42.38818359375 4.787841796875
5.81787109375 -6.483642578125 1.47509765625
-47.306884765625 82.829833984375 -6.975830078125
32.199462890625 113.625244140625 65.22119140625
-92.321044921875 -10.054443359375 46.78662109375
4.246337890625 35.107177734375 14.35009765625
82.55224609375 43.1708984375 -33.400634765625
7.26318359375 -42.953125 -37.8447265625
-7.2373046875 100.178955078125 -8.4287109375
-34.40478515625 82.153564453125 2.865966796875
-16.15185546875 84.019287109375 -30.241455078125
37.6513671875 99.223876953125 70.99267578125
-10.93212890625 83.909423828125 -10.26123046875
-30.0234375 43.418212890625 24.86376953125
-31.724609375 85.740478515625 -34.429443359375
-11.4599609375 -80.890869140625 -15.267578125
73.6064453125 18.002197265625 -27.3642578125
-80.144775390625 40.657958984375 21.237548828125
-1.37646484375 39.920166015625 24.63330078125
-19.113037109375 99.57275390625 1.0048828125
-86.90234375 56.6904296875 -17.461181640625
-22.166015625 -29.685791015625 -2.435302734375
84.811767578125 -8.260498046875 -77.230712890625
-61.6806640625 65.19384765625 -3.791748046875
13.128173828125 57.8701171875 53.705810546875
-54.998046875 88.947021484375 -35.35986328125
-28.672119140625 88.193115234375 2.98095703125
-24.071044921875 -1.620849609375 -17.268310546875
-27.730224609375 88.647216796875 -17.856201171875
-78.262939453125 20.40625 34.3984375
80.85888671875 -38.6640625 0.341796875
-45.859375 62.435791015625 27.44970703125
-17.45654296875 44.077392578125 25.507568359375
-7.904541015625 -50.202880859375 -28.867919921875
1.06884765625 107.84716796875 10.342529296875
2.686279296875 16.119873046875 -30.0048828125
-29.24072265625 85.7548828125 4.588623046875
-55.34033203125 78.658935546875 -21.459228515625
-23.434814453125 84.131103515625 -30.263916015625
-3.4833984375 36.609375 16.826904296875
12.171630859375 50.57568359375 43.658447265625
-92.58544921875 38.273681640625 -0.9384765625
-66.271240234375 77.08203125 -15.73291015625
-55.301025390625 68.170654296875 -1.625
-7.480224609375 104.17333984375 6.779541015625
-17.106689453125 -70.477783203125 -10.063232421875
-12.504638671875 33.130615234375 11.505859375
-2.619873046875 -35.83203125 -35.41064453125
-40.866455078125 87.61083984375 -6.062255859375
-9.533203125 -68.357666015625 -26.831787109375
-70.279052734375 41.869873046875 8.443115234375
-92.806640625 42.962158203125 6.153564453125
-21.542724609375 87.419921875 -23.49658203125
0.814453125 34.655029296875 -34.64990234375
-39.438232421875 81.02685546875 -0.000732421875
-65.283447265625 2.499755859375 45.138671875
-50.43115234375 73.796630859375 -2.5087890625
12.69287109375 114.349365234375 3.07568359375
-30.21728515625 -77.5517578125 16.563720703125
1.037841796875 43.611328125 30.34033203125
-81.2451171875 52.36376953125 12.60791015625
-9.685546875 -86.91650390625 1.6953125
3.03271484375 21.690673828125 -39.331298828125
-40.62841796875 57.31689453125 23.43017578125
-26.02001953125 84.5810546875 8.063232421875
1.1572265625 37.299072265625 18.301513671875
34.9970703125 97.65380859375 75.43798828125
-75.608154296875 34.6748046875 32.076171875
-11.4052734375 42.8515625 19.307861328125
-2.134033203125 32.59130859375 10.75048828125
0.687744140625 53.077880859375 45.30615234375
-33.522705078125 32.307373046875 4.449462890625
-21.4326171875 -87.619384765625 8.56103515625
2.685302734375 22.16650390625 -28.435302734375
-17.658447265625 93.045654296875 7.738525390625
-23.244140625 84.111083984375 -41.77099609375
-15.53076171875 56.690185546875 -21.416259765625
-29.054443359375 87.87353515625 -41.086181640625
7.893310546875 -36.007080078125 -37.966552734375
-63.02490234375 18.573974609375 32.812255859375
-67.94775390625 69.55908203125 -29.497802734375
-81.376220703125 46.4599609375 17.510498046875
-77.3125 11.974853515625 37.873046875
-16.154052734375 -77.091064453125 -15.783447265625
-1.789794921875 -16.935791015625 -37.506591796875
38.702880859375 101.95166015625 65.95654296875
-88.19970703125 59.163330078125 34.151123046875
-49.726806640625 78.916015625 -6.11474609375
-11.298095703125 -87.8974609375 14.962646484375
-24.06689453125 82.123291015625 -33.149169921875
-77.593994140625 65.399169921875 -31.2421875
-26.701416015625 70.350341796875 53.826416015625
-14.506591796875 11.0380859375 59.46875
83.55859375 36.28759765625 -37.340087890625
-8.4287109375 88.69091796875 -18.712646484375
-1.385009765625 -31.794921875 -35.576416015625
-11.943603515625 -59.17431640625 -26.517822265625
-61.658447265625 16.21240234375 38.12451171875
-12.103515625 53.70263671875 40.513427734375
-81.031494140625 62.32470703125 -33.764892578125
-11.564453125 104.572509765625 1.119384765625
-16.506103515625 48.564208984375 35.194580078125
-36.949951171875 61.56201171875 29.309814453125
-5.507568359375 92.2216796875 -17.353271484375
-73.3955078125 36.04736328125 4.578369140625
-85.109130859375 43.88330078125 -10.608642578125
35.348388671875 53.16357421875 51.251220703125
-0.4189453125 -2.69189453125 -31.867919921875
-22.355224609375 97.790283203125 -6.533203125
-17.006103515625 102.10595703125 -0.519775390625
-68.916259765625 9.03564453125 41.493408203125
-75.93408203125 34.544677734375 2.492431640625
-64.604248046875 42.764404296875 13.8623046875
-15.615478515625 45.66455078125 30.870361328125
-27.16357421875 95.029052734375 -1.96630859375
-17.906005859375 -53.132080078125 -17.32177734375
-57.715087890625 31.857177734375 0.282470703125
-82.227294921875 64.68505859375 -30.31396484375
-69.84716796875 -6.129638671875 50.845947265625
-23.781982421875 97.520263671875 -1.00146484375
-62.2265625 78.05322265625 -17.12109375
-5.253662109375 -74.9765625 -21.155029296875
-79.7978515625 65.631591796875 -29.66455078125
12.70458984375 65.542236328125 -40.650390625
-13.7646484375 -51.1826171875 -18.795166015625
-26.166259765625 85.193115234375 -42.37060546875
-98.888916015625 -10.390625 42.2041015625
-85.7958984375 31.713134765625 -3.746337890625
-47.13037109375 33.64404296875 5.7841796875
-93.10888671875 -5.785400390625 38.647705078125
0.954833984375 8.797119140625 -38.56884765625
-94.973388671875 39.253173828125 2.22998046875
-29.34033203125 84.2314453125 -27.900634765625
-47.283203125 40.621826171875 16.858642578125
-3.69775390625 -26.494873046875 -33.898193359375
-47.350830078125 81.82763671875 -19.763916015625
-42.4560546875 38.839111328125 15.46142578125
-6.536865234375 -38.65576171875 -31.7900390625
-2.54345703125 107.49072265625 7.5224609375
-51.9580078125 77.1435546875 -25.3173828125
-38.669677734375 81.9033203125 -22.734619140625
-2.18359375 -45.947998046875 -35.3798828125
-59.508544921875 42.420654296875 15.25341796875
-91.1943359375 33.54736328125 -7.4130859375
-85.51171875 39.825927734375 34.0263671875
-91.339111328125 30.749267578125 -6.4248046875
-83.2685546875 49.55078125 9.52978515625
-32.54248046875 32.047119140625 1.485107421875
-62.229736328125 8.041015625 44.777587890625
1.230712890625 37.912109375 -31.8388671875
-31.273193359375 63.316650390625 9.290771484375
-76.68798828125 -3.233154296875 44.623291015625
0.570556640625 31.420166015625 -31.698486328125
-77.58837890625 65.570556640625 -16.967529296875
-44.832275390625 82.114501953125 -20.91455078125
-77.494873046875 69.23828125 -20.20556640625
-3.08544921875 -34.26806640625 -81.267333984375
-0.357177734375 -29.080078125 -36.623291015625
-21.173583984375 93.651611328125 4.1376953125
-68.9541015625 67.5439453125 -31.406494140625
-36.32666015625 53.491943359375 27.527099609375
6.017578125 28.505859375 -23.942138671875
-20.438720703125 38.662109375 19.204345703125
-22.119384765625 85.69189453125 -25.478271484375
-59.286865234375 0.245849609375 51.439697265625
-63.135009765625 31.376953125 0.12646484375
30.78759765625 -39.625244140625 56.24169921875
-81.892333984375 67.43896484375 -21.961181640625
-9.338134765625 -87.377197265625 6.95654296875
-80.9072265625 31.6787109375 -8.251220703125
-17.551025390625 66.277099609375 -24.244140625
-74.466064453125 42.45068359375 16.148193359375
-12.64013671875 -89.019287109375 11.662841796875
46.04736328125 -48.492431640625 54.083984375
-76.27880859375 34.045654296875 25.5595703125
34.5634765625 58.88134765625 62.52392578125
-65.362548828125 34.375244140625 4.82861328125
-6.427490234375 -55.0693359375 -31.34375
-23.27392578125 -48.5576171875 40.044677734375
32.714111328125 110.11865234375 65.810302734375
-71.244384765625 37.041015625 17.191650390625
-41.24169921875 45.4248046875 24.22607421875
-57.451171875 46.212890625 19.368896484375
1.283935546875 10.063232421875 -32.93603515625
-84.767578125 50.7861328125 25.74365234375
-22.739013671875 -47.15625 43.528076171875
-72.419189453125 43.02099609375 7.47705078125
-82.176513671875 31.324462890625 -3.426513671875
0.764892578125 -36.60009765625 -84.284423828125
83.162109375 34.58642578125 -39.295654296875
6.23828125 101.222412109375 -2.867919921875
-16.3974609375 35.54345703125 -9.867431640625
-61.951171875 -4.093505859375 52.3818359375
1.92236328125 43.66845703125 -30.669189453125
-26.169677734375 -79.59765625 5.913330078125
-13.001708984375 40.606201171875 21.138427734375
0.65576171875 1.75634765625 -36.69677734375
-48.876220703125 -41.51025390625 -87.01220703125
-19.638916015625 -27.75634765625 1.22119140625
-8.09130859375 83.39013671875 -11.4677734375
-77.298095703125 36.210693359375 33.336669921875
-31.3662109375 85.4052734375 -26.6103515625
-13.695556640625 88.2880859375 -16.786865234375
77.569580078125 -35.7578125 1.138671875
-77.314453125 50.85546875 -9.3759765625
-21.159423828125 98.0712890625 0.2265625
1.333984375 106.744873046875 -2.41943359375
-29.36865234375 41.131591796875 21.130859375
0.208740234375 -65.775634765625 -26.337646484375
-52.23388671875 76.009033203125 -5.203369140625
-78.98876953125 48.8388671875 12.91357421875
-66.753662109375 11.921875 38.0703125
-30.51318359375 47.39892578125 29.73486328125
-23.19384765625 98.52783203125 -4.18798828125
79.68408203125 -22.578857421875 -79.64599609375
-80.43896484375 33.317626953125 -0.167724609375
-64.134765625 25.2236328125 28.49072265625
-25.71337890625 -77.668701171875 0.535400390625
-37.201416015625 81.67333984375 -24.91748046875
-59.48486328125 75.5810546875 -23.726806640625
-6.62548828125 -2.13623046875 20.647705078125
9.036865234375 114.9462890625 6.7568359375
-6.103515625 14.18603515625 63.89306640625
-27.72265625 72.952392578125 48.01220703125
-19.083740234375 -89.9697265625 11.17333984375
-79.2109375 29.797119140625 -5.342529296875
-71.339111328125 70.591064453125 -26.633544921875
89.518310546875 32.489501953125 -36.624267578125
-20.994384765625 14.262939453125 59.902099609375
-12.66015625 -60.236572265625 -23.542236328125
-70.611083984375 73.56982421875 -22.47509765625
42.077392578125 -26.4951171875 59.58642578125
-74.64501953125 22.66455078125 30.180908203125
-70.28076171875 32.10302734375 21.822021484375
87.737060546875 -28.523193359375 -65.441650390625
3.68115234375 26.567138671875 -25.089599609375
-10.11767578125 83.559814453125 -35.4443359375
34.0009765625 102.287109375 74.49658203125
-41.672119140625 64.20703125 31.323974609375
-23.7001953125 92.218994140625 3.78125
-36.223388671875 88.88671875 -3.707275390625
-6.55615234375 102.0400390625 -6.80810546875
29.578857421875 65.765625 -8.069580078125
-43.27783203125 87.171142578125 -8.144287109375
37.94921875 56.751220703125 57.857177734375
-13.274658203125 -86.904052734375 -3.5517578125
9.2529296875 82.596435546875 -11.05029296875
-10.0224609375 104.98828125 3.70556640625
19.26416015625 49.318603515625 42.523193359375
-53.836181640625 76.278564453125 -7.575927734375
96.271728515625 -6.10498046875 -58.10009765625
-89.247314453125 57.053955078125 -18.90625
6.33349609375 -46.177490234375 -36.81982421875
-35.029052734375 46.265380859375 26.8291015625
-8.0263671875 44.09765625 29.778564453125
1.67578125 49.220947265625 39.8330078125
-87.377685546875 68.453369140625 13.62548828125
-16.04248046875 69.265869140625 -28.553466796875
12.756591796875 -7.123779296875 -39.2021484375
-9.374267578125 43.37451171875 21.8447265625
-51.212646484375 58.68994140625 23.700439453125
-70.022216796875 31.8984375 -4.28662109375
-80.004638671875 32.744873046875 36.734619140625
-24.735595703125 29.46142578125 -1.02197265625
-31.644775390625 86.818115234375 -28.86669921875
33.72607421875 67.961669921875 -6.153564453125
-73.0576171875 30.6533203125 23.4248046875
-23.26513671875 95.41796875 1.248046875
-80.959716796875 -2.012451171875 40.96630859375
-63.695068359375 0.409423828125 47.51123046875
44.233154296875 -29.619140625 58.52978515625
-13.322021484375 74.238525390625 -30.908935546875
-19.77978515625 36.5185546875 15.9443359375
-37.591552734375 90.042236328125 -5.59765625
-9.763427734375 42.94873046875 25.36767578125
2.769775390625 111.506591796875 7.866455078125
-92.7548828125 58.48291015625 34.7646484375
5.130859375 36.49462890625 19.556396484375
-38.38818359375 -24.105712890625 -54.23779296875
-86.326416015625 66.115966796875 -26.680908203125
-76.02978515625 14.069580078125 36.288818359375
0.8984375 33.748779296875 9.826904296875
-98.06494140625 -7.590087890625 38.054443359375
-78.315185546875 63.98779296875 -33.93701171875
-70.54736328125 41.8681640625 -42.31640625
-65.2734375 69.2568359375 -31.073486328125
-26.294921875 30.9365234375 5.05078125
-7.89306640625 31.545654296875 10.05859375
-17.099609375 13.834716796875 62.168701171875
-10.349853515625 -82.593994140625 -13.789794921875
-71.037353515625 40.90771484375 15.087158203125
-28.87841796875 82.104736328125 -33.463623046875
-26.36328125 39.048828125 18.585693359375
-25.701171875 -79.02294921875 2.6513671875
-31.72265625 -69.413818359375 -50.51123046875
3.793701171875 54.651123046875 47.787353515625
13.6767578125 100.60595703125 -10.071533203125
-57.577392578125 73.90869140625 -27.224365234375
-12.585205078125 87.918212890625 -21.414306640625
-1.053466796875 107.119873046875 -3.08740234375
78.36474609375 -16.09423828125 -83.7587890625
-34.474365234375 35.349365234375 11.1689453125
11.72900390625 55.765380859375 51.334716796875
-12.6455078125 37.67822265625 16.839599609375
-36.4365234375 84.4423828125 -20.144775390625
-10.12841796875 -53.50244140625 -28.414306640625
26.375 68.024169921875 -5.34423828125
-27.70263671875 -78.95751953125 9.93505859375
-36.16064453125 79.14794921875 4.744384765625
98.54833984375 -6.828125 -58.910888671875
-66.6474609375 36.75537109375 18.54052734375
-66.779541015625 72.46484375 -25.322021484375
-5.25439453125 -48.07421875 -32.514892578125
6.961181640625 110.379638671875 -0.68994140625
-90.478271484375 37.1181640625 -7.052978515625
-68.216064453125 29.743896484375 23.478759765625
47.781982421875 -51.713623046875 58.077392578125
11.14892578125 32.859130859375 -25.13720703125
-20.5810546875 -56.258056640625 37.680908203125
-6.896484375 -39.29736328125 -75.3505859375
-103.32861328125 -11.886474609375 42.47412109375
-19.26953125 -89.2705078125 5.6474609375
-17.2021484375 98.47607421875 3.478271484375
-71.4765625 38.186279296875 6.677001953125
-73.718994140625 70.416748046875 -18.084716796875
100.393310546875 -12.123779296875 -58.8388671875
-63.1416015625 32.973388671875 2.80712890625
-79.844970703125 62.853515625 -16.0361328125
79.71435546875 -21.482421875 -75.33642578125
3.81005859375 50.895263671875 42.634033203125
34.140625 103.3994140625 71.6376953125
-41.891845703125 60.902587890625 29.091552734375
-60.903564453125 39.596923828125 20.818115234375
-78.45458984375 46.13525390625 3.7412109375
-17.75732421875 62.58251953125 -22.630126953125
-44.737548828125 11.280517578125 52.87109375
1.47705078125 17.360107421875 -31.768310546875
1.68896484375 35.06005859375 15.876708984375
13.056640625 52.801025390625 47.34375
-87.12548828125 62.99365234375 16.543701171875
-9.1826171875 -63.275634765625 -30.380126953125
-2.037841796875 -20.113525390625 -37.633544921875
-17.040771484375 70.606689453125 -26.737060546875
-15.49755859375 61.87451171875 -25.216796875
-26.869873046875 -81.84521484375 12.697021484375
-77.718994140625 35.76318359375 3.682861328125
-31.217529296875 83.32763671875 -34.4853515625
-83.832763671875 61.600341796875 -33.988037109375
-48.293701171875 59.8974609375 21.05078125
3.767822265625 48.2275390625 38.5830078125
-39.13916015625 85.11962890625 -2.868896484375
-89.626953125 45.747802734375 9.72119140625
-65.425048828125 27.17138671875 26.040283203125
-65.364013671875 70.712646484375 -28.821044921875
-24.425048828125 39.01513671875 9.060546875
-87.44775390625 44.361083984375 -11.203125
-16.821044921875 -82.507080078125 -11.00146484375
36.96826171875 55.584716796875 54.673828125
-50.053466796875 37.403564453125 11.879150390625
-26.427001953125 90.232177734375 3.3603515625
5.936279296875 99.822021484375 -8.3232421875
-40.4619140625 67.96728515625 35.57568359375
-36.9736328125 91.32763671875 -7.770751953125
-47.102294921875 74.51220703125 0.56787109375
-68.63134765625 36.4775390625 6.809326171875
-55.333984375 34.4208984375 6.297607421875
-29.17529296875 82.9248046875 -31.15966796875
2.98583984375 103.07421875 -4.477294921875
