-21.321533203125 -0.5670166015625 -32.307373046875
8.060302734375 5.4014892578125 10.364990234375
28.362548828125 -1.8975830078125 -34.29833984375
-14.68603515625 0.9107666015625 48.05078125
7.65625 -0.9786376953125 -30.505615234375
6.6083984375 4.3372802734375 2.539306640625
14.477783203125 8.5986328125 32.097412109375
-3.60546875 6.05029296875 12.216552734375
-5.54150390625 1.483642578125 -16.29296875
-13.850830078125 0.759521484375 -22.212890625
-22.20849609375 -0.4022216796875 46.883544921875
39.811767578125 3.2060546875 -9.0546875
-11.802490234375 6.693359375 13.941162109375
32.925048828125 2.146484375 -10.965576171875
-23.031005859375 5.3114013671875 6.97119140625
-16.4228515625 5.7900390625 -4.54443359375
17.413818359375 2.2520751953125 -6.430419921875
-29.4140625 2.974609375 74.013671875
27.1142578125 -0.4271240234375 -22.612548828125
46.16455078125 -0.2938232421875 -16.924560546875
-2.792236328125 -0.0882568359375 -28.380126953125
25.383056640625 4.43701171875 5.57080078125
28.817626953125 5.5245361328125 14.117919921875
-26.685546875 1.1221923828125 -22.9423828125
-9.74560546875 3.62451171875 38.22998046875
-8.5625 0.3856201171875 58.8828125
-27.81103515625 3.1971435546875 -12.2509765625
7.651123046875 6.9605712890625 36.244140625
27.212646484375 9.6951904296875 48.912841796875
17.09619140625 8.93115234375 19.021728515625
10.110595703125 7.1370849609375 21.5
3.773193359375 2.5472412109375 -7.86767578125
14.875 3.8199462890625 -0.779296875
-23.19189453125 2.8953857421875 75.4599609375
21.77294921875 1.623779296875 -10.901123046875
17.665283203125 -0.9915771484375 -26.907958984375
-4.578125 4.1644287109375 0.658203125
0.18701171875 6.844482421875 30.026123046875
-30.5244140625 1.7767333984375 67.070068359375
40.32470703125 -1.04443359375 -26.996337890625
-14.937255859375 5.280029296875 5.3525390625
28.376708984375 7.0042724609375 25.6689453125
32.396240234375 0.7374267578125 -17.40576171875
-26.533935546875 0.957275390625 59.954345703125
-23.30908203125 4.206787109375 -2.691162109375
-8.891357421875 -0.2291259765625 -28.068359375
8.05859375 -2.0968017578125 -36.52685546875
-12.363525390625 3.552978515625 75.309814453125
10.48779296875 2.5130615234375 -9.225341796875
39.26611328125 0.27880859375 -20.658447265625
15.71728515625 -2.1201171875 -38.073974609375
-3.123291015625 -1.1536865234375 -44.5517578125
-13.587646484375 2.619140625 -9.02978515625
35.187744140625 6.8953857421875 16.695068359375
19.203125 8.834716796875 34.793701171875
8.239501953125 6.18310546875 42.498291015625
-8.681884765625 2.2515869140625 45.794189453125
20.010498046875 4.5419921875 6.048095703125
4.390869140625 0.8748779296875 -18.171142578125
-1.881591796875 6.6649169921875 17.4951171875
30.835205078125 -1.202392578125 -27.8984375
-1.466552734375 0.890380859375 -19.718994140625
0.560791015625 4.194091796875 2.0791015625
7.66943359375 6.458984375 16.034423828125
0.602783203125 4.58349609375 41.721923828125
-20.14990234375 5.1695556640625 65.853759765625
-17.392578125 2.4613037109375 -12.984130859375
16.958251953125 5.6434326171875 11.03466796875
1.6240234375 -1.803955078125 -36.276123046875
-10.275390625 -1.8206787109375 -37.45654296875
-26.488525390625 -2.40478515625 50.535888671875
10.859375 8.1024169921875 28.07958984375
-2.7216796875 -2.235107421875 -39.435302734375
-35.6279296875 2.2847900390625 65.506591796875
-12.34912109375 -1.6614990234375 -44.263916015625
19.392333984375 -1.611572265625 -32.30615234375
-14.515869140625 -0.270751953125 53.034423828125
-15.242431640625 -0.14892578125 -28.7158203125
-22.3828125 -0.6883544921875 -40.48583984375
1.36474609375 5.952880859375 13.31982421875
-7.818359375 6.3411865234375 26.708984375
42.54833984375 1.0880126953125 -13.6484375
-13.7109375 4.50927734375 0.142333984375
-1.0595703125 3.9617919921875 46.446533203125
18.621826171875 8.00439453125 28.571533203125
14.305419921875 0.6767578125 -18.59521484375
-16.69873046875 -1.0877685546875 -34.684326171875
11.91162109375 -0.6826171875 -27.679931640625
-29.694580078125 5.0198974609375 -23.226318359375
-4.2763671875 4.531005859375 37.7607421875
-26.210693359375 -0.3792724609375 -31.150390625
36.1533203125 -1.6390380859375 -29.392578125
19.9052734375 6.166259765625 16.429931640625
-10.05419921875 1.4102783203125 -18.4482421875
4.983154296875 3.318115234375 -1.735107421875
-19.47265625 0.5888671875 -43.91845703125
1.427978515625 7.655517578125 25.258056640625
20.077880859375 1.0870361328125 -15.510009765625
-2.953125 5.24951171875 6.328369140625
-22.446044921875 1.0579833984375 -21.200927734375
41.257568359375 3.5679931640625 3.613525390625
-13.1943359375 5.866455078125 9.619384765625
-5.47607421875 2.5091552734375 49.39599609375
-5.860595703125 3.376953125 -4.84521484375
38.727783203125 2.8553466796875 -2.121337890625
47.78955078125 0.5631103515625 -29.412841796875
15.587158203125 -0.2093505859375 -23.0263671875
-7.663330078125 5.7718505859375 10.37890625
6.30224609375 -0.1766357421875 -25.963134765625
23.541748046875 0.2769775390625 -19.52099609375
6.294189453125 7.3309326171875 23.654052734375
-17.65185546875 1.4822998046875 -18.447998046875
27.37109375 5.1661376953125 9.389404296875
-26.449951171875 3.719482421875 79.05029296875
-28.09326171875 4.869384765625 -2.47509765625
34.093994140625 5.228271484375 12.8427734375
-23.410888671875 4.814208984375 2.008544921875
-25.301513671875 1.66455078125 64.0419921875
10.5576171875 3.676513671875 0.89794921875
-23.703369140625 0.2955322265625 -27.26904296875
20.9658203125 -0.4039306640625 -24.1787109375
24.14013671875 7.4580078125 26.361328125
39.175537109375 4.42138671875 7.293212890625
5.564208984375 2.1568603515625 -12.181884765625
-8.982177734375 2.068115234375 -11.696044921875
33.759765625 3.542236328125 -0.058349609375
13.344970703125 2.8726806640625 -5.197998046875
26.55322265625 6.207763671875 18.865478515625
-8.849365234375 4.35107421875 0.72998046875
-23.297119140625 2.8179931640625 -12.0
-26.893310546875 2.23046875 -16.796875
-4.829345703125 2.2713623046875 54.744873046875
7.00439453125 0.64013671875 -21.5146484375
24.384765625 -1.5833740234375 -32.861572265625
44.194091796875 1.666748046875 -7.864013671875
21.623291015625 2.3594970703125 -5.99853515625
31.87451171875 0.0438232421875 -21.574951171875
-34.636962890625 3.4232177734375 74.663818359375
39.475830078125 -2.10302734375 -32.52294921875
24.659423828125 5.513427734375 14.5234375
20.377685546875 10.3944091796875 16.9033203125
-0.32666015625 2.9381103515625 -8.493408203125
2.20947265625 -0.3021240234375 -27.3505859375
-26.0576171875 3.2728271484375 -7.242919921875
37.148681640625 3.700927734375 -12.1767578125
32.09716796875 -1.623779296875 -32.11083984375
-19.193603515625 5.3775634765625 5.4873046875
30.548583984375 2.462158203125 -3.194580078125
-19.7080078125 -1.5723876953125 -37.3974609375
43.08349609375 -2.229248046875 -18.761474609375
19.0947265625 8.03466796875 22.452392578125
-4.572509765625 7.23779296875 20.9482421875
28.8935546875 1.752197265625 -10.8779296875
-22.935302734375 0.4365234375 58.176513671875
10.0087890625 4.5313720703125 4.81298828125
-4.066650390625 5.889892578125 29.0087890625
3.8330078125 -1.470703125 -32.91357421875
7.16015625 -2.5599365234375 -41.662109375
32.101318359375 4.13525390625 3.548828125
9.2236328125 8.046875 32.220703125
-10.29833984375 2.8052978515625 42.0927734375
-11.5 -0.1490478515625 56.2451171875
-10.986328125 4.400390625 31.8623046875
25.789306640625 3.230712890625 -1.2353515625
-19.26806640625 3.2471923828125 75.512939453125
-19.53564453125 -0.5623779296875 49.872802734375
-18.00390625 0.5828857421875 45.97509765625
-17.52880859375 3.1090087890625 -7.190673828125
4.134521484375 5.777587890625 38.7451171875
-21.931396484375 3.645263671875 79.90087890625
-28.10107421875 6.7978515625 -10.35595703125
-12.453125 0.8138427734375 61.2412109375
-21.690185546875 2.5430908203125 71.925048828125
-17.274658203125 1.417724609375 63.458251953125
28.5234375 0.4041748046875 -18.44921875
10.5 0.322998046875 -19.043212890625
11.89013671875 5.298828125 10.580078125
-19.692626953125 5.74755859375 -2.330078125
-18.857177734375 0.3447265625 57.81884765625
1.774658203125 3.8272705078125 49.02197265625
22.374755859375 4.0716552734375 3.0986328125
-0.836669921875 7.197509765625 21.6474609375
26.775634765625 7.57080078125 29.096435546875
-12.21533203125 -0.2120361328125 -26.23486328125
-13.186279296875 2.861083984375 39.62744140625
12.888916015625 6.578125 18.986572265625
12.332275390625 1.557373046875 -13.83935546875
28.752197265625 10.598388671875 52.241943359375
12.3720703125 -1.924072265625 -36.331298828125
-18.981201171875 -0.0797119140625 -29.23193359375
-31.455810546875 3.7943115234375 77.12451171875
35.874755859375 0.55224609375 -19.074462890625
-1.224853515625 0.4296875 -33.1728515625
11.398681640625 7.8790283203125 35.669921875
-14.491943359375 2.511474609375 69.47021484375
-7.91552734375 7.3560791015625 14.6943359375
-20.021484375 6.8050537109375 79.71435546875
-17.542724609375 0.8798828125 -22.291748046875
14.350830078125 2.3408203125 -9.56005859375
35.989501953125 4.8134765625 9.104248046875
-7.2919921875 -0.6851806640625 -31.333251953125
-15.5927734375 3.2740478515625 73.603515625
-1.53662109375 0.0235595703125 -24.9541015625
-28.756103515625 2.42529296875 70.466796875
-10.987060546875 1.47265625 48.50537109375
36.07958984375 4.21533203125 -8.740234375
27.8876953125 -1.4224853515625 -29.98583984375
-15.95166015625 -1.944580078125 -44.125
-30.96142578125 0.591064453125 57.99951171875
-2.71240234375 5.5888671875 32.344970703125
27.687744140625 -20.0831298828125 49.953125
-14.463623046875 -0.23876953125 -46.959716796875
3.033935546875 6.65869140625 32.183349609375
-13.82861328125 -1.5240478515625 -37.67431640625
-24.78076171875 -0.24658203125 55.207763671875
-3.314453125 1.8385009765625 -13.550537109375
3.587158203125 5.500732421875 10.477294921875
17.252685546875 4.3472900390625 3.408935546875
31.493408203125 2.3482666015625 -7.74658203125
3.097900390625 4.79833984375 4.555908203125
0.567138671875 1.081298828125 -16.76953125
48.641357421875 2.1837158203125 -16.603759765625
-25.981689453125 2.898681640625 72.649658203125
41.148193359375 2.336181640625 -4.60693359375
-30.27783203125 1.3734130859375 63.601806640625
16.369140625 9.328857421875 36.781005859375
-24.16015625 -0.912841796875 -34.64111328125
-8.10791015625 2.969482421875 -8.02978515625
-12.259765625 1.7867431640625 44.776611328125
4.20849609375 6.257080078125 15.28515625
27.7666015625 -0.6944580078125 -26.005615234375
30.13427734375 6.224365234375 17.240966796875
-14.440185546875 1.5576171875 -17.174072265625
-13.99951171875 3.4866943359375 -5.712646484375
7.20703125 2.62744140625 -8.124267578125
9.824951171875 5.9229736328125 13.274658203125
45.423583984375 -0.5128173828125 -27.1630859375
-8.666748046875 4.3974609375 35.064453125
28.083740234375 7.3465576171875 51.371826171875
-12.04248046875 4.99267578125 3.53466796875
-7.07763671875 -1.95458984375 -38.6865234375
-9.067138671875 -1.20947265625 -34.25634765625
-17.38671875 2.9747314453125 66.46533203125
-31.991943359375 2.653076171875 71.70947265625
-4.954345703125 2.773193359375 45.8154296875
11.827392578125 7.5 41.85986328125
5.655029296875 3.1546630859375 -5.036376953125
25.917236328125 -2.293212890625 -36.56103515625
-2.835205078125 3.130615234375 -6.281494140625
19.375732421875 -1.8499755859375 -35.921142578125
44.1318359375 2.9072265625 2.04345703125
7.892578125 8.2581787109375 26.429931640625
-20.716796875 4.7532958984375 -5.303466796875
41.133056640625 0.2469482421875 -17.860107421875
3.54541015625 4.9864501953125 43.10986328125
-28.916259765625 5.6014404296875 -27.023681640625
4.69873046875 -2.106689453125 -37.31103515625
-9.42333984375 0.6910400390625 -22.029296875
1.851318359375 0.32373046875 -20.1806640625
-9.165771484375 1.7664794921875 -15.011962890625
20.169921875 8.3585205078125 31.652099609375
14.36962890625 5.0308837890625 8.518798828125
26.47119140625 6.9500732421875 23.067626953125
28.605712890625 4.1322021484375 3.669189453125
18.533203125 3.484619140625 -0.89111328125
32.563720703125 -2.591064453125 -35.125
-17.7099609375 -0.4102783203125 53.10791015625
-15.6435546875 0.1865234375 -25.5634765625
19.55712890625 5.6998291015625 13.298095703125
-27.391357421875 0.9320068359375 -26.529541015625
18.88134765625 2.1376953125 -9.68603515625
-25.773681640625 6.0816650390625 5.56640625
-22.64306640625 -1.1595458984375 50.125244140625
10.5068359375 -1.50439453125 -31.798583984375
40.42626953125 3.2550048828125 0.5244140625
-5.217041015625 4.8675537109375 4.14453125
30.88671875 5.3658447265625 11.723388671875
-28.7373046875 3.20458984375 -20.813720703125
-3.6376953125 -0.953369140625 -31.664306640625
7.3857421875 6.3792724609375 39.461669921875
-10.450439453125 5.25830078125 28.871826171875
30.781982421875 1.31787109375 -14.758056640625
16.826171875 6.3531494140625 15.779296875
-11.166015625 5.338623046875 6.888427734375
14.974609375 -1.097900390625 -29.650390625
-13.365478515625 -2.36474609375 -40.66162109375
-4.1220703125 10.2855224609375 20.38427734375
24.23388671875 2.921875 -3.935546875
24.999267578125 2.1005859375 -9.102783203125
-15.34912109375 1.740478515625 44.313720703125
34.576171875 1.0509033203125 -13.380126953125
-14.7314453125 6.8201904296875 12.876220703125
-0.17333984375 5.6015625 10.2646484375
46.11669921875 2.070068359375 -14.783203125
18.672607421875 -2.5987548828125 -38.923828125
-29.164794921875 5.729736328125 -14.76953125
38.93115234375 -0.799560546875 -24.254150390625
4.004638671875 7.742919921875 26.951904296875
21.765380859375 7.568359375 23.91845703125
-25.5068359375 4.5213623046875 -0.212158203125
-33.490966796875 2.231689453125 68.131591796875
-19.658935546875 4.1695556640625 68.70703125
-4.831787109375 0.7889404296875 -20.443359375
14.95556640625 8.28564453125 29.10009765625
4.80224609375 6.6817626953125 35.219482421875
42.076416015625 -0.4307861328125 -21.747802734375
-15.64111328125 -0.6197509765625 -31.88232421875
42.6943359375 -2.2003173828125 -29.28759765625
-8.542236328125 0.251708984375 55.742919921875
17.709228515625 4.9825439453125 7.95703125
-3.047119140625 3.703125 -1.90478515625
-5.459228515625 5.3760986328125 7.99853515625
-0.31005859375 1.3255615234375 -30.446044921875
-17.083251953125 5.6724853515625 7.72216796875
11.938232421875 7.76318359375 25.300048828125
-19.590576171875 2.8148193359375 -10.972412109375
39.954833984375 1.4716796875 -11.495361328125
-22.775390625 3.9901123046875 67.83740234375
-15.646240234375 2.7850341796875 37.96923828125
21.439208984375 8.0655517578125 18.40478515625
6.8017578125 4.77001953125 7.760986328125
14.1474609375 7.2095947265625 21.590576171875
-22.582763671875 3.0040283203125 64.15087890625
41.3408203125 4.59228515625 9.296630859375
25.90283203125 1.5010986328125 -12.396728515625
16.642822265625 1.01025390625 -16.837158203125
3.79638671875 -0.22900390625 -29.823974609375
-17.01416015625 5.42529296875 -0.581298828125
-16.001220703125 4.233154296875 1.93505859375
25.072509765625 -0.508056640625 -24.689453125
-14.079345703125 2.0760498046875 -12.03955078125
-28.66748046875 4.158935546875 -9.262939453125
-6.876953125 7.0262451171875 24.052734375
1.24267578125 -2.2886962890625 -39.530029296875
10.256103515625 6.4915771484375 17.28076171875
-5.3857421875 -0.547119140625 -27.2470703125
-25.163330078125 -0.682373046875 52.398681640625
-4.6669921875 7.499755859375 16.495849609375
0.437744140625 6.158935546875 33.5537109375
-32.891357421875 1.65576171875 65.03759765625
-11.915771484375 -0.0804443359375 -29.056640625
31.71435546875 -0.8240966796875 -24.2705078125
10.706298828125 2.8470458984375 -6.419189453125
-12.36474609375 0.44091796875 51.360107421875
23.0009765625 4.906494140625 8.5146484375
-27.015869140625 -0.6541748046875 -34.673828125
1.93505859375 3.5386962890625 -1.31982421875
1.6982421875 6.978759765625 17.62744140625
36.159423828125 4.163818359375 5.730224609375
-29.3984375 1.0164794921875 60.267333984375
-0.400390625 5.17626953125 38.612548828125
-6.97802734375 3.8636474609375 38.301025390625
18.21435546875 3.0655517578125 -3.610107421875
-4.856201171875 -2.9801025390625 -41.016845703125
27.776123046875 3.0330810546875 -3.137451171875
-23.911376953125 -1.93310546875 -38.413818359375
-1.22998046875 -2.2838134765625 -42.919921875
2.017333984375 4.390869140625 45.887939453125
20.0478515625 -0.8350830078125 -28.248291015625
-1.478271484375 6.9033203125 26.910888671875
15.706787109375 -1.9398193359375 -34.94873046875
-19.78125 1.9764404296875 -14.49267578125
5.3818359375 1.32080078125 -14.77587890625
33.223876953125 -0.922607421875 -26.603515625
-11.810302734375 3.3111572265625 35.064453125
-20.736328125 -1.2587890625 -34.881103515625
-18.1123046875 0.6014404296875 60.996337890625
-2.074462890625 4.6861572265625 1.664794921875
26.59130859375 3.48291015625 1.3388671875
4.104248046875 1.990966796875 -34.789794921875
-6.043212890625 4.532470703125 35.71533203125
-11.531005859375 3.3524169921875 -7.437255859375
-27.409423828125 1.9212646484375 65.709228515625
19.307861328125 1.76953125 -12.31787109375
19.33447265625 3.7344970703125 1.661865234375
6.111572265625 4.6083984375 5.169189453125
-11.002197265625 -2.634033203125 -41.891357421875
-25.69970703125 3.2720947265625 76.318603515625
-3.92724609375 2.349365234375 51.571044921875
42.597412109375 4.282470703125 6.802734375
-8.50634765625 4.7548828125 3.354736328125
-19.86474609375 5.958984375 8.005859375
15.26123046875 -0.6375732421875 -25.80224609375
2.968994140625 2.2991943359375 -10.39892578125
22.007080078125 0.0230712890625 -21.7626953125
-7.00634765625 8.906005859375 20.39501953125
23.218505859375 -2.0999755859375 -35.198974609375
-14.894287109375 0.04443359375 55.796630859375
43.572998046875 -1.231689453125 -25.34716796875
-26.328857421875 1.5552978515625 -19.298095703125
18.355224609375 8.728271484375 16.544921875
-36.116455078125 2.434326171875 68.278076171875
-13.012939453125 -1.2735595703125 -35.12646484375
25.534912109375 7.966064453125 51.210205078125
15.302001953125 6.050537109375 13.133544921875
-14.50390625 4.78564453125 -3.065673828125
24.07958984375 6.2899169921875 16.958984375
-3.6630859375 0.7877197265625 -17.982177734375
-12.38525390625 1.0037841796875 -20.05859375
-1.989013671875 4.0465087890625 42.601806640625
-6.8515625 3.1707763671875 43.68505859375
-2.151611328125 6.2933349609375 14.3583984375
13.58203125 4.0654296875 2.782470703125
43.764892578125 3.3658447265625 4.5986328125
-22.796875 0.621337890625 -24.86962890625
-25.25927734375 3.511474609375 -4.8017578125
26.03466796875 0.6986083984375 -17.844482421875
1.72607421875 7.2080078125 21.912109375
7.832763671875 3.4844970703125 -1.71484375
6.94140625 0.783935546875 -17.916748046875
15.839599609375 8.7607421875 34.342529296875
-27.426513671875 1.9970703125 68.33056640625
17.84130859375 7.6851806640625 24.6396484375
11.964599609375 8.6676025390625 31.720458984375
-0.842041015625 4.791015625 4.9990234375
-25.743408203125 2.9259033203125 -9.734619140625
28.862060546875 4.5792236328125 7.427001953125
-19.091796875 1.0477294921875 42.11962890625
-23.968994140625 -0.03369140625 -30.035400390625
22.4814453125 1.393798828125 -14.791259765625
8.361328125 -0.0701904296875 -24.502197265625
-10.99853515625 0.36376953125 -24.0966796875
-19.182373046875 2.717529296875 73.046630859375
-19.16015625 -1.8062744140625 -41.26220703125
-11.26611328125 0.43994140625 53.63134765625
-11.55029296875 4.1341552734375 -1.2841796875
-31.911865234375 2.80126953125 74.227294921875
-11.308349609375 5.9471435546875 11.59326171875
-17.772705078125 0.4930419921875 -27.10595703125
-5.652587890625 6.5543212890625 13.961181640625
2.983154296875 4.0042724609375 1.465087890625
5.210205078125 6.6644287109375 17.58935546875
-22.3203125 4.6065673828125 -0.42822265625
-14.81005859375 0.38671875 61.942138671875
-24.388671875 2.3345947265625 -14.187744140625
-15.404052734375 1.3419189453125 72.0576171875
-16.3994140625 0.040283203125 49.617919921875
3.886474609375 7.5086669921875 24.19384765625
30.40576171875 -1.148193359375 -30.3740234375
-14.72216796875 1.209716796875 67.397216796875
32.322998046875 5.588623046875 14.506591796875
34.465087890625 -1.9833984375 -31.571533203125
-2.802734375 5.1510009765625 35.89892578125
-0.921630859375 4.86669921875 7.986083984375
-16.25537109375 -1.3720703125 -37.405029296875
-7.664306640625 1.753173828125 50.18017578125
6.53466796875 5.980712890625 45.198486328125
-31.216064453125 2.25341796875 69.362548828125
-0.705810546875 -2.10009765625 -36.936767578125
-7.157958984375 4.082763671875 -1.000732421875
-10.969482421875 2.6173095703125 -10.406494140625
-0.483642578125 0.2105712890625 -27.703857421875
-24.67822265625 1.1053466796875 61.779296875
19.696533203125 8.91552734375 19.829833984375
-34.310546875 1.3580322265625 63.11962890625
-3.42626953125 0.171630859375 -23.48291015625
22.878173828125 -1.5416259765625 -31.00830078125
42.537353515625 1.380126953125 -9.560302734375
44.39404296875 2.072021484375 -4.474365234375
16.579833984375 4.4822998046875 5.693603515625
24.816162109375 5.356689453125 9.99267578125
-20.13427734375 3.622802734375 78.335205078125
-6.3544921875 3.463623046875 41.007568359375
32.763916015625 -1.505859375 -29.832763671875
39.50244140625 2.0504150390625 -6.29736328125
12.076904296875 -2.2984619140625 -38.652587890625
-17.259033203125 7.1802978515625 -6.27001953125
14.849365234375 6.9810791015625 16.920166015625
-28.2314453125 4.715087890625 80.24169921875
-4.03857421875 4.3143310546875 40.101806640625
-14.16455078125 2.0262451171875 75.272216796875
34.46630859375 0.439208984375 -20.959716796875
10.5322265625 1.0267333984375 -16.799560546875
-28.381591796875 0.47021484375 -30.85546875
19.2421875 5.286865234375 10.6181640625
31.204345703125 3.143798828125 -0.721435546875
45.381591796875 1.3155517578125 -9.857421875
-2.183349609375 2.4158935546875 -9.829833984375
26.367431640625 -0.806640625 -27.8798828125
27.24560546875 0.37744140625 -20.418212890625
6.119384765625 6.0274658203125 11.51220703125
-16.0126953125 1.91552734375 -15.484130859375
-11.5625 1.1732177734375 63.880615234375
-24.74755859375 1.226318359375 -21.53369140625
17.80322265625 -0.1927490234375 -24.72705078125
17.95263671875 8.680419921875 31.02685546875
2.9306640625 7.48388671875 28.997314453125
10.204833984375 -0.3050537109375 -25.8974609375
-27.339599609375 4.5694580078125 1.2099609375
5.13232421875 7.3697509765625 32.871337890625
30.8408203125 9.591552734375 52.26904296875
8.13720703125 -0.4114990234375 -27.36083984375
5.0126953125 -2.6898193359375 -42.52490234375
-20.220458984375 0.7794189453125 -21.7841796875
-23.2900390625 4.9967041015625 4.315185546875
-6.023681640625 1.672119140625 52.273681640625
28.886962890625 1.9808349609375 -7.340576171875
35.316162109375 1.47998046875 -15.5224609375
40.38623046875 -1.810791015625 -30.43505859375
-21.265625 2.99609375 74.2138671875
-1.783447265625 4.635986328125 40.388427734375
28.081298828125 6.164794921875 16.190673828125
13.63330078125 3.234619140625 -2.95556640625
-0.87890625 1.7236328125 -12.728271484375
-6.729248046875 2.366455078125 -10.993408203125
-19.08642578125 -0.8226318359375 -31.8974609375
8.995361328125 4.9132080078125 7.138427734375
0.1279296875 0.3812255859375 -23.432373046875
-11.251708984375 1.578369140625 -16.35400390625
-18.50732421875 6.705810546875 -4.394775390625
13.775390625 1.525634765625 -15.6025390625
8.876953125 2.0963134765625 -12.832275390625
-23.923828125 2.62109375 71.48291015625
33.909912109375 4.8934326171875 10.02783203125
20.88671875 8.2113037109375 28.466796875
25.901123046875 -1.385986328125 -31.090087890625
30.250732421875 6.6580810546875 22.503173828125
1.04443359375 -1.0665283203125 -34.2099609375
44.872802734375 0.8455810546875 -18.400146484375
10.665771484375 3.5966796875 -2.15869140625
9.806884765625 7.183837890625 37.126953125
-26.824462890625 0.250244140625 -29.065185546875
41.158935546875 0.4527587890625 -15.31787109375
41.35498046875 -0.66650390625 -25.017333984375
15.191162109375 2.647705078125 -6.528564453125
17.175537109375 7.810791015625 26.8466796875
-17.7392578125 0.3597412109375 -45.3466796875
-24.074462890625 4.2969970703125 79.62890625
37.904296875 -1.1761474609375 -26.2265625
-3.138916015625 -1.91845703125 -37.243896484375
-26.626220703125 2.552490234375 -14.08251953125
12.176513671875 5.6541748046875 12.78076171875
25.8251953125 6.84326171875 20.918212890625
-20.1240234375 -0.127685546875 47.670166015625
38.16845703125 4.3310546875 9.32861328125
4.87158203125 -2.08642578125 -39.546630859375
9.10693359375 6.7286376953125 19.189697265625
-18.304931640625 5.1668701171875 -6.766357421875
-7.88720703125 0.96337890625 -20.4248046875
32.6904296875 3.0594482421875 -2.94482421875
29.982421875 4.243896484375 5.52099609375
-14.14111328125 -2.5601806640625 -42.7470703125
-1.540771484375 1.6136474609375 -14.88720703125
3.38427734375 1.269287109375 -15.767333984375
-3.32421875 2.7177734375 48.85205078125
1.315673828125 3.559326171875 51.18359375
20.1416015625 3.0357666015625 -2.4970703125
13.651611328125 -0.175048828125 -24.12060546875
-8.120849609375 -0.0355224609375 -25.996826171875
-17.05322265625 2.8935546875 -9.344482421875
13.8232421875 8.324462890625 36.8408203125
-5.33740234375 0.1488037109375 -25.022705078125
-2.638671875 3.61865234375 44.932373046875
11.119384765625 7.2913818359375 38.9072265625
-9.662109375 5.6090087890625 8.482666015625
1.793212890625 1.37646484375 -31.100341796875
-34.045166015625 2.8782958984375 72.46630859375
18.92529296875 -1.289794921875 -30.083984375
5.6474609375 7.2269287109375 21.5546875
-29.12353515625 3.8311767578125 -24.983154296875
-14.6884765625 5.5972900390625 8.03173828125
3.493408203125 2.9893798828125 -5.39013671875
11.5068359375 -1.1375732421875 -29.877685546875
29.83203125 -20.5062255859375 50.16064453125
-28.509033203125 0.2047119140625 58.431884765625
35.92724609375 -0.2039794921875 -22.46630859375
37.302001953125 2.9698486328125 -0.458740234375
46.82275390625 0.050537109375 -19.005859375
-28.459228515625 3.445068359375 78.220947265625
37.480224609375 3.75244140625 -7.123046875
31.828125 3.7681884765625 1.275634765625
24.8115234375 3.7918701171875 2.56494140625
-3.99072265625 5.126220703125 34.068359375
-22.032470703125 1.4918212890625 -19.103271484375
-12.315185546875 0.3223876953125 59.12109375
13.08740234375 0.143310546875 -20.312744140625
28.450439453125 6.6888427734375 19.804931640625
36.6630859375 1.622314453125 -12.57275390625
7.72705078125 -1.6934814453125 -34.42041015625
-9.71923828125 6.8388671875 13.352783203125
3.811767578125 5.8232421875 13.19677734375
-28.052978515625 7.7864990234375 3.98046875
0.914306640625 3.045654296875 -5.120849609375
21.0009765625 -2.1417236328125 -34.516845703125
9.650390625 -1.997802734375 -37.991943359375
4.37353515625 -1.70458984375 -35.210205078125
22.042236328125 7.92236328125 26.11181640625
-0.263916015625 3.2169189453125 49.666748046875
1.30126953125 6.54736328125 15.54931640625
24.91552734375 6.668701171875 29.785888671875
6.224609375 2.26708984375 -10.01123046875
34.238037109375 3.378662109375 -7.98974609375
-2.28662109375 5.433349609375 9.88134765625
-8.770263671875 1.7547607421875 47.88818359375
27.85302734375 1.3253173828125 -13.29345703125
-20.40869140625 2.8250732421875 63.760986328125
0.24560546875 4.3924560546875 43.836181640625
-13.326904296875 1.8404541015625 42.90966796875
2.365478515625 0.556396484375 -34.699951171875
-20.71240234375 2.307373046875 -43.566650390625
-8.7783203125 3.623046875 -4.9697265625
10.9140625 4.9407958984375 8.70556640625
29.63623046875 -0.8155517578125 -24.79443359375
19.80126953125 7.7694091796875 26.677490234375
34.099609375 4.1629638671875 5.156982421875
13.344970703125 7.749755859375 23.691162109375
-7.99169921875 -1.5269775390625 -36.803955078125
-11.298095703125 -2.237060546875 -39.81396484375
-22.056396484375 0.0146484375 -29.087158203125
-18.830322265625 1.6767578125 64.894775390625
-25.843994140625 6.7808837890625 79.389892578125
-16.883056640625 -0.0477294921875 57.134765625
-4.83154296875 2.2818603515625 -11.947021484375
-4.014404296875 3.348388671875 -3.7626953125
9.947265625 -1.624755859375 -35.677978515625
24.158203125 3.1168212890625 0.11572265625
-24.025146484375 2.037353515625 -16.255859375
1.406005859375 5.1507568359375 39.72216796875
29.858642578125 4.94482421875 9.34130859375
-9.985595703125 5.1834716796875 4.889404296875
6.174560546875 7.0181884765625 19.44189453125
28.77294921875 5.3330078125 11.700439453125
22.198974609375 3.007080078125 -2.978759765625
-15.9365234375 0.809326171875 46.34423828125
-24.04248046875 3.098388671875 73.53857421875
-28.655029296875 6.23779296875 -12.786865234375
-19.26025390625 1.1317138671875 -19.939697265625
-22.793212890625 3.5115966796875 -4.613525390625
-21.792236328125 -1.7252197265625 -37.67333984375
27.48876953125 4.4676513671875 5.5791015625
-11.579345703125 2.0174560546875 -12.32666015625
-0.185791015625 0.7740478515625 -21.38134765625
17.6376953125 8.395263671875 20.982666015625
-25.114501953125 2.447265625 67.19580078125
21.867431640625 0.6822509765625 -18.326171875
42.811767578125 0.885986328125 -11.576171875
22.023193359375 4.4619140625 5.125
-14.57568359375 0.086181640625 50.6328125
-3.630126953125 -2.0438232421875 -42.73388671875
-17.19873046875 3.5006103515625 75.474365234375
26.677490234375 1.6995849609375 -10.272705078125
-23.41162109375 2.7900390625 -9.919677734375
20.92041015625 4.875 8.499267578125
-7.6357421875 5.048095703125 30.047607421875
-22.39306640625 4.2479248046875 65.8056640625
-17.016357421875 5.0372314453125 3.558349609375
25.49951171875 5.5203857421875 12.627197265625
37.9990234375 -0.27001953125 -22.425048828125
-1.382568359375 -2.8648681640625 -40.9365234375
-17.013916015625 0.4422607421875 59.248779296875
17.532958984375 5.72119140625 13.731201171875
35.28857421875 -0.990234375 -26.571044921875
3.953369140625 0.920654296875 -31.53173828125
-22.05126953125 8.0643310546875 79.1630859375
-22.792236328125 1.175537109375 60.952392578125
41.743896484375 3.0545654296875 -1.045654296875
-10.671142578125 4.482421875 2.087646484375
36.883056640625 2.886962890625 -4.886474609375
21.792724609375 6.0068359375 15.63037109375
-1.621826171875 5.5328369140625 34.2607421875
9.81103515625 7.486572265625 42.724853515625
-22.01953125 5.607177734375 80.50341796875
3.21484375 3.4300537109375 -2.92138671875
-27.68408203125 -0.794677734375 53.104248046875
-24.47998046875 0.844970703125 -23.528564453125
28.78857421875 -1.134521484375 -27.927734375
-1.025634765625 3.7857666015625 -1.455810546875
-16.77783203125 1.0703125 -20.2509765625
40.333984375 4.0819091796875 5.36474609375
-27.038818359375 5.4439697265625 3.581298828125
28.989013671875 -19.4539794921875 51.974853515625
7.315673828125 7.5709228515625 32.780517578125
30.076904296875 0.4261474609375 -19.778076171875
-26.642578125 0.960205078125 62.669189453125
30.355224609375 0.80078125 -17.45751953125
-0.68115234375 7.2335205078125 19.611328125
19.8583984375 2.671142578125 -4.75439453125
-28.3974609375 1.77392578125 -23.837890625
4.82666015625 4.7138671875 6.746826171875
38.61083984375 3.6263427734375 2.2490234375
25.084716796875 7.55419921875 24.4228515625
24.054443359375 0.8189697265625 -17.414794921875
-0.969482421875 -0.55419921875 -34.9287109375
-27.44482421875 3.1988525390625 74.43603515625
-28.354736328125 4.52880859375 -6.130126953125
-29.94384765625 2.9512939453125 72.060302734375
36.083740234375 5.1195068359375 12.48876953125
-33.27685546875 2.4803466796875 70.128662109375
15.5380859375 0.4735107421875 -20.184326171875
32.05615234375 4.3009033203125 6.563232421875
-2.365478515625 5.09326171875 38.09619140625
-30.34765625 3.8173828125 78.83154296875
-8.561767578125 3.121826171875 39.78662109375
11.5546875 6.3907470703125 15.730712890625
7.947021484375 4.4464111328125 4.34716796875
-14.244384765625 4.0101318359375 75.87646484375
-21.260009765625 0.301513671875 57.063232421875
37.205322265625 -1.6546630859375 -33.16845703125
-5.906005859375 3.4296875 -2.83642578125
3.788330078125 1.71435546875 -13.619384765625
12.782470703125 -2.0341796875 -34.37060546875
22.7607421875 8.3416748046875 32.484375
-11.145751953125 8.367431640625 14.825439453125
-25.86865234375 2.7392578125 -12.0771484375
-1.94677734375 1.1708984375 -17.02490234375
32.06982421875 6.0634765625 16.4345703125
26.019775390625 7.3802490234375 27.0439453125
2.924072265625 6.2139892578125 35.765380859375
-5.238037109375 1.8419189453125 -14.071044921875
12.291015625 8.294677734375 29.791259765625
31.3564453125 1.40380859375 -11.942138671875
39.293212890625 0.778076171875 -14.0146484375
-9.22119140625 -0.6771240234375 -31.82470703125
21.988525390625 -1.0177001953125 -29.1904296875
-23.45849609375 1.20458984375 63.450439453125
-8.46875 4.4554443359375 32.583251953125
5.640380859375 6.046630859375 40.353759765625
-28.79736328125 3.0728759765625 75.899169921875
-8.7880859375 2.5931396484375 43.842041015625
27.3701171875 9.4091796875 50.867919921875
24.90283203125 2.1572265625 -7.010986328125
25.806884765625 4.940185546875 8.19384765625
17.81103515625 -1.833984375 -33.4765625
-15.883056640625 4.029296875 -5.989990234375
33.64892578125 3.596923828125 2.02783203125
8.197998046875 3.9525146484375 1.428466796875
7.018798828125 1.6243896484375 -13.710205078125
3.70068359375 7.2440185546875 21.957763671875
32.749267578125 6.7913818359375 19.337890625
-4.209716796875 5.454833984375 10.3134765625
35.348388671875 3.05712890625 -1.117431640625
39.2041015625 0.4566650390625 -17.523193359375
-28.59765625 1.267578125 62.044677734375
27.0703125 -1.6839599609375 -32.638671875
42.184814453125 3.0521240234375 1.855712890625
42.883544921875 -0.01953125 -17.017578125
-23.29736328125 -1.3309326171875 -36.482421875
-1.58740234375 7.18701171875 23.45703125
-31.076416015625 1.1231689453125 61.830810546875
-16.24560546875 -0.61865234375 -46.24072265625
41.0146484375 0.012451171875 -19.81884765625
-26.3671875 2.4979248046875 70.7724609375
-11.942138671875 3.282958984375 37.0166015625
22.4765625 -2.003662109375 -33.239501953125
12.6328125 9.19580078125 41.3125
4.401611328125 -0.0562744140625 -25.521484375
27.82275390625 3.2298583984375 -0.677001953125
24.43701171875 1.3614501953125 -13.679931640625
9.60693359375 6.3858642578125 15.157958984375
-19.53662109375 1.513916015625 -17.943359375
10.107177734375 7.8392333984375 24.6298828125
-28.387451171875 1.52001953125 64.069580078125
-21.832275390625 -0.259521484375 55.284912109375
38.107666015625 3.9384765625 4.406982421875
-6.115478515625 -1.5625 -35.743896484375
-5.989501953125 0.9869384765625 -18.88916015625
-2.88671875 3.5103759765625 46.94921875
-17.2412109375 2.8431396484375 72.6611328125
6.423095703125 -1.866455078125 -38.39453125
-27.871826171875 2.7496337890625 72.1650390625
16.77294921875 -1.2757568359375 -28.939453125
-23.13525390625 -0.48974609375 51.8798828125
30.170654296875 3.6522216796875 2.62646484375
34.635498046875 4.7572021484375 7.715087890625
-19.892578125 2.5416259765625 71.198486328125
-7.141845703125 1.1839599609375 -17.342041015625
27.67919921875 6.574951171875 27.633056640625
14.998779296875 8.1868896484375 26.681884765625
-5.06103515625 2.884521484375 -6.537353515625
24.5849609375 7.02880859375 22.388916015625
2.508056640625 0.991943359375 -17.7509765625
21.01953125 9.2587890625 35.29541015625
-10.005859375 2.970703125 -8.555419921875
3.6533203125 3.924560546875 -0.34033203125
-28.10400390625 4.91845703125 -0.5224609375
-21.5771484375 2.655029296875 -12.84716796875
17.373291015625 3.7899169921875 1.5712890625
12.942626953125 -0.0845947265625 -22.217529296875
-23.888916015625 1.495849609375 -19.604736328125
-15.94140625 6.1820068359375 9.367919921875
5.095458984375 4.116455078125 1.37353515625
28.50439453125 1.064453125 -16.6435546875
-27.99609375 0.0733642578125 56.4755859375
29.760986328125 1.177978515625 -13.13525390625
9.285400390625 8.4725341796875 29.114013671875
4.404541015625 5.0115966796875 8.81103515625
15.111328125 2.702880859375 -4.466796875
-19.66748046875 0.089599609375 56.013916015625
-6.042724609375 7.1181640625 22.17431640625
-16.424072265625 0.6837158203125 -23.837158203125
-25.116943359375 -0.5775146484375 -32.709228515625
-23.5390625 3.299560546875 -7.600830078125
-10.428955078125 1.862060546875 46.7177734375
-30.075439453125 -0.22119140625 56.16064453125
25.373046875 0.012451171875 -20.3388671875
13.883544921875 5.9111328125 11.86474609375
8.950927734375 -1.7247314453125 -32.957763671875
29.84423828125 -2.4874267578125 -35.3427734375
-9.503173828125 0.7008056640625 60.509765625
19.77685546875 7.6385498046875 24.77685546875
-10.046875 0.874755859375 52.0185546875
-28.828857421875 1.8824462890625 -25.688720703125
9.978271484375 1.982666015625 -11.285888671875
42.644775390625 -0.3409423828125 -18.876708984375
-14.583740234375 1.2073974609375 64.663330078125
38.67138671875 2.7452392578125 -10.915771484375
23.412353515625 5.4874267578125 12.602294921875
28.99755859375 -1.838623046875 -32.515869140625
-20.904052734375 5.5322265625 6.281005859375
0.411865234375 0.858154296875 -18.640380859375
17.7705078125 0.7230224609375 -18.32666015625
11.83740234375 6.976318359375 22.2509765625
9.177001953125 6.7666015625 39.00439453125
-18.64697265625 0.99658203125 44.24853515625
-28.73193359375 3.9259033203125 -15.118896484375
2.087158203125 2.8526611328125 -6.641845703125
-12.756591796875 1.03564453125 48.994140625
32.119873046875 0.3619384765625 -19.731201171875
8.172119140625 7.2958984375 34.43896484375
34.4072265625 3.29541015625 -11.170166015625
5.447509765625 8.4554443359375 27.935546875
-4.77294921875 6.19482421875 25.360595703125
23.651611328125 -0.4425048828125 -23.451416015625
20.0322265625 -2.5458984375 -37.545166015625
18.205078125 1.2332763671875 -15.662109375
31.08203125 -0.8824462890625 -26.044921875
-28.4619140625 6.6412353515625 -4.614013671875
11.15478515625 6.817626953125 19.6826171875
9.248291015625 3.6221923828125 -0.454833984375
-6.767578125 -0.7115478515625 -29.524658203125
-9.600830078125 5.7393798828125 10.360107421875
24.822509765625 -0.8253173828125 -26.5283203125
-20.73046875 5.0816650390625 4.441162109375
-14.999755859375 2.3653564453125 39.7197265625
-17.039794921875 0.452880859375 47.8974609375
-33.2431640625 2.67724609375 75.6826171875
16.196533203125 5.45166015625 8.97119140625
44.641845703125 -1.0177001953125 -18.499267578125
-6.193603515625 5.989990234375 11.53076171875
36.384033203125 6.107666015625 15.478515625
-28.71484375 5.9886474609375 -19.6884765625
6.526611328125 3.4302978515625 -3.064453125
-28.255126953125 6.97119140625 0.547119140625
-32.54296875 2.8736572265625 78.344482421875
-2.84326171875 -0.029052734375 -26.296875
-1.440673828125 3.266845703125 -5.03662109375
5.909912109375 6.161865234375 38.287841796875
-22.23046875 3.0247802734375 70.19775390625
15.230224609375 -0.783203125 -27.824951171875
33.0576171875 -0.2513427734375 -23.104248046875
19.561767578125 -0.3389892578125 -22.94775390625
4.05126953125 5.3134765625 41.34130859375
-24.337158203125 0.8240966796875 59.962646484375
37.094482421875 -0.5596923828125 -24.49560546875
-13.534912109375 -0.4637451171875 -31.592041015625
-6.140380859375 2.995849609375 -8.05322265625
-3.82470703125 1.3145751953125 -15.586669921875
24.1884765625 1.0479736328125 -15.496826171875
46.821533203125 1.3675537109375 -16.406005859375
43.057861328125 -1.788818359375 -27.51220703125
-4.703369140625 -0.6671142578125 -30.169921875
-10.414794921875 0.3663330078125 58.7587890625
33.78271484375 5.7303466796875 15.80126953125
-26.688232421875 0.24755859375 58.074951171875
-1.7841796875 5.94775390625 11.875732421875
19.826904296875 0.7745361328125 -17.321533203125
-31.4658203125 0.720703125 59.94384765625
8.0029296875 7.0947265625 22.972900390625
9.947021484375 -0.6173095703125 -27.709228515625
-8.269775390625 2.7515869140625 -9.86376953125
33.7099609375 -2.1287841796875 -33.25830078125
-25.907958984375 5.2451171875 80.425048828125
-17.093994140625 -0.0865478515625 -28.741943359375
42.05908203125 -2.26025390625 -31.090576171875
28.261474609375 1.9246826171875 -9.08251953125
11.310546875 0.3175048828125 -21.0283203125
-1.07080078125 6.4273681640625 32.206787109375
-4.532958984375 6.849365234375 23.51953125
29.924560546875 2.406494140625 -4.93310546875
-3.2939453125 6.47509765625 15.80419921875
13.042724609375 3.400634765625 -1.21337890625
8.619384765625 0.240478515625 -22.699951171875
-0.33056640625 2.3033447265625 -10.227294921875
-18.02001953125 3.385009765625 64.781982421875
5.99951171875 -0.631591796875 -29.774658203125
-12.6318359375 3.6214599609375 -4.483642578125
18.71044921875 9.67138671875 18.46826171875
6.977294921875 1.484130859375 -15.68408203125
12.48095703125 4.421630859375 5.676513671875
-10.459228515625 0.1942138671875 -25.858154296875
30.065673828125 0.280029296875 -21.81884765625
37.086181640625 -1.590087890625 -30.978271484375
21.37451171875 2.0491943359375 -7.794677734375
37.872802734375 -1.3853759765625 -28.794189453125
-28.63037109375 4.9100341796875 -21.731689453125
-13.319091796875 0.591552734375 -23.963623046875
26.63671875 5.2449951171875 11.212158203125
13.461669921875 2.313232421875 -7.046142578125
1.627197265625 5.4437255859375 9.464111328125
9.0283203125 2.486328125 -7.9609375
-32.48046875 1.4537353515625 63.181396484375
7.523193359375 6.2440185546875 14.219970703125
12.23095703125 0.655029296875 -18.5458984375
-8.26220703125 3.59375 -3.2138671875
-28.457763671875 3.0130615234375 -17.333251953125
21.592041015625 5.6783447265625 12.862548828125
39.354248046875 2.6260986328125 -4.397216796875
7.815185546875 6.6734619140625 17.844970703125
-8.584716796875 5.2366943359375 28.49560546875
-16.53515625 5.60595703125 -6.901123046875
-4.064453125 4.1346435546875 2.41162109375
-5.84765625 5.123779296875 33.482421875
-26.390869140625 4.178466796875 -3.534423828125
29.149169921875 8.754150390625 51.833740234375
-20.295654296875 0.6417236328125 -23.718017578125
-21.475830078125 0.7125244140625 59.236083984375
-21.880859375 0.234619140625 -27.239990234375
-29.26025390625 1.8240966796875 65.64111328125
-15.380615234375 2.729248046875 -8.641357421875
7.4736328125 8.001220703125 28.183349609375
12.26806640625 4.0108642578125 1.425537109375
27.831298828125 6.8489990234375 21.509765625
-17.2578125 2.1326904296875 68.073974609375
37.542724609375 4.73876953125 -9.68701171875
42.535888671875 2.103759765625 -7.259765625
-18.69140625 3.1375732421875 -8.5947265625
30.282958984375 1.8642578125 -9.01318359375
-24.01123046875 2.826416015625 65.260498046875
-18.773193359375 4.9891357421875 -0.463134765625
32.798095703125 1.3426513671875 -13.154296875
7.905029296875 -2.4178466796875 -40.01220703125
-6.4736328125 -2.631591796875 -40.269775390625
-20.9267578125 2.7880859375 -9.744384765625
0.736083984375 2.0252685546875 -11.6689453125
22.954833984375 6.5614013671875 18.353271484375
6.74951171875 3.760009765625 -0.291259765625
18.704345703125 8.8682861328125 33.0546875
30.375 6.5296630859375 19.008056640625
30.986328125 -2.0262451171875 -33.48095703125
-9.130859375 -2.6710205078125 -40.83837890625
26.669921875 -2.148681640625 -34.8837890625
3.499267578125 6.8248291015625 16.84765625
-24.79541015625 -1.98681640625 50.0615234375
34.2099609375 1.0782470703125 -16.8935546875
-15.970703125 6.2294921875 11.31494140625
8.2919921875 0.72265625 -19.114990234375
29.254638671875 6.5089111328125 24.0
-12.717041015625 1.4757080078125 46.493408203125
-2.151611328125 2.7423095703125 50.6591796875
34.976318359375 4.166748046875 3.20654296875
24.231201171875 -2.5433349609375 -37.14208984375
-17.529052734375 -1.0787353515625 -44.182861328125
22.117431640625 0.995849609375 -16.508544921875
8.00048828125 7.718505859375 24.6611328125
14.07861328125 8.39306640625 34.2919921875
43.1220703125 0.301513671875 -15.161376953125
12.279296875 -0.2855224609375 -25.96435546875
0.782958984375 1.4896240234375 -34.2900390625
-20.051025390625 0.17333984375 -27.2109375
-6.992919921875 2.06494140625 -12.742919921875
20.441650390625 1.48388671875 -13.798095703125
-21.5185546875 6.651611328125 7.540771484375
-8.11767578125 3.8914794921875 36.916748046875
-16.4521484375 2.385986328125 69.866943359375
1.396484375 4.4923095703125 5.030029296875
-10.20263671875 2.0426025390625 -13.576416015625
-19.695068359375 6.1683349609375 9.77734375
-6.704833984375 2.4583740234375 48.0947265625
-19.372314453125 -0.3758544921875 -42.4150390625
20.107177734375 -0.630859375 -25.731201171875
-18.710205078125 -0.8192138671875 51.437744140625
28.89990234375 0.9503173828125 -14.6923828125
35.1796875 5.6248779296875 14.204345703125
-28.21728515625 1.9898681640625 -22.014404296875
22.275146484375 1.366943359375 -12.59228515625
-1.994873046875 3.4302978515625 -3.3173828125
16.23046875 8.1007080078125 16.79541015625
27.368408203125 5.383544921875 12.830322265625
-5.6650390625 -1.8203125 -37.44775390625
-15.869140625 -2.3538818359375 -42.373779296875
-9.2294921875 0.219970703125 -23.9638671875
-14.69921875 2.0224609375 -13.70703125
23.42431640625 1.8758544921875 -10.288818359375
-11.724609375 -1.3388671875 -36.351318359375
3.534912109375 6.6275634765625 33.889892578125
-10.489013671875 1.7310791015625 44.946044921875
-4.9453125 -1.005615234375 -33.006103515625
-4.8388671875 3.86572265625 -1.07373046875
26.294677734375 5.7686767578125 15.168212890625
35.236328125 3.6839599609375 1.238525390625
4.019775390625 -2.3115234375 -41.0869140625
-26.60302734375 1.25830078125 -21.0244140625
18.048828125 0.2086181640625 -21.367431640625
15.962646484375 -1.6231689453125 -33.11181640625
4.024169921875 0.48388671875 -19.859375
-23.796142578125 -0.483154296875 53.523193359375
-2.197021484375 0.7523193359375 -21.326171875
7.936767578125 2.7652587890625 -6.516845703125
-24.355712890625 3.4716796875 77.44677734375
1.085205078125 1.0535888671875 -14.973388671875
22.6083984375 7.9969482421875 28.779052734375
11.850830078125 1.8114013671875 -12.163330078125
-1.237060546875 2.7998046875 -6.946044921875
2.52587890625 5.7686767578125 11.858154296875
13.505615234375 2.117431640625 -11.088134765625
17.905029296875 1.9981689453125 -8.1015625
-20.43603515625 -1.709716796875 -38.993896484375
22.86767578125 4.6851806640625 6.652099609375
-25.126953125 5.527587890625 4.027587890625
17.919921875 1.828857421875 -11.1259765625
10.734130859375 4.66796875 6.4091796875
-18.1787109375 -2.669189453125 -42.436279296875
15.106689453125 1.5797119140625 -14.237548828125
23.4443359375 2.017822265625 -8.292724609375
-6.177490234375 1.1522216796875 54.841552734375
6.099365234375 0.561279296875 -19.439453125
-11.352294921875 -0.9495849609375 -34.66650390625
26.197509765625 5.81884765625 17.193603515625
6.588623046875 -1.3704833984375 -31.83935546875
-19.654052734375 3.5372314453125 65.39697265625
3.6123046875 0.5946044921875 -21.7685546875
-6.2978515625 4.353515625 0.93701171875
8.67529296875 5.453857421875 12.0380859375
29.7998046875 7.1328125 51.71630859375
-25.94775390625 0.3182373046875 56.382568359375
37.760498046875 5.3775634765625 13.139404296875
28.246826171875 3.737548828125 1.96923828125
-15.211181640625 -0.872802734375 -33.55810546875
-17.125732421875 -0.834716796875 -33.00830078125
-27.60009765625 3.5147705078125 -8.0283203125
-12.671630859375 5.710693359375 7.958984375
18.589599609375 6.1104736328125 15.067626953125
-16.6982421875 -0.5146484375 54.528564453125
12.003662109375 7.929443359375 37.307861328125
5.239990234375 -0.567138671875 -27.293701171875
-25.62451171875 -1.1258544921875 -35.755615234375
2.306396484375 -1.8978271484375 -38.20166015625
-34.8203125 3.5322265625 66.42138671875
-13.063720703125 1.6917724609375 -15.945556640625
17.306884765625 0.0672607421875 -23.011962890625
20.888916015625 8.4935302734375 33.232666015625
5.552734375 7.9180908203125 26.17529296875
0.185302734375 7.2099609375 26.500732421875
-14.822998046875 4.9794921875 -4.990966796875
-3.59375 6.8475341796875 17.737548828125
-29.088623046875 5.4429931640625 -8.1689453125
-22.126953125 3.278076171875 -44.302001953125
6.503662109375 -1.662353515625 -35.882568359375
10.697021484375 7.0382080078125 40.623779296875
-0.872314453125 6.953857421875 28.538330078125
