38.839111328125 -7.277099609375 8.987548828125
15.4775390625 -3.34814453125 40.1162109375
-6.204345703125 -5.8062744140625 31.79296875
-49.4462890625 -20.1800537109375 73.270751953125
25.508056640625 -10.8170166015625 -15.171630859375
12.638916015625 -6.7847900390625 8.51123046875
-27.997802734375 19.96240234375 -18.136962890625
-17.372802734375 -11.617919921875 54.749267578125
-22.716552734375 44.0440673828125 -40.120361328125
-28.8271484375 -9.4940185546875 59.667236328125
-7.551513671875 -6.1903076171875 8.673095703125
-17.306396484375 -9.042724609375 72.649658203125
-42.234130859375 -23.164794921875 42.8681640625
26.279296875 -4.563720703125 22.93359375
-0.388916015625 -8.269287109375 55.701904296875
-25.859375 -2.8037109375 6.04052734375
1.28271484375 -5.92138671875 39.759765625
-28.238037109375 -0.0726318359375 -19.6591796875
0.90087890625 -5.09375 16.744140625
14.484375 -5.6761474609375 18.464599609375
22.823486328125 -6.531005859375 11.54052734375
3.923828125 -4.240966796875 32.71875
-2.589599609375 -5.439208984375 14.6767578125
21.6904296875 -5.228515625 19.39111328125
-3.123779296875 -6.922119140625 39.775634765625
-22.70556640625 -10.4228515625 -21.49072265625
-28.93505859375 4.449951171875 -12.530517578125
-16.255126953125 -10.90087890625 59.775634765625
35.859619140625 -7.09619140625 -7.032470703125
-9.578369140625 -10.787841796875 61.845947265625
36.47900390625 -9.61669921875 -10.318359375
4.578125 -3.5045166015625 27.83056640625
-28.195068359375 -5.405029296875 4.603271484375
44.2607421875 -8.65234375 2.005615234375
7.076171875 -5.261962890625 41.65869140625
0.520263671875 -8.2587890625 -3.25390625
-28.53662109375 9.1171875 -13.541015625
-0.13623046875 -9.9317626953125 -29.56298828125
4.8759765625 -7.447509765625 4.14453125
-2.431396484375 -6.837890625 6.948974609375
-20.97900390625 33.701416015625 -21.33251953125
-24.592041015625 -6.5970458984375 2.838623046875
-45.288818359375 -22.2723388671875 44.361083984375
8.010009765625 -6.037841796875 11.364013671875
23.843994140625 -3.9810791015625 27.663818359375
-38.16552734375 -21.3397216796875 40.121337890625
-20.6533203125 -5.8011474609375 83.908447265625
25.08251953125 -9.4130859375 -6.877685546875
-42.518798828125 -18.7039794921875 69.71240234375
28.2353515625 -9.90625 -9.74267578125
0.292724609375 -3.981689453125 25.679443359375
20.528076171875 -2.26318359375 21.5859375
-27.0400390625 25.098876953125 -28.8583984375
-28.916748046875 7.4630126953125 -4.106201171875
-28.3935546875 16.317626953125 -16.142822265625
4.612060546875 -7.964599609375 -0.45361328125
-2.3046875 -5.963623046875 36.210693359375
31.546630859375 -5.700439453125 17.615966796875
-18.73583984375 -11.00048828125 59.0849609375
-28.820556640625 -6.0684814453125 -22.328125
10.788818359375 -4.024658203125 39.08740234375
-44.820556640625 -23.878662109375 62.646728515625
36.59521484375 -5.60205078125 17.302001953125
25.397705078125 -2.9041748046875 32.83642578125
-29.349853515625 -1.2371826171875 2.239990234375
3.4189453125 -4.1148681640625 24.788330078125
-28.559326171875 1.8665771484375 -4.05224609375
30.591796875 -5.041748046875 21.714111328125
-19.431640625 -6.485107421875 70.33056640625
27.4306640625 -4.5433349609375 25.3515625
9.05517578125 -3.6732177734375 34.012939453125
-3.337158203125 -9.1783447265625 -10.3564453125
-44.52197265625 -21.964599609375 67.250244140625
41.968017578125 -8.009521484375 4.318603515625
5.67236328125 -5.02294921875 38.883056640625
14.318603515625 -4.4393310546875 22.8740234375
-29.133056640625 -2.0841064453125 -10.193603515625
39.680419921875 -10.6409912109375 -12.454833984375
-26.9375 -10.90576171875 58.99755859375
-29.58056640625 0.1842041015625 -24.597412109375
-27.084716796875 -10.5810546875 -25.013916015625
-25.138916015625 -10.1417236328125 63.6337890625
18.953857421875 -3.7957763671875 24.8896484375
-14.2705078125 -8.5029296875 37.99462890625
-14.901123046875 -9.2626953125 42.737060546875
-9.787109375 -11.167236328125 58.513671875
14.095458984375 -7.4310302734375 5.62451171875
-26.6494140625 -6.9708251953125 -1.26318359375
7.876953125 -4.225830078125 24.249267578125
-48.6123046875 -20.6279296875 68.472412109375
-23.335205078125 -8.056396484375 -5.90234375
-1.11865234375 -5.139892578125 33.92578125
-43.7412109375 -21.5755615234375 61.6240234375
-17.1494140625 -10.4283447265625 63.498779296875
-13.87890625 47.0654296875 -37.81298828125
-27.609375 22.4876708984375 -21.10546875
2.06103515625 -7.583251953125 51.671630859375
-4.637451171875 -8.1722412109375 -2.676025390625
33.783203125 -7.736328125 4.45556640625
-8.87939453125 -10.3223876953125 -15.9482421875
-10.41455078125 -9.233154296875 -12.14697265625
4.984130859375 -9.304931640625 -9.039306640625
-10.57177734375 -9.8258056640625 66.306396484375
37.345703125 -7.4815673828125 7.23828125
41.164306640625 -10.3271484375 -9.16650390625
-23.528564453125 -10.399658203125 61.305419921875
-28.80712890625 -0.609130859375 -7.143798828125
17.421875 -6.7139892578125 8.689208984375
0.674072265625 -7.0433349609375 5.522216796875
2.94921875 -4.771240234375 20.4794921875
-28.1005859375 13.935546875 -12.12353515625
-5.517333984375 -8.417236328125 46.979248046875
-5.857421875 -4.5079345703125 22.53955078125
-28.889404296875 2.784423828125 -0.406982421875
-28.616455078125 9.4111328125 -19.167724609375
10.864501953125 -5.5433349609375 16.171630859375
-25.608154296875 2.5794677734375 -24.465576171875
-19.950439453125 -7.3426513671875 80.80126953125
37.464599609375 -7.07177734375 11.036865234375
9.843505859375 -7.706787109375 4.322021484375
-3.130126953125 -10.7042236328125 -20.35498046875
18.017822265625 -10.9063720703125 -18.02392578125
-13.6748046875 -9.7822265625 67.984619140625
16.757568359375 -3.471923828125 31.515625
-28.46142578125 13.7310791015625 -27.005615234375
32.105224609375 -9.03466796875 -2.297119140625
-28.49951171875 9.84619140625 -26.04345703125
42.670166015625 -9.21484375 -3.156494140625
12.439453125 -3.3016357421875 30.461669921875
39.467041015625 -8.5341796875 -5.025634765625
-0.01513671875 -8.1624755859375 52.772705078125
-29.15234375 -1.501953125 -21.955322265625
20.745361328125 -10.662841796875 -14.38037109375
-23.6015625 47.37890625 -37.055908203125
-28.3486328125 17.3333740234375 -21.219970703125
-43.6865234375 -21.73681640625 57.36181640625
10.404541015625 -11.04736328125 -19.156494140625
-5.961669921875 -2.8936767578125 15.626953125
-28.111572265625 2.0762939453125 -8.82470703125
10.302978515625 -4.2615966796875 41.276123046875
13.291259765625 -8.8184814453125 -4.873291015625
-22.873779296875 -4.7667236328125 83.091796875
14.165283203125 -3.71728515625 42.237548828125
-30.04150390625 -7.906494140625 73.005126953125
-28.1943359375 10.747802734375 -23.60986328125
-29.40185546875 -4.8062744140625 -18.63427734375
-10.899658203125 -4.898193359375 15.519287109375
-20.815673828125 -11.3255615234375 48.495361328125
27.489501953125 -4.1702880859375 29.55322265625
6.66455078125 -10.602294921875 -16.3935546875
44.449462890625 -7.4852294921875 7.5263671875
-6.624267578125 -6.6943359375 5.028076171875
15.968505859375 -5.712890625 16.329345703125
3.353759765625 -6.4998779296875 44.69140625
32.673828125 -5.1866455078125 19.864501953125
8.156005859375 -5.7042236328125 14.576171875
-6.539306640625 -9.9669189453125 -15.34765625
-22.631103515625 -6.2996826171875 7.02001953125
28.073486328125 -3.458251953125 32.88427734375
27.358154296875 -8.9337158203125 -2.6015625
-21.797607421875 -11.76171875 55.3720703125
32.2138671875 -10.29345703125 -12.047607421875
9.9794921875 -6.8251953125 7.82177734375
-16.530029296875 -6.8662109375 82.3076171875
-2.507080078125 -9.73779296875 -13.03759765625
0.554931640625 -9.1868896484375 -9.849365234375
-28.9892578125 -4.7811279296875 -13.88671875
18.963134765625 -6.234375 13.202880859375
3.927978515625 -10.65087890625 -16.470703125
-26.707275390625 -8.42919921875 -8.849609375
22.21533203125 -8.3330078125 1.126708984375
35.72509765625 -8.992431640625 -2.51708984375
25.291748046875 -6.9722900390625 8.592529296875
25.326904296875 -8.81640625 -1.672119140625
8.72265625 -3.1231689453125 30.594482421875
-9.279541015625 -10.044921875 53.802001953125
39.73779296875 -8.6444091796875 -8.7216796875
-47.97802734375 -20.7054443359375 65.262451171875
-29.09423828125 -7.1651611328125 -17.60888671875
-7.378662109375 -8.4451904296875 -5.121337890625
11.516357421875 -3.2269287109375 34.653564453125
-50.542236328125 -19.9434814453125 78.63330078125
-29.18896484375 -1.2763671875 -2.20458984375
-3.129150390625 -8.7784423828125 -6.64501953125
-8.158203125 -10.463623046875 -19.301025390625
32.999267578125 -6.53515625 13.338623046875
-28.53857421875 11.6904296875 -18.828125
5.30224609375 -6.7254638671875 48.58740234375
30.9443359375 -9.89111328125 -8.513427734375
-42.84375 -20.5406494140625 67.2080078125
-7.839599609375 -10.917236328125 -22.299560546875
9.195556640625 -7.83740234375 2.21044921875
29.281982421875 -5.9141845703125 16.745361328125
7.966796875 -8.931396484375 -7.1982421875
11.114013671875 -8.9637451171875 -5.2333984375
-7.100341796875 -8.9498291015625 -8.512939453125
6.98583984375 -11.124267578125 -19.8935546875
-3.172607421875 -4.3280029296875 23.6015625
-26.22802734375 1.5667724609375 -22.597900390625
-22.1787109375 -9.7548828125 -17.095703125
-2.37353515625 -4.958251953125 19.6708984375
-28.447021484375 20.4022216796875 -29.34912109375
29.17822265625 -10.4874267578125 -12.517333984375
-22.387939453125 -11.113037109375 58.021728515625
-18.49365234375 -9.8590087890625 66.902587890625
-28.780029296875 12.6849365234375 -15.1630859375
-8.734375 -6.898681640625 4.212890625
-27.91650390625 10.3631591796875 -8.99169921875
1.5078125 -6.6207275390625 9.834228515625
-28.787109375 17.931396484375 -25.869384765625
2.930908203125 -9.12353515625 -5.565673828125
22.015869140625 -5.79345703125 15.551025390625
-25.77490234375 -3.309326171875 82.806396484375
15.841064453125 -9.9505615234375 -11.206298828125
-11.206787109375 -6.9583740234375 2.0498046875
-4.421630859375 -6.138671875 10.53125
-23.051513671875 -10.8980712890625 -25.095458984375
-41.55322265625 -21.1044921875 53.083740234375
18.159912109375 -9.7264404296875 -10.949951171875
-27.027099609375 7.41796875 -22.574462890625
36.2158203125 -6.0675048828125 15.177734375
-3.743896484375 -9.4844970703125 55.31591796875
-26.7568359375 24.5101318359375 -15.938720703125
-8.80029296875 -10.51904296875 56.044921875
-4.77685546875 -5.1337890625 14.615966796875
-3.024169921875 -10.3760986328125 -16.503173828125
-26.425537109375 -7.4595947265625 -4.562744140625
15.612060546875 -8.3271484375 -1.206298828125
-25.726806640625 29.8900146484375 -20.609375
-25.84716796875 -9.726806640625 -18.10009765625
17.670166015625 -3.057861328125 19.789794921875
16.48193359375 -3.8421630859375 29.387939453125
-20.293212890625 -11.695556640625 52.014892578125
-28.071533203125 22.6756591796875 -18.918701171875
-28.794921875 -5.5091552734375 2.06201171875
-2.404052734375 -8.6383056640625 51.6865234375
-28.488525390625 26.1231689453125 -24.471923828125
13.3251953125 -10.647216796875 -15.730224609375
27.58447265625 -5.4664306640625 18.8017578125
41.872802734375 -7.8626708984375 6.839111328125
22.439453125 -10.5751953125 -16.31396484375
2.580810546875 -7.341064453125 49.0595703125
-26.2822265625 -8.62451171875 73.4873046875
28.75927734375 -7.7613525390625 5.309814453125
5.44970703125 -4.8387451171875 36.55078125
-28.89013671875 -8.736328125 -20.924560546875
30.637451171875 -9.343505859375 -5.535888671875
-1.3896484375 -5.6304931640625 12.732421875
25.402587890625 -5.81884765625 15.49560546875
-20.345703125 46.3065185546875 -38.79736328125
-29.48876953125 -7.356201171875 -26.33544921875
-24.05810546875 -9.088134765625 -14.409423828125
-27.41357421875 26.0546875 -20.918701171875
-17.2880859375 -2.7701416015625 -47.654296875
-29.140380859375 5.357666015625 -27.99609375
-28.0712890625 -8.2548828125 -14.13525390625
-28.849853515625 -9.6802978515625 66.306884765625
-28.038330078125 17.2440185546875 -14.26611328125
27.834228515625 -9.2734375 -4.71533203125
-29.079833984375 -2.9049072265625 -5.38623046875
-50.785888671875 -19.3524169921875 86.313720703125
7.511474609375 -5.7227783203125 44.929931640625
23.716796875 -9.5352783203125 -8.702392578125
-28.93994140625 1.751220703125 -26.770751953125
3.999267578125 -6.8558349609375 7.755859375
-9.6708984375 -8.2081298828125 -5.048828125
-30.145751953125 -6.69189453125 79.837890625
-26.920166015625 4.13720703125 -25.0400390625
42.335205078125 -8.663330078125 -0.162109375
-14.8525390625 -10.4715576171875 64.333251953125
1.487060546875 -9.333740234375 -32.31494140625
-26.6650390625 2.4210205078125 -18.751220703125
-24.69091796875 4.534912109375 -22.908203125
20.6337890625 -6.7822265625 9.69189453125
4.8984375 -5.6798095703125 14.634033203125
-9.608642578125 -9.6146240234375 48.780517578125
5.775146484375 -6.2657470703125 11.057373046875
14.8427734375 -11.255126953125 -18.27880859375
29.531005859375 -4.4681396484375 25.865478515625
-28.610595703125 3.89453125 -5.99072265625
-15.225341796875 -4.34814453125 -48.01904296875
20.459716796875 -9.18798828125 -6.230224609375
-16.404296875 -7.5302734375 68.64501953125
-47.560546875 -21.0611572265625 60.10546875
0.140869140625 -4.2894287109375 31.112060546875
-3.446533203125 -6.8206787109375 3.5107421875
42.85791015625 -9.913330078125 -6.544921875
-28.495849609375 16.0235595703125 -23.5419921875
6.12841796875 -9.590576171875 -11.006103515625
-29.368408203125 -3.0628662109375 -16.034912109375
-0.1943359375 -11.19287109375 -23.224609375
19.696533203125 -4.035400390625 28.05419921875
-29.023193359375 7.72021484375 -26.206298828125
-44.17333984375 -19.66357421875 79.198486328125
-5.55029296875 -9.7095947265625 58.861572265625
-6.57177734375 -5.638916015625 13.286376953125
-45.687255859375 -22.0269775390625 56.662109375
-8.193115234375 -3.64013671875 16.542724609375
-6.04248046875 -8.5091552734375 -6.7744140625
-9.590087890625 -10.2650146484375 -23.203857421875
-49.361572265625 -19.4669189453125 87.82568359375
-9.751220703125 -6.47216796875 7.93798828125
2.559326171875 -5.2177734375 18.441650390625
24.869140625 -9.9515380859375 -11.647216796875
-12.19873046875 -3.3377685546875 15.920166015625
-8.620361328125 -7.63037109375 -0.91064453125
0.808837890625 -10.510986328125 -16.9375
-20.328369140625 36.4515380859375 -30.27001953125
-38.635009765625 -19.9869384765625 45.534423828125
25.339599609375 -5.6795654296875 17.933349609375
-25.89990234375 -9.6070556640625 67.227294921875
-18.159912109375 -5.62939453125 66.416015625
-13.89306640625 -10.9293212890625 60.1318359375
-0.54931640625 -4.2620849609375 23.79638671875
-16.6806640625 -9.130615234375 70.69189453125
-4.65283203125 -4.7696533203125 27.806396484375
37.841064453125 -9.04931640625 -2.989501953125
17.59521484375 -10.5025634765625 -15.42333984375
-28.210693359375 6.3228759765625 -23.912109375
17.03369140625 -7.1728515625 6.592041015625
-43.419921875 -23.3160400390625 40.3935546875
13.30810546875 -7.8023681640625 1.684814453125
-27.699462890625 -7.5751953125 -6.282470703125
-45.2421875 -22.2999267578125 53.110595703125
9.67138671875 -10.125 -13.077880859375
-11.842529296875 -11.368896484375 58.113525390625
-22.68896484375 -8.3375244140625 77.532958984375
-27.117431640625 -5.9967041015625 81.36279296875
-27.063232421875 22.7650146484375 -30.77783203125
11.88134765625 -4.03955078125 26.217529296875
-45.894287109375 -22.0848388671875 48.957275390625
3.684326171875 -10.1151123046875 -13.550537109375
39.785400390625 -8.245849609375 1.871337890625
-27.768798828125 15.8980712890625 -11.748046875
-14.284423828125 -10.70068359375 52.5986328125
-1.88037109375 -7.1549072265625 44.429931640625
10.72900390625 -10.59912109375 -16.4619140625
36.25830078125 -8.210205078125 1.982177734375
-15.539306640625 -11.5216064453125 56.161865234375
-29.501953125 -4.0447998046875 -23.992431640625
-2.14404296875 -3.7626953125 27.6494140625
-22.770263671875 -7.78857421875 79.9248046875
17.0185546875 -7.9833984375 2.970703125
-12.849365234375 -8.676513671875 41.117431640625
-25.88232421875 -11.0980224609375 57.300537109375
-4.263671875 -5.73681640625 32.296630859375
11.2275390625 -6.0836181640625 11.827880859375
-47.363037109375 -20.720947265625 74.279541015625
19.468505859375 -4.8955078125 18.784912109375
-9.539306640625 -8.84765625 -8.79150390625
-29.752197265625 -7.529541015625 75.741943359375
-23.3212890625 -8.5859375 73.576171875
-9.786376953125 -8.953369140625 45.388427734375
8.794921875 -4.843505859375 19.745361328125
-41.634033203125 -21.83740234375 49.5
11.258544921875 -4.86962890625 43.932373046875
20.5078125 -3.7117919921875 30.942626953125
-27.991943359375 14.9188232421875 -19.709228515625
13.180908203125 -3.6954345703125 38.87158203125
-24.621337890625 32.0367431640625 -21.716552734375
-17.267578125 -11.3011474609375 50.083740234375
-20.6220703125 -10.3995361328125 62.286865234375
-0.872802734375 -7.209716796875 46.7880859375
27.228759765625 -7.1031494140625 8.24560546875
29.307373046875 -8.2432861328125 0.719482421875
28.5673828125 -6.8797607421875 11.524658203125
-27.884521484375 -10.0164794921875 62.986572265625
-27.818115234375 22.1728515625 -26.463623046875
24.66455078125 -7.758544921875 4.728271484375
-28.301513671875 9.0611572265625 -21.69091796875
-17.302734375 47.414794921875 -37.771484375
-13.07421875 -11.4793701171875 56.440673828125
5.972412109375 -4.221435546875 23.66943359375
-26.78271484375 -7.81298828125 78.516845703125
-43.346923828125 -22.05322265625 34.8671875
-28.961181640625 -4.22216796875 -1.38623046875
-22.932373046875 -9.9608154296875 -19.08544921875
15.306884765625 -2.7530517578125 35.67236328125
-12.1142578125 -9.327880859375 45.6484375
23.2685546875 -9.0299072265625 -4.63427734375
-25.549072265625 -11.054931640625 -28.677490234375
-12.626953125 -4.85302734375 13.92822265625
-8.002197265625 -8.206787109375 41.996826171875
-42.34912109375 -21.1473388671875 56.07373046875
26.233642578125 -8.4605712890625 0.76806640625
10.679931640625 -4.8109130859375 21.291748046875
-26.199951171875 -9.2130126953125 70.231689453125
-28.884765625 -9.0367431640625 69.963623046875
-11.5107421875 -7.4654541015625 -2.47802734375
43.14404296875 -11.3375244140625 -12.7900390625
12.473388671875 -10.0133056640625 -12.52685546875
-49.97900390625 -19.2823486328125 82.67724609375
-3.840087890625 -6.639404296875 37.177490234375
-6.27783203125 -6.799560546875 7.35205078125
24.601806640625 -6.8006591796875 10.8330078125
17.921875 -5.7200927734375 16.905517578125
3.953369140625 -6.1378173828125 42.891357421875
12.137451171875 -9.4932861328125 -9.04052734375
45.748779296875 -9.077880859375 -3.12744140625
12.32763671875 -5.2860107421875 18.310791015625
-24.55615234375 -12.169189453125 53.621826171875
-28.127197265625 13.09033203125 -21.262939453125
2.90771484375 -9.4300537109375 -9.93505859375
-45.377197265625 -18.5062255859375 85.44189453125
9.414794921875 -9.5880126953125 -10.15185546875
-7.504150390625 -6.6224365234375 36.005126953125
-28.6943359375 -7.0543212890625 -10.9306640625
-28.218505859375 20.1717529296875 -24.22705078125
35.368896484375 -7.0206298828125 11.46826171875
-13.168701171875 -7.6651611328125 36.676025390625
-25.693603515625 6.4854736328125 -20.2998046875
-27.002197265625 -6.656005859375 0.714599609375
6.606201171875 -8.8050537109375 -5.061279296875
-47.546142578125 -20.9849853515625 71.949951171875
25.7744140625 -4.7830810546875 31.99951171875
-8.04833984375 -6.283203125 31.89599609375
-26.103515625 26.7388916015625 -18.8828125
-24.546142578125 -10.4075927734375 -21.987060546875
-19.200439453125 -7.591552734375 82.74365234375
-26.3291015625 28.057861328125 -27.614501953125
-21.734375 47.37548828125 -37.52099609375
-40.638671875 -23.54248046875 37.81884765625
7.06201171875 -5.27685546875 18.308837890625
12.2158203125 -7.4014892578125 4.5263671875
-48.18359375 -20.18701171875 80.647216796875
27.00537109375 -9.6129150390625 -7.73193359375
18.988037109375 -6.0753173828125 15.094482421875
14.2587890625 -6.4866943359375 9.588134765625
17.109619140625 -6.1468505859375 12.545654296875
23.19921875 -3.7598876953125 30.27490234375
-15.2314453125 -10.3028564453125 46.96728515625
-44.12353515625 -22.9183349609375 50.68603515625
-10.236328125 -7.3489990234375 35.680908203125
26.5517578125 -10.2081298828125 -10.82421875
-28.56884765625 13.695556640625 -24.8857421875
-23.156494140625 -9.2745361328125 67.271484375
-46.093505859375 -23.298095703125 37.22412109375
11.683349609375 -8.099853515625 0.61376953125
39.6943359375 -8.0986328125 4.39453125
-18.972412109375 -7.50634765625 71.85009765625
-7.249755859375 -4.439208984375 25.537109375
-29.14013671875 -5.2177734375 -8.64208984375
-10.22607421875 25.43212890625 -13.66796875
-29.494384765625 -0.91455078125 0.217041015625
-10.240234375 -6.5023193359375 5.2685546875
-6.433349609375 -6.4049072265625 33.561279296875
32.41357421875 -9.0211181640625 -5.007568359375
31.276123046875 -7.2252197265625 7.920166015625
-27.3642578125 10.93359375 -6.57666015625
-28.143798828125 2.830322265625 -16.6484375
-5.522216796875 -9.8857421875 55.767822265625
23.774658203125 -4.3525390625 23.467529296875
-4.89599609375 -10.30029296875 -16.561767578125
-28.6640625 -10.479736328125 -28.218017578125
-39.719482421875 -23.106201171875 40.7568359375
2.55517578125 -11.482666015625 -20.44970703125
8.963134765625 -4.000244140625 37.9765625
2.010986328125 -4.2939453125 31.69775390625
-9.679443359375 -11.0302734375 -25.83544921875
0.304443359375 -11.050048828125 -18.955078125
-18.777587890625 -11.6937255859375 56.27392578125
19.99755859375 -15.858154296875 104.48095703125
-28.905517578125 15.5404052734375 -27.675048828125
29.41259765625 -8.88525390625 -1.580322265625
-20.97900390625 -10.0546875 64.934326171875
-29.47998046875 3.4736328125 -26.334228515625
-3.59423828125 -3.9776611328125 26.50341796875
23.533935546875 -3.27001953125 33.304443359375
21.714599609375 -7.142822265625 7.849853515625
-28.591552734375 11.8701171875 -29.577880859375
-28.97265625 2.64208984375 -2.250732421875
44.437255859375 -10.8863525390625 -6.34619140625
30.589111328125 -10.74853515625 -15.690185546875
-46.500732421875 -20.2703857421875 78.32421875
-28.782470703125 6.0029296875 -2.983154296875
14.71630859375 -3.45263671875 32.398681640625
-27.833740234375 20.720947265625 -16.065185546875
41.2763671875 -9.339111328125 -5.013427734375
16.1689453125 -7.462890625 4.643798828125
18.921630859375 -10.44287109375 -14.072265625
38.104736328125 -6.0975341796875 -9.08740234375
3.21533203125 -5.322509765625 16.726806640625
20.7666015625 -6.5421142578125 11.509521484375
7.1416015625 -3.4195556640625 29.51220703125
-5.679931640625 -9.679931640625 -13.4189453125
-21.24951171875 -8.767578125 74.54638671875
42.575439453125 -6.480224609375 10.477294921875
-47.52685546875 -19.9249267578125 84.3974609375
-3.73046875 -5.0955810546875 18.4453125
-20.51708984375 -7.0947265625 66.63818359375
37.572998046875 -10.516357421875 -11.478271484375
-29.48779296875 0.658447265625 -14.341064453125
-4.795654296875 -7.204833984375 40.62890625
11.800048828125 -5.974609375 14.45703125
-25.13037109375 -11.09423828125 -25.850830078125
-4.697265625 -8.1436767578125 48.804443359375
-45.002197265625 -21.61865234375 63.056640625
-13.105712890625 -9.0828857421875 71.86572265625
-28.292724609375 20.708740234375 -22.41162109375
-44.354736328125 -20.222900390625 70.6943359375
-28.330810546875 14.1627197265625 -16.126708984375
0.71630859375 -4.4290771484375 21.36474609375
-0.546142578125 -5.1175537109375 18.40234375
-42.32177734375 -23.9547119140625 38.370849609375
-0.3310546875 -7.564697265625 1.81591796875
3.1328125 -4.481689453125 22.677001953125
-29.22265625 -2.5765380859375 -20.36474609375
-26.0673828125 -9.2685546875 -15.714599609375
-29.177490234375 -1.700927734375 -26.389892578125
-29.045654296875 -5.2083740234375 80.964599609375
-6.296630859375 -10.53955078125 -19.248046875
18.755859375 -8.419189453125 0.321044921875
15.957275390625 -3.985595703125 25.82080078125
35.4775390625 -7.2672119140625 7.50244140625
-9.090576171875 -4.961181640625 15.640380859375
-8.669189453125 -5.97900390625 10.096435546875
-28.8525390625 -9.4293212890625 -25.116455078125
1.456787109375 -5.4332275390625 37.138916015625
39.97412109375 -7.7454833984375 -6.6552734375
-43.29638671875 -20.62060546875 63.597900390625
-18.493408203125 -11.6964111328125 52.1298828125
-1.309326171875 -7.9512939453125 48.656494140625
-29.22802734375 4.2713623046875 -10.299072265625
15.24169921875 -9.6492919921875 -7.991455078125
-29.451171875 -4.0089111328125 1.1962890625
-28.484619140625 7.7838134765625 -5.96337890625
-21.95751953125 -2.4254150390625 84.85107421875
-28.529296875 6.5469970703125 -9.300048828125
-1.43017578125 -6.5421142578125 40.27001953125
14.947998046875 -8.153076171875 1.046630859375
-2.946533203125 -4.77734375 30.346923828125
-18.42626953125 31.5281982421875 -18.525146484375
28.781494140625 -6.881103515625 9.42822265625
19.084716796875 -9.1016845703125 -5.0830078125
3.10009765625 -7.2998046875 3.95703125
21.91064453125 -2.23828125 35.9765625
38.106689453125 -8.489501953125 1.23681640625
-29.0224609375 -4.9342041015625 -4.425537109375
-13.2763671875 -10.80615234375 62.046630859375
-29.59765625 -5.3226318359375 -26.8203125
-14.818359375 28.5689697265625 -17.425537109375
-1.120361328125 -8.712890625 -6.20361328125
-27.03466796875 24.2164306640625 -17.67822265625
32.5703125 -9.8812255859375 -10.34716796875
0.23876953125 -3.9078369140625 27.580322265625
11.756591796875 -8.1826171875 -1.387939453125
-6.7001953125 -9.509765625 52.94482421875
3.0966796875 -5.4603271484375 40.181396484375
43.599609375 -8.4530029296875 3.75732421875
-2.75537109375 -5.7681884765625 11.50439453125
41.4775390625 -8.9007568359375 -1.7041015625
-23.482177734375 -7.4486083984375 -1.7080078125
25.113037109375 -10.730712890625 -17.082763671875
-5.982666015625 -6.4306640625 9.4765625
23.06494140625 -6.2109375 13.272705078125
4.602783203125 -8.8106689453125 -5.0537109375
0.24609375 -7.0330810546875 43.462158203125
32.199462890625 -11.1971435546875 -16.288818359375
39.19775390625 -8.9879150390625 -1.61181640625
35.455810546875 -8.26025390625 -4.254638671875
-46.220458984375 -19.607666015625 87.439697265625
-10.153076171875 -6.8890380859375 33.581298828125
1.707275390625 -7.5372314453125 1.286865234375
18.730712890625 -2.5347900390625 37.451904296875
-42.60693359375 -22.771728515625 47.2861328125
-27.795654296875 24.49560546875 -24.55078125
-19.283447265625 -7.865478515625 79.025390625
-1.97998046875 -9.0411376953125 55.762451171875
-29.004150390625 -1.9278564453125 3.844482421875
35.407470703125 -8.44580078125 0.452392578125
38.077392578125 -7.6578369140625 4.951904296875
35.501220703125 -8.0943603515625 3.8095703125
-8.861328125 -9.1197509765625 46.884521484375
-28.099853515625 18.2203369140625 -17.22998046875
-6.064697265625 -9.2486572265625 -9.908203125
19.359375 -3.0872802734375 22.9482421875
2.26806640625 -6.650634765625 8.00927734375
20.024169921875 -8.6864013671875 -2.191162109375
22.48095703125 -10.23876953125 -12.37158203125
32.088623046875 -8.20556640625 1.40869140625
-24.55810546875 -8.08935546875 74.740234375
-21.1484375 -10.6680908203125 -20.715576171875
20.35302734375 -1.4613037109375 19.852783203125
-16.2822265625 -9.7994384765625 44.489990234375
-9.871337890625 -10.2503662109375 -18.99169921875
28.558349609375 -6.0654296875 15.155517578125
1.72216796875 -5.7327880859375 12.751708984375
-12.230712890625 -10.165771484375 50.1396484375
20.7529296875 -9.8343505859375 -10.667724609375
-27.5078125 2.4849853515625 1.95166015625
21.479248046875 -10.8900146484375 -17.74267578125
-14.9482421875 -9.9085693359375 66.792724609375
32.49560546875 -7.244384765625 9.37255859375
23.786376953125 -6.0604248046875 14.855224609375
-22.6708984375 -9.9468994140625 65.591552734375
-21.566162109375 -11.8209228515625 50.830322265625
-43.0537109375 -23.7608642578125 35.056396484375
-29.345703125 -2.439208984375 -14.366943359375
-18.776123046875 -11.164794921875 47.98046875
-8.29443359375 -5.4970703125 13.08642578125
20.79150390625 -7.65673828125 3.51611328125
-29.252685546875 -7.5557861328125 -23.337158203125
-7.254638671875 -9.14453125 49.851806640625
-49.823974609375 -19.8653564453125 77.05615234375
-27.40625 27.744384765625 -21.74853515625
-28.830078125 4.4686279296875 -14.5908203125
-24.37939453125 46.0303955078125 -38.619873046875
26.34228515625 -7.559326171875 4.347412109375
-28.828125 -6.8175048828125 -14.94140625
9.0048828125 -3.669921875 26.868896484375
4.8759765625 -4.814697265625 20.089111328125
12.0234375 -4.3641357421875 42.465576171875
-26.244140625 -12.0556640625 54.310302734375
-29.95947265625 -10.4974365234375 58.806884765625
-26.346435546875 29.279296875 -22.546630859375
-47.689453125 -21.01416015625 63.56298828125
-28.429931640625 9.4166259765625 -7.274169921875
4.103515625 -7.956787109375 -2.199462890625
21.808349609375 -3.3526611328125 21.96533203125
-28.134033203125 0.5926513671875 -5.131103515625
18.93603515625 -7.30322265625 6.243408203125
20.4716796875 -17.3641357421875 105.251708984375
40.661376953125 -10.3209228515625 -11.001220703125
-10.228759765625 -5.605712890625 11.65673828125
13.04150390625 -3.234130859375 32.083251953125
33.52978515625 -10.46533203125 -13.13818359375
-11.84619140625 -5.520751953125 9.018310546875
0.572265625 -9.977294921875 -14.025146484375
26.99755859375 -6.4483642578125 12.059814453125
-27.171875 17.0213623046875 -10.60009765625
14.565673828125 -5.8529052734375 15.077392578125
-22.146484375 34.8729248046875 -23.868896484375
-28.343505859375 18.9913330078125 -22.0439453125
-6.572021484375 -7.65673828125 40.210693359375
32.24267578125 -7.8980712890625 3.732421875
34.745849609375 -5.2325439453125 19.45849609375
5.279296875 -6.7958984375 9.07861328125
-28.7490234375 8.3326416015625 -15.04345703125
-7.016845703125 -10.689453125 -20.820556640625
-42.543212890625 -22.42578125 62.73876953125
23.373046875 -4.9664306640625 19.500244140625
-19.857421875 -10.86279296875 60.3876953125
-15.60205078125 -11.211669921875 53.8232421875
-43.838134765625 -23.026123046875 43.567626953125
7.86572265625 -7.9571533203125 0.42578125
-25.684326171875 -10.78125 60.1728515625
-15.689453125 -9.22021484375 72.073974609375
-10.65869140625 -10.6175537109375 54.619140625
-44.41259765625 -21.066650390625 74.010009765625
11.16259765625 -3.3629150390625 29.13525390625
20.0322265625 -3.893310546875 26.3935546875
-24.21337890625 -8.1845703125 76.78857421875
-12.260986328125 -10.1632080078125 67.122314453125
5.980712890625 -9.8333740234375 -12.84326171875
7.315185546875 -4.044921875 25.869140625
-7.51904296875 -9.5042724609375 -12.034423828125
32.888671875 -7.76416015625 5.89599609375
38.34228515625 -7.3013916015625 -6.072265625
-2.14111328125 -7.57568359375 -0.246826171875
-24.249755859375 -6.1397705078125 6.316650390625
-26.50537109375 -9.8555908203125 -20.1748046875
24.51123046875 -10.360595703125 -13.33544921875
-28.3544921875 0.20947265625 3.464599609375
-28.82080078125 3.116943359375 -7.4755859375
-28.18408203125 12.6160888671875 -16.95458984375
2.631591796875 -6.160888671875 11.0439453125
-24.283203125 -4.423828125 84.352294921875
-28.418701171875 8.177734375 -12.144287109375
-13.493896484375 -9.570556640625 43.61572265625
9.68212890625 -4.4049072265625 23.5068359375
-2.960693359375 -8.439697265625 -3.400390625
-16.848876953125 -7.004150390625 66.86328125
-28.7705078125 0.3375244140625 -11.087646484375
-28.255126953125 -1.2550048828125 -8.599365234375
-28.533935546875 13.3255615234375 -19.6416015625
13.285400390625 -8.6134033203125 -1.94287109375
0.281982421875 -8.71826171875 -7.4189453125
-28.96923828125 -9.8828125 64.26220703125
0.0693359375 -7.99072265625 -1.658203125
7.796875 -5.88525390625 46.73583984375
-6.743408203125 -8.0931396484375 43.701416015625
3.59716796875 -11.095703125 -19.144287109375
21.55078125 -9.5577392578125 -8.1279296875
-4.461181640625 -7.3065185546875 42.839599609375
24.74658203125 -4.7857666015625 21.75048828125
27.16064453125 -10.577880859375 -14.565673828125
-9.767578125 -10.0390625 52.199462890625
-3.0234375 -4.3248291015625 21.6162109375
16.46337890625 -8.8507080078125 -2.89501953125
-43.29443359375 -23.8668212890625 37.014404296875
-26.46826171875 -10.510498046875 -23.379150390625
-44.43359375 -21.5048828125 65.319580078125
-28.888916015625 -5.1572265625 -12.26513671875
-23.216796875 -7.1417236328125 -0.041015625
-27.843994140625 18.38134765625 -19.9765625
3.327880859375 -9.8326416015625 -29.424560546875
-16.8564453125 -7.3017578125 -46.5439453125
-10.268310546875 -10.7509765625 63.447998046875
-23.6875 -5.99267578125 82.1611328125
14.827392578125 -10.490478515625 -15.038818359375
22.00341796875 -2.8533935546875 33.790283203125
-28.844482421875 -1.0682373046875 -17.822998046875
-23.166748046875 -10.8896484375 -23.01318359375
-16.783935546875 -5.1044921875 -47.76025390625
1.84765625 -6.7288818359375 44.03857421875
-28.888671875 -0.000732421875 -3.467529296875
11.662109375 -6.4091796875 9.796142578125
-28.4296875 8.2337646484375 -10.174072265625
-17.189453125 -8.708740234375 76.806884765625
-43.607177734375 -22.332763671875 53.680419921875
-28.485595703125 6.3121337890625 -17.193603515625
-22.87744140625 42.693359375 -41.48486328125
-28.26708984375 -10.43359375 61.129150390625
-27.416015625 19.47705078125 -14.167724609375
-17.385498046875 -8.4022216796875 67.63037109375
38.93798828125 -10.798095703125 -14.100341796875
-28.93603515625 -4.4063720703125 -6.19970703125
-11.873779296875 -9.968994140625 48.54296875
-0.875244140625 -10.029052734375 -13.244140625
-1.619384765625 -6.613037109375 8.408935546875
7.14306640625 -8.2080078125 -2.598876953125
-42.75 -22.15966796875 32.37158203125
-6.396728515625 -5.0810546875 29.2119140625
-22.212646484375 -7.9952392578125 -2.5947265625
37.8984375 -9.03369140625 -9.723876953125
-7.0947265625 -7.2259521484375 37.475830078125
24.24267578125 -3.3721923828125 31.594970703125
-28.380859375 -8.4609375 72.9794921875
-29.281005859375 -5.335205078125 -20.9384765625
27.0439453125 -6.227294921875 14.427490234375
7.201171875 -4.4100341796875 21.7421875
-5.571533203125 -7.798828125 -1.38720703125
7.905517578125 -3.999267578125 35.12646484375
-27.050537109375 -5.9437255859375 5.720458984375
36.59375 -11.0068359375 -14.927490234375
-7.37255859375 -6.8992919921875 3.042724609375
22.90185546875 -8.5089111328125 -1.14404296875
5.79345703125 -3.808349609375 32.181396484375
-5.135009765625 -7.2899169921875 1.1201171875
-11.616943359375 -10.2547607421875 65.1318359375
-28.546630859375 -1.8421630859375 -3.7333984375
-27.331298828125 5.134521484375 -17.732666015625
-23.64404296875 -7.46484375 81.421875
-45.284912109375 -22.0906982421875 58.23291015625
40.951904296875 -7.1641845703125 10.497802734375
-47.67724609375 -20.3822021484375 77.19580078125
-20.615234375 -6.8216552734375 82.5703125
-28.9033203125 6.64306640625 -12.630126953125
15.0458984375 -6.2181396484375 12.06201171875
15.116455078125 -8.9715576171875 -4.698486328125
3.41064453125 -3.7939453125 29.9091796875
23.173583984375 -4.16796875 25.11962890625
14.296875 -3.515625 28.771484375
-26.251953125 -7.229248046875 -2.8095703125
-14.716064453125 -9.5753173828125 69.201171875
10.917724609375 -3.67333984375 27.455322265625
-4.098388671875 -11.0716552734375 -22.205322265625
-21.233642578125 -4.2974853515625 84.4208984375
43.90869140625 -9.06591796875 0.303466796875
-28.9697265625 0.604736328125 0.190673828125
17.72802734375 -3.293212890625 23.279296875
-24.682373046875 33.0908203125 -23.7392578125
35.26171875 -11.0042724609375 -15.82861328125
31.799560546875 -5.0601806640625 23.156494140625
-15.673583984375 -11.01025390625 58.2412109375
-24.6640625 -12.835693359375 52.16552734375
-0.646484375 -4.5672607421875 20.134521484375
21.229248046875 -5.70556640625 17.842041015625
-1.32421875 -9.113525390625 -9.921630859375
-13.269775390625 -10.670166015625 64.203857421875
-14.7431640625 -10.7757568359375 49.217529296875
-28.342041015625 -5.82080078125 -1.909912109375
-1.008544921875 -6.779541015625 6.225341796875
31.867431640625 -7.051025390625 11.08056640625
-12.58251953125 -7.1922607421875 -0.581298828125
-15.4521484375 46.77685546875 -37.90673828125
-22.2841796875 -8.0234375 67.7275390625
-23.28271484375 -8.744140625 -10.033203125
-23.830078125 -11.3809814453125 56.977294921875
-10.400146484375 -6.735107421875 3.500244140625
-16.83447265625 -10.7921142578125 61.30419921875
-26.667236328125 -7.61474609375 80.5263671875
13.005126953125 -7.132080078125 7.005859375
1.7373046875 -7.192138671875 46.1279296875
-28.14111328125 -10.485595703125 -26.487060546875
35.70947265625 -10.400390625 -12.690185546875
-27.818603515625 26.7694091796875 -23.098388671875
6.083251953125 -7.6068115234375 3.130859375
4.22705078125 -3.89111328125 26.241455078125
3.45751953125 -7.432373046875 52.4033203125
-16.043701171875 -8.9166259765625 73.83740234375
6.977783203125 -7.26025390625 5.509521484375
16.659423828125 -2.670166015625 36.486328125
-29.83935546875 -7.9417724609375 78.921630859375
29.154296875 -10.826904296875 -16.489501953125
12.69775390625 -5.924072265625 12.541015625
26.38427734375 -9.414306640625 -5.984375
-12.952392578125 27.4866943359375 -14.79052734375
23.743408203125 -10.577392578125 -15.42529296875
14.00537109375 -9.794921875 -11.369873046875
-28.151611328125 9.233154296875 -3.872802734375
30.74658203125 -10.4349365234375 -13.322998046875
-9.9189453125 -11.1588134765625 60.35205078125
8.82958984375 -5.8109130859375 12.837646484375
-36.227783203125 -18.6439208984375 41.59033203125
8.6923828125 -6.686767578125 9.3623046875
7.927978515625 -9.951904296875 -13.791259765625
-41.464599609375 -22.3719482421875 45.693359375
-19.654296875 -8.8616943359375 66.54541015625
-27.75146484375 24.0421142578125 -21.28369140625
-6.3193359375 -11.2884521484375 -22.428466796875
40.48681640625 -10.7005615234375 -13.86572265625
40.161376953125 -7.441650390625 7.947998046875
-29.232177734375 1.4947509765625 -12.4052734375
43.314697265625 -10.9561767578125 -9.922607421875
-44.69677734375 -20.6207275390625 68.466064453125
4.791748046875 -5.1239013671875 16.38525390625
-28.593017578125 15.2220458984375 -29.22509765625
-22.21435546875 -6.16064453125 83.361328125
-21.9833984375 -9.156005859375 -8.544921875
17.889404296875 -2.9130859375 34.1474609375
10.244873046875 -3.4769287109375 30.547607421875
-28.435302734375 -6.669921875 -7.318115234375
22.73486328125 -7.626220703125 5.0830078125
-18.7587890625 -8.646728515625 74.80810546875
-44.60693359375 -19.9600830078125 80.741455078125
-25.025146484375 -7.87158203125 -5.1005859375
-24.56884765625 44.0543212890625 -40.715576171875
-24.30908203125 -9.2177734375 -12.716796875
-49.4384765625 -20.0814208984375 86.053955078125
-21.658447265625 45.052978515625 -39.5986328125
-7.03076171875 25.43994140625 -13.74462890625
-26.676513671875 -4.5718994140625 82.778076171875
-27.647705078125 -8.1805419921875 76.009033203125
-24.926025390625 -8.5391845703125 -9.74951171875
-29.3447265625 -1.2513427734375 -11.482177734375
-9.708984375 -9.8663330078125 -14.72265625
-15.239990234375 -11.058837890625 51.3564453125
-28.729248046875 -7.973876953125 -18.898681640625
13.197509765625 -7.7803955078125 3.226806640625
-24.9794921875 -10.5887451171875 61.99365234375
-28.471435546875 11.64208984375 -22.38330078125
10.240234375 -8.5025634765625 -4.0048828125
-44.67138671875 -22.4146728515625 40.587890625
-24.0595703125 -9.7996826171875 -18.0458984375
-23.64453125 -7.7191162109375 -4.43017578125
18.7392578125 -8.6856689453125 -3.0791015625
-27.974609375 21.0758056640625 -19.201416015625
-25.327880859375 -8.27734375 -8.183349609375
34.57958984375 -7.2960205078125 8.9365234375
23.951904296875 -8.0133056640625 1.66015625
-2.927978515625 -5.101806640625 16.138671875
-9.6884765625 -6.6063232421875 31.8447265625
-1.26416015625 -5.359619140625 15.4638671875
-5.448974609375 -5.8494873046875 11.869873046875
-29.125244140625 -8.6669921875 71.64111328125
-18.666748046875 -10.214599609375 63.16064453125
38.25439453125 -11.00048828125 -16.800537109375
-3.217529296875 -8.7554931640625 -5.11279296875
-8.070068359375 -7.843017578125 40.488525390625
9.690673828125 -6.2623291015625 11.650146484375
14.01904296875 -3.8857421875 26.642822265625
26.0244140625 -4.528076171875 25.963134765625
-44.133056640625 -22.6610107421875 46.192138671875
-12.1708984375 -5.185302734375 10.47802734375
6.243408203125 -9.3060302734375 -8.166259765625
-29.1435546875 -2.8182373046875 -1.970458984375
-28.4091796875 13.06640625 -13.5400390625
-26.270263671875 23.449462890625 -32.592529296875
9.614501953125 -5.5450439453125 15.2890625
-5.19189453125 -9.3687744140625 51.795166015625
24.692138671875 -9.054931640625 -5.3203125
-28.69873046875 11.837890625 -27.45263671875
-28.15087890625 12.253173828125 -11.779052734375
3.913330078125 -9.00244140625 -7.62890625
-9.741455078125 -7.414794921875 0.54150390625
20.3388671875 -3.7098388671875 18.369384765625
-6.110107421875 -8.386474609375 -3.81103515625
-46.98974609375 -21.12939453125 68.8212890625
-28.810791015625 10.0037841796875 -12.331298828125
18.733642578125 -7.6651611328125 3.50390625
-19.697021484375 -5.8143310546875 68.42822265625
-3.040283203125 -8.8013916015625 -8.181396484375
21.824462890625 -3.9962158203125 20.27392578125
-27.989013671875 -8.0987548828125 -12.27490234375
-22.68359375 -9.565673828125 -15.415771484375
34.976318359375 -9.6527099609375 -10.083740234375
-26.6884765625 26.583984375 -27.722900390625
44.21923828125 -9.6817626953125 -3.167236328125
1.76513671875 -8.259033203125 -2.384033203125
18.048095703125 -3.9461669921875 18.04150390625
32.5771484375 -6.081298828125 16.32275390625
41.708984375 -10.7845458984375 -12.862548828125
-48.376953125 -21.203857421875 61.815185546875
-0.5654296875 -6.173828125 10.143310546875
1.192138671875 -7.3963623046875 49.66748046875
-29.096923828125 -3.947998046875 -17.235595703125
-3.406494140625 -7.0533447265625 41.34765625
-27.6904296875 -11.1141357421875 57.64404296875
-28.473876953125 17.1302490234375 -24.61669921875
-28.58447265625 6.5504150390625 -7.786376953125
4.61767578125 -5.9559326171875 45.322998046875
-26.94970703125 0.9837646484375 -21.402099609375
-10.501953125 -8.677734375 42.835693359375
8.943603515625 -9.3140869140625 -8.5224609375
11.9794921875 -3.48486328125 33.13037109375
-28.925048828125 -0.8221435546875 -23.4365234375
7.7998046875 -5.3623046875 16.056396484375
-17.1953125 30.392333984375 -17.58935546875
-25.572509765625 -7.815673828125 77.61279296875
-44.599365234375 -20.1678466796875 76.239013671875
-45.2373046875 -19.69921875 77.56982421875
10.205078125 -8.359130859375 -1.54345703125
8.580810546875 -8.00927734375 -0.902099609375
29.725830078125 -6.305419921875 14.23095703125
-17.724853515625 -10.3206787109375 65.014404296875
-8.954345703125 -7.2734375 36.46728515625
29.86962890625 -7.5723876953125 3.69482421875
20.52099609375 -5.9544677734375 14.827880859375
16.42724609375 -11.0810546875 -18.151611328125
6.41552734375 -5.501220703125 14.815673828125
-28.947265625 -1.503662109375 -13.0595703125
-27.783447265625 7.90185546875 -20.8857421875
30.65869140625 -9.4488525390625 -7.035400390625
-3.2890625 -6.351318359375 9.1025390625
-21.072998046875 -10.9720458984375 58.7333984375
-28.06494140625 23.1588134765625 -22.72314453125
-28.514892578125 10.196533203125 -14.583251953125
-29.368896484375 -0.227783203125 -26.024658203125
-50.805908203125 -19.4378662109375 84.718994140625
-22.862060546875 -10.9329833984375 59.4765625
35.43408203125 -8.5504150390625 -1.043212890625
-28.701416015625 16.863037109375 -26.916015625
-28.4365234375 9.6300048828125 -17.358154296875
-29.278076171875 -7.7738037109375 -27.75732421875
-22.115234375 -10.68408203125 61.7060546875
-28.3662109375 0.809326171875 -8.070556640625
-11.582763671875 -6.0111083984375 5.708984375
-44.765625 -21.5538330078125 70.149169921875
11.63623046875 -4.351318359375 24.53125
-28.714111328125 9.0535888671875 -27.56494140625
1.34814453125 -5.3544921875 15.193603515625
-11.05517578125 -9.026611328125 44.60107421875
8.871337890625 -3.4273681640625 32.087890625
3.1611328125 -8.0208740234375 0.293212890625
-48.245849609375 -20.86962890625 66.721435546875
-27.80908203125 13.6912841796875 -10.658935546875
-23.311767578125 -6.52001953125 3.6005859375
17.32763671875 -3.9996337890625 25.215576171875
7.08544921875 -6.3433837890625 9.975830078125
19.17138671875 -6.8822021484375 9.42919921875
-4.6474609375 -4.5054931640625 23.407470703125
33.28955078125 -10.7979736328125 -14.940673828125
-28.40673828125 20.474365234375 -27.86376953125
-24.8720703125 5.9945068359375 -23.54296875
5.31787109375 -10.8271484375 -19.672119140625
-25.209716796875 -7.3233642578125 -1.3564453125
-20.88427734375 -6.7210693359375 70.135986328125
-27.193359375 -9.748046875 66.514404296875
-27.16259765625 -9.2320556640625 -17.6259765625
5.703857421875 -3.5794677734375 28.7900390625
-7.03857421875 -7.240234375 1.55908203125
-1.021728515625 -7.513916015625 3.123291015625
-29.129638671875 6.4976806640625 -27.05419921875
-28.8818359375 4.7744140625 -4.797607421875
-9.863037109375 -7.8714599609375 38.984130859375
1.654296875 -9.4288330078125 -10.804443359375
-20.3369140625 -11.53369140625 55.5400390625
-8.264892578125 -10.9755859375 57.801513671875
-8.83837890625 -10.4073486328125 -17.949951171875
-22.640625 -11.16748046875 -26.708984375
9.27392578125 -10.6937255859375 -16.685302734375
-3.80419921875 -7.2115478515625 1.8984375
20.417236328125 -3.0958251953125 33.1318359375
3.281982421875 -4.668701171875 34.129638671875
-3.246826171875 -7.72900390625 44.7958984375
4.33251953125 -4.763671875 35.594482421875
-26.2939453125 -8.7716064453125 -12.36181640625
26.701171875 -7.97509765625 2.347412109375
-21.840087890625 -10.900390625 -24.253173828125
14.555419921875 -3.1160888671875 38.993896484375
-29.136474609375 -3.654052734375 -9.416259765625
15.655517578125 -6.148193359375 13.717041015625
-30.2705078125 -8.758056640625 69.558837890625
-28.449951171875 14.4044189453125 -23.267822265625
-0.5908203125 -4.7926025390625 32.599853515625
-3.59521484375 -9.49609375 -12.08154296875
35.43505859375 -6.017822265625 16.50390625
-10.592529296875 -7.836181640625 -3.76123046875
-28.062255859375 -6.7734375 -5.0126953125
42.50390625 -10.3292236328125 -8.258056640625
40.125244140625 -7.20068359375 -8.0087890625
-28.493896484375 4.1527099609375 -1.7548828125
-29.585693359375 -2.9986572265625 -22.968017578125
-46.32861328125 -21.8984375 60.767822265625
38.662353515625 -6.5936279296875 12.296630859375
-8.64697265625 -8.36328125 -4.0126953125
-29.306396484375 -1.5318603515625 -19.34130859375
-13.377685546875 -9.932373046875 69.678466796875
-18.296630859375 31.0438232421875 -19.90087890625
27.87841796875 -10.3162841796875 -11.433837890625
-15.890869140625 29.283203125 -18.242431640625
1.082763671875 -9.4442138671875 -28.9169921875
-28.36181640625 3.4014892578125 -25.393798828125
-29.73095703125 -2.649658203125 1.657958984375
34.514404296875 -7.582763671875 6.068603515625
-6.951416015625 -8.5833740234375 46.75048828125
7.568603515625 -9.494873046875 -10.775390625
-2.81005859375 -5.03759765625 32.755859375
32.4306640625 -9.8558349609375 -8.74365234375
-28.589111328125 4.953369140625 -7.0087890625
30.198974609375 -4.693359375 23.21630859375
29.7451171875 -9.8087158203125 -9.50439453125
29.302734375 -5.0439453125 20.810302734375
-5.599365234375 -4.5980224609375 26.268798828125
-27.874755859375 -7.80615234375 -8.040283203125
29.16015625 -9.379638671875 -5.3125
-2.756591796875 -10.8486328125 -18.954345703125
35.716064453125 -7.6383056640625 -5.68798828125
19.876708984375 -11.0654296875 -17.87109375
18.15185546875 -9.621826171875 -9.463134765625
-3.95068359375 -5.8038330078125 35.470458984375
-16.796875 -9.9278564453125 67.114013671875
-29.2705078125 -4.21484375 -20.0087890625
0.139404296875 -8.450927734375 54.191162109375
-46.066650390625 -20.532470703125 74.910400390625
-27.477783203125 5.119140625 0.197021484375
-28.762451171875 -3.793701171875 4.60888671875
6.58349609375 -5.2523193359375 39.991943359375
-41.7177734375 -23.29345703125 41.347900390625
15.6669921875 -10.2579345703125 -13.52880859375
9.95361328125 -8.8839111328125 -6.202880859375
