-26.87255859375 2.873291015625 73.255859375
14.797607421875 7.174560546875 35.32373046875
-13.6123046875 0.461181640625 57.452880859375
-30.279052734375 2.6768798828125 71.051513671875
46.113525390625 2.9620361328125 -11.5478515625
9.65673828125 4.0008544921875 0.182373046875
21.8642578125 10.1036376953125 14.989990234375
-23.953125 3.7039794921875 -6.281005859375
-34.05859375 2.5355224609375 68.4482421875
-5.626953125 3.274658203125 -6.1904296875
20.72509765625 7.2103271484375 22.15087890625
-27.5595703125 -0.0211181640625 56.470703125
-18.026611328125 2.7076416015625 -10.28466796875
12.56298828125 0.0966796875 -24.510009765625
-10.850341796875 0.873046875 -21.928955078125
24.848388671875 1.537353515625 -15.17236328125
-3.3701171875 3.984619140625 -0.399658203125
-14.212890625 1.9432373046875 68.083740234375
14.18408203125 3.564208984375 -3.162353515625
1.95751953125 0.4359130859375 -25.58203125
19.247802734375 8.990966796875 31.2353515625
-17.30078125 2.364013671875 60.58740234375
-26.737548828125 4.88525390625 -11.190185546875
-27.892822265625 7.3260498046875 -23.9169921875
4.28125 6.2864990234375 13.117431640625
36.07373046875 1.156494140625 -17.547607421875
31.471435546875 -0.2633056640625 -27.997802734375
12.04736328125 5.32177734375 7.620849609375
6.7021484375 5.0667724609375 6.2978515625
7.4814453125 7.15673828125 28.261474609375
38.4697265625 3.158935546875 -3.62548828125
20.190185546875 8.2703857421875 27.832763671875
-4.055419921875 4.3851318359375 28.5654296875
-20.554931640625 2.7210693359375 74.90625
28.364990234375 1.5087890625 -15.215087890625
-9.76220703125 1.2628173828125 40.584228515625
-6.954833984375 6.1263427734375 9.91015625
-15.846923828125 5.651123046875 -5.669189453125
-2.756103515625 1.7613525390625 -14.838134765625
0.948974609375 4.323486328125 1.711181640625
32.51416015625 3.660888671875 -2.074951171875
46.06298828125 0.9427490234375 -23.6259765625
40.952880859375 3.034912109375 -11.029541015625
-26.243896484375 0.238525390625 58.314453125
23.2021484375 5.09326171875 7.475341796875
1.9404296875 6.103515625 25.5126953125
-27.466064453125 15.76123046875 -6.865234375
-1.465087890625 5.9891357421875 11.442626953125
7.29150390625 5.742919921875 35.4521484375
22.816162109375 6.787109375 14.9423828125
22.950927734375 6.83349609375 18.052490234375
-0.414306640625 3.0167236328125 -6.65625
23.156005859375 8.1934814453125 27.0068359375
39.762451171875 3.305419921875 -8.603759765625
5.9970703125 7.498046875 21.716796875
1.794189453125 6.8546142578125 21.902587890625
15.1376953125 1.1009521484375 -19.964111328125
-3.421630859375 5.444580078125 8.745849609375
43.285888671875 1.4942626953125 -16.266357421875
7.19482421875 6.3514404296875 13.21337890625
23.82861328125 -0.7991943359375 -30.646484375
36.331787109375 3.5179443359375 -4.86279296875
32.7939453125 0.9271240234375 -20.799560546875
38.15966796875 6.864013671875 11.769775390625
21.207275390625 2.0550537109375 -11.54150390625
20.881591796875 6.0877685546875 11.24267578125
30.400634765625 0.2568359375 -25.16259765625
-20.3427734375 1.539306640625 -19.078125
34.517822265625 -0.6075439453125 -29.3671875
-24.788330078125 -0.965576171875 48.563232421875
25.733642578125 8.4482421875 27.1083984375
-25.762939453125 23.6190185546875 -14.655029296875
41.469482421875 0.417724609375 -22.795166015625
-26.308837890625 15.0704345703125 -22.871337890625
25.838623046875 4.7899169921875 4.696533203125
26.57861328125 0.8377685546875 -20.30419921875
-11.690673828125 0.1591796875 59.035888671875
-1.495361328125 1.6446533203125 47.33837890625
-18.06689453125 2.12890625 -13.677001953125
18.551513671875 4.0584716796875 -0.038330078125
-22.623291015625 5.60498046875 2.07861328125
-18.433349609375 -0.748779296875 53.850341796875
-26.96826171875 18.63525390625 -28.938232421875
-32.2939453125 1.3160400390625 65.0048828125
35.42138671875 3.34912109375 -13.935546875
17.193359375 6.0897216796875 13.462158203125
-5.728515625 5.357666015625 7.420166015625
35.169921875 5.873291015625 14.46728515625
-13.95068359375 0.5157470703125 41.853515625
46.15625 3.855712890625 -4.405517578125
25.291259765625 7.5924072265625 22.60595703125
-0.15869140625 0.6729736328125 -22.748291015625
-5.347412109375 6.3306884765625 19.27490234375
-30.58935546875 0.5919189453125 60.271240234375
39.8349609375 1.050537109375 -19.30615234375
-24.137451171875 0.6451416015625 62.21337890625
22.856201171875 7.5465087890625 22.320556640625
-13.774658203125 1.5631103515625 65.847412109375
-14.168212890625 1.430908203125 34.763671875
4.4697265625 3.225341796875 -5.713134765625
-25.353271484375 2.196533203125 71.418212890625
15.969482421875 4.2137451171875 1.7744140625
46.88525390625 2.4013671875 -19.30908203125
15.932373046875 2.2718505859375 -12.162353515625
-28.300048828125 7.034423828125 -20.155517578125
-0.66357421875 -0.096923828125 -27.059326171875
32.3154296875 -0.803955078125 -33.07666015625
29.70703125 4.706787109375 5.157958984375
26.0947265625 2.88134765625 -6.572509765625
22.616943359375 2.6239013671875 -7.997314453125
-29.00732421875 7.7745361328125 -3.937255859375
3.949951171875 3.6351318359375 -3.1123046875
20.68408203125 3.0147705078125 -6.546142578125
-20.681884765625 4.000732421875 -3.82177734375
17.65087890625 3.107177734375 -5.611328125
-11.059326171875 2.0826416015625 63.81298828125
19.801513671875 4.408447265625 3.65283203125
28.93115234375 6.1993408203125 21.964599609375
-28.42626953125 1.0904541015625 64.070068359375
4.564453125 1.87841796875 -14.11376953125
-1.563720703125 3.2030029296875 38.810546875
10.302490234375 3.393310546875 -4.492431640625
-24.87841796875 5.6427001953125 1.1923828125
-13.170166015625 1.067626953125 -21.821533203125
-18.441650390625 5.838623046875 4.264892578125
40.5498046875 3.746337890625 -15.950927734375
-3.34716796875 4.8316650390625 4.356201171875
-9.5322265625 2.3973388671875 35.199951171875
45.212646484375 4.521728515625 1.480224609375
16.39599609375 4.5577392578125 4.0947265625
37.58544921875 2.761962890625 -6.367431640625
23.246337890625 -0.366943359375 -27.905029296875
7.786865234375 4.6600341796875 3.011962890625
-1.27734375 6.7440185546875 18.750244140625
14.11328125 8.237060546875 30.17431640625
-22.137939453125 2.3787841796875 -14.662841796875
-27.162841796875 10.732666015625 -22.44580078125
48.024658203125 1.4576416015625 -24.12109375
-1.792236328125 5.7899169921875 23.251953125
-7.2763671875 5.0108642578125 21.878662109375
9.767822265625 3.8038330078125 -1.8876953125
-10.281005859375 5.058837890625 24.333740234375
13.568603515625 6.76123046875 18.869140625
11.17529296875 6.9415283203125 32.45556640625
26.17822265625 -0.100830078125 -25.70068359375
-13.017333984375 0.078125 43.865478515625
-18.266357421875 1.412353515625 -21.96484375
16.300048828125 7.0748291015625 17.80419921875
13.185791015625 -0.51416015625 -28.81689453125
16.72998046875 8.4276123046875 33.388427734375
-22.14599609375 -0.8607177734375 44.270263671875
-28.810546875 3.2135009765625 72.63232421875
3.095703125 5.2672119140625 32.440185546875
-7.69775390625 3.8046875 29.06689453125
19.63037109375 0.4278564453125 -23.263916015625
44.069091796875 1.6588134765625 -13.825439453125
20.764892578125 10.1729736328125 32.559326171875
22.491943359375 3.51806640625 -2.560546875
-16.273681640625 1.3756103515625 62.861328125
-24.137451171875 0.0594482421875 58.311767578125
-28.03466796875 9.24462890625 0.006591796875
-3.43310546875 5.0244140625 6.388671875
-0.189697265625 4.7750244140625 6.058349609375
-7.2236328125 4.0721435546875 25.646240234375
14.56005859375 1.677978515625 -16.27197265625
13.659912109375 6.4461669921875 16.42724609375
-19.1494140625 4.6929931640625 -6.526123046875
28.650146484375 2.8980712890625 -6.873046875
-7.95703125 1.7833251953125 39.18359375
-13.21728515625 5.1513671875 -6.17333984375
35.225341796875 3.9937744140625 1.748291015625
8.759765625 5.5479736328125 38.199951171875
-12.1806640625 3.2294921875 -8.3134765625
1.70263671875 3.7120361328125 41.517333984375
-3.6474609375 2.7862548828125 38.710693359375
11.457275390625 7.0517578125 38.920166015625
-27.376708984375 7.6754150390625 -1.160400390625
-2.93017578125 3.32470703125 -3.853515625
-18.825439453125 1.89892578125 -17.675048828125
-10.857666015625 47.290771484375 -33.416748046875
25.516845703125 3.297607421875 -3.93408203125
7.515380859375 2.5250244140625 -10.61865234375
-16.482666015625 6.327880859375 -10.931884765625
-14.58251953125 -0.1180419921875 54.737548828125
-5.97705078125 1.385009765625 -19.008056640625
36.759521484375 -1.258056640625 -33.701904296875
-9.66943359375 0.4849853515625 44.576904296875
2.545654296875 6.7481689453125 18.60595703125
-7.01416015625 2.3468017578125 37.504150390625
19.961669921875 7.1865234375 20.296630859375
-7.99609375 1.3045654296875 41.5283203125
-14.39208984375 0.956787109375 64.041259765625
31.677001953125 7.8321533203125 19.99072265625
-7.597900390625 5.18798828125 6.014892578125
-14.529541015625 -0.680908203125 45.826171875
24.449951171875 1.3126220703125 -17.115966796875
-4.077392578125 1.7113037109375 -16.57275390625
34.70849609375 0.8404541015625 -20.24658203125
49.144287109375 4.826904296875 -10.008056640625
47.4013671875 4.9412841796875 -1.174072265625
2.66845703125 3.1180419921875 46.62744140625
-12.65966796875 3.785400390625 -4.749267578125
27.64794921875 5.4141845703125 9.076171875
12.2470703125 6.0455322265625 13.9755859375
4.27783203125 4.324462890625 2.243408203125
26.0234375 5.5018310546875 10.596923828125
43.69384765625 -0.0675048828125 -26.051513671875
36.660400390625 4.306640625 -11.142578125
10.915283203125 2.0875244140625 -12.546630859375
18.76611328125 2.5579833984375 -9.438720703125
16.3544921875 -0.3797607421875 -29.4814453125
-2.890869140625 6.600341796875 19.881103515625
45.04052734375 2.7188720703125 -8.76806640625
-22.2236328125 1.6712646484375 -18.51318359375
25.55908203125 0.4862060546875 -21.95068359375
-27.523681640625 17.92919921875 -25.885009765625
-30.502197265625 2.0035400390625 69.217041015625
13.528076171875 2.0537109375 -13.9697265625
-27.486572265625 16.3603515625 -24.0625
40.351806640625 -0.9974365234375 -32.264404296875
31.52197265625 2.50830078125 -11.42919921875
-6.115966796875 2.80322265625 -8.955810546875
-26.419189453125 2.5223388671875 -19.9423828125
-19.888916015625 2.0609130859375 -15.20068359375
27.591552734375 6.1171875 12.880859375
4.79541015625 -0.0050048828125 -26.807373046875
-21.94482421875 1.908447265625 -20.487060546875
-14.911865234375 4.099609375 -4.2294921875
-27.096435546875 0.884033203125 62.412841796875
5.2255859375 5.5316162109375 9.109375
-18.638671875 5.3726806640625 -8.333251953125
19.94140625 1.97998046875 -13.853271484375
3.804443359375 4.7064208984375 4.272705078125
31.6826171875 3.24267578125 -5.35693359375
-0.80615234375 1.576416015625 49.15966796875
39.365234375 0.3306884765625 -26.60302734375
42.460693359375 2.9168701171875 -4.180419921875
47.548583984375 2.7471923828125 -15.24609375
36.045654296875 4.8177490234375 6.878173828125
23.23193359375 0.213623046875 -24.922119140625
18.820556640625 4.75048828125 5.33935546875
33.041259765625 5.6951904296875 10.960205078125
-6.28466796875 1.75 40.712646484375
32.01416015625 1.429931640625 -16.3876953125
-11.990478515625 2.5469970703125 32.80224609375
-17.211181640625 3.9635009765625 59.505126953125
13.372802734375 5.7694091796875 11.1591796875
40.51708984375 4.4739990234375 5.726806640625
-22.568359375 3.385009765625 -8.148193359375
5.974609375 4.1156005859375 43.005859375
32.033935546875 6.03564453125 12.6376953125
-16.936279296875 1.7669677734375 -18.239501953125
-4.854248046875 3.2264404296875 34.725830078125
-14.03125 2.733642578125 -12.2470703125
3.01611328125 2.5364990234375 -9.652587890625
-14.23193359375 -0.7222900390625 52.133544921875
6.298828125 1.5537109375 -18.382080078125
3.756103515625 0.245361328125 -24.9287109375
24.130615234375 7.862548828125 25.383056640625
18.833984375 0.537109375 -20.231201171875
-14.94970703125 -0.121826171875 58.70068359375
15.21142578125 6.236083984375 14.506103515625
47.247314453125 4.1539306640625 -10.5703125
2.527099609375 3.0765380859375 -6.59521484375
8.440185546875 7.1070556640625 19.1484375
30.10009765625 5.3302001953125 8.908447265625
27.73828125 4.55615234375 4.26416015625
-18.40234375 45.603759765625 -31.337646484375
-31.8642578125 1.054931640625 63.16943359375
21.18115234375 7.291015625 18.796142578125
16.822998046875 7.74560546875 25.042236328125
11.050537109375 4.98291015625 6.037841796875
-5.144287109375 0.2091064453125 -24.561767578125
-2.159912109375 1.141845703125 -19.59521484375
25.353759765625 7.2989501953125 20.689208984375
-28.204345703125 5.953369140625 -15.96142578125
19.223876953125 0.2008056640625 -25.224365234375
30.844482421875 6.7159423828125 17.31982421875
21.502197265625 0.2099609375 -23.172607421875
-1.8583984375 3.767578125 -2.36962890625
28.060302734375 7.86962890625 25.254150390625
15.642822265625 7.29736328125 12.0029296875
-26.71826171875 6.4505615234375 -6.4052734375
22.62548828125 6.050537109375 12.865478515625
18.272705078125 8.790771484375 13.83984375
8.103515625 7.81298828125 26.06005859375
-0.09765625 4.5814208984375 4.021240234375
22.5224609375 0.56103515625 -21.528076171875
4.967529296875 2.252197265625 -11.2041015625
13.620361328125 4.4036865234375 1.8505859375
14.019775390625 7.4912109375 22.934814453125
11.496826171875 3.64013671875 -0.693359375
4.0361328125 4.0172119140625 43.13330078125
-0.618896484375 1.9410400390625 -15.723876953125
-4.29150390625 2.871337890625 -7.428466796875
-5.51953125 0.318359375 52.33740234375
-23.049072265625 3.0439453125 -10.455810546875
15.945556640625 8.01416015625 29.786376953125
-25.36474609375 1.4820556640625 66.73291015625
9.865234375 3.04638671875 -6.833251953125
-4.531982421875 5.8875732421875 13.027099609375
-19.982666015625 2.31005859375 60.41845703125
33.5908203125 2.8741455078125 -6.25732421875
-10.3740234375 -0.14892578125 48.17822265625
21.821044921875 -1.2427978515625 -33.045654296875
-12.95703125 6.263916015625 9.088134765625
2.13134765625 1.68603515625 -15.356689453125
-13.526123046875 3.410888671875 29.603271484375
35.7470703125 2.8226318359375 -7.480712890625
-4.365234375 4.1502685546875 30.363525390625
45.735107421875 2.183349609375 -15.91259765625
29.53955078125 5.8641357421875 11.923828125
12.7275390625 3.30615234375 -4.681396484375
34.382080078125 3.859375 -0.074951171875
11.600830078125 4.1500244140625 1.067138671875
26.4677734375 6.3724365234375 15.1796875
-18.84912109375 3.8966064453125 -3.821044921875
-9.851806640625 -0.2982177734375 55.928955078125
-10.87841796875 5.3328857421875 6.443359375
10.806884765625 0.5499267578125 -24.255859375
39.943359375 5.14306640625 9.218505859375
13.824951171875 0.0302734375 -27.190185546875
-14.229736328125 7.296875 -8.60546875
-1.814697265625 5.88134765625 9.504150390625
24.41455078125 4.3807373046875 2.19091796875
25.076904296875 1.1500244140625 -18.899658203125
0.35791015625 5.7620849609375 11.0283203125
-6.66796875 2.074462890625 -12.616455078125
37.060546875 0.14892578125 -25.661865234375
8.19482421875 0.1455078125 -25.285400390625
-26.6142578125 5.2174072265625 -3.836181640625
-8.943115234375 3.275390625 -6.710205078125
24.145263671875 5.45654296875 9.60595703125
34.146240234375 4.3634033203125 4.003662109375
-29.7255859375 8.933837890625 -5.144775390625
7.20263671875 0.6563720703125 -22.50244140625
-1.18798828125 2.0992431640625 -13.97705078125
35.964111328125 5.9327392578125 12.573486328125
30.226806640625 2.697021484375 -8.351806640625
19.287841796875 7.5 23.4287109375
-27.0712890625 16.248046875 -31.541259765625
6.16015625 0.9049072265625 -20.63623046875
29.777587890625 4.4039306640625 3.182373046875
44.70556640625 0.7154541015625 -22.412109375
10.069091796875 1.797607421875 -15.384521484375
10.518310546875 5.3865966796875 8.597900390625
13.039306640625 3.571533203125 -1.69482421875
-10.81298828125 2.349853515625 -13.061279296875
-22.4248046875 -0.632080078125 54.440673828125
41.531982421875 3.997802734375 3.573974609375
10.973876953125 2.6278076171875 -10.20458984375
-4.399658203125 7.0362548828125 8.407958984375
43.456298828125 0.729248046875 -20.853515625
-19.03466796875 2.368896484375 -11.869873046875
-16.870849609375 5.9984130859375 -8.333740234375
-15.339111328125 -0.197265625 42.764404296875
-13.695556640625 1.9525146484375 32.731689453125
6.672607421875 1.8006591796875 -15.8984375
1.614013671875 2.1019287109375 -12.717529296875
12.92041015625 -0.5311279296875 -31.012451171875
-0.169189453125 3.6934814453125 37.049072265625
21.242919921875 5.220458984375 8.001953125
-13.643798828125 5.203857421875 4.771240234375
-20.6826171875 2.93408203125 -11.194091796875
39.054443359375 5.940673828125 -13.739990234375
-10.412353515625 -0.328369140625 52.225830078125
19.982666015625 4.1883544921875 1.03759765625
-10.368896484375 2.26953125 33.519775390625
-29.885986328125 9.1025390625 -8.503173828125
-11.227294921875 4.4791259765625 26.07666015625
-23.891357421875 4.4208984375 -1.971435546875
-25.51123046875 -0.29541015625 56.546875
26.708740234375 2.3087158203125 -10.23095703125
46.321533203125 1.82470703125 -21.531982421875
25.394775390625 0.577392578125 -24.25
-27.748779296875 14.1002197265625 -23.27490234375
-8.349853515625 0.3948974609375 58.421875
16.32275390625 5.2833251953125 8.4384765625
-16.915283203125 1.6334228515625 66.66357421875
23.717529296875 2.5089111328125 -9.38720703125
-20.121337890625 1.77001953125 68.865234375
-17.58154296875 4.7149658203125 63.41650390625
-28.36962890625 1.9228515625 69.150634765625
-10.888671875 1.913818359375 36.957275390625
16.77490234375 6.9552001953125 21.430419921875
-16.532470703125 1.0965576171875 -21.76611328125
-5.1259765625 4.890380859375 3.279052734375
-2.90380859375 1.1905517578125 49.530029296875
-25.975830078125 3.0635986328125 -15.523193359375
9.38232421875 5.8116455078125 12.38671875
30.658447265625 -0.858154296875 -32.444580078125
43.8876953125 3.3338623046875 -1.62939453125
1.449462890625 0.703125 -23.9111328125
-17.067626953125 4.5777587890625 2.087158203125
11.56787109375 1.1802978515625 -18.78857421875
-8.933349609375 5.163818359375 4.861328125
7.46337890625 7.7279052734375 22.671630859375
9.158203125 0.961669921875 -20.600341796875
-1.2109375 0.7908935546875 -21.339111328125
3.71435546875 6.433837890625 14.778564453125
2.174072265625 6.1002197265625 13.919677734375
-27.68798828125 13.6650390625 -5.7099609375
-34.005615234375 1.2982177734375 64.554931640625
-17.11962890625 -1.05810546875 52.225830078125
-13.853271484375 6.8131103515625 -10.561279296875
-11.803466796875 4.806396484375 2.853271484375
-1.34912109375 4.362548828125 0.81298828125
-7.71875 2.4168701171875 35.64990234375
-15.171630859375 4.5770263671875 1.99365234375
-5.915771484375 1.3355712890625 43.880615234375
4.945556640625 6.646728515625 17.932861328125
-8.363525390625 0.6300048828125 46.07275390625
15.79296875 7.9718017578125 26.753662109375
18.128173828125 3.431640625 -3.812255859375
0.43408203125 5.2978515625 7.610595703125
-24.499755859375 2.0142822265625 -17.42138671875
-14.544677734375 5.537353515625 6.4208984375
8.628173828125 1.6668701171875 -16.468017578125
-24.189697265625 -1.076171875 51.38427734375
-14.51708984375 2.7423095703125 31.404541015625
9.5498046875 2.061767578125 -13.735107421875
37.825927734375 -0.2042236328125 -29.110595703125
-2.408935546875 6.6136474609375 14.9912109375
24.344482421875 4.9613037109375 5.587890625
-28.625244140625 6.9295654296875 -2.321044921875
-23.271484375 -1.3304443359375 49.343505859375
4.311279296875 4.9375 36.886474609375
2.242919921875 1.3291015625 -18.476806640625
7.16943359375 5.940673828125 33.312255859375
-2.61962890625 2.4146728515625 40.170166015625
11.369384765625 3.2808837890625 -5.862060546875
-27.2451171875 9.5045166015625 -23.67431640625
-22.54541015625 3.9793701171875 -4.25634765625
34.165771484375 -0.99951171875 -32.40966796875
-22.970703125 1.337890625 63.326904296875
23.048095703125 8.5286865234375 13.61962890625
13.84619140625 2.888427734375 -8.045166015625
45.627685546875 -0.2515869140625 -29.46826171875
5.755615234375 7.4786376953125 23.890869140625
25.790283203125 7.4498291015625 25.69873046875
-8.83935546875 1.125244140625 -21.16015625
-24.10498046875 -0.4117431640625 54.776611328125
-28.735107421875 10.2420654296875 -2.69580078125
-16.5673828125 3.6185302734375 -10.41259765625
-18.39501953125 1.5096435546875 67.621337890625
-26.4970703125 4.2113037109375 -19.6171875
-5.9912109375 1.6912841796875 -17.006103515625
-25.487548828125 4.49169921875 -5.28369140625
36.2578125 1.080322265625 -19.254150390625
-11.86376953125 2.965087890625 28.900146484375
-17.000732421875 4.9744873046875 3.910888671875
-3.28564453125 2.3662109375 41.901123046875
29.844970703125 -0.1854248046875 -26.914794921875
15.35009765625 4.79443359375 5.87744140625
15.567138671875 0.02099609375 -24.937255859375
24.2685546875 2.941650390625 -7.678466796875
18.952392578125 -0.81884765625 -32.363525390625
28.500244140625 7.3895263671875 23.36181640625
-26.216064453125 24.842041015625 -12.662109375
9.59423828125 5.15234375 6.918212890625
-17.909423828125 -1.1793212890625 45.201416015625
2.069091796875 3.740966796875 -3.11376953125
17.32666015625 1.5750732421875 -14.89111328125
-7.030029296875 0.8955078125 47.96875
-6.673828125 7.126220703125 18.064208984375
16.16357421875 2.1541748046875 -10.47705078125
9.265625 6.939208984375 32.509765625
13.20263671875 7.0096435546875 35.902099609375
-27.943603515625 0.3389892578125 58.25439453125
-14.968017578125 0.095703125 40.460205078125
0.118896484375 2.7821044921875 42.616455078125
12.969482421875 1.62109375 -15.680908203125
19.76953125 -0.3602294921875 -28.40771484375
-17.018310546875 0.15380859375 58.6220703125
-0.844970703125 2.21728515625 44.28076171875
12.027587890625 6.908203125 37.331298828125
6.297119140625 4.4273681640625 2.047119140625
43.482177734375 1.41845703125 -17.976806640625
46.258544921875 3.627197265625 -2.605224609375
-16.4912109375 -0.0279541015625 41.5009765625
-28.03955078125 0.4306640625 60.129638671875
4.670166015625 1.23828125 -18.68896484375
-27.086669921875 1.4639892578125 66.280517578125
18.8955078125 7.290283203125 21.5986328125
9.20263671875 7.545654296875 23.31494140625
-9.2509765625 0.90185546875 42.676513671875
10.217529296875 6.360107421875 16.50048828125
5.04638671875 1.4854736328125 -16.207275390625
-12.90966796875 -0.458984375 54.00341796875
16.613525390625 0.502685546875 -22.839599609375
-4.24560546875 2.9337158203125 36.266357421875
-15.204833984375 1.5341796875 66.7314453125
-22.5859375 2.161376953125 -16.551513671875
2.3701171875 1.2547607421875 -20.152099609375
38.71630859375 4.252685546875 3.18359375
10.329833984375 -0.2265625 -28.605712890625
42.43408203125 2.283935546875 -10.385986328125
-13.795654296875 5.265625 -9.9140625
-19.430908203125 2.879638671875 -9.383544921875
-15.845947265625 -1.002197265625 48.400634765625
-13.109619140625 1.78271484375 -17.9306640625
28.287841796875 -1.2691650390625 -35.927978515625
-7.081787109375 4.9130859375 3.9052734375
-17.352294921875 -1.122314453125 49.4140625
-26.44580078125 4.766357421875 -9.54638671875
5.124267578125 7.2474365234375 19.54638671875
32.720458984375 2.6075439453125 -8.550048828125
-16.41796875 1.5159912109375 34.8837890625
28.936279296875 3.5791015625 -1.955810546875
32.68994140625 3.5897216796875 -3.733642578125
11.73583984375 6.2974853515625 15.544189453125
40.066162109375 3.372802734375 -3.1943359375
-14.992431640625 0.245849609375 56.54248046875
9.49169921875 5.6197509765625 10.35888671875
-21.471923828125 -1.6497802734375 47.0771484375
-19.726806640625 -0.2159423828125 41.11328125
42.119140625 0.1177978515625 -25.07958984375
-7.43505859375 -0.383056640625 53.84326171875
-5.67626953125 0.50048828125 -22.34326171875
-24.239990234375 3.8209228515625 -7.9150390625
17.350830078125 1.989501953125 -12.98193359375
-8.594970703125 6.5367431640625 9.6005859375
-8.823974609375 -0.1097412109375 51.132568359375
19.361572265625 -0.5892333984375 -30.383056640625
-18.51220703125 -0.2510986328125 57.876708984375
39.092041015625 1.10791015625 -17.394775390625
24.113037109375 0.77392578125 -21.109375
14.7412109375 -0.7239990234375 -30.353515625
-5.070068359375 2.3870849609375 -12.306884765625
10.12109375 8.0433349609375 26.32763671875
17.944580078125 -0.1671142578125 -29.068115234375
-0.031494140625 4.5355224609375 31.3369140625
30.171142578125 5.0291748046875 6.944091796875
-11.387451171875 5.751953125 9.494873046875
-25.3994140625 -0.696533203125 52.447265625
17.976318359375 8.2451171875 30.05908203125
37.39794921875 1.8037109375 -16.79638671875
24.378662109375 1.909912109375 -13.61767578125
35.846435546875 4.5301513671875 3.34228515625
-16.51123046875 2.7891845703125 64.378662109375
17.302490234375 0.1558837890625 -26.229736328125
10.922607421875 7.50830078125 24.90380859375
27.180419921875 2.6368408203125 -8.41064453125
-29.432861328125 0.537109375 56.152587890625
2.319091796875 4.05517578125 37.578125
16.668212890625 3.7337646484375 -2.462646484375
38.258056640625 1.100341796875 -18.81103515625
33.1103515625 4.579833984375 5.260986328125
48.2333984375 7.9176025390625 -0.85546875
26.959716796875 -1.1973876953125 -33.17822265625
29.100341796875 -1.09912109375 -33.43994140625
4.789794921875 6.8626708984375 25.14208984375
-24.11181640625 1.782958984375 69.478271484375
11.32763671875 5.8126220703125 12.3056640625
33.803955078125 6.5286865234375 16.55224609375
29.212158203125 0.4036865234375 -23.14892578125
-25.403564453125 3.4100341796875 74.8369140625
-11.77001953125 -0.5687255859375 50.82958984375
-0.193115234375 6.076416015625 23.072998046875
42.833251953125 5.0494384765625 6.21728515625
14.540771484375 3.8056640625 -0.724609375
-22.660888671875 3.6539306640625 74.875732421875
-10.532470703125 3.478759765625 27.60888671875
-26.07373046875 23.20263671875 -13.11083984375
-21.71875 1.0400390625 67.42724609375
31.740966796875 1.1531982421875 -19.47900390625
1.682373046875 5.96435546875 27.240966796875
-8.522705078125 3.7906494140625 -2.87890625
3.660400390625 5.76513671875 11.57080078125
41.288818359375 -0.3179931640625 -28.488525390625
20.910888671875 9.5728759765625 16.193115234375
-23.2421875 1.999755859375 70.9716796875
-2.7255859375 2.4747314453125 -10.965087890625
-5.057373046875 4.2733154296875 -1.14599609375
18.851806640625 7.8056640625 12.235595703125
47.447509765625 3.0606689453125 -13.188720703125
-30.847412109375 1.4146728515625 57.8828125
32.692626953125 -0.2791748046875 -29.569091796875
32.415283203125 6.2503662109375 14.507568359375
-1.615234375 4.254150390625 31.501708984375
20.71240234375 5.4761962890625 9.595947265625
-9.71923828125 -0.392822265625 54.01611328125
27.392578125 7.0069580078125 18.693115234375
7.236083984375 -0.38671875 -28.5146484375
22.30517578125 -0.906005859375 -31.174560546875
43.399169921875 2.7906494140625 -7.72802734375
29.931884765625 -0.79638671875 -30.49609375
14.750732421875 2.435546875 -9.6630859375
-0.239990234375 3.985107421875 34.841552734375
-6.1884765625 7.3865966796875 9.257080078125
-1.6064453125 1.9501953125 45.677490234375
1.782470703125 4.7520751953125 5.434814453125
-20.933349609375 40.6427001953125 -40.054931640625
-15.546875 2.37451171875 -13.648193359375
-10.182861328125 1.6876220703125 -18.889404296875
5.71484375 3.876708984375 -0.061279296875
-26.2802734375 1.8861083984375 70.00439453125
-17.769287109375 5.53955078125 60.5400390625
15.9423828125 -0.6085205078125 -31.4560546875
15.32275390625 7.747314453125 33.75439453125
-25.609130859375 7.6170654296875 -0.090087890625
37.37939453125 5.5291748046875 11.35205078125
-10.35791015625 3.1470947265625 -7.77392578125
37.208251953125 4.5552978515625 4.529541015625
31.50341796875 -0.8489990234375 -31.009033203125
18.11962890625 0.6092529296875 -22.312255859375
18.193115234375 5.0523681640625 8.014892578125
30.08349609375 3.312744140625 -4.333984375
39.287109375 -0.203369140625 -28.462646484375
-14.98046875 0.4677734375 62.62255859375
1.45849609375 3.9176025390625 -0.863525390625
-21.940185546875 -0.04833984375 57.75732421875
22.994873046875 1.1805419921875 -18.2099609375
40.0078125 2.2393798828125 -15.177978515625
7.867431640625 7.935546875 24.486328125
31.67626953125 -1.3572998046875 -34.73193359375
30.657958984375 8.04052734375 21.207275390625
13.83837890625 5.2626953125 8.70556640625
28.45654296875 1.32763671875 -16.79736328125
13.612548828125 0.864013671875 -20.944580078125
32.082275390625 5.20263671875 8.380859375
3.85693359375 5.802734375 9.880859375
38.516845703125 0.1497802734375 -25.01513671875
26.456787109375 3.9476318359375 -0.330810546875
33.6376953125 -0.030517578125 -27.787353515625
47.787841796875 1.647705078125 -28.815673828125
17.24853515625 2.6048583984375 -8.966552734375
28.56982421875 4.967529296875 7.493408203125
24.3486328125 0.092529296875 -26.36279296875
7.943115234375 6.648193359375 30.025634765625
-7.460693359375 3.50732421875 -5.749755859375
22.28662109375 -0.0328369140625 -26.686279296875
-6.584716796875 1.5247802734375 42.454345703125
13.08447265625 1.13134765625 -19.27587890625
-24.380126953125 2.69580078125 -14.12646484375
-6.302001953125 0.2257080078125 55.055908203125
-26.702392578125 11.7716064453125 -21.197265625
26.22900390625 5.0067138671875 6.5810546875
-8.279052734375 1.8603515625 -17.458251953125
15.033935546875 0.290771484375 -23.255615234375
23.267822265625 -1.2423095703125 -32.4033203125
-18.008544921875 3.901611328125 -2.47998046875
-6.905517578125 0.6827392578125 -23.75048828125
47.686279296875 3.168212890625 -17.88671875
5.31103515625 6.60107421875 27.757080078125
12.42724609375 2.3228759765625 -11.572021484375
1.42333984375 1.0130615234375 -21.884521484375
-11.204833984375 -0.537841796875 54.538330078125
41.621826171875 1.436767578125 -15.665283203125
3.986572265625 6.1734619140625 28.973388671875
0.80517578125 6.5150146484375 15.63427734375
-6.725341796875 0.3907470703125 51.16796875
12.18408203125 0.5762939453125 -23.0537109375
-20.130615234375 -0.8128662109375 52.447021484375
-4.775390625 0.578857421875 50.970703125
10.070556640625 7.5093994140625 28.27099609375
46.387939453125 3.4979248046875 -7.5556640625
26.1123046875 6.010009765625 12.34619140625
15.51953125 0.6221923828125 -21.416259765625
40.834716796875 1.2718505859375 -18.109130859375
-26.277587890625 0.5654296875 60.96826171875
25.67578125 -1.2783203125 -35.565673828125
-18.306396484375 -0.310546875 39.756591796875
-24.599853515625 2.2242431640625 73.058349609375
20.176513671875 -0.1319580078125 -26.4375
31.955078125 6.42578125 18.780029296875
10.761474609375 7.7340087890625 23.229248046875
-2.97900390625 0.671142578125 -24.010986328125
37.96337890625 4.9918212890625 8.320068359375
7.595947265625 2.1947021484375 -13.1708984375
39.934814453125 3.834228515625 -0.185302734375
36.09619140625 0.6173095703125 -23.97607421875
6.004638671875 2.7239990234375 -9.15234375
24.20849609375 -0.701904296875 -29.126953125
17.382080078125 -0.8990478515625 -32.313720703125
36.16943359375 3.71923828125 -2.748291015625
26.41259765625 1.619384765625 -15.20361328125
-15.10693359375 4.974365234375 3.81982421875
6.159423828125 2.064453125 -14.250732421875
47.80419921875 4.254150390625 -6.904052734375
1.91650390625 6.791015625 20.343017578125
21.571533203125 -0.6856689453125 -28.20703125
-17.940185546875 4.3004150390625 -0.644775390625
-26.842041015625 5.9012451171875 -2.124267578125
30.25537109375 3.240966796875 -5.99658203125
-15.318115234375 1.24609375 36.25146484375
38.2509765625 4.99267578125 -12.189453125
10.316162109375 0.21875 -26.09765625
18.76513671875 8.018798828125 26.352783203125
37.3544921875 3.815673828125 0.103271484375
6.985595703125 6.7305908203125 17.23779296875
1.672119140625 6.9180908203125 23.457275390625
-8.34130859375 0.5523681640625 -24.829833984375
27.360107421875 4.0579833984375 0.937744140625
-27.580078125 10.33642578125 -26.502197265625
17.45361328125 1.3702392578125 -17.02294921875
25.835693359375 4.102783203125 1.39501953125
14.607177734375 1.3680419921875 -18.296630859375
15.3310546875 -0.15234375 -28.151123046875
21.380615234375 1.1240234375 -17.6123046875
-9.883056640625 3.306884765625 29.580322265625
28.84521484375 3.75537109375 -0.41064453125
19.78564453125 2.0537109375 -12.178466796875
-4.515869140625 5.2613525390625 23.9541015625
20.818359375 7.71044921875 23.86669921875
14.025146484375 8.0301513671875 25.682861328125
-9.276123046875 2.1031494140625 -15.62646484375
-11.039306640625 -0.1072998046875 45.88232421875
14.292236328125 1.9554443359375 -12.47607421875
11.82861328125 -0.4093017578125 -29.567626953125
5.2451171875 4.9609375 5.770751953125
22.100830078125 3.016357421875 -5.909912109375
21.56884765625 0.89208984375 -20.324462890625
34.591064453125 5.7803955078125 10.95654296875
21.64306640625 8.376953125 28.366943359375
-28.250244140625 8.5887451171875 -15.845458984375
16.961669921875 7.468505859375 14.13427734375
38.640625 2.5401611328125 -7.658203125
-7.85693359375 2.3843994140625 -13.561279296875
-26.503173828125 17.54052734375 -29.931884765625
0.047119140625 6.7677001953125 19.892578125
19.669677734375 8.5174560546875 29.37109375
-27.519775390625 -0.208984375 54.663330078125
41.5751953125 3.8948974609375 -0.754150390625
12.45556640625 4.2821044921875 2.86279296875
-13.41943359375 0.2606201171875 58.974853515625
-2.028564453125 0.3182373046875 -25.7685546875
47.362060546875 2.7838134765625 -20.908447265625
45.17578125 0.0670166015625 -24.9375
10.99267578125 4.453125 3.750732421875
4.9296875 5.4337158203125 33.819091796875
-7.5263671875 3.8377685546875 27.451904296875
-1.569091796875 0.6719970703125 -23.3798828125
-8.383056640625 0.73193359375 -23.261474609375
10.665283203125 0.626220703125 -22.560302734375
-5.03759765625 1.0355224609375 -20.746337890625
-15.124267578125 8.15478515625 -9.523681640625
22.299072265625 9.1441650390625 30.75244140625
-27.159912109375 25.4656982421875 -15.619140625
13.385009765625 4.7947998046875 5.967529296875
38.82080078125 4.076416015625 1.637939453125
-2.71826171875 0.55615234375 -22.310546875
47.551513671875 4.4794921875 -4.20556640625
-4.0478515625 7.0233154296875 14.680908203125
10.222412109375 1.2843017578125 -19.532958984375
34.5888671875 1.3125 -17.1669921875
36.200927734375 -0.4193115234375 -29.52880859375
16.66845703125 2.8914794921875 -6.777099609375
-5.595458984375 3.3206787109375 33.36083984375
3.260009765625 -0.0850830078125 -26.763916015625
26.79052734375 -0.3997802734375 -27.975341796875
4.60205078125 2.7225341796875 -9.783203125
40.652587890625 5.0068359375 -14.686279296875
-26.639404296875 6.501708984375 -0.49755859375
24.937255859375 -1.3489990234375 -34.076416015625
12.476806640625 5.6617431640625 9.91650390625
-8.201904296875 2.90673828125 33.932861328125
12.558349609375 4.790283203125 4.6162109375
-16.926025390625 0.25830078125 37.93896484375
26.403076171875 6.6688232421875 17.114501953125
-15.977783203125 4.2540283203125 -1.812744140625
3.47509765625 4.02001953125 -1.06494140625
-1.271484375 2.7318115234375 -9.451171875
-18.4423828125 2.1102294921875 71.93701171875
1.102783203125 2.947265625 -7.666259765625
-1.390869140625 5.3291015625 26.04833984375
-12.811279296875 1.1966552734375 38.540771484375
-13.57861328125 0.974853515625 -23.29248046875
23.962158203125 7.2962646484375 20.057861328125
-4.833251953125 1.947998046875 41.146240234375
-1.806884765625 3.01513671875 -7.283935546875
-27.81396484375 6.8408203125 -7.97705078125
8.08837890625 6.4581298828125 14.447265625
-4.710205078125 2.5020751953125 -10.30517578125
24.736328125 5.177490234375 7.46826171875
41.442626953125 0.7093505859375 -21.29736328125
9.00244140625 2.912109375 -8.650634765625
-8.855224609375 2.205810546875 36.644287109375
1.093505859375 3.5277099609375 -4.265869140625
3.3671875 6.2078857421875 26.03955078125
5.615478515625 6.310546875 14.27099609375
-6.537109375 4.041748046875 -2.10546875
-1.423583984375 3.256103515625 -4.8544921875
-17.364501953125 -0.6011962890625 42.659423828125
29.099853515625 6.44287109375 18.04443359375
8.224365234375 4.2994384765625 1.513671875
20.802001953125 7.682861328125 11.717041015625
23.743896484375 7.6529541015625 23.552490234375
1.16943359375 2.6199951171875 -10.1962890625
-14.37353515625 3.1988525390625 -10.83935546875
-13.620361328125 2.06787109375 -15.74658203125
-3.627685546875 2.21240234375 -13.22265625
13.6318359375 6.0478515625 14.603759765625
-6.591552734375 3.6392822265625 -3.957763671875
-21.0771484375 2.875244140625 61.30615234375
6.60791015625 5.5338134765625 9.736083984375
21.347412109375 8.8197021484375 12.8671875
19.56689453125 9.994140625 13.107177734375
32.8115234375 0.63720703125 -22.2890625
-24.24609375 4.9000244140625 -0.06201171875
6.574462890625 5.8291015625 11.663818359375
-27.351806640625 5.4896240234375 -18.1171875
-0.010498046875 5.454345703125 27.086181640625
-7.9404296875 4.635009765625 1.1630859375
44.645751953125 2.8653564453125 -5.403076171875
17.576171875 8.70458984375 15.181884765625
25.145263671875 3.206298828125 -5.3994140625
-16.170654296875 0.5391845703125 61.477294921875
-2.693115234375 4.9063720703125 27.263916015625
34.01904296875 3.7684326171875 -1.5400390625
0.595458984375 3.78564453125 -2.65673828125
-3.299560546875 4.660888671875 2.8525390625
7.48193359375 5.1053466796875 38.876220703125
3.814697265625 5.4461669921875 31.076416015625
-6.534423828125 3.16552734375 -7.44482421875
17.267822265625 5.9195556640625 11.962158203125
-29.9833984375 8.68310546875 -3.22900390625
24.47216796875 6.9188232421875 18.056396484375
4.25830078125 5.320556640625 7.969482421875
-9.04052734375 -0.02783203125 49.180908203125
-26.5419921875 4.8763427734375 -14.01416015625
20.3798828125 1.47802734375 -15.85693359375
-5.004638671875 2.6630859375 37.6904296875
18.56640625 8.1015625 28.431640625
15.64892578125 8.033935546875 28.309326171875
7.47314453125 3.9708251953125 -2.3505859375
2.3515625 5.4459228515625 8.489013671875
-20.136962890625 3.5281982421875 -8.00634765625
-20.40087890625 3.8836669921875 -2.196533203125
8.275390625 6.059814453125 41.02001953125
35.769775390625 -0.9185791015625 -32.460205078125
-5.54296875 4.5284423828125 0.44873046875
6.140380859375 4.5640869140625 39.638427734375
45.564697265625 0.33740234375 -26.4375
2.945556640625 3.8824462890625 39.530029296875
-15.263916015625 -0.5926513671875 44.501953125
5.213623046875 6.7890625 16.164794921875
0.705078125 2.6357421875 45.03759765625
29.499755859375 1.1029052734375 -18.108154296875
5.176513671875 4.11083984375 41.7373046875
30.1748046875 0.7821044921875 -20.927001953125
-12.679931640625 5.4132080078125 5.902587890625
2.25537109375 5.6375732421875 10.514404296875
8.909912109375 6.461181640625 15.777099609375
26.81494140625 4.3179931640625 2.5576171875
20.786376953125 8.1263427734375 26.195556640625
6.42919921875 6.586181640625 30.521484375
7.894287109375 0.7294921875 -23.94189453125
-3.023193359375 1.4033203125 51.87353515625
25.20654296875 7.759765625 24.08740234375
-16.645263671875 -0.4703369140625 55.565185546875
-28.153564453125 6.658935546875 -4.44140625
1.26171875 4.7041015625 33.382080078125
7.03173828125 7.3956298828125 20.42529296875
-32.47412109375 1.1695556640625 60.42041015625
-13.634033203125 -0.801513671875 50.063720703125
2.1064453125 6.4144287109375 16.354248046875
-24.7900390625 2.129638671875 -19.086669921875
2.51611328125 4.510009765625 1.5966796875
4.7998046875 7.2706298828125 22.76806640625
-3.99755859375 3.7213134765625 33.61328125
10.88671875 7.130859375 18.903076171875
-26.94921875 26.9346923828125 -14.59228515625
-22.488525390625 4.69482421875 0.043212890625
-18.145751953125 0.3311767578125 36.754150390625
-29.01123046875 8.085205078125 -1.467041015625
-5.2744140625 0.21240234375 53.801025390625
28.74169921875 2.7198486328125 -8.434814453125
-12.546142578125 2.81494140625 -12.274658203125
-1.82666015625 3.8502197265625 35.915771484375
-9.8984375 3.6395263671875 -4.4794921875
34.509765625 3.05712890625 -12.282958984375
23.364501953125 1.5611572265625 -15.25
16.81640625 -0.1776123046875 -28.08349609375
41.90478515625 4.2689208984375 2.162841796875
28.758544921875 0.2012939453125 -24.547607421875
12.81982421875 7.3531494140625 32.7109375
-0.437744140625 5.1363525390625 29.4990234375
24.876708984375 2.369140625 -11.34033203125
7.8876953125 5.443359375 37.007080078125
-30.13427734375 0.9107666015625 62.303466796875
34.568115234375 4.838623046875 6.7841796875
-15.8828125 4.781982421875 -11.020263671875
28.1083984375 0.6561279296875 -21.256103515625
4.83349609375 4.02197265625 44.39794921875
28.4482421875 6.7391357421875 20.676513671875
1.26171875 5.4998779296875 28.727783203125
8.85498046875 -0.2012939453125 -28.672607421875
3.551513671875 1.5335693359375 -15.727783203125
3.14404296875 2.0303955078125 -13.74462890625
23.894287109375 5.970458984375 14.130859375
18.236328125 10.0400390625 32.87158203125
9.4931640625 6.2720947265625 35.457275390625
30.862548828125 2.5377197265625 -10.11376953125
23.482421875 6.5810546875 16.479736328125
-15.816650390625 -1.3148193359375 46.152587890625
9.060302734375 5.53173828125 39.639892578125
-20.1962890625 -0.03125 58.20849609375
16.33740234375 1.3575439453125 -16.067138671875
40.051025390625 0.6826171875 -22.518310546875
10.916748046875 6.3759765625 35.986328125
11.832763671875 7.737548828125 26.546875
21.0263671875 3.5400390625 -2.64697265625
-20.740234375 -1.419677734375 45.22607421875
-28.25341796875 7.30859375 -18.715087890625
10.705322265625 5.793701171875 38.9833984375
-23.6845703125 1.1043701171875 65.099853515625
6.30224609375 7.3382568359375 26.938232421875
18.373046875 7.8101806640625 24.53125
30.328125 4.1436767578125 1.5615234375
22.338623046875 4.5556640625 3.8154296875
15.614013671875 3.4140625 -3.519775390625
5.4873046875 5.156494140625 35.88134765625
28.131591796875 6.540771484375 14.54736328125
37.1865234375 4.8359375 5.964111328125
31.74658203125 4.1456298828125 2.199462890625
46.70751953125 0.97802734375 -27.914794921875
-6.609375 5.6697998046875 8.54052734375
-26.64013671875 4.17626953125 -17.86083984375
2.512451171875 2.7972412109375 -8.02685546875
-6.9248046875 1.1448974609375 -20.729248046875
-28.464111328125 1.2744140625 65.84619140625
22.782958984375 5.984375 11.259033203125
40.324462890625 2.8607177734375 -7.3359375
-9.77587890625 2.96875 -10.03662109375
-1.087890625 6.2213134765625 13.803955078125
43.789306640625 -0.387939453125 -28.142578125
44.27783203125 3.6859130859375 0.7412109375
12.4228515625 2.0399169921875 -13.02294921875
37.76611328125 -0.6053466796875 -30.508056640625
-11.0126953125 1.2152099609375 38.990234375
-18.390380859375 1.7882080078125 69.320556640625
9.328369140625 6.77392578125 31.067138671875
-0.2197265625 2.0496826171875 46.199951171875
17.84619140625 4.536865234375 4.185791015625
-14.565673828125 1.2198486328125 -21.446044921875
22.82421875 8.897705078125 29.21484375
-18.58984375 -1.3148193359375 46.972412109375
-28.837646484375 2.065673828125 70.58740234375
40.50634765625 3.57080078125 -1.825927734375
-7.498779296875 2.6505126953125 -10.569580078125
19.188720703125 5.3919677734375 9.600830078125
8.397216796875 3.220458984375 -5.9248046875
-3.560302734375 6.511962890625 16.48291015625
-0.713623046875 1.1180419921875 -19.522216796875
35.886962890625 3.9669189453125 0.460693359375
-19.1171875 5.4405517578125 60.02197265625
37.294677734375 -0.94482421875 -32.39501953125
0.046875 4.215087890625 0.464111328125
-21.52490234375 1.879638671875 70.58251953125
-19.888427734375 0.867919921875 60.393310546875
-20.169677734375 -1.2183837890625 50.304931640625
41.75341796875 -0.969970703125 -31.03173828125
-12.634521484375 0.2679443359375 60.188232421875
-11.194091796875 2.840087890625 -11.10302734375
-16.5634765625 1.2740478515625 -20.213134765625
2.3642578125 3.1309814453125 45.216064453125
0.3994140625 0.225341796875 -25.9931640625
43.382080078125 4.11767578125 1.806396484375
13.2900390625 2.458251953125 -9.744140625
34.70068359375 -0.6871337890625 -31.106689453125
-6.25732421875 3.8841552734375 29.081787109375
-12.4580078125 3.7965087890625 -7.016357421875
-12.640869140625 0.5166015625 42.457275390625
0.636962890625 5.532470703125 25.800048828125
22.526123046875 4.33544921875 1.196533203125
-15.36669921875 0.6490478515625 38.193115234375
-11.707763671875 -0.2698974609375 47.17578125
-21.522216796875 -1.4576416015625 48.916015625
28.31689453125 -0.2926025390625 -27.4453125
-28.6865234375 5.7623291015625 -17.305908203125
22.042236328125 3.3221435546875 -3.91552734375
-21.047607421875 -0.2757568359375 56.21337890625
-7.90869140625 4.9337158203125 23.16943359375
33.4833984375 4.56982421875 2.425048828125
-1.36767578125 4.0867919921875 -0.599365234375
-15.8994140625 0.7562255859375 59.8232421875
6.491943359375 3.0474853515625 -7.357177734375
40.6748046875 7.0977783203125 9.20849609375
22.7880859375 -0.5699462890625 -29.3076171875
41.042236328125 3.0457763671875 -4.372802734375
-2.5986328125 1.6492919921875 44.6826171875
30.7734375 0.35302734375 -23.64892578125
30.936767578125 -0.573974609375 -29.29345703125
40.14208984375 4.2545166015625 3.82421875
-3.110107421875 1.2755126953125 47.5615234375
-15.143310546875 6.8936767578125 -11.841064453125
18.100341796875 3.86376953125 -1.3857421875
-14.0224609375 0.77099609375 39.20361328125
39.022216796875 6.3111572265625 10.283447265625
8.01806640625 4.9649658203125 7.02587890625
-14.991943359375 -0.8980712890625 49.547607421875
2.228515625 5.9317626953125 12.434814453125
-6.893798828125 3.296630859375 32.24560546875
-27.935546875 7.51708984375 -21.802978515625
-11.84521484375 0.8765869140625 40.974365234375
-11.055419921875 3.115478515625 31.095947265625
0.63232421875 3.3341064453125 -5.606689453125
-17.658203125 2.2196044921875 -12.231689453125
-2.16064453125 1.7313232421875 -16.138916015625
-9.414306640625 4.4041748046875 0.20654296875
43.984619140625 1.0396728515625 -19.56103515625
-26.45361328125 5.8892822265625 -7.693603515625
9.526611328125 -0.260986328125 -30.590576171875
25.39306640625 4.5955810546875 3.351806640625
37.230224609375 4.2740478515625 3.092041015625
-3.216064453125 0.821533203125 -20.654541015625
-13.68212890625 1.355224609375 -19.623046875
-19.62158203125 -0.2501220703125 55.304931640625
34.052490234375 5.3533935546875 9.2763671875
-9.10400390625 2.6796875 32.3369140625
20.249755859375 4.6021728515625 4.9921875
-11.578125 -0.56787109375 48.815673828125
-8.9736328125 5.3331298828125 6.355224609375
27.121826171875 0.14599609375 -23.934814453125
-22.302734375 0.4305419921875 59.93310546875
-31.50927734375 1.3226318359375 66.19287109375
-1.518310546875 4.6021728515625 3.93115234375
-7.2158203125 1.873779296875 -18.40380859375
-19.79248046875 2.1749267578125 72.7255859375
-3.228515625 6.7281494140625 9.32861328125
-18.41357421875 3.8731689453125 -9.424560546875
-12.1142578125 1.079833984375 -22.774169921875
-27.103759765625 1.185791015625 64.58203125
30.458740234375 1.47900390625 -15.89990234375
14.205078125 7.9278564453125 27.77734375
-20.14892578125 -1.5296630859375 48.07177734375
18.472900390625 1.14697265625 -18.32568359375
0.525146484375 6.2584228515625 21.678955078125
-31.45556640625 0.8155517578125 61.792724609375
-28.99951171875 7.1494140625 -8.908203125
43.437255859375 -0.9156494140625 -31.664794921875
6.342529296875 3.27001953125 -4.72607421875
-6.080810546875 2.0450439453125 -13.908447265625
-5.935546875 3.1123046875 35.63671875
-25.70849609375 -0.1077880859375 49.21728515625
-30.54541015625 1.150146484375 63.68017578125
47.189697265625 2.0098876953125 -23.11767578125
5.02783203125 3.6512451171875 -4.03173828125
27.108642578125 7.3868408203125 22.72998046875
-18.404296875 2.6505126953125 59.74951171875
-10.786376953125 4.2537841796875 -1.38818359375
21.247802734375 4.943359375 6.58544921875
8.705810546875 7.5067138671875 27.648193359375
-8.456298828125 -0.3685302734375 55.09521484375
46.580078125 2.2357177734375 -17.939208984375
5.83935546875 -0.2562255859375 -28.69384765625
-31.321533203125 0.679443359375 58.9921875
-8.923828125 4.8685302734375 2.930419921875
30.45556640625 6.0997314453125 13.61376953125
25.88232421875 1.313720703125 -16.47607421875
29.229736328125 2.0634765625 -11.44287109375
