43.677001953125 -4.4111328125 -26.0947265625
-33.126708984375 -0.3841552734375 65.3134765625
5.193115234375 2.588623046875 39.2080078125
-19.151611328125 42.061767578125 -37.322265625
-9.755859375 3.3104248046875 13.27587890625
22.4677734375 -2.80712890625 -19.875732421875
-13.630615234375 0.6795654296875 72.292724609375
25.177734375 2.6981201171875 14.169189453125
-11.47412109375 -3.34619140625 55.3212890625
-18.7783203125 -3.685791015625 50.906494140625
37.262451171875 -0.137451171875 0.441162109375
-1.517333984375 -0.817626953125 -6.308349609375
-26.896484375 4.5025634765625 -13.34423828125
17.65478515625 -0.0791015625 -0.787109375
-10.44482421875 0.0218505859375 33.674072265625
12.103759765625 4.1025390625 36.046630859375
17.447509765625 1.8424072265625 9.776611328125
-16.08642578125 44.5771484375 -33.934326171875
15.760986328125 -2.9144287109375 -18.538330078125
-22.846435546875 1.6187744140625 78.381103515625
39.97119140625 -5.3563232421875 -32.736572265625
21.605712890625 9.20751953125 34.20556640625
-25.050537109375 1.206298828125 -0.278564453125
-17.864501953125 1.7491455078125 5.9912109375
-14.161865234375 2.6817626953125 -3.087646484375
18.721923828125 4.5771484375 27.494140625
-22.8876953125 -2.52587890625 59.06201171875
-15.361328125 -1.4256591796875 64.73828125
28.64697265625 -2.1715087890625 -14.60595703125
-18.039794921875 -1.4920654296875 42.1806640625
-28.3095703125 -0.98046875 65.75830078125
-20.207275390625 0.5882568359375 -0.9248046875
-26.9794921875 11.76611328125 -17.68115234375
37.059326171875 0.1844482421875 -10.34375
-2.904296875 -1.5994873046875 55.982177734375
41.1748046875 -1.0059814453125 -5.739990234375
2.362548828125 2.8287353515625 32.75537109375
31.21240234375 -4.8035888671875 -30.014892578125
-2.71142578125 -0.0142822265625 42.445556640625
-0.397705078125 -2.3040771484375 -15.5263671875
-20.618896484375 -1.1968994140625 -12.51904296875
-22.70361328125 6.5677490234375 0.55810546875
0.7451171875 0.4000244140625 1.270751953125
27.279296875 3.83349609375 28.5537109375
5.639404296875 2.0303955078125 8.651611328125
-18.867919921875 -2.0025634765625 61.364990234375
21.565185546875 3.9068603515625 35.40185546875
46.128662109375 -1.6571044921875 -10.83154296875
2.095703125 -3.2998046875 -21.256103515625
48.48193359375 -3.3470458984375 -29.265625
12.72412109375 3.419189453125 20.240966796875
18.87158203125 5.373291015625 18.968505859375
34.981689453125 1.9229736328125 11.08837890625
-0.859375 1.671875 9.467529296875
-12.29833984375 -2.1533203125 -15.852783203125
12.599365234375 4.6700439453125 27.2236328125
26.038818359375 -0.2786865234375 -1.7939453125
7.620849609375 0.302490234375 -0.44140625
27.24609375 -3.9971923828125 -23.46337890625
-25.83935546875 1.04736328125 -8.62939453125
39.920654296875 1.1119384765625 7.947265625
-17.454345703125 42.505859375 -29.45654296875
39.43310546875 -4.2861328125 -24.688720703125
12.614501953125 1.654052734375 8.802978515625
14.47265625 -3.7764892578125 -24.214111328125
-14.27392578125 -1.3966064453125 -10.744873046875
45.380859375 -3.936767578125 -21.876220703125
4.926513671875 4.494140625 27.12744140625
-27.42041015625 13.7879638671875 -23.17724609375
12.41455078125 2.5341796875 14.63525390625
-8.43017578125 -1.9951171875 63.15576171875
4.15966796875 0.576416015625 49.460693359375
42.5107421875 -2.7369384765625 -14.97509765625
4.393310546875 3.232666015625 17.21875
20.66845703125 -2.0286865234375 -10.26025390625
-3.11181640625 1.519775390625 33.352783203125
-25.913818359375 -1.9827880859375 61.959716796875
-26.259033203125 16.46728515625 -13.37939453125
-13.242431640625 1.675048828125 6.09326171875
23.22802734375 -4.2589111328125 -24.679443359375
-5.769287109375 -1.0223388671875 -7.971435546875
-3.240234375 -1.3980712890625 48.077392578125
-2.430419921875 2.9569091796875 13.269287109375
-18.63232421875 2.0775146484375 64.2294921875
-9.100341796875 1.911865234375 8.272216796875
24.725830078125 -2.3336181640625 -15.9384765625
-5.171875 -2.2166748046875 -15.569580078125
-9.124755859375 -2.1156005859375 48.364013671875
-23.817626953125 -3.09912109375 51.51416015625
20.860107421875 2.6522216796875 13.437744140625
-15.764892578125 -3.1326904296875 46.153564453125
-18.339599609375 1.0194091796875 77.552978515625
21.70458984375 0.2503662109375 -0.204833984375
33.538818359375 4.5230712890625 21.932373046875
-9.651611328125 -1.17529296875 41.379150390625
30.600341796875 -4.0098876953125 -25.810546875
15.06494140625 -2.342041015625 -14.232421875
4.23486328125 4.0950927734375 22.943115234375
-21.20654296875 -0.73583984375 70.17822265625
31.58544921875 -0.8570556640625 -4.8681640625
41.21484375 0.2967529296875 2.6708984375
10.90234375 -2.995361328125 -19.575439453125
8.006103515625 2.4110107421875 42.033447265625
8.166015625 -1.85888671875 -11.63671875
32.65185546875 -2.7998046875 -17.19775390625
-26.9130859375 3.3797607421875 -3.02978515625
-1.129638671875 3.21435546875 24.249755859375
15.347900390625 -0.640869140625 -4.52783203125
-11.3447265625 0.5189208984375 -0.678466796875
2.37451171875 -0.8914794921875 -7.052490234375
22.78955078125 4.849365234375 27.096435546875
-15.330078125 -3.318359375 54.0078125
-19.80615234375 -0.8084716796875 -8.69775390625
-6.015625 2.41845703125 26.390625
-19.548095703125 46.6219482421875 -33.79443359375
19.488037109375 5.333251953125 32.4287109375
9.067626953125 -0.6602783203125 -5.12646484375
8.385009765625 3.5894775390625 37.0224609375
-28.034912109375 8.0343017578125 -4.78515625
14.58447265625 6.139892578125 40.99951171875
-12.324462890625 1.9139404296875 -6.958251953125
33.873291015625 0.4515380859375 2.203857421875
20.392822265625 0.9910888671875 5.67431640625
-24.482177734375 0.355712890625 74.565185546875
-10.84765625 43.290283203125 -32.351806640625
27.061767578125 1.8565673828125 10.972412109375
36.257080078125 2.422119140625 14.625732421875
-7.55859375 0.482666015625 -0.86474609375
0.465576171875 -0.107421875 -3.15771484375
13.6787109375 0.457763671875 2.3203125
41.20068359375 -4.92529296875 -28.8583984375
33.089111328125 2.7725830078125 17.504150390625
-17.161376953125 -0.2762451171875 71.55908203125
20.582763671875 4.274658203125 22.947265625
-26.399169921875 10.65380859375 -1.991455078125
15.60888671875 5.15673828125 35.779052734375
-3.4150390625 3.9893798828125 19.15625
6.41455078125 2.8326416015625 14.212890625
-14.562255859375 -0.8209228515625 68.84619140625
7.085693359375 -2.88427734375 -19.999755859375
45.025390625 -1.0799560546875 -4.731689453125
36.56884765625 -3.3609619140625 -18.6826171875
-18.281494140625 0.178466796875 -3.9970703125
-19.40771484375 45.2376708984375 -39.229248046875
5.10498046875 3.2177734375 35.21923828125
10.468017578125 4.318603515625 31.246337890625
1.187255859375 1.2325439453125 5.89599609375
4.60498046875 1.5086669921875 42.67919921875
-9.507080078125 -2.804443359375 52.408447265625
48.99365234375 -2.69580078125 -20.1103515625
44.80859375 0.4833984375 3.011474609375
0.0419921875 -1.284423828125 -9.8046875
-13.044921875 -1.045166015625 39.816650390625
-24.92822265625 8.8536376953125 -21.07568359375
-12.0556640625 -2.014892578125 63.72314453125
39.561767578125 2.2296142578125 -11.68212890625
28.318603515625 -1.5185546875 -9.380615234375
-19.039306640625 42.7347412109375 -33.779296875
24.8193359375 3.345703125 19.668212890625
-6.57763671875 -2.537353515625 55.75390625
-26.10791015625 3.9429931640625 2.211669921875
-29.696533203125 -0.465576171875 70.038330078125
-25.51318359375 14.29052734375 -26.0078125
0.2119140625 3.31591796875 16.914306640625
-5.74755859375 0.857666015625 2.029296875
-17.88916015625 46.3592529296875 -30.63134765625
0.89208984375 -0.3709716796875 49.101806640625
-15.6337890625 2.773681640625 -7.04931640625
23.81494140625 -1.0474853515625 -7.0966796875
-5.998779296875 -0.3134765625 41.64892578125
27.743896484375 0.607177734375 4.098388671875
-27.74267578125 9.96484375 -7.559814453125
43.66064453125 -1.698486328125 -8.27392578125
-15.60791015625 3.702880859375 65.13525390625
33.072509765625 1.1746826171875 7.3828125
9.243408203125 1.5687255859375 8.35888671875
-20.25537109375 1.1395263671875 2.98583984375
38.510009765625 -2.141845703125 -12.94140625
20.13134765625 5.119140625 15.564453125
34.22216796875 -1.5130615234375 -8.595458984375
9.21484375 4.7696533203125 28.19482421875
16.028564453125 3.24658203125 19.854736328125
-27.6552734375 -1.89306640625 57.61572265625
22.62109375 8.3187255859375 15.06982421875
7.301513671875 -2.322998046875 -14.882080078125
41.443115234375 0.9998779296875 -9.088623046875
31.177001953125 -3.9739990234375 -22.585205078125
-4.822509765625 -0.46826171875 -4.88671875
27.092041015625 4.3167724609375 25.11767578125
-25.348876953125 21.70166015625 -14.579345703125
2.95751953125 -2.1898193359375 -14.57080078125
19.683837890625 -2.92529296875 -18.21923828125
38.904296875 -0.8472900390625 -3.43212890625
-9.311767578125 -2.6683349609375 59.54541015625
29.794189453125 2.7529296875 16.415283203125
-26.419921875 8.67236328125 -15.310546875
-6.216552734375 1.758544921875 6.886962890625
-27.08154296875 17.247314453125 -22.769775390625
48.803466796875 -1.859619140625 -15.5576171875
-3.89599609375 0.350830078125 38.513427734375
4.440673828125 3.4556884765625 30.112548828125
-23.375732421875 -0.639404296875 -9.76953125
7.655029296875 1.490966796875 5.158203125
12.10595703125 -1.767333984375 -11.413330078125
-5.129638671875 46.6693115234375 -31.10546875
-24.916015625 -1.10791015625 65.82080078125
-16.6875 -2.44482421875 59.11865234375
40.876708984375 -0.1749267578125 -13.621337890625
34.71337890625 -5.144287109375 -31.001953125
48.2880859375 -0.994384765625 -2.53125
10.41748046875 2.9468994140625 43.964111328125
25.343017578125 -3.2857666015625 -21.075927734375
19.53515625 0.40234375 2.04833984375
30.060546875 1.7325439453125 10.102294921875
-9.083984375 -2.104248046875 -14.2529296875
2.220947265625 1.6009521484375 39.798583984375
15.56787109375 4.65478515625 26.31884765625
-17.336181640625 -0.9173583984375 -10.600341796875
-10.28759765625 -0.6434326171875 -8.348388671875
6.75830078125 4.0032958984375 21.164306640625
-10.008056640625 44.352294921875 -29.379150390625
30.7822265625 0.61328125 3.643310546875
28.5439453125 3.704345703125 22.482666015625
13.728515625 -3.4708251953125 -20.765625
-18.77685546875 44.8916015625 -36.205322265625
15.31494140625 1.987548828125 11.972900390625
35.928466796875 -4.4010009765625 -25.659423828125
13.169921875 4.204833984375 24.2529296875
7.20458984375 -1.0087890625 -7.528564453125
3.2255859375 0.1954345703125 -0.504638671875
22.416259765625 -2.4072265625 -13.93798828125
43.68505859375 3.19970703125 8.444580078125
-7.431640625 0.43896484375 33.445556640625
10.500732421875 0.6724853515625 1.578369140625
-22.882568359375 -3.177490234375 55.1787109375
-25.536865234375 13.994384765625 -14.97412109375
-26.345703125 11.646484375 -20.635986328125
2.115478515625 1.779052734375 8.935302734375
-11.348388671875 2.4337158203125 10.22216796875
-21.238037109375 -3.6300048828125 49.1591796875
-27.01904296875 2.9981689453125 -15.950927734375
45.92724609375 -4.6883544921875 -28.41455078125
19.720458984375 6.3323974609375 35.25634765625
-33.11083984375 0.0986328125 68.276123046875
-16.220458984375 -0.3507080078125 39.28369140625
17.92333984375 -3.2164306640625 -21.342529296875
-17.15673828125 0.329345703125 74.896728515625
38.0732421875 -0.4454345703125 -6.25830078125
40.012451171875 -3.071533203125 -16.69091796875
-11.715576171875 -0.775634765625 37.193359375
-1.43310546875 -0.314208984375 45.776123046875
42.450439453125 -3.764404296875 -22.140869140625
38.149658203125 0.426025390625 3.5712890625
34.760009765625 -2.3905029296875 -12.58447265625
46.86767578125 1.7391357421875 4.69384765625
33.156494140625 0.2255859375 -0.692626953125
26.419677734375 2.9285888671875 16.813720703125
45.241943359375 -2.233642578125 -14.040283203125
-0.166748046875 2.2239990234375 31.4111328125
-21.955078125 -1.89013671875 62.179931640625
-26.527587890625 6.40673828125 -11.16162109375
14.856201171875 4.4930419921875 38.520751953125
-26.834228515625 2.2518310546875 -11.48876953125
11.8798828125 -0.9906005859375 -5.82958984375
-27.42138671875 0.1898193359375 72.696533203125
-6.184814453125 -1.4345703125 -10.819091796875
-3.616943359375 2.03759765625 27.987548828125
1.593017578125 3.9901123046875 24.898681640625
-25.503662109375 1.4154052734375 -4.653564453125
-6.8916015625 3.322509765625 12.85498046875
41.71826171875 3.0518798828125 10.8115234375
10.937744140625 4.0819091796875 22.417724609375
-26.660400390625 19.141845703125 -14.85595703125
45.279296875 -0.623291015625 -1.270751953125
-12.2822265625 1.245361328125 3.4091796875
30.704833984375 -1.2886962890625 -7.577392578125
2.15283203125 -2.5545654296875 -17.927978515625
44.09765625 -3.7086181640625 -19.312255859375
-11.63134765625 -2.7906494140625 47.128662109375
-16.216552734375 -3.4298095703125 48.970458984375
29.5380859375 -0.3636474609375 -2.3466796875
9.375244140625 3.83984375 33.98486328125
0.600341796875 0.9075927734375 42.294921875
-3.40966796875 -1.5653076171875 52.6826171875
-14.718994140625 0.7908935546875 66.37939453125
4.6279296875 0.7987060546875 46.680908203125
32.2255859375 -3.330078125 -20.042724609375
17.85791015625 -0.8173828125 -5.800048828125
37.6845703125 -4.10400390625 -22.486083984375
14.66162109375 2.6583251953125 16.485107421875
21.691650390625 6.1695556640625 19.619873046875
38.390625 1.609619140625 10.23681640625
-16.134765625 -1.7569580078125 61.843505859375
-9.0029296875 1.146484375 30.343505859375
-13.594482421875 -2.8388671875 57.042724609375
-31.019287109375 -0.81591796875 63.107177734375
46.85693359375 -3.821533203125 -24.223388671875
14.918212890625 1.1544189453125 7.350341796875
17.748046875 5.0963134765625 30.017578125
-30.5927734375 0.1746826171875 74.520263671875
11.40478515625 3.0931396484375 17.728759765625
-27.142333984375 14.677978515625 -20.609619140625
37.396728515625 -5.0592041015625 -31.4638671875
-10.572265625 -1.525390625 43.911865234375
-30.9697265625 -0.921142578125 66.9521484375
32.438232421875 -2.5203857421875 -14.5078125
-1.961669921875 -1.0810546875 50.44140625
41.3779296875 0.5107421875 5.748779296875
27.844970703125 0.1053466796875 1.162841796875
7.056640625 0.786376953125 2.6474609375
4.34814453125 3.7142333984375 20.039794921875
-21.455810546875 -3.3697509765625 52.94775390625
-22.41015625 -0.1627197265625 72.47216796875
23.8369140625 1.209228515625 6.552001953125
-27.1015625 -0.76513671875 68.097900390625
-9.68505859375 -1.4102783203125 65.501953125
17.637939453125 -1.6422119140625 -11.764404296875
-18.68359375 -3.216552734375 48.087158203125
-28.74658203125 7.933349609375 -2.265625
-11.9375 0.4305419921875 -4.782470703125
-2.083740234375 -0.4635009765625 -3.640380859375
33.2841796875 0.9085693359375 4.788330078125
-22.851318359375 1.19970703125 1.13037109375
-8.7509765625 2.2122802734375 11.1318359375
1.283935546875 2.2325439453125 35.055419921875
27.19384765625 1.1944580078125 7.09912109375
21.89013671875 -4.47119140625 -26.903076171875
38.538818359375 3.6680908203125 14.597900390625
-26.93115234375 4.1025390625 -9.665771484375
-15.490234375 -1.9283447265625 41.21484375
33.46240234375 -4.4591064453125 -26.46533203125
31.55810546875 3.4232177734375 20.696533203125
-1.808349609375 1.0537109375 35.841552734375
-17.410400390625 1.3087158203125 3.492431640625
-18.09326171875 43.899169921875 -31.522705078125
-7.588623046875 -2.1925048828125 50.42578125
48.029296875 -0.7313232421875 -9.3779296875
-26.905517578125 5.878662109375 -3.97509765625
-14.799560546875 42.6845703125 -30.5107421875
20.633544921875 5.142578125 30.146728515625
10.990966796875 5.302734375 43.1484375
-28.401611328125 -1.680419921875 62.472412109375
-0.461181640625 -1.932373046875 -13.003662109375
-27.02783203125 16.703857421875 -27.488037109375
23.38818359375 3.3399658203125 15.86279296875
-5.717529296875 -1.668701171875 48.51171875
-0.28857421875 0.7047119140625 3.556640625
6.7041015625 3.8995361328125 29.088134765625
-26.48583984375 2.7791748046875 -6.52490234375
-8.8388671875 42.5638427734375 -30.698486328125
-3.175048828125 4.0572509765625 21.654296875
4.595703125 -3.1776123046875 -21.129150390625
-22.991455078125 0.5177001953125 -1.52685546875
10.111328125 -0.03662109375 -2.6689453125
-23.647705078125 -0.649658203125 68.925048828125
-19.36572265625 -2.5987548828125 58.56298828125
-27.152099609375 7.32958984375 -8.927978515625
-27.171142578125 15.8486328125 -24.99609375
-20.2021484375 2.522705078125 5.635009765625
-10.656982421875 -2.2950439453125 61.599853515625
25.06982421875 -3.106689453125 -18.27001953125
-0.982666015625 4.8045654296875 14.04345703125
-14.4892578125 0.763427734375 -0.876953125
-7.1591796875 -0.5269775390625 -5.676513671875
23.776123046875 -0.5748291015625 -4.676025390625
-26.117919921875 11.13330078125 -14.655029296875
16.08251953125 5.430908203125 33.384521484375
48.082275390625 -0.4715576171875 -11.863037109375
14.54443359375 -1.7431640625 -11.164306640625
4.68017578125 0.5946044921875 1.418701171875
-6.0595703125 -2.6793212890625 -18.806884765625
12.70458984375 1.2930908203125 6.347900390625
-11.368896484375 -1.7286376953125 -13.18359375
11.41259765625 3.4150390625 38.2763671875
-16.41796875 2.7200927734375 -3.978271484375
-18.826904296875 -3.1129150390625 45.588134765625
48.63525390625 1.7117919921875 3.0439453125
22.734375 -2.6190185546875 -17.276123046875
13.78076171875 4.6943359375 33.062255859375
20.875244140625 1.76416015625 9.261474609375
-3.82666015625 -0.526611328125 45.64599609375
-25.43603515625 -0.30517578125 -10.966796875
31.98291015625 5.5936279296875 23.747314453125
-17.970947265625 0.5491943359375 -0.03955078125
23.2392578125 2.121826171875 11.462158203125
-15.477294921875 1.7135009765625 5.20654296875
-3.470458984375 0.4906005859375 1.0
-14.9482421875 1.0396728515625 74.2890625
27.50146484375 -3.0482177734375 -17.467041015625
8.7236328125 3.0594482421875 39.33447265625
36.419921875 1.32666015625 8.90869140625
-12.850830078125 1.9442138671875 8.43408203125
-16.4853515625 -3.4500732421875 51.517822265625
27.52880859375 2.6275634765625 14.54736328125
-19.870849609375 43.2017822265625 -40.375244140625
-6.066162109375 -1.7041015625 -13.430419921875
-20.0703125 -0.065185546875 -6.460205078125
18.87255859375 4.1954345703125 24.5869140625
34.145751953125 -0.290283203125 -2.835693359375
23.049560546875 4.3651123046875 33.60107421875
-6.241943359375 -0.10693359375 -3.035888671875
29.48876953125 -4.6199951171875 -27.7978515625
-15.171875 -1.8531494140625 -13.94189453125
27.83203125 -2.0068359375 -11.632080078125
33.52001953125 -4.94970703125 -28.981689453125
14.873779296875 -1.290771484375 -7.732421875
2.3291015625 0.1534423828125 47.31591796875
17.20556640625 0.6085205078125 2.11669921875
10.08056640625 3.802001953125 20.26318359375
8.718994140625 2.7630615234375 14.586669921875
-21.453857421875 0.7320556640625 76.73486328125
19.64794921875 -0.5673828125 -3.2822265625
-2.6396484375 1.592529296875 7.972412109375
-26.061279296875 1.4898681640625 -14.47119140625
25.192626953125 4.61962890625 29.66259765625
20.785400390625 -1.353515625 -8.046142578125
-16.251220703125 1.624755859375 64.34033203125
3.0546875 2.1612548828125 11.013671875
18.052734375 3.1693115234375 18.74365234375
17.50634765625 5.4307861328125 37.06787109375
-7.787109375 -0.784912109375 43.0322265625
38.321044921875 0.9927978515625 -8.594482421875
13.758544921875 -2.7203369140625 -17.417236328125
48.72119140625 -2.5517578125 -17.8349609375
35.13671875 4.27099609375 20.030517578125
45.81640625 -1.344482421875 -7.5908203125
-13.72119140625 4.03125 -4.882080078125
-1.651123046875 0.4078369140625 39.3037109375
19.856689453125 2.1669921875 11.44189453125
-0.58642578125 1.962646484375 33.78271484375
13.039794921875 2.32080078125 12.4560546875
-1.909912109375 2.146484375 29.952392578125
22.405029296875 -3.527587890625 -22.692138671875
-17.251953125 3.5997314453125 63.279296875
7.024169921875 2.62060546875 12.03955078125
21.9375 4.6121826171875 14.300048828125
18.4736328125 2.75439453125 13.590087890625
46.32177734375 -3.52880859375 -19.65869140625
-8.096435546875 2.175048828125 27.230712890625
-26.4541015625 14.690673828125 -16.908935546875
-3.839111328125 -2.0120849609375 -13.412353515625
-16.101806640625 44.2310791015625 -28.9619140625
2.0205078125 3.55224609375 27.169921875
-10.0625 -0.7928466796875 38.7138671875
19.923583984375 5.1376953125 20.93310546875
6.65576171875 -0.685546875 -5.381103515625
-3.234375 -2.4073486328125 -16.672119140625
20.045654296875 -1.8885498046875 -12.404052734375
24.58251953125 4.346923828125 25.865234375
46.047607421875 -4.7344970703125 -26.08935546875
-15.81005859375 -2.810546875 43.9501953125
35.19775390625 2.82568359375 16.804931640625
23.060302734375 -0.3165283203125 -1.868896484375
-20.671875 -3.1893310546875 55.014892578125
-10.082275390625 -2.8485107421875 57.477294921875
29.556396484375 -2.7978515625 -16.685302734375
10.877197265625 -1.738525390625 -13.250732421875
25.012939453125 -1.26318359375 -9.57177734375
-13.0322265625 -3.239013671875 53.75830078125
-0.320068359375 2.7220458984375 14.3564453125
35.35791015625 -0.32080078125 -0.998046875
5.479736328125 -1.158447265625 -10.146240234375
11.394775390625 -3.42822265625 -21.671875
-0.26953125 -3.0518798828125 -20.60302734375
39.603271484375 -4.5361328125 -26.8623046875
12.73681640625 4.9254150390625 31.14794921875
3.923583984375 -1.024658203125 -8.595703125
-2.590576171875 2.666259765625 26.16064453125
-12.06201171875 2.151123046875 -3.38818359375
20.701904296875 -3.486328125 -20.97021484375
-26.9140625 5.9525146484375 2.49853515625
-21.750244140625 -0.5477294921875 67.848388671875
7.15380859375 3.3670654296875 34.48828125
-27.2880859375 5.470947265625 -1.870849609375
-17.5 -3.21484375 54.091552734375
38.168212890625 -0.0985107421875 -12.19091796875
-5.703369140625 1.4459228515625 4.801513671875
17.87109375 1.0291748046875 6.474853515625
-27.4130859375 16.899658203125 -20.6552734375
-25.732666015625 1.347412109375 -2.3310546875
17.548828125 -3.9539794921875 -25.758544921875
-4.576171875 0.8572998046875 34.80126953125
28.52392578125 -0.8597412109375 -4.389892578125
-4.239990234375 -2.018310546875 57.63134765625
-1.065673828125 0.0228271484375 -1.636962890625
-26.667236328125 5.369873046875 -16.39013671875
-10.36181640625 1.0330810546875 1.8369140625
-26.46337890625 9.1820068359375 -17.404541015625
40.425048828125 -2.5406494140625 -13.846923828125
-1.905517578125 3.7105712890625 16.76953125
18.14599609375 -2.684814453125 -16.73583984375
-4.44189453125 2.6142578125 12.595458984375
20.71044921875 -2.4249267578125 -16.15380859375
-27.17138671875 18.48095703125 -19.21240234375
-21.9208984375 -1.2664794921875 -14.217529296875
32.0 1.88134765625 10.99072265625
5.639404296875 1.2874755859375 44.537109375
11.5830078125 4.1868896484375 33.064208984375
32.886962890625 2.4349365234375 14.067138671875
12.391357421875 0.3887939453125 0.617919921875
-15.82373046875 -2.8275146484375 57.20361328125
5.797119140625 1.5479736328125 48.302001953125
-25.3310546875 1.97119140625 2.449951171875
-2.529296875 -1.47314453125 -9.2998046875
15.013916015625 4.959716796875 28.3525390625
42.515869140625 1.509521484375 8.99609375
-25.639404296875 1.0426025390625 77.209716796875
18.910888671875 -1.4013671875 -9.037841796875
-10.51953125 1.173583984375 31.82421875
-13.920654296875 -0.440185546875 -8.88818359375
22.362548828125 4.3536376953125 24.443115234375
-8.037353515625 -1.1483154296875 -9.84033203125
22.3798828125 -1.93017578125 -11.49462890625
-12.031494140625 -1.583740234375 65.80615234375
20.895263671875 0.5714111328125 3.652587890625
15.6494140625 -0.0264892578125 -0.15283203125
2.23486328125 0.0396728515625 51.38671875
16.680419921875 6.8138427734375 38.890625
-19.827392578125 45.3763427734375 -31.5244140625
-18.476806640625 44.8648681640625 -33.340087890625
7.874267578125 -2.8223876953125 -18.063720703125
-11.346923828125 -3.1895751953125 50.777099609375
4.8994140625 -1.73974609375 -12.262939453125
41.95556640625 -4.4039306640625 -24.908935546875
-19.711669921875 47.030517578125 -35.836181640625
28.842041015625 1.8045654296875 12.05908203125
25.556396484375 1.4881591796875 9.576171875
38.4404296875 -0.31689453125 -1.468994140625
41.94677734375 -5.02783203125 -30.79541015625
22.58447265625 4.970703125 29.15869140625
14.037353515625 1.9202880859375 10.2890625
-0.880615234375 -0.5416259765625 47.762451171875
2.80810546875 0.996337890625 43.579345703125
-1.64208984375 0.5379638671875 1.97314453125
-12.678466796875 43.7462158203125 -31.501220703125
-13.69970703125 -1.197509765625 66.96484375
-5.66650390625 1.7640380859375 28.319580078125
-25.886474609375 -2.5072021484375 58.48828125
-6.8564453125 3.0631103515625 24.617431640625
0.10986328125 -2.7662353515625 -18.145263671875
-10.8525390625 -2.3880615234375 -17.305908203125
16.967041015625 -3.6177978515625 -23.5283203125
5.00048828125 2.5687255859375 12.7392578125
-14.576416015625 1.138916015625 -7.7412109375
9.9921875 2.8292236328125 16.255859375
19.9306640625 -4.1707763671875 -25.865478515625
-24.58447265625 -3.3760986328125 53.403076171875
3.67333984375 2.642578125 36.579833984375
46.981689453125 0.53271484375 2.2685546875
0.67724609375 2.2947998046875 11.692138671875
-21.0029296875 45.265380859375 -37.5068359375
-23.425537109375 -0.4088134765625 -7.734130859375
-27.523681640625 -2.1202392578125 59.657470703125
43.200439453125 -4.9141845703125 -28.418701171875
2.646240234375 3.28369140625 16.152587890625
24.4326171875 -2.2938232421875 -13.6044921875
-7.9521484375 -0.584716796875 -7.560546875
17.2138671875 -2.028076171875 -14.116943359375
-24.094970703125 4.255859375 2.347900390625
-16.60107421875 -1.6207275390625 -12.50341796875
21.683349609375 6.292236328125 34.7001953125
11.058349609375 -3.5814208984375 -23.710693359375
-21.567626953125 -0.922119140625 -10.739013671875
32.85009765625 -0.801513671875 -6.4541015625
2.182861328125 0.9619140625 4.14892578125
23.92578125 -4.3587646484375 -26.580078125
38.543701171875 -3.348876953125 -18.2392578125
-27.391357421875 9.4627685546875 -9.48583984375
-24.129150390625 -2.0654296875 61.0205078125
40.727783203125 -0.32373046875 -0.00390625
34.116455078125 -2.5235595703125 -15.65576171875
44.6044921875 -4.140869140625 -24.32568359375
34.60107421875 -2.1480712890625 -10.467529296875
21.8984375 1.359375 7.07080078125
-4.884033203125 1.4736328125 32.401611328125
22.328857421875 0.84033203125 5.153564453125
26.640869140625 -2.1492919921875 -14.491455078125
7.2265625 3.5975341796875 19.210693359375
-3.89599609375 1.96923828125 30.1884765625
43.419189453125 -2.0228271484375 -11.318603515625
4.492431640625 3.0091552734375 15.2333984375
3.573486328125 -2.892578125 -19.2919921875
15.356689453125 -3.4759521484375 -21.919189453125
13.01708984375 -3.4332275390625 -22.82666015625
11.359375 4.505859375 28.765625
36.635986328125 -0.0194091796875 -8.351318359375
-12.207763671875 0.2928466796875 34.532958984375
41.57861328125 -4.6641845703125 -26.881103515625
6.372802734375 4.2781982421875 25.794921875
-25.0751953125 19.6199951171875 -13.552001953125
0.377197265625 -0.9705810546875 -6.845703125
37.63232421875 -4.408203125 -26.843505859375
39.7216796875 0.2919921875 -7.391357421875
2.361083984375 -0.2591552734375 -3.689697265625
8.52099609375 3.2752685546875 45.79638671875
11.1396484375 2.4676513671875 12.9599609375
10.26708984375 -2.764404296875 -17.268798828125
-18.197509765625 -1.2889404296875 63.070068359375
29.22412109375 -0.951171875 -6.224853515625
48.400390625 -1.2161865234375 -13.653076171875
43.430419921875 -2.4705810546875 -13.2314453125
19.61669921875 -0.098388671875 -0.882080078125
10.672607421875 4.553955078125 26.862060546875
-11.952392578125 3.3170166015625 11.86865234375
-4.693115234375 -1.7244873046875 51.20654296875
-13.17431640625 -2.5567626953125 45.94189453125
31.259765625 3.28369140625 18.76513671875
-26.242919921875 9.4022216796875 -0.49609375
18.612548828125 1.04296875 4.587890625
-15.87744140625 -0.5194091796875 -8.68017578125
-12.15625 -0.49169921875 -7.8115234375
22.5146484375 0.5745849609375 2.56640625
43.15625 0.7501220703125 4.99267578125
4.761962890625 -0.6993408203125 -5.82177734375
-0.76953125 1.445068359375 7.46337890625
-4.51318359375 -0.487548828125 43.82861328125
6.62158203125 -0.35205078125 -3.427734375
-15.60302734375 1.9630126953125 -2.005615234375
47.851318359375 -2.564208984375 -22.1259765625
19.39404296875 8.41650390625 36.4482421875
-9.007568359375 -2.341064453125 -16.32763671875
0.552001953125 3.4530029296875 18.814697265625
-26.248046875 16.9510498046875 -16.587158203125
42.275390625 -3.516357421875 -19.97998046875
17.7802734375 -0.3135986328125 -2.849853515625
10.886962890625 0.020751953125 -0.777587890625
42.636962890625 -0.139892578125 1.438720703125
35.18017578125 -3.5367431640625 -20.34228515625
5.03173828125 2.244140625 10.836669921875
26.9189453125 -1.07958984375 -8.131591796875
13.748291015625 3.7303466796875 39.89892578125
6.397216796875 2.745361328125 37.717529296875
21.880859375 6.317626953125 15.185546875
32.8203125 -4.2569580078125 -24.6669921875
41.873046875 -5.5885009765625 -32.645263671875
9.076416015625 4.0648193359375 21.96435546875
-7.120361328125 1.181640625 3.3251953125
34.497314453125 -3.16357421875 -17.54736328125
39.795166015625 1.395263671875 -9.971923828125
-4.15869140625 -2.836181640625 -19.367431640625
-26.59423828125 -1.151123046875 64.909912109375
46.56591796875 -0.703125 -3.302734375
14.521728515625 0.9117431640625 5.49951171875
13.6923828125 -1.90380859375 -12.981201171875
-5.386474609375 0.0487060546875 -1.26513671875
-20.02734375 -1.176513671875 64.47021484375
-27.034423828125 3.6947021484375 0.566650390625
10.821533203125 1.573974609375 7.2939453125
-10.50341796875 1.32470703125 4.90234375
24.236328125 -3.891357421875 -23.046875
26.20849609375 0.8372802734375 5.51708984375
8.97900390625 -3.007568359375 -20.010986328125
9.304931640625 -2.380126953125 -15.54736328125
23.47265625 0.064208984375 0.4501953125
-8.44140625 45.3963623046875 -29.566162109375
-26.90625 7.9534912109375 -1.828857421875
22.143798828125 -0.57568359375 -3.567626953125
-5.130859375 -1.7784423828125 54.802734375
-31.306640625 -0.4185791015625 69.0556640625
-2.191650390625 -1.4993896484375 54.240478515625
20.304443359375 4.58837890625 26.47802734375
32.1513671875 1.650390625 8.94970703125
-3.06591796875 3.13134765625 24.40380859375
-11.02880859375 43.207763671875 -30.46337890625
26.6708984375 3.818115234375 22.4501953125
16.294189453125 2.3399658203125 13.533203125
12.059814453125 1.96875 10.896728515625
47.37890625 -0.3997802734375 -7.16748046875
-22.053466796875 0.248046875 -3.273193359375
23.462158203125 4.4512939453125 20.335693359375
48.19189453125 -3.34033203125 -27.41552734375
7.168701171875 -1.444091796875 -9.3896484375
-11.8876953125 -2.79541015625 57.9658203125
0.69189453125 3.7430419921875 23.2783203125
17.4697265625 2.2698974609375 11.597412109375
38.79248046875 -3.4937744140625 -20.50048828125
1.509521484375 2.552001953125 30.65087890625
-25.580078125 0.9920654296875 -6.472900390625
-18.770751953125 -1.681884765625 -15.015625
-13.04736328125 1.4776611328125 -1.9541015625
-1.394775390625 -1.5533447265625 -11.306640625
-8.430419921875 -2.4522705078125 56.720458984375
13.95751953125 4.6324462890625 35.110107421875
-27.642578125 9.9017333984375 -3.14501953125
19.59912109375 3.306396484375 14.954833984375
12.463134765625 -1.4840087890625 -8.9716796875
6.125244140625 -3.2823486328125 -22.16748046875
-23.75341796875 12.309326171875 -24.98095703125
-7.320556640625 -2.5938720703125 54.060791015625
-16.75537109375 42.622314453125 -31.544677734375
-21.587158203125 -0.559326171875 -8.26708984375
7.52197265625 4.0545654296875 22.986328125
5.485107421875 -2.88037109375 -18.857421875
8.819091796875 4.5364990234375 26.4072265625
49.620849609375 -0.2286376953125 -10.873291015625
3.348388671875 1.020263671875 2.623046875
-7.23046875 2.2188720703125 10.0869140625
-14.13916015625 -2.0328369140625 -15.845947265625
14.26220703125 -0.3292236328125 -2.195556640625
-0.7470703125 1.1187744140625 5.552490234375
-8.7744140625 -1.8404541015625 46.57763671875
7.908447265625 1.9918212890625 9.54931640625
-19.5224609375 -0.129638671875 69.767822265625
44.251220703125 -3.0528564453125 -17.604248046875
-29.2431640625 0.02685546875 72.8486328125
-7.606689453125 0.8428955078125 1.5888671875
41.880615234375 -0.775634765625 -2.808349609375
39.393310546875 -5.04833984375 -31.02587890625
10.290771484375 -1.5460205078125 -11.517822265625
-17.849853515625 44.6614990234375 -29.29150390625
-26.319580078125 10.0025634765625 -19.835693359375
-26.2763671875 18.283447265625 -13.170654296875
43.502685546875 -1.3203125 -5.71337890625
-18.79638671875 -1.315673828125 -12.522216796875
16.064453125 -1.980224609375 -12.626220703125
-0.02880859375 -0.7557373046875 51.125
32.979736328125 -2.0640869140625 -12.79833984375
-0.767333984375 0.6519775390625 40.87744140625
20.887451171875 -3.7674560546875 -23.669921875
33.111328125 3.3321533203125 19.750244140625
25.800048828125 -4.136474609375 -24.55615234375
1.904541015625 -1.404541015625 -9.80517578125
31.20751953125 -2.9388427734375 -18.2890625
44.962158203125 -2.2291259765625 -12.245849609375
39.8720703125 0.2724609375 4.7744140625
-10.09326171875 -0.4598388671875 36.458740234375
-19.70361328125 0.685791015625 76.287841796875
41.7158203125 1.0013427734375 -10.87451171875
-13.20947265625 -1.4422607421875 -12.201904296875
48.436767578125 -0.3475341796875 -0.85400390625
1.8095703125 -0.702392578125 -5.3486328125
-7.016845703125 -2.2760009765625 61.024169921875
12.25732421875 -2.9581298828125 -18.386962890625
18.249755859375 -3.0633544921875 -19.302734375
29.199951171875 3.9493408203125 25.790283203125
29.656494140625 -3.76513671875 -21.641845703125
6.548583984375 1.5306396484375 6.5791015625
17.264892578125 5.3958740234375 35.11328125
-4.3134765625 -1.25439453125 -9.405029296875
-31.27392578125 -0.964111328125 65.18017578125
12.692626953125 -2.2652587890625 -14.5859375
39.785400390625 0.1591796875 1.590576171875
-11.332275390625 -1.126220703125 40.353271484375
-8.14208984375 -1.064208984375 44.837158203125
25.164306640625 -1.0108642578125 -5.91357421875
26.121337890625 4.6798095703125 26.725341796875
-2.592041015625 2.0155029296875 9.775146484375
16.365478515625 -1.05419921875 -6.7666015625
34.766845703125 2.1856689453125 13.658447265625
-0.251953125 -0.880615234375 -5.041015625
-22.072021484375 -3.030029296875 56.768310546875
-18.686767578125 2.2882080078125 66.00634765625
-26.228759765625 0.2523193359375 74.186767578125
-1.86328125 1.77001953125 31.757568359375
-14.03662109375 -1.640380859375 63.553955078125
-11.3984375 -2.350830078125 59.92822265625
16.197021484375 2.9906005859375 17.341552734375
-15.57275390625 1.16162109375 2.9794921875
-22.437744140625 -1.078369140625 -12.515869140625
-3.535400390625 45.8658447265625 -31.009765625
8.82861328125 4.08203125 31.918701171875
22.103759765625 4.185791015625 22.0126953125
24.617431640625 -0.41552734375 -2.8681640625
26.99609375 2.1859130859375 12.900146484375
11.40283203125 4.4156494140625 24.124267578125
-22.728515625 -2.9619140625 50.10986328125
42.280517578125 -0.8623046875 -9.0302734375
30.777587890625 -1.6297607421875 -9.57275390625
-26.739501953125 12.52197265625 -15.580322265625
19.349609375 1.2642822265625 7.435791015625
15.157470703125 0.6927490234375 3.28076171875
-6.2998046875 0.41943359375 0.390380859375
-27.284912109375 14.6517333984375 -18.837890625
-13.892333984375 4.031005859375 -8.135009765625
-1.989501953125 0.394775390625 0.0244140625
29.42138671875 -1.666748046875 -10.76416015625
29.336181640625 -2.211181640625 -12.55126953125
25.247314453125 1.344970703125 7.617919921875
-7.53369140625 -2.1064453125 -15.371337890625
-6.984375 -2.2984619140625 -17.09716796875
5.33349609375 -0.888916015625 -7.5302734375
6.286865234375 0.266845703125 -1.605712890625
16.44189453125 4.195068359375 24.815673828125
-22.00634765625 -0.1444091796875 -6.257080078125
-12.796630859375 -2.0703125 62.058837890625
8.046142578125 -3.270263671875 -21.733642578125
-6.250732421875 0.409423828125 35.13818359375
-1.12451171875 -1.337890625 -8.238525390625
14.326171875 -1.7396240234375 -9.412353515625
23.5126953125 5.0799560546875 15.59326171875
-17.84521484375 46.98486328125 -34.08349609375
-9.515625 -2.49072265625 54.14501953125
23.774169921875 2.56298828125 13.108642578125
-10.29248046875 -2.034912109375 63.712890625
2.333251953125 3.8201904296875 21.65283203125
47.144775390625 -1.893310546875 -14.963134765625
-13.793701171875 0.916015625 2.565185546875
26.398193359375 -2.89697265625 -16.06591796875
31.35302734375 3.679931640625 23.219482421875
3.098876953125 4.318115234375 25.746337890625
44.450439453125 -0.784423828125 -3.096923828125
-8.685791015625 0.0672607421875 34.619140625
-14.03564453125 -2.9058837890625 52.35595703125
-26.9501953125 7.9500732421875 -7.297607421875
-11.69921875 2.452880859375 -5.40869140625
-20.232421875 -2.8369140625 57.055419921875
14.362548828125 2.355712890625 13.6083984375
10.63916015625 1.703125 9.41357421875
-21.990478515625 1.3519287109375 2.873779296875
5.946044921875 3.2413330078125 16.18212890625
13.70361328125 4.63720703125 25.86279296875
17.279052734375 1.214599609375 8.15234375
-29.260986328125 -1.4263916015625 63.97119140625
-27.1298828125 10.7816162109375 -16.246826171875
1.128662109375 2.9534912109375 15.302734375
14.64013671875 3.1129150390625 18.8056640625
-19.723876953125 0.2740478515625 -3.020751953125
31.880126953125 0.47021484375 2.29541015625
24.1767578125 4.98291015625 28.14453125
-1.53125 2.4403076171875 28.068115234375
15.48486328125 2.9061279296875 14.968994140625
41.790283203125 -2.5030517578125 -12.644287109375
-11.624755859375 45.0211181640625 -29.945556640625
-25.81494140625 13.2640380859375 -22.750244140625
-15.052734375 -0.191650390625 72.795166015625
-21.918212890625 0.270263671875 74.380126953125
-3.025390625 0.8631591796875 3.272216796875
31.260009765625 1.0933837890625 5.852783203125
21.065185546875 -0.430908203125 -2.211181640625
-15.99951171875 1.89404296875 6.8544921875
-8.001220703125 -0.7353515625 41.057861328125
35.91455078125 -0.613525390625 -2.6181640625
46.664306640625 -1.0452880859375 -5.303955078125
-26.687255859375 3.1904296875 -1.31884765625
16.877685546875 4.6888427734375 27.45703125
2.745849609375 1.2406005859375 41.412841796875
37.7119140625 -2.4783935546875 -15.80224609375
-14.658203125 45.0234375 -29.5
-5.015869140625 45.0645751953125 -30.46337890625
-25.901123046875 -2.8160400390625 56.78515625
-8.193603515625 1.4794921875 28.8125
-24.218505859375 -0.8284912109375 -12.079345703125
-25.73828125 0.052490234375 72.319580078125
-15.478515625 0.6259765625 68.599853515625
3.455078125 3.781494140625 28.109619140625
-0.0927734375 1.6312255859375 35.91357421875
21.374267578125 -2.6563720703125 -18.470947265625
5.610107421875 4.2275390625 23.982421875
-13.327392578125 3.1846923828125 10.829833984375
20.074951171875 6.131103515625 16.962890625
-26.137939453125 7.6156005859375 -13.97412109375
26.578369140625 -0.5699462890625 -3.4072265625
31.404296875 2.62841796875 14.9287109375
31.158935546875 -4.3134765625 -27.497314453125
5.724853515625 3.138916015625 33.55126953125
-19.727783203125 43.7216796875 -38.474365234375
43.90869140625 -3.6240234375 -21.038818359375
10.505859375 3.1060791015625 40.290771484375
-12.781005859375 -0.8702392578125 68.380859375
-3.2412109375 -0.334716796875 -5.54638671875
25.590087890625 2.050537109375 11.837890625
-17.294921875 1.113037109375 63.0751953125
29.00244140625 2.4345703125 13.68701171875
40.891357421875 -4.145751953125 -23.5869140625
35.51416015625 1.06884765625 7.218994140625
-24.405029296875 2.9903564453125 3.469970703125
-0.476806640625 -0.970703125 53.863525390625
42.785888671875 -2.7425537109375 -16.775634765625
-8.825439453125 -2.2237548828125 61.50634765625
-7.878173828125 -2.3734130859375 52.11279296875
27.414306640625 -4.1065673828125 -25.162109375
-17.7939453125 -0.3021240234375 -7.0732421875
47.27783203125 -4.500244140625 -29.6376953125
2.5234375 0.10205078125 49.281005859375
-11.29150390625 -2.7833251953125 52.4326171875
12.229736328125 0.6536865234375 3.197509765625
3.9970703125 1.6314697265625 8.4267578125
8.560302734375 -0.37158203125 -3.525634765625
-26.124267578125 15.5245361328125 -15.4609375
-3.781005859375 0.07763671875 40.18994140625
-13.63720703125 -1.4134521484375 65.19287109375
22.330322265625 -0.846435546875 -6.192626953125
-15.73095703125 0.0966796875 63.802978515625
-20.9521484375 -0.1439208984375 66.4013671875
-15.237548828125 2.31787109375 66.918701171875
15.1318359375 0.26123046875 1.440185546875
12.990966796875 4.903564453125 29.013427734375
-23.57080078125 0.677734375 75.95849609375
8.096923828125 0.6455078125 1.316162109375
-23.38134765625 -0.5765380859375 71.149169921875
40.90185546875 -3.554443359375 -21.19189453125
-8.7763671875 0.3094482421875 32.429443359375
37.0625 -1.8348388671875 -12.12451171875
38.065185546875 2.0718994140625 14.31689453125
-11.685302734375 -0.7779541015625 -9.404541015625
-13.53662109375 -2.43603515625 58.67822265625
-28.275634765625 0.4383544921875 74.16455078125
-1.76513671875 3.3580322265625 22.254150390625
41.6162109375 -0.2525634765625 -12.110595703125
-17.474853515625 -2.6043701171875 43.81298828125
18.273193359375 3.174560546875 17.075927734375
2.669189453125 3.9560546875 23.54052734375
-4.7607421875 -1.0364990234375 47.281982421875
-23.767822265625 -1.1141357421875 -13.6728515625
3.30517578125 1.5123291015625 5.509521484375
-17.96630859375 -3.536865234375 52.5107421875
26.475341796875 -2.0439453125 -12.82373046875
16.15966796875 6.28173828125 40.436767578125
22.5751953125 -2.512939453125 -15.6044921875
39.345458984375 -3.9351806640625 -22.6357421875
39.590576171875 -5.131103515625 -29.2744140625
24.318359375 -3.03271484375 -19.776123046875
1.879638671875 1.9654541015625 36.59619140625
-13.247802734375 -0.4117431640625 36.390380859375
44.255859375 -5.3150634765625 -30.217041015625
23.85009765625 4.3660888671875 17.087158203125
-4.695556640625 1.3076171875 3.486572265625
-4.18701171875 2.275146484375 25.9189453125
29.077880859375 3.42431640625 20.934814453125
-19.846923828125 -3.6976318359375 52.699951171875
-5.501220703125 0.00048828125 38.75341796875
-7.5703125 -0.0565185546875 36.3955078125
46.9150390625 -0.0098876953125 0.49365234375
16.527587890625 4.85791015625 38.275634765625
10.635498046875 2.747802734375 14.512939453125
-9.799560546875 -2.6700439453125 55.814697265625
-26.468994140625 3.10205078125 -4.600341796875
0.654052734375 3.420654296875 26.13720703125
-21.480224609375 -2.2197265625 59.877197265625
8.996337890625 2.2183837890625 44.392822265625
-14.50927734375 -0.7464599609375 38.0380859375
-18.427001953125 0.8302001953125 1.520751953125
-12.7109375 0.98974609375 -8.278076171875
5.827392578125 1.788818359375 41.611328125
34.6962890625 -4.4857177734375 -24.5703125
-19.79296875 -0.151123046875 -4.83935546875
44.787109375 -0.2276611328125 0.24951171875
-1.896728515625 3.3558349609375 19.147705078125
4.42578125 0.384765625 -1.613525390625
31.4033203125 -2.2686767578125 -13.219970703125
19.3818359375 -1.0518798828125 -7.24755859375
-17.898193359375 1.0947265625 -2.688720703125
-1.93017578125 -2.3360595703125 -14.94970703125
-26.746826171875 5.4613037109375 -14.757080078125
28.114013671875 -4.6583251953125 -29.009765625
36.58447265625 0.221435546875 3.14111328125
20.51171875 8.391357421875 35.10693359375
-11.864501953125 -1.6851806640625 42.425048828125
-21.5791015625 0.780517578125 -0.058349609375
37.629150390625 0.984619140625 6.05322265625
13.674560546875 3.9285888671875 22.724853515625
41.232666015625 -3.12255859375 -18.21630859375
-5.949462890625 -1.758544921875 50.125
-26.668701171875 7.9776611328125 -10.7412109375
-24.076416015625 -2.77783203125 56.21728515625
16.63671875 5.128173828125 31.36865234375
38.227783203125 1.8411865234375 12.280517578125
-2.1572265625 1.3114013671875 6.414794921875
1.832763671875 3.54638671875 28.787109375
7.2255859375 2.172119140625 43.44140625
25.028076171875 -0.033935546875 -0.543212890625
-6.718017578125 45.7576904296875 -29.8486328125
19.87060546875 -3.513671875 -22.3671875
17.339599609375 3.96240234375 20.49658203125
-4.5791015625 -2.4439697265625 -17.84765625
-19.773193359375 1.6378173828125 77.99853515625
6.3212890625 -2.0753173828125 -13.612548828125
1.080322265625 -3.014892578125 -19.42138671875
10.511962890625 3.8369140625 36.204345703125
-13.013671875 -2.69482421875 47.970703125
26.294677734375 -0.09814453125 0.736328125
-0.881591796875 1.9962158203125 11.3662109375
3.11572265625 -0.3341064453125 -2.23876953125
-25.7685546875 8.354248046875 -19.7841796875
-5.9609375 1.670166015625 8.48388671875
7.65966796875 4.4710693359375 27.855224609375
37.52783203125 -4.195556640625 -25.24267578125
27.0302734375 1.29296875 8.7060546875
10.593505859375 2.824462890625 41.982177734375
-13.333984375 -0.787841796875 69.897216796875
-26.15478515625 9.39892578125 -13.768310546875
46.396240234375 -1.6422119140625 -9.239990234375
0.0830078125 2.32421875 29.71533203125
11.439208984375 -0.60107421875 -4.328857421875
47.818359375 -3.4366455078125 -25.457763671875
-18.95751953125 -2.1204833984375 43.418701171875
-8.471435546875 -0.4453125 38.474853515625
-7.583740234375 -1.741943359375 48.62548828125
-5.79345703125 0.9185791015625 33.603759765625
28.42138671875 3.7987060546875 27.185791015625
31.272216796875 -4.18505859375 -24.172607421875
-1.017822265625 2.9300537109375 25.98779296875
8.125244140625 0.0157470703125 -2.032958984375
7.461181640625 3.2811279296875 15.6640625
-28.4228515625 -0.3428955078125 71.000732421875
-18.994140625 43.6280517578125 -35.106689453125
17.560302734375 3.8702392578125 22.0791015625
47.4296875 -2.4869384765625 -19.161865234375
3.09130859375 0.385498046875 45.929931640625
32.232177734375 -1.3558349609375 -8.043701171875
-25.842529296875 -1.5860595703125 63.569091796875
42.8642578125 -4.273193359375 -23.60205078125
-5.87109375 -2.44873046875 57.91552734375
-20.74169921875 -0.2706298828125 72.548828125
2.851318359375 2.4940185546875 34.89697265625
-3.911865234375 1.362548828125 5.343994140625
-2.53466796875 -0.19140625 44.021484375
46.47705078125 -1.6959228515625 -13.185546875
25.304443359375 -1.2490234375 -8.003662109375
-17.154541015625 0.630859375 76.55859375
-5.5478515625 2.14404296875 24.890625
32.619873046875 -0.224853515625 -2.37744140625
-29.324951171875 0.2967529296875 75.478271484375
9.7333984375 2.9271240234375 38.10986328125
39.648193359375 3.5308837890625 13.27294921875
2.887939453125 3.1929931640625 17.732666015625
-16.250244140625 4.7520751953125 64.1279296875
6.667236328125 3.6395263671875 35.97412109375
35.981201171875 -2.302734375 -13.6416015625
29.969482421875 0.58935546875 2.283447265625
-15.227294921875 -2.92138671875 59.507080078125
-16.0341796875 3.1539306640625 -5.564453125
-14.791259765625 1.1484375 64.728759765625
29.2568359375 3.03515625 17.976318359375
6.551025390625 2.28271484375 10.30859375
40.91552734375 -2.9425048828125 -15.398193359375
12.13623046875 4.3372802734375 25.523681640625
-19.412109375 -1.192138671875 -10.180908203125
-26.671142578125 7.1300048828125 1.471435546875
16.05810546875 -3.7462158203125 -24.8154296875
-12.014892578125 -2.291015625 44.90234375
25.734619140625 -3.78857421875 -22.52001953125
23.8466796875 -3.388671875 -21.602783203125
35.2607421875 -4.6795654296875 -29.2548828125
26.59716796875 -3.176513671875 -18.752685546875
-14.83544921875 -1.838623046875 -12.4013671875
38.916015625 -2.644287109375 -14.37939453125
-0.696533203125 0.4097900390625 43.0400390625
31.53564453125 -2.6484375 -15.79296875
-7.135986328125 -0.3167724609375 39.48388671875
46.195068359375 -4.837890625 -30.726318359375
43.65869140625 -5.1767578125 -32.463134765625
9.94677734375 4.6912841796875 29.583251953125
38.610107421875 -4.7691650390625 -28.057373046875
33.508544921875 1.8192138671875 10.5546875
-11.372802734375 1.9818115234375 7.906982421875
36.706298828125 2.764892578125 16.377685546875
-29.098876953125 -1.6441650390625 60.742431640625
-6.06689453125 0.2305908203125 36.735595703125
