35.228515625 5.25927734375 14.377197265625
22.5908203125 7.27294921875 16.711181640625
-16.366455078125 0.3580322265625 38.12353515625
9.15234375 0.7757568359375 -19.060302734375
6.94482421875 4.9534912109375 9.263671875
-12.418701171875 -1.0523681640625 57.36865234375
-14.168701171875 -1.566650390625 51.20068359375
11.799072265625 3.90771484375 3.837158203125
-11.873779296875 2.48486328125 -10.57666015625
22.137451171875 2.8199462890625 -2.320556640625
19.238525390625 1.1646728515625 -16.2333984375
12.792236328125 6.77734375 23.026123046875
-14.337158203125 -1.254638671875 46.789306640625
21.100341796875 0.1580810546875 -23.19482421875
2.658203125 2.4931640625 43.705322265625
17.3662109375 6.4373779296875 19.376220703125
23.52001953125 4.2135009765625 7.262939453125
7.34130859375 6.4124755859375 26.898193359375
38.4384765625 0.8924560546875 -16.385009765625
-30.691650390625 0.214599609375 65.179931640625
40.868408203125 1.9014892578125 -5.99560546875
8.94873046875 5.8046875 32.81689453125
-10.201904296875 5.06396484375 8.382080078125
44.540283203125 0.486328125 -15.331787109375
-28.22998046875 17.822509765625 -24.8515625
-15.442138671875 -1.2576904296875 56.01806640625
8.855224609375 6.660888671875 23.769287109375
29.477294921875 -0.03369140625 -20.36865234375
-6.669921875 1.7489013671875 -14.4404296875
-17.796875 -1.0753173828125 58.398681640625
18.30712890625 0.65185546875 -18.791015625
-8.045166015625 1.80615234375 35.63525390625
-5.9169921875 6.4627685546875 18.263916015625
-0.556884765625 5.959228515625 17.5
-26.629638671875 12.3719482421875 -23.180419921875
17.973388671875 1.7093505859375 -11.89892578125
-1.34765625 4.119140625 29.58251953125
46.037109375 0.305419921875 -21.750244140625
-27.990478515625 21.4141845703125 -10.42626953125
-20.01123046875 3.8408203125 -5.721923828125
-14.802734375 4.904541015625 7.393310546875
-5.272705078125 -0.53466796875 52.248046875
-18.80712890625 4.431640625 61.028564453125
-22.39111328125 0.7760009765625 62.561767578125
-2.64892578125 0.48193359375 -22.408447265625
-16.287109375 2.5111083984375 63.445068359375
-21.507080078125 -0.7630615234375 58.28857421875
-26.854248046875 4.8582763671875 -0.56494140625
39.59375 3.6309814453125 5.36181640625
-22.786376953125 0.4591064453125 68.328857421875
-24.9091796875 -1.4566650390625 54.1484375
-12.181396484375 1.11962890625 -19.06201171875
41.705322265625 2.447998046875 -2.9140625
18.24951171875 4.58544921875 8.61865234375
-17.548828125 0.816162109375 69.4248046875
-8.569091796875 3.8046875 -0.01513671875
41.9208984375 3.5711669921875 3.106689453125
14.22802734375 1.1102294921875 -15.59814453125
-3.848876953125 3.48681640625 -1.836181640625
-6.579345703125 6.1365966796875 10.551513671875
-28.685791015625 8.0584716796875 -6.134521484375
21.560302734375 2.53759765625 -6.18505859375
-27.94873046875 17.72265625 -7.046875
-27.85205078125 -0.97265625 56.03662109375
12.07568359375 1.991455078125 -10.167724609375
-21.4931640625 1.6572265625 74.4052734375
-27.496826171875 5.2701416015625 -10.68115234375
26.019775390625 5.005859375 13.190673828125
3.864501953125 6.3970947265625 21.413330078125
10.138916015625 1.597412109375 -11.907470703125
-3.199462890625 4.7130126953125 25.23779296875
13.401611328125 6.0396728515625 18.8095703125
21.10205078125 6.95703125 18.914306640625
16.0439453125 7.159423828125 28.337158203125
-14.32275390625 4.7626953125 -10.487060546875
-8.61669921875 4.2783203125 2.771484375
21.078369140625 6.456787109375 23.33935546875
-11.50634765625 0.228271484375 41.61181640625
10.426025390625 5.82080078125 18.84326171875
29.970947265625 4.63818359375 11.224365234375
-2.326904296875 5.3602294921875 13.899169921875
-28.626953125 0.9913330078125 69.983642578125
38.9208984375 -0.6241455078125 -25.3037109375
-27.74658203125 10.267578125 -18.368408203125
-31.35546875 -0.1942138671875 61.082275390625
-7.939453125 -1.1302490234375 52.91845703125
15.439453125 1.6328125 -11.540283203125
2.914306640625 0.233154296875 -21.94873046875
-15.53759765625 -0.3221435546875 61.428955078125
-28.137451171875 5.6925048828125 -16.1494140625
25.728759765625 -1.271484375 -30.311767578125
1.279296875 4.72216796875 29.86865234375
46.469970703125 1.73828125 -7.11376953125
-12.00634765625 -0.326171875 64.60693359375
1.544677734375 3.4423828125 0.126220703125
38.359375 2.0526123046875 -5.311279296875
-27.498046875 -0.42333984375 59.714111328125
13.79248046875 3.690185546875 2.32080078125
-17.7412109375 3.1275634765625 -9.1005859375
-10.8798828125 47.041259765625 -31.951904296875
-26.23583984375 1.014892578125 71.579833984375
-4.2548828125 6.779052734375 9.859619140625
-7.254638671875 -1.228271484375 57.46435546875
13.58349609375 5.3817138671875 14.631103515625
42.817626953125 -1.181884765625 -29.542724609375
3.81103515625 3.9356689453125 3.21533203125
-0.0205078125 2.6666259765625 -6.160888671875
37.156982421875 4.040771484375 -11.29296875
18.34912109375 7.20947265625 32.12548828125
41.48583984375 -0.6490478515625 -25.593994140625
2.38037109375 1.9327392578125 46.560546875
25.177001953125 0.4798583984375 -19.327392578125
30.687255859375 -1.1175537109375 -29.355224609375
9.012939453125 5.16796875 36.190673828125
-16.545654296875 1.880615234375 -13.851806640625
11.364013671875 2.536376953125 -6.073486328125
-12.8134765625 5.3641357421875 -8.27099609375
-16.6279296875 3.1402587890625 -2.09228515625
36.43505859375 2.6044921875 -3.5078125
21.0244140625 3.1256103515625 -0.07666015625
17.468505859375 7.8232421875 14.77197265625
-0.50537109375 0.6644287109375 -19.476318359375
21.2646484375 7.180419921875 28.317138671875
39.57080078125 2.8350830078125 -15.517578125
19.541748046875 5.02783203125 11.5263671875
-27.00244140625 15.129638671875 -7.468994140625
-14.43115234375 -0.57666015625 43.493896484375
-8.6416015625 5.2398681640625 23.49951171875
-13.696044921875 3.8160400390625 -4.1171875
1.24169921875 4.646728515625 8.17431640625
3.764892578125 0.5164794921875 -19.73681640625
-29.157470703125 8.49169921875 -8.433349609375
34.99560546875 3.4683837890625 2.680419921875
21.165771484375 5.6944580078125 13.13037109375
-6.886962890625 0.9228515625 -20.74462890625
30.645751953125 3.1871337890625 1.0732421875
-22.3779296875 4.6488037109375 3.83935546875
-21.098876953125 1.787841796875 -15.426025390625
38.8125 -1.2862548828125 -30.33544921875
-2.365234375 2.6519775390625 -6.4365234375
24.281494140625 -0.6622314453125 -28.068115234375
-6.712646484375 3.69921875 26.518798828125
-16.962158203125 5.9376220703125 -5.74560546875
-14.725830078125 0.4642333984375 69.361572265625
10.2900390625 4.679443359375 38.12060546875
7.77685546875 0.056640625 -22.9404296875
33.46240234375 3.828369140625 4.47265625
13.850341796875 6.095458984375 35.65234375
8.227294921875 6.553466796875 21.005615234375
27.873046875 3.9156494140625 6.13623046875
15.7958984375 3.471435546875 0.796875
26.586669921875 1.61572265625 -10.87744140625
-27.833984375 22.8980712890625 -25.221923828125
-13.659912109375 3.605712890625 -1.337158203125
-12.828125 1.2066650390625 35.029541015625
-5.3173828125 2.03564453125 -12.439453125
10.76025390625 5.241943359375 40.5302734375
43.470703125 3.0775146484375 0.868408203125
-18.016845703125 -0.880615234375 42.35595703125
0.7958984375 2.62744140625 41.247314453125
12.98486328125 2.3677978515625 -8.0771484375
-10.294677734375 2.31201171875 30.558349609375
-13.629150390625 1.513916015625 -16.714599609375
-22.560791015625 2.6875 -9.769287109375
35.69580078125 0.321044921875 -17.22802734375
6.534423828125 4.1514892578125 39.54541015625
-8.072998046875 2.686279296875 -9.88330078125
-25.981201171875 2.6416015625 -12.819580078125
-14.33984375 0.534912109375 36.919921875
11.499755859375 3.064697265625 -1.21484375
-10.156982421875 3.3214111328125 -4.9052734375
12.697998046875 4.27783203125 5.8896484375
-18.96337890625 2.844970703125 65.76806640625
0.928955078125 3.94189453125 3.608642578125
-15.826904296875 0.0775146484375 65.819091796875
0.16162109375 1.6646728515625 -12.38427734375
-25.25390625 3.359375 -6.741455078125
45.108154296875 0.2056884765625 -19.703369140625
-0.078857421875 5.3297119140625 25.36328125
-8.373779296875 2.6263427734375 -7.6044921875
-27.50390625 11.27783203125 -14.947998046875
14.503662109375 2.7335205078125 -3.519775390625
5.04345703125 1.2984619140625 -14.820556640625
7.23681640625 5.6544189453125 13.80712890625
4.368408203125 5.37451171875 12.843017578125
28.541259765625 5.088134765625 12.88671875
16.73486328125 -0.4210205078125 -26.20703125
-2.399658203125 5.197998046875 9.939208984375
-4.451416015625 3.7001953125 0.296875
30.493896484375 1.2950439453125 -11.908447265625
2.976318359375 4.790283203125 31.302734375
45.307861328125 1.0751953125 -11.66259765625
35.330078125 3.287841796875 -12.301025390625
-7.283203125 4.558837890625 4.729248046875
3.164306640625 4.0157470703125 36.7001953125
-16.762939453125 2.1976318359375 73.28955078125
37.98779296875 -0.2850341796875 -21.371826171875
28.708251953125 -0.357421875 -23.16357421875
-12.541015625 -0.8057861328125 59.552490234375
3.2626953125 3.1812744140625 -3.39453125
-6.869873046875 2.5390625 33.3095703125
39.890380859375 0.0206298828125 -19.485107421875
-6.072265625 3.247802734375 -4.085693359375
-1.26953125 2.48876953125 39.02783203125
8.16943359375 3.8917236328125 43.139404296875
-17.207763671875 4.1282958984375 -0.0517578125
-19.65625 -1.6422119140625 52.796142578125
-28.079833984375 21.1619873046875 -22.1025390625
6.829345703125 1.79248046875 -11.494873046875
-33.13818359375 0.5467529296875 66.075927734375
30.38818359375 -1.4027099609375 -31.826904296875
-27.239501953125 10.5836181640625 -22.059326171875
-26.78125 4.17041015625 -5.287109375
-27.577880859375 6.8897705078125 -0.34326171875
37.6748046875 3.22265625 0.4384765625
-9.837646484375 -0.47802734375 46.39794921875
25.9365234375 6.6864013671875 23.78271484375
5.442626953125 6.3685302734375 19.948974609375
3.141357421875 4.4647216796875 7.1943359375
17.796875 7.6300048828125 34.471923828125
-6.656982421875 3.463623046875 28.653564453125
-16.7958984375 4.5645751953125 63.16162109375
-24.9365234375 3.52734375 -4.34814453125
-0.13671875 1.0673828125 -16.666259765625
-28.03125 21.3380126953125 -27.210205078125
1.74169921875 2.998779296875 39.269775390625
7.107421875 5.9163818359375 29.8056640625
34.588623046875 -0.9776611328125 -28.011962890625
29.315673828125 1.9041748046875 -8.2109375
-17.81689453125 -1.9212646484375 50.5947265625
16.4287109375 6.7611083984375 17.384765625
-17.127685546875 -1.4114990234375 54.729248046875
31.282958984375 5.3382568359375 14.982666015625
-17.268798828125 0.9764404296875 71.50244140625
31.3232421875 1.00048828125 -15.216552734375
-24.615966796875 2.2869873046875 -14.6103515625
41.402587890625 0.38134765625 -18.06396484375
20.681640625 7.6751708984375 11.84423828125
-27.152099609375 13.5467529296875 -5.13037109375
6.82470703125 6.64794921875 24.88134765625
31.354736328125 0.1376953125 -18.933349609375
-25.13916015625 2.1046142578125 75.063720703125
-23.125244140625 4.1302490234375 -0.71142578125
23.12841796875 4.978271484375 13.053466796875
29.744873046875 0.54541015625 -16.52392578125
-0.136474609375 5.940185546875 21.431640625
14.70849609375 5.5029296875 17.273193359375
-27.915771484375 14.020751953125 -19.70849609375
-9.274658203125 -1.0294189453125 49.93017578125
34.46337890625 -1.640625 -33.0517578125
22.736328125 6.145263671875 20.534912109375
-6.208251953125 -0.0517578125 47.930419921875
19.4951171875 1.473876953125 -13.301513671875
11.300537109375 1.3834228515625 -14.288330078125
33.85498046875 1.8218994140625 -9.07666015625
-13.794921875 2.2568359375 -11.345703125
-4.337890625 5.572021484375 19.9453125
40.4453125 3.6490478515625 -11.51123046875
19.75 2.2056884765625 -8.55810546875
39.915283203125 3.337158203125 2.3095703125
37.6552734375 4.1845703125 10.265869140625
-28.391357421875 8.08154296875 -14.23095703125
-2.316650390625 5.49365234375 21.907470703125
-3.669677734375 1.1856689453125 44.46337890625
3.224609375 1.2601318359375 -15.797607421875
45.8349609375 -0.85791015625 -28.01953125
7.141357421875 4.8282470703125 7.222412109375
24.48095703125 5.92724609375 17.619873046875
-22.1416015625 -2.2093505859375 48.73583984375
-28.349853515625 16.7037353515625 -8.78076171875
1.394775390625 2.179931640625 -8.380615234375
8.578857421875 1.0965576171875 -16.941650390625
18.3623046875 0.1881103515625 -21.182861328125
16.468017578125 2.96435546875 -2.736328125
-1.047607421875 3.085693359375 36.605224609375
-10.4599609375 1.521728515625 35.56982421875
-3.962158203125 1.839599609375 39.281982421875
11.075927734375 5.0093994140625 10.524658203125
-8.82421875 0.98583984375 -20.121826171875
6.95703125 1.5626220703125 -13.51220703125
-8.5478515625 1.3577880859375 37.55419921875
11.874755859375 6.6026611328125 25.43310546875
36.114013671875 -0.323974609375 -22.372314453125
-4.17626953125 3.0618896484375 -5.095703125
29.610107421875 5.9100341796875 18.669677734375
38.01171875 -1.014892578125 -27.474609375
16.3017578125 1.1434326171875 -16.32080078125
7.608154296875 4.2987060546875 4.868896484375
-28.599365234375 9.0491943359375 -1.16162109375
6.4599609375 5.3533935546875 11.18359375
-11.606689453125 2.9755859375 -6.26806640625
31.003173828125 2.3050537109375 -4.764404296875
-20.896240234375 3.7381591796875 -2.19091796875
-5.512939453125 3.4307861328125 30.312744140625
-3.58642578125 4.0994873046875 2.85009765625
7.50390625 5.2554931640625 34.10595703125
-4.225830078125 4.6256103515625 6.81396484375
31.06494140625 -0.7353515625 -26.99853515625
-28.181396484375 15.5146484375 -18.1025390625
-8.4365234375 5.1021728515625 9.338134765625
40.785400390625 -1.1485595703125 -29.4365234375
-2.2548828125 2.4259033203125 -8.42529296875
-28.52587890625 18.750244140625 -26.60107421875
2.80810546875 5.69873046875 26.241455078125
3.0029296875 3.2152099609375 -1.22412109375
-10.53125 46.45947265625 -33.885498046875
38.19921875 5.1961669921875 -13.05517578125
-32.7216796875 0.8778076171875 68.001708984375
-8.72119140625 46.40966796875 -32.169677734375
-27.977294921875 15.615234375 -14.47216796875
26.197998046875 3.5218505859375 2.74609375
20.053955078125 9.3408203125 13.417236328125
25.4169921875 6.140380859375 21.7822265625
0.092041015625 3.668701171875 1.47119140625
24.27197265625 -0.3369140625 -23.329345703125
22.828857421875 7.9932861328125 30.80859375
-0.24755859375 3.404052734375 -0.8408203125
-5.857177734375 4.9586181640625 21.857666015625
4.010986328125 0.049072265625 -23.8271484375
23.364013671875 4.437255859375 9.230712890625
11.21533203125 0.083740234375 -23.0498046875
33.93017578125 -0.2098388671875 -23.943115234375
1.344970703125 5.9063720703125 16.9580078125
1.91796875 6.2003173828125 21.130126953125
-2.0869140625 1.1302490234375 -16.05029296875
0.11083984375 5.9129638671875 19.357421875
11.84716796875 5.31201171875 13.15771484375
10.705810546875 6.2100830078125 32.030029296875
9.4677734375 2.6925048828125 -5.574462890625
27.0986328125 2.4908447265625 -4.19091796875
-2.34130859375 4.44384765625 5.83349609375
-8.5966796875 3.3048095703125 28.850830078125
29.033203125 -0.969970703125 -27.78564453125
-13.65478515625 -0.47412109375 55.92919921875
5.06640625 4.92919921875 33.557861328125
5.894775390625 3.7825927734375 1.09326171875
-34.375732421875 1.1146240234375 64.679443359375
4.990234375 1.6246337890625 -12.900634765625
9.917236328125 4.060546875 4.3173828125
-0.80224609375 5.921630859375 15.568115234375
20.4013671875 0.25439453125 -21.3798828125
1.634765625 3.9783935546875 34.2294921875
-11.93896484375 4.2740478515625 3.32861328125
22.363037109375 3.412841796875 1.924072265625
-0.270751953125 4.20751953125 6.909423828125
23.1103515625 0.2811279296875 -19.571533203125
-0.84033203125 1.856689453125 43.203125
5.1015625 5.6279296875 29.599853515625
13.04345703125 0.4193115234375 -20.651123046875
2.428466796875 5.3031005859375 12.981689453125
-19.229248046875 3.7135009765625 -0.631103515625
9.375732421875 0.0452880859375 -24.03515625
19.20166015625 6.604248046875 23.785888671875
14.4873046875 2.1351318359375 -9.46337890625
3.657470703125 5.643798828125 15.93359375
19.596435546875 7.08154296875 26.359130859375
37.319580078125 2.0186767578125 -8.18310546875
2.7587890625 2.90625 41.466064453125
-7.457275390625 1.565673828125 -16.722900390625
28.037841796875 3.689697265625 4.152587890625
42.64306640625 -0.24267578125 -21.854248046875
21.6328125 4.07861328125 6.380615234375
47.01123046875 0.66015625 -20.1328125
15.712158203125 2.781982421875 -5.011962890625
-10.02685546875 2.329833984375 -11.078857421875
13.931640625 3.465087890625 0.34130859375
33.461181640625 4.5150146484375 10.255126953125
34.86474609375 -0.8271484375 -25.99365234375
17.481201171875 3.8634033203125 4.174560546875
35.576171875 4.1358642578125 7.79833984375
-27.971435546875 5.8875732421875 -2.042236328125
-23.0712890625 3.4700927734375 -4.929443359375
-12.78515625 4.0032958984375 1.207275390625
-4.9814453125 3.2054443359375 32.2841796875
10.4072265625 1.135009765625 -15.96044921875
-21.16015625 2.4603271484375 -11.13037109375
21.296142578125 -0.246826171875 -26.25927734375
26.25732421875 3.9189453125 7.156005859375
5.169677734375 2.576416015625 -6.20556640625
34.20751953125 2.0631103515625 -7.217529296875
-9.822021484375 -1.15625 57.189697265625
-0.202880859375 3.084716796875 -2.717529296875
14.73876953125 -0.2222900390625 -25.123046875
-12.93896484375 5.005859375 7.75146484375
-11.04052734375 0.5484619140625 39.3291015625
-21.347900390625 1.0960693359375 70.243408203125
7.79150390625 0.4840087890625 -21.094970703125
34.119384765625 3.2213134765625 1.01953125
17.236572265625 5.802490234375 14.243896484375
43.8779296875 0.260009765625 -18.236083984375
-0.738037109375 1.2496337890625 46.462158203125
-12.989501953125 0.154296875 38.7255859375
13.6962890625 5.54248046875 37.546875
18.194091796875 3.197265625 -0.28759765625
12.6357421875 2.7276611328125 -3.973388671875
27.578125 -0.3614501953125 -25.547607421875
-18.58642578125 0.9317626953125 67.814697265625
-1.970458984375 3.4609375 -1.90283203125
29.761474609375 6.10595703125 21.5498046875
2.63720703125 5.1763916015625 28.653564453125
12.16943359375 -0.42724609375 -25.172607421875
36.783447265625 2.557861328125 -14.93994140625
-28.346435546875 8.34423828125 -18.226806640625
8.29931640625 2.772705078125 -3.661376953125
-3.0322265625 5.782958984375 17.877197265625
19.907470703125 -0.6761474609375 -28.769775390625
34.330810546875 4.7591552734375 11.89599609375
-19.523681640625 -0.8958740234375 59.214599609375
-19.32958984375 2.146240234375 -12.573486328125
23.014404296875 1.7830810546875 -9.299072265625
-31.399658203125 1.4849853515625 70.846923828125
26.787841796875 0.65673828125 -16.174072265625
-8.213623046875 -0.5316162109375 47.399169921875
9.521728515625 3.699951171875 2.095947265625
38.763671875 3.6529541015625 -10.429443359375
21.698974609375 8.92822265625 16.82275390625
-7.757568359375 -1.1707763671875 54.76806640625
8.36181640625 6.056396484375 17.770263671875
-11.33544921875 1.5604248046875 -15.924560546875
28.018798828125 2.0211181640625 -5.73388671875
25.3837890625 2.385498046875 -6.233642578125
33.900146484375 2.0682373046875 -11.444580078125
-18.377197265625 3.98388671875 1.48681640625
-28.518310546875 17.899658203125 -20.98291015625
45.715576171875 -0.5164794921875 -26.009521484375
-15.748291015625 -1.5440673828125 53.501220703125
23.353759765625 1.0223388671875 -14.772705078125
17.865966796875 4.2249755859375 6.39990234375
11.552978515625 0.7882080078125 -18.7958984375
-0.200439453125 4.869140625 9.494140625
-13.332275390625 3.8150634765625 -7.410888671875
26.463134765625 3.0999755859375 -0.72265625
41.236572265625 1.995361328125 -7.800537109375
28.16015625 6.1048583984375 22.52734375
40.5458984375 0.8131103515625 -14.27880859375
38.859619140625 5.009765625 -14.765869140625
-11.91259765625 2.0687255859375 -12.371337890625
-27.882080078125 17.909423828125 -17.403076171875
9.78466796875 3.2503662109375 -1.860595703125
-11.303955078125 3.8740234375 -0.222412109375
14.581298828125 6.5355224609375 22.668701171875
19.07470703125 3.8599853515625 3.151611328125
3.24267578125 2.7645263671875 -5.1865234375
26.997802734375 0.25439453125 -19.212646484375
12.3349609375 6.33056640625 20.951416015625
20.830078125 1.6346435546875 -11.70361328125
-28.406494140625 1.9197998046875 72.91015625
-28.36181640625 14.2462158203125 -13.25830078125
-18.81396484375 4.381591796875 3.4013671875
-27.625 13.11572265625 -17.99658203125
23.525390625 3.7965087890625 5.4775390625
2.454345703125 4.86376953125 10.729248046875
-1.590087890625 5.3416748046875 11.6357421875
13.9443359375 4.7515869140625 9.309326171875
39.0791015625 2.7950439453125 -0.746826171875
-3.6123046875 7.32080078125 14.898193359375
-1.803955078125 1.8880615234375 -10.825927734375
23.756591796875 -1.1051025390625 -29.760986328125
21.480224609375 4.3023681640625 8.348876953125
29.891357421875 2.874267578125 -1.638671875
8.76171875 4.834228515625 9.303466796875
-27.960205078125 15.267333984375 -11.52099609375
5.0224609375 4.4400634765625 7.13916015625
-16.83349609375 1.3067626953125 62.086181640625
38.45849609375 -1.5369873046875 -32.264404296875
-20.5458984375 4.46875 2.86181640625
-14.677978515625 6.0172119140625 -9.224853515625
26.087646484375 4.5594482421875 10.905029296875
-28.130615234375 10.7667236328125 -11.114501953125
-27.90869140625 8.40478515625 -12.513916015625
-26.981689453125 13.376708984375 -2.947265625
-28.056884765625 7.4610595703125 -16.532958984375
-28.412353515625 18.614013671875 -23.232421875
25.763427734375 3.18896484375 1.019775390625
-28.712158203125 7.3118896484375 -10.301513671875
44.242431640625 -1.8988037109375 -31.70947265625
-2.8037109375 0.1400146484375 50.165283203125
-7.560791015625 1.30029296875 40.2099609375
-15.91162109375 2.97412109375 -9.59814453125
-1.92431640625 1.18994140625 44.92431640625
12.896728515625 6.533935546875 31.174560546875
33.51220703125 2.9718017578125 -2.324462890625
14.917724609375 0.2921142578125 -20.640625
25.93896484375 -0.21630859375 -23.994384765625
31.51513671875 4.539794921875 10.30712890625
35.31201171875 -1.21240234375 -30.313720703125
-16.996337890625 -1.9674072265625 47.09423828125
24.969970703125 1.7545166015625 -9.376953125
-3.284912109375 1.4512939453125 42.73291015625
9.3154296875 0.3768310546875 -22.08154296875
31.810302734375 -1.27294921875 -30.739501953125
-3.77685546875 3.2645263671875 33.851806640625
-2.711181640625 4.51416015625 27.72314453125
-27.672607421875 5.302978515625 -3.779052734375
40.224853515625 2.2227783203125 -3.885009765625
15.794921875 4.7587890625 9.768310546875
42.62255859375 0.748046875 -14.906982421875
15.761962890625 2.327880859375 -7.349609375
9.54541015625 1.785400390625 -10.243408203125
-9.863037109375 -0.906494140625 48.12158203125
31.42529296875 -0.48779296875 -25.093017578125
43.32373046875 1.3699951171875 -10.70361328125
17.317138671875 3.7889404296875 1.65576171875
-27.8701171875 23.2183837890625 -22.717529296875
-27.38916015625 13.8544921875 -21.388427734375
33.725341796875 -1.5389404296875 -31.187744140625
-15.361328125 6.16064453125 -6.452880859375
36.04052734375 0.2791748046875 -19.508544921875
24.31689453125 3.5155029296875 2.286865234375
-28.53125 19.5054931640625 -21.718505859375
35.118896484375 2.574462890625 -4.673583984375
-21.341796875 -1.7960205078125 51.507568359375
29.32763671875 4.1378173828125 7.094970703125
24.34912109375 6.68408203125 24.751953125
-19.64013671875 -1.2540283203125 43.0888671875
27.69580078125 -1.0013427734375 -28.974853515625
31.2734375 4.1124267578125 7.038818359375
8.890869140625 4.6131591796875 7.353515625
27.708740234375 4.140625 8.113037109375
-21.329345703125 4.136962890625 -0.266845703125
-17.6005859375 -1.1156005859375 56.520263671875
-22.717041015625 -1.361083984375 54.39697265625
-9.93310546875 3.3961181640625 -2.4013671875
-1.265380859375 0.608154296875 -21.350830078125
-28.642578125 6.6514892578125 -5.040771484375
1.724853515625 1.3646240234375 -14.8310546875
-16.9990234375 4.6697998046875 5.18115234375
-4.765625 1.266845703125 -16.8662109375
-21.4365234375 -0.9766845703125 56.563720703125
-12.420166015625 2.6685791015625 -8.9384765625
-14.977294921875 0.4202880859375 67.644287109375
1.535888671875 1.7900390625 -11.33349609375
-2.494140625 1.638427734375 -14.156982421875
13.91796875 4.2110595703125 7.120361328125
40.582275390625 2.5943603515625 -1.6015625
20.14453125 7.6217041015625 31.330322265625
37.16796875 2.7891845703125 -1.208251953125
1.229736328125 3.304443359375 -1.770751953125
30.6572265625 5.5181884765625 16.585693359375
5.11669921875 2.8985595703125 -4.311767578125
10.160400390625 3.48486328125 -0.048583984375
2.38134765625 3.7164306640625 2.269775390625
20.7119140625 0.96142578125 -17.112548828125
-10.4208984375 1.1728515625 37.260498046875
-9.437255859375 2.54541015625 32.102294921875
-17.833984375 1.6903076171875 -15.94091796875
33.244873046875 1.0050048828125 -14.762451171875
-9.516845703125 -1.41357421875 53.547119140625
-14.57080078125 1.2022705078125 34.57421875
18.83154296875 7.9476318359375 15.81396484375
-26.72412109375 -0.284912109375 61.2421875
40.56689453125 2.0555419921875 -12.51171875
14.226318359375 5.172119140625 12.531494140625
-11.064453125 6.16357421875 9.373779296875
-18.8212890625 -1.4139404296875 54.2724609375
44.02099609375 1.98828125 -6.524169921875
-21.929931640625 -1.71044921875 45.496826171875
-14.94580078125 3.576904296875 -2.46435546875
45.802001953125 2.7528076171875 -2.28466796875
11.6884765625 5.2557373046875 37.33056640625
23.962646484375 2.8587646484375 -1.33935546875
-27.825927734375 10.0247802734375 -13.836669921875
16.020263671875 6.8787841796875 24.021484375
22.806884765625 1.310302734375 -13.18701171875
-25.3330078125 4.051513671875 -2.006591796875
29.68896484375 2.2750244140625 -5.927490234375
-21.247314453125 2.4105224609375 76.094482421875
-25.028564453125 -0.1640625 62.070556640625
-16.66455078125 0.565185546875 67.996337890625
-15.728271484375 -1.84814453125 51.830810546875
0.0517578125 3.7666015625 34.8359375
-12.009521484375 -0.9482421875 47.33740234375
-24.59716796875 -0.7227783203125 59.1142578125
-12.64599609375 -1.8275146484375 51.888427734375
0.114013671875 5.285400390625 12.686279296875
-21.89501953125 1.3265380859375 72.484375
1.6123046875 5.7646484375 25.050048828125
26.24853515625 4.3359375 8.939697265625
25.94775390625 -0.6502685546875 -25.868408203125
15.971923828125 1.3470458984375 -13.1142578125
6.63427734375 5.9873046875 16.30615234375
38.0673828125 3.587890625 -15.606201171875
-27.65869140625 5.7376708984375 -6.230712890625
8.65234375 2.5430908203125 -7.324462890625
11.896484375 6.14404296875 33.217529296875
8.607177734375 6.440185546875 28.005615234375
-0.984375 5.615234375 22.926025390625
-24.132568359375 4.61083984375 2.888427734375
30.446533203125 2.590087890625 -3.19921875
4.9365234375 4.382080078125 35.4482421875
-27.318603515625 0.011962890625 64.39990234375
15.179443359375 6.2166748046875 36.66845703125
-13.395263671875 -0.814453125 44.790771484375
21.020263671875 2.821044921875 -4.624267578125
-17.524169921875 -0.1893310546875 60.501220703125
22.658447265625 6.2958984375 15.33642578125
32.49951171875 -1.04296875 -27.8017578125
-26.380859375 5.1795654296875 1.111083984375
-2.856201171875 1.6866455078125 40.52099609375
22.4541015625 6.01171875 18.674560546875
-25.413818359375 1.236572265625 73.011962890625
-16.29931640625 -0.8778076171875 42.810791015625
-0.093994140625 4.147216796875 30.677001953125
16.188232421875 7.1002197265625 30.332763671875
-4.315673828125 2.2108154296875 36.69921875
-28.973876953125 7.7283935546875 -0.0126953125
5.751953125 2.390869140625 -7.852783203125
44.380859375 -0.693359375 -24.86181640625
46.461669921875 -0.2003173828125 -11.606689453125
31.076904296875 3.52099609375 2.8046875
-28.893798828125 0.0638427734375 63.428955078125
-27.203125 16.7073974609375 -5.97607421875
-5.810546875 2.3165283203125 -10.887451171875
-19.515380859375 1.6558837890625 60.743408203125
17.0078125 6.8397216796875 33.257568359375
-1.677734375 3.9345703125 31.291748046875
9.64990234375 4.4007568359375 41.412109375
-27.90185546875 13.98291015625 -14.81689453125
11.190673828125 5.3948974609375 14.837646484375
16.56787109375 -0.3157958984375 -24.5732421875
44.21875 -0.0499267578125 -21.422119140625
33.05126953125 0.3919677734375 -19.150146484375
33.775146484375 5.0372314453125 13.418701171875
5.975830078125 3.3028564453125 -1.7265625
-27.382568359375 0.5166015625 67.709716796875
-11.001708984375 -1.4881591796875 54.476806640625
31.910888671875 5.1578369140625 13.3740234375
17.978515625 6.5458984375 22.163818359375
-7.218017578125 4.380859375 22.688232421875
-16.4501953125 1.4925537109375 -16.79931640625
-17.88037109375 1.27294921875 -17.743408203125
-26.822265625 22.706787109375 -21.5703125
26.775634765625 1.5318603515625 -9.25537109375
-13.3798828125 4.1864013671875 -9.282470703125
2.785400390625 4.0753173828125 4.480224609375
25.22900390625 5.27978515625 16.321044921875
-15.57177734375 0.506591796875 35.84912109375
-9.806884765625 3.2457275390625 27.2763671875
-1.985107421875 4.9813232421875 24.18212890625
-8.29736328125 0.3057861328125 44.94580078125
6.175048828125 3.1329345703125 44.2099609375
-4.634521484375 0.58154296875 45.627197265625
-23.77880859375 2.4344482421875 -12.87841796875
-2.632568359375 0.7515869140625 48.282470703125
19.09423828125 -0.0751953125 -23.977783203125
-26.88720703125 20.5672607421875 -12.2763671875
-19.253662109375 2.6873779296875 -10.36474609375
6.544189453125 6.18017578125 28.29296875
22.131591796875 6.3218994140625 22.112060546875
-27.95458984375 6.2945556640625 -14.551513671875
-27.472900390625 12.2958984375 -4.053466796875
22.821044921875 8.7667236328125 15.0615234375
-18.089111328125 -1.820068359375 45.885986328125
-28.38818359375 15.5660400390625 -20.7890625
-3.094970703125 3.823974609375 1.333984375
11.20263671875 6.525146484375 23.170654296875
9.4482421875 5.6082763671875 14.70166015625
4.20751953125 2.853759765625 43.9873046875
-14.122802734375 -1.901123046875 52.82080078125
42.12939453125 2.7860107421875 -1.1611328125
31.1337890625 1.103515625 -13.599365234375
45.83056640625 1.098876953125 -14.579833984375
-4.468505859375 -0.2371826171875 50.88232421875
30.33837890625 1.6595458984375 -9.43310546875
-11.091796875 -0.8494873046875 58.26123046875
-14.1572265625 4.1949462890625 2.0283203125
-5.4228515625 5.53857421875 9.605224609375
-24.28515625 3.2196044921875 -8.015869140625
-27.411865234375 18.0411376953125 -27.516357421875
4.48193359375 5.911865234375 18.03271484375
31.87744140625 1.8505859375 -8.998779296875
-25.9599609375 0.298095703125 65.207275390625
-21.327392578125 -1.3739013671875 53.55029296875
22.575927734375 3.1534423828125 -0.59033203125
-12.3505859375 -1.6614990234375 50.282958984375
-26.919189453125 7.493896484375 1.05517578125
-2.53564453125 1.9625244140625 -12.247802734375
-20.68212890625 -0.3870849609375 60.573974609375
3.17431640625 3.6575927734375 38.4072265625
-2.77099609375 3.0489501953125 35.666015625
36.021484375 3.2274169921875 1.48095703125
-16.512451171875 4.0845947265625 1.840087890625
15.6025390625 0.1961669921875 -22.446533203125
23.16552734375 3.5615234375 3.666015625
-20.5517578125 -1.2332763671875 55.098876953125
32.224609375 -0.4642333984375 -23.718017578125
37.3173828125 -1.3802490234375 -30.869873046875
40.613037109375 2.1697998046875 -9.355224609375
10.712158203125 6.5791015625 30.283935546875
-27.532470703125 0.0538330078125 62.60888671875
-28.8046875 -0.6239013671875 58.832275390625
3.41357421875 2.2149658203125 -9.078857421875
37.431396484375 -0.71826171875 -25.838623046875
32.454345703125 -0.1470947265625 -20.72900390625
-20.388671875 1.4715576171875 67.48974609375
-23.63330078125 0.972900390625 70.923095703125
-15.27099609375 5.175048828125 8.8818359375
-26.0224609375 0.50732421875 66.900146484375
-11.92041015625 -0.5390625 62.891357421875
14.506103515625 6.87744140625 27.9794921875
18.08544921875 7.048583984375 26.82080078125
20.740234375 7.448974609375 29.782958984375
7.320556640625 4.3760986328125 38.1943359375
-16.98779296875 -0.964111328125 40.678466796875
-16.24609375 2.894775390625 65.014404296875
13.217041015625 0.0181884765625 -23.68701171875
-20.9931640625 1.68896484375 -16.996826171875
8.0126953125 3.943359375 41.21240234375
-5.88720703125 5.3240966796875 20.093017578125
11.335693359375 7.0252685546875 27.79833984375
7.589111328125 0.6209716796875 -18.94873046875
13.467041015625 3.0054931640625 -1.802490234375
2.260986328125 0.3282470703125 -20.1591796875
35.97216796875 -1.4119873046875 -32.06884765625
-12.3330078125 -1.2679443359375 55.630126953125
15.634033203125 3.5684814453125 2.35400390625
20.45458984375 6.221923828125 20.13818359375
43.174072265625 2.542236328125 -2.37548828125
-27.361572265625 3.77294921875 -11.123291015625
-8.4619140625 -1.2564697265625 56.41845703125
38.798828125 -0.4190673828125 -23.755859375
28.00732421875 -0.1270751953125 -20.90087890625
-31.932373046875 0.1014404296875 64.231201171875
-27.1796875 26.1400146484375 -23.624755859375
-5.047119140625 4.127685546875 26.2099609375
-11.63427734375 3.2939453125 -4.3935546875
-26.0341796875 -1.009521484375 50.89794921875
19.878173828125 4.0076904296875 4.887451171875
14.07568359375 6.098876953125 34.107421875
-25.643798828125 5.103759765625 2.48486328125
28.250732421875 0.750244140625 -15.6416015625
-24.339111328125 2.8084716796875 -9.7900390625
41.27734375 -0.5419921875 -23.937255859375
4.614013671875 3.12548828125 42.241943359375
4.485595703125 3.40283203125 -0.793701171875
32.559326171875 5.7808837890625 17.8896484375
34.217529296875 2.895263671875 -0.89208984375
24.810302734375 1.1156005859375 -14.241455078125
-19.85546875 -1.9100341796875 45.509765625
-28.381103515625 8.845703125 -4.746826171875
2.919189453125 4.3358154296875 33.116455078125
22.857177734375 2.01416015625 -7.276123046875
44.669189453125 0.2830810546875 -16.863525390625
32.66748046875 3.1275634765625 0.483642578125
-27.74267578125 5.3223876953125 -17.601806640625
-17.37890625 3.9659423828125 61.409912109375
-2.27685546875 5.8905029296875 16.0439453125
41.768798828125 4.18896484375 6.395751953125
-16.131591796875 3.2352294921875 62.012939453125
22.631591796875 1.4119873046875 -11.583984375
-28.098388671875 10.4173583984375 -3.438720703125
17.716064453125 2.4298095703125 -6.994873046875
-9.95166015625 0.23828125 43.553466796875
1.178466796875 2.2239990234375 43.34326171875
25.843017578125 5.1002197265625 14.72314453125
16.33447265625 4.19580078125 6.898681640625
22.537841796875 7.2081298828125 29.433837890625
10.218994140625 5.908447265625 17.315673828125
27.616455078125 0.9423828125 -13.947265625
15.760009765625 6.1842041015625 19.52685546875
13.482421875 1.05419921875 -17.479248046875
15.854248046875 -0.54150390625 -27.46875
25.145751953125 2.5184326171875 -4.119873046875
37.244384765625 -0.4775390625 -23.74072265625
40.392333984375 -1.8048095703125 -32.716796875
7.391845703125 -0.186279296875 -24.8125
-25.425048828125 2.266357421875 -15.92236328125
18.306640625 2.1124267578125 -9.088623046875
-5.990234375 1.6263427734375 40.013916015625
39.406005859375 0.5452880859375 -17.531982421875
-4.498046875 5.752197265625 18.34765625
-31.512451171875 1.0208740234375 69.3837890625
29.16064453125 4.362548828125 9.070556640625
-28.506103515625 8.962158203125 -2.695068359375
34.844970703125 2.5772705078125 -2.98388671875
-15.615966796875 1.641845703125 -15.053955078125
5.338134765625 4.0916748046875 3.133544921875
0.731201171875 1.516357421875 46.824951171875
44.720947265625 1.3662109375 -10.064208984375
42.96728515625 0.9931640625 -13.022216796875
-8.981201171875 1.41162109375 -16.615478515625
34.24267578125 3.84814453125 5.794921875
-9.628173828125 2.564453125 -9.263671875
-11.645263671875 1.5474853515625 -17.427978515625
9.832275390625 1.4544677734375 -13.851806640625
32.444091796875 4.0673828125 5.662841796875
35.740234375 2.803466796875 -13.6962890625
23.9853515625 0.401123046875 -18.31640625
-26.52685546875 17.35888671875 -25.615966796875
24.553955078125 -0.6461181640625 -26.50439453125
4.350341796875 0.325439453125 -21.4248046875
42.62841796875 1.9918212890625 -7.16259765625
16.1455078125 5.275146484375 12.89990234375
13.91943359375 0.53857421875 -19.40185546875
-23.685546875 1.735107421875 75.36767578125
-9.665771484375 -0.8941650390625 60.6767578125
5.888916015625 6.2266845703125 26.45703125
24.802978515625 1.5430908203125 -12.400390625
-7.82373046875 5.0194091796875 7.660400390625
24.792724609375 4.530517578125 9.763916015625
46.339599609375 1.9383544921875 -5.604736328125
11.52001953125 2.4373779296875 -7.650146484375
-6.773681640625 2.2769775390625 34.932373046875
-28.0634765625 18.6954345703125 -15.80078125
-21.926513671875 -2.13232421875 47.207275390625
40.7255859375 2.5355224609375 -14.56884765625
14.8828125 5.7840576171875 13.944091796875
-5.36181640625 3.3319091796875 -1.748291015625
45.343994140625 -0.4722900390625 -23.68798828125
-27.34423828125 16.99072265625 -23.936767578125
13.4765625 7.010009765625 29.18408203125
21.919921875 0.31298828125 -21.392333984375
0.369140625 0.7823486328125 -18.239501953125
18.83447265625 -0.390625 -26.958984375
-9.031982421875 4.6463623046875 4.185546875
39.1513671875 -1.1705322265625 -28.859619140625
21.956787109375 0.894775390625 -15.8408203125
20.75341796875 3.1146240234375 -1.570556640625
9.88134765625 0.7015380859375 -17.613525390625
32.585693359375 2.331787109375 -5.29052734375
-10.245361328125 2.8804931640625 29.152587890625
-19.16015625 -1.820068359375 51.37451171875
-34.08740234375 1.595703125 68.79833984375
15.316650390625 6.8955078125 32.215087890625
-12.090576171875 2.3382568359375 30.58349609375
-14.05908203125 -1.3900146484375 54.792724609375
44.11279296875 -1.6904296875 -30.140869140625
-28.91162109375 7.514892578125 -1.95556640625
29.744384765625 -0.0411376953125 -22.107421875
12.13916015625 5.660888671875 35.9443359375
45.3232421875 2.0361328125 -8.054443359375
-23.7490234375 -2.00439453125 48.584716796875
-17.673828125 0.5465087890625 38.856689453125
-13.023193359375 3.824951171875 -5.932373046875
-4.6337890625 4.52978515625 24.801025390625
-1.278076171875 4.697021484375 28.161376953125
19.314453125 0.4049072265625 -20.03173828125
19.37353515625 2.5677490234375 -4.433837890625
-18.6630859375 1.2789306640625 73.9140625
21.118896484375 2.2021484375 -7.92822265625
4.59326171875 4.1971435546875 37.142333984375
-2.777587890625 3.9371337890625 29.14404296875
37.084228515625 1.2940673828125 -15.702880859375
-25.04931640625 4.2486572265625 0.875
37.44775390625 3.33837890625 -9.767333984375
26.934326171875 2.72021484375 -2.18017578125
-8.193359375 3.7027587890625 27.4560546875
-15.361083984375 -0.434814453125 40.79248046875
16.806884765625 1.629150390625 -10.911376953125
-29.24072265625 -0.392333984375 56.032470703125
10.4404296875 5.2193603515625 12.62841796875
-27.36181640625 11.7803955078125 -18.63818359375
19.6552734375 2.402099609375 -7.0693359375
-9.35498046875 0.7376708984375 41.117919921875
44.77197265625 2.438232421875 -3.3349609375
22.386474609375 2.8177490234375 -3.994873046875
19.371826171875 -0.0599365234375 -22.4296875
5.5400390625 4.8609619140625 8.736083984375
32.145751953125 4.357177734375 8.68408203125
6.806396484375 5.3306884765625 32.7763671875
-19.784423828125 -0.9422607421875 57.470947265625
37.14013671875 4.035888671875 6.869140625
3.21142578125 5.3212890625 14.26318359375
-0.378662109375 5.5567626953125 14.17431640625
-3.982177734375 3.6728515625 30.181884765625
-20.847900390625 3.39111328125 -4.560546875
9.181640625 6.3245849609375 19.870849609375
-23.89697265625 0.9300537109375 69.220703125
25.838134765625 1.872802734375 -8.1357421875
5.836669921875 5.5618896484375 13.279296875
8.77783203125 1.6009521484375 -12.533935546875
-27.24609375 4.59228515625 -7.573974609375
-1.3017578125 0.6458740234375 51.300048828125
16.535400390625 6.2017822265625 20.807373046875
33.750244140625 0.0291748046875 -21.85595703125
47.163818359375 0.295166015625 -16.591064453125
-1.152587890625 3.707763671875 33.265380859375
-27.046630859375 25.0023193359375 -21.123779296875
31.947021484375 2.5201416015625 -3.623779296875
22.91650390625 6.87255859375 25.541015625
21.54296875 7.7147216796875 31.86376953125
43.38671875 0.7850341796875 -16.28173828125
15.278564453125 0.8310546875 -17.364013671875
32.551513671875 1.3631591796875 -12.091064453125
42.95458984375 -0.8236083984375 -25.9521484375
24.87548828125 4.2105712890625 7.89013671875
16.32373046875 3.191162109375 -0.743408203125
36.252685546875 4.477294921875 10.99951171875
13.57763671875 1.7578125 -11.559814453125
-5.25537109375 1.8408203125 -13.91845703125
-16.14990234375 2.2755126953125 -11.093017578125
7.619873046875 2.1053466796875 -8.78271484375
19.54248046875 4.19970703125 7.982421875
-27.1201171875 21.37255859375 -20.956298828125
31.011962890625 0.02490234375 -20.380126953125
8.803466796875 4.527587890625 38.157470703125
4.910888671875 2.1121826171875 -10.03173828125
31.41845703125 0.667236328125 -17.17529296875
38.6435546875 3.9681396484375 6.458984375
17.95654296875 3.024658203125 -2.7294921875
-3.791015625 5.10595703125 9.414794921875
28.8720703125 2.56298828125 -2.677978515625
-14.810546875 5.01220703125 -4.680908203125
-29.92041015625 1.08544921875 70.7138671875
36.2890625 3.3681640625 3.409423828125
22.827392578125 4.714599609375 10.750244140625
38.77392578125 1.004638671875 -14.939697265625
20.1279296875 4.7200927734375 9.4990234375
7.770263671875 2.0057373046875 -10.363037109375
20.313232421875 2.78125 -3.301513671875
-4.651611328125 -0.690185546875 53.58984375
35.343505859375 3.7054443359375 4.508544921875
28.443359375 5.823974609375 19.58642578125
44.1640625 -1.150146484375 -28.342041015625
-19.146240234375 3.95458984375 -4.51904296875
-13.819580078125 6.2884521484375 -7.06591796875
32.01513671875 3.7344970703125 3.936767578125
4.29443359375 0.94921875 -18.085693359375
6.601806640625 1.15966796875 -16.321533203125
20.9287109375 3.3197021484375 1.39208984375
6.217529296875 0.919677734375 -18.17431640625
36.923095703125 2.2208251953125 -4.981201171875
1.849365234375 3.895751953125 35.69482421875
4.60791015625 3.1781005859375 -2.772216796875
26.442138671875 0.545166015625 -17.61083984375
43.35791015625 3.40478515625 2.78564453125
25.953369140625 5.8673095703125 20.29052734375
-18.251708984375 3.57470703125 -1.89306640625
6.537109375 3.793212890625 41.245361328125
37.868896484375 2.436767578125 -3.8359375
7.56396484375 3.426513671875 -2.3349609375
36.535888671875 -0.974609375 -27.562255859375
24.60009765625 3.65478515625 4.19873046875
-5.763916015625 4.556884765625 3.7236328125
-3.69580078125 1.0867919921875 -18.716796875
17.588134765625 2.787841796875 -4.557861328125
7.7998046875 5.067138671875 10.463623046875
20.8515625 3.641845703125 3.281005859375
-16.133544921875 1.5057373046875 64.51611328125
35.614501953125 4.6597900390625 12.619140625
17.581787109375 7.1927490234375 30.86474609375
-15.27978515625 3.2633056640625 -1.0615234375
6.856689453125 2.5518798828125 -4.613037109375
-7.35546875 1.3363037109375 -18.740966796875
34.01416015625 2.1640625 -5.6201171875
17.66943359375 5.3057861328125 12.41259765625
-5.5146484375 3.0650634765625 -5.715087890625
12.18603515625 3.104736328125 -2.5244140625
30.90234375 4.849853515625 12.345703125
-15.6103515625 2.0911865234375 -12.733642578125
-17.85400390625 1.542236328125 60.828125
-19.76708984375 1.7843017578125 -14.81005859375
-27.03369140625 11.9346923828125 -16.172119140625
8.083984375 3.479736328125 1.146484375
-17.36962890625 3.798828125 64.269775390625
13.67578125 6.046875 20.246826171875
16.854248046875 0.558837890625 -19.320068359375
-11.498046875 3.6083984375 28.018798828125
-13.999267578125 -1.575927734375 49.748291015625
-18.92919921875 4.630859375 5.83447265625
8.716552734375 4.254638671875 3.50634765625
9.616455078125 4.9481201171875 10.504638671875
45.87744140625 0.7977294921875 -16.008544921875
17.742919921875 6.5416259765625 23.7529296875
-19.267578125 1.137939453125 71.021240234375
9.013427734375 -0.0665283203125 -25.47412109375
11.4873046875 6.2181396484375 19.763671875
-7.6416015625 4.013427734375 1.092529296875
11.7197265625 1.8826904296875 -11.5791015625
9.073974609375 6.665283203125 22.189208984375
19.41943359375 1.802490234375 -11.368896484375
-0.94580078125 4.251708984375 5.0146484375
10.158935546875 4.514892578125 8.068115234375
-28.384765625 7.3175048828125 -8.82373046875
3.159912109375 5.914306640625 17.416015625
10.176513671875 6.65869140625 24.38623046875
-21.630615234375 2.8963623046875 -8.659912109375
8.97021484375 4.4229736328125 5.91015625
5.35205078125 1.7333984375 -11.49267578125
29.837158203125 -0.37744140625 -24.08544921875
-15.561767578125 -1.85791015625 50.3828125
5.09033203125 3.4901123046875 40.406494140625
-3.2666015625 4.2353515625 4.7275390625
-10.541015625 4.648193359375 5.18798828125
-18.057861328125 4.3436279296875 -8.363525390625
-19.177978515625 3.22705078125 -8.16259765625
12.434326171875 3.2764892578125 -0.092041015625
6.251953125 4.8642578125 34.736572265625
25.305419921875 -0.0213623046875 -22.275634765625
-15.985107421875 4.28759765625 -10.6162109375
-13.251953125 1.6219482421875 -15.314453125
-13.710693359375 3.7952880859375 0.103271484375
-25.628173828125 2.779541015625 -10.920166015625
-1.12353515625 4.6611328125 8.391357421875
-6.334716796875 3.1168212890625 31.7626953125
12.33642578125 6.297119140625 17.41650390625
-26.17236328125 -1.270263671875 54.841064453125
-15.711181640625 -1.427001953125 46.353271484375
6.37841796875 0.2261962890625 -22.59375
22.071533203125 6.760009765625 24.35205078125
4.2236328125 5.181884765625 30.66455078125
18.690185546875 6.9674072265625 19.11376953125
37.317626953125 1.6075439453125 -6.79296875
-12.427001953125 4.7034912109375 5.751708984375
4.575927734375 6.22900390625 25.8427734375
19.8623046875 7.08740234375 27.783935546875
29.048583984375 1.3328857421875 -12.00634765625
3.069580078125 4.65380859375 8.629150390625
23.9267578125 5.95166015625 21.33740234375
-14.40087890625 4.1007080078125 3.739013671875
23.61865234375 2.7508544921875 -2.74169921875
20.1201171875 6.8118896484375 24.88525390625
-27.43798828125 25.8712158203125 -22.226318359375
13.60107421875 3.9462890625 4.808837890625
28.67626953125 3.084228515625 0.7099609375
-13.184814453125 3.330322265625 -2.85498046875
-0.284423828125 3.10498046875 37.8330078125
6.97998046875 6.3701171875 18.977783203125
6.788818359375 3.4505615234375 0.0068359375
-19.897705078125 -2.146728515625 48.520751953125
-4.597900390625 2.41162109375 -8.698486328125
-3.62548828125 5.49609375 21.29541015625
-25.369140625 4.2393798828125 -0.574462890625
13.735107421875 6.6451416015625 32.3447265625
42.848876953125 -1.6234130859375 -31.45166015625
16.70068359375 4.4283447265625 8.69384765625
8.6669921875 5.5902099609375 13.41552734375
7.3134765625 5.466796875 12.380615234375
9.306640625 0.673095703125 -20.671630859375
-6.00048828125 4.5872802734375 5.853759765625
-6.73828125 0.6279296875 44.759033203125
-5.744873046875 0.4195556640625 46.528076171875
27.5888671875 1.2393798828125 -12.53955078125
-6.911376953125 1.775146484375 37.271240234375
-16.6357421875 4.92822265625 7.447509765625
0.035888671875 2.60791015625 40.02587890625
-10.97705078125 -1.48974609375 50.720947265625
8.112060546875 5.6937255859375 31.65234375
-11.65234375 -0.3819580078125 43.51416015625
26.538330078125 3.6287841796875 4.138916015625
27.800537109375 5.3310546875 15.5146484375
31.005859375 5.7493896484375 18.37109375
-6.4970703125 1.1800537109375 41.913818359375
-23.95361328125 3.98583984375 -2.414794921875
-11.1796875 -0.6348876953125 59.9931640625
-14.753662109375 4.717529296875 5.971435546875
-15.765625 4.29150390625 4.553466796875
29.647216796875 3.556640625 2.6962890625
24.627685546875 5.1673583984375 13.494873046875
-17.65380859375 -1.9310302734375 49.144775390625
19.514404296875 1.1783447265625 -14.704345703125
-13.419189453125 2.363525390625 -9.957275390625
33.5576171875 4.193359375 8.372314453125
-22.69677734375 -1.9661865234375 51.07275390625
-21.9541015625 2.120361328125 -14.325439453125
