1.325927734375 0.3551025390625 37.775146484375
-17.058837890625 -3.9427490234375 59.77392578125
-30.37890625 -2.8463134765625 64.701171875
-14.68017578125 3.3763427734375 65.25439453125
41.1142578125 -5.68994140625 -26.135498046875
-0.542236328125 2.204833984375 24.260986328125
-20.860595703125 0.231201171875 79.176025390625
36.894775390625 -2.0191650390625 -4.93896484375
25.846435546875 -2.4442138671875 -8.156494140625
-13.79638671875 -2.244384765625 -12.3984375
32.498046875 -7.3502197265625 52.4716796875
7.682861328125 1.3497314453125 37.73388671875
-14.470703125 -0.0897216796875 65.0751953125
35.155517578125 0.5782470703125 15.986083984375
-9.648681640625 -3.1290283203125 66.2021484375
40.5703125 0.995849609375 -11.784423828125
-25.587158203125 14.587890625 -16.6435546875
-15.7294921875 0.8204345703125 3.8330078125
-0.3251953125 -3.0081787109375 55.381591796875
30.708740234375 -0.4664306640625 7.940185546875
-1.02294921875 1.1334228515625 30.318603515625
18.399169921875 -1.1241455078125 -0.0771484375
44.617431640625 -6.18408203125 -26.9697265625
40.5458984375 0.3638916015625 -7.935546875
-24.607421875 20.9500732421875 -9.709716796875
-2.757568359375 0.775634765625 8.13330078125
-23.440673828125 14.2564697265625 -26.15625
46.638916015625 -0.5458984375 7.30810546875
-10.7158203125 -4.3828125 57.7900390625
34.51220703125 -3.9217529296875 -13.856201171875
47.623779296875 -2.67529296875 -3.518310546875
24.67626953125 3.250732421875 29.872314453125
-9.78515625 0.235107421875 31.5908203125
-28.410888671875 -2.0926513671875 71.139892578125
0.595947265625 0.7149658203125 34.20068359375
21.22607421875 -4.05322265625 -18.2060546875
-17.081787109375 -1.5802001953125 75.634765625
-8.719970703125 44.780029296875 -28.10400390625
-25.809326171875 15.3968505859375 -20.009521484375
19.86328125 -0.3363037109375 6.99365234375
-24.543212890625 0.6444091796875 0.50732421875
28.0908203125 -3.4635009765625 -13.712890625
45.378173828125 -2.792236328125 -6.03125
-21.79931640625 -2.21240234375 70.807861328125
-25.511962890625 2.7662353515625 -16.14599609375
-8.925048828125 -2.691162109375 44.41650390625
-8.75439453125 -1.1939697265625 35.32666015625
40.744873046875 -6.800048828125 -31.48681640625
15.864501953125 -3.0908203125 -12.05859375
1.760986328125 2.109375 28.26708984375
-25.078369140625 21.631103515625 -16.75439453125
29.05029296875 0.2347412109375 11.718505859375
-10.30029296875 -2.5413818359375 41.246826171875
14.652099609375 1.5428466796875 16.875732421875
-16.560791015625 1.435302734375 -2.834228515625
8.541259765625 2.1038818359375 21.0009765625
25.0263671875 -4.025390625 -16.16015625
-10.924072265625 0.2513427734375 -3.294189453125
36.7119140625 -0.312255859375 9.1708984375
30.02734375 -1.9134521484375 -3.311279296875
-17.077392578125 0.2384033203125 -0.10498046875
-24.725341796875 8.0372314453125 -18.437255859375
-1.74658203125 -1.8221435546875 47.15673828125
-14.369873046875 -3.52783203125 62.07861328125
-21.413818359375 0.509765625 1.696533203125
-25.644287109375 10.986328125 -11.56298828125
-14.91455078125 -3.950927734375 45.580810546875
2.310546875 2.4791259765625 22.141357421875
-26.893310546875 -3.957275390625 59.247802734375
40.627197265625 -4.4556884765625 -18.352783203125
2.89990234375 1.147705078125 11.35009765625
31.99755859375 -5.1982421875 -22.761474609375
-24.823486328125 15.6558837890625 -7.766357421875
26.43603515625 2.117919921875 20.213623046875
20.04736328125 2.8917236328125 26.31640625
-19.003662109375 -3.474853515625 63.3408203125
41.629150390625 -0.95556640625 4.831787109375
10.991943359375 -2.6640625 -11.275390625
1.566650390625 2.1658935546875 18.943603515625
13.32763671875 -0.5841064453125 2.814208984375
28.7578125 -5.3931884765625 -26.048095703125
9.89404296875 30.0257568359375 -3.87646484375
10.356689453125 -3.7984619140625 -19.11669921875
-26.434326171875 3.4405517578125 2.206298828125
15.3056640625 2.692626953125 37.6201171875
-5.947021484375 45.8726806640625 -29.270263671875
38.673095703125 -0.8365478515625 -10.88330078125
22.927734375 2.921875 26.99072265625
-6.806884765625 -0.5045166015625 -0.84716796875
18.72607421875 -3.6014404296875 -16.56640625
16.212158203125 -4.1573486328125 -19.1962890625
32.80078125 0.3956298828125 14.177001953125
32.34375 -1.69677734375 -0.932373046875
12.41943359375 -4.622314453125 -23.150146484375
4.3828125 -0.9193115234375 47.7412109375
42.474853515625 -1.7772216796875 -0.310546875
7.616455078125 0.4541015625 44.39208984375
25.037841796875 3.876708984375 17.2763671875
2.958984375 -3.454833984375 -18.467529296875
6.724365234375 -4.0264892578125 -19.342529296875
27.54052734375 -1.213134765625 2.45654296875
-5.196044921875 0.23876953125 5.594482421875
-14.6796875 -2.449462890625 69.959228515625
13.1826171875 3.0015869140625 26.752197265625
-24.824951171875 -2.4156494140625 68.967529296875
-24.440185546875 24.04248046875 -14.36865234375
44.985107421875 -6.49853515625 -30.325927734375
23.15234375 -0.081298828125 9.520263671875
-16.92333984375 -1.8441162109375 -12.71923828125
-1.160888671875 -2.355712890625 50.792236328125
47.5185546875 -6.34326171875 -29.01904296875
39.6923828125 -6.1142578125 -28.762451171875
-24.791748046875 19.1595458984375 -24.494140625
-14.18505859375 -3.354248046875 42.478759765625
31.902099609375 -2.5997314453125 -5.06787109375
47.193359375 -4.6805419921875 -14.737548828125
23.13818359375 -4.9200439453125 -24.437744140625
19.533447265625 3.685302734375 33.150390625
-0.45654296875 -0.821044921875 42.1240234375
-15.79296875 1.6063232421875 8.59228515625
48.97705078125 -3.6112060546875 -8.83056640625
-25.56982421875 2.033447265625 -5.0947265625
17.4765625 0.0662841796875 8.0009765625
32.950927734375 -6.121337890625 -29.2568359375
-25.05615234375 18.441162109375 -20.4365234375
-4.760009765625 -1.2357177734375 40.6845703125
-15.9072265625 -4.725341796875 57.576416015625
19.41064453125 -4.8431396484375 -23.1796875
26.42236328125 -4.3194580078125 -19.804443359375
-14.29736328125 43.9635009765625 -27.94482421875
25.137451171875 -3.2171630859375 -13.45751953125
-12.955078125 -4.029541015625 48.00341796875
-11.751708984375 1.4781494140625 -6.697509765625
-24.280517578125 22.093017578125 -28.72998046875
-6.328125 1.4603271484375 13.030517578125
30.292724609375 -4.460693359375 -18.767333984375
39.16748046875 -0.0269775390625 10.891845703125
41.497802734375 -5.1702880859375 -23.230712890625
-27.80908203125 -2.9453125 64.98583984375
-11.305419921875 1.1937255859375 33.40478515625
5.054931640625 2.30029296875 29.702392578125
43.47900390625 -4.059814453125 -15.09375
3.50537109375 0.0992431640625 5.52001953125
-6.353759765625 -1.0496826171875 -3.296875
-6.98388671875 -0.0487060546875 30.4248046875
-14.933837890625 0.0908203125 1.439453125
-24.9033203125 -0.350830078125 -11.0908203125
-10.8642578125 -4.629638671875 54.13818359375
3.02880859375 0.9298095703125 34.844970703125
-25.5146484375 13.2249755859375 -4.56396484375
-6.485107421875 -2.390625 44.974853515625
-0.637451171875 -2.4932861328125 -12.939697265625
-22.935791015625 -3.95361328125 51.8544921875
13.927490234375 1.2236328125 13.62646484375
-24.468505859375 3.1226806640625 4.46484375
35.339111328125 -2.50146484375 -6.8349609375
-18.034423828125 -5.1717529296875 50.281494140625
5.533447265625 -1.436279296875 -2.110595703125
-26.03662109375 10.746826171875 -14.006591796875
-16.48779296875 45.9921875 -37.519775390625
30.485107421875 -11.435302734375 50.81005859375
-22.458740234375 -3.591552734375 61.54443359375
-26.310302734375 3.5506591796875 -3.314208984375
47.761962890625 -5.473388671875 -24.01318359375
-20.8896484375 -1.9462890625 -12.335205078125
-24.4326171875 22.1771240234375 -32.193359375
22.75048828125 -2.40380859375 -7.702392578125
43.161865234375 -3.3489990234375 -10.46435546875
12.01220703125 2.3677978515625 21.83203125
8.275146484375 -0.6021728515625 3.404052734375
42.246826171875 -0.4595947265625 9.162841796875
-2.010498046875 -0.2344970703125 1.126220703125
-16.080078125 -2.04443359375 72.4130859375
-16.3984375 43.2960205078125 -37.801025390625
24.439453125 -1.8621826171875 -3.156982421875
42.177734375 -0.7301025390625 -12.694580078125
-11.891845703125 1.0614013671875 9.312744140625
-10.14599609375 -3.4501953125 46.779296875
-7.08056640625 0.6998291015625 7.471923828125
-11.8291015625 0.4306640625 5.505615234375
-23.8212890625 11.7745361328125 -21.1943359375
13.27783203125 -0.130126953125 5.194580078125
47.697021484375 -1.905029296875 1.95654296875
7.39453125 -4.2554931640625 -21.655517578125
18.1806640625 2.7691650390625 21.748046875
-13.944091796875 2.56201171875 9.9189453125
-10.266357421875 2.84716796875 12.744140625
-0.83447265625 -1.1898193359375 -5.0673828125
7.518798828125 2.785888671875 24.477294921875
-20.904052734375 -1.012939453125 -7.03662109375
-25.29931640625 7.9918212890625 -12.636474609375
25.4228515625 2.4720458984375 24.993408203125
8.197998046875 -2.1630859375 -6.83642578125
-13.73779296875 -0.525146484375 37.37060546875
23.71826171875 -0.7833251953125 2.83154296875
-9.026611328125 1.0596923828125 9.4375
28.12646484375 2.042724609375 25.00390625
7.697021484375 0.42431640625 8.739990234375
-0.053955078125 1.4649658203125 13.124755859375
19.112060546875 1.1729736328125 15.219482421875
21.1669921875 0.3873291015625 11.414794921875
17.943603515625 3.146484375 28.325927734375
-9.53662109375 -1.6566162109375 -8.293212890625
13.539306640625 1.845703125 19.1123046875
9.635498046875 -3.1051025390625 -14.362060546875
24.626953125 0.973388671875 14.171630859375
2.931640625 -0.705322265625 45.537353515625
2.685302734375 -0.9068603515625 -0.472412109375
-2.52734375 -3.233154296875 -17.26220703125
-29.612548828125 -2.685302734375 62.491455078125
40.0830078125 -5.040283203125 -20.5556640625
-3.265380859375 3.486328125 21.5888671875
-11.78076171875 -2.356201171875 -13.57470703125
-11.58544921875 -1.6661376953125 37.020751953125
30.428466796875 2.4012451171875 24.58544921875
26.83447265625 -0.4342041015625 6.989990234375
-18.255615234375 0.8560791015625 63.60400390625
-25.452392578125 10.9669189453125 -3.390380859375
-25.685546875 9.4864501953125 -9.819091796875
-10.406005859375 -3.1317138671875 -16.777099609375
23.520263671875 -1.240478515625 -1.1279296875
-8.740478515625 -0.0093994140625 1.5869140625
-21.765869140625 -0.21875 -3.553466796875
-25.12060546875 -3.4320068359375 62.19091796875
21.654296875 3.5606689453125 31.58349609375
-14.15869140625 -3.4674072265625 64.354248046875
9.558837890625 -0.1412353515625 6.94970703125
20.878173828125 3.3218994140625 22.630859375
30.231689453125 22.6634521484375 75.712646484375
29.678955078125 -3.85595703125 -15.637939453125
9.89892578125 1.8233642578125 37.768798828125
13.624755859375 0.678955078125 9.856201171875
20.65869140625 -2.02392578125 -5.63232421875
-21.03857421875 0.76171875 4.05517578125
-11.339111328125 -3.2928466796875 64.406494140625
45.143310546875 -5.0396728515625 -19.442626953125
-1.13623046875 45.24169921875 -29.218017578125
38.62890625 -1.5064697265625 -0.919189453125
11.678955078125 1.3004150390625 43.147705078125
-24.797119140625 18.4693603515625 -12.1611328125
17.3740234375 -1.7259521484375 -2.56396484375
30.334228515625 1.5103759765625 18.39599609375
10.96826171875 2.6337890625 33.844482421875
-5.991943359375 -3.5775146484375 53.486572265625
-5.2490234375 -0.00537109375 31.901123046875
35.894775390625 -2.0997314453125 -2.33984375
4.001220703125 -2.22802734375 -9.213623046875
-26.166748046875 6.1409912109375 0.570556640625
38.79443359375 -4.5360107421875 -17.09619140625
-6.5341796875 -3.0679931640625 -15.97412109375
-25.4130859375 12.2227783203125 -17.06494140625
-17.801513671875 0.6964111328125 4.622314453125
19.194091796875 -2.4005126953125 -7.615234375
23.4169921875 -3.902099609375 -18.522216796875
34.133056640625 0.1549072265625 11.2568359375
-15.1025390625 -2.114501953125 40.89453125
-25.292724609375 19.563232421875 -27.48779296875
30.95654296875 -1.2835693359375 3.038818359375
9.279052734375 32.3345947265625 -4.245361328125
46.471435546875 -2.2479248046875 -1.25048828125
-5.293212890625 -3.0738525390625 50.507080078125
-25.38330078125 13.3929443359375 -10.224853515625
15.830078125 -2.4931640625 -9.175048828125
-1.459716796875 2.6536865234375 18.4931640625
-20.1513671875 -1.6072998046875 75.082763671875
-10.98193359375 45.20654296875 -28.837158203125
4.968505859375 0.2159423828125 41.823974609375
-14.361083984375 -1.0120849609375 67.062744140625
3.32373046875 -1.6632080078125 51.988525390625
37.61669921875 -3.797119140625 -13.31591796875
12.309326171875 -2.06005859375 -7.20849609375
-8.23193359375 -3.3897705078125 64.560791015625
-24.30712890625 23.54931640625 -19.07763671875
-25.715087890625 5.1944580078125 -9.725341796875
-5.9541015625 -4.4091796875 59.825439453125
9.543701171875 0.9267578125 43.01513671875
-2.847412109375 -0.02685546875 35.248046875
-1.353759765625 -1.7818603515625 -7.721923828125
42.52294921875 -1.904541015625 -4.097412109375
42.142822265625 1.4830322265625 -9.86474609375
-25.14111328125 6.737060546875 -16.688720703125
-25.356201171875 6.7423095703125 -14.39306640625
34.873046875 0.319580078125 13.588623046875
37.2802734375 -0.73486328125 7.1357421875
-4.6279296875 0.9781494140625 27.945556640625
-2.656005859375 1.9520263671875 24.578857421875
20.6201171875 -3.58740234375 -15.5458984375
-24.4091796875 -1.2293701171875 75.519287109375
14.01953125 -1.0963134765625 -0.834716796875
-12.334716796875 -2.008056640625 71.381591796875
16.843505859375 2.2164306640625 18.34814453125
43.377197265625 -0.878173828125 6.943603515625
31.694580078125 -3.336669921875 -9.9931640625
-26.0810546875 2.909912109375 -9.433349609375
-15.850341796875 -4.573486328125 54.08642578125
-26.225341796875 3.846923828125 -7.386962890625
-24.192138671875 -4.2994384765625 57.27001953125
20.413330078125 -3.188232421875 -12.4248046875
42.818359375 -0.09130859375 -7.78076171875
7.862060546875 32.1038818359375 -1.97314453125
1.510986328125 -3.6986083984375 -20.00830078125
-11.747802734375 0.1661376953125 -0.776611328125
6.540283203125 -3.0311279296875 -13.344970703125
4.669677734375 -3.045166015625 -14.355224609375
2.84326171875 -1.5660400390625 49.112548828125
8.415771484375 -2.2899169921875 -9.020263671875
-3.720703125 -1.358642578125 42.95556640625
22.153076171875 -0.53662109375 4.2412109375
-25.0556640625 15.0325927734375 -14.390625
13.218994140625 2.4111328125 37.406982421875
11.470703125 -0.5986328125 1.80810546875
-32.51416015625 -1.2398681640625 73.09814453125
27.47998046875 0.478271484375 13.104248046875
-4.250732421875 2.7154541015625 14.075439453125
5.47900390625 -0.106689453125 4.4892578125
25.97021484375 1.1121826171875 15.78173828125
-12.33837890625 2.802490234375 -3.157958984375
20.0869140625 4.7650146484375 37.3642578125
10.1396484375 -2.04833984375 -5.931884765625
27.709716796875 -4.9906005859375 -24.2802734375
9.603271484375 -1.03759765625 -1.048828125
33.52099609375 0.98193359375 18.326171875
17.57373046875 0.5743408203125 12.947998046875
43.23095703125 -2.671630859375 -8.203369140625
18.181640625 -0.44287109375 4.375244140625
16.749755859375 -0.6837158203125 2.853759765625
8.966796875 1.1693115234375 13.644287109375
0.46044921875 0.6103515625 8.809326171875
11.533935546875 0.6536865234375 10.5439453125
-25.390869140625 2.1429443359375 -1.447998046875
-27.081298828125 -1.6083984375 73.7099609375
34.23828125 -4.0592041015625 -15.910888671875
25.220458984375 -0.02685546875 9.360595703125
23.716552734375 4.8319091796875 20.17529296875
-25.020263671875 -0.2093505859375 -13.92041015625
-16.489501953125 -2.393798828125 -15.20166015625
-18.896728515625 0.223876953125 -1.09423828125
-4.004150390625 -2.2579345703125 -12.505126953125
-10.813720703125 -0.003173828125 2.81591796875
-19.548095703125 -1.3785400390625 71.057373046875
-15.076416015625 -2.012451171875 75.375732421875
-25.044189453125 22.6181640625 -10.843505859375
4.86083984375 2.8060302734375 26.312255859375
-16.393310546875 0.9315185546875 6.10888671875
10.413330078125 3.2044677734375 30.025390625
43.166259765625 -1.3079833984375 3.509765625
-1.889892578125 -0.4556884765625 -0.91357421875
3.27734375 -3.3206787109375 -16.443359375
8.920166015625 3.0203857421875 25.958740234375
6.3837890625 2.1236572265625 19.038818359375
-25.00390625 9.794189453125 0.06982421875
-2.74072265625 -0.9652099609375 40.8984375
-28.40869140625 -3.24560546875 60.629150390625
-26.48486328125 -2.012451171875 70.0947265625
15.1064453125 3.6546630859375 29.85302734375
45.51220703125 -3.8406982421875 -10.87255859375
36.3720703125 -2.15234375 -8.556640625
-9.683349609375 -4.0059814453125 51.431640625
21.673583984375 5.3424072265625 19.38134765625
-18.662353515625 40.134033203125 -37.47705078125
-23.79931640625 12.1651611328125 -24.3408203125
-23.236572265625 -1.04638671875 77.852783203125
38.821533203125 -1.5621337890625 -5.361572265625
5.35791015625 1.47119140625 34.28076171875
1.12939453125 -0.1973876953125 40.226806640625
-25.906494140625 3.750244140625 -11.262451171875
21.37744140625 -4.863037109375 -22.7197265625
3.446044921875 -1.7745361328125 -6.62060546875
2.66748046875 1.708984375 15.776123046875
41.662109375 -1.9156494140625 -2.1494140625
0.96142578125 1.314208984375 30.611083984375
-6.97412109375 -4.294189453125 57.63330078125
-13.922607421875 -4.497802734375 57.33740234375
35.096435546875 -1.1458740234375 3.240234375
-9.87255859375 43.3968505859375 -29.569091796875
-9.11572265625 -4.0047607421875 61.400634765625
-11.415283203125 1.6026611328125 -4.721923828125
-5.267578125 -2.3519287109375 46.568359375
29.843017578125 -3.5184326171875 -12.0234375
3.487060546875 -0.343505859375 43.138427734375
45.09814453125 -5.42138671875 -23.70703125
24.6552734375 3.0596923828125 19.56201171875
-6.8017578125 43.4852294921875 -28.917724609375
19.680419921875 3.7330322265625 35.634521484375
-25.591552734375 8.200927734375 -8.29345703125
-6.093017578125 -2.1143798828125 -10.782470703125
-11.7275390625 -3.1484375 68.19873046875
21.174560546875 -1.3004150390625 0.78076171875
-23.13037109375 -0.8043212890625 -7.516357421875
-18.909423828125 -1.895263671875 -12.52685546875
-19.1533203125 37.968994140625 -39.708984375
-8.62744140625 -3.5638427734375 48.86865234375
13.635009765625 -1.754638671875 -4.586181640625
39.055419921875 0.29833984375 12.843017578125
4.886474609375 -3.473388671875 -18.01025390625
-24.976318359375 23.6051025390625 -16.644775390625
-13.64599609375 -4.6505126953125 50.58642578125
-11.4375 -1.478271484375 -7.7744140625
6.441650390625 -2.2406005859375 -8.935791015625
-4.377197265625 -0.6820068359375 36.67138671875
-26.5224609375 -0.6893310546875 77.58056640625
-17.734130859375 -4.1573486328125 45.086669921875
-16.271728515625 0.5968017578125 64.649169921875
12.626708984375 -3.548095703125 -16.17333984375
-25.58154296875 8.943603515625 -3.958984375
-25.1796875 19.6654052734375 -16.86376953125
-18.827392578125 -4.047119140625 58.912353515625
27.064697265625 -4.654296875 -22.03759765625
38.593505859375 -4.2987060546875 -14.94970703125
11.431884765625 2.943603515625 31.95703125
6.981201171875 0.9552001953125 12.84130859375
-17.009765625 0.2613525390625 -5.02734375
-25.129150390625 16.7840576171875 -13.51220703125
2.185302734375 -0.1995849609375 2.94775390625
6.255859375 0.8797607421875 38.98193359375
-0.240966796875 -2.26123046875 -11.0419921875
-7.949951171875 -2.4228515625 -13.208740234375
-6.65185546875 1.3372802734375 11.10986328125
-24.70703125 0.213623046875 -5.04736328125
-13.056396484375 -0.08349609375 0.939453125
-3.199462890625 44.28369140625 -29.557373046875
27.307373046875 -1.50830078125 -0.525146484375
15.212890625 -4.5008544921875 -20.83349609375
6.3515625 -0.0797119140625 47.60107421875
-23.211181640625 -4.626220703125 54.80859375
-25.020751953125 22.0330810546875 -14.849853515625
-24.8916015625 10.2322998046875 -19.018310546875
25.14453125 2.349365234375 23.071044921875
15.90087890625 -1.376708984375 -1.24560546875
-22.550048828125 -1.65234375 72.511962890625
19.21240234375 0.563232421875 11.90478515625
-29.24365234375 -1.3043212890625 75.02197265625
-15.872802734375 -2.2322998046875 -11.123779296875
20.480224609375 2.0069580078125 16.312744140625
6.441162109375 -1.201416015625 -0.414794921875
-0.065185546875 1.570556640625 28.692138671875
-22.339111328125 -3.9825439453125 58.437255859375
8.676025390625 1.1873779296875 15.840087890625
46.504150390625 -4.3436279296875 -12.5068359375
-8.547119140625 -2.070556640625 -10.512939453125
-26.0029296875 -2.750732421875 65.76318359375
34.833251953125 -3.3795166015625 -10.4560546875
4.687744140625 -2.6151123046875 -12.47314453125
15.328857421875 3.131103515625 26.01220703125
-24.740234375 18.8724365234375 -10.277099609375
-3.885986328125 -2.48486328125 -14.589111328125
-12.468994140625 -2.966064453125 41.694091796875
18.22509765625 3.1773681640625 19.868408203125
10.1201171875 1.967529296875 19.561279296875
19.269287109375 3.2821044921875 29.90380859375
37.617919921875 -2.2069091796875 -10.047119140625
11.69140625 0.143310546875 7.12109375
8.596923828125 0.6561279296875 10.415771484375
5.46826171875 -0.81982421875 1.247802734375
-0.35791015625 0.2828369140625 35.80224609375
4.3046875 2.2523193359375 20.641357421875
26.83740234375 -2.1026611328125 -6.530517578125
-3.413818359375 -0.9248046875 -2.7578125
7.19189453125 -3.689453125 -17.526611328125
-25.667236328125 17.8726806640625 -28.27978515625
-16.86865234375 -4.0028076171875 61.6669921875
13.999267578125 0.90478515625 11.70751953125
-19.190185546875 41.959228515625 -37.55517578125
-7.509033203125 -1.5389404296875 38.712890625
-7.155517578125 -1.506591796875 -7.0390625
12.646728515625 1.61572265625 17.449462890625
6.44970703125 -0.486083984375 2.836181640625
-25.904296875 11.3111572265625 -6.777587890625
22.39599609375 -2.078857421875 -3.96533203125
-8.290771484375 -2.8499755859375 -16.641357421875
11.343505859375 1.3199462890625 14.90234375
-13.4501953125 43.4056396484375 -29.53955078125
9.171875 2.064697265625 33.75146484375
-25.65087890625 16.72412109375 -24.51416015625
-12.2939453125 0.8389892578125 7.4853515625
-10.2734375 -4.77783203125 56.002197265625
-25.560546875 15.541015625 -21.90185546875
0.521728515625 2.591552734375 21.57470703125
-13.80029296875 -0.3548583984375 -6.744384765625
-5.13916015625 -4.2193603515625 58.028564453125
-13.94091796875 0.7066650390625 4.393310546875
-24.310791015625 14.7242431640625 -24.518798828125
-1.781982421875 1.1051025390625 9.701904296875
-25.408935546875 14.808349609375 -11.873291015625
24.620849609375 -5.5565185546875 -26.744384765625
13.262939453125 3.085693359375 33.363525390625
-16.73681640625 0.3634033203125 1.83837890625
-24.750732421875 -0.521728515625 -8.813232421875
-9.060791015625 -1.328369140625 -6.521728515625
-8.258544921875 2.3455810546875 13.5244140625
41.10791015625 -0.17529296875 10.932861328125
35.240478515625 -1.773681640625 -0.17041015625
35.111328125 -6.07470703125 -29.485107421875
36.3291015625 -4.82861328125 -22.278076171875
46.900390625 -3.5589599609375 -8.744384765625
-0.882080078125 0.1842041015625 5.822265625
-25.407470703125 13.7708740234375 -18.296630859375
-17.87841796875 -1.9713134765625 72.850341796875
-25.255859375 12.8660888671875 -14.841552734375
46.564453125 -5.3077392578125 -22.580810546875
-5.237548828125 0.55615234375 7.508544921875
-20.291015625 -4.8787841796875 55.5771484375
-25.720703125 5.112548828125 -15.18115234375
3.115234375 2.4884033203125 27.0703125
-12.923828125 -4.3074951171875 61.236083984375
21.330078125 0.1658935546875 9.381591796875
-11.826171875 -3.929443359375 50.538818359375
7.4248046875 -2.628173828125 -10.6318359375
34.489501953125 -5.04443359375 -21.468505859375
11.741455078125 -1.178466796875 -2.747314453125
45.825439453125 -4.6907958984375 -15.96630859375
-13.77783203125 2.1859130859375 -2.1923828125
22.671875 0.7274169921875 12.82958984375
44.00390625 -5.8759765625 -25.26904296875
34.898193359375 -4.39404296875 -18.139404296875
24.040283203125 3.83935546875 33.26416015625
41.8857421875 -2.372802734375 -11.34423828125
-12.758056640625 -2.854736328125 -16.161376953125
28.929443359375 -4.4708251953125 -19.989013671875
0.634033203125 -2.3721923828125 51.269775390625
-4.728759765625 -1.6802978515625 -7.739501953125
11.640380859375 1.8665771484375 39.252685546875
36.2548828125 -3.80712890625 -14.53662109375
5.524658203125 2.7283935546875 24.6103515625
22.51513671875 -5.4674072265625 -26.06591796875
0.17919921875 -1.898193359375 -8.708984375
4.63671875 -0.9539794921875 -0.545166015625
-22.8251953125 2.812255859375 5.2197265625
33.39111328125 -3.4913330078125 -11.563720703125
34.794677734375 -0.031982421875 9.570068359375
2.161376953125 -1.8150634765625 -8.3525390625
-15.85693359375 -0.5076904296875 -6.459228515625
9.908203125 -0.908447265625 0.92919921875
-1.89794921875 -0.3743896484375 37.225830078125
-6.14794921875 -0.6959228515625 35.701171875
31.4228515625 -8.95556640625 52.35205078125
17.5673828125 -4.1473388671875 -17.98486328125
-18.47119140625 -4.8699951171875 47.762939453125
-25.449951171875 10.5546875 -16.2841796875
4.1298828125 0.5069580078125 38.8564453125
-0.30029296875 -2.787353515625 52.792724609375
48.3701171875 -4.090576171875 -4.367919921875
-13.606689453125 1.2734375 8.654296875
15.5556640625 2.4134521484375 41.278076171875
-8.459716796875 0.44970703125 29.502197265625
37.4013671875 0.7049560546875 15.204345703125
-1.96875 -3.1776123046875 56.442626953125
-25.365234375 8.1771240234375 -0.728759765625
-2.337158203125 0.9989013671875 28.7666015625
-23.364990234375 0.4556884765625 1.8642578125
-15.226806640625 -2.4840087890625 -13.9140625
23.257568359375 2.4921875 23.01806640625
-4.920654296875 -0.23046875 1.01513671875
-25.217529296875 17.9642333984375 -16.0771484375
8.83642578125 -1.498291015625 -4.816162109375
12.290283203125 3.4686279296875 28.245849609375
17.7685546875 -2.5111083984375 -8.710205078125
-29.956787109375 -2.3677978515625 67.550537109375
30.05810546875 22.8382568359375 77.56298828125
32.919677734375 -0.6064453125 6.2578125
-12.7265625 44.8663330078125 -28.57763671875
20.353271484375 -1.865234375 -2.8994140625
0.908447265625 -3.50439453125 -18.262939453125
0.937744140625 -0.690673828125 -1.1396484375
-13.415771484375 -1.6912841796875 -8.564453125
-32.17919921875 -2.0037841796875 69.7939453125
1.572998046875 -0.54931640625 42.340576171875
-21.28125 -3.252685546875 64.77685546875
-15.343505859375 -4.5400390625 50.032470703125
34.976318359375 -2.47412109375 -4.51806640625
46.28564453125 -0.9127197265625 4.96240234375
28.72802734375 -1.96142578125 -1.747314453125
-6.97021484375 0.482177734375 5.4609375
0.6455078125 -0.980712890625 -4.090087890625
2.005859375 -1.427001953125 -5.3017578125
-19.8115234375 -1.2237548828125 -9.442138671875
-19.376953125 -0.70703125 -6.1728515625
40.145751953125 -3.947998046875 -13.490478515625
-10.40380859375 -4.25830078125 59.538330078125
30.8779296875 1.7598876953125 22.276123046875
-13.684326171875 -1.7213134765625 -10.64697265625
-24.896240234375 4.8448486328125 4.3583984375
34.964111328125 -5.4210205078125 -25.917724609375
-1.773681640625 -1.1839599609375 43.258544921875
5.2060546875 0.62255859375 9.931396484375
31.20654296875 -1.54248046875 0.41943359375
29.009521484375 1.5020751953125 17.21826171875
-1.814697265625 -2.29541015625 48.97607421875
-24.752197265625 -2.6220703125 67.20947265625
28.072509765625 -1.89599609375 -3.781982421875
29.2744140625 24.0374755859375 75.137939453125
-0.927978515625 2.6243896484375 14.13720703125
6.86328125 2.04296875 32.92333984375
4.078857421875 -0.21533203125 3.413818359375
4.4619140625 1.7969970703125 31.771728515625
-18.83984375 -0.7415771484375 64.33837890625
-25.28662109375 16.143798828125 -15.740966796875
9.9931640625 0.764404296875 11.48828125
23.30712890625 0.5430908203125 11.15966796875
-1.64990234375 2.365478515625 22.413818359375
9.363037109375 0.6224365234375 46.266845703125
7.65869140625 -3.353271484375 -15.71435546875
-25.709716796875 5.2755126953125 -4.325439453125
-15.068359375 -1.085205078125 -7.91943359375
13.175048828125 -3.8446044921875 -17.816162109375
33.240234375 -4.405517578125 -17.560546875
-29.19873046875 -2.2156982421875 69.575439453125
15.3701171875 0.042236328125 8.695068359375
23.251708984375 -1.2476806640625 0.6064453125
-21.766845703125 -1.5294189453125 74.077392578125
-4.330322265625 1.07275390625 10.553466796875
-24.628173828125 -0.0048828125 -7.080810546875
-7.83203125 -3.43505859375 50.5078125
3.978515625 1.717041015625 16.93603515625
27.7509765625 1.5771484375 19.1396484375
19.675537109375 -1.083984375 1.65380859375
11.834228515625 2.73828125 24.751708984375
25.834716796875 1.591552734375 18.660400390625
-25.170166015625 14.4366455078125 -6.16015625
-23.171630859375 -2.5225830078125 69.517578125
1.335693359375 2.3182373046875 25.153564453125
39.472900390625 -6.009521484375 -27.034912109375
-7.80224609375 -4.1771240234375 53.923095703125
-28.751708984375 -1.621337890625 72.783203125
-10.512451171875 1.16845703125 10.37255859375
-19.629638671875 2.7784423828125 6.3134765625
28.592041015625 2.1888427734375 28.92919921875
37.763671875 1.0643310546875 17.50244140625
24.04736328125 3.427734375 31.4853515625
0.527587890625 1.0107421875 32.48779296875
-4.412109375 45.0452880859375 -28.56982421875
-9.1494140625 -3.7008056640625 63.116943359375
20.991943359375 3.8917236328125 34.11962890625
14.9775390625 3.4329833984375 33.128662109375
-15.733642578125 2.8798828125 63.96435546875
-25.94140625 7.5467529296875 1.567138671875
9.7265625 2.5977783203125 32.193359375
8.04638671875 2.927734375 28.356689453125
7.861083984375 1.75927734375 17.26318359375
24.476318359375 -4.6044921875 -21.7392578125
-9.892333984375 -1.0111083984375 34.028564453125
46.302001953125 -7.181884765625 -31.408203125
18.380859375 3.7254638671875 34.486083984375
5.928955078125 1.8023681640625 17.312255859375
-24.819580078125 6.807373046875 -19.653564453125
10.927978515625 -3.7952880859375 -15.946044921875
-14.374755859375 2.865966796875 -6.33349609375
6.424560546875 2.406494140625 30.75439453125
17.078857421875 3.5675048828125 35.996337890625
-1.305419921875 -2.107666015625 -9.68798828125
1.223876953125 -2.4791259765625 -11.93310546875
38.154296875 -5.05419921875 -21.590576171875
-2.09912109375 -2.275390625 -12.047119140625
6.055419921875 -0.20166015625 45.783935546875
-5.16162109375 1.2401123046875 25.865966796875
32.203369140625 -5.30078125 -24.46875
-20.337158203125 -2.1341552734375 -14.038330078125
8.6416015625 1.66064453125 35.7158203125
-25.545166015625 7.258056640625 -4.295166015625
-4.057861328125 0.061279296875 34.031982421875
3.564453125 1.4566650390625 33.300048828125
-7.3173828125 1.174560546875 27.608154296875
40.3828125 0.4715576171875 -9.640869140625
8.915771484375 1.3863525390625 39.366943359375
19.952880859375 4.827880859375 18.689453125
-2.8076171875 -1.566162109375 -6.841552734375
17.634765625 1.383056640625 16.059814453125
32.3603515625 -0.184814453125 8.290771484375
30.13818359375 -0.177978515625 9.527587890625
-2.653076171875 2.8369140625 13.474609375
-25.894775390625 -4.16064453125 57.188720703125
25.214111328125 -2.11767578125 -5.977783203125
-19.638427734375 -2.7249755859375 64.916015625
3.685546875 2.194091796875 28.650390625
6.318359375 0.320556640625 42.86083984375
-11.136474609375 -2.4462890625 -15.397216796875
-5.804443359375 -0.4959716796875 33.939697265625
-25.15283203125 14.8314208984375 -9.217529296875
1.646728515625 -0.6263427734375 1.28759765625
-9.669189453125 -0.8203125 -2.889404296875
-16.61328125 -4.3341064453125 46.3505859375
0.735107421875 0.012451171875 3.80615234375
1.138427734375 -1.2275390625 45.915771484375
-5.964111328125 -2.0369873046875 42.593017578125
8.76025390625 -3.810791015625 -18.54443359375
18.023681640625 -0.219970703125 6.421630859375
5.240966796875 0.174072265625 7.580810546875
-4.214111328125 -3.5948486328125 53.96240234375
13.341064453125 -4.3800048828125 -21.40185546875
17.886962890625 -5.056640625 -24.17724609375
-23.85009765625 -2.8829345703125 65.720703125
-9.7109375 1.7989501953125 30.9658203125
39.243408203125 -1.140625 2.999267578125
28.32958984375 -2.5911865234375 -8.321044921875
-8.968017578125 -2.4381103515625 42.27001953125
-11.63232421875 -2.644775390625 40.223388671875
-16.73779296875 47.5167236328125 -36.853271484375
-2.5224609375 0.0494384765625 2.701171875
31.05517578125 -3.7108154296875 -13.96923828125
-17.022216796875 44.2156982421875 -36.5419921875
-11.139892578125 -2.863037109375 42.715087890625
13.56298828125 -1.4276123046875 -2.61767578125
33.919189453125 1.5997314453125 21.469482421875
-3.379638671875 -2.1497802734375 47.3603515625
-1.46435546875 1.22900390625 11.633056640625
10.21240234375 -0.77978515625 2.90087890625
-23.572998046875 -1.320556640625 -10.784423828125
-7.07470703125 -0.0341796875 3.740966796875
6.06201171875 -1.724853515625 -3.7060546875
-8.465576171875 -3.03271484375 46.491455078125
34.811767578125 -2.9423828125 -8.550048828125
16.041259765625 -3.188232421875 -13.718505859375
6.521484375 1.410400390625 36.009033203125
23.03564453125 0.9539794921875 14.682861328125
23.718505859375 4.8594970703125 16.981201171875
-0.398681640625 2.002197265625 25.9130859375
-15.011474609375 -3.6722412109375 43.936767578125
-1.64697265625 -3.1107177734375 54.366455078125
-6.54833984375 -3.082763671875 49.406982421875
-21.927490234375 -4.7706298828125 50.664794921875
33.31298828125 -1.2322998046875 4.4208984375
-2.380615234375 -3.3302001953125 -18.918701171875
-19.908447265625 -0.234375 -3.0966796875
-24.6181640625 22.1259765625 -30.358642578125
-25.736572265625 6.4149169921875 -12.338134765625
0.136474609375 2.37158203125 19.7666015625
18.607421875 4.27978515625 38.629150390625
34.325927734375 -6.1107177734375 -28.021240234375
21.1904296875 -4.761962890625 -21.02880859375
2.533935546875 2.4927978515625 20.497314453125
-26.1005859375 3.5380859375 -5.550048828125
2.383056640625 1.4281005859375 12.9013671875
-3.438232421875 -2.9970703125 50.8994140625
-19.647216796875 -4.8751220703125 53.942626953125
-22.127685546875 -2.8994140625 66.193603515625
-21.731201171875 -3.5570068359375 63.212890625
36.89501953125 -5.4072265625 -24.88232421875
30.387939453125 -1.6795654296875 -1.40478515625
-25.46728515625 7.881103515625 -6.443359375
-25.08935546875 8.9835205078125 -14.050048828125
-25.487548828125 6.612548828125 -8.7275390625
-11.70849609375 43.7430419921875 -29.800537109375
46.0400390625 -2.587158203125 -3.06982421875
36.47509765625 -4.4849853515625 -18.6103515625
-23.381103515625 0.0118408203125 -0.474365234375
47.809814453125 -0.6990966796875 5.963134765625
35.1083984375 -4.4951171875 -19.836669921875
-25.734130859375 2.7750244140625 0.872314453125
26.62158203125 -5.440673828125 -25.826904296875
13.099853515625 2.614013671875 35.77783203125
1.49609375 -1.0299072265625 44.187255859375
42.848388671875 -3.8599853515625 -16.7333984375
31.546630859375 -4.3843994140625 -19.828857421875
27.9208984375 -5.5369873046875 -27.935791015625
29.575439453125 -5.385986328125 -24.6220703125
-6.5986328125 -4.1376953125 55.490966796875
1.267822265625 2.62060546875 23.403076171875
-25.9208984375 6.107421875 -2.1875
36.585693359375 -4.8255615234375 -20.656982421875
15.22314453125 3.4482421875 31.506103515625
41.25439453125 -1.8114013671875 -5.4169921875
-20.558349609375 -4.1812744140625 57.582763671875
43.237060546875 -4.7794189453125 -19.56298828125
11.45703125 -3.0587158203125 -12.796630859375
40.4755859375 0.4085693359375 13.93408203125
46.2578125 -2.0167236328125 0.850830078125
-1.86767578125 -0.908203125 -3.29443359375
-4.5869140625 -1.7740478515625 -9.366455078125
38.225341796875 -6.22802734375 -29.889404296875
-14.622802734375 -1.606689453125 39.398193359375
2.275390625 -3.063720703125 -15.177490234375
-14.369140625 -2.682373046875 66.263427734375
8.040283203125 2.5093994140625 22.95361328125
-5.983154296875 42.1297607421875 -29.3193359375
-14.881591796875 -3.9263916015625 60.580078125
-12.454833984375 -4.947021484375 54.32666015625
-13.7978515625 -3.069091796875 40.67333984375
-18.809326171875 -1.417236328125 75.99072265625
17.266845703125 -4.722412109375 -21.948974609375
0.753662109375 -2.8121337890625 -13.729248046875
12.774658203125 -2.4530029296875 -8.720947265625
11.67236328125 1.9884033203125 19.063720703125
41.61474609375 -4.9613037109375 -20.00439453125
21.9072265625 -0.4136962890625 6.3935546875
-29.218994140625 -2.9285888671875 65.83984375
-20.705322265625 -1.1038818359375 66.978515625
31.978515625 1.48388671875 20.556640625
14.931396484375 -4.50341796875 -22.433837890625
-10.5927734375 -1.34423828125 -5.981201171875
34.837158203125 -0.8878173828125 5.853759765625
-18.86181640625 39.5028076171875 -39.2607421875
7.91796875 0.560546875 42.7333984375
-16.425048828125 -0.623046875 63.59130859375
-17.841064453125 -5.22998046875 52.20751953125
1.509521484375 1.0399169921875 10.281982421875
-21.67041015625 -1.367919921875 -10.869873046875
-26.83935546875 -3.5653076171875 60.870849609375
45.281982421875 -5.24560546875 -21.04248046875
-7.310546875 -3.105224609375 -17.903076171875
13.107177734375 2.051513671875 43.232177734375
33.146728515625 -2.520751953125 -6.09375
-7.34130859375 -4.1746826171875 61.016845703125
-12.353271484375 1.4425048828125 -1.557861328125
-25.489013671875 12.6636962890625 -3.0517578125
-9.673583984375 -1.6168212890625 36.909912109375
-21.090576171875 -1.3221435546875 76.998046875
-30.92919921875 -2.763671875 66.209716796875
-24.884033203125 17.953369140625 -8.967529296875
-15.147216796875 1.9512939453125 65.829833984375
23.147216796875 3.071533203125 29.41455078125
24.32568359375 2.615234375 26.265869140625
23.030517578125 -4.7166748046875 -22.85009765625
2.34619140625 -1.16650390625 -2.8828125
-25.24951171875 19.39208984375 -29.08154296875
14.6806640625 -4.06787109375 -18.730224609375
-11.844482421875 -1.70703125 -9.64990234375
21.103759765625 3.671142578125 15.984375
17.0361328125 2.1103515625 19.944091796875
-11.752685546875 -3.772705078125 46.982177734375
42.6044921875 -0.0955810546875 11.488037109375
48.232177734375 -2.13037109375 -1.905517578125
30.175537109375 -4.258056640625 -17.1875
31.643310546875 -2.5997314453125 -6.643798828125
-24.657958984375 20.398193359375 -18.178466796875
-19.380126953125 -1.3372802734375 77.475341796875
36.559326171875 -6.098876953125 -28.82275390625
-5.46728515625 -2.6309814453125 -14.472412109375
-5.494384765625 -1.268798828125 38.923828125
8.603759765625 1.78955078125 19.11181640625
-4.953857421875 -2.9224853515625 -16.0927734375
31.011962890625 -4.8302001953125 -21.567626953125
-22.792724609375 -5.019287109375 53.026611328125
7.278076171875 -0.3526611328125 4.623046875
25.24462890625 -0.867431640625 2.39892578125
-15.173095703125 2.07763671875 -3.263916015625
17.21533203125 -2.2178955078125 -7.08837890625
-5.6484375 2.077392578125 14.466064453125
16.82470703125 2.354736328125 22.45703125
11.99169921875 0.2698974609375 9.076171875
-20.08203125 -4.3905029296875 48.39697265625
-25.17724609375 1.409912109375 1.740966796875
14.379150390625 -3.1690673828125 -12.602294921875
5.8798828125 -4.166259765625 -21.18798828125
-16.828857421875 -1.981201171875 -9.88671875
46.76953125 -5.6875 -25.228271484375
-17.158935546875 -4.7681884765625 48.77099609375
11.9189453125 3.3822021484375 30.4794921875
-24.225341796875 -1.1566162109375 -12.887451171875
40.315673828125 -0.1781005859375 9.5634765625
14.180419921875 -2.0457763671875 -6.197265625
38.374755859375 -0.0296630859375 9.523681640625
-2.761474609375 -1.89111328125 -8.803466796875
17.098876953125 -1.7247314453125 -4.119873046875
-25.958251953125 2.349365234375 -13.987548828125
27.573486328125 0.1556396484375 11.16796875
-24.49462890625 20.890625 -11.363037109375
22.58203125 4.3240966796875 15.58984375
24.9384765625 -0.155029296875 7.39013671875
33.270263671875 -3.2906494140625 -9.99951171875
45.322998046875 -6.389892578125 -28.7900390625
-12.20947265625 -4.4853515625 58.2822265625
-4.906005859375 1.2530517578125 12.1962890625
-14.962890625 -1.62109375 65.261962890625
26.334228515625 -2.8411865234375 -9.68408203125
38.800537109375 -3.1109619140625 -11.432373046875
20.786865234375 -2.952392578125 -10.50439453125
31.401611328125 1.878173828125 25.705322265625
35.0419921875 -3.478515625 -12.13037109375
39.231201171875 -6.601806640625 -31.107177734375
-18.96142578125 -1.09033203125 -7.653564453125
1.04296875 2.2066650390625 26.87255859375
-19.5185546875 -5.2730712890625 50.787353515625
1.439697265625 0.3642578125 7.605712890625
3.343994140625 0.766845703125 9.89208984375
24.3857421875 -4.2664794921875 -19.703857421875
-32.06494140625 -1.6629638671875 66.269287109375
26.310546875 -4.1171875 -18.225341796875
2.214599609375 -1.3797607421875 47.687255859375
30.5615234375 -5.1744384765625 -23.42041015625
-11.436279296875 -4.205078125 60.75048828125
14.471923828125 2.3323974609375 21.6240234375
42.309814453125 -5.1634521484375 -21.798828125
-14.235595703125 0.5789794921875 66.4697265625
16.7763671875 0.5721435546875 11.6025390625
15.02783203125 -4.7054443359375 -24.012451171875
21.522705078125 4.69677734375 20.9384765625
17.867919921875 -2.7086181640625 -10.2568359375
27.863525390625 -3.0633544921875 -10.5869140625
-3.87060546875 -3.2427978515625 -18.458251953125
21.616455078125 2.9139404296875 25.828857421875
39.820068359375 -1.5675048828125 0.939208984375
-0.537841796875 -2.853759765625 -15.47314453125
-28.5517578125 -0.644775390625 76.255615234375
42.283203125 -1.413818359375 2.227783203125
8.107666015625 -0.953857421875 -0.614501953125
-2.93798828125 1.1634521484375 26.77880859375
-23.620361328125 -0.2032470703125 -4.009521484375
33.228759765625 -1.59130859375 0.3466796875
27.620361328125 2.709716796875 27.81787109375
25.691162109375 3.009033203125 28.702880859375
-1.09423828125 0.642822265625 32.2177734375
-9.530029296875 -4.18994140625 52.9716796875
19.593017578125 -0.3333740234375 5.45947265625
11.470947265625 -4.25927734375 -21.969482421875
3.982421875 -2.65625 -11.085693359375
24.30615234375 -2.357177734375 -7.7060546875
-23.6337890625 0.1138916015625 -2.0869140625
-24.79736328125 0.7471923828125 -1.10205078125
29.23388671875 1.8980712890625 23.725341796875
42.881103515625 -2.02685546875 -9.69482421875
11.75634765625 -4.257080078125 -20.37353515625
-2.997802734375 0.5604248046875 31.83447265625
46.647216796875 -2.8851318359375 -4.70849609375
14.6064453125 -3.7335205078125 -16.716552734375
21.56494140625 -4.9644775390625 -24.416015625
4.49658203125 1.4378662109375 15.394775390625
15.017578125 3.1287841796875 34.8603515625
6.2744140625 -1.850341796875 -5.875
-10.934814453125 1.5452880859375 11.816650390625
45.647705078125 -0.1890869140625 8.446044921875
-10.887939453125 -2.2520751953125 -12.311279296875
2.20263671875 1.3509521484375 32.253662109375
29.22412109375 -1.2281494140625 1.3759765625
19.7099609375 3.601318359375 31.614501953125
-24.408935546875 19.70068359375 -8.817138671875
22.354248046875 -4.213623046875 -19.603759765625
-3.18896484375 2.217529296875 22.48046875
8.37109375 -4.0474853515625 -20.473388671875
11.44384765625 1.969970703125 37.7216796875
-9.438720703125 -2.174560546875 -11.775634765625
30.66943359375 -2.80810546875 -7.826416015625
-17.23779296875 -1.96142578125 71.2734375
13.4619140625 3.4049072265625 30.002685546875
20.16552734375 -4.3641357421875 -19.285888671875
4.466796875 -0.439208984375 45.906005859375
22.28662109375 -3.7423095703125 -17.12646484375
29.307861328125 -0.4444580078125 7.289306640625
5.537353515625 0.8768310546875 12.29833984375
21.43603515625 2.9993896484375 27.38330078125
-0.683837890625 46.9141845703125 -29.4638671875
46.794677734375 -6.2757568359375 -27.659423828125
30.818359375 0.5723876953125 14.665283203125
3.751708984375 -1.0574951171875 -1.802978515625
14.704833984375 0.109619140625 6.709716796875
44.98095703125 -2.0582275390625 -0.910400390625
27.101806640625 -2.1033935546875 -4.958740234375
-14.744384765625 -4.6885986328125 51.90576171875
-25.6220703125 -3.2567138671875 63.635009765625
45.494873046875 -0.9576416015625 6.33447265625
7.1044921875 2.025390625 20.456787109375
-4.5966796875 -0.1038818359375 2.968994140625
21.9072265625 -3.109619140625 -11.879150390625
24.294921875 -2.9244384765625 -10.044921875
40.212158203125 -0.933349609375 4.175537109375
38.17333984375 -1.5833740234375 1.4814453125
-26.70556640625 -2.1082763671875 71.613037109375
17.549560546875 -3.4102783203125 -14.624755859375
22.553466796875 3.9154052734375 33.64697265625
12.5283203125 -2.617919921875 -11.282958984375
32.034912109375 -4.0751953125 -15.14599609375
-16.9765625 -4.5811767578125 55.863525390625
29.92626953125 0.338134765625 12.975341796875
38.0849609375 -5.4349365234375 -25.852294921875
19.426513671875 3.0693359375 27.93603515625
33.031005859375 -3.7298583984375 -13.501953125
-23.707275390625 11.7005615234375 -22.86767578125
-15.80078125 -1.4808349609375 76.618896484375
14.727294921875 -2.337890625 -7.813232421875
4.65283203125 -1.8341064453125 -4.78857421875
41.281494140625 -0.6661376953125 7.991455078125
24.61279296875 -5.113525390625 -24.8046875
27.741943359375 -3.5667724609375 -15.19970703125
46.668212890625 -5.0977783203125 -19.348388671875
-7.220703125 -1.3140869140625 -5.52392578125
33.78173828125 -5.393310546875 -24.949462890625
35.74853515625 -0.5181884765625 8.00341796875
34.392578125 1.0845947265625 19.576416015625
19.082763671875 -3.498779296875 -15.084716796875
18.044677734375 -2.0806884765625 -5.26513671875
23.909912109375 1.0562744140625 15.9306640625
-5.774169921875 -1.236328125 -4.98681640625
24.83984375 -3.9254150390625 -17.866943359375
-3.4248046875 -3.46630859375 55.59326171875
26.43408203125 0.0556640625 8.37646484375
42.28662109375 -4.0343017578125 -14.14599609375
-21.354736328125 -0.60009765625 -5.025634765625
14.80224609375 1.3253173828125 14.869140625
-3.63623046875 0.6741943359375 6.89404296875
23.03125 2.7994384765625 16.0126953125
29.4326171875 -3.01708984375 -10.59375
29.9296875 -5.4207763671875 -27.015869140625
12.55126953125 1.2447509765625 12.9833984375
10.385986328125 2.943359375 25.567138671875
15.496826171875 2.5877685546875 39.15673828125
-13.157958984375 -2.333984375 -14.21435546875
26.179443359375 0.1773681640625 10.51904296875
45.09423828125 -4.7314453125 -17.95751953125
-1.0107421875 -3.187744140625 -17.276123046875
-25.376220703125 8.817626953125 -17.156005859375
-22.9404296875 -0.30029296875 79.13916015625
36.5390625 -0.9022216796875 4.7783203125
2.1318359375 0.1207275390625 4.879150390625
8.96728515625 1.090087890625 41.064697265625
-12.422119140625 -2.2664794921875 -11.759765625
24.412109375 -0.5863037109375 5.716064453125
9.15625 -0.4990234375 4.6572265625
22.39892578125 -2.505126953125 -9.171142578125
1.7939453125 1.6082763671875 14.544189453125
4.572021484375 -1.6402587890625 -3.268798828125
-25.528564453125 1.846923828125 -6.595947265625
19.4951171875 2.7769775390625 22.912841796875
31.283935546875 -5.5472412109375 -26.243896484375
14.84814453125 1.4378662109375 18.472900390625
-19.929443359375 -1.743896484375 -11.184326171875
-22.6298828125 -1.5699462890625 -12.01953125
39.197998046875 0.48974609375 -8.703857421875
23.458740234375 2.5145263671875 25.032958984375
-8.529541015625 0.780029296875 7.887939453125
16.694091796875 3.1104736328125 26.653076171875
-7.441650390625 -2.7132568359375 -14.82275390625
-24.5009765625 13.9830322265625 -21.594970703125
12.978515625 2.6959228515625 23.390869140625
-25.4619140625 10.2296142578125 -7.730712890625
10.647216796875 2.3885498046875 21.19189453125
-24.02294921875 16.5164794921875 -5.9541015625
-3.321044921875 -1.2784423828125 -5.245361328125
26.332275390625 2.503662109375 31.96435546875
9.921875 -2.3760986328125 -9.468505859375
-14.20703125 -4.0386962890625 46.90673828125
-1.95849609375 -1.726318359375 45.669921875
5.322265625 -0.0159912109375 6.0869140625
19.21142578125 0.983642578125 13.731201171875
26.530029296875 0.827880859375 14.2158203125
-18.9462890625 0.4119873046875 0.395751953125
-28.72314453125 -3.2518310546875 63.561767578125
-4.05615234375 0.3203125 4.619140625
31.723388671875 -4.4842529296875 -18.109375
12.668701171875 -1.9600830078125 -5.75341796875
-11.69580078125 -0.1048583984375 1.575439453125
-7.572265625 -2.3232421875 -11.758544921875
