-18.756103515625 -7.372314453125 -42.471923828125
26.6572265625 -6.6121826171875 -11.9970703125
26.722900390625 0.3818359375 31.96826171875
-2.18017578125 -9.4520263671875 -32.261474609375
-20.7607421875 -2.9022216796875 3.935791015625
38.183837890625 -1.4119873046875 16.69384765625
-7.021728515625 -7.992919921875 -41.11474609375
-13.533203125 -8.981201171875 60.63525390625
-1.597900390625 -1.08642578125 26.113525390625
31.544921875 -8.0322265625 -19.372314453125
3.4873046875 -5.526611328125 -5.01904296875
-20.88818359375 -7.8209228515625 63.620849609375
-11.412353515625 -3.9652099609375 37.702392578125
-2.78662109375 -7.0400390625 -14.96923828125
-24.11669921875 -5.1097412109375 -5.295654296875
42.0478515625 -7.7435302734375 -17.501953125
-24.070556640625 -5.6474609375 80.54052734375
-16.665771484375 -6.09423828125 -10.6533203125
-30.523681640625 -5.3973388671875 -19.7568359375
-9.90234375 -8.255615234375 -26.1083984375
15.844482421875 -1.32275390625 20.267333984375
30.509521484375 -4.1676025390625 3.1044921875
13.81298828125 0.2420654296875 32.342529296875
15.626708984375 -3.888916015625 5.522705078125
11.99853515625 -6.026123046875 -8.03125
13.7255859375 1.372314453125 45.83544921875
-19.423828125 -7.1873779296875 -18.488525390625
-9.627685546875 -2.181396484375 15.268798828125
-9.213623046875 -4.507568359375 -0.13232421875
-6.843017578125 -7.1427001953125 62.425048828125
-14.15087890625 -7.3336181640625 52.355712890625
-4.016357421875 -3.2811279296875 10.71435546875
16.916259765625 -4.892578125 -3.015625
-19.22802734375 -2.9163818359375 10.77880859375
24.371337890625 -8.923095703125 -28.178466796875
-15.588623046875 -6.2379150390625 74.98095703125
4.4462890625 -7.557861328125 -19.486328125
42.602294921875 -6.595947265625 -7.53125
-0.95849609375 -3.224609375 48.27880859375
26.458740234375 -1.326416015625 24.681640625
-20.77392578125 -7.722900390625 48.732666015625
39.5634765625 -3.9068603515625 3.289306640625
4.307373046875 -4.5028076171875 1.94482421875
-2.484375 -1.066162109375 32.541748046875
0.87109375 -3.9168701171875 54.96484375
-23.86962890625 -8.0665283203125 -23.052490234375
-27.03271484375 -8.9422607421875 58.87841796875
4.466552734375 0.3336181640625 35.3994140625
6.30615234375 -1.3262939453125 44.48486328125
12.340087890625 -0.818359375 25.419677734375
-6.814697265625 0.03173828125 22.8583984375
-29.936279296875 -4.6217041015625 -9.239013671875
-29.01318359375 -6.93701171875 69.559814453125
31.97265625 -5.7864990234375 -6.873779296875
-15.577880859375 -2.4107666015625 -44.343505859375
22.044189453125 -1.479248046875 20.446533203125
2.607177734375 -6.716064453125 -26.01708984375
28.617919921875 -3.0960693359375 10.415771484375
20.25927734375 0.4315185546875 33.73828125
-29.896728515625 -5.5343017578125 78.171142578125
-14.8916015625 2.6451416015625 14.19189453125
28.50048828125 3.4586181640625 50.612060546875
17.36767578125 -8.333984375 -22.77490234375
21.732421875 -2.75341796875 11.94384765625
37.135009765625 -8.2264404296875 -23.635009765625
10.41748046875 -3.30078125 8.205322265625
-1.8349609375 -5.1474609375 -2.54345703125
32.0849609375 -2.004150390625 17.18798828125
11.228271484375 -8.7598876953125 -27.0322265625
-18.8056640625 -7.2919921875 68.99462890625
12.5205078125 -7.0306396484375 -14.829345703125
-11.56201171875 -5.7362060546875 -6.627685546875
1.836181640625 -1.5050048828125 20.97607421875
2.9248046875 -2.4154052734375 15.173095703125
21.321044921875 -5.867431640625 -8.20751953125
-5.243896484375 -3.163330078125 39.66845703125
9.92822265625 -2.368408203125 13.819091796875
-17.325439453125 -9.0260009765625 -32.21630859375
-15.297607421875 -3.8785400390625 3.57421875
-14.717041015625 -8.6046142578125 -39.00390625
41.279541015625 -2.4625244140625 12.328125
-0.148193359375 -6.1849365234375 -10.283935546875
-22.721923828125 -8.81494140625 -28.2939453125
-25.8466796875 -3.203857421875 5.6806640625
-6.856689453125 -3.8089599609375 6.096923828125
40.6591796875 -5.0086669921875 -1.753173828125
23.3916015625 -7.35107421875 -16.1171875
-8.42919921875 -7.8558349609375 -21.0771484375
-21.67626953125 -3.390380859375 84.62060546875
-20.485107421875 -6.0308837890625 76.795654296875
36.69140625 -7.6810302734375 -18.499755859375
-13.60986328125 -7.519775390625 -20.960693359375
-30.1591796875 -4.940673828125 -14.30615234375
28.857177734375 -8.3455810546875 -24.56103515625
-19.236572265625 -1.1324462890625 -0.541748046875
22.128662109375 -4.6214599609375 1.791748046875
-7.36083984375 -9.51904296875 -31.41845703125
-18.949951171875 -2.39990234375 70.15966796875
-33.71923828125 -7.279052734375 67.813232421875
-27.60888671875 -8.96875 -31.471923828125
1.287109375 -5.322265625 -30.59619140625
16.8955078125 -7.3330078125 -17.413330078125
17.42138671875 2.2847900390625 23.30029296875
6.9921875 -8.3675537109375 -24.47705078125
-22.79541015625 -2.337158203125 14.13525390625
-26.447998046875 -7.7274169921875 65.43212890625
-21.621826171875 -4.37548828125 -39.84130859375
-21.795166015625 -5.8134765625 -9.56201171875
-16.172607421875 -5.0025634765625 39.339599609375
29.778076171875 -5.1199951171875 -2.6083984375
-11.222412109375 -5.4864501953125 47.25439453125
37.91259765625 -5.8988037109375 -6.63037109375
-7.518798828125 -6.766845703125 -13.63037109375
-15.4296875 -7.9677734375 64.902099609375
-4.1552734375 -8.781005859375 -27.95703125
7.00439453125 -1.1683349609375 24.161376953125
30.665283203125 -6.8134765625 -14.896484375
4.8935546875 -1.1806640625 39.986572265625
27.318603515625 -5.7750244140625 -7.1533203125
-24.686767578125 -7.03466796875 -17.690185546875
0.003662109375 -3.6644287109375 7.521240234375
-23.525390625 -9.033447265625 52.216552734375
-24.011962890625 -4.313232421875 0.992919921875
-25.427734375 -6.0040283203125 76.187744140625
-7.723388671875 -2.398681640625 34.957275390625
1.623779296875 -2.75732421875 43.83984375
-25.9794921875 -4.768310546875 85.08251953125
-15.031982421875 -2.82177734375 12.474609375
-6.067138671875 -5.5137939453125 49.5458984375
16.64697265625 -5.897216796875 -7.39892578125
16.97314453125 1.0142822265625 36.763916015625
19.04248046875 -2.6400146484375 15.544189453125
9.51806640625 -1.0465087890625 47.600830078125
7.95166015625 -5.515869140625 -5.2685546875
-29.5927734375 -4.20751953125 -4.80078125
-12.057861328125 -1.556396484375 18.962158203125
-20.5146484375 -4.98779296875 -2.393310546875
18.72705078125 -3.281494140625 8.68701171875
40.0908203125 -3.709716796875 7.945068359375
40.97216796875 -6.6590576171875 -13.359619140625
7.35791015625 -3.9027099609375 5.0703125
-20.010009765625 -8.8939208984375 -38.384033203125
-2.583740234375 -5.2330322265625 57.326904296875
-13.8505859375 -9.1258544921875 -29.552490234375
36.89892578125 -8.71142578125 -27.970947265625
29.315185546875 -0.3956298828125 27.85205078125
32.591552734375 3.0438232421875 49.16650390625
-14.85498046875 -8.2884521484375 56.548095703125
27.265625 -7.63916015625 -18.947265625
34.449462890625 -4.3736572265625 0.86181640625
29.34423828125 -1.2916259765625 21.486572265625
-6.0263671875 -0.699951171875 27.01513671875
35.032958984375 -2.09912109375 20.307861328125
2.2001953125 -9.5 -31.5576171875
36.549560546875 -1.55126953125 -6.91552734375
-0.02978515625 -7.517333984375 -18.17333984375
32.829833984375 -2.8143310546875 11.822509765625
8.00341796875 -7.114013671875 -16.507568359375
2.197265625 -0.3302001953125 28.76611328125
-8.420654296875 -2.8936767578125 10.266357421875
22.689453125 -0.4197998046875 29.745849609375
12.994384765625 -2.3009033203125 16.704833984375
-4.64111328125 -7.71630859375 -18.656982421875
8.297119140625 0.37939453125 33.727783203125
32.9072265625 -8.306396484375 -23.536865234375
-0.082763671875 -3.0106201171875 12.06982421875
-16.675537109375 -6.775390625 -14.734130859375
-16.6865234375 -7.150634765625 48.943359375
15.604248046875 -4.6627197265625 1.464599609375
-19.90380859375 -1.3101806640625 -44.507080078125
-13.88427734375 -4.6219482421875 78.376708984375
-18.39990234375 -5.90576171875 -6.914306640625
-12.29345703125 -3.3336181640625 33.72802734375
-12.57861328125 -6.24365234375 -10.75439453125
-18.3974609375 0.5565185546875 13.98095703125
-22.413330078125 -8.8231201171875 59.0478515625
-1.192138671875 -5.65478515625 -27.05517578125
14.6201171875 0.792236328125 40.16455078125
-2.864990234375 -4.69873046875 51.901123046875
-6.486572265625 -1.4007568359375 19.107177734375
-2.79833984375 -2.22021484375 36.38525390625
15.281982421875 -0.2969970703125 28.63720703125
20.971923828125 -5.3851318359375 -4.2587890625
12.16650390625 -9.27587890625 -30.872802734375
-29.90576171875 -6.135986328125 74.231689453125
21.046142578125 -8.771240234375 -26.008056640625
10.000732421875 -0.32373046875 43.45849609375
-11.85302734375 -5.16455078125 43.36328125
-10.103515625 -7.8046875 65.72265625
19.532470703125 -3.9107666015625 4.671630859375
40.79443359375 -8.52001953125 -22.2158203125
28.272216796875 -9.0743408203125 -28.573486328125
-18.537841796875 -8.9019775390625 59.1962890625
23.01318359375 -21.998046875 101.498291015625
30.23876953125 -3.6070556640625 6.9443359375
-28.2080078125 -7.637451171875 -21.865478515625
10.64453125 -0.4947509765625 28.85986328125
-33.430908203125 -5.7572021484375 79.633544921875
27.378173828125 -4.7236328125 0.346435546875
-16.84326171875 -3.546875 7.05224609375
37.482177734375 -2.8111572265625 12.193603515625
-2.790283203125 -1.2142333984375 22.493408203125
6.861083984375 -2.197998046875 16.119873046875
-1.6103515625 -5.6751708984375 -6.82177734375
5.387939453125 -6.256591796875 -9.08984375
-5.98681640625 -6.56689453125 58.79052734375
0.74462890625 -4.39453125 0.71142578125
-4.39892578125 -6.0927734375 -10.625244140625
-21.68017578125 -6.9547119140625 -15.418701171875
9.56201171875 -6.630615234375 -11.515625
34.385009765625 -3.64404296875 4.55810546875
-25.005126953125 -8.03759765625 61.966552734375
-22.567138671875 -2.795166015625 9.058837890625
-17.4716796875 -7.7164306640625 -21.761474609375
43.255859375 -4.26318359375 2.753662109375
-5.890869140625 -2.080078125 15.349609375
-27.562744140625 -5.301513671875 81.747314453125
-25.053466796875 -9.278076171875 55.5830078125
-18.7294921875 -4.5762939453125 73.877685546875
-6.427001953125 -5.4141845703125 -3.53515625
-5.5283203125 -4.4945068359375 -0.03564453125
-6.44677734375 -8.45556640625 -24.857177734375
39.2275390625 -6.184326171875 -10.17822265625
6.53759765625 -4.887451171875 -0.9228515625
-26.601806640625 -4.6048583984375 -1.845458984375
10.90380859375 -1.6629638671875 22.150634765625
18.36181640625 -0.26171875 30.59326171875
-25.868408203125 -5.7073974609375 -8.43896484375
22.410400390625 -0.9542236328125 24.377197265625
-15.59521484375 -6.872314453125 71.400146484375
11.263916015625 -5.3297119140625 -3.5263671875
-13.439697265625 -4.4656982421875 0.515869140625
10.8837890625 -4.16552734375 4.477783203125
-22.800537109375 -6.8602294921875 68.72216796875
19.24267578125 -1.5482177734375 22.6748046875
-21.635498046875 0.230224609375 11.927734375
14.73095703125 -8.5396728515625 -26.421875
2.676025390625 -6.6375732421875 -13.998779296875
20.25 -7.3529052734375 -18.599853515625
-2.174560546875 -3.00146484375 41.917724609375
25.5517578125 -1.8148193359375 19.9970703125
2.36083984375 -0.0369873046875 32.296142578125
18.86376953125 -4.72998046875 -0.065673828125
22.8896484375 -2.6776123046875 15.27001953125
2.8427734375 -3.0526123046875 48.431640625
2.20703125 -7.9600830078125 -22.1513671875
23.473876953125 1.0511474609375 34.95458984375
32.025390625 -5.9688720703125 -10.356689453125
-11.0830078125 -5.1920166015625 -3.234619140625
-10.226318359375 -9.21142578125 -29.488037109375
-17.58203125 -5.377197265625 78.799072265625
-8.8271484375 -4.115966796875 42.068603515625
12.783447265625 -7.5367431640625 -18.254638671875
1.556396484375 -4.000244140625 51.5888671875
-26.451416015625 -8.300537109375 -25.476318359375
-9.514404296875 -6.3642578125 51.781005859375
33.909912109375 -6.996826171875 -15.90185546875
-27.871826171875 -6.650634765625 -16.154296875
-20.981689453125 -8.9788818359375 -31.195556640625
-14.75390625 -7.3221435546875 -17.46337890625
4.511962890625 -1.966552734375 18.529541015625
0.535400390625 -8.0657958984375 -28.8193359375
-16.03369140625 -1.44384765625 0.39990234375
12.172607421875 0.583251953125 35.241943359375
-18.30712890625 -4.2750244140625 -43.857421875
-10.3359375 -8.1949462890625 61.19580078125
-25.4443359375 -8.7430419921875 -34.84130859375
23.624755859375 -6.28955078125 -10.653076171875
3.1630859375 -3.6671142578125 6.489013671875
14.576171875 -6.7867431640625 -11.96142578125
-13.512939453125 -8.0931396484375 -24.224853515625
-17.755126953125 -7.9788818359375 51.945068359375
-29.069091796875 -3.5045166015625 5.08203125
-20.899169921875 -8.18798828125 -25.62744140625
-8.42041015625 -5.766357421875 -9.206787109375
-5.102294921875 -1.3272705078125 30.578125
-8.437255859375 -3.3863525390625 38.878173828125
-2.267822265625 -3.450439453125 45.3125
7.76416015625 0.1163330078125 37.775634765625
-9.319091796875 -3.94873046875 3.041259765625
-11.4794921875 -2.8944091796875 11.265625
7.4990234375 -7.739501953125 -20.484130859375
-14.555419921875 -2.291748046875 15.77734375
26.1982421875 -8.197265625 -22.759765625
-1.250244140625 -0.11279296875 29.739013671875
1.032470703125 -1.8096923828125 17.68896484375
1.437255859375 -0.7010498046875 35.2900390625
42.31201171875 -4.7882080078125 5.910400390625
8.011962890625 -9.3023681640625 -27.617431640625
-19.5380859375 -5.010009765625 82.333984375
-14.74658203125 -9.5487060546875 -34.409912109375
-28.266845703125 -8.467529296875 61.78076171875
40.551513671875 -5.8538818359375 -4.863037109375
-3.7060546875 -3.7176513671875 6.4462890625
2.062255859375 -4.99853515625 -2.101318359375
23.903076171875 -3.2388916015625 9.69580078125
37.185302734375 -7.07763671875 -15.42529296875
2.327880859375 -0.8785400390625 25.6640625
37.763671875 -4.52392578125 -0.616943359375
-18.07861328125 -8.3878173828125 62.263671875
-9.03857421875 -0.1700439453125 27.686767578125
26.94970703125 -3.62060546875 6.494384765625
-19.349853515625 -2.39306640625 14.366455078125
-11.838623046875 -8.620849609375 58.052734375
20.463623046875 -8.983154296875 -30.766357421875
30.00146484375 -2.7586669921875 15.0244140625
-14.282470703125 -6.1453857421875 46.60791015625
-30.387451171875 -6.98095703125 -23.958740234375
4.531494140625 -8.4298095703125 -27.724365234375
35.26513671875 -4.271728515625 -7.617919921875
-17.877197265625 -8.841796875 -28.471923828125
-19.5859375 -6.7646484375 46.049560546875
19.1787109375 -1.8306884765625 18.50927734375
-20.53466796875 -7.7353515625 -21.574951171875
-10.984130859375 -6.5540771484375 -13.40576171875
37.807373046875 -3.5091552734375 5.9140625
29.6904296875 0.8282470703125 51.607421875
-5.24853515625 -4.10888671875 3.521484375
14.3515625 -5.5408935546875 -5.43896484375
-26.92724609375 -6.4345703125 73.585205078125
13.384521484375 -3.447509765625 8.818359375
32.364013671875 -1.4937744140625 21.702880859375
38.523681640625 -2.56494140625 -4.863525390625
20.848388671875 -7.04541015625 -12.458251953125
-32.88916015625 -6.93994140625 71.127685546875
-11.3720703125 -6.8687744140625 54.087158203125
13.799560546875 -8.06787109375 -23.60595703125
27.03662109375 -4.2828369140625 3.28857421875
20.34521484375 -8.07080078125 -22.90185546875
-13.325439453125 -6.7218017578125 49.5458984375
-5.47021484375 -8.0362548828125 -22.06787109375
22.0498046875 -4.87939453125 -1.523681640625
-15.462890625 -5.4329833984375 -6.71630859375
1.60986328125 -4.0615234375 3.540771484375
-25.504638671875 -8.63720703125 -29.32763671875
-15.884521484375 -8.089111328125 -41.688720703125
15.914306640625 -7.76123046875 -20.26171875
-12.341552734375 -3.9239501953125 3.564697265625
-15.029296875 0.47607421875 16.64306640625
13.006103515625 0.077880859375 42.50830078125
2.420166015625 -6.023193359375 -7.704833984375
8.94970703125 -0.9879150390625 26.51953125
29.13916015625 -6.097412109375 -9.9072265625
-0.601806640625 -2.27880859375 14.8525390625
-13.833251953125 -4.0850830078125 36.10205078125
28.990478515625 -8.0537109375 -21.67431640625
-18.490234375 -9.6002197265625 -34.808837890625
-7.407958984375 -7.37939453125 -17.860107421875
-16.284912109375 -4.86279296875 0.209228515625
-13.174560546875 -6.6883544921875 72.94091796875
-15.509765625 -7.4002685546875 68.5791015625
-33.452880859375 -5.8428955078125 76.774169921875
-11.26708984375 -7.55810546875 -19.208740234375
-27.517333984375 -6.18994140625 -10.72216796875
-23.010498046875 -7.2088623046875 -19.994140625
-21.292724609375 -5.6580810546875 79.900146484375
-20.534423828125 -6.390869140625 -12.875
8.2470703125 -4.3504638671875 2.407958984375
40.1064453125 -8.8822021484375 -27.430419921875
-10.48486328125 -8.1138916015625 -23.35009765625
-14.03271484375 -6.5576171875 -13.775390625
-9.25048828125 -1.728271484375 18.66015625
-7.16796875 -9.2353515625 -28.621826171875
20.702392578125 -7.3311767578125 -15.284423828125
10.122314453125 -2.8736572265625 11.059326171875
5.209716796875 -1.015625 26.311279296875
-0.123779296875 -1.5096435546875 23.28466796875
35.9150390625 -6.065673828125 -9.65625
-20.88330078125 -4.8685302734375 -5.15771484375
15.71044921875 -7.08935546875 -14.905517578125
-9.0 -5.594482421875 -5.56298828125
-31.111572265625 -5.576416015625 81.14501953125
8.099365234375 -6.0926513671875 -8.542236328125
-21.23779296875 -3.942138671875 69.949951171875
29.44482421875 -0.985107421875 25.165283203125
-26.268798828125 -4.1915283203125 2.561767578125
34.859375 -8.5181884765625 -25.462646484375
38.77099609375 -7.8076171875 -20.50439453125
-14.67626953125 -5.133056640625 41.88525390625
0.09765625 -5.178955078125 -4.472900390625
-3.769287109375 -4.0552978515625 49.33740234375
-0.30859375 -7.878173828125 -20.864013671875
-21.137939453125 -3.1629638671875 6.6259765625
2.541015625 -6.0609130859375 -10.72021484375
2.003662109375 -3.46337890625 9.363525390625
-28.436767578125 -2.846435546875 8.700439453125
-17.4443359375 -0.2200927734375 -44.946044921875
-6.29541015625 -3.0828857421875 12.1904296875
17.9345703125 -6.054931640625 -9.963134765625
26.304931640625 -7.06298828125 -14.656982421875
16.11083984375 -3.2762451171875 9.414306640625
3.672607421875 -1.5870361328125 42.50048828125
10.8212890625 -8.390625 -23.93359375
-9.8447265625 -3.7637939453125 6.09765625
-18.173095703125 -2.24169921875 1.848876953125
-20.870849609375 -8.709716796875 51.819091796875
44.0634765625 -4.9996337890625 -1.322265625
26.14111328125 -2.79443359375 13.364990234375
33.7451171875 -8.0140380859375 -20.997802734375
7.98193359375 -1.0692138671875 41.84912109375
23.443115234375 -8.382568359375 -24.86083984375
12.709716796875 -2.74560546875 12.69775390625
3.5029296875 -0.9095458984375 37.7109375
11.392822265625 -0.5960693359375 45.739013671875
15.5771484375 -2.3026123046875 16.009521484375
4.819091796875 -7.11572265625 -16.875732421875
14.74951171875 -9.2794189453125 -30.183837890625
4.680419921875 -1.7015380859375 21.18408203125
16.579833984375 1.1622314453125 25.568603515625
-18.263916015625 -4.7509765625 71.2138671875
-24.96826171875 -6.7542724609375 70.3984375
7.05029296875 -2.0511474609375 48.55810546875
23.983642578125 -7.5775146484375 -18.855224609375
34.537109375 -2.229248046875 16.1982421875
31.302001953125 -4.83251953125 -0.457763671875
-2.404052734375 -4.426025390625 0.815185546875
-8.679931640625 -5.23876953125 49.196533203125
29.219970703125 1.7484130859375 29.40625
-26.97998046875 -5.3662109375 78.222412109375
22.940185546875 -5.5001220703125 -6.159423828125
-25.09716796875 -2.9461669921875 9.9091796875
30.64892578125 3.2144775390625 52.17236328125
-11.07568359375 -2.3487548828125 31.38671875
-29.595947265625 -7.528564453125 67.067626953125
5.878173828125 -3.4398193359375 7.509521484375
-11.994140625 -2.714111328125 14.272705078125
26.827392578125 -5.4722900390625 -4.544677734375
10.658935546875 -2.0452880859375 18.614990234375
-1.989013671875 -7.5233154296875 -29.2548828125
-4.332763671875 -3.7772216796875 43.1591796875
9.6005859375 -6.750732421875 -14.483154296875
-0.27001953125 -6.8995361328125 -23.888427734375
-21.707275390625 -2.4744873046875 11.7890625
10.21728515625 -7.496337890625 -17.96630859375
15.67138671875 0.7484130859375 42.520751953125
8.009765625 -3.6915283203125 9.030517578125
-4.733154296875 -9.3829345703125 -30.38720703125
12.779541015625 -1.7615966796875 20.397705078125
24.487060546875 -4.2308349609375 2.9765625
6.14599609375 -2.3905029296875 13.662841796875
40.069091796875 -8.7318115234375 -24.873046875
-1.318359375 -4.810302734375 53.982666015625
-31.89892578125 -7.654296875 65.94482421875
18.2265625 -2.9166259765625 13.134033203125
0.222412109375 -6.5408935546875 -13.2822265625
-24.91796875 -1.158203125 11.816650390625
-28.551025390625 -7.3463134765625 -19.359375
-9.564453125 -8.0118408203125 -41.214599609375
-12.96337890625 -7.841552734375 64.289794921875
18.6240234375 -7.72119140625 -20.652099609375
28.7890625 -1.890869140625 19.081787109375
-11.384033203125 -4.3314208984375 41.011962890625
-12.9228515625 -8.76806640625 -27.220458984375
-13.999755859375 -3.0400390625 10.17919921875
17.73681640625 0.4468994140625 33.86328125
-13.73828125 -4.9375 38.686279296875
25.28759765625 -0.3800048828125 30.041259765625
12.6806640625 -4.354736328125 2.725830078125
-9.08935546875 -6.3651123046875 55.141357421875
-6.38671875 -3.3060302734375 8.5166015625
43.389404296875 -3.1624755859375 9.20849609375
-3.8701171875 -0.86376953125 28.4384765625
-17.972900390625 -7.6378173828125 66.657470703125
-4.890380859375 -4.1282958984375 46.247314453125
30.677734375 -8.639404296875 -26.387451171875
-3.582275390625 -5.7005615234375 -5.322998046875
26.880859375 -0.7777099609375 28.095703125
-12.78271484375 -9.369873046875 -32.0458984375
-24.954833984375 -6.0120849609375 -10.715087890625
-5.064697265625 -6.8040771484375 -13.89892578125
2.7412109375 -1.15673828125 23.24560546875
19.036376953125 -5.4488525390625 -5.7822265625
18.671875 -8.5015869140625 -25.419189453125
33.50537109375 -3.4146728515625 -6.151611328125
-23.332763671875 -8.2059326171875 -25.766845703125
30.9912109375 -3.3470458984375 9.935546875
18.637939453125 1.57568359375 40.9658203125
7.2001953125 -0.126953125 31.6162109375
-13.816650390625 -7.4921875 66.652587890625
24.166259765625 -0.8975830078125 27.8828125
5.313720703125 0.43310546875 33.135986328125
-5.32861328125 -5.2711181640625 52.259765625
-16.08251953125 -8.7791748046875 58.562744140625
18.30419921875 -7.128662109375 -15.185546875
-2.21875 -6.405517578125 -11.595458984375
28.6025390625 -2.9615478515625 12.81201171875
-23.750732421875 -4.672607421875 -1.36376953125
-19.099853515625 -6.9656982421875 71.539306640625
40.920166015625 -4.5789794921875 1.4560546875
-13.440673828125 -5.1396484375 -3.518310546875
-8.7138671875 -5.2445068359375 -2.94921875
-22.75390625 -3.65966796875 2.909912109375
-30.094482421875 -6.866455078125 71.653076171875
20.334716796875 0.4542236328125 23.264404296875
-27.511474609375 -8.7884521484375 -28.11767578125
-0.463623046875 -4.1717529296875 5.081298828125
14.710693359375 0.7489013671875 37.823486328125
-2.8154296875 -6.9615478515625 -25.02880859375
-25.19970703125 -7.54638671875 67.40625
28.50732421875 -6.979736328125 -15.7900390625
32.556396484375 -3.882568359375 6.98828125
-3.08740234375 -2.34814453125 39.30908203125
22.73095703125 -2.14453125 17.5322265625
43.387451171875 -7.3682861328125 -19.3662109375
31.074462890625 -1.6143798828125 19.412353515625
-13.353515625 -5.7772216796875 -8.616943359375
-1.624755859375 -3.4017333984375 9.1455078125
-1.04541015625 -1.314453125 34.3212890625
-26.48974609375 -7.656005859375 -20.334228515625
-24.2353515625 -7.783203125 64.11962890625
-7.31005859375 -2.1375732421875 32.368408203125
9.150634765625 -2.38134765625 16.1025390625
-18.248291015625 -6.50439453125 -13.050537109375
-0.75048828125 -6.9593505859375 -16.06689453125
43.2666015625 -2.03515625 11.26611328125
0.243896484375 -3.343505859375 45.56591796875
-20.96484375 -0.69677734375 13.906982421875
-21.3095703125 -7.6197509765625 65.857177734375
36.123046875 -1.9200439453125 17.810302734375
26.364990234375 -1.5379638671875 22.411376953125
21.98388671875 -0.6123046875 27.28076171875
8.30859375 -9.2493896484375 -31.392578125
31.057373046875 -0.84375 23.4482421875
-21.912841796875 -8.2938232421875 61.6484375
29.313232421875 -7.5562744140625 -17.966064453125
41.24755859375 -3.1756591796875 10.172119140625
-6.59228515625 -3.7449951171875 41.40087890625
25.124267578125 -4.93408203125 0.512451171875
-10.875732421875 -3.5782470703125 35.481689453125
27.696533203125 1.8331298828125 52.005615234375
41.921630859375 -6.74169921875 -9.6884765625
-7.8974609375 -5.158447265625 47.044677734375
-23.132080078125 -9.2896728515625 -31.83544921875
38.244140625 -6.620361328125 -13.078857421875
8.3623046875 -5.01953125 -2.2470703125
20.207275390625 -9.06103515625 -28.52392578125
-22.999267578125 -9.42578125 56.50634765625
-12.869384765625 -5.7801513671875 76.7294921875
-6.501953125 -6.33251953125 -11.40185546875
6.713134765625 0.159423828125 35.429931640625
41.2109375 -8.03759765625 -20.05517578125
-25.414306640625 -9.736083984375 -32.822998046875
39.570068359375 -7.5771484375 -18.42431640625
-3.768798828125 -0.8875732421875 25.607666015625
-4.566162109375 -1.8143310546875 32.8544921875
5.11572265625 -5.146484375 -3.54296875
-11.43310546875 -2.14013671875 16.57763671875
-16.9228515625 -6.4466552734375 46.0927734375
3.238525390625 -8.2840576171875 -24.563232421875
21.91259765625 -3.3262939453125 8.6953125
23.71826171875 -2.665283203125 12.947021484375
27.506591796875 -5.330322265625 -2.43310546875
24.014892578125 0.258544921875 31.744140625
-19.43994140625 -1.8853759765625 16.52392578125
16.26220703125 0.6685791015625 21.148681640625
-26.43505859375 -4.39794921875 0.361572265625
17.078857421875 1.218017578125 38.967529296875
-22.860107421875 -5.6436767578125 -7.628173828125
9.93408203125 -5.5101318359375 -6.253173828125
3.4560546875 -3.4564208984375 50.592529296875
11.677978515625 -6.407470703125 -10.1865234375
1.504150390625 -7.21728515625 -16.61376953125
-21.8623046875 -3.9158935546875 72.734130859375
36.610107421875 -7.911376953125 -20.9306640625
34.23681640625 -2.6103515625 14.04736328125
13.634521484375 -4.7476806640625 0.48095703125
40.06201171875 -6.9720458984375 -15.34033203125
-2.19384765625 -2.6546630859375 13.385986328125
38.12109375 -3.2987060546875 -2.833984375
-19.611572265625 -6.0029296875 -9.642333984375
-30.420166015625 -5.2275390625 -16.464111328125
-3.173095703125 -6.032470703125 -8.81396484375
-14.1884765625 -1.3236083984375 19.392333984375
44.3076171875 -5.2406005859375 -7.41552734375
31.568603515625 -6.5037841796875 -12.936767578125
-26.51318359375 -5.1728515625 -6.426513671875
-9.607177734375 -3.476806640625 8.24267578125
13.356689453125 -4.216552734375 4.788330078125
-2.07958984375 -7.1396484375 -18.786376953125
-18.33154296875 -5.7054443359375 44.616943359375
43.1484375 -6.760986328125 -15.910888671875
-27.42578125 -6.9537353515625 71.037353515625
-4.884521484375 -2.4459228515625 36.9326171875
-12.543701171875 -8.3096923828125 56.031982421875
-13.849609375 -5.8446044921875 44.5107421875
-28.019287109375 -5.5201416015625 -8.362060546875
-31.6064453125 -7.331787109375 68.23486328125
-26.10205078125 -2.8499755859375 8.007080078125
6.92333984375 -0.5047607421875 39.76953125
-17.979248046875 -6.9130859375 -16.436767578125
35.45654296875 -3.9837646484375 2.71875
-28.978759765625 -3.4781494140625 2.6533203125
-7.5126953125 -0.507568359375 24.8134765625
-0.568359375 -4.2744140625 51.677001953125
-18.428466796875 -2.4061279296875 3.9697265625
-1.331298828125 -1.9288330078125 37.9189453125
13.0927734375 -1.39208984375 22.4814453125
18.31103515625 -3.73974609375 6.64013671875
26.79248046875 -1.9803466796875 18.06787109375
-15.940185546875 -3.201904296875 9.301025390625
19.0380859375 -5.31005859375 -3.356689453125
-5.29248046875 -1.2384033203125 23.648193359375
30.2080078125 -5.44384765625 -4.673095703125
-3.21533203125 -7.4971923828125 -17.015869140625
12.7998046875 -8.455078125 -25.449951171875
31.465087890625 -0.385986328125 25.48974609375
4.445556640625 -5.072021484375 -1.282958984375
22.179443359375 -9.148193359375 -29.5146484375
-16.965087890625 -2.9835205078125 11.59521484375
8.812255859375 -1.322021484375 21.99560546875
20.56494140625 0.798583984375 35.80810546875
14.04931640625 -5.961669921875 -8.580810546875
15.81884765625 -6.1798095703125 -9.85791015625
5.1455078125 -6.73486328125 -14.72021484375
10.09521484375 -9.3316650390625 -30.252685546875
34.472900390625 -2.5264892578125 -4.485107421875
-22.186279296875 -5.6015625 75.611083984375
13.298095703125 -7.822265625 -21.42626953125
-23.506103515625 -6.3565673828125 -12.2900390625
-16.921630859375 -8.5986328125 56.22509765625
-12.53564453125 -3.4842529296875 5.85400390625
28.201416015625 -1.0462646484375 23.327880859375
-19.1123046875 -3.1671142578125 -1.086181640625
5.7783203125 -0.541259765625 37.50634765625
15.043701171875 0.9227294921875 35.748779296875
-0.231689453125 -9.331787109375 -30.3203125
-22.241943359375 -3.2655029296875 0.55126953125
-7.6484375 -7.798095703125 -23.028564453125
-0.190673828125 -2.3392333984375 41.70947265625
-24.402099609375 -4.8671875 83.698486328125
8.594970703125 -0.06689453125 30.04736328125
-10.4208984375 -4.880859375 44.872314453125
4.99755859375 0.0714111328125 31.09619140625
31.716552734375 -8.0341796875 -21.51513671875
21.927490234375 0.120361328125 31.74267578125
-27.71728515625 -3.29296875 6.663330078125
-19.825927734375 -6.7669677734375 67.06396484375
35.214599609375 -3.8936767578125 -1.20947265625
1.97314453125 -7.45751953125 -18.74755859375
28.55224609375 -2.245849609375 16.427001953125
6.20166015625 -8.5911865234375 -26.49462890625
5.012451171875 -5.9393310546875 -7.068603515625
-10.135498046875 -9.2154541015625 -31.56494140625
-10.19873046875 -3.0562744140625 33.587890625
13.78564453125 -2.2877197265625 14.413818359375
-1.89990234375 -1.622314453125 19.435791015625
0.541259765625 -6.838623046875 -25.871337890625
24.289794921875 -7.043701171875 -14.171630859375
-30.300048828125 -5.021484375 -12.241943359375
9.05712890625 0.5902099609375 35.639892578125
2.293701171875 -1.3514404296875 39.32958984375
-28.64501953125 -8.083984375 -23.867919921875
-28.60107421875 -4.28759765625 -1.44287109375
9.898681640625 -3.8350830078125 6.26025390625
-21.531494140625 -5.2857666015625 82.770263671875
2.520751953125 -2.9351806640625 11.28515625
13.275390625 -0.37548828125 29.072265625
-4.478515625 -2.4942626953125 13.91796875
-31.4013671875 -5.945068359375 76.83642578125
24.847900390625 -5.4967041015625 -5.082275390625
-9.233154296875 -6.6895751953125 -14.752197265625
17.826171875 -1.8060302734375 20.064697265625
-4.5234375 -5.8741455078125 57.483154296875
33.85205078125 -3.2100830078125 9.56298828125
-24.259765625 -3.9193115234375 4.268798828125
-16.410400390625 -2.2344970703125 2.88232421875
8.260986328125 -2.8072509765625 11.899169921875
4.27685546875 -2.4085693359375 47.126953125
33.371826171875 0.2593994140625 53.152587890625
-5.080322265625 -1.81201171875 17.689453125
-20.197265625 -9.52001953125 -35.91162109375
-8.164794921875 -3.22705078125 36.87109375
42.5830078125 -4.96484375 0.35498046875
-3.812255859375 -1.60595703125 34.73583984375
-19.472900390625 -8.502685546875 -40.945556640625
28.451416015625 -6.8974609375 -13.764404296875
-23.9853515625 -5.7486572265625 74.686767578125
6.960205078125 -0.5361328125 27.210205078125
17.81787109375 1.983154296875 21.3388671875
34.765380859375 -7.6190185546875 -19.116455078125
40.7021484375 -5.913818359375 -7.442626953125
-16.1474609375 1.0162353515625 15.050537109375
10.8466796875 -6.8704833984375 -16.067138671875
-18.217529296875 -3.7611083984375 5.451416015625
-1.087646484375 -3.0205078125 43.732421875
18.79248046875 0.1494140625 21.680419921875
-16.114990234375 -8.152099609375 62.66357421875
-19.1015625 -7.6932373046875 64.990234375
-16.62841796875 -6.2205810546875 73.2578125
-15.538330078125 -7.5784912109375 -20.3896484375
-20.12109375 -1.8489990234375 2.163818359375
-8.420166015625 -7.95458984375 63.373291015625
-3.229736328125 -5.363525390625 55.427978515625
6.970458984375 -8.28466796875 -22.474853515625
-7.093505859375 -1.99853515625 17.297607421875
16.350341796875 -5.4959716796875 -5.44482421875
-15.849365234375 -5.301513671875 79.793701171875
-0.76220703125 -0.661376953125 31.611328125
-14.482666015625 -8.46875 -26.013427734375
-29.7568359375 -7.7269287109375 65.08984375
10.7666015625 -4.380615234375 2.18603515625
14.706787109375 0.183349609375 26.7978515625
-3.94580078125 -7.737548828125 -20.5166015625
-17.60595703125 -5.1490478515625 -5.26171875
2.823974609375 -8.831787109375 -28.64990234375
4.126953125 -7.9814453125 -22.64794921875
18.062744140625 -0.1302490234375 27.83203125
-24.3173828125 -5.949462890625 77.828125
-20.971435546875 -7.2021484375 69.398193359375
-15.943359375 -8.7454833984375 -28.084228515625
-26.29931640625 -6.8037109375 -14.97021484375
13.068603515625 -3.8226318359375 6.700927734375
-28.658203125 -4.9871826171875 -6.354736328125
-20.201171875 -8.333740234375 60.0927734375
-13.401611328125 -6.961669921875 71.00048828125
6.35009765625 -4.376220703125 1.87158203125
21.0751953125 -2.5299072265625 16.026123046875
34.261962890625 -6.43896484375 -11.73681640625
-10.748779296875 -7.2900390625 67.5068359375
9.258544921875 0.0650634765625 32.04248046875
-6.437255859375 -2.707763671875 38.1767578125
12.779052734375 -0.013427734375 44.47802734375
-20.961181640625 -8.8973388671875 -29.23681640625
22.8291015625 -5.442138671875 -3.63427734375
27.28662109375 -8.5933837890625 -25.705322265625
-14.439697265625 -3.5889892578125 5.406982421875
22.92822265625 -23.9798583984375 101.356689453125
3.815185546875 -6.6566162109375 -12.080322265625
17.21826171875 -4.337646484375 2.516357421875
15.14794921875 -0.30859375 30.585205078125
25.210693359375 -8.632080078125 -25.65185546875
-22.5068359375 -6.2869873046875 78.510498046875
25.538818359375 -0.9197998046875 26.346435546875
33.933837890625 -3.4010009765625 -2.83447265625
20.551513671875 -4.245361328125 2.86376953125
6.825927734375 -6.753662109375 -11.0732421875
-0.82421875 -5.974365234375 -29.130859375
-24.39501953125 -8.546630859375 60.1962890625
11.87548828125 0.185546875 32.263671875
4.488525390625 -2.8275146484375 11.7509765625
-19.645263671875 -5.025634765625 69.734619140625
-17.435302734375 -0.623046875 16.40185546875
-14.03857421875 -8.3365478515625 62.755859375
30.450927734375 -4.090576171875 5.08056640625
12.73876953125 -6.727783203125 -12.57080078125
39.22900390625 -3.2044677734375 9.60400390625
-15.701171875 -5.0469970703125 -4.833984375
9.875244140625 0.4876708984375 40.886474609375
11.893310546875 -3.0208740234375 10.29736328125
-18.507568359375 -7.2811279296875 47.568603515625
4.04345703125 -0.298095703125 29.336669921875
-31.495361328125 -6.61865234375 72.95751953125
-4.6865234375 -4.901123046875 -1.72412109375
-17.478515625 -2.2872314453125 14.825439453125
14.162109375 -5.0609130859375 -3.582275390625
-1.885009765625 -3.016845703125 11.013671875
9.3271484375 -7.7999267578125 -19.887451171875
6.434326171875 -1.914794921875 18.57763671875
-26.7705078125 -8.0709228515625 63.567138671875
-17.7138671875 -2.1195068359375 -44.823486328125
24.40625 -2.4317626953125 16.419921875
-28.607421875 -5.218017578125 83.354736328125
-15.259765625 -7.7388916015625 53.8671875
-20.177734375 -3.4505615234375 71.47021484375
1.702392578125 -6.474853515625 -27.690185546875
41.79248046875 -8.9630126953125 -24.06689453125
12.732421875 0.791259765625 40.49072265625
19.619384765625 -6.35595703125 -11.1611328125
20.21826171875 -2.9990234375 10.798095703125
40.0458984375 -2.2694091796875 13.779296875
27.8623046875 -0.6199951171875 26.17626953125
-29.683349609375 -6.8062744140625 -20.98046875
-9.56884765625 -7.064208984375 -16.87255859375
24.792236328125 -1.17236328125 23.427001953125
25.877197265625 -5.9403076171875 -8.390380859375
27.136474609375 0.076171875 30.01806640625
19.604736328125 -0.3626708984375 29.154541015625
-12.62158203125 -4.8682861328125 -1.1552734375
17.614990234375 -3.0318603515625 10.55419921875
-32.293212890625 -4.6290283203125 83.716796875
-0.820556640625 -4.7138671875 -0.31982421875
-20.786376953125 -9.072265625 53.681884765625
39.267578125 -3.045654296875 11.49609375
-8.418212890625 -8.63525390625 -27.23046875
0.432861328125 -0.93212890625 25.6005859375
-4.06591796875 -3.1053466796875 41.408935546875
39.040771484375 -4.461181640625 1.269775390625
29.041748046875 -3.4130859375 8.394775390625
-24.400390625 -2.9140625 7.187744140625
8.880615234375 -8.40966796875 -24.433837890625
11.12255859375 -0.716796875 26.859375
-23.10205078125 -1.072265625 12.767822265625
22.407958984375 -3.6575927734375 5.1767578125
-3.745361328125 -5.230224609375 -3.50439453125
28.654052734375 -5.691650390625 -5.824951171875
4.60888671875 -8.9970703125 -29.52783203125
-20.136474609375 -9.337646484375 58.302734375
2.44921875 -8.5067138671875 -26.572509765625
-28.59814453125 -5.7823486328125 80.252685546875
36.005859375 -2.8431396484375 13.357666015625
16.2099609375 -9.011962890625 -27.4814453125
36.035400390625 -5.7784423828125 -6.802001953125
9.806396484375 -8.9219970703125 -28.248046875
-9.435791015625 -6.2379150390625 -12.393798828125
-19.87060546875 -6.9339599609375 -14.923095703125
-23.04248046875 -2.1588134765625 84.265869140625
37.80712890625 -4.2625732421875 2.753173828125
-23.483642578125 -6.9754638671875 -15.91259765625
38.21630859375 -2.393798828125 -6.821533203125
12.343505859375 -9.02880859375 -29.030029296875
4.88818359375 -9.40478515625 -31.52490234375
30.117919921875 -5.6669921875 -7.0439453125
8.046142578125 -1.37451171875 45.1484375
-6.616455078125 -1.641357421875 29.539794921875
39.37744140625 -5.0716552734375 -3.64697265625
-24.795166015625 -9.1285400390625 -30.977783203125
33.37744140625 -1.8831787109375 19.48486328125
2.11181640625 -3.94580078125 53.578369140625
-16.87060546875 -8.9029541015625 60.24072265625
-21.280029296875 -7.2271728515625 -18.453857421875
-15.137451171875 -5.780029296875 -9.646484375
26.18798828125 -9.112060546875 -28.512939453125
30.662109375 -7.47314453125 -16.631103515625
33.06884765625 -4.518798828125 -0.927978515625
-18.236083984375 -6.0089111328125 77.182373046875
-30.076904296875 -8.59033203125 62.15869140625
3.903564453125 -1.8240966796875 44.322998046875
-15.146728515625 -6.779296875 49.902587890625
0.482666015625 -9.3570556640625 -32.23095703125
-18.332275390625 -7.5382080078125 50.25048828125
14.556396484375 -8.7864990234375 -28.263671875
-32.694091796875 -5.03369140625 81.964111328125
21.688232421875 -2.6796875 13.875732421875
-4.618896484375 -1.2447509765625 21.936279296875
19.577880859375 -6.2757568359375 -9.16845703125
39.941650390625 -3.952880859375 6.12890625
-19.93310546875 -9.1796875 -32.69189453125
-3.884765625 -9.3096923828125 -32.930908203125
6.321533203125 -2.8572998046875 11.86572265625
-16.493896484375 -7.26416015625 -18.046875
-20.739501953125 -2.4808349609375 -0.584716796875
12.43603515625 -4.7491455078125 -0.908935546875
-7.169921875 -4.9281005859375 -1.928955078125
3.441162109375 -4.0938720703125 3.63916015625
23.143310546875 -5.9862060546875 -8.041015625
20.8701171875 1.1650390625 37.873779296875
35.950439453125 -3.9468994140625 5.46142578125
1.526611328125 -1.0408935546875 37.69482421875
22.3515625 -1.1060791015625 22.552734375
-17.41845703125 -8.2666015625 -23.507080078125
11.296142578125 -0.34375 42.0078125
-18.252197265625 -5.2779541015625 -42.3271484375
21.97509765625 -8.651611328125 -27.580322265625
22.5810546875 -6.73876953125 -12.957763671875
4.373291015625 -2.834716796875 13.7265625
8.7763671875 -0.7218017578125 24.1240234375
-27.891845703125 -4.7769775390625 -4.451904296875
-6.0361328125 -7.2203369140625 -16.668212890625
5.3349609375 -1.0401611328125 23.440185546875
28.8046875 3.2886962890625 52.40087890625
-0.066162109375 -3.9287109375 2.839599609375
-4.992431640625 -5.9962158203125 -8.8876953125
-6.638427734375 -8.6961669921875 -26.65185546875
22.00732421875 -3.8856201171875 6.937744140625
16.71923828125 -2.490234375 14.605712890625
35.208251953125 -3.3599853515625 7.034423828125
6.382080078125 -9.0787353515625 -28.392333984375
-29.387451171875 -6.1009521484375 76.521240234375
14.656494140625 -0.66162109375 21.472900390625
-27.63525390625 -6.3431396484375 -12.5283203125
-25.94873046875 -7.7540283203125 -22.064697265625
26.0849609375 -6.42919921875 -10.283935546875
-34.406494140625 -6.81689453125 72.111572265625
15.365234375 -7.5772705078125 -18.544677734375
-27.721923828125 -4.3831787109375 84.77197265625
16.599609375 0.9066162109375 40.684814453125
18.18359375 0.953857421875 26.38037109375
-12.49560546875 -6.9677734375 -17.85107421875
20.24267578125 1.0029296875 24.98583984375
10.905517578125 0.50048828125 33.953369140625
27.5283203125 -6.26416015625 -9.04638671875
-26.533447265625 -7.11328125 -18.61376953125
-23.408203125 -2.9609375 11.435302734375
37.270263671875 -5.9815673828125 -8.314208984375
-13.33935546875 -6.761474609375 74.733154296875
-26.448974609375 -7.1146240234375 69.439697265625
19.62841796875 -7.04638671875 -13.867919921875
20.80517578125 -5.6268310546875 -6.0634765625
-20.758056640625 -8.659912109375 -27.465576171875
-8.26318359375 -6.23681640625 -11.0302734375
29.18115234375 0.5164794921875 53.30322265625
-11.859375 -7.618408203125 -21.35498046875
17.090576171875 -8.6619873046875 -24.51953125
3.342529296875 -1.9686279296875 17.166259765625
36.7978515625 -4.6533203125 0.891845703125
41.068359375 -4.23388671875 4.740478515625
-19.551025390625 -8.0311279296875 -24.453369140625
-7.5634765625 -4.639892578125 0.559326171875
-15.664306640625 -9.1656494140625 -31.556396484375
8.72802734375 -0.0394287109375 39.27734375
-16.601806640625 -3.84765625 -43.515380859375
38.33349609375 -3.5113525390625 7.662109375
-16.830322265625 -9.7408447265625 -34.15185546875
1.096923828125 -3.852783203125 6.11572265625
-18.618408203125 -9.0413818359375 -30.97802734375
-21.771484375 -8.0516357421875 50.179931640625
20.157470703125 0.2252197265625 31.5107421875
13.1318359375 0.95458984375 37.01123046875
17.5947265625 -2.1923828125 16.490478515625
-28.628173828125 -6.5079345703125 72.608642578125
20.639892578125 -1.513916015625 21.5634765625
-15.736572265625 -7.8150634765625 -22.156005859375
38.9287109375 -1.9942626953125 15.139892578125
-8.899658203125 -2.6556396484375 13.715576171875
-11.3642578125 -8.52294921875 62.61083984375
-16.857177734375 -5.4949951171875 42.543701171875
23.86669921875 -4.995849609375 -1.345703125
19.031005859375 1.27685546875 39.0615234375
-9.849609375 -3.0234375 11.9638671875
-24.656982421875 -3.5859375 84.978271484375
-9.751220703125 -5.9930419921875 53.501708984375
-14.625732421875 -5.048828125 -1.5068359375
-17.758056640625 -2.46435546875 -0.1787109375
9.123291015625 -4.0526123046875 4.292724609375
-23.887939453125 -9.5301513671875 -35.318115234375
31.05908203125 -8.223388671875 -24.707763671875
31.265625 0.03076171875 51.755126953125
6.04443359375 -1.1783447265625 41.333251953125
18.724853515625 0.91162109375 37.003173828125
-2.3583984375 -1.2967529296875 24.20849609375
37.626953125 -8.4998779296875 -25.313232421875
-25.206787109375 -4.962890625 -2.874267578125
15.745849609375 -2.0692138671875 17.75537109375
-19.31640625 -8.425048828125 -26.3818359375
1.93408203125 -5.24169921875 -28.9375
-13.61474609375 -2.5860595703125 13.57470703125
-19.5458984375 -5.599609375 79.63037109375
-19.138916015625 3.8004150390625 -45.574951171875
41.54541015625 -7.1575927734375 -11.36279296875
24.92578125 0.6124267578125 34.05078125
13.7734375 -6.28369140625 -10.292236328125
-26.958251953125 -3.720703125 4.114501953125
9.26904296875 -8.736328125 -26.519287109375
-0.50830078125 -0.58349609375 28.211181640625
28.77978515625 -3.969970703125 2.831298828125
-6.85595703125 -3.8824462890625 4.2060546875
7.830810546875 -1.4620361328125 47.094970703125
-24.292724609375 -8.57763671875 -27.537109375
-23.70947265625 -6.58837890625 -14.0224609375
26.05078125 -4.8070068359375 -0.977783203125
32.82177734375 -7.4111328125 -17.22021484375
4.614013671875 -8.2664794921875 -25.810791015625
14.609619140625 -1.8831787109375 19.1474609375
12.608642578125 -1.993408203125 18.663818359375
32.922607421875 -2.5008544921875 15.56396484375
27.216552734375 -3.2994384765625 8.199462890625
33.10791015625 -5.5557861328125 -9.041015625
1.444091796875 -7.078857421875 -24.204345703125
17.133544921875 -1.23974609375 21.56884765625
10.365966796875 -0.1138916015625 30.699951171875
-24.1962890625 -8.9493408203125 57.685302734375
-4.2763671875 -6.7437744140625 -15.830322265625
28.990478515625 -4.4544677734375 0.959716796875
18.519287109375 1.6683349609375 24.508056640625
43.05810546875 -4.0677490234375 7.75439453125
-9.52587890625 -1.066162109375 29.21728515625
-22.0791015625 -3.5274658203125 4.89013671875
-7.97607421875 -4.342529296875 43.599365234375
12.863525390625 -0.822509765625 27.081298828125
5.134521484375 -0.47705078125 27.993896484375
2.717041015625 -1.4332275390625 41.0146484375
6.829345703125 -1.3974609375 22.447265625
31.931640625 -3.21630859375 8.46630859375
5.668212890625 -1.781982421875 46.298828125
33.428955078125 -6.728515625 -14.25537109375
22.981201171875 -8.113525390625 -23.209716796875
-23.57763671875 -5.1107177734375 -3.646240234375
-1.406982421875 -6.8802490234375 -13.771484375
22.0185546875 -6.5562744140625 -11.249267578125
1.206298828125 -2.307373046875 14.972412109375
8.771484375 -4.524658203125 0.76513671875
-14.2763671875 -7.499267578125 -19.11962890625
16.674072265625 -4.162353515625 4.169677734375
-23.586181640625 -7.618896484375 66.7802734375
2.957275390625 -0.119873046875 30.673828125
-17.40869140625 -4.9183349609375 -3.53564453125
33.424072265625 -1.0870361328125 23.007568359375
-5.506591796875 -2.0780029296875 20.361083984375
-29.386474609375 -3.9808349609375 -3.0986328125
3.67529296875 -4.581298828125 0.3369140625
42.173583984375 -9.0006103515625 -21.121337890625
25.493896484375 -2.9700927734375 10.3173828125
26.797607421875 -7.371337890625 -17.304931640625
27.13671875 -1.5452880859375 20.63134765625
-1.372314453125 -1.625732421875 21.08154296875
-19.177490234375 -0.632080078125 15.36328125
15.046630859375 0.830078125 44.129150390625
25.547119140625 -3.823974609375 4.2763671875
16.09033203125 -6.68408203125 -13.27197265625
34.981689453125 -2.2669677734375 -6.86376953125
28.467529296875 -5.00341796875 -1.039794921875
3.164306640625 -1.47119140625 19.881103515625
-19.354248046875 -5.077880859375 -4.39501953125
27.88623046875 -4.038818359375 4.76318359375
-0.566162109375 -2.1505126953125 17.156005859375
0.372802734375 -4.825927734375 -1.83447265625
-4.824462890625 -4.9100341796875 50.568603515625
-9.63232421875 -5.6727294921875 -7.158447265625
38.9296875 -6.2686767578125 -7.963134765625
38.888671875 -4.806884765625 -2.022705078125
32.198974609375 -3.8751220703125 3.184326171875
19.2314453125 -8.688720703125 -27.1630859375
31.3427734375 -2.808837890625 13.957275390625
-2.685546875 -4.7388916015625 -0.846923828125
-6.81689453125 -7.5191650390625 -20.602294921875
-10.53564453125 -6.29052734375 50.40625
-28.205078125 -7.2413330078125 68.082275390625
-2.001220703125 -3.484619140625 51.06005859375
0.957763671875 -6.38134765625 -11.7470703125
22.503662109375 -4.218994140625 3.410400390625
0.44140625 -0.2156982421875 29.96240234375
9.94140625 -6.229248046875 -9.89892578125
-9.91015625 -4.1688232421875 38.48828125
13.30419921875 -5.9442138671875 -6.7255859375
0.866943359375 -5.7091064453125 -7.0703125
25.07373046875 -7.06396484375 -16.076904296875
-31.400634765625 -5.8936767578125 78.8935546875
25.2265625 -3.2899169921875 8.61962890625
2.298583984375 -2.491943359375 13.58837890625
-17.097900390625 -6.0419921875 75.9130859375
-25.65771484375 -4.8846435546875 -4.602294921875
2.7060546875 -2.7413330078125 46.55517578125
13.742919921875 -3.0145263671875 11.3701171875
18.75390625 -7.393310546875 -16.806640625
41.19287109375 -5.7711181640625 -3.17919921875
-11.1865234375 -3.9222412109375 4.91259765625
-7.982421875 -2.9747314453125 11.996826171875
37.370849609375 -3.6424560546875 9.144287109375
