-19.54833984375 -6.11181640625 64.283203125
-10.5224609375 -4.9017333984375 57.831298828125
17.717041015625 -2.5584716796875 37.458740234375
-10.232666015625 -7.83447265625 -27.836181640625
-17.421630859375 6.9716796875 -14.063232421875
32.021728515625 -0.87060546875 17.940673828125
50.267822265625 -4.3402099609375 -4.763916015625
-0.94677734375 -3.180908203125 0.9970703125
33.704833984375 -6.349853515625 -16.85498046875
-9.04345703125 -1.7181396484375 57.23876953125
31.7158203125 -4.6822509765625 -4.2705078125
22.03857421875 -7.0732421875 -22.551025390625
39.011474609375 -6.0008544921875 -13.81005859375
5.65087890625 -1.927490234375 7.576904296875
-6.28076171875 -1.9840087890625 -8.463623046875
5.775634765625 -3.845703125 29.616943359375
49.30224609375 -3.3582763671875 1.350341796875
-1.193603515625 -4.2230224609375 -5.64501953125
40.02734375 -4.5546875 -5.298828125
30.84814453125 -5.6474609375 -12.042236328125
-17.36767578125 4.4957275390625 -23.17919921875
31.414794921875 -7.0584716796875 -21.155517578125
11.35791015625 -5.0677490234375 44.371337890625
8.412841796875 -3.626220703125 1.08642578125
42.664794921875 -4.0447998046875 -1.031005859375
-6.27392578125 -3.810302734375 61.209228515625
39.734375 -5.101318359375 -8.638916015625
53.701416015625 -5.7823486328125 -14.713623046875
-3.3291015625 -4.183837890625 -11.5078125
6.7412109375 -7.01220703125 -23.09814453125
8.112060546875 -3.76416015625 -0.86083984375
4.58935546875 -7.03271484375 -21.798095703125
28.27880859375 -5.7833251953125 -12.223388671875
15.109619140625 -3.95751953125 -2.904296875
6.097900390625 -3.2318115234375 26.55224609375
26.3701171875 -7.5419921875 -26.438720703125
42.610107421875 -4.551025390625 -5.550048828125
32.3203125 1.0050048828125 11.24462890625
-18.627197265625 1.8388671875 -11.2646484375
21.9453125 -6.7366943359375 -20.544677734375
4.875244140625 -6.2896728515625 -16.933349609375
-16.620361328125 9.0931396484375 -10.50537109375
52.505615234375 -5.6416015625 -13.328369140625
-14.611572265625 -4.0615234375 73.2578125
-1.5087890625 -5.6712646484375 -13.66455078125
-17.6259765625 11.0849609375 -18.340576171875
5.04736328125 -4.0145263671875 -0.782958984375
-18.32568359375 12.2066650390625 -34.77392578125
6.321533203125 -3.1038818359375 4.541015625
30.565673828125 -5.6517333984375 -10.293701171875
-19.98583984375 -6.846435546875 60.676025390625
-17.442138671875 10.862060546875 -16.564697265625
8.732666015625 -4.6617431640625 -5.767822265625
-1.465087890625 -4.2401123046875 25.900390625
16.59033203125 -1.6151123046875 13.542724609375
-7.278076171875 -4.0386962890625 -5.992919921875
20.67626953125 -0.2265625 24.3564453125
29.68798828125 -6.6263427734375 -18.131103515625
-18.09423828125 -2.78564453125 -27.052734375
-17.082763671875 -4.9656982421875 71.2392578125
-3.414794921875 -3.4464111328125 0.37353515625
-0.263671875 -7.90087890625 48.953125
16.353759765625 -2.9478759765625 38.59765625
6.47900390625 -6.1270751953125 47.87353515625
10.718505859375 -7.7801513671875 -26.62939453125
-8.35546875 -8.56689453125 48.711181640625
-17.16796875 14.65234375 -22.981689453125
34.121337890625 -0.006591796875 23.504638671875
2.045166015625 -8.0810546875 -29.62890625
23.400146484375 -5.1827392578125 -10.581298828125
19.006591796875 -1.995849609375 12.05322265625
-17.615478515625 -6.966552734375 58.716796875
-14.585205078125 -4.7322998046875 -7.935546875
27.407958984375 -0.3988037109375 21.01171875
26.86328125 0.0010986328125 22.958251953125
-7.71728515625 -4.94287109375 63.73095703125
50.60888671875 -3.2235107421875 -14.018798828125
-5.064453125 -1.542236328125 -12.47900390625
9.22412109375 -7.583740234375 -25.718994140625
3.120361328125 -3.857666015625 28.360595703125
-4.747314453125 -3.6129150390625 -1.217041015625
29.672607421875 -4.3731689453125 -2.783203125
-16.20849609375 4.0052490234375 -27.65771484375
6.9404296875 -1.58056640625 13.765380859375
1.942138671875 -6.749267578125 44.64697265625
35.364990234375 -6.88427734375 -19.772216796875
9.8603515625 -1.7738037109375 22.89404296875
15.705078125 -6.5634765625 -18.070068359375
36.683349609375 -6.4046630859375 -16.65380859375
33.694091796875 -5.366943359375 -9.847900390625
-9.96044921875 -6.89404296875 -21.441650390625
16.63037109375 -0.5330810546875 21.086669921875
5.04296875 -3.301025390625 2.421875
44.035400390625 -1.8876953125 13.62744140625
-4.886962890625 -4.6529541015625 -12.8134765625
30.771240234375 -0.7576904296875 10.849609375
-17.618408203125 2.4130859375 -22.52587890625
24.03564453125 -3.114501953125 3.397705078125
0.873291015625 -6.1717529296875 38.141845703125
-3.95947265625 -5.8153076171875 30.7802734375
3.178466796875 -7.1717529296875 -22.8857421875
30.235595703125 2.331787109375 10.89794921875
-17.32275390625 -3.5054931640625 -15.633544921875
45.677001953125 -3.56005859375 0.958740234375
5.3310546875 -5.945556640625 -15.148193359375
-17.232421875 4.59423828125 -33.4521484375
26.687744140625 -2.353271484375 8.4423828125
-17.755126953125 -0.0355224609375 -24.951171875
16.587158203125 -1.3282470703125 27.8251953125
-17.6171875 7.382080078125 -9.946044921875
14.5849609375 -0.7459716796875 17.682373046875
-3.156005859375 -2.211181640625 -11.479248046875
16.523681640625 -7.286376953125 -23.35400390625
47.16552734375 -2.5205078125 7.84423828125
18.67138671875 -1.824951171875 34.18115234375
-2.584228515625 -8.022705078125 48.697998046875
-7.843505859375 -7.038818359375 -23.716064453125
-17.71044921875 -7.982666015625 50.87451171875
-15.98193359375 -6.7381591796875 60.956787109375
-17.798828125 14.0888671875 -34.774169921875
51.468994140625 -7.0806884765625 -21.4423828125
-1.299072265625 -6.3936767578125 -18.670166015625
-14.82177734375 -7.869384765625 53.357177734375
-21.4755859375 -7.1943359375 56.59619140625
6.006103515625 -5.26416015625 -9.868408203125
-17.4052734375 4.684814453125 -7.9140625
-18.28564453125 10.800048828125 -27.962890625
-6.745361328125 -3.13916015625 -10.125732421875
48.042236328125 -3.3974609375 -14.7587890625
24.921875 -8.3992919921875 -30.375244140625
28.975341796875 -5.4263916015625 -8.8642578125
50.934326171875 -3.214599609375 -15.806884765625
48.185791015625 -7.0596923828125 -20.40234375
0.154541015625 -4.9808349609375 31.52001953125
-17.854736328125 -5.106689453125 69.68310546875
22.389404296875 -6.3873291015625 -18.731689453125
-18.634521484375 2.0614013671875 -5.476806640625
26.429443359375 -5.567626953125 -12.352294921875
-9.999267578125 -6.2684326171875 -18.06201171875
-1.02880859375 -4.700927734375 27.625732421875
-3.352294921875 -5.427490234375 -13.251220703125
0.506103515625 -4.783203125 29.768798828125
-7.827880859375 -4.582763671875 59.282958984375
-9.87890625 -4.4632568359375 72.33349609375
22.317138671875 -1.576904296875 14.45166015625
8.6240234375 -8.623291015625 -33.161865234375
-16.481689453125 4.718994140625 -25.8974609375
-12.9912109375 -5.479248046875 67.760986328125
24.622314453125 -4.383056640625 -5.55810546875
2.417724609375 -6.88720703125 -19.5166015625
21.74267578125 -1.9769287109375 10.170654296875
6.802734375 -4.519287109375 -5.263671875
6.08837890625 -6.1636962890625 50.431640625
19.59326171875 -3.4051513671875 2.290283203125
-3.373046875 -7.899169921875 55.077880859375
-17.20751953125 1.456298828125 -26.919921875
9.8251953125 -8.346435546875 -29.82177734375
46.399658203125 -7.4552001953125 -23.474365234375
-18.250732421875 8.4620361328125 -36.298583984375
50.4873046875 -1.66064453125 -16.29248046875
-18.473388671875 11.2630615234375 -38.53759765625
15.64013671875 -7.852294921875 -26.543701171875
42.524169921875 -7.9736328125 -26.910888671875
14.50927734375 -1.6463623046875 27.6162109375
42.233154296875 -6.0185546875 -14.819580078125
-4.51318359375 -6.9735107421875 60.93603515625
-10.118408203125 -5.5181884765625 69.373779296875
-23.0634765625 -6.208740234375 63.8671875
15.802978515625 -3.4700927734375 40.1005859375
-6.449462890625 -5.48291015625 61.876220703125
20.731689453125 -1.6356201171875 33.986572265625
-7.46142578125 -6.1483154296875 59.74560546875
46.281982421875 -3.84423828125 -0.6435546875
2.919189453125 -7.08984375 46.078125
2.735595703125 -3.528564453125 0.642822265625
-1.013916015625 -7.354736328125 43.427978515625
-4.744384765625 -7.859375 -29.157958984375
-6.44384765625 38.816162109375 -35.102294921875
2.870361328125 -7.4232177734375 48.26513671875
42.532958984375 -5.3310546875 -10.99658203125
-17.8486328125 11.3551025390625 -14.613525390625
-18.28173828125 -0.169921875 -7.083251953125
-17.199462890625 5.5655517578125 -19.0888671875
30.56640625 -7.491943359375 -23.9130859375
-14.94775390625 -7.3507080078125 56.84521484375
-18.339111328125 -0.5050048828125 -12.77294921875
23.0205078125 -8.4517822265625 -31.3994140625
11.079345703125 -2.44970703125 7.902587890625
25.366943359375 -8.0450439453125 -28.534912109375
56.697998046875 -7.1864013671875 -21.906494140625
46.3525390625 -4.95458984375 -8.05126953125
5.4794921875 -5.70654296875 -11.538330078125
34.0 -5.9337158203125 -13.93310546875
-12.424560546875 -3.6739501953125 -0.8662109375
12.704345703125 -3.5262451171875 38.498291015625
19.177978515625 -7.9300537109375 -27.109375
43.12744140625 -4.93994140625 -7.06396484375
41.080810546875 -2.7606201171875 7.132568359375
-3.57568359375 -5.6326904296875 -16.3115234375
18.306396484375 -0.957763671875 17.791015625
-17.563720703125 2.737548828125 -16.7109375
-7.920654296875 -8.245849609375 50.3017578125
4.728271484375 -7.2657470703125 -23.893310546875
-8.653076171875 38.5306396484375 -34.756103515625
33.047119140625 -3.9471435546875 -0.344482421875
32.0380859375 0.5540771484375 14.29443359375
37.71337890625 -4.955078125 -8.119384765625
-5.13134765625 -7.36279296875 57.0927734375
9.322021484375 -3.2432861328125 3.18798828125
44.89990234375 -5.3662109375 -10.049560546875
47.18408203125 -3.3175048828125 1.9541015625
-18.1064453125 5.9837646484375 -36.585205078125
6.347900390625 -2.063232421875 19.48779296875
17.886474609375 -0.478759765625 25.838623046875
-6.383056640625 -7.797607421875 54.3798828125
-10.441650390625 -3.166748046875 58.08544921875
50.871826171875 -7.7607421875 -26.39892578125
23.179931640625 -4.7882080078125 -7.52490234375
11.515625 -1.2445068359375 23.58056640625
18.638671875 -0.4388427734375 20.958984375
-1.63623046875 -8.005859375 55.164794921875
3.797119140625 -7.6600341796875 -26.062744140625
20.3974609375 -5.7979736328125 -12.99755859375
-17.937744140625 1.8077392578125 -18.048828125
51.957763671875 -3.7869873046875 -0.762451171875
-20.96728515625 -6.1199951171875 65.122802734375
31.125 -3.8355712890625 -0.38134765625
38.130859375 -1.501708984375 14.528564453125
55.860595703125 -5.9654541015625 -15.8125
-15.53759765625 6.7392578125 -28.985595703125
51.326904296875 -6.7384033203125 -19.403564453125
53.96923828125 -6.8760986328125 -20.141357421875
-7.69921875 -6.1712646484375 -16.70703125
-17.52099609375 -4.3543701171875 -22.607666015625
-10.616455078125 -7.9825439453125 40.661376953125
-3.10205078125 39.31103515625 -35.387451171875
23.73779296875 -8.084228515625 -27.95458984375
29.4619140625 0.887939453125 10.043212890625
15.04833984375 -7.767333984375 -36.101318359375
-16.067626953125 -6.64111328125 -25.681396484375
38.317626953125 -1.8544921875 12.0830078125
-7.373291015625 -6.0760498046875 66.248291015625
39.982666015625 -2.100341796875 10.18017578125
29.067138671875 -2.2850341796875 9.27880859375
-18.354736328125 13.6605224609375 -31.3857421875
22.045654296875 -1.3455810546875 35.946533203125
37.816650390625 -6.8177490234375 -18.935302734375
-9.1240234375 -5.943115234375 66.609375
2.67578125 -2.49853515625 5.73876953125
-17.6201171875 17.0184326171875 -30.35986328125
36.887451171875 -7.9132080078125 -26.802978515625
26.5947265625 0.644775390625 30.291259765625
10.21435546875 -6.1771240234375 -16.01708984375
1.988037109375 -4.8350830078125 32.4013671875
52.699951171875 -8.087646484375 -26.1669921875
46.90576171875 -4.910888671875 -11.021728515625
16.4677734375 -4.9422607421875 -9.65283203125
33.971923828125 -8.472412109375 -29.942626953125
51.52294921875 -7.5277099609375 -23.377685546875
29.07568359375 -3.661865234375 0.656005859375
23.303955078125 -2.61376953125 6.987548828125
25.288330078125 -6.846923828125 -19.876708984375
18.4990234375 -6.9979248046875 -21.998291015625
11.1650390625 -3.8218994140625 38.128662109375
-13.184814453125 -7.54638671875 -25.929443359375
21.671875 -7.322509765625 -24.481201171875
-4.7880859375 -6.4212646484375 -18.03271484375
9.39111328125 -2.20751953125 24.36474609375
29.82568359375 -7.5517578125 -25.8828125
8.572021484375 -5.4580078125 -11.641845703125
16.20703125 -2.21435546875 33.11572265625
36.377685546875 -2.0086669921875 11.169677734375
22.4541015625 -2.0565185546875 11.602294921875
31.769775390625 -6.808837890625 -19.2236328125
-0.814453125 -3.6932373046875 -2.40234375
2.0244140625 -2.19140625 19.30322265625
2.676513671875 -7.661865234375 51.865234375
39.82275390625 -4.3250732421875 -3.222412109375
-17.63134765625 5.935302734375 -17.5810546875
5.064453125 -2.746826171875 22.41552734375
4.550537109375 -7.706787109375 51.39404296875
5.800537109375 -5.35009765625 39.669677734375
16.385009765625 -3.3323974609375 1.07568359375
-18.4287109375 -7.9332275390625 53.42529296875
-18.35498046875 -4.674560546875 72.291748046875
8.197265625 -4.3818359375 -4.1884765625
0.342041015625 -6.849853515625 -22.18896484375
41.275146484375 -3.11865234375 4.65283203125
10.8525390625 -6.6619873046875 -19.171142578125
13.808349609375 -0.903564453125 19.06103515625
12.671630859375 -2.98486328125 4.630615234375
45.778076171875 -6.169189453125 -18.071044921875
17.782470703125 -6.911865234375 -20.150390625
19.283935546875 -8.1337890625 -28.6806640625
4.60009765625 -4.2901611328125 32.783935546875
35.492919921875 -7.08740234375 -21.340576171875
37.929931640625 -3.14697265625 3.52197265625
6.5947265625 -3.9703369140625 -1.302734375
42.643798828125 -7.6175537109375 -23.256103515625
33.251220703125 -4.0413818359375 -1.962890625
13.622802734375 -7.9720458984375 -26.8935546875
20.10986328125 -5.9420166015625 -15.003662109375
-15.493408203125 -1.6014404296875 -0.957763671875
11.097412109375 -1.1824951171875 20.0498046875
-12.2412109375 -5.5748291015625 -11.837890625
-6.1416015625 -8.384033203125 49.911865234375
23.924560546875 -6.4476318359375 -19.1865234375
1.486572265625 -4.8973388671875 -7.064208984375
16.9892578125 -0.3021240234375 22.885009765625
34.439697265625 -2.1627197265625 10.257568359375
1.93212890625 -4.2650146484375 -3.91064453125
6.340087890625 -2.45166015625 21.317138671875
-18.03662109375 13.375 -26.170166015625
20.04345703125 -6.478271484375 -16.779052734375
-13.49072265625 -5.512939453125 -13.109619140625
-16.910888671875 12.972412109375 -20.062744140625
41.972412109375 -7.1527099609375 -20.57958984375
-17.178955078125 13.259765625 -15.765869140625
7.9306640625 -8.09423828125 -29.37890625
9.601318359375 -1.387451171875 19.598876953125
41.078125 -5.742919921875 -12.996337890625
35.56787109375 -5.8585205078125 -13.935791015625
-18.260498046875 3.8135986328125 -13.49169921875
-17.58935546875 -2.7987060546875 -13.921630859375
26.5419921875 -8.4974365234375 -31.416259765625
39.75537109375 -6.357177734375 -16.55859375
19.206787109375 -4.7657470703125 -7.379150390625
-11.396728515625 -4.83642578125 -7.27294921875
28.373291015625 -7.829833984375 -27.444580078125
37.766357421875 -2.524658203125 6.8720703125
-1.396240234375 -7.869384765625 -28.615478515625
-16.65380859375 -3.7908935546875 -5.84521484375
7.5048828125 -6.5203857421875 -19.285400390625
12.012451171875 -8.7703857421875 -33.07177734375
38.70458984375 -7.2449951171875 -22.8291015625
16.581787109375 -4.705810546875 -6.049560546875
49.034912109375 -1.8038330078125 -17.412353515625
50.1142578125 -6.9827880859375 -22.214599609375
-7.64599609375 -7.4840087890625 37.501220703125
30.56494140625 -0.9783935546875 17.3896484375
36.784912109375 -5.61962890625 -11.1806640625
23.737548828125 -2.27587890625 8.735107421875
-1.529541015625 -7.3348388671875 -25.072509765625
-11.826171875 -5.9569091796875 66.843505859375
11.284423828125 -4.5577392578125 -6.1162109375
40.478515625 -7.6832275390625 -25.898193359375
-5.671142578125 -2.835205078125 2.214599609375
-18.23486328125 8.5714111328125 -21.1455078125
-5.947509765625 -7.6185302734375 -26.128173828125
-15.867919921875 -3.1614990234375 -1.23046875
10.910888671875 -4.798828125 -7.98779296875
-16.36328125 -5.204345703125 -15.68212890625
20.75732421875 -0.531005859375 19.376953125
12.963623046875 -1.8206787109375 27.6669921875
-20.976806640625 -5.552001953125 67.998779296875
27.20947265625 -5.10986328125 -9.0986328125
39.474853515625 -5.2454833984375 -10.655517578125
7.323974609375 -5.0579833984375 40.038330078125
26.2998046875 -6.2135009765625 -17.35498046875
36.92236328125 -4.439453125 -4.427734375
48.876708984375 -3.839111328125 -0.88623046875
5.891845703125 -3.140625 25.01708984375
12.126953125 -2.0721435546875 29.098388671875
1.349609375 -3.8109130859375 24.26318359375
-18.072998046875 9.5704345703125 -27.041015625
0.9814453125 40.48486328125 -34.097412109375
9.869140625 -5.1083984375 44.802001953125
-17.185791015625 3.03857421875 -32.749755859375
10.03173828125 -8.6181640625 -32.5126953125
8.2451171875 -6.1641845703125 -15.93310546875
21.78125 -7.5252685546875 -26.048583984375
16.069091796875 -2.886962890625 5.118408203125
-18.985595703125 -6.8817138671875 59.494873046875
4.2431640625 -3.3797607421875 25.66455078125
-13.4853515625 -5.88330078125 66.291015625
6.334716796875 -6.18359375 -16.39404296875
4.961181640625 -6.4879150390625 -18.46533203125
35.828125 -8.248046875 -27.890625
25.547119140625 -6.980224609375 -22.099609375
13.61962890625 -7.533447265625 -24.99267578125
-17.5693359375 16.1297607421875 -35.941162109375
36.98095703125 -8.53125 -29.760498046875
28.341064453125 -4.4110107421875 -3.97314453125
-4.025390625 -6.0169677734375 64.88720703125
6.159912109375 -5.7889404296875 -13.341552734375
20.727783203125 -8.4346923828125 -29.49365234375
13.503173828125 -3.9134521484375 41.029541015625
25.972900390625 -4.776123046875 -6.22705078125
21.460693359375 -0.2183837890625 28.743408203125
5.378173828125 -8.361083984375 -29.981201171875
3.978515625 -8.3662109375 -30.6279296875
20.353515625 -4.633056640625 -4.57421875
48.6064453125 -3.1773681640625 3.05078125
-18.236328125 -1.4967041015625 -28.0693359375
25.806640625 -3.85302734375 -1.439208984375
32.346435546875 -3.470458984375 2.75244140625
15.848876953125 -8.70068359375 -31.59765625
5.32275390625 -4.4627685546875 -4.83642578125
13.168701171875 -6.2635498046875 -16.364501953125
17.627197265625 -8.003173828125 -27.092529296875
18.96240234375 -5.0723876953125 -10.349365234375
-17.802978515625 -2.368896484375 -18.59130859375
17.223876953125 -6.6236572265625 -18.521728515625
-0.497802734375 -4.7579345703125 -9.794921875
12.295166015625 -8.3155517578125 -29.558349609375
32.148681640625 -5.30810546875 -9.406005859375
6.223876953125 -5.397216796875 43.041259765625
-17.901611328125 0.5184326171875 -11.547607421875
-19.42724609375 -4.0775146484375 69.419677734375
34.0693359375 -4.853271484375 -7.0595703125
34.782958984375 -1.9249267578125 12.10595703125
36.16064453125 -4.8968505859375 -7.67919921875
25.177001953125 -3.5413818359375 0.680419921875
15.67578125 -5.829345703125 -14.758544921875
9.2509765625 -2.921875 5.09912109375
29.38525390625 -0.7647705078125 10.20166015625
26.923095703125 -5.9560546875 -13.8681640625
32.36376953125 -4.998779296875 -6.416748046875
25.387451171875 -2.8143310546875 5.44140625
7.335205078125 -4.0555419921875 34.358154296875
41.448486328125 -3.7447509765625 1.284912109375
43.63134765625 -2.8863525390625 6.4697265625
-8.694580078125 -5.7718505859375 -14.497314453125
-6.537353515625 -5.05859375 -13.0419921875
-5.2333984375 -3.2083740234375 0.763916015625
11.6611328125 -5.77197265625 -14.049072265625
45.065185546875 -2.4815673828125 8.43212890625
-18.19970703125 -3.31396484375 -28.824951171875
-3.9814453125 -6.901123046875 -22.91357421875
43.83154296875 -3.245361328125 3.9833984375
-16.60888671875 -5.1138916015625 -17.32080078125
-15.754638671875 -6.125732421875 65.63720703125
40.4765625 -3.273681640625 2.850830078125
-16.754150390625 -4.403564453125 -12.367919921875
-9.03662109375 -5.4591064453125 68.135009765625
-6.88525390625 -6.8138427734375 -22.554443359375
50.93408203125 -8.07177734375 -27.887939453125
-16.86669921875 4.2823486328125 -19.836181640625
9.149658203125 -1.6954345703125 21.500244140625
-15.979736328125 -6.3043212890625 -20.42724609375
31.2158203125 -0.22216796875 22.40087890625
-10.030029296875 -5.0360107421875 70.89208984375
-2.27392578125 -5.5789794921875 33.137451171875
-10.699462890625 -5.4022216796875 -11.9404296875
54.02197265625 -5.668701171875 -13.224365234375
4.480712890625 -6.09765625 42.5224609375
-1.71533203125 -6.338623046875 36.0078125
-13.346435546875 -4.0533447265625 -2.9501953125
28.80224609375 -6.75341796875 -19.42041015625
-1.79931640625 -5.9775390625 -16.625732421875
43.943603515625 -1.9532470703125 11.046875
32.924560546875 -3.7515869140625 1.1689453125
41.0517578125 -8.391845703125 -28.943359375
-11.07763671875 -5.80517578125 -14.773681640625
22.038330078125 -4.3555908203125 -4.77001953125
28.25341796875 -3.949462890625 -1.57958984375
15.34326171875 -3.787353515625 -0.40869140625
26.779541015625 -20.1849365234375 89.540771484375
25.859619140625 -4.5794677734375 -4.705810546875
37.46142578125 -5.8057861328125 -12.9130859375
43.340087890625 -7.809814453125 -25.033203125
-2.3427734375 -7.11962890625 40.68798828125
-11.75537109375 -6.97802734375 -22.984130859375
-14.500732421875 -6.98876953125 -24.26025390625
42.723388671875 -1.7928466796875 12.87939453125
-8.732421875 -7.163818359375 -24.98486328125
-2.59326171875 -6.5130615234375 38.361572265625
39.405517578125 -8.156005859375 -27.443603515625
19.732177734375 -0.7213134765625 28.556884765625
27.123046875 -0.6610107421875 18.677001953125
11.641357421875 -5.0435791015625 -10.764892578125
23.132568359375 -7.4862060546875 -24.8369140625
4.22998046875 -5.6112060546875 39.789794921875
20.9482421875 -4.0887451171875 -3.00390625
23.290771484375 -6.12646484375 -17.002197265625
39.701904296875 -3.994140625 -1.2548828125
9.557861328125 -3.6578369140625 -0.319091796875
-17.888671875 8.04443359375 -13.108154296875
20.02783203125 -1.1263427734375 15.3212890625
33.11865234375 -2.19970703125 9.079345703125
5.853271484375 -4.742431640625 -6.41455078125
12.902099609375 -1.5604248046875 12.498046875
4.173095703125 -5.612060546875 -12.283203125
21.48828125 -2.9588623046875 4.59130859375
27.09326171875 -7.04150390625 -22.56103515625
7.243408203125 -6.141357421875 45.7236328125
21.174072265625 -3.3597412109375 1.771728515625
3.385986328125 -6.23046875 -16.487548828125
14.75341796875 -8.4202880859375 -29.7451171875
-11.343994140625 -4.2852783203125 -5.02587890625
0.957763671875 -5.96630859375 -15.343505859375
3.341552734375 -3.997314453125 -2.408447265625
9.330322265625 -6.3023681640625 -17.2880859375
32.502685546875 -1.630126953125 12.031494140625
3.125732421875 -5.34423828125 -10.510986328125
-5.1396484375 -5.8065185546875 -16.202392578125
2.9609375 -3.415771484375 24.531494140625
-7.188232421875 -6.453857421875 -18.3056640625
13.3837890625 -8.59521484375 -31.40771484375
-4.518310546875 -7.3466796875 -24.60107421875
-18.104736328125 -1.021728515625 -4.319580078125
30.95849609375 -8.5509033203125 -30.580078125
48.330078125 -4.933837890625 -7.575439453125
-7.87939453125 -8.834228515625 47.31298828125
17.353271484375 -1.306640625 16.23486328125
11.592529296875 -1.02978515625 17.2021484375
8.38671875 -1.345703125 14.730224609375
49.935546875 -4.6922607421875 -9.91259765625
35.2060546875 -1.586669921875 13.853759765625
7.543212890625 -5.019287109375 41.928955078125
-8.54345703125 -4.3349609375 -4.814208984375
21.359130859375 -0.4249267578125 22.238525390625
-18.071533203125 11.8416748046875 -24.37060546875
10.839111328125 -2.6156005859375 5.447021484375
-12.226806640625 -7.32177734375 -24.769287109375
25.06591796875 -1.556396484375 12.5771484375
-0.711181640625 -2.85498046875 4.402099609375
12.54833984375 -4.4725341796875 45.122314453125
-8.776123046875 -4.24365234375 -6.428466796875
-11.322998046875 -7.6610107421875 -25.91943359375
18.652099609375 -3.0723876953125 3.40087890625
24.859130859375 0.1512451171875 27.023681640625
8.213623046875 -5.568115234375 -13.086181640625
8.17578125 -1.9072265625 17.28369140625
-10.57763671875 -3.9422607421875 -1.78271484375
5.593994140625 -8.4969482421875 -32.215576171875
-17.787353515625 0.2176513671875 -9.71533203125
52.4423828125 -5.336181640625 -11.86962890625
41.243896484375 -7.2122802734375 -22.55322265625
13.096435546875 -0.82373046875 17.653076171875
-7.25439453125 -3.8470458984375 -1.310791015625
15.2255859375 -1.6219482421875 12.90234375
29.92822265625 -7.030517578125 -21.252685546875
39.8046875 -6.662353515625 -18.015869140625
9.605224609375 -2.3963623046875 8.309814453125
20.22705078125 -0.282470703125 27.08935546875
-17.7001953125 -4.0672607421875 -19.4560546875
-15.68359375 -6.1302490234375 -17.9091796875
-17.07666015625 -3.4176025390625 -4.388427734375
3.25830078125 -4.4224853515625 31.74951171875
15.053466796875 -1.533447265625 14.46142578125
7.25439453125 -1.0745849609375 10.151611328125
9.18505859375 -1.7642822265625 10.60595703125
-12.899169921875 -6.6104736328125 -19.565673828125
36.77294921875 -3.677001953125 -0.59912109375
10.59228515625 -3.679931640625 36.192626953125
20.42529296875 -7.11376953125 -21.98388671875
43.446533203125 -6.6011962890625 -18.11181640625
-3.355712890625 -7.4991455078125 56.714111328125
32.123779296875 -6.5599365234375 -17.296875
-16.12451171875 -5.6561279296875 67.28466796875
38.51171875 -6.8709716796875 -20.241943359375
2.17578125 -4.845947265625 -8.4130859375
-3.086669921875 -6.9365234375 60.54052734375
29.6142578125 -0.6502685546875 18.475341796875
28.462158203125 -6.0157470703125 -14.31591796875
-12.338134765625 -7.4013671875 57.131103515625
29.529541015625 -8.5560302734375 -31.23681640625
32.798583984375 -7.7452392578125 -26.148681640625
21.5146484375 -1.7274169921875 12.694580078125
32.46337890625 -6.44677734375 -15.822021484375
34.3056640625 -4.2781982421875 -3.197021484375
-1.106689453125 -5.391357421875 32.170654296875
-17.7236328125 7.9442138671875 -15.2802734375
-17.2158203125 16.2415771484375 -39.03125
-1.92138671875 -2.95166015625 2.194091796875
35.724853515625 0.1734619140625 23.447265625
-1.175537109375 -1.5142822265625 6.712646484375
10.234619140625 -5.612548828125 -13.7099609375
5.68505859375 -2.014404296875 17.57763671875
-17.447265625 9.64306640625 -32.975830078125
34.85107421875 -5.37060546875 -10.761474609375
-10.047119140625 -2.4130859375 1.13916015625
18.291015625 -0.9549560546875 27.593505859375
-4.066650390625 -6.464599609375 35.76806640625
33.42578125 -5.5111083984375 -11.8603515625
17.534912109375 -4.481201171875 -4.891357421875
-2.705078125 -5.4058837890625 30.12744140625
33.057373046875 -7.7325439453125 -24.54443359375
53.1240234375 -4.4324951171875 -6.668212890625
2.910888671875 -3.7679443359375 26.8349609375
-17.400634765625 6.9278564453125 -33.611328125
-0.318603515625 -6.1126708984375 36.94677734375
-17.19677734375 1.7476806640625 -25.479248046875
-1.15478515625 39.249755859375 -34.796875
31.101318359375 -3.1439208984375 5.5693359375
7.714599609375 -3.4744873046875 30.825927734375
52.326416015625 -6.0950927734375 -16.842529296875
45.215087890625 -7.31103515625 -22.070556640625
31.632568359375 -7.73779296875 -25.200927734375
-3.476318359375 -7.921142578125 -27.854248046875
5.406982421875 -2.77490234375 5.63720703125
1.30908203125 -3.9256591796875 -1.2841796875
21.436279296875 -1.032958984375 31.858642578125
-17.985595703125 9.5528564453125 -23.12841796875
24.6396484375 -4.81396484375 -7.41845703125
-2.594482421875 -7.19482421875 -23.7041015625
24.457275390625 -5.855712890625 -13.707275390625
24.468994140625 -0.4552001953125 20.85302734375
7.7177734375 -2.835205078125 26.82373046875
-0.142333984375 -7.3226318359375 57.17822265625
17.12158203125 -3.27978515625 2.9541015625
24.69189453125 -7.4124755859375 -24.851318359375
14.31494140625 -1.9473876953125 30.930908203125
17.910400390625 -5.53271484375 -11.852783203125
30.635986328125 -2.500732421875 7.906005859375
6.05126953125 -3.838623046875 31.048828125
17.126953125 -1.998291015625 34.223876953125
-18.37109375 11.52490234375 -33.0595703125
42.613037109375 -3.745849609375 0.392333984375
10.54052734375 -4.1541748046875 41.011474609375
-7.329833984375 -7.3243408203125 -25.334716796875
56.396240234375 -7.6578369140625 -19.18115234375
41.14599609375 -1.31494140625 15.109130859375
24.4130859375 -19.6129150390625 89.74853515625
45.499755859375 -7.7220458984375 -25.241943359375
16.947509765625 -2.2132568359375 8.603271484375
18.353759765625 -2.6058349609375 39.3154296875
7.840087890625 -7.8919677734375 -27.816650390625
-18.552734375 7.930908203125 -16.65234375
13.557373046875 -5.4537353515625 -12.160888671875
41.338134765625 -6.281982421875 -16.564208984375
7.639892578125 -7.6231689453125 -25.14990234375
14.675048828125 -2.51806640625 35.7626953125
17.637451171875 -2.0025634765625 11.41162109375
8.572509765625 -3.8636474609375 36.381103515625
1.104248046875 -2.8033447265625 5.392578125
14.799072265625 -4.2291259765625 -5.308837890625
4.30712890625 -4.04541015625 29.166259765625
37.05859375 -3.2708740234375 2.258544921875
-17.700439453125 11.39111328125 -20.781005859375
33.659423828125 -7.173828125 -22.9267578125
20.3515625 -6.64306640625 -19.53515625
9.783203125 -5.5750732421875 46.611083984375
-7.65771484375 -7.52587890625 55.015625
28.878662109375 -0.708984375 19.770751953125
-4.44482421875 -7.5462646484375 -26.1435546875
45.480224609375 -4.722412109375 -16.85107421875
24.4599609375 -1.122802734375 15.071044921875
0.7978515625 -7.23681640625 -23.70458984375
-3.525390625 -5.9866943359375 33.782470703125
-13.1396484375 -6.694091796875 59.708740234375
1.82861328125 -7.64501953125 -25.96533203125
-14.803466796875 -5.289794921875 69.026123046875
-4.817138671875 -6.282958984375 62.917724609375
49.8828125 -2.8414306640625 5.666015625
20.368896484375 -1.022216796875 16.71533203125
-2.028564453125 -5.389892578125 -12.0732421875
11.265625 -4.2628173828125 -4.70947265625
-3.694580078125 -7.5833740234375 41.878173828125
-5.575439453125 -7.20703125 -23.23681640625
7.86572265625 -6.40869140625 -17.828125
-2.338623046875 -4.515625 -9.38720703125
23.364501953125 -0.99609375 16.346923828125
-6.32177734375 -7.731201171875 -27.5908203125
-17.91064453125 3.5567626953125 -9.040771484375
-18.192138671875 -1.5714111328125 -15.252685546875
18.08837890625 -4.7630615234375 -6.481689453125
9.848876953125 -1.81396484375 12.544921875
-14.527587890625 -6.8826904296875 59.257080078125
4.554931640625 -5.3702392578125 -10.407958984375
36.276123046875 -5.2301025390625 -9.66259765625
-14.11767578125 -9.02880859375 45.78466796875
29.0751953125 -4.4913330078125 -5.7763671875
-5.6533203125 -4.92333984375 33.63818359375
27.308837890625 -3.3499755859375 3.6513671875
-11.579833984375 -5.52490234375 -13.188720703125
53.14599609375 -7.31494140625 -22.933349609375
10.6396484375 -1.37744140625 15.651611328125
41.9921875 -2.108154296875 10.130126953125
-15.907958984375 7.2171630859375 -27.5556640625
22.193359375 -8.0213623046875 -27.485107421875
32.130615234375 -2.818603515625 6.626220703125
10.45263671875 -4.625732421875 42.839599609375
-11.37353515625 -6.5701904296875 -20.116455078125
-17.465087890625 -2.8018798828125 -10.68896484375
35.36328125 -4.515625 -4.434814453125
-18.039794921875 5.755615234375 -14.55029296875
-0.86279296875 -7.8935546875 46.6845703125
9.56103515625 -2.40283203125 29.04248046875
1.613525390625 -5.1583251953125 33.73779296875
-18.078857421875 0.790283203125 -8.44384765625
53.80419921875 -5.1612548828125 -10.201904296875
-15.36279296875 -5.0780029296875 -11.201171875
-16.946533203125 9.94091796875 -12.153564453125
-18.2099609375 6.4459228515625 -23.353271484375
-18.117919921875 8.24853515625 -19.259765625
-11.436279296875 -5.6148681640625 68.843505859375
34.721435546875 -4.066650390625 -1.85205078125
8.277099609375 -2.5626220703125 6.720458984375
10.66259765625 -3.073486328125 31.73193359375
9.00390625 -5.24755859375 -10.302978515625
-8.60693359375 -6.4271240234375 -18.40234375
26.9052734375 -8.24462890625 -29.4609375
38.64892578125 -3.6241455078125 0.41748046875
15.206298828125 -8.068359375 -27.91796875
-2.31884765625 -3.8985595703125 -2.84130859375
0.230224609375 -6.9534912109375 42.807861328125
14.271484375 -3.100341796875 3.1591796875
-17.30078125 -2.835205078125 -8.006103515625
19.33935546875 -8.7464599609375 -31.61474609375
0.398681640625 -7.896484375 54.072021484375
46.182861328125 -3.145751953125 5.365966796875
-5.778564453125 -7.737060546875 39.61865234375
-20.435546875 -6.587158203125 62.02783203125
17.83544921875 -8.4107666015625 -30.236083984375
6.438720703125 -5.0545654296875 -8.534912109375
23.7060546875 -1.984375 10.12109375
25.19287109375 0.253173828125 28.396484375
18.36181640625 -2.3670654296875 8.29150390625
36.976806640625 -7.2518310546875 -21.695068359375
-17.56005859375 16.8433837890625 -26.841552734375
16.533203125 -4.1143798828125 -3.23046875
-15.774658203125 -4.869140625 71.767578125
-5.775146484375 -7.8779296875 52.835205078125
5.03076171875 -3.010498046875 3.804931640625
-9.884521484375 -8.1077880859375 52.18212890625
29.137939453125 0.7576904296875 30.022216796875
-17.58642578125 13.9761962890625 -37.623779296875
-9.01806640625 -7.7459716796875 54.095947265625
-1.431884765625 -5.8673095703125 -15.1826171875
-5.87060546875 -4.0634765625 -5.887451171875
53.8310546875 -6.396728515625 -17.649169921875
28.42919921875 -7.13818359375 -21.79931640625
-4.10498046875 -8.0771484375 53.0
-3.469970703125 -7.747802734375 46.326416015625
-0.270751953125 -6.068603515625 -17.6142578125
-18.7744140625 9.3287353515625 -31.1298828125
-16.80078125 9.622802734375 -29.77099609375
-4.718505859375 -7.719482421875 55.792724609375
-15.453369140625 -3.8226318359375 -4.0595703125
34.26171875 -2.888671875 5.50537109375
34.552734375 -7.7611083984375 -24.44970703125
36.218994140625 -2.602294921875 6.853271484375
-0.74267578125 -5.9417724609375 33.95751953125
49.642822265625 -5.626220703125 -17.475830078125
12.236083984375 -7.8421630859375 -27.093994140625
-18.18603515625 14.7176513671875 -32.298583984375
-22.15869140625 -6.4542236328125 62.39306640625
10.03857421875 -7.55810546875 -24.327880859375
-12.64794921875 -5.0662841796875 -9.932373046875
-24.92919921875 -5.7838134765625 63.14404296875
2.7216796875 -5.718017578125 -12.822021484375
11.989501953125 -3.4906005859375 0.408203125
50.157470703125 -7.5675048828125 -24.608642578125
36.673583984375 -1.4786376953125 14.406005859375
-12.8046875 -5.2630615234375 70.811767578125
18.07373046875 -1.6676025390625 13.14208984375
-18.5185546875 10.5819091796875 -36.81005859375
28.221923828125 -2.8319091796875 6.2041015625
49.659423828125 -4.30517578125 -18.500244140625
41.829345703125 -1.3583984375 13.886474609375
-6.85302734375 -0.6160888671875 59.273193359375
9.683349609375 -2.0748291015625 26.2314453125
-17.992919921875 9.9617919921875 -25.69580078125
-0.350341796875 -8.198974609375 51.5927734375
32.462158203125 -5.7393798828125 -13.03857421875
6.454833984375 -3.7470703125 0.71728515625
8.73779296875 -6.8922119140625 -22.74658203125
16.422119140625 -5.7728271484375 -12.837158203125
16.51416015625 -2.4967041015625 36.24365234375
-14.725830078125 -8.7918701171875 48.2060546875
17.841796875 -5.0692138671875 -9.445556640625
23.1181640625 -0.879150390625 18.423095703125
31.47705078125 -1.954345703125 10.978515625
-7.26953125 -8.0059814453125 53.3232421875
35.58447265625 -0.9581298828125 16.979736328125
34.079345703125 0.2811279296875 24.868408203125
25.79443359375 -6.530029296875 -18.615234375
24.5009765625 -0.7427978515625 19.4892578125
-15.093994140625 -6.1807861328125 -19.1708984375
51.034912109375 -4.9342041015625 -11.180419921875
2.43505859375 -4.6746826171875 -5.915771484375
-2.95166015625 -7.0272216796875 59.145263671875
-17.42333984375 -4.580078125 -24.683349609375
44.02587890625 -4.5447998046875 -4.89404296875
31.980712890625 0.3428955078125 25.927978515625
45.491455078125 -2.0072021484375 10.635009765625
37.630126953125 -1.124755859375 15.98486328125
-9.74169921875 -8.6328125 48.65380859375
-5.74755859375 39.360595703125 -34.00634765625
13.7529296875 -4.686279296875 -6.80126953125
33.38720703125 -0.9940185546875 18.15966796875
26.174072265625 -19.9295654296875 86.39013671875
-5.422119140625 -6.2064208984375 64.43115234375
13.846923828125 -2.177001953125 10.03662109375
0.194580078125 -4.086181640625 -4.57470703125
13.97998046875 -4.276611328125 42.631591796875
-1.259765625 -7.156494140625 -22.513427734375
37.3095703125 -7.694580078125 -25.412353515625
-17.53955078125 2.80517578125 -21.2001953125
19.03076171875 -2.70361328125 5.680908203125
-23.458740234375 -6.70068359375 61.029052734375
-7.13818359375 -6.1025390625 64.336181640625
13.374755859375 -2.9368896484375 36.41015625
-15.11962890625 -6.3818359375 62.840087890625
-1.91162109375 -8.017822265625 53.810791015625
3.822021484375 -6.019287109375 -15.144287109375
25.2119140625 -0.81396484375 17.771484375
50.56298828125 -3.2891845703125 3.091552734375
52.787841796875 -4.815673828125 -9.0400390625
-18.9228515625 -7.2144775390625 57.343017578125
0.39697265625 -7.370361328125 46.469970703125
54.6083984375 -7.0338134765625 -21.35498046875
25.66015625 -17.8031005859375 87.018310546875
1.840087890625 -5.842041015625 -14.08203125
8.031494140625 -1.8658447265625 11.552978515625
52.533447265625 -6.7442626953125 -20.349365234375
-7.693115234375 -5.51220703125 67.828369140625
-17.418212890625 -7.9708251953125 52.2216796875
47.554931640625 -3.608642578125 -1.20263671875
28.03466796875 -8.5267333984375 -31.32666015625
-17.779052734375 -1.2073974609375 -21.75732421875
54.41796875 -7.7708740234375 -25.83447265625
44.120849609375 -7.0643310546875 -20.780029296875
36.146728515625 -7.550537109375 -24.01025390625
34.295654296875 -7.7740478515625 -26.054931640625
37.739501953125 -4.14892578125 -2.17138671875
32.291259765625 -8.0660400390625 -27.4267578125
4.406005859375 -4.8485107421875 -6.95458984375
-17.818115234375 -3.866943359375 -26.25390625
24.353271484375 -4.3895263671875 -3.83642578125
37.948974609375 -6.46826171875 -15.33642578125
2.2001953125 -5.669677734375 37.4208984375
15.042724609375 -3.618408203125 41.4013671875
-16.493408203125 -5.1878662109375 68.927734375
43.3291015625 -6.126220703125 -15.64306640625
3.184814453125 -6.3843994140625 40.613525390625
-16.602783203125 5.829833984375 -32.9814453125
31.07275390625 -7.1727294921875 -22.641357421875
36.991943359375 -6.2659912109375 -17.9794921875
-21.75244140625 -5.693603515625 66.439697265625
34.454345703125 -3.1134033203125 3.4658203125
0.170166015625 -4.3834228515625 27.051513671875
30.455322265625 -3.7879638671875 0.86865234375
42.679931640625 -2.1529541015625 8.894287109375
32.494140625 -7.167236328125 -21.98583984375
1.706298828125 -4.46630859375 29.198974609375
51.58056640625 -5.2994384765625 -15.53564453125
31.494140625 0.712646484375 27.351318359375
-4.563720703125 -8.2381591796875 45.504150390625
-7.7119140625 -3.3134765625 1.09326171875
-18.321533203125 10.8494873046875 -22.37646484375
48.717041015625 -2.8699951171875 -13.69677734375
48.323974609375 -5.0404052734375 -10.81103515625
27.942138671875 -3.660888671875 1.54052734375
12.657958984375 -1.155517578125 15.9384765625
48.708740234375 -4.0130615234375 -3.436767578125
-8.148193359375 -3.518310546875 -0.21142578125
-18.00634765625 -0.5264892578125 -20.56884765625
-18.745361328125 9.0166015625 -33.158203125
39.42822265625 -5.78564453125 -12.44189453125
-22.588134765625 -6.9178466796875 60.00537109375
-18.0634765625 -2.566162109375 -21.663818359375
41.124755859375 -7.725830078125 -23.806640625
34.082763671875 -2.5328369140625 7.97119140625
-18.12158203125 -0.8106689453125 -16.436279296875
16.618408203125 -0.9366455078125 26.0078125
9.14599609375 -4.158935546875 -3.03857421875
42.164306640625 -5.1685791015625 -8.2431640625
50.791015625 -6.3411865234375 -17.85107421875
9.2470703125 -4.9398193359375 43.38134765625
39.124267578125 -7.02734375 -21.4443359375
19.239501953125 -1.158203125 30.017578125
51.181884765625 -5.0281982421875 -9.49072265625
29.700927734375 -8.0633544921875 -27.13232421875
40.36474609375 -1.33544921875 13.76416015625
19.821044921875 -0.7508544921875 18.244140625
-18.45263671875 3.123779296875 -10.7001953125
27.182373046875 -2.0452880859375 9.6630859375
-14.023193359375 -4.9105224609375 -9.603515625
-19.033447265625 0.7984619140625 -3.828369140625
-17.696044921875 -1.762939453125 -11.983642578125
48.5361328125 -1.9158935546875 8.078125
-17.696044921875 0.9625244140625 -2.239013671875
22.354248046875 -3.3909912109375 0.356689453125
8.814453125 -3.476318359375 33.036865234375
-3.674560546875 -5.8057861328125 32.196533203125
-23.55078125 -5.773193359375 66.49365234375
28.5654296875 -6.350830078125 -16.310302734375
-15.078369140625 -4.4559326171875 -6.373046875
36.3583984375 -3.8883056640625 -1.943603515625
-16.046630859375 8.546630859375 -28.586669921875
-17.963134765625 15.330322265625 -26.06689453125
-17.870849609375 15.56494140625 -30.8125
37.445068359375 -0.774658203125 18.41455078125
20.164306640625 -0.9410400390625 31.13330078125
27.83447265625 -6.9827880859375 -20.60400390625
-9.705322265625 -3.8214111328125 -0.55078125
11.946044921875 -2.328857421875 9.136962890625
-5.326171875 38.1014404296875 -34.905517578125
14.1708984375 -0.672119140625 20.861328125
34.27294921875 -0.6129150390625 20.248779296875
19.533935546875 -1.4310302734375 14.114501953125
-1.6259765625 -7.32861328125 58.0478515625
48.213623046875 -4.329345703125 -4.693603515625
24.777099609375 -6.0189208984375 -16.456787109375
17.1064453125 -2.4339599609375 6.595947265625
10.60107421875 -1.7872314453125 10.723876953125
8.11572265625 -2.4725341796875 8.289794921875
-17.758056640625 -0.1116943359375 -29.94384765625
-10.071044921875 -7.831298828125 54.912841796875
11.300048828125 -1.57861328125 13.51220703125
24.22412109375 -3.206787109375 1.798583984375
9.9228515625 -4.431884765625 -6.323974609375
26.030029296875 -2.99169921875 3.773193359375
-8.495849609375 -7.6923828125 57.2529296875
40.20068359375 -3.0167236328125 5.43603515625
26.00390625 -0.7847900390625 15.95166015625
37.580078125 -2.1690673828125 9.337890625
-17.55029296875 14.8359375 -28.066162109375
-5.892822265625 -6.7659912109375 62.100830078125
4.616943359375 -4.2218017578125 -2.100830078125
-4.57275390625 -3.635009765625 -6.639892578125
30.707763671875 -4.0460205078125 -1.720458984375
2.99169921875 -2.8037109375 19.97802734375
-8.518798828125 -5.270263671875 58.0224609375
9.0537109375 -2.828857421875 27.455078125
1.61328125 -7.211669921875 -22.32470703125
-12.289794921875 -9.3551025390625 44.0439453125
35.02392578125 -3.527099609375 1.4443359375
26.18505859375 -6.01318359375 -15.804931640625
14.661865234375 -6.4569091796875 -17.255859375
20.8564453125 -5.318603515625 -10.763916015625
49.475830078125 -8.215576171875 -29.01220703125
37.558837890625 -1.9114990234375 13.4033203125
-7.775146484375 -7.5367431640625 -26.687744140625
6.090576171875 -3.6143798828125 28.350341796875
39.62158203125 -2.60400390625 7.4501953125
6.36181640625 -4.617431640625 35.52294921875
36.872802734375 -2.9127197265625 4.741943359375
31.4521484375 2.0037841796875 11.309814453125
-16.626953125 -1.4678955078125 -2.837890625
3.942626953125 -2.7210693359375 6.046630859375
6.788818359375 -4.2254638671875 -3.863037109375
-18.472900390625 11.025146484375 -29.778076171875
29.468017578125 -5.3846435546875 -11.80615234375
20.72265625 -2.29931640625 9.123291015625
-17.10302734375 -6.146728515625 -26.8515625
40.1474609375 -0.4305419921875 18.4501953125
37.08740234375 -2.479248046875 8.10888671875
35.404296875 -0.609130859375 19.40234375
29.895751953125 -3.375 2.885986328125
-17.11962890625 15.3250732421875 -40.04541015625
19.989013671875 -2.0782470703125 37.009521484375
-5.161376953125 -1.1912841796875 -9.990966796875
48.563720703125 -5.080810546875 -18.115966796875
-5.62744140625 -7.9127197265625 41.17431640625
47.37548828125 -6.0933837890625 -18.078369140625
22.487548828125 -5.5753173828125 -12.73974609375
21.3935546875 -0.5625 15.038818359375
23.351806640625 -3.8892822265625 -1.735595703125
48.90234375 -7.11376953125 -21.72119140625
47.82958984375 -7.587158203125 -23.2685546875
30.88525390625 -0.3255615234375 21.00927734375
-7.672119140625 -2.12109375 -9.536376953125
-8.2294921875 -3.50732421875 -11.53076171875
-17.03369140625 5.60888671875 -6.58447265625
-2.63916015625 -6.4969482421875 62.495361328125
26.5810546875 -3.4029541015625 1.76318359375
0.230712890625 -4.5411376953125 -6.93798828125
13.987060546875 -5.24267578125 -10.816650390625
13.831787109375 -5.0142822265625 -8.75439453125
1.715087890625 -6.7906494140625 42.77685546875
3.260498046875 -4.8487548828125 -9.305908203125
-17.28515625 12.7276611328125 -22.5361328125
0.8818359375 -6.9083251953125 41.613525390625
26.02197265625 0.2313232421875 32.26025390625
11.921142578125 -5.03466796875 -9.2197265625
-3.08447265625 -3.8519287109375 -8.034912109375
0.5400390625 -7.9892578125 52.656494140625
-3.655029296875 -4.06591796875 -4.438720703125
-18.313720703125 -1.482421875 -13.640869140625
-2.663818359375 -8.320068359375 51.334716796875
-18.485107421875 10.7396240234375 -31.2431640625
38.80859375 -1.54541015625 13.306884765625
3.396484375 -4.60693359375 33.3466796875
-6.74853515625 -2.15625 2.566162109375
42.15576171875 -2.862060546875 6.352294921875
8.25537109375 -4.093017578125 37.62548828125
-16.91845703125 -4.27978515625 -10.236572265625
-17.46435546875 -1.698974609375 -9.39208984375
9.362548828125 -4.375732421875 38.509521484375
-3.6103515625 -6.7894287109375 -21.458740234375
13.04736328125 -1.1968994140625 23.106201171875
50.1962890625 -2.3841552734375 -17.33349609375
6.774169921875 -2.3494873046875 8.07763671875
-16.3857421875 -0.1002197265625 -2.36962890625
6.142578125 -5.245849609375 40.987548828125
2.03369140625 -6.4013671875 -18.11474609375
-8.435302734375 -7.8406982421875 38.4697265625
-15.70751953125 -5.510498046875 -14.55908203125
32.60791015625 -0.5838623046875 15.469482421875
48.49951171875 -3.7255859375 -18.578857421875
-15.780029296875 6.003173828125 -30.566162109375
0.312744140625 -2.118408203125 7.2373046875
7.026611328125 -5.3680419921875 -10.663818359375
-8.630859375 39.314208984375 -35.949951171875
-16.63427734375 -3.213134765625 -3.082763671875
-7.798095703125 -8.0040283203125 39.8818359375
-18.589111328125 7.0765380859375 -20.946044921875
4.190673828125 -6.5631103515625 45.861572265625
-17.51806640625 5.5701904296875 -20.651611328125
-5.61669921875 -6.72314453125 35.8935546875
15.68701171875 -4.962158203125 -7.748046875
-16.106201171875 -4.2574462890625 -8.895263671875
46.886474609375 -2.8199462890625 -14.837158203125
8.656494140625 -3.3873291015625 34.52587890625
-13.655517578125 -6.8319091796875 -22.453125
24.2255859375 -3.7657470703125 -0.47705078125
17.993896484375 -4.0074462890625 -2.68603515625
-12.838623046875 -4.9652099609375 72.471435546875
32.72021484375 -2.9656982421875 5.488037109375
0.970947265625 38.362548828125 -35.3681640625
41.33935546875 -1.6678466796875 12.660888671875
32.7314453125 1.2056884765625 27.69580078125
5.134765625 -6.7486572265625 48.1689453125
43.93115234375 -8.38134765625 -27.62109375
56.150634765625 -9.1065673828125 -23.070556640625
40.473876953125 -1.7904052734375 11.408447265625
42.50048828125 -5.737060546875 -12.339111328125
-18.740478515625 13.1444091796875 -30.2705078125
-11.822998046875 -8.8624267578125 42.5947265625
-14.456787109375 -5.1900634765625 70.259521484375
31.07470703125 0.625244140625 29.578857421875
-4.88134765625 -8.5030517578125 50.13232421875
24.770263671875 -18.213623046875 87.9248046875
44.640625 -4.6966552734375 -6.066162109375
3.518798828125 -1.8837890625 16.5673828125
-1.1455078125 -6.6864013671875 40.546142578125
-8.611328125 -8.38037109375 51.54248046875
13.245361328125 -2.5782470703125 5.74853515625
-18.699951171875 -5.6083984375 66.987548828125
