32.248779296875 7.1365966796875 -21.49365234375
-4.544677734375 7.565673828125 57.744873046875
-29.07568359375 5.8572998046875 65.39892578125
-3.537109375 12.635498046875 25.64208984375
35.96875 12.011474609375 14.29541015625
1.976806640625 10.8037109375 43.379150390625
23.47021484375 10.22802734375 -0.66455078125
47.43896484375 10.645751953125 -11.01611328125
-15.72802734375 6.1761474609375 -17.270263671875
14.438232421875 13.8818359375 39.171630859375
35.749755859375 6.919189453125 -22.843017578125
20.279541015625 5.362548828125 -24.817138671875
-2.436279296875 9.4840087890625 43.682373046875
35.00634765625 6.06982421875 -17.15576171875
4.580078125 11.216552734375 43.705078125
39.679931640625 7.3818359375 -19.88037109375
36.503662109375 4.684326171875 -31.6796875
41.489501953125 8.819580078125 -13.55908203125
38.255126953125 4.982177734375 -29.98876953125
46.755126953125 8.0880126953125 -17.944580078125
3.470703125 5.701904296875 -30.969970703125
-13.419189453125 8.6285400390625 70.31591796875
38.846435546875 8.06201171875 -17.358154296875
21.944580078125 5.0687255859375 -23.399658203125
-1.693359375 6.3616943359375 -29.73095703125
5.65185546875 7.971923828125 -15.451416015625
-12.129150390625 6.79052734375 -25.163818359375
-18.9892578125 7.8748779296875 -22.6767578125
26.42138671875 8.4339599609375 -7.822509765625
3.445556640625 7.0853271484375 -19.65185546875
2.662841796875 8.69140625 -13.36767578125
26.453125 9.0531005859375 -5.3076171875
-18.60595703125 6.9169921875 -26.447509765625
16.4462890625 7.7611083984375 -13.311767578125
29.07421875 9.60107421875 -2.363037109375
-0.48388671875 6.3150634765625 -23.859130859375
-26.02978515625 6.3883056640625 -22.10302734375
-6.106201171875 12.4598388671875 23.517822265625
-36.666015625 -4.2459716796875 21.737060546875
-12.326904296875 7.9356689453125 41.5048828125
-15.537109375 8.0384521484375 -19.629638671875
46.742919921875 11.5413818359375 1.79248046875
-4.636474609375 8.9698486328125 45.0947265625
39.554443359375 7.8939208984375 -12.81005859375
14.013916015625 15.5108642578125 28.76025390625
-9.16943359375 7.5211181640625 -12.8427734375
-11.202880859375 10.5107421875 1.529541015625
30.165283203125 11.533447265625 17.1396484375
19.521484375 13.798583984375 23.35693359375
13.13525390625 15.15771484375 27.087158203125
-21.522705078125 10.6917724609375 -0.599365234375
-19.45166015625 9.1083984375 -6.433837890625
-24.232421875 8.1937255859375 -11.461669921875
-22.971923828125 7.5931396484375 -13.54345703125
-5.5380859375 11.8812255859375 8.6474609375
15.572265625 12.312255859375 16.245849609375
-21.177734375 9.0186767578125 -7.275634765625
-21.55419921875 10.0751953125 -3.103515625
1.847412109375 13.2386474609375 16.18994140625
-20.817138671875 7.65380859375 -12.699951171875
-2.301025390625 7.8475341796875 -6.78173828125
7.318359375 10.80712890625 7.864990234375
-23.745849609375 9.2950439453125 -6.86865234375
4.02880859375 13.813232421875 19.120361328125
-23.71435546875 9.91162109375 -4.364501953125
5.566162109375 10.2037353515625 4.936279296875
-26.118408203125 5.4803466796875 54.0517578125
4.639892578125 3.6353759765625 -37.576904296875
6.99365234375 14.12646484375 24.74609375
46.27392578125 10.388916015625 -3.721435546875
10.501708984375 5.5035400390625 -35.573486328125
-32.69140625 7.9359130859375 65.503662109375
-26.0185546875 8.8251953125 79.58349609375
11.01953125 13.6622314453125 36.63525390625
15.715576171875 13.6453857421875 18.136474609375
4.206787109375 13.3438720703125 30.65673828125
19.598388671875 10.2406005859375 -2.4013671875
2.8427734375 12.9227294921875 32.074462890625
6.226318359375 12.91943359375 35.094970703125
-17.247314453125 5.7347412109375 48.83056640625
-23.07275390625 -9.2938232421875 45.516357421875
-30.220947265625 3.25830078125 -0.227783203125
-20.570556640625 12.4833984375 6.917236328125
-3.298828125 11.660400390625 31.539794921875
27.10888671875 7.71044921875 -22.0361328125
19.192138671875 6.0 -30.434326171875
-19.99609375 6.54052734375 -19.1044921875
-5.821044921875 11.6654052734375 28.07421875
13.4267578125 5.2978515625 -30.562255859375
0.251220703125 3.7802734375 -33.91552734375
-25.6279296875 5.2989501953125 40.028076171875
7.616455078125 11.703125 44.4453125
-12.2958984375 5.4801025390625 55.20947265625
-25.94580078125 7.1484375 46.07568359375
5.1962890625 4.83203125 -36.165771484375
-8.609130859375 10.1087646484375 32.802490234375
18.260498046875 5.0665283203125 -33.751220703125
-26.359130859375 7.4403076171875 -26.47900390625
-2.91015625 9.276611328125 45.448486328125
37.427001953125 5.7659912109375 -27.04541015625
31.323486328125 5.2420654296875 -30.858642578125
43.873291015625 4.4989013671875 -30.386962890625
28.81787109375 7.1790771484375 -23.712890625
33.02197265625 4.50341796875 -33.37744140625
34.4150390625 6.28125 -25.794921875
20.920654296875 5.5281982421875 -32.584716796875
43.082275390625 6.00830078125 -24.496826171875
39.189208984375 6.27099609375 -24.5126953125
43.145751953125 7.251953125 -19.4453125
23.54248046875 5.8712158203125 -30.46923828125
13.96240234375 5.2698974609375 -35.5595703125
29.5615234375 4.7369384765625 -33.3916015625
-23.23583984375 4.356689453125 48.298095703125
-25.72265625 5.9189453125 63.26220703125
-23.123779296875 6.92236328125 61.38671875
-9.864990234375 8.812255859375 -16.3525390625
-32.087646484375 14.456787109375 11.0029296875
-7.8271484375 6.396484375 -25.5654296875
39.795166015625 7.9454345703125 -6.091796875
-12.523193359375 7.5418701171875 -22.2314453125
-16.919921875 6.078369140625 -29.374755859375
30.40869140625 10.33935546875 0.99560546875
42.017333984375 9.1416015625 -0.6337890625
10.00634765625 8.6099853515625 -11.661376953125
16.766357421875 5.56494140625 -22.112548828125
25.208251953125 10.069091796875 -1.540283203125
-21.227294921875 6.3690185546875 -29.39208984375
0.718017578125 3.5731201171875 -37.484130859375
42.831298828125 8.1546630859375 -4.40283203125
38.230224609375 11.1575927734375 6.476318359375
6.0615234375 7.5301513671875 -17.126220703125
7.62646484375 4.31787109375 -29.6943359375
-11.630126953125 8.1029052734375 -19.712890625
26.32666015625 6.576416015625 -15.367431640625
-7.911865234375 6.86279296875 51.944580078125
16.95068359375 9.1767578125 -7.44189453125
-3.026123046875 7.3150634765625 -20.516357421875
-9.021240234375 7.845703125 47.497802734375
19.802490234375 5.774169921875 -20.423583984375
-12.4970703125 11.9432373046875 14.03173828125
-35.98193359375 -6.700927734375 21.891845703125
-10.6943359375 7.77392578125 45.38525390625
-25.816162109375 3.52880859375 48.905029296875
-12.128173828125 6.5435791015625 49.483642578125
-24.35791015625 13.9967041015625 10.575439453125
-12.6728515625 6.70849609375 -15.68505859375
4.812255859375 8.9417724609375 -10.330810546875
-7.24853515625 12.0997314453125 9.05810546875
-20.194091796875 11.4268798828125 2.7451171875
18.025146484375 9.775146484375 6.65625
24.5791015625 11.704345703125 16.2822265625
18.54833984375 11.5958251953125 14.1708984375
23.17724609375 9.530517578125 7.094482421875
-2.514892578125 12.089599609375 10.329345703125
-22.3544921875 11.263427734375 1.484130859375
10.859619140625 12.7335205078125 16.64404296875
6.973388671875 12.480224609375 14.54150390625
-14.2158203125 10.5078125 0.682373046875
-3.51953125 9.270263671875 -1.36083984375
22.9580078125 13.6697998046875 23.788330078125
12.58056640625 12.720458984375 17.068359375
9.93896484375 11.558349609375 11.6318359375
-3.86962890625 10.840576171875 4.898193359375
18.7109375 14.7813720703125 27.10986328125
0.7119140625 7.8504638671875 -5.934814453125
27.544677734375 10.7823486328125 13.372802734375
15.661376953125 14.0592041015625 23.34130859375
13.061767578125 13.7191162109375 21.243896484375
19.7353515625 9.556640625 6.245849609375
3.913330078125 11.5526123046875 9.93798828125
-6.458984375 10.7060546875 3.635498046875
-10.795166015625 10.0706787109375 -0.138427734375
-29.43701171875 -4.2467041015625 -7.788330078125
-12.68359375 6.7955322265625 -13.9189453125
-8.625 11.9488525390625 14.423583984375
10.72607421875 4.408935546875 -32.041748046875
-15.227294921875 6.0889892578125 60.203125
-5.197998046875 8.2359619140625 -13.11279296875
14.55419921875 13.8575439453125 33.50048828125
11.064453125 12.6556396484375 27.66796875
6.412841796875 11.8853759765625 41.39111328125
-8.974609375 7.936279296875 44.4794921875
-20.257080078125 5.0303955078125 49.842529296875
15.031982421875 8.984130859375 -0.21044921875
-16.085693359375 7.4320068359375 74.712158203125
13.045166015625 13.39990234375 41.023193359375
8.732177734375 12.8111572265625 38.14111328125
-19.024169921875 7.0736083984375 73.109130859375
45.73583984375 6.055908203125 -25.009765625
-20.87646484375 14.504638671875 12.177978515625
-21.511962890625 5.854736328125 58.179443359375
-16.02880859375 6.8858642578125 63.873046875
-6.7431640625 6.6585693359375 57.497802734375
-30.20703125 7.2584228515625 60.114990234375
26.6875 9.43603515625 4.8505859375
-33.02685546875 -0.98193359375 -6.4775390625
1.629638671875 12.08056640625 21.319091796875
-19.673583984375 8.4840087890625 65.32275390625
17.00048828125 14.9998779296875 27.520263671875
-3.6865234375 9.4853515625 41.97021484375
9.3212890625 7.887939453125 -3.395751953125
-6.48388671875 12.19580078125 17.425537109375
-22.907958984375 7.3109130859375 -26.0458984375
-23.622314453125 11.990234375 6.197509765625
43.18798828125 8.0810546875 -16.07763671875
27.857666015625 5.3719482421875 -31.293701171875
41.267333984375 4.466796875 -31.2392578125
-26.5126953125 6.0921630859375 57.75390625
-5.622314453125 8.03759765625 47.858642578125
-21.436767578125 8.7322998046875 79.154052734375
46.846435546875 7.5584716796875 -23.677001953125
-6.777587890625 12.8929443359375 12.39892578125
-19.950927734375 5.9722900390625 -30.644287109375
-5.800048828125 3.7744140625 -35.61669921875
-28.549560546875 6.86328125 -29.421875
0.03125 7.9371337890625 -17.150634765625
15.201416015625 8.777099609375 -9.544677734375
38.109130859375 8.7840576171875 -3.16455078125
-22.9501953125 6.4853515625 -29.399169921875
-23.48095703125 4.5537109375 -37.364990234375
-13.57421875 3.885009765625 -37.32470703125
-12.596923828125 6.09716796875 -28.099609375
-15.128662109375 7.3035888671875 -23.91845703125
-11.851318359375 3.7686767578125 -37.31787109375
-16.5576171875 4.707763671875 -34.822021484375
7.773681640625 7.2073974609375 -17.95751953125
4.238525390625 5.6856689453125 -25.097412109375
39.816162109375 8.358154296875 -4.4150390625
32.635986328125 11.6387939453125 6.87255859375
2.116455078125 6.4501953125 -22.591064453125
30.224365234375 6.7275390625 -13.675048828125
22.91259765625 7.42822265625 -12.866455078125
2.514404296875 5.5516357421875 -26.83251953125
21.72265625 10.1807861328125 -0.627197265625
-4.991455078125 6.85009765625 54.051025390625
-25.6337890625 7.976806640625 74.269775390625
-18.41357421875 8.92431640625 69.460205078125
-22.39013671875 4.828125 52.44580078125
-10.224365234375 5.709228515625 59.385498046875
-14.409912109375 5.59130859375 57.7470703125
-33.513916015625 7.9822998046875 62.128173828125
-26.55517578125 5.1092529296875 52.428955078125
13.328125 10.504638671875 8.306640625
8.552490234375 9.6927490234375 3.6962890625
16.806640625 11.1978759765625 12.0771484375
20.13818359375 9.0137939453125 4.16064453125
21.98486328125 11.467041015625 14.602294921875
21.592529296875 12.2152099609375 17.522216796875
-3.827880859375 11.66259765625 8.237060546875
-10.073486328125 7.341064453125 -10.98681640625
-18.672607421875 7.509033203125 -12.691162109375
27.607666015625 12.0155029296875 18.38134765625
34.014892578125 11.0673828125 16.320556640625
18.501220703125 10.6710205078125 10.41455078125
-4.340576171875 10.0474853515625 1.557373046875
-6.579345703125 8.3426513671875 -5.96435546875
36.701416015625 5.790771484375 -17.099853515625
-37.255126953125 -7.219482421875 20.75439453125
19.724609375 14.084228515625 35.149169921875
-20.212646484375 8.250732421875 77.54443359375
-28.529052734375 8.4132080078125 75.896240234375
9.340576171875 12.4639892578125 26.4140625
-5.279541015625 11.5 18.45849609375
-8.61474609375 8.588134765625 -14.0595703125
44.94482421875 8.482421875 -13.9658203125
-15.10595703125 11.1519775390625 9.40087890625
-22.499267578125 9.9307861328125 66.373779296875
-13.255859375 7.281982421875 43.36279296875
35.734619140625 9.854248046875 -5.216796875
-7.314453125 8.092529296875 48.291015625
-33.632080078125 -3.953369140625 -9.12255859375
28.529541015625 6.2996826171875 -18.02099609375
-16.528564453125 13.2374267578125 -3.147705078125
-17.939208984375 9.203857421875 66.037841796875
0.42529296875 9.123046875 -33.8388671875
46.306640625 5.9696044921875 -29.533935546875
36.57568359375 12.615478515625 11.91845703125
-28.3359375 12.848388671875 14.0078125
30.8056640625 11.905517578125 11.72314453125
-26.2255859375 12.00537109375 9.77197265625
-30.881103515625 13.431396484375 15.662109375
-29.994873046875 0.2010498046875 -2.904052734375
-28.3388671875 12.662353515625 11.845458984375
-34.74365234375 -0.12939453125 21.587158203125
-30.543701171875 12.1822509765625 17.720947265625
-13.921875 7.2440185546875 65.9072265625
1.949462890625 7.8057861328125 -29.346435546875
-23.978515625 6.98974609375 64.755615234375
-21.62841796875 10.57470703125 69.221923828125
-21.474365234375 6.69482421875 62.25732421875
-27.2998046875 8.0311279296875 74.690185546875
-27.3759765625 6.5404052734375 68.635009765625
-6.33154296875 8.8817138671875 44.26806640625
45.578369140625 8.89990234375 -4.199951171875
4.78662109375 12.1986083984375 38.740478515625
-27.405029296875 5.90185546875 65.3798828125
-26.001220703125 6.6256103515625 -23.976318359375
6.84814453125 8.52294921875 -5.7666015625
-30.03076171875 -6.8848876953125 -10.509033203125
12.955322265625 13.599609375 25.678466796875
-29.69482421875 11.2716064453125 5.13525390625
-19.221923828125 6.4407958984375 41.0166015625
-15.82666015625 11.6220703125 -0.93115234375
-32.30908203125 -2.9656982421875 -6.798828125
22.241455078125 6.5648193359375 -26.582763671875
-9.784912109375 5.6534423828125 57.2763671875
-14.747314453125 7.416015625 -17.65673828125
-14.906494140625 11.9287109375 -3.708251953125
-27.94873046875 11.9578857421875 9.806396484375
-26.109375 5.267333984375 49.848876953125
-8.4306640625 11.2498779296875 27.759033203125
44.6279296875 9.483154296875 1.472412109375
3.40087890625 5.5086669921875 -28.1904296875
35.68798828125 12.1575927734375 9.819091796875
-28.451171875 11.448974609375 17.43212890625
36.646484375 7.4825439453125 -20.313720703125
26.33203125 5.97265625 -19.23876953125
5.947265625 8.50439453125 -3.96240234375
-32.2021484375 -7.970703125 -11.464111328125
-13.81787109375 6.355712890625 48.2548828125
16.1923828125 14.54248046875 21.899658203125
-22.597900390625 8.94775390625 69.062744140625
-30.501708984375 12.12646484375 6.25439453125
-25.6337890625 7.3433837890625 66.393310546875
46.77587890625 9.877197265625 -8.533203125
45.324462890625 7.4168701171875 -18.173828125
-3.98876953125 10.1480712890625 38.382568359375
-5.07177734375 12.9635009765625 14.572998046875
-17.022216796875 12.7960205078125 -0.7841796875
-22.019287109375 16.2598876953125 10.42333984375
-16.34423828125 10.191650390625 -5.442626953125
-15.1162109375 8.0006103515625 66.635498046875
18.1064453125 14.7513427734375 34.58740234375
18.66943359375 5.835205078125 -27.65185546875
5.80419921875 11.1964111328125 46.71875
-13.42138671875 7.61083984375 -18.635498046875
-26.459228515625 11.4698486328125 44.3740234375
23.79638671875 5.764892578125 -23.6455078125
-16.659423828125 7.0325927734375 43.44482421875
1.18603515625 10.8544921875 39.91796875
0.601318359375 12.1939697265625 32.69140625
40.6708984375 7.74072265625 -7.391845703125
-1.996337890625 11.6944580078125 30.646240234375
-18.925537109375 7.19775390625 62.998046875
-15.079345703125 11.80908203125 12.7724609375
-27.470703125 9.3695068359375 46.512451171875
-1.865966796875 10.351318359375 40.482666015625
9.843505859375 12.1229248046875 42.61083984375
-29.396728515625 9.3114013671875 4.31591796875
-3.3671875 9.0985107421875 -13.392333984375
-22.501953125 7.29296875 -22.439453125
-7.320556640625 12.2723388671875 16.09423828125
6.52392578125 5.1143798828125 -35.37353515625
20.09765625 6.415771484375 -29.220458984375
33.572265625 10.437255859375 12.939208984375
3.71875 7.501708984375 -7.220703125
-26.41259765625 11.703125 39.1484375
18.9775390625 5.59716796875 -23.512939453125
14.365234375 14.537109375 26.331787109375
38.9921875 12.7008056640625 -10.1162109375
15.59375 9.4786376953125 -3.030029296875
-9.083251953125 7.4541015625 49.28369140625
44.974365234375 7.802978515625 -5.232421875
29.625 5.9805908203125 -28.340087890625
41.8056640625 6.5103759765625 -22.818359375
34.86865234375 6.6666259765625 -24.109375
40.52392578125 6.908935546875 -21.560791015625
38.228759765625 4.4639892578125 -32.093505859375
26.528076171875 4.8377685546875 -33.82470703125
37.880859375 6.1513671875 -25.35986328125
28.311279296875 5.75732421875 -29.608154296875
31.386962890625 6.4857177734375 -25.80712890625
43.96337890625 6.2607421875 -23.23046875
40.133544921875 7.7672119140625 -18.19482421875
42.2646484375 6.9993896484375 -20.7119140625
26.11669921875 5.281494140625 -32.142578125
39.1416015625 5.3382568359375 -28.30126953125
32.6318359375 5.3616943359375 -30.011474609375
41.90087890625 8.3758544921875 -15.2412109375
32.1728515625 4.8726806640625 -32.1181640625
23.732421875 9.613525390625 2.618896484375
-31.301513671875 -7.1470947265625 -12.59765625
35.432373046875 6.747802734375 -12.863525390625
33.69189453125 10.302978515625 -7.557861328125
2.94189453125 12.3616943359375 22.117919921875
-6.139404296875 7.599609375 51.36572265625
-14.79248046875 8.314453125 37.575439453125
-23.046875 14.46533203125 13.54443359375
-24.27392578125 6.759033203125 -22.24609375
-23.8916015625 14.8729248046875 15.668212890625
-30.385009765625 14.30126953125 13.676513671875
16.816650390625 6.2435302734375 -20.06640625
32.924560546875 8.8233642578125 -4.443115234375
18.1533203125 7.335205078125 -14.562255859375
31.14892578125 7.90771484375 -8.6416015625
0.0732421875 8.7626953125 -13.79736328125
31.548095703125 7.259521484375 -11.15478515625
28.517333984375 7.1534423828125 -12.424560546875
43.724365234375 8.7156982421875 -1.88427734375
22.986083984375 8.8729248046875 -6.998291015625
-23.4072265625 5.9984130859375 -31.49658203125
0.094482421875 9.175537109375 -12.120849609375
21.98779296875 6.2479248046875 -17.89990234375
41.139892578125 8.89013671875 -1.894775390625
9.4599609375 6.3687744140625 -20.884765625
-2.12255859375 8.08251953125 -17.159423828125
-16.10595703125 5.0914306640625 -33.1435546875
-20.880615234375 4.6888427734375 -36.096923828125
-25.5556640625 6.2470703125 -31.086181640625
-9.9072265625 7.9866943359375 -19.705810546875
-8.70458984375 6.1451416015625 -26.826416015625
13.94091796875 9.4835205078125 -7.034912109375
2.63671875 8.1754150390625 -15.463623046875
-7.895751953125 5.0550537109375 -31.0146484375
-14.383056640625 4.97509765625 -33.13671875
-14.251220703125 7.5550537109375 -22.657470703125
-11.719482421875 6.3486328125 -26.838623046875
3.55078125 9.1492919921875 -11.2685546875
39.023193359375 9.7579345703125 1.030517578125
32.998291015625 10.2681884765625 1.42529296875
23.474853515625 9.97900390625 -2.3857421875
-19.1630859375 4.4693603515625 -36.50927734375
16.419921875 7.2451171875 -15.40771484375
6.15625 9.3875732421875 -9.581298828125
-3.189208984375 4.115966796875 -33.51025390625
41.118896484375 8.4774169921875 -3.571533203125
38.513427734375 8.239013671875 -5.258544921875
34.348388671875 11.3160400390625 6.041259765625
19.55078125 9.3118896484375 -6.173828125
-8.82568359375 3.7716064453125 -36.46728515625
7.652587890625 4.8338623046875 -27.598388671875
17.6962890625 6.8482666015625 -16.659912109375
12.36962890625 4.101318359375 -29.255859375
-26.0126953125 5.7601318359375 -33.183837890625
-9.52392578125 7.02880859375 -23.4765625
12.480224609375 6.2684326171875 -20.453369140625
-2.296142578125 4.677001953125 -30.991943359375
33.307861328125 7.8656005859375 -8.2138671875
20.874755859375 9.8438720703125 -3.653564453125
30.755126953125 8.6591796875 -5.709228515625
-3.65673828125 3.4227294921875 -36.4462890625
-13.505615234375 5.2265625 -31.875732421875
-2.19091796875 6.740966796875 -22.608642578125
-16.005859375 7.0521240234375 -25.179443359375
-17.728759765625 7.16845703125 -25.1865234375
-15.197021484375 5.9620361328125 -29.36767578125
-3.5146484375 6.208984375 -25.12890625
-19.45166015625 7.2847900390625 -25.193603515625
-11.78271484375 5.1102294921875 -31.86865234375
-13.47412109375 5.845703125 -29.360595703125
-22.603759765625 4.80517578125 -36.10400390625
21.14208984375 6.61572265625 -16.64599609375
32.9560546875 9.4425048828125 -1.927978515625
-11.751220703125 5.7294921875 -29.353759765625
-14.282958984375 6.935791015625 -25.172607421875
-4.418212890625 5.4415283203125 -28.485595703125
-14.351318359375 5.59423828125 -30.62158203125
-5.63134765625 7.0767822265625 -22.203369140625
15.0751953125 6.3004150390625 -19.6044921875
36.4599609375 10.3450927734375 2.69677734375
6.10888671875 8.4588623046875 -13.353759765625
43.7822265625 9.850830078125 2.726318359375
34.30615234375 10.490478515625 2.68798828125
-11.677490234375 7.1741943359375 -23.4853515625
-16.07421875 5.7105712890625 -30.628662109375
-10.905517578125 5.3616943359375 -30.607666015625
-10.0283203125 5.6131591796875 -29.3466796875
-12.69677734375 4.136474609375 -36.063720703125
11.729248046875 8.49365234375 -11.654541015625
-14.419677734375 4.2528076171875 -36.07080078125
-13.4423828125 6.4649658203125 -26.845703125
14.234619140625 6.771240234375 -17.931396484375
13.919921875 9.0706787109375 -8.711669921875
45.95166015625 10.01513671875 3.99267578125
5.52001953125 5.39208984375 -25.930419921875
28.49609375 6.7406005859375 -14.101318359375
15.48486328125 5.8585205078125 -21.279541015625
-16.951416015625 5.4591064453125 -31.8896484375
0.855712890625 7.1566162109375 -20.081298828125
8.530029296875 5.0853271484375 -26.33740234375
6.135009765625 8.974853515625 -11.258056640625
19.886962890625 7.42529296875 -13.717041015625
16.691162109375 8.9371337890625 2.894775390625
-15.890380859375 8.830078125 67.7724609375
8.882568359375 7.462646484375 -5.947265625
2.700439453125 12.1754150390625 35.287841796875
-26.23095703125 12.1312255859375 12.392578125
12.332763671875 13.6973876953125 35.741943359375
-34.047607421875 -2.362060546875 22.111328125
-28.761962890625 -0.40185546875 -3.6318359375
5.105224609375 9.3677978515625 0.716796875
-25.0087890625 10.773193359375 6.53076171875
-10.952392578125 6.988037109375 -12.659912109375
6.36083984375 8.6641845703125 -1.782958984375
25.05517578125 12.6002197265625 20.04052734375
-21.2041015625 8.5048828125 -9.362548828125
-5.26123046875 8.872314453125 -3.454833984375
-15.65966796875 7.511962890625 -11.84423828125
-9.4140625 11.83349609375 7.3798828125
16.320068359375 10.096435546875 7.484130859375
-7.792724609375 9.8680419921875 -0.126220703125
17.146240234375 9.4219970703125 4.9833984375
14.15966796875 9.9329833984375 6.223388671875
6.926025390625 11.555419921875 10.784912109375
17.19873046875 10.4495849609375 9.1572265625
27.686279296875 13.5567626953125 24.64208984375
30.67822265625 13.148681640625 23.819580078125
23.224365234375 10.455322265625 10.85107421875
-13.93359375 7.6016845703125 -11.00244140625
3.14990234375 13.4600830078125 17.447509765625
21.718505859375 14.681396484375 27.53955078125
10.723388671875 10.061767578125 5.7919921875
-18.8916015625 11.6483154296875 4.00244140625
-9.01123046875 11.290771484375 5.294677734375
12.93603515625 11.2529296875 11.226806640625
31.00732421875 11.1673583984375 15.890869140625
-25.36181640625 11.36328125 1.0546875
-3.1796875 7.4945068359375 -8.454833984375
7.292236328125 10.29345703125 5.778076171875
22.48193359375 12.77392578125 20.030029296875
17.38232421875 14.046142578125 23.765625
22.8583984375 11.7174072265625 15.85791015625
14.5625 9.3902587890625 4.13818359375
8.228515625 11.77685546875 12.042236328125
24.93994140625 10.3394775390625 10.85791015625
-8.51953125 12.494873046875 10.304931640625
-24.5302734375 10.7916259765625 -1.02880859375
1.193115234375 8.84912109375 -1.75927734375
-9.979248046875 9.1907958984375 -3.473876953125
-19.546142578125 7.2586669921875 -13.94677734375
-15.696533203125 6.7926025390625 -14.765869140625
10.346923828125 11.1182861328125 9.964111328125
-11.69482421875 9.3065185546875 -3.48095703125
-14.760009765625 8.276123046875 -8.501708984375
22.345458984375 10.1021728515625 9.177978515625
-2.196044921875 9.9027099609375 1.56591796875
-1.79345703125 9.3599853515625 -0.519287109375
-6.5166015625 9.57568359375 -0.955810546875
-24.619384765625 9.044677734375 -8.124267578125
5.539794921875 9.68994140625 2.849365234375
8.479248046875 8.254150390625 -2.14697265625
14.248779296875 11.6798095703125 13.31884765625
-18.923095703125 11.0318603515625 1.498046875
11.48681640625 8.154296875 -1.717529296875
-0.427978515625 10.814453125 5.746826171875
12.130615234375 12.33837890625 15.39697265625
13.4697265625 13.279052734375 19.576171875
30.22314453125 12.663818359375 21.73095703125
35.719970703125 10.74609375 15.49267578125
8.024169921875 7.769287109375 -4.235595703125
26.357666015625 12.8216552734375 21.2978515625
3.515869140625 12.1981201171875 12.440673828125
-14.59228515625 11.5643310546875 4.8544921875
-19.802001953125 10.6787109375 -0.1748046875
-21.69580078125 7.3006591796875 -14.372802734375
-18.941650390625 5.632568359375 49.291015625
-30.867431640625 6.382080078125 1.13818359375
-25.631103515625 5.79833984375 46.76318359375
46.16796875 10.602783203125 0.7060546875
4.6982421875 12.9215087890625 24.1669921875
-11.22412109375 11.651611328125 13.204345703125
-25.624267578125 8.39990234375 77.971435546875
-29.268310546875 4.8253173828125 1.534912109375
2.100830078125 13.3634033203125 28.047119140625
7.24169921875 13.324462890625 29.314697265625
2.05908203125 12.5447998046875 24.72216796875
-3.102294921875 12.174560546875 21.7919921875
3.77783203125 12.6341552734375 25.560302734375
15.877197265625 14.5897216796875 36.83056640625
-9.248779296875 8.8701171875 39.9931640625
-24.338623046875 0.89404296875 47.28466796875
0.99755859375 9.98095703125 45.27490234375
-20.203369140625 12.2779541015625 66.402587890625
-3.931640625 8.12548828125 48.682861328125
9.96923828125 12.747802734375 40.3154296875
-18.719970703125 12.8052978515625 -4.789306640625
-10.499267578125 6.4849853515625 53.738037109375
-26.345947265625 7.620361328125 48.55029296875
-11.527099609375 12.5948486328125 9.87548828125
2.9736328125 11.44482421875 39.3466796875
0.325927734375 13.03125 29.016357421875
-12.45947265625 9.94287109375 32.444580078125
-8.406982421875 6.72900390625 56.650146484375
-5.171630859375 8.7510986328125 -11.020263671875
-12.184814453125 8.244873046875 69.10498046875
-1.9326171875 8.0035400390625 55.519775390625
-29.498046875 5.5595703125 62.087890625
-12.6640625 8.432861328125 37.960693359375
-0.66552734375 9.9691162109375 42.70703125
2.798583984375 10.7288818359375 44.680908203125
-26.394775390625 9.22900390625 3.411376953125
0.946533203125 9.845458984375 47.45263671875
3.496826171875 10.0787353515625 49.10400390625
18.058349609375 9.1927490234375 1.47314453125
-0.933349609375 8.64794921875 50.27001953125
-3.3076171875 6.9376220703125 54.8720703125
-18.1298828125 8.16845703125 77.12646484375
-17.0615234375 7.0340576171875 41.303955078125
-3.096923828125 8.354248046875 51.198974609375
-12.427001953125 7.453125 46.320556640625
-5.654052734375 7.9630126953125 49.58447265625
-31.94873046875 6.6075439453125 66.9765625
-30.005126953125 13.431640625 11.675048828125
19.652099609375 16.91845703125 18.200439453125
1.5341796875 12.6422119140625 31.275146484375
-18.01611328125 6.1519775390625 44.91650390625
-9.16650390625 6.8048095703125 50.6875
-36.33447265625 1.3348388671875 21.6884765625
-3.30517578125 7.1802978515625 56.52880859375
-0.7939453125 12.0765380859375 10.753662109375
-18.83544921875 11.8250732421875 -0.943359375
-16.405517578125 5.921142578125 50.49072265625
-8.398193359375 6.401611328125 53.310791015625
-29.19580078125 5.930908203125 2.559326171875
19.005859375 9.9326171875 2.599853515625
8.642822265625 8.6033935546875 -8.5
-16.486572265625 5.2193603515625 52.32275390625
-28.997314453125 6.3333740234375 56.038330078125
19.555419921875 16.60693359375 20.495849609375
-18.11279296875 6.742431640625 61.3798828125
-11.860107421875 6.4205322265625 61.810546875
-6.465576171875 5.6558837890625 60.211181640625
-21.03857421875 6.7396240234375 60.557373046875
-18.605712890625 5.273681640625 55.29833984375
-19.474365234375 4.63134765625 52.45751953125
-20.7138671875 4.915283203125 53.26318359375
-15.1513671875 7.4437255859375 65.039794921875
-13.124755859375 6.2054443359375 60.589599609375
-22.349365234375 5.62646484375 55.6884765625
-11.372314453125 7.7894287109375 67.487060546875
-23.146728515625 6.3812255859375 58.5224609375
-18.58544921875 5.6728515625 56.919677734375
-9.751953125 6.77880859375 63.845703125
-24.833251953125 6.0946044921875 56.894287109375
-25.66162109375 7.113037109375 68.112548828125
-6.682373046875 9.4066162109375 42.876220703125
-23.13671875 8.0491943359375 75.91796875
-23.950927734375 8.4034423828125 77.125732421875
-21.922607421875 7.3690185546875 73.5009765625
-25.251220703125 7.3941650390625 72.68017578125
-28.1650390625 7.3914794921875 71.861083984375
-18.583984375 7.54248046875 75.129150390625
-22.696533203125 8.5181884765625 77.93798828125
-27.249267578125 9.02490234375 78.726806640625
2.1630859375 9.2572021484375 -32.08837890625
-21.261962890625 9.5460205078125 65.159912109375
-18.958251953125 8.3656005859375 78.35693359375
2.495361328125 8.1544189453125 -33.56201171875
-8.052490234375 10.9815673828125 29.559814453125
-27.4619140625 6.3406982421875 3.3076171875
-2.709228515625 10.26513671875 39.211181640625
-1.305419921875 7.9912109375 -14.448486328125
-31.373046875 5.0997314453125 -0.7138671875
-25.0166015625 2.9176025390625 47.3193359375
-25.626220703125 7.8096923828125 70.94189453125
-1.34765625 8.2073974609375 -10.027099609375
-0.847900390625 5.742431640625 -32.720947265625
-9.751953125 11.09619140625 29.552978515625
7.251953125 13.775146484375 31.843994140625
-28.234619140625 1.224853515625 -1.01806640625
8.45703125 13.487060546875 34.515869140625
28.779052734375 9.66796875 9.2041015625
46.263427734375 9.7244873046875 -7.132568359375
-5.4326171875 9.01806640625 41.650146484375
5.610595703125 12.122802734375 40.05029296875
-9.073486328125 10.001220703125 34.999755859375
12.42919921875 14.2064208984375 34.322998046875
1.738037109375 9.6534423828125 49.62890625
-4.35595703125 10.515869140625 37.0107421875
19.573486328125 6.250244140625 -26.43896484375
35.961181640625 11.064697265625 -6.004638671875
-15.40966796875 7.032470703125 45.146240234375
-23.123046875 13.0682373046875 8.576171875
-29.3896484375 6.5916748046875 54.2998046875
-22.316650390625 5.30029296875 47.68212890625
-31.44140625 7.64208984375 61.325927734375
26.941650390625 10.5113525390625 1.444580078125
-32.259033203125 -8.93310546875 -13.35888671875
-6.750244140625 11.2607421875 30.356201171875
6.288818359375 11.406494140625 44.94775390625
-25.847900390625 7.96337890625 39.910888671875
-18.1728515625 14.0948486328125 -5.15283203125
3.300048828125 11.0994873046875 42.8759765625
-12.0546875 7.091796875 47.67041015625
6.392578125 12.745361328125 24.62744140625
-12.17919921875 8.900634765625 36.562744140625
-9.328125 8.4588623046875 43.090576171875
-25.364013671875 3.5555419921875 43.7958984375
14.2978515625 5.0919189453125 -31.8720703125
16.273193359375 13.9468994140625 34.338623046875
-13.583984375 7.978515625 40.648193359375
-21.810546875 7.993408203125 65.418212890625
-7.38720703125 9.9290771484375 35.86474609375
-11.644775390625 9.707763671875 33.788330078125
-19.526123046875 7.8399658203125 41.163818359375
5.1298828125 8.638916015625 -5.773681640625
17.63671875 4.7550048828125 -27.293701171875
16.265380859375 14.6844482421875 39.42626953125
-20.27099609375 8.16845703125 -21.84375
17.221923828125 4.4888916015625 -29.9169921875
-27.703857421875 7.2838134765625 -19.65234375
16.3330078125 4.6357421875 -28.137939453125
-5.35791015625 11.8172607421875 26.723388671875
44.764892578125 4.958740234375 -28.278564453125
-8.856201171875 8.7662353515625 41.73388671875
-19.843994140625 9.8565673828125 -3.513916015625
19.6123046875 5.4085693359375 -33.431884765625
-3.868896484375 12.409423828125 16.9013671875
-5.993896484375 8.2998046875 46.096923828125
-31.117431640625 -10.6976318359375 -14.154052734375
1.773193359375 9.46875 -33.518310546875
-0.8662109375 11.9180908203125 14.334228515625
35.62353515625 6.87109375 -18.757568359375
10.2607421875 8.6259765625 -2.27392578125
-3.13232421875 7.6297607421875 -10.729248046875
-22.48828125 7.265625 -24.684814453125
-27.240478515625 7.552734375 -21.989990234375
-14.583740234375 10.8990478515625 -2.09130859375
4.41162109375 12.264404296875 36.122314453125
39.502685546875 13.3155517578125 -8.940185546875
4.194580078125 4.1077880859375 -33.640380859375
-2.1806640625 12.0281982421875 16.531494140625
36.247314453125 11.7984619140625 -11.626708984375
0.021484375 12.475830078125 16.838134765625
-1.0068359375 3.689453125 -37.4912109375
0.44189453125 11.4315185546875 37.20556640625
-13.73876953125 12.416748046875 13.4892578125
-9.619384765625 9.092041015625 37.361083984375
37.162841796875 12.675537109375 -7.822265625
-15.322265625 11.9764404296875 -5.057861328125
20.749267578125 15.8582763671875 20.65625
-33.854248046875 -7.5494384765625 -11.562744140625
9.591064453125 5.7384033203125 -31.997314453125
-28.631103515625 6.157470703125 64.0849609375
-32.959716796875 0.1982421875 -3.737548828125
7.403076171875 12.6143798828125 39.064208984375
-1.150146484375 9.8028564453125 45.32958984375
-7.89111328125 9.399658203125 37.711669921875
-16.850341796875 9.180419921875 39.1416015625
17.155029296875 4.710205078125 -25.464111328125
-29.715576171875 -2.005859375 -4.92041015625
-21.74951171875 9.1907958984375 70.2822265625
-25.00048828125 3.40234375 50.6171875
0.882568359375 11.634033203125 10.843017578125
-13.017578125 7.505859375 -16.813232421875
3.402099609375 4.357421875 -36.430908203125
-31.181396484375 15.241455078125 13.0126953125
33.938720703125 11.7579345703125 7.71630859375
19.137451171875 4.608642578125 -36.80126953125
-31.07470703125 -3.4188232421875 -6.25
21.84375 6.60986328125 -27.95068359375
46.7763671875 8.5030517578125 -16.2587890625
-2.48876953125 12.6033935546875 12.416259765625
0.4853515625 12.2791748046875 13.34423828125
-26.445068359375 6.7694091796875 -19.966064453125
-2.06103515625 11.6397705078125 34.579833984375
31.547119140625 6.095947265625 -18.0087890625
-12.5546875 10.960693359375 10.74267578125
-29.46923828125 8.1962890625 3.28466796875
-24.92138671875 4.02685546875 45.826416015625
17.311767578125 15.946533203125 19.345458984375
-21.715576171875 14.64404296875 10.379150390625
29.74462890625 10.613037109375 11.171142578125
-0.942138671875 12.9322509765625 26.861572265625
-4.388427734375 12.5491943359375 24.35546875
-25.7119140625 13.5751953125 15.5634765625
-7.686279296875 8.2117919921875 45.271484375
32.58984375 6.8682861328125 -19.6103515625
-31.31640625 13.0052490234375 9.58544921875
20.68994140625 18.023193359375 17.927001953125
20.023681640625 4.96484375 -35.114013671875
15.43212890625 4.8265380859375 -25.47119140625
-5.287841796875 10.013671875 38.855712890625
-10.351318359375 7.3380126953125 48.46240234375
6.139404296875 10.6678466796875 48.109130859375
-30.33544921875 9.063232421875 19.778564453125
-25.060546875 7.6463623046875 -23.857421875
30.015380859375 6.99951171875 -20.51123046875
-16.7919921875 5.936767578125 47.08251953125
-33.712890625 -5.244140625 -9.62060546875
0.6591796875 10.365234375 42.615478515625
9.04345703125 12.3604736328125 41.2705078125
-9.851806640625 10.2716064453125 31.041748046875
-26.775634765625 7.8223876953125 -24.334228515625
-23.763916015625 -7.7774658203125 44.380126953125
-17.03076171875 10.2232666015625 68.402587890625
11.770263671875 5.400634765625 -34.1982421875
-18.056884765625 7.840087890625 65.838623046875
14.5361328125 8.87646484375 2.05126953125
-13.515869140625 6.7325439453125 62.614501953125
9.465576171875 8.0732421875 -9.70556640625
18.22509765625 9.9830322265625 -0.97119140625
-3.63525390625 9.7218017578125 40.19580078125
-26.441650390625 8.1641845703125 72.151123046875
-28.822998046875 11.521484375 6.38818359375
-31.445068359375 10.838623046875 5.714599609375
-7.5205078125 11.49267578125 25.50830078125
-6.83935546875 8.8150634765625 -15.501953125
35.9267578125 11.1875 10.948486328125
33.602783203125 7.3760986328125 -21.5888671875
5.048095703125 8.4857177734375 -2.160888671875
-27.287353515625 7.3687744140625 -15.647705078125
36.409423828125 12.9384765625 -10.596923828125
-20.591796875 8.14404296875 71.69775390625
-23.60302734375 6.3487548828125 63.595947265625
-16.157470703125 6.05859375 -18.5732421875
-26.16357421875 9.73828125 44.282958984375
-13.96533203125 6.8388671875 -14.806884765625
-21.993896484375 4.40087890625 50.826171875
-12.109375 7.78955078125 -18.2607421875
-0.5322265625 10.706298828125 39.5322265625
-13.867919921875 8.8712158203125 35.2890625
42.850830078125 7.655029296875 -7.848876953125
-15.981689453125 8.066650390625 69.99951171875
-28.237060546875 7.4649658203125 3.46142578125
35.99609375 13.38427734375 -8.9072265625
-11.98046875 7.498779296875 44.593994140625
-31.036376953125 11.279052734375 18.8212890625
-30.382080078125 7.3026123046875 2.20947265625
-11.351318359375 8.8270263671875 37.86572265625
5.512939453125 13.522705078125 31.041748046875
34.24609375 11.67333984375 11.7373046875
27.7275390625 10.4176025390625 4.135009765625
7.57421875 11.6251220703125 46.1884765625
-31.335205078125 6.8763427734375 20.310546875
26.570556640625 5.6668701171875 -30.45703125
47.693603515625 11.312744140625 -1.74755859375
29.144775390625 5.0771484375 -32.13037109375
28.253173828125 4.6173095703125 -34.23876953125
30.86962890625 4.856689453125 -32.544189453125
41.31494140625 5.3995361328125 -27.45068359375
16.979736328125 4.8582763671875 -36.38916015625
40.15478515625 8.1817626953125 -16.510986328125
44.374755859375 5.8170166015625 -24.91259765625
44.496337890625 8.20068359375 -15.23046875
43.045166015625 5.28271484375 -27.443603515625
14.410888671875 5.5516357421875 -34.294921875
21.374267578125 5.91357421875 -30.899169921875
33.58154296875 6.9615478515625 -23.272705078125
47.661865234375 10.69091796875 -4.2734375
33.966552734375 5.9996337890625 -27.0595703125
22.603271484375 4.478759765625 -36.3662109375
36.9521484375 4.966064453125 -30.4150390625
44.4169921875 6.6461181640625 -21.544921875
24.3388671875 4.465576171875 -35.938232421875
26.164306640625 6.2142333984375 -28.35400390625
15.239013671875 4.767822265625 -37.238037109375
23.131103515625 6.31494140625 -28.787353515625
26.94482421875 4.4976806640625 -35.0859375
11.345703125 5.0306396484375 -37.25390625
22.635009765625 5.1005859375 -33.840576171875
42.802978515625 9.04296875 -12.290771484375
30.094482421875 6.6768798828125 -25.3916015625
35.67041015625 5.3646240234375 -29.1572265625
42.5703125 4.48291015625 -30.81298828125
-1.55224609375 7.4610595703125 -30.9921875
40.972412109375 7.1905517578125 -20.296142578125
37.917724609375 6.8768310546875 -22.4130859375
2.623291015625 13.1649169921875 21.05419921875
33.197509765625 11.1434326171875 14.98486328125
33.93701171875 7.0037841796875 -20.124755859375
-20.451171875 6.391845703125 -17.706787109375
-21.394775390625 13.3023681640625 10.71142578125
11.62890625 12.65576171875 42.488037109375
6.940185546875 4.774658203125 -36.63330078125
15.057861328125 4.781982421875 -28.614501953125
36.913818359375 6.68017578125 -19.172607421875
38.211669921875 7.05029296875 -16.5966796875
39.106689453125 7.6126708984375 -14.072265625
-25.79443359375 12.1209716796875 11.06396484375
3.941650390625 12.112548828125 37.46337890625
-24.022216796875 12.49072265625 7.40478515625
18.5390625 5.1690673828125 -26.082763671875
21.9404296875 5.3192138671875 -21.67236328125
18.21337890625 16.36328125 20.568115234375
-1.8720703125 3.8955078125 -36.181884765625
1.536865234375 3.3388671875 -36.06005859375
-16.782958984375 10.929443359375 2.385009765625
25.575927734375 8.8016357421875 -6.568603515625
12.6328125 9.2611083984375 -8.297607421875
1.538330078125 3.58984375 -34.32958984375
24.104736328125 5.3802490234375 -20.825439453125
2.158447265625 7.2757568359375 -19.23779296875
-26.644775390625 12.0528564453125 8.437744140625
31.3173828125 11.2099609375 4.771484375
-6.43505859375 8.27001953125 -17.59619140625
19.51416015625 8.5894775390625 -9.10791015625
6.7490234375 4.0665283203125 -30.955322265625
37.56787109375 6.64599609375 -11.96875
3.035888671875 7.5272216796875 -17.976806640625
23.831787109375 8.505126953125 -8.252197265625
21.237060546875 8.4732666015625 -9.10107421875
43.671630859375 7.6837158203125 -6.075927734375
26.0380859375 9.3917236328125 -4.0517578125
37.720458984375 9.638671875 0.18701171875
-18.642822265625 6.194580078125 -29.381591796875
19.572021484375 9.7247314453125 -4.497314453125
-19.578125 4.8079833984375 -35.25341796875
25.9169921875 7.018310546875 -13.692626953125
11.6767578125 7.461669921875 -15.84619140625
14.596923828125 5.400634765625 -23.37890625
-18.574462890625 7.5361328125 -23.9326171875
-18.250732421875 10.7255859375 68.753662109375
30.797119140625 9.4847412109375 -2.35595703125
28.968994140625 7.537109375 -10.746337890625
-24.32666015625 4.9215087890625 -36.111083984375
1.333984375 8.0562744140625 -16.30712890625
-1.728515625 7.3310546875 -20.091796875
-9.240478515625 4.1102294921875 -35.21142578125
16.504150390625 8.896240234375 -8.701171875
35.939697265625 8.619873046875 -4.430908203125
29.919921875 9.2332763671875 -3.616943359375
24.31005859375 9.4049072265625 -4.47802734375
10.500244140625 9.8192138671875 -6.629638671875
40.325927734375 9.8770751953125 1.8740234375
-12.07666015625 7.8223876953125 -20.97216796875
-2.23828125 5.8121337890625 -26.381103515625
-16.883056640625 6.8006591796875 -26.4404296875
-17.434814453125 4.456298828125 -36.0830078125
-13.095947265625 4.78466796875 -33.550537109375
28.049560546875 6.4600830078125 -15.360595703125
11.103759765625 4.7044677734375 -27.165283203125
-26.049560546875 5.0377197265625 -36.117919921875
33.90185546875 11.0355224609375 4.781982421875
21.69921875 9.0633544921875 -6.584228515625
17.827880859375 9.42822265625 -6.180908203125
35.630126953125 11.0224609375 5.208251953125
-4.801513671875 6.3994140625 -24.71484375
-21.699951171875 5.5726318359375 -32.7470703125
-4.06640625 3.8646240234375 -34.771240234375
-5.3271484375 4.5709228515625 -32.26171875
23.227294921875 5.1287841796875 -22.08642578125
-5.699951171875 5.7352294921875 -27.652587890625
-22.503662109375 6.765869140625 -28.139892578125
-7.53857421875 3.5811767578125 -36.881103515625
-8.77294921875 4.8035888671875 -32.275634765625
30.62353515625 6.0792236328125 -16.1884765625
-9.1826171875 5.245361328125 -30.6005859375
-0.5048828125 5.90234375 -25.535888671875
34.274658203125 9.871337890625 0.173095703125
37.115966796875 6.2623291015625 -13.647216796875
6.476318359375 7.19140625 -18.382080078125
-26.85302734375 6.2310791015625 -31.5107421875
-4.954345703125 3.40673828125 -36.87060546875
31.95263671875 6.7144775390625 -13.2490234375
-10.831787109375 6.806396484375 -24.7392578125
9.09228515625 7.6361083984375 -15.8564453125
5.903564453125 4.4342041015625 -29.701171875
43.320068359375 9.2607421875 0.209716796875
10.794189453125 7.1070556640625 -17.526123046875
11.13525390625 5.32373046875 -24.650390625
-5.169189453125 7.6668701171875 -19.686767578125
29.095458984375 10.0137939453125 -0.686279296875
36.43359375 9.8291015625 0.600830078125
36.53369140625 11.7899169921875 8.56494140625
30.030517578125 11.400390625 5.185546875
15.254150390625 9.80908203125 -5.35302734375
42.059326171875 9.9671630859375 2.719482421875
39.42236328125 9.109619140625 -1.482666015625
-21.584228515625 7.8428955078125 -23.525634765625
6.02978515625 6.910888671875 -19.641357421875
13.357421875 6.5198974609375 -19.1923828125
13.86181640625 7.935546875 -13.322265625
21.53076171875 5.7611083984375 -19.99755859375
-19.9296875 6.385009765625 -28.9677734375
1.3759765625 8.8818359375 -12.953857421875
2.951416015625 5.8760986328125 -24.683349609375
-9.991455078125 6.3355712890625 -26.41259765625
-3.115478515625 5.560791015625 -27.64208984375
-24.294921875 5.5406494140625 -33.595947265625
5.126220703125 6.1435546875 -22.998046875
17.70263671875 15.442626953125 18.12890625
31.338623046875 11.622802734375 6.4482421875
44.128662109375 8.170654296875 -3.978515625
28.176025390625 8.936767578125 -5.300537109375
-3.840087890625 8.302001953125 -16.747314453125
19.8447265625 6.5997314453125 -17.0703125
-1.27685546875 7.7147216796875 -18.41357421875
-25.518798828125 6.9693603515625 -28.152099609375
10.773193359375 6.6943359375 -19.202880859375
19.398193359375 6.3192138671875 -18.32958984375
4.732421875 6.8948974609375 -20.065673828125
-7.732421875 8.2540283203125 -18.0205078125
-3.87158203125 7.682861328125 -19.26220703125
0.05224609375 8.349853515625 -15.47412109375
5.939453125 13.0015869140625 27.64697265625
32.845458984375 7.275390625 -10.73046875
8.677490234375 7.974853515625 -14.600830078125
24.79345703125 10.40771484375 -0.28466796875
-27.730224609375 5.9796142578125 -32.771728515625
23.716064453125 6.23486328125 -17.473876953125
34.557861328125 6.9527587890625 -11.561767578125
34.227294921875 8.9425048828125 -3.599365234375
16.39892578125 6.832275390625 -17.08447265625
-13.8046875 7.8355712890625 -21.398193359375
6.8544921875 6.13037109375 -22.572021484375
14.150390625 5.1201171875 -24.637939453125
3.133544921875 10.3441162109375 47.337158203125
-2.93408203125 9.3187255859375 -11.66650390625
-17.245361328125 11.29638671875 9.39208984375
13.24169921875 13.3302001953125 31.00146484375
32.5380859375 11.64404296875 10.433349609375
-18.629150390625 7.17822265625 -21.1181640625
-7.24560546875 10.786865234375 31.771728515625
47.487548828125 10.663818359375 -12.377685546875
0.67626953125 8.160888671875 -28.98291015625
-19.716064453125 11.47119140625 -2.619873046875
-28.580078125 2.4947509765625 1.27490234375
26.70849609375 9.8475341796875 6.521728515625
-18.688720703125 6.7186279296875 -18.730712890625
-3.732666015625 9.350341796875 44.1513671875
31.46142578125 10.4971923828125 11.17822265625
-2.517822265625 9.2733154296875 47.59326171875
-32.131103515625 -0.162109375 -4.96630859375
6.795166015625 8.9864501953125 0.350341796875
-7.295654296875 11.1749267578125 5.301513671875
25.421142578125 11.338134765625 15.03369140625
9.5625 12.6148681640625 15.803955078125
-25.8798828125 9.6453857421875 -6.042724609375
-12.918701171875 10.62646484375 1.5224609375
-25.827392578125 10.6729736328125 -1.868896484375
0.298583984375 8.1876220703125 -4.684326171875
3.374267578125 9.423583984375 1.171142578125
15.488525390625 10.668212890625 9.567626953125
-7.771728515625 10.279052734375 1.54345703125
25.342529296875 9.7967529296875 8.77294921875
6.947021484375 11.9664306640625 12.45458984375
13.8515625 12.3253173828125 15.8212890625
25.02392578125 11.983642578125 17.5361328125
-2.2431640625 8.9779052734375 -2.1904296875
-5.58544921875 10.9564208984375 4.89111328125
20.18017578125 9.8359375 7.499755859375
-3.791015625 12.3819580078125 11.158935546875
-11.31298828125 8.352783203125 -7.235595703125
-9.482177734375 10.4976806640625 1.953857421875
9.00244140625 10.0748291015625 5.36767578125
-14.62890625 10.8450927734375 1.932861328125
-25.14794921875 7.121337890625 -16.056396484375
16.838134765625 11.814453125 14.581298828125
3.295654296875 7.8822021484375 -5.089599609375
3.9658203125 12.5802001953125 14.11181640625
-22.4697265625 9.002685546875 -7.6982421875
-19.943603515625 7.9041748046875 -11.4443359375
29.38623046875 13.1326904296875 23.39697265625
14.353759765625 13.7349853515625 21.66650390625
19.5478515625 14.3123779296875 25.44384765625
25.970703125 13.672607421875 24.63525390625
13.657470703125 8.5233154296875 0.378173828125
