-15.376953125 1.88720703125 -19.874755859375
34.085693359375 5.695556640625 14.87744140625
1.682373046875 5.8656005859375 3.1455078125
-6.2275390625 1.4434814453125 -20.666259765625
15.98974609375 8.310302734375 28.572021484375
8.11279296875 8.080810546875 24.598876953125
-6.864013671875 6.9971923828125 14.36376953125
28.906494140625 2.5179443359375 -10.157958984375
24.95263671875 3.3348388671875 -8.293212890625
-31.216796875 4.2938232421875 75.962646484375
-20.9091796875 1.9117431640625 -21.896728515625
-16.94189453125 1.4754638671875 43.775146484375
-15.0146484375 6.0916748046875 1.975830078125
-31.25439453125 2.640869140625 69.675537109375
-22.95703125 3.126220703125 78.862060546875
-5.305419921875 6.0252685546875 10.93798828125
-27.398193359375 9.5086669921875 1.51513671875
0.90869140625 2.394775390625 -13.98828125
-12.61767578125 1.45703125 -20.59716796875
14.226318359375 8.69189453125 34.9619140625
41.221923828125 3.4825439453125 -1.4375
5.904052734375 3.0594482421875 -16.743896484375
16.619140625 3.2318115234375 -11.91796875
14.197509765625 0.7379150390625 -23.17333984375
23.7255859375 1.1087646484375 -17.981201171875
-22.3349609375 1.3311767578125 59.07568359375
16.3017578125 5.6881103515625 8.021240234375
12.708740234375 3.49462890625 -2.4404296875
-1.09228515625 5.3670654296875 0.01611328125
26.60791015625 7.566650390625 19.754638671875
6.37646484375 2.938720703125 -7.172119140625
17.86181640625 4.433837890625 3.42626953125
-19.6748046875 4.8720703125 -9.1650390625
-13.7646484375 3.791015625 -11.37353515625
-17.732421875 2.83984375 -16.83447265625
-26.664794921875 3.7994384765625 -23.69970703125
1.497314453125 1.6297607421875 -23.734619140625
-8.165283203125 1.7476806640625 51.18701171875
-3.356689453125 4.8336181640625 6.751708984375
-24.5986328125 5.786865234375 2.54638671875
21.73193359375 9.123779296875 18.15869140625
13.615966796875 7.59375 24.6943359375
-26.715087890625 4.323486328125 -18.456298828125
36.091552734375 5.1505126953125 3.500244140625
26.114990234375 1.6444091796875 -14.846435546875
-25.377197265625 1.463623046875 57.881103515625
27.408447265625 3.6346435546875 1.932861328125
4.51904296875 4.860107421875 46.60546875
-4.10205078125 1.9893798828125 -22.53515625
29.345703125 5.8360595703125 13.639892578125
-25.51806640625 -0.705810546875 54.013916015625
-1.854248046875 5.5101318359375 39.71240234375
-20.04443359375 0.4520263671875 55.7392578125
34.21044921875 5.1741943359375 9.68408203125
34.837158203125 2.4544677734375 -16.863037109375
-8.749267578125 1.09521484375 55.231201171875
11.06640625 3.349609375 -13.56103515625
18.7353515625 9.4725341796875 24.625
-17.04052734375 0.5535888671875 59.61328125
-17.630126953125 6.5032958984375 -3.474365234375
-19.346435546875 1.2105712890625 62.596923828125
-13.173828125 3.5360107421875 73.446044921875
0.09912109375 6.662353515625 32.640380859375
38.413330078125 1.583251953125 -10.379638671875
19.754638671875 0.89990234375 -20.3701171875
-26.9462890625 7.9276123046875 -9.1943359375
10.4609375 5.9735107421875 16.163330078125
28.6162109375 9.5283203125 28.648193359375
28.530517578125 4.326904296875 7.078125
-3.593994140625 7.2646484375 26.46337890625
-7.802490234375 5.8677978515625 -0.485595703125
11.564697265625 6.0142822265625 7.5537109375
19.861083984375 5.8382568359375 10.0087890625
-28.84033203125 4.611572265625 73.609375
-14.739501953125 6.8602294921875 10.774169921875
25.81689453125 7.440673828125 28.74267578125
-11.197021484375 6.82470703125 11.986572265625
-6.72509765625 4.165283203125 38.81982421875
-3.25244140625 1.8172607421875 56.26953125
-10.54248046875 1.0567626953125 64.190673828125
-2.429443359375 2.9564208984375 -20.36865234375
-17.928955078125 3.5684814453125 79.201416015625
-25.37451171875 5.01953125 -2.1513671875
-27.44287109375 3.604248046875 75.6982421875
21.7646484375 2.496337890625 -12.988525390625
21.354736328125 1.692138671875 -16.475830078125
32.869873046875 2.2606201171875 -9.702392578125
-20.442138671875 -0.5020751953125 51.635986328125
-24.60595703125 5.4920654296875 77.732177734375
-25.841552734375 3.495849609375 52.8056640625
15.927001953125 6.9305419921875 13.021728515625
8.781005859375 4.9583740234375 2.11328125
4.42626953125 4.506591796875 -1.4287109375
-5.895263671875 1.69921875 -17.01416015625
-26.014892578125 3.851806640625 -15.82275390625
10.452880859375 6.8489990234375 43.399169921875
0.8330078125 5.5478515625 42.092041015625
-19.492919921875 5.05712890625 1.484130859375
-7.802001953125 1.3472900390625 64.14453125
2.7890625 6.8375244140625 10.66943359375
39.6435546875 8.0543212890625 -8.182861328125
29.708251953125 3.00732421875 -7.823974609375
9.851806640625 1.86962890625 -20.155517578125
30.552734375 6.107666015625 5.33740234375
28.5380859375 4.2314453125 -3.204345703125
13.452880859375 3.69873046875 -11.19970703125
20.15185546875 3.760498046875 -7.1328125
9.132568359375 2.32275390625 -8.6650390625
13.90185546875 3.9471435546875 -0.108642578125
15.14697265625 7.5576171875 15.319091796875
-4.293701171875 2.9527587890625 -11.208984375
-19.291015625 4.18701171875 -11.8544921875
-4.47216796875 4.6514892578125 3.123291015625
7.61279296875 7.2474365234375 11.759033203125
-7.05517578125 0.2918701171875 60.06103515625
13.63427734375 8.3231201171875 38.670166015625
20.703857421875 7.707763671875 27.88671875
0.248291015625 8.5914306640625 23.695068359375
17.578857421875 9.1888427734375 32.81982421875
3.400390625 8.7757568359375 25.66796875
10.06298828125 6.981689453125 20.796142578125
-2.15771484375 5.9320068359375 11.760009765625
14.960205078125 4.220703125 -5.980224609375
23.20361328125 3.7254638671875 -3.01025390625
-28.766357421875 1.845947265625 55.859130859375
1.31787109375 4.4617919921875 46.68994140625
-31.82177734375 3.9661865234375 65.194091796875
-25.767578125 10.856689453125 6.48486328125
-7.724609375 3.30908203125 42.58203125
-16.775146484375 5.0107421875 70.099853515625
-18.92626953125 1.5018310546875 -23.448486328125
45.613037109375 3.327392578125 -1.01513671875
-10.125244140625 0.430419921875 60.0322265625
34.784912109375 4.1925048828125 -7.81298828125
-29.60498046875 2.5640869140625 63.115478515625
-12.835205078125 2.81201171875 41.5078125
5.71484375 5.8839111328125 14.582275390625
36.5107421875 6.5142822265625 9.307373046875
36.81103515625 1.4364013671875 -20.32080078125
39.66552734375 2.1201171875 -17.644775390625
8.66796875 7.10009765625 38.9462890625
-17.855224609375 8.384033203125 -1.955078125
-15.06640625 2.80224609375 68.531982421875
15.80224609375 1.8099365234375 -18.118896484375
10.2587890625 2.4873046875 -17.441650390625
36.4677734375 3.9033203125 -1.52001953125
34.076904296875 3.2744140625 -5.04150390625
46.77880859375 2.334716796875 -12.77587890625
24.5419921875 3.9783935546875 -5.16552734375
-3.52587890625 1.5826416015625 -16.587890625
36.84814453125 5.451171875 14.925537109375
-22.041015625 5.174560546875 -8.821044921875
-5.8798828125 2.6280517578125 -13.162353515625
15.1025390625 4.864013671875 4.148681640625
-4.65478515625 5.0311279296875 -2.741943359375
44.432861328125 3.1513671875 -10.919677734375
-8.852294921875 5.783203125 8.574462890625
16.373779296875 7.7203369140625 26.27685546875
20.718994140625 8.633056640625 31.723388671875
35.267333984375 1.10302734375 -23.544189453125
43.650634765625 2.2362060546875 -15.634765625
40.0400390625 0.6806640625 -23.461181640625
-26.30224609375 2.1561279296875 68.997314453125
36.47607421875 1.099609375 -14.367431640625
28.87744140625 0.7462158203125 -17.505126953125
31.266845703125 1.2818603515625 -14.370361328125
31.31298828125 4.079345703125 -2.76953125
22.51708984375 0.001708984375 -23.02880859375
41.19873046875 2.0838623046875 -7.23779296875
7.18408203125 3.9835205078125 -2.536376953125
-22.06103515625 3.967041015625 -13.828369140625
26.177978515625 5.4652099609375 10.888671875
-26.46142578125 7.8951416015625 6.889892578125
20.345703125 9.87060546875 36.704345703125
31.093505859375 9.686279296875 27.78759765625
-9.64013671875 4.78662109375 3.534423828125
-24.907470703125 1.0465087890625 51.720458984375
28.791015625 10.9173583984375 30.766845703125
9.964599609375 7.3646240234375 13.76171875
-12.397705078125 5.6337890625 6.5947265625
-1.30615234375 5.4842529296875 7.78662109375
38.854736328125 1.2542724609375 -21.540771484375
-23.161865234375 -0.25244140625 53.92626953125
-30.883056640625 2.0704345703125 67.4560546875
12.0595703125 3.03515625 -8.909423828125
33.274658203125 5.9593505859375 7.00830078125
13.039794921875 2.7081298828125 -15.460205078125
-15.7255859375 4.7086181640625 -8.326171875
0.87158203125 4.6351318359375 -2.2607421875
1.243896484375 3.032470703125 54.8642578125
-4.158203125 8.14697265625 22.6044921875
10.879638671875 8.762451171875 28.4833984375
22.306640625 9.4190673828125 35.58740234375
-2.928466796875 6.9268798828125 15.5830078125
5.35986328125 8.2318115234375 24.167236328125
-14.48486328125 9.67578125 -2.771240234375
20.154052734375 12.4130859375 21.856689453125
31.193359375 1.9346923828125 -19.164306640625
30.09814453125 1.6541748046875 -23.24560546875
1.60791015625 6.6671142578125 35.046142578125
-18.887451171875 6.6337890625 69.04931640625
22.179443359375 3.5802001953125 -8.34130859375
-28.1591796875 2.9879150390625 70.0126953125
38.612548828125 5.6365966796875 -5.3662109375
-7.943359375 2.661865234375 47.461669921875
-12.156005859375 0.9854736328125 51.730712890625
1.932861328125 2.8505859375 -19.133056640625
-26.7060546875 5.58154296875 -12.6259765625
-18.116455078125 5.977294921875 66.044921875
19.369140625 4.3897705078125 -4.827392578125
17.604736328125 8.7113037109375 40.58935546875
11.079833984375 7.3934326171875 39.279052734375
47.14404296875 3.988525390625 -4.538330078125
37.96044921875 2.0850830078125 -15.9443359375
30.56640625 7.96044921875 22.90478515625
36.831298828125 4.429443359375 10.6884765625
-7.8330078125 4.0101318359375 -8.189208984375
-13.3837890625 2.9200439453125 -14.833251953125
-1.94140625 1.814453125 -15.019775390625
-26.017578125 5.8546142578125 -5.685302734375
41.67578125 3.2547607421875 -12.17529296875
-20.345703125 -0.1209716796875 49.21484375
-0.8486328125 7.298583984375 27.657470703125
0.9931640625 6.0238037109375 13.349365234375
9.96826171875 8.7469482421875 31.729248046875
-14.30908203125 0.6640625 58.81787109375
-26.27978515625 2.82470703125 71.20263671875
0.916015625 7.3287353515625 8.909423828125
-13.07177734375 1.9013671875 46.43994140625
-24.214599609375 5.197021484375 0.2509765625
-0.127685546875 6.04150390625 37.1943359375
-17.455322265625 3.47314453125 74.984619140625
-5.791259765625 6.1256103515625 28.76025390625
5.525390625 4.68359375 50.9970703125
-18.527587890625 0.5445556640625 57.280029296875
-20.87451171875 -0.454833984375 53.9658203125
-12.393310546875 1.760009765625 49.615234375
-10.50537109375 4.5860595703125 35.54541015625
12.362548828125 7.757080078125 15.69189453125
-26.9677734375 6.6221923828125 -14.608154296875
16.970703125 0.4925537109375 -23.125244140625
-14.94091796875 5.24462890625 -5.190185546875
6.51171875 8.8699951171875 28.473388671875
32.52978515625 5.60107421875 13.273193359375
4.40625 3.299072265625 -6.43603515625
24.640869140625 8.11279296875 21.26123046875
28.599365234375 8.506591796875 24.4111328125
9.56103515625 4.331298828125 -0.18408203125
7.211669921875 5.6553955078125 4.39697265625
-9.05078125 2.071533203125 -16.683837890625
27.24951171875 4.345947265625 -0.7451171875
1.39990234375 6.82177734375 16.809326171875
-7.642578125 7.529296875 16.2685546875
-8.83251953125 6.986083984375 13.562255859375
22.66015625 6.978759765625 25.61865234375
-11.579345703125 7.507080078125 14.66552734375
48.267578125 7.3175048828125 4.0458984375
20.421630859375 13.0184326171875 17.5908203125
-12.7060546875 3.4278564453125 39.39111328125
-27.45166015625 1.7200927734375 66.7509765625
-2.527099609375 5.5670166015625 36.104736328125
-26.583740234375 0.5894775390625 56.09912109375
-2.36181640625 6.0538330078125 32.787109375
-11.1103515625 1.040283203125 56.412109375
-7.361572265625 4.763671875 36.296142578125
6.811279296875 6.0703125 42.370849609375
-21.3544921875 5.2142333984375 -3.4765625
21.798828125 3.52734375 1.183837890625
-16.452392578125 0.5177001953125 51.04150390625
-28.0478515625 6.3360595703125 -22.428466796875
-1.9189453125 6.4176025390625 5.89453125
-31.494384765625 4.97998046875 73.542236328125
-10.564697265625 6.1123046875 -0.53369140625
39.679443359375 2.962646484375 -14.15087890625
3.9306640625 3.7010498046875 -14.844970703125
-22.500244140625 5.1734619140625 -5.926513671875
-18.530517578125 3.60693359375 72.25830078125
7.50048828125 8.1768798828125 31.4638671875
17.496826171875 9.655517578125 37.161865234375
47.28125 3.1805419921875 -10.95654296875
26.2822265625 8.791259765625 33.291015625
9.54736328125 6.0069580078125 7.97998046875
-16.9560546875 8.8179931640625 -4.158447265625
8.843994140625 2.576171875 -10.808837890625
48.1171875 3.71630859375 -9.043212890625
-4.88623046875 5.2720947265625 34.576171875
40.191162109375 6.4912109375 -9.39111328125
-17.32763671875 0.5206298828125 55.337646484375
48.884521484375 5.6168212890625 0.3720703125
44.025146484375 0.7967529296875 -21.451171875
-23.808837890625 4.608642578125 72.080810546875
-10.998779296875 4.709716796875 -5.891845703125
17.919677734375 3.82275390625 -0.929931640625
39.239501953125 3.5645751953125 -1.8583984375
17.40380859375 2.6954345703125 -13.837646484375
8.6162109375 5.957275390625 46.774658203125
-24.70703125 9.7825927734375 8.003662109375
-23.63037109375 4.6640625 -11.544677734375
23.427978515625 6.4527587890625 13.922119140625
34.488037109375 6.1251220703125 16.810302734375
11.159423828125 5.3990478515625 4.8505859375
-17.3193359375 3.9195556640625 -12.20556640625
-5.460693359375 4.079345703125 -6.99267578125
27.673583984375 -0.0810546875 -21.392578125
33.71875 7.4024658203125 21.803955078125
-10.989990234375 4.28955078125 -8.244140625
-0.685546875 6.0751953125 3.104248046875
10.757080078125 4.9696044921875 2.91796875
13.54248046875 6.1182861328125 8.74365234375
10.333251953125 3.23974609375 -4.407470703125
11.97314453125 6.8153076171875 11.027099609375
-7.030029296875 4.7762451171875 -4.708984375
-10.1357421875 1.610107421875 51.607177734375
8.49658203125 6.239990234375 16.512939453125
-10.41845703125 6.29248046875 10.08203125
11.26513671875 8.26513671875 26.57177734375
-17.10400390625 6.6988525390625 9.198486328125
-22.217041015625 6.9659423828125 8.342529296875
36.45849609375 3.34375 -3.840087890625
19.393798828125 3.07958984375 -11.483154296875
-18.9228515625 2.1578369140625 65.533203125
-18.4833984375 5.2318115234375 -7.21875
45.6083984375 0.1878662109375 -23.364501953125
-24.8193359375 5.1888427734375 -9.21240234375
40.850341796875 5.0096435546875 4.742919921875
26.49267578125 0.4903564453125 -19.47998046875
45.209716796875 4.7171630859375 5.205078125
38.066162109375 4.602294921875 1.98779296875
34.1044921875 4.952880859375 1.9189453125
4.70458984375 2.5118408203125 -19.471435546875
29.347412109375 5.1871337890625 1.06298828125
43.236572265625 5.3587646484375 7.104248046875
14.211181640625 1.5771484375 -19.693115234375
29.721923828125 4.6865234375 9.0244140625
-26.7314453125 6.1917724609375 -8.2578125
-14.343994140625 2.022216796875 66.728759765625
19.853271484375 5.373779296875 8.082763671875
-1.115234375 3.9737548828125 -5.76171875
22.201171875 3.956787109375 3.116455078125
-13.0029296875 2.0491943359375 -18.29296875
-8.980224609375 6.3441162109375 1.03466796875
17.519287109375 7.6268310546875 16.515625
7.571044921875 3.484130859375 -4.455322265625
-9.437744140625 2.5709228515625 -14.7646484375
4.042236328125 5.191650390625 1.2607421875
2.089111328125 6.5738525390625 6.233642578125
-3.08544921875 4.334228515625 -5.025634765625
38.0244140625 4.8819580078125 13.020263671875
6.809326171875 5.2259521484375 2.464111328125
5.24609375 6.29443359375 6.28857421875
-16.5546875 2.363525390625 -18.354736328125
-3.888427734375 3.568115234375 -8.505859375
-6.627685546875 5.205810546875 -2.776123046875
21.833984375 5.66357421875 10.04296875
-15.4697265625 3.2000732421875 71.173828125
-30.1201171875 3.4395751953125 74.559814453125
-20.678466796875 4.7913818359375 -0.0712890625
-19.08935546875 5.669921875 4.176513671875
14.7861328125 6.934326171875 22.412841796875
-23.01708984375 6.202880859375 4.875732421875
13.63427734375 8.7039794921875 29.298583984375
22.692138671875 8.921630859375 33.676025390625
0.226806640625 7.296142578125 18.323486328125
8.12060546875 8.54345703125 26.51708984375
11.33251953125 5.98876953125 14.114013671875
-18.25439453125 3.6820068359375 77.260498046875
42.656494140625 2.5599365234375 -10.304443359375
10.12255859375 8.03466796875 35.522216796875
37.971923828125 7.2574462890625 -10.858642578125
2.851806640625 5.55078125 40.4931640625
-28.18310546875 0.205322265625 57.3369140625
9.13134765625 6.277587890625 44.71728515625
-28.7958984375 4.0172119140625 68.29345703125
-14.185791015625 1.178955078125 56.384033203125
-17.16552734375 7.9256591796875 68.059814453125
-17.961669921875 0.2864990234375 48.347412109375
-22.736083984375 2.405517578125 65.094970703125
-23.91015625 1.3880615234375 61.006103515625
-18.522216796875 5.377197265625 -4.785400390625
-12.15625 2.5782470703125 44.325439453125
-27.578857421875 1.43896484375 71.808837890625
18.01318359375 9.4927978515625 22.583251953125
-25.486572265625 4.7266845703125 79.382080078125
6.1376953125 7.6944580078125 34.40087890625
-24.627197265625 4.9111328125 75.892578125
48.130859375 2.96484375 -20.9453125
-26.777099609375 7.68798828125 1.6142578125
-24.32861328125 2.775634765625 50.986328125
2.514892578125 8.5279541015625 27.352783203125
-25.497802734375 -0.8919677734375 52.10400390625
-28.373046875 9.3603515625 -11.27880859375
24.849609375 4.5118408203125 -0.360107421875
-28.084716796875 2.159912109375 62.025634765625
5.7587890625 2.658935546875 -14.121337890625
41.221923828125 1.7545166015625 -9.21337890625
-14.782470703125 7.739990234375 0.27001953125
17.272705078125 4.343505859375 -2.727294921875
-20.8125 3.3134765625 69.593017578125
37.256591796875 6.700439453125 -6.503173828125
-26.693115234375 2.910888671875 73.11474609375
-30.796142578125 5.9237060546875 60.95703125
11.511962890625 6.43359375 45.0810546875
46.49560546875 3.2962646484375 -2.669677734375
5.453125 7.802490234375 31.556640625
-28.083984375 10.4097900390625 0.02587890625
20.80322265625 3.7052001953125 -3.39697265625
6.72900390625 6.39599609375 10.35302734375
0.3115234375 2.99609375 -17.912109375
-15.0205078125 2.1629638671875 63.599853515625
25.363525390625 8.46484375 24.842041015625
37.68701171875 5.6630859375 6.234619140625
-28.304443359375 8.7984619140625 3.7802734375
-15.15380859375 5.5997314453125 5.39599609375
8.469970703125 7.810546875 36.381103515625
-11.572265625 5.1414794921875 3.0390625
-27.778564453125 5.5733642578125 -19.26220703125
14.317138671875 7.816162109375 17.302001953125
-2.21044921875 2.747802734375 51.7744140625
11.55322265625 2.758056640625 -7.165771484375
-3.726318359375 3.9962158203125 42.82666015625
48.865966796875 4.493408203125 -4.28662109375
4.052978515625 7.0045166015625 9.38671875
26.17578125 3.8372802734375 3.531494140625
-1.00927734375 4.302978515625 45.13916015625
-8.326171875 4.0814208984375 39.63720703125
-2.268310546875 1.6517333984375 -18.2841796875
44.795166015625 3.63330078125 0.557861328125
-29.62255859375 4.0985107421875 71.75830078125
3.0791015625 7.6893310546875 30.782958984375
-11.0244140625 1.267822265625 -21.385009765625
33.278564453125 1.279052734375 -23.57861328125
45.24462890625 2.2825927734375 -14.83056640625
38.864013671875 1.8160400390625 -19.21142578125
-19.26953125 1.9564208984375 46.040771484375
43.244140625 5.824951171875 9.037841796875
40.86572265625 5.9420166015625 8.60986328125
11.835693359375 1.880859375 -19.34765625
30.927490234375 4.76708984375 -0.069580078125
27.324951171875 2.8447265625 -9.412109375
40.047119140625 4.427001953125 2.022216796875
36.427734375 1.478759765625 -11.573974609375
5.884033203125 1.84716796875 -21.77099609375
-8.2490234375 1.7664794921875 -18.2548828125
-3.87841796875 4.8677978515625 38.65966796875
6.185546875 3.319580078125 -11.8408203125
16.665771484375 3.7955322265625 0.324462890625
-23.65185546875 4.1668701171875 80.62451171875
18.279296875 5.7921142578125 9.2109375
30.12890625 5.3946533203125 12.11279296875
20.278564453125 7.196533203125 15.793212890625
19.083984375 6.651123046875 13.076416015625
31.740966796875 7.29833984375 20.6142578125
24.627197265625 7.27685546875 17.79443359375
-22.87158203125 2.736572265625 -19.234619140625
28.18017578125 7.055419921875 18.241455078125
-18.52783203125 2.5380859375 -18.388916015625
22.208740234375 4.4212646484375 5.04248046875
26.948974609375 4.28076171875 6.2802734375
-21.279296875 3.4327392578125 -15.74072265625
25.009521484375 6.498779296875 14.719970703125
25.001708984375 6.034423828125 12.7939453125
0.46630859375 4.0198974609375 -4.9638671875
8.349609375 2.76416015625 -7.137939453125
-22.484619140625 2.2371826171875 -21.15380859375
24.585693359375 4.7689208984375 7.394775390625
-5.830810546875 5.600341796875 -0.83642578125
-15.34619140625 3.744873046875 -12.171142578125
0.09765625 5.6337890625 1.577392578125
16.129150390625 4.350830078125 -4.37353515625
-4.29248046875 3.41796875 46.1181640625
-19.869384765625 6.109619140625 5.69775390625
-18.679443359375 6.6529541015625 8.40380859375
5.74072265625 7.456787109375 21.104736328125
-13.1640625 6.9061279296875 11.56884765625
-2.51416015625 8.1873779296875 20.96142578125
11.639892578125 7.1201171875 21.974365234375
-4.14892578125 4.5330810546875 5.203369140625
21.4990234375 8.193359375 30.202392578125
9.2861328125 7.6063232421875 23.08447265625
9.689697265625 8.21923828125 25.777099609375
1.823486328125 8.6373291015625 24.489501953125
-13.840087890625 8.7288818359375 -0.8466796875
39.50439453125 2.6046142578125 -11.95263671875
34.460693359375 2.493408203125 -8.128173828125
-5.71630859375 2.42578125 50.265380859375
-18.85791015625 6.47412109375 -2.21826171875
-0.533447265625 3.45458984375 51.240966796875
-25.098876953125 1.590576171875 63.682861328125
3.834716796875 6.4705810546875 38.692626953125
-14.105712890625 0.8006591796875 51.376220703125
20.1962890625 12.1318359375 19.46142578125
-1.25390625 3.3792724609375 48.8896484375
12.80859375 6.3680419921875 19.309326171875
-11.953125 5.5333251953125 35.3359375
38.822998046875 5.748291015625 8.26416015625
-29.944091796875 2.5872802734375 60.781005859375
-6.29248046875 5.6431884765625 1.62451171875
46.9169921875 4.7545166015625 3.530517578125
-4.9130859375 1.2969970703125 57.5390625
-8.797607421875 3.8087158203125 41.28662109375
2.217529296875 2.9248046875 -14.99853515625
-20.837646484375 1.7882080078125 63.267822265625
-9.00439453125 4.227294921875 36.420166015625
2.61328125 3.6734619140625 51.591796875
-16.37939453125 0.727294921875 49.040771484375
-13.240234375 2.153564453125 69.418701171875
2.252685546875 6.289306640625 37.93505859375
21.884521484375 8.728759765625 22.75390625
-28.637939453125 -0.953125 55.226806640625
11.18994140625 7.2567138671875 12.55419921875
-17.828125 0.717041015625 61.1357421875
-18.3173828125 5.193115234375 70.841552734375
2.498046875 2.812744140625 -11.6474609375
-15.977294921875 10.3720703125 -4.20654296875
-0.73095703125 2.2176513671875 -13.501220703125
45.81494140625 2.982421875 -6.719970703125
-20.62060546875 4.856201171875 68.562255859375
-12.805419921875 1.839599609375 65.988525390625
-24.3076171875 0.43505859375 56.90771484375
-6.322998046875 0.3204345703125 61.611572265625
-3.572265625 3.311767578125 47.72021484375
-11.0029296875 5.408203125 -2.385986328125
11.756591796875 8.2144775390625 35.0751953125
46.918701171875 1.7115478515625 -18.43017578125
6.62890625 6.358642578125 13.2275390625
14.806396484375 9.4796142578125 33.57080078125
1.95947265625 7.7427978515625 28.7548828125
5.183349609375 7.2296142578125 12.597412109375
-14.75146484375 5.239013671875 3.44580078125
-7.445068359375 1.733642578125 53.151123046875
33.653076171875 1.6309814453125 -12.0087890625
-0.96728515625 5.4093017578125 9.441162109375
9.065673828125 2.312744140625 -18.62255859375
21.34228515625 0.9461669921875 -19.5693359375
17.812255859375 3.4063720703125 -10.7373046875
0.47314453125 3.3206787109375 -8.47216796875
31.331298828125 5.1982421875 1.870849609375
16.586669921875 3.982666015625 -7.5810546875
-2.522216796875 4.4354248046875 43.9228515625
-15.1123046875 1.7308349609375 65.227294921875
20.421630859375 4.5777587890625 0.069580078125
13.295166015625 7.1956787109375 42.9228515625
-16.96826171875 6.5543212890625 69.45703125
19.404541015625 3.732421875 -8.776123046875
-24.84326171875 3.0040283203125 -18.8837890625
15.162353515625 8.4864501953125 19.1708984375
33.308837890625 6.508544921875 17.9453125
35.68115234375 6.57763671875 19.141845703125
-14.94384765625 4.1744384765625 -10.238525390625
-21.681640625 3.0032958984375 -17.67333984375
20.61962890625 3.9107666015625 2.31884765625
3.236328125 4.2398681640625 -2.989990234375
16.309326171875 6.152587890625 9.947021484375
38.03955078125 5.810791015625 16.8720703125
-23.5498046875 2.3043212890625 66.659912109375
-1.265869140625 2.4344482421875 -21.463134765625
3.21484375 2.939453125 -8.382568359375
44.64794921875 2.758056640625 -8.719970703125
13.181640625 2.984619140625 -6.835693359375
-3.739501953125 2.05322265625 -20.8935546875
6.693115234375 7.0447998046875 38.561279296875
-0.328369140625 4.0185546875 47.17822265625
25.4345703125 8.123046875 31.421630859375
18.753662109375 8.806884765625 31.689208984375
16.390625 8.738037109375 30.497314453125
-16.337646484375 5.426513671875 4.224365234375
6.520751953125 7.0172119140625 19.583740234375
27.000732421875 7.61376953125 29.914306640625
-15.9140625 7.2420654296875 11.90478515625
19.161865234375 9.6973876953125 35.532958984375
2.178466796875 6.28955078125 14.904541015625
-13.5693359375 6.20068359375 8.49267578125
-1.7568359375 6.35986328125 13.685302734375
-14.979248046875 1.152587890625 -23.3798828125
-5.4501953125 6.142578125 30.76708984375
14.9462890625 8.67236328125 36.980712890625
-15.307861328125 2.0462646484375 43.25732421875
-27.45361328125 8.2559814453125 -1.8388671875
14.764892578125 8.221923828125 39.895751953125
-0.35595703125 2.6787109375 54.5390625
2.909912109375 4.7757568359375 47.417236328125
-26.9560546875 1.1614990234375 58.324951171875
46.930908203125 2.4610595703125 -15.322265625
-1.056396484375 6.62646484375 31.4453125
-9.581787109375 4.9090576171875 31.869140625
-8.0810546875 2.0499267578125 49.554931640625
-7.2607421875 4.8070068359375 3.920654296875
-7.27783203125 1.241943359375 58.7177734375
-28.5625 4.2843017578125 77.51318359375
0.732177734375 2.209716796875 -22.2470703125
12.892333984375 8.297607421875 37.06787109375
6.54736328125 6.5518798828125 40.67041015625
-26.311767578125 4.053466796875 -20.037353515625
47.627685546875 2.2098388671875 -22.37451171875
48.1494140625 4.0926513671875 -16.268310546875
2.176513671875 7.3072509765625 32.486572265625
-1.96875 2.463623046875 55.364013671875
7.44677734375 2.8314208984375 -15.855712890625
33.49658203125 1.6859130859375 -17.43896484375
-9.9052734375 2.4752197265625 47.107177734375
42.0302734375 0.5982666015625 -23.03857421875
34.875732421875 1.5126953125 -21.998046875
45.230712890625 1.4400634765625 -18.32470703125
44.032958984375 1.2647705078125 -19.510009765625
-17.841552734375 5.50927734375 0.931640625
16.28955078125 3.595703125 -1.26318359375
6.900146484375 6.149658203125 16.137451171875
-21.21435546875 0.5595703125 56.88623046875
-27.1513671875 7.5340576171875 -0.396484375
29.691162109375 1.9815673828125 -12.07763671875
13.062744140625 4.1068115234375 -9.65966796875
41.23095703125 4.0419921875 0.8828125
19.771484375 1.9256591796875 -16.116455078125
44.405029296875 4.041259765625 2.097900390625
25.7373046875 2.7984619140625 -10.212890625
34.510009765625 5.477294921875 4.24609375
42.791259765625 2.4097900390625 -5.27685546875
16.58837890625 1.3668212890625 -19.65185546875
14.621337890625 2.38134765625 -16.2060546875
14.64599609375 3.8734130859375 -10.018798828125
31.702880859375 3.6712646484375 -4.309326171875
-4.719482421875 1.941650390625 53.895263671875
20.952392578125 1.3541259765625 -18.029296875
6.6064453125 5.541015625 46.06640625
-28.9111328125 10.435791015625 1.67724609375
1.8974609375 3.7799072265625 49.992431640625
-24.664306640625 1.228271484375 59.480712890625
-23.136962890625 3.478271484375 71.105712890625
6.012451171875 4.8662109375 48.98193359375
-18.12158203125 1.583251953125 44.93603515625
-7.80908203125 1.490234375 -21.0791015625
32.152587890625 8.28515625 24.85791015625
11.913330078125 3.19287109375 -3.994873046875
-1.534423828125 2.5225830078125 -11.931396484375
4.794921875 2.8927001953125 -7.969970703125
-12.18310546875 3.8370361328125 -10.57568359375
-3.057861328125 6.006103515625 1.90771484375
28.198486328125 8.1700439453125 22.863525390625
-17.33154296875 3.1763916015625 -15.286865234375
2.436279296875 3.6595458984375 -5.699951171875
5.20947265625 4.065185546875 -2.955810546875
11.136474609375 4.0057373046875 -0.927001953125
-10.580078125 5.1834716796875 -4.385498046875
-14.148681640625 4.47607421875 -8.68408203125
3.624755859375 3.8333740234375 -4.52392578125
29.0 8.84326171875 25.958740234375
-2.669189453125 5.599609375 0.373779296875
23.06396484375 8.3453369140625 21.618896484375
-9.4130859375 4.0570068359375 -8.601806640625
0.06396484375 3.59033203125 -6.896728515625
17.4609375 4.09716796875 1.87890625
-24.040283203125 3.7701416015625 -15.4033203125
25.804931640625 6.800537109375 16.2744140625
11.572265625 6.478759765625 9.479736328125
16.7421875 8.439697265625 19.58349609375
-28.033203125 3.2740478515625 64.93359375
-12.65966796875 0.8636474609375 55.664306640625
-23.817626953125 4.651123046875 -2.4677734375
1.2421875 4.288818359375 48.309326171875
-11.44287109375 0.794921875 -22.8876953125
4.022216796875 5.7220458984375 41.6513671875
28.0341796875 8.875 30.0224609375
-20.64794921875 6.641845703125 7.602294921875
-26.51123046875 7.0198974609375 5.083251953125
17.944580078125 7.4886474609375 25.92041015625
-16.72314453125 5.923828125 6.135986328125
15.186767578125 7.362060546875 24.337890625
18.34521484375 7.91650390625 27.845703125
23.059326171875 7.3140869140625 27.16015625
-22.249267578125 5.0230712890625 0.28515625
-24.580322265625 6.897216796875 7.150390625
2.595947265625 7.735107421875 21.050048828125
0.6259765625 7.6314697265625 19.864990234375
-15.533203125 6.4671630859375 8.842041015625
6.90771484375 6.6123046875 18.055908203125
-0.9599609375 6.93798828125 16.384521484375
10.841552734375 6.449462890625 18.891357421875
11.5126953125 2.8563232421875 -5.54248046875
-7.66650390625 5.075439453125 5.487548828125
-26.761962890625 8.6160888671875 5.463134765625
-12.03466796875 3.1656494140625 72.349609375
-20.06201171875 2.5281982421875 66.629638671875
-17.78369140625 1.7874755859375 64.436767578125
-11.666748046875 2.3243408203125 69.007568359375
-6.482177734375 1.078125 57.1884765625
-3.933349609375 7.3406982421875 24.828125
-8.447265625 4.8101806640625 33.090087890625
-10.562744140625 2.842041015625 44.26806640625
10.5380859375 7.0257568359375 41.7626953125
31.215576171875 1.6978759765625 -20.760498046875
-11.69775390625 0.440185546875 61.194091796875
-5.87646484375 3.1055908203125 45.3935546875
-3.842041015625 2.3995361328125 52.62890625
-28.13623046875 7.2386474609375 -13.125
24.5625 3.7427978515625 -6.75341796875
2.88037109375 7.0604248046875 34.150390625
-8.478759765625 1.958251953125 -23.724365234375
22.17626953125 4.8411865234375 -2.500732421875
43.266845703125 3.1138916015625 -12.147705078125
48.8720703125 4.867919921875 -2.733642578125
42.050537109375 1.8153076171875 -17.99169921875
31.687744140625 1.4197998046875 -23.606201171875
-8.983642578125 3.0633544921875 44.614990234375
9.039794921875 3.2503662109375 -13.50927734375
-16.967529296875 -0.0042724609375 53.87890625
5.897705078125 2.6864013671875 -18.290771484375
32.920654296875 5.3377685546875 3.058349609375
42.823486328125 4.3680419921875 2.84375
31.33740234375 5.5712890625 3.417724609375
32.509033203125 4.4403076171875 -0.8154296875
22.1962890625 4.60595703125 -4.087646484375
23.719482421875 0.7357177734375 -19.528076171875
41.214111328125 3.016357421875 -3.370849609375
-13.863525390625 8.2174072265625 -2.353271484375
-3.23583984375 2.1873779296875 -23.86279296875
37.67626953125 5.0103759765625 3.527587890625
34.098388671875 4.579833984375 0.372314453125
40.871826171875 6.3150634765625 10.156494140625
23.731689453125 1.4818115234375 -16.4345703125
26.12109375 2.017333984375 -13.299560546875
23.347900390625 2.2628173828125 -13.347900390625
31.28369140625 2.3076171875 -10.11669921875
7.4716796875 1.8934326171875 -20.97021484375
28.883544921875 1.1192626953125 -15.958251953125
27.341796875 3.870361328125 -5.158447265625
-31.6162109375 3.1641845703125 71.131591796875
-13.248291015625 6.5802001953125 -2.708740234375
-21.981689453125 -0.4085693359375 52.0078125
-10.477783203125 0.3680419921875 58.4873046875
5.2255859375 2.66650390625 -9.97314453125
-1.48095703125 5.7735595703125 1.5498046875
19.845703125 4.909423828125 6.156982421875
23.048583984375 7.41650390625 17.76708984375
5.230712890625 5.3656005859375 2.436767578125
2.84765625 4.646240234375 -1.4560546875
7.2177734375 6.0269775390625 5.937744140625
21.06005859375 6.662353515625 13.881103515625
-13.34716796875 5.1492919921875 -5.5888671875
-1.109130859375 4.3453369140625 -4.220947265625
-10.609130859375 3.418701171875 -11.703857421875
18.273193359375 5.420654296875 7.670166015625
19.425048828125 3.3653564453125 -0.39794921875
-20.903076171875 2.283203125 -20.35595703125
-19.691650390625 3.850341796875 -13.402099609375
-15.383056640625 1.5157470703125 -21.41552734375
33.680419921875 5.080322265625 12.17431640625
0.880859375 5.1923828125 0.05029296875
-7.839111328125 3.638671875 -9.72998046875
-16.8828125 6.724853515625 66.70068359375
47.832275390625 3.2728271484375 -13.49560546875
-4.73486328125 5.3665771484375 1.69091796875
-10.89501953125 0.9947509765625 62.648681640625
-14.681884765625 1.236572265625 61.0458984375
-22.120849609375 3.9854736328125 79.89013671875
-22.39892578125 1.2113037109375 61.42822265625
23.074462890625 8.2392578125 30.9970703125
-24.985595703125 6.1917724609375 4.07421875
-17.110107421875 6.3287353515625 7.663818359375
-4.12158203125 6.198486328125 12.109619140625
-18.67333984375 7.02294921875 9.9384765625
1.8173828125 8.267333984375 22.954833984375
14.801513671875 7.8594970703125 26.24951171875
-10.424560546875 5.92236328125 8.547119140625
3.7646484375 6.983154296875 18.384765625
-10.40478515625 7.1251220703125 13.534912109375
-6.066650390625 4.5615234375 2.750732421875
-22.707763671875 1.137451171875 57.554931640625
-11.550537109375 2.1229248046875 63.613037109375
-28.09765625 4.0533447265625 72.156494140625
18.830078125 11.446533203125 20.4599609375
-16.070068359375 10.0032958984375 -2.023681640625
-0.636474609375 2.43603515625 -15.644775390625
-15.4169921875 0.4415283203125 55.743408203125
-29.660400390625 2.4429931640625 65.461669921875
-4.04248046875 4.2034912109375 41.193603515625
14.15380859375 7.1312255859375 18.701904296875
-6.211181640625 4.7998046875 37.48291015625
-20.76416015625 1.5914306640625 59.029052734375
-11.652587890625 0.4757080078125 59.63330078125
5.051513671875 5.4957275390625 45.2822265625
18.876220703125 8.9713134765625 39.726806640625
-7.54541015625 5.413330078125 31.746337890625
-23.099609375 3.515869140625 69.55322265625
30.14697265625 0.8646240234375 -18.390625
-2.134765625 8.3851318359375 22.536865234375
32.53662109375 1.307373046875 -15.640380859375
-22.682373046875 -0.3128662109375 49.255126953125
24.38623046875 7.3853759765625 24.2939453125
-27.746337890625 2.9017333984375 68.09619140625
-22.919921875 3.1634521484375 77.32080078125
47.5732421875 2.5911865234375 -19.558349609375
-15.36962890625 1.60400390625 59.421875
-3.606201171875 5.7979736328125 33.65185546875
-13.398193359375 0.7452392578125 53.734130859375
-28.58740234375 3.436767578125 74.5654296875
4.42431640625 6.9698486328125 34.970703125
-25.0908203125 1.363525390625 62.1728515625
38.747314453125 7.423583984375 -9.240966796875
-28.8623046875 0.6541748046875 54.91796875
47.51611328125 2.7843017578125 -17.5234375
-21.717529296875 3.8577880859375 78.3740234375
-15.78662109375 2.906982421875 66.96240234375
47.940185546875 5.8375244140625 4.046875
-5.047119140625 1.0596923828125 -21.80224609375
20.4140625 4.1124267578125 -1.860107421875
-11.480224609375 3.6793212890625 38.53857421875
-16.478515625 0.614013671875 52.5869140625
6.77490234375 1.9256591796875 -11.830078125
26.817626953125 8.378173828125 28.112060546875
-4.87939453125 6.82568359375 27.78466796875
36.42724609375 2.313720703125 -16.83544921875
-21.26708984375 5.7587890625 -4.8740234375
37.945068359375 4.5213623046875 -4.614990234375
-2.577880859375 1.358154296875 57.529541015625
-27.46435546875 3.0625 54.45556640625
1.02978515625 3.54248046875 51.61767578125
9.46484375 6.568603515625 47.842529296875
-28.3740234375 11.3729248046875 -1.07470703125
-25.56103515625 3.0361328125 74.638916015625
-19.607666015625 0.5853271484375 54.154296875
-10.994140625 4.08642578125 36.85498046875
-28.09521484375 1.5318603515625 59.421142578125
36.53759765625 6.5308837890625 -9.368896484375
-17.069580078125 11.4100341796875 -4.08447265625
-17.0771484375 4.94189453125 66.22412109375
43.995849609375 1.509033203125 -9.1650390625
-25.053955078125 3.6044921875 71.4658203125
-23.77099609375 4.4569091796875 -5.701416015625
-26.705078125 7.0731201171875 -5.21484375
29.493408203125 10.1524658203125 29.720458984375
4.43994140625 4.6865234375 48.226806640625
46.108642578125 0.9388427734375 -21.940673828125
-22.855712890625 5.24853515625 -7.596435546875
-17.709716796875 6.5284423828125 67.901611328125
-0.371826171875 6.6527099609375 8.691162109375
6.22900390625 6.0228271484375 11.683837890625
2.2939453125 6.4638671875 11.999755859375
6.5888671875 7.701416015625 32.786376953125
2.154052734375 3.7171630859375 53.94677734375
10.05224609375 8.83447265625 29.68505859375
-3.79052734375 2.4366455078125 51.049560546875
19.41455078125 9.4837646484375 38.406005859375
24.106689453125 4.5772705078125 -1.61279296875
32.49853515625 2.2855224609375 -19.710205078125
29.081298828125 0.7205810546875 -22.507568359375
35.308349609375 5.7801513671875 5.806640625
1.531005859375 6.490478515625 36.6904296875
-30.072998046875 3.114013671875 70.372802734375
25.76025390625 4.1971435546875 -4.41259765625
30.096923828125 0.9642333984375 -16.7548828125
-4.695068359375 1.5450439453125 -17.807861328125
-13.885986328125 1.8421630859375 47.6337890625
40.5966796875 6.831787109375 -7.8251953125
12.237548828125 3.4801025390625 -11.950927734375
25.94189453125 7.57177734375 26.275390625
-23.6240234375 5.0355224609375 -10.00390625
-8.930419921875 0.544189453125 59.234619140625
10.116943359375 2.7393798828125 -12.11572265625
44.8408203125 1.943359375 -16.390380859375
42.46044921875 2.529052734375 -14.87890625
42.836669921875 1.1832275390625 -20.30712890625
42.8505859375 2.0257568359375 -16.813232421875
42.466796875 2.9034423828125 -13.326171875
-13.874267578125 3.86328125 72.23193359375
46.02001953125 0.9952392578125 -19.86376953125
-5.72509765625 1.7626953125 -22.8583984375
-5.729736328125 1.238525390625 58.719970703125
46.378173828125 3.3997802734375 0.19873046875
-18.05615234375 0.2640380859375 52.26513671875
30.103271484375 1.33740234375 -15.207763671875
8.651123046875 1.228759765625 -23.269775390625
20.940185546875 0.608154296875 -21.123046875
25.30712890625 0.781982421875 -18.72705078125
2.318359375 2.1627197265625 -21.8330078125
25.754150390625 3.82421875 -5.959228515625
38.47314453125 5.219970703125 4.70166015625
18.56298828125 0.818603515625 -21.164306640625
30.081298828125 1.573486328125 -13.617431640625
22.1669921875 2.834228515625 -11.43505859375
24.103271484375 -0.0452880859375 -22.61474609375
27.31884765625 2.4716796875 -10.958740234375
4.32080078125 3.29296875 -16.384765625
16.22900390625 3.639892578125 -10.3779296875
22.173095703125 3.207275390625 -9.88818359375
4.314697265625 2.919921875 -17.931640625
24.109375 0.3277587890625 -21.06787109375
34.055419921875 1.9688720703125 -10.455078125
32.065185546875 1.584716796875 -12.809814453125
24.929443359375 1.93603515625 -14.09375
18.569091796875 1.1915283203125 -19.617431640625
17.389892578125 1.856201171875 -17.31787109375
43.603515625 3.5518798828125 -0.236083984375
27.69189453125 1.0379638671875 -16.75244140625
27.312744140625 2.0987548828125 -12.505615234375
39.664794921875 5.30126953125 5.49560546875
44.784423828125 2.98046875 -2.14892578125
30.09814453125 2.5992431640625 -9.364013671875
18.2021484375 2.998291015625 -12.277099609375
22.533935546875 1.0274658203125 -18.775146484375
27.685791015625 0.6649169921875 -18.299072265625
27.306640625 1.7257080078125 -14.052490234375
28.5166015625 2.926025390625 -8.617919921875
24.92333984375 1.5631103515625 -15.640380859375
24.917236328125 1.1900634765625 -17.187255859375
30.121337890625 3.998046875 -3.5634765625
25.301025390625 0.4090576171875 -20.27392578125
24.935546875 2.30908203125 -12.546875
28.923583984375 3.543701171875 -5.904296875
19.7607421875 1.2728271484375 -18.823486328125
23.36474609375 3.28857421875 -9.09423828125
15.872802734375 9.2420654296875 36.0458984375
38.45166015625 3.9144287109375 -0.712158203125
14.994384765625 0.9476318359375 -21.99951171875
41.647216796875 5.21923828125 5.916748046875
37.653076171875 3.611572265625 -2.272705078125
-28.131591796875 8.2193603515625 -8.441650390625
22.5400390625 1.400390625 -17.228515625
-9.083984375 5.891357421875 2.80859375
45.613525390625 5.1483154296875 7.1455078125
-2.438720703125 2.39697265625 -22.68896484375
35.6708984375 3.693603515625 -2.69384765625
31.69677734375 3.2982177734375 -5.856201171875
20.579345703125 2.7879638671875 -12.23583984375
26.14404296875 3.4161376953125 -7.499267578125
23.370849609375 3.6614990234375 -7.54736328125
-0.485107421875 2.78662109375 -19.08544921875
44.83984375 2.78857421875 -4.163818359375
-26.712646484375 5.9090576171875 -10.655029296875
-17.3427734375 3.722900390625 71.47021484375
1.703369140625 2.603759765625 -12.81787109375
-8.830810546875 5.13134765625 4.6611328125
3.65380859375 5.59814453125 2.79443359375
18.65576171875 4.642578125 4.595703125
16.680908203125 4.724365234375 4.17626953125
27.30810546875 8.1524658203125 24.90966796875
14.739990234375 6.8494873046875 12.230712890625
14.279541015625 2.8905029296875 -4.3388671875
-24.06005859375 2.5626220703125 -20.41064453125
-24.833984375 3.561279296875 -16.57275390625
-17.302490234375 4.941162109375 -7.968505859375
19.042724609375 4.143310546875 2.676513671875
21.860107421875 7.24267578125 16.591064453125
30.16259765625 7.4381103515625 20.586669921875
2.491455078125 7.0032958984375 8.16650390625
-1.12451171875 3.41650390625 -8.07275390625
-24.066162109375 2.191162109375 -21.951416015625
-8.668212890625 1.2935791015625 -19.75830078125
0.909912109375 6.957275390625 7.36865234375
16.725341796875 7.41796875 15.346435546875
36.05419921875 5.2423095703125 13.75634765625
-22.86083984375 3.38671875 -16.538330078125
-6.254638671875 3.8704833984375 -8.161865234375
3.6630859375 6.155517578125 5.105712890625
35.272705078125 5.776611328125 15.66845703125
34.896484375 6.9261474609375 20.28369140625
0.900634765625 6.39990234375 5.0576171875
33.301025390625 6.0440673828125 16.019287109375
6.03076171875 5.9459228515625 5.146728515625
15.896240234375 5.0728759765625 5.318115234375
-3.464599609375 5.2979736328125 -1.1806640625
-11.774658203125 4.6380615234375 -7.102294921875
-14.16845703125 3.2685546875 -13.69140625
-13.364013671875 4.1275634765625 -9.825927734375
-4.310546875 1.93115234375 -15.446044921875
-22.845703125 4.3155517578125 -12.6865234375
0.0869140625 4.983642578125 -1.118896484375
6.777099609375 3.275390625 -5.62451171875
-13.796875 1.8404541015625 -19.462158203125
-12.59912109375 2.5716552734375 -15.97509765625
-3.8701171875 4.6827392578125 -3.8837890625
10.374755859375 5.74755859375 5.992431640625
30.18701171875 8.9241943359375 26.74951171875
-12.177001953125 4.2086181640625 -9.034912109375
-18.10400390625 4.2679443359375 -11.063720703125
17.114013671875 7.011474609375 13.8125
-11.816162109375 2.1302490234375 -17.501953125
7.586181640625 4.4129638671875 -0.603515625
15.940673828125 7.7664794921875 16.48828125
24.97265625 4.2696533203125 5.4755859375
2.47607421875 6.074462890625 4.314697265625
5.219970703125 4.7154541015625 -0.259521484375
-17.35009765625 2.0618896484375 -19.9091796875
-7.039306640625 4.218994140625 -7.02001953125
-0.677734375 6.5396728515625 5.0302734375
-19.321533203125 2.329345703125 -19.55810546875
6.044677734375 6.7818603515625 8.61328125
18.314697265625 7.928466796875 18.070068359375
24.986572265625 5.1055908203125 8.942138671875
8.751708984375 3.193603515625 -5.205078125
-20.0986328125 3.1422119140625 -16.490478515625
5.9755859375 2.6021728515625 -8.7197265625
-10.618408203125 2.8614501953125 -14.014892578125
-14.96240234375 3.059814453125 -14.860595703125
28.56103515625 6.1845703125 14.781494140625
-10.237548828125 1.990478515625 -17.474609375
-0.736083984375 3.010009765625 -9.606689453125
-9.7802734375 5.7637939453125 -1.67529296875
-25.632568359375 5.262939453125 -7.98779296875
-29.07470703125 2.4029541015625 54.581787109375
-5.93017578125 5.773681640625 32.059326171875
-6.693603515625 1.2117919921875 -19.3388671875
7.92724609375 7.166015625 37.72998046875
8.170654296875 6.7298583984375 40.229248046875
4.553955078125 5.940185546875 13.75830078125
-10.395263671875 4.851806640625 2.291748046875
0.202392578125 5.8157958984375 12.1845703125
23.85009765625 7.52197265625 28.324951171875
12.822265625 7.2008056640625 22.76220703125
12.043701171875 7.73291015625 24.6669921875
-5.681640625 7.077880859375 15.151611328125
-17.906982421875 5.7506103515625 4.96435546875
-7.669921875 5.8638916015625 9.3623046875
19.521484375 7.6270751953125 27.098876953125
-5.2978515625 6.4879150390625 12.8564453125
8.091552734375 6.7855224609375 19.227294921875
-6.877685546875 6.1644287109375 10.91064453125
5.723876953125 6.4390869140625 16.88427734375
-23.404052734375 6.6077880859375 6.403564453125
-16.313232421875 6.9068603515625 10.36328125
-10.4306640625 5.5523681640625 7.012451171875
-2.939208984375 6.2791748046875 12.8974609375
12.857421875 9.3287353515625 31.5869140625
19.92822265625 8.425048828125 30.558837890625
14.425048828125 8.9119873046875 30.463134765625
16.006591796875 9.3280029296875 32.79248046875
-14.338623046875 7.2879638671875 12.699462890625
4.949951171875 7.248779296875 19.940185546875
9.697509765625 8.6817626953125 27.695556640625
23.48291015625 9.129638671875 34.840576171875
12.4521484375 8.6234130859375 28.5107421875
11.6201171875 5.9173583984375 16.986572265625
-12.371826171875 7.20654296875 13.1171875
-2.521728515625 7.7247314453125 19.04296875
24.640625 7.72998046875 29.489501953125
-4.911376953125 5.0169677734375 6.302734375
-14.751708984375 2.8438720703125 40.315673828125
14.039794921875 9.409423828125 32.374755859375
14.5810546875 7.5894775390625 42.037109375
3.69580078125 8.6085205078125 28.1396484375
1.19189453125 7.67236328125 27.56103515625
-19.233642578125 6.527099609375 66.728759765625
44.797607421875 1.99853515625 -6.83056640625
-3.00927734375 5.19970703125 37.38720703125
-22.00146484375 3.693359375 73.005615234375
32.7685546875 5.72265625 8.311767578125
16.427001953125 8.630859375 39.804443359375
-26.492431640625 6.7386474609375 2.701904296875
1.781005859375 4.600830078125 45.07421875
-14.689697265625 4.209228515625 75.652099609375
7.314208984375 7.7747802734375 35.184814453125
37.525634765625 7.860595703125 -7.2685546875
-1.783935546875 6.7364501953125 29.811279296875
8.966064453125 7.9990234375 34.32470703125
4.982666015625 7.7508544921875 33.585693359375
0.864013671875 6.7327880859375 33.828125
-9.38525390625 6.3077392578125 31.143310546875
5.598876953125 7.050048828125 35.75341796875
7.343017578125 5.476318359375 47.271240234375
-10.171630859375 0.39501953125 61.5927734375
9.62353515625 7.754150390625 37.195068359375
4.326416015625 6.84033203125 37.408447265625
