40.46435546875 -1.040771484375 -8.53955078125
23.237060546875 -0.1868896484375 6.9296875
30.713134765625 -1.09423828125 1.6455078125
42.02099609375 -0.0733642578125 9.33740234375
45.987548828125 -2.7420654296875 -8.884765625
-10.239013671875 36.857177734375 -34.806640625
-14.105712890625 -3.375 66.845458984375
20.944580078125 -2.0191650390625 -5.79052734375
-11.097412109375 -0.99755859375 33.899169921875
47.953857421875 2.0762939453125 2.900634765625
-13.2197265625 41.2635498046875 -31.516357421875
38.05908203125 -1.059814453125 3.059814453125
-6.880126953125 -2.9937744140625 -14.534912109375
14.482666015625 1.08642578125 14.206298828125
-24.255615234375 -0.2144775390625 -5.7041015625
-31.49169921875 -1.9658203125 63.60498046875
27.1640625 3.693603515625 28.036865234375
-8.441162109375 -3.8062744140625 63.247314453125
-6.556884765625 36.2637939453125 -36.0146484375
-13.772216796875 -5.041015625 59.40771484375
-8.26123046875 -4.633056640625 -26.920166015625
16.643310546875 -2.8004150390625 -11.822998046875
-2.29931640625 -0.768310546875 -0.997314453125
-20.708251953125 -1.966064453125 -11.405517578125
-25.72607421875 -1.1290283203125 -18.015869140625
32.04296875 -1.7137451171875 -2.838623046875
13.6611328125 -2.4180908203125 -7.3486328125
0.084228515625 1.562744140625 18.360107421875
-25.578369140625 -2.8028564453125 68.21435546875
-9.03271484375 -1.171630859375 -2.400634765625
-0.99072265625 39.2100830078125 -32.4921875
5.2001953125 36.853759765625 -28.963623046875
-25.6796875 28.124755859375 -16.353515625
-0.2783203125 33.56591796875 -28.406982421875
33.9501953125 -2.579345703125 -8.528564453125
2.8525390625 2.2413330078125 25.11083984375
18.45166015625 2.6429443359375 25.512939453125
-25.538330078125 12.714599609375 -13.8798828125
11.194091796875 2.2435302734375 42.995849609375
-26.1259765625 21.3487548828125 -10.474365234375
1.73974609375 37.449462890625 -29.41064453125
27.04248046875 -2.1007080078125 -4.56787109375
-1.906005859375 1.94921875 21.754150390625
1.378662109375 32.5909423828125 -31.304931640625
-11.9306640625 0.335693359375 -4.448974609375
41.4140625 -0.46484375 -12.055419921875
-7.0478515625 -3.6724853515625 -20.33056640625
-2.23974609375 -3.4951171875 55.637939453125
-17.7021484375 0.1932373046875 -6.031005859375
21.97119140625 0.413818359375 10.431884765625
13.182861328125 -4.6016845703125 -22.91845703125
-18.74609375 -4.3170166015625 60.052978515625
-18.810791015625 -0.8243408203125 63.196533203125
-19.552978515625 0.22265625 77.806640625
14.0263671875 2.5537109375 35.86083984375
-21.037109375 -3.846435546875 63.3251953125
-15.180419921875 -4.6661376953125 -27.241455078125
35.073974609375 -3.059814453125 -11.7294921875
-22.322265625 -4.6932373046875 56.748046875
-25.970947265625 15.0328369140625 -8.291259765625
-15.969970703125 -0.1219482421875 66.361328125
4.04150390625 0.5982666015625 34.509765625
-2.250732421875 -3.250732421875 51.644287109375
6.255126953125 -1.8587646484375 -5.573486328125
-27.235595703125 3.85888671875 -4.211669921875
24.4453125 -1.227783203125 -0.10205078125
-27.26708984375 -0.1495361328125 -23.8408203125
3.767578125 -2.6123046875 -12.752197265625
12.55419921875 0.7137451171875 10.99462890625
-4.465087890625 -1.9481201171875 -7.96533203125
-13.00537109375 -3.41064453125 41.16162109375
-30.836669921875 -2.26416015625 72.21142578125
-2.685546875 -4.5487060546875 -24.411865234375
-29.00634765625 -3.0272216796875 68.120361328125
22.72998046875 3.225830078125 29.004638671875
-25.470947265625 -3.080810546875 -30.908203125
8.904541015625 2.9326171875 25.845947265625
23.296630859375 -3.8856201171875 -18.384765625
11.1630859375 -0.2462158203125 6.52392578125
-20.941162109375 -0.009765625 5.635986328125
-25.695556640625 -1.8240966796875 75.14208984375
34.6708984375 -0.975341796875 3.545654296875
-7.612060546875 -2.2874755859375 40.234130859375
-26.650146484375 5.37548828125 -7.600341796875
-6.44091796875 -1.456787109375 -4.4091796875
30.7548828125 -0.6607666015625 5.13232421875
-1.513671875 32.1514892578125 -33.18701171875
21.01025390625 1.7100830078125 15.169189453125
16.8173828125 -0.1707763671875 5.6865234375
43.819580078125 -3.44189453125 -13.666015625
-8.7578125 -4.576904296875 53.21337890625
17.125244140625 0.4620361328125 9.620849609375
27.035888671875 -3.2945556640625 -12.0234375
-0.68505859375 0.753662109375 10.75439453125
31.99609375 1.0198974609375 15.0185546875
-10.2822265625 -0.70751953125 0.510009765625
-6.002197265625 -3.2421875 46.0673828125
1.273681640625 -1.2918701171875 -2.253173828125
-24.80322265625 -1.65283203125 -15.01171875
6.25830078125 31.65478515625 -34.15283203125
-26.9091796875 -2.918701171875 -36.204833984375
-3.234130859375 2.64306640625 13.774658203125
-14.557373046875 -2.44677734375 71.899658203125
-24.58447265625 -3.6767578125 -27.6748046875
14.644775390625 2.6533203125 40.423583984375
-0.168701171875 -2.134521484375 -8.82373046875
2.4208984375 -1.593017578125 47.43798828125
-21.93359375 -0.840087890625 -2.14794921875
-7.169921875 -5.3155517578125 56.395263671875
19.892578125 3.61962890625 32.066650390625
7.771728515625 0.4969482421875 40.4111328125
4.0185546875 -4.8065185546875 -24.504150390625
-26.58642578125 -3.9647216796875 61.03369140625
10.48779296875 1.7384033203125 36.887939453125
-2.559814453125 -3.1851806640625 -15.422607421875
-25.971923828125 12.0802001953125 -2.28076171875
14.66845703125 2.6043701171875 22.783447265625
-13.214111328125 -2.8997802734375 -14.9892578125
-27.3447265625 1.0841064453125 -11.60791015625
25.53662109375 -4.405029296875 -21.23193359375
7.2861328125 -2.255859375 -8.81787109375
4.083984375 31.1571044921875 -31.353515625
12.634521484375 -0.56884765625 3.406982421875
-13.897216796875 -4.931884765625 56.389404296875
-5.43359375 -0.9752197265625 -0.776611328125
-14.966552734375 -4.9764404296875 46.855712890625
5.9091796875 0.660400390625 12.22802734375
36.5 -0.6597900390625 6.965576171875
-10.138916015625 -2.9498291015625 42.03173828125
0.968994140625 -2.279296875 51.041015625
10.947509765625 2.208740234375 20.703857421875
14.16845703125 3.3409423828125 30.7060546875
0.5849609375 -1.485107421875 43.722412109375
-3.498046875 -3.23583984375 47.595458984375
-11.105224609375 -4.9326171875 57.997802734375
46.352783203125 -2.302001953125 -6.019775390625
14.2568359375 -1.479736328125 -2.876708984375
-10.75927734375 -1.857666015625 -8.43408203125
26.08984375 0.030517578125 7.4384765625
-14.001708984375 2.993408203125 -8.350341796875
17.864013671875 -2.3841552734375 -8.702880859375
34.9375 -1.9344482421875 -3.25048828125
-24.550537109375 0.43408203125 1.24072265625
10.522705078125 -3.839111328125 -18.002197265625
4.23779296875 -3.9005126953125 -19.877685546875
18.523193359375 3.5523681640625 36.345947265625
-1.852294921875 2.388671875 16.265380859375
37.563720703125 -3.351318359375 -13.08837890625
-10.748291015625 0.5794677734375 9.454833984375
0.56005859375 -2.819091796875 -12.5009765625
10.98876953125 -1.6884765625 -4.3857421875
-24.201171875 -2.6363525390625 71.0419921875
-2.921630859375 -3.780517578125 -19.7001953125
-20.3779296875 -4.52392578125 -27.370849609375
-27.15283203125 3.6280517578125 -1.3193359375
-25.564697265625 17.6646728515625 -11.166259765625
48.386474609375 -1.315673828125 -1.923095703125
34.7802734375 -0.0416259765625 9.508056640625
-6.958984375 -0.1492919921875 4.67529296875
20.584228515625 -1.275634765625 -0.38330078125
41.96875 -1.0113525390625 3.348388671875
35.8515625 0.2867431640625 12.60693359375
-19.184326171875 -1.8043212890625 75.939208984375
20.732421875 2.388916015625 23.53076171875
23.83642578125 2.1800537109375 22.507568359375
5.75439453125 0.242919921875 8.853759765625
-23.003173828125 -5.03466796875 52.20166015625
24.1357421875 -3.069580078125 -11.591064453125
10.553466796875 -2.414794921875 -9.21826171875
0.890625 -4.801025390625 -25.506103515625
48.62109375 -1.1702880859375 -7.49365234375
-8.276611328125 42.816650390625 -30.04833984375
9.646484375 -3.2808837890625 -13.120361328125
29.46728515625 -4.4296875 -19.938232421875
46.544189453125 -1.56494140625 0.617919921875
-19.798828125 -3.8497314453125 -22.267822265625
-20.402099609375 -2.791259765625 -17.486083984375
-19.41064453125 -0.6934814453125 -4.10009765625
28.403076171875 1.9410400390625 20.377685546875
-14.51708984375 -5.33544921875 52.62890625
1.140625 -1.0323486328125 40.156494140625
-26.5390625 7.056884765625 -25.0244140625
-13.051513671875 -1.3687744140625 -10.0859375
8.388427734375 -0.034423828125 6.90625
8.86474609375 2.2886962890625 45.1220703125
18.888427734375 -0.7254638671875 3.16357421875
19.30419921875 -3.9984130859375 -17.61181640625
-26.96728515625 7.185791015625 -0.363037109375
-8.34765625 1.0806884765625 11.73291015625
9.662109375 2.2601318359375 31.906494140625
-1.223388671875 -0.703857421875 36.579345703125
5.550537109375 -0.7359619140625 46.256103515625
-0.864501953125 1.0028076171875 29.1708984375
34.828125 -4.19384765625 -18.708251953125
-26.433837890625 16.3770751953125 -5.948486328125
-19.55322265625 -4.6353759765625 57.55078125
29.99169921875 0.5003662109375 12.84130859375
42.717529296875 -0.5946044921875 6.257080078125
-12.064208984375 -4.2972412109375 -25.175537109375
-8.802978515625 -1.729736328125 35.908447265625
19.1962890625 3.818359375 15.659912109375
-5.635498046875 -4.70458984375 -26.8544921875
6.859375 -3.596923828125 -18.739501953125
12.557861328125 3.85888671875 41.425537109375
-15.867919921875 0.427490234375 5.66259765625
-2.701416015625 1.681884765625 24.304443359375
16.607666015625 -3.99609375 -16.66455078125
-25.37353515625 -3.61328125 -33.444580078125
23.959228515625 3.270751953125 17.364501953125
10.704345703125 -0.95263671875 0.97265625
-7.315673828125 38.8447265625 -33.90185546875
-10.081298828125 -3.66455078125 -20.42236328125
-3.259033203125 44.1351318359375 -29.824951171875
-3.589111328125 -0.3763427734375 2.871337890625
-9.130859375 -2.6387939453125 -13.318115234375
23.17626953125 -0.6163330078125 4.32958984375
41.199462890625 1.536865234375 11.165771484375
-5.744140625 0.5072021484375 26.160400390625
-4.332763671875 -1.831298828125 41.98828125
-27.0771484375 11.5220947265625 -15.554443359375
21.259033203125 4.8338623046875 16.928466796875
-17.373779296875 -1.39697265625 -8.01416015625
-12.765380859375 -0.0743408203125 4.315673828125
13.883056640625 -3.248046875 -13.61181640625
46.500244140625 1.802734375 5.54541015625
-30.958740234375 -3.236572265625 66.49462890625
1.484375 0.4195556640625 8.80126953125
-17.997314453125 -2.4786376953125 -13.85498046875
-12.0771484375 38.6884765625 -33.469970703125
27.57763671875 -1.1610107421875 0.771240234375
13.715576171875 -0.95654296875 1.09423828125
-5.659423828125 -1.534912109375 38.825927734375
-14.66162109375 -3.76123046875 63.896728515625
24.568603515625 -2.259033203125 -5.929931640625
-13.568115234375 43.8106689453125 -29.27880859375
-21.22314453125 -5.1209716796875 -31.8828125
-5.28076171875 -0.7386474609375 33.8232421875
-20.000732421875 41.3067626953125 -30.4462890625
-6.082275390625 -3.1737060546875 60.1923828125
-15.19482421875 2.6658935546875 8.288818359375
6.136474609375 2.1107177734375 20.914306640625
21.19140625 -2.542724609375 -8.219970703125
-22.87548828125 41.4063720703125 -26.595703125
31.413818359375 -2.366943359375 -8.853271484375
16.96630859375 0.9547119140625 14.427001953125
-23.634521484375 -2.7027587890625 -16.951171875
-9.924072265625 -5.3583984375 -31.48779296875
40.145263671875 -2.2178955078125 -6.365478515625
46.296875 -3.8126220703125 -15.832275390625
-16.184326171875 -5.3472900390625 -33.49169921875
-21.60791015625 0.2891845703125 3.260986328125
33.794921875 2.5284423828125 20.237060546875
-19.77685546875 -5.4603271484375 51.135498046875
-26.164306640625 1.7618408203125 -4.979248046875
3.726318359375 33.8553466796875 -30.19287109375
-1.970458984375 0.3648681640625 6.974853515625
7.90625 1.1007080078125 15.310546875
-24.97021484375 -4.60791015625 -36.8232421875
0.447021484375 0.2093505859375 33.266845703125
36.926513671875 -1.4715576171875 -8.83154296875
-12.585205078125 1.6055908203125 11.826171875
2.6396484375 -1.3294677734375 -4.29736328125
-4.61328125 -2.61376953125 -13.66748046875
-2.107177734375 31.6568603515625 -30.778076171875
-24.9501953125 -1.2100830078125 -12.479248046875
-24.931884765625 -4.622314453125 56.476318359375
-12.498046875 -1.8790283203125 -6.39990234375
-19.327392578125 -3.01953125 71.264404296875
40.15087890625 -1.330810546875 -0.987060546875
-15.140380859375 -0.5118408203125 1.896484375
-7.747314453125 -3.348388671875 -17.63916015625
0.4580078125 40.8048095703125 -31.37158203125
-8.81494140625 -4.85498046875 50.802734375
21.84375 -3.390380859375 -15.2841796875
39.67822265625 -4.0928955078125 -17.37255859375
3.0869140625 1.42822265625 15.583984375
-25.629150390625 -1.2091064453125 -20.429443359375
49.8798828125 3.292724609375 2.0966796875
27.13427734375 1.41259765625 17.674072265625
-14.731201171875 -2.2703857421875 -12.34765625
14.87890625 0.798583984375 11.585205078125
8.74169921875 2.4586181640625 23.49951171875
13.452392578125 -4.373779296875 -20.545654296875
3.326904296875 -0.1929931640625 4.748046875
30.178955078125 1.8211669921875 21.97314453125
-18.139404296875 -0.43701171875 -0.024169921875
-5.223388671875 42.235595703125 -29.74755859375
-24.486328125 37.625 -24.011474609375
-26.993408203125 0.864501953125 -17.881591796875
11.547119140625 3.3460693359375 28.3046875
-13.212158203125 2.7550048828125 9.567138671875
-13.867919921875 -5.569091796875 50.380615234375
-26.506103515625 14.3717041015625 -22.206787109375
42.179443359375 -1.67626953125 -2.3212890625
4.34228515625 -1.812255859375 -7.133056640625
45.44970703125 -0.1510009765625 6.294189453125
3.093017578125 -0.47265625 41.313232421875
3.175048828125 0.967041015625 32.06640625
35.192626953125 0.8004150390625 14.786865234375
-18.836669921875 0.4312744140625 4.702880859375
3.564697265625 2.373779296875 22.766357421875
29.890380859375 -3.15087890625 -13.197021484375
-27.656494140625 3.628662109375 0.947265625
21.186279296875 -1.8031005859375 -3.511474609375
-10.53564453125 -4.00048828125 64.262451171875
-26.908447265625 -3.469970703125 56.690185546875
-22.668701171875 0.2454833984375 -0.26171875
-21.311279296875 -2.91015625 69.7783203125
26.09814453125 -1.4888916015625 -1.67431640625
-13.127197265625 -3.05712890625 -17.276611328125
-0.4365234375 1.8369140625 23.985107421875
-3.14453125 39.9481201171875 -32.759521484375
3.102294921875 32.0350341796875 -33.22900390625
16.38671875 3.097412109375 27.9677734375
-1.747802734375 -0.066162109375 4.545166015625
-15.165771484375 -4.1475830078125 61.62548828125
-3.4521484375 -1.3236083984375 37.68212890625
25.50390625 -3.63916015625 -16.349609375
20.435302734375 -4.7987060546875 -22.988037109375
8.0458984375 -4.2425537109375 -23.42822265625
10.40869140625 2.161865234375 34.61083984375
-12.76953125 -2.091064453125 38.22900390625
-21.138427734375 -1.3739013671875 -9.260009765625
16.375 2.15380859375 20.155517578125
-14.818115234375 1.19580078125 -3.62060546875
-3.136962890625 -0.11083984375 31.14697265625
-0.700439453125 -1.0543212890625 38.853271484375
18.75830078125 -4.52099609375 -21.3115234375
-8.20556640625 -2.009521484375 38.078125
-16.72802734375 -1.521240234375 63.650146484375
24.177734375 2.853759765625 26.983154296875
38.9208984375 -2.257568359375 -4.0107421875
-15.493896484375 -3.1419677734375 -17.866943359375
-0.698486328125 -5.2117919921875 -27.024169921875
-0.056640625 38.2265625 -30.48681640625
-2.19921875 -1.818115234375 42.655517578125
-15.534912109375 -4.8935546875 -29.620361328125
37.66162109375 2.249755859375 15.412109375
-8.2001953125 -1.2755126953125 33.813720703125
-15.929931640625 -5.21240234375 54.7939453125
21.102294921875 2.7181396484375 26.233154296875
-17.401611328125 -4.6044921875 -27.166748046875
-29.366455078125 -2.5469970703125 60.528076171875
6.576416015625 -3.20703125 -15.125244140625
-13.3359375 -3.8046875 -22.072265625
-22.97705078125 0.8851318359375 6.583251953125
33.03076171875 -1.0794677734375 1.4931640625
39.512939453125 -1.1685791015625 1.12451171875
30.999267578125 -3.635986328125 -16.433349609375
-19.966552734375 -5.8668212890625 48.911865234375
-26.95458984375 13.49609375 -26.719970703125
-10.803466796875 -5.3116455078125 52.36669921875
22.7421875 4.7314453125 33.365234375
14.61572265625 2.3231201171875 37.9677734375
-8.01806640625 -0.6224365234375 0.246826171875
-7.060791015625 -4.899658203125 -28.7431640625
-3.34521484375 0.792724609375 26.432373046875
21.17919921875 3.99755859375 14.3486328125
-2.2509765625 35.4632568359375 -33.222900390625
-15.458251953125 0.4259033203125 -8.269287109375
43.01416015625 -2.5137939453125 -6.670166015625
17.566162109375 3.4666748046875 31.582763671875
-1.91748046875 34.21826171875 -35.240966796875
-3.310302734375 36.2689208984375 -34.976806640625
-21.128662109375 -2.61767578125 65.352294921875
-26.493408203125 13.682861328125 -6.078857421875
-19.931640625 -4.6981201171875 -29.588134765625
-25.6669921875 23.3760986328125 -11.41162109375
-1.034912109375 -3.52490234375 -16.9306640625
-6.66796875 0.1158447265625 28.084716796875
-24.198974609375 -3.2330322265625 66.022216796875
-27.755126953125 -0.5054931640625 -25.946044921875
-9.693115234375 35.956787109375 -37.349365234375
-15.777099609375 -4.6026611328125 58.722412109375
-24.256591796875 -4.668212890625 -31.92236328125
25.863525390625 1.99755859375 21.076416015625
15.0537109375 -2.9012451171875 -10.365234375
24.751708984375 -0.94482421875 2.89404296875
46.075439453125 -3.12255859375 -11.7490234375
22.7119140625 0.7470703125 13.367431640625
-17.950927734375 -5.16162109375 54.05322265625
20.89404296875 -0.631591796875 4.4765625
16.1455078125 2.918212890625 35.91357421875
16.262939453125 -3.1646728515625 -13.908203125
27.66943359375 -0.29541015625 6.014892578125
-15.84765625 39.2388916015625 -33.10107421875
16.30517578125 2.6927490234375 25.521240234375
3.447509765625 33.2603759765625 -27.52392578125
25.242431640625 -0.45166015625 5.53076171875
-7.50927734375 41.0526123046875 -30.989013671875
-24.945068359375 10.712890625 -13.408203125
-15.999267578125 -0.491455078125 -0.0634765625
-24.897705078125 32.372314453125 -20.11669921875
29.36865234375 -4.1195068359375 -17.826416015625
-17.048095703125 -3.7744140625 -21.5390625
46.59033203125 -2.010009765625 -3.82568359375
-0.30029296875 31.8243408203125 -29.632568359375
25.893310546875 0.5255126953125 13.968017578125
-3.513427734375 -4.293701171875 -22.468505859375
2.0556640625 -4.14208984375 -20.99755859375
4.2353515625 0.77001953125 49.1142578125
40.93994140625 -3.95654296875 -11.73974609375
23.509521484375 3.610107421875 31.7001953125
12.7275390625 -5.0472412109375 -24.9345703125
23.47607421875 -4.5010986328125 -21.69384765625
7.504150390625 1.7525634765625 33.6220703125
37.353271484375 0.6788330078125 14.036865234375
-12.8935546875 37.432861328125 -34.958251953125
-25.68359375 26.4669189453125 -14.31689453125
18.706298828125 1.6214599609375 15.406005859375
-16.140869140625 41.404052734375 -31.027587890625
-26.669189453125 11.991455078125 -4.765625
-13.356201171875 -5.02734375 -29.574462890625
-22.86572265625 -2.132080078125 -13.48828125
-13.48583984375 0.9539794921875 -7.77685546875
31.7802734375 -3.6494140625 -14.33837890625
3.538818359375 0.8590087890625 12.729248046875
34.108642578125 -1.9886474609375 -5.173828125
-23.998779296875 -4.0343017578125 61.30810546875
-27.645263671875 -2.15185546875 74.375244140625
-4.218994140625 -3.9244384765625 51.4296875
-23.653076171875 -2.9140625 69.02099609375
6.819580078125 2.481689453125 28.29296875
32.572998046875 1.2100830078125 18.150634765625
7.828369140625 -4.1500244140625 -20.95458984375
-5.46826171875 -5.177490234375 -30.436279296875
43.69140625 -1.7139892578125 -0.8857421875
-25.750732421875 -4.32177734375 59.159423828125
-16.452880859375 -5.2518310546875 48.2861328125
42.2646484375 -2.49755859375 -8.7373046875
48.6259765625 -1.6923828125 -12.83203125
6.06787109375 31.1072998046875 -30.62646484375
27.56201171875 0.3487548828125 10.675537109375
14.779541015625 -4.9515380859375 -24.474853515625
-23.197021484375 -0.95849609375 -7.326171875
44.018798828125 -0.4119873046875 8.90283203125
15.168701171875 -4.5780029296875 -22.3359375
-25.72802734375 -0.2607421875 -22.26611328125
-19.236083984375 -2.9320068359375 63.775146484375
-8.31005859375 -4.3968505859375 -24.688720703125
-8.06005859375 3.045166015625 12.30224609375
-16.00390625 -1.7645263671875 74.955078125
-8.754638671875 -3.1729736328125 45.05859375
2.952392578125 -3.7098388671875 -17.971435546875
12.3408203125 0.15185546875 8.657958984375
14.333251953125 2.3438720703125 19.958740234375
-6.02294921875 -0.24365234375 31.966552734375
39.16455078125 -3.7733154296875 -15.4052734375
27.534423828125 -4.3812255859375 -20.646484375
-27.348876953125 -1.83349609375 77.837890625
-1.5654296875 -1.8731689453125 54.554931640625
9.25732421875 1.07861328125 38.38623046875
10.452880859375 0.48193359375 9.9228515625
8.773681640625 -2.6629638671875 -10.18505859375
-28.98291015625 -2.6319580078125 71.444091796875
51.05126953125 4.09765625 0.083740234375
2.662841796875 0.1787109375 7.158203125
-18.009521484375 -4.2044677734375 -24.56005859375
-27.14501953125 -1.9302978515625 -30.9892578125
41.171142578125 -3.75244140625 -15.7294921875
-3.62548828125 -1.3111572265625 -2.936767578125
-6.44384765625 -2.042236328125 -8.418701171875
35.57275390625 -3.375244140625 -13.6728515625
14.842041015625 -0.26513671875 5.2294921875
-5.018310546875 0.227294921875 7.06640625
15.81591796875 -1.812255859375 -4.3388671875
-11.645751953125 -4.79443359375 48.342529296875
4.550048828125 0.24072265625 36.807373046875
12.479736328125 -2.092529296875 -5.736572265625
-25.01171875 35.8731689453125 -22.847412109375
7.44482421875 -0.510498046875 3.318115234375
25.854736328125 -2.515625 -7.6708984375
37.939453125 -0.7664794921875 5.0556640625
14.1376953125 2.7471923828125 24.72705078125
-8.59326171875 -0.1790771484375 29.505859375
-1.48828125 -1.3673095703125 -3.84228515625
26.06982421875 -2.6734619140625 -9.959716796875
-26.577392578125 -2.7020263671875 70.371826171875
46.571044921875 0.192138671875 4.275390625
14.458251953125 -4.170166015625 -18.812255859375
-25.02734375 -2.290771484375 72.84619140625
-25.86669921875 -2.3125 -25.398193359375
6.06298828125 -1.052001953125 -0.324951171875
-23.095458984375 -1.4677734375 -9.70947265625
7.226318359375 0.3656005859375 46.389892578125
22.12060546875 -3.1627197265625 -11.158935546875
-11.945068359375 -4.5662841796875 60.600830078125
-26.602783203125 7.8427734375 -2.224365234375
10.13525390625 1.46630859375 16.97802734375
28.38671875 0.045166015625 8.145751953125
14.947998046875 4.644775390625 39.361572265625
15.67529296875 -0.8614501953125 0.69189453125
-11.507568359375 -3.564697265625 44.837646484375
35.41943359375 -3.9755859375 -16.19287109375
-3.29052734375 41.9129638671875 -31.097412109375
28.6806640625 2.968505859375 25.851318359375
-22.787353515625 -2.0313720703125 73.818603515625
-0.29052734375 -5.0875244140625 -28.975830078125
-13.393310546875 0.927490234375 8.781982421875
-19.108154296875 -0.55615234375 -1.766357421875
8.12890625 -1.9058837890625 -4.88671875
-28.234375 -3.7200927734375 62.1328125
-24.155029296875 -2.26123046875 -18.82421875
2.90625 1.7451171875 27.548828125
20.617431640625 6.37109375 34.4462890625
-11.048095703125 42.742431640625 -29.983642578125
-23.962158203125 -1.4263916015625 76.375
-19.38427734375 -1.5609130859375 -8.349609375
33.605224609375 1.120849609375 16.17578125
7.017578125 1.60791015625 18.12451171875
-18.81396484375 -2.3055419921875 -11.8681640625
-18.115478515625 -3.144287109375 -17.82373046875
-13.808837890625 0.5240478515625 -2.059814453125
-18.042236328125 41.867431640625 -30.763671875
-10.9267578125 -0.8363037109375 -1.955322265625
40.28125 0.1162109375 8.42724609375
24.328125 0.4967041015625 11.864501953125
12.536865234375 2.0325927734375 37.041259765625
21.09765625 3.3931884765625 30.525390625
13.934326171875 2.9869384765625 32.78662109375
-0.5009765625 -0.8851318359375 -0.205078125
22.088623046875 2.719482421875 21.781005859375
4.874755859375 -0.5174560546875 42.709228515625
42.844970703125 1.6494140625 9.791748046875
-10.302978515625 0.147216796875 5.517578125
1.717529296875 -0.581787109375 1.617919921875
23.7294921875 0.30078125 9.537353515625
12.01416015625 1.4901123046875 17.538818359375
-6.150390625 32.8248291015625 -38.482177734375
-11.997314453125 -0.306884765625 2.52783203125
-17.773193359375 0.337646484375 -3.816650390625
-14.465087890625 -5.3040771484375 -31.201904296875
-21.2294921875 40.7457275390625 -27.412841796875
11.716796875 -4.174560546875 -19.673095703125
-8.906494140625 -3.9498291015625 47.78955078125
7.4599609375 -4.8304443359375 -25.19482421875
17.99560546875 5.35986328125 36.859619140625
-13.02197265625 -5.0958251953125 46.96533203125
8.365234375 0.881591796875 13.42724609375
-4.084716796875 0.9765625 11.683349609375
-26.39404296875 13.28515625 -16.011474609375
-6.534912109375 0.4761962890625 8.569091796875
-1.541015625 -3.7227783203125 53.39208984375
1.8994140625 0.172119140625 34.55859375
-27.187255859375 3.5374755859375 2.87158203125
22.5048828125 -1.251708984375 -0.676025390625
5.8173828125 0.9644775390625 35.205810546875
32.004150390625 -1.3458251953125 -0.93212890625
-22.0986328125 -0.8447265625 77.35986328125
26.289794921875 2.3956298828125 24.509765625
-9.74462890625 -4.8992919921875 -28.682861328125
5.848388671875 -1.555419921875 -3.701904296875
2.27001953125 -1.0997314453125 -0.603271484375
12.856689453125 1.802490234375 41.306640625
11.6962890625 1.220947265625 15.503173828125
-3.666015625 35.080078125 -36.45849609375
18.13330078125 -1.7978515625 -3.62744140625
3.003173828125 0.00537109375 38.219482421875
-30.768798828125 -2.7152099609375 70.339111328125
3.01513671875 36.5140380859375 -28.225830078125
5.461181640625 -2.137451171875 -9.625
14.261962890625 -1.1158447265625 -0.988037109375
-4.587890625 -0.56591796875 1.240234375
5.9345703125 -0.00146484375 40.675537109375
33.09228515625 -0.21533203125 8.446044921875
28.53759765625 -2.140869140625 -5.7724609375
-24.768310546875 0.6546630859375 -3.32763671875
-14.17041015625 -4.1611328125 -24.317626953125
-25.744873046875 -2.25537109375 -29.019775390625
-11.67138671875 -5.228271484375 -30.466796875
-30.188232421875 -2.580322265625 62.3408203125
7.586181640625 -1.089599609375 1.0771484375
-22.1318359375 -4.0284423828125 -26.211669921875
7.552978515625 -1.3807373046875 -2.63232421875
-21.024169921875 -3.36328125 -19.20263671875
15.042724609375 1.2081298828125 16.600830078125
-3.7890625 2.766357421875 20.4873046875
-4.005615234375 -3.544921875 49.409912109375
-2.053466796875 -2.1571044921875 -8.51953125
12.446044921875 1.89697265625 19.352294921875
-6.69677734375 -1.2445068359375 34.997314453125
15.951171875 1.7470703125 18.342041015625
-1.503662109375 34.1092529296875 -29.753173828125
19.588134765625 3.0262451171875 27.560546875
-9.048583984375 -5.13427734375 56.188232421875
-3.11962890625 -0.7249755859375 34.4970703125
33.17041015625 -3.8450927734375 -17.1630859375
10.597412109375 -3.3912353515625 -16.16162109375
2.68212890625 0.1510009765625 36.359619140625
49.04931640625 5.76220703125 1.5498046875
-15.2431640625 -1.04248046875 64.71240234375
-11.7490234375 -3.4691162109375 -19.560791015625
2.112060546875 0.21826171875 50.80126953125
-0.539794921875 -1.4593505859375 41.835693359375
0.27880859375 1.185302734375 27.68310546875
-25.652099609375 4.56884765625 2.320556640625
-4.80908203125 1.695068359375 13.367431640625
1.199462890625 34.2935791015625 -27.498046875
-8.43310546875 36.3497314453125 -35.90966796875
9.822509765625 0.919921875 12.1982421875
9.95361328125 -0.0029296875 8.177490234375
-10.955078125 -2.520751953125 -14.124267578125
-7.28369140625 -0.9287109375 -1.454833984375
13.187744140625 -2.8516845703125 -10.17333984375
-4.427978515625 -4.2857666015625 -25.48095703125
-10.30224609375 -0.748291015625 32.218994140625
-8.685791015625 -1.9859619140625 -9.240478515625
4.314453125 -1.5181884765625 -5.117919921875
9.414306640625 0.5159912109375 45.369140625
-26.463623046875 -3.4952392578125 65.0390625
-5.32177734375 -3.384033203125 47.985107421875
-1.609619140625 33.732177734375 -31.6962890625
-7.65087890625 -5.2225341796875 58.199951171875
19.704833984375 -2.80908203125 -12.611328125
-23.2431640625 -0.0224609375 4.112548828125
-8.74853515625 -0.31787109375 1.939453125
23.53564453125 -3.6600341796875 -16.026611328125
-16.358642578125 1.1123046875 64.919921875
-11.3583984375 41.18310546875 -31.615966796875
11.118896484375 2.947509765625 26.53369140625
-0.94482421875 -2.1773681640625 45.88330078125
3.411865234375 -4.88671875 -28.20263671875
17.12353515625 0.8157958984375 11.45068359375
-22.04443359375 -0.6131591796875 7.1796875
44.692138671875 -1.445068359375 1.553955078125
-6.273193359375 -0.374267578125 29.833251953125
-23.76953125 -4.9342041015625 53.891357421875
10.810302734375 1.10205078125 41.10009765625
-4.06494140625 -1.3719482421875 39.803955078125
-3.555908203125 2.05517578125 22.595458984375
-21.367431640625 -5.130615234375 -33.7314453125
26.668212890625 0.9302978515625 15.9462890625
21.0078125 -3.8243408203125 -18.320556640625
-25.338134765625 -0.0447998046875 -7.197265625
44.8671875 -2.18896484375 -4.92041015625
-19.021728515625 42.80810546875 -29.354736328125
0.0751953125 36.46337890625 -29.9384765625
5.633056640625 -0.940673828125 44.421630859375
38.510009765625 -0.6165771484375 -12.683349609375
-4.866455078125 -5.033935546875 -28.6962890625
-5.226806640625 -4.65087890625 56.614013671875
24.0732421875 1.34619140625 16.812255859375
48.0361328125 -1.8262939453125 -9.11474609375
-5.490478515625 0.7313232421875 10.061767578125
16.965087890625 1.3048095703125 16.23291015625
20.140869140625 0.4581298828125 10.593994140625
-17.1630859375 0.03662109375 62.335693359375
-10.920654296875 -2.047119140625 67.7509765625
4.27197265625 38.1683349609375 -29.840087890625
-20.894287109375 -4.24853515625 61.30322265625
17.75048828125 -1.0587158203125 0.018310546875
-25.2666015625 29.6671142578125 -17.239501953125
23.2705078125 3.272705078125 19.565185546875
-27.2099609375 1.3646240234375 -8.732666015625
29.05126953125 2.1956787109375 23.354248046875
32.234375 1.63671875 20.534423828125
-3.76220703125 -4.438720703125 55.311279296875
30.93115234375 3.85498046875 23.39794921875
17.9990234375 2.755126953125 19.601318359375
-16.19091796875 -2.5272216796875 -14.049072265625
44.89501953125 -3.0888671875 -10.36767578125
-27.677490234375 2.365234375 -3.277099609375
22.754638671875 -2.138916015625 -5.860107421875
-0.877197265625 -4.672607421875 -24.501220703125
49.314208984375 1.8319091796875 1.180908203125
1.0380859375 -2.48583984375 49.240234375
29.972900390625 -0.28076171875 6.723876953125
-5.7509765625 -2.4268798828125 -10.048828125
40.712890625 -2.0084228515625 -3.919921875
-25.509521484375 -2.236328125 -21.91650390625
8.964111328125 2.0460205078125 20.355712890625
3.89208984375 -1.5621337890625 48.591796875
-21.23681640625 -0.7177734375 -3.8076171875
-5.658935546875 39.363037109375 -33.412109375
0.123046875 1.9063720703125 20.130126953125
-25.8310546875 -3.654052734375 62.807373046875
-16.6201171875 0.656494140625 7.430419921875
-2.0322265625 38.0789794921875 -33.429931640625
-22.654541015625 -3.5400390625 64.33154296875
-19.709716796875 -2.4952392578125 72.9404296875
4.753173828125 35.3194580078125 -28.141845703125
29.90576171875 -3.146240234375 -11.400634765625
-1.431396484375 1.751953125 14.3515625
17.2509765625 -0.46826171875 3.852783203125
-22.427001953125 -3.8157958984375 62.142578125
-3.656494140625 -4.6136474609375 -27.317138671875
-9.619384765625 44.0023193359375 -29.987060546875
-21.16552734375 -3.368408203125 -20.9892578125
26.991943359375 2.7210693359375 26.542236328125
-26.593017578125 10.427978515625 -1.975830078125
47.743896484375 -2.7264404296875 -17.52783203125
1.451171875 -2.396484375 -9.540283203125
-27.380615234375 5.608642578125 1.5126953125
-26.5126953125 12.5877685546875 -22.357666015625
38.63623046875 -0.4224853515625 7.203125
12.2451171875 2.6492919921875 25.075927734375
0.958740234375 -0.2762451171875 3.3125
2.057861328125 1.1748046875 14.103759765625
30.2177734375 1.1339111328125 15.066162109375
-3.95263671875 -2.3056640625 43.662109375
-7.26171875 0.774658203125 10.221923828125
11.105712890625 -4.7015380859375 -24.295166015625
-14.868896484375 40.2767333984375 -32.041259765625
35.0009765625 -0.621337890625 5.56005859375
-25.71142578125 0.3948974609375 -11.489501953125
4.512939453125 -2.9334716796875 -15.423583984375
-23.128662109375 -4.2705078125 58.55224609375
15.056884765625 -2.5301513671875 -8.43896484375
15.956298828125 0.0640869140625 7.485595703125
13.073486328125 -0.1494140625 5.287109375
2.77294921875 2.0540771484375 19.9326171875
19.650390625 3.68017578125 34.19384765625
38.79150390625 -1.147705078125 -7.969970703125
-4.512939453125 -2.6104736328125 -11.90087890625
-17.916259765625 -5.21728515625 -32.466796875
20.94775390625 0.861083984375 13.416748046875
-7.087646484375 -3.4053955078125 47.4501953125
12.845458984375 -3.8282470703125 -18.1865234375
48.451171875 4.284423828125 2.385986328125
-11.85400390625 -3.70068359375 65.39306640625
-1.82373046875 1.8902587890625 17.954345703125
-14.458984375 -2.7823486328125 68.464599609375
-1.654541015625 -4.345458984375 -22.677490234375
-29.759521484375 -3.4124755859375 63.8310546875
-22.684326171875 -0.968505859375 -5.471435546875
-7.9921875 -5.3707275390625 54.802734375
-14.884033203125 -1.239990234375 67.174560546875
-16.490478515625 1.2423095703125 -6.748779296875
-14.530029296875 0.3948974609375 4.526123046875
-6.4013671875 -4.1385498046875 -21.894775390625
39.918212890625 0.982421875 12.623046875
-8.09521484375 -1.852783203125 -7.593017578125
-20.351318359375 1.45458984375 6.4013671875
18.701416015625 -4.9764404296875 -23.183837890625
17.967041015625 3.446533203125 33.28857421875
5.52197265625 -0.4666748046875 47.986083984375
-10.049560546875 -4.2022705078125 -24.7216796875
-5.6181640625 38.1690673828125 -34.744140625
-16.159912109375 -3.26708984375 64.644287109375
-12.1494140625 -5.3948974609375 53.49658203125
-17.501953125 -5.2545166015625 52.23486328125
-26.305908203125 10.4464111328125 -28.657470703125
-1.340087890625 -2.107177734375 -10.113525390625
3.998291015625 1.6429443359375 29.62060546875
-5.16943359375 -0.122802734375 3.55322265625
2.439208984375 33.5064697265625 -32.580322265625
9.650634765625 1.412353515625 15.308837890625
26.250244140625 4.6907958984375 29.129638671875
32.391845703125 -2.1656494140625 -5.380126953125
-7.45068359375 37.394287109375 -34.843017578125
-6.284423828125 -2.490966796875 -11.82568359375
1.246337890625 31.1434326171875 -32.2421875
-1.771484375 0.8533935546875 9.4130859375
-9.60009765625 -2.5068359375 39.22900390625
9.33837890625 -0.845703125 2.026123046875
4.031494140625 -4.493408203125 -21.486083984375
-8.52685546875 0.1029052734375 5.350830078125
-12.9130859375 42.3507080078125 -29.9228515625
-10.505859375 -2.302001953125 -10.081298828125
8.459716796875 -3.9376220703125 -19.364501953125
13.015869140625 2.358642578125 23.478271484375
-16.1318359375 0.6427001953125 9.218994140625
18.2119140625 -3.51953125 -16.18505859375
27.657470703125 -3.84765625 -17.07666015625
0.80810546875 -0.34716796875 35.86376953125
49.0966796875 0.3572998046875 2.155517578125
-1.94189453125 2.02587890625 20.039794921875
1.30712890625 33.1873779296875 -28.941162109375
38.381591796875 -1.139892578125 -0.163330078125
29.08984375 -1.198974609375 2.186279296875
-8.400146484375 -3.5574951171875 -19.209228515625
39.579833984375 -0.660888671875 4.519287109375
-1.0166015625 41.017822265625 -32.21533203125
-23.903564453125 -3.90625 -26.12158203125
2.200927734375 -4.68212890625 -24.414794921875
-12.009033203125 -3.1641845703125 42.528564453125
9.752685546875 -4.510498046875 -23.27099609375
3.37646484375 -0.7674560546875 0.81591796875
-4.708251953125 -4.2686767578125 -23.796630859375
-3.822509765625 -2.4031982421875 -9.478759765625
17.747314453125 -0.6966552734375 1.89599609375
-24.15478515625 -4.28955078125 -29.926025390625
-28.473388671875 -2.681396484375 76.877685546875
22.5517578125 -0.8167724609375 1.09619140625
1.140625 1.611572265625 17.025146484375
4.67041015625 -0.2977294921875 3.70751953125
37.4697265625 0.3929443359375 12.089599609375
47.659912109375 -2.2659912109375 -11.101318359375
-28.45263671875 -1.0589599609375 76.261474609375
29.6240234375 -0.6317138671875 3.862548828125
-7.158203125 -1.905517578125 36.744384765625
-26.43798828125 16.6461181640625 -8.03466796875
44.32373046875 -3.30126953125 -11.953369140625
9.927734375 -1.6591796875 -3.060791015625
-7.39306640625 33.5843505859375 -37.6181640625
8.157958984375 -3.4796142578125 -17.6591796875
9.119873046875 -4.7252197265625 -24.87744140625
-15.905517578125 -4.7630615234375 45.463623046875
31.57373046875 0.953125 16.655517578125
-3.239990234375 -1.9049072265625 -6.799560546875
14.439208984375 -3.1099853515625 -11.92626953125
39.1552734375 -0.337158203125 -10.31591796875
-10.133544921875 -3.0758056640625 43.715576171875
9.661376953125 -1.2156982421875 -0.56494140625
-12.027587890625 -5.112548828125 56.595703125
34.710693359375 -2.601806640625 -10.034423828125
-11.281982421875 -2.4619140625 39.348388671875
-14.60205078125 -1.8349609375 -10.55712890625
11.765869140625 -4.48291015625 -21.775634765625
22.821044921875 4.5179443359375 16.37841796875
22.6875 -4.0992431640625 -19.983642578125
8.460693359375 1.6478271484375 16.91650390625
33.588623046875 -3.3939208984375 -12.4521484375
-14.87060546875 -2.638671875 -15.14697265625
-25.806884765625 0.4686279296875 -9.134521484375
-16.3486328125 -2.53076171875 70.78564453125
28.07763671875 0.476318359375 12.272216796875
25.627685546875 -4.3248291015625 -19.522705078125
27.501708984375 -2.41064453125 -7.34912109375
-12.394287109375 40.057861328125 -32.548828125
10.720947265625 -3.3145751953125 -14.488037109375
18.54345703125 -2.84814453125 -11.126708984375
-16.262939453125 -5.1793212890625 -31.105712890625
4.40576171875 2.7601318359375 25.47705078125
-9.55029296875 41.016357421875 -31.587158203125
15.728759765625 -4.435546875 -20.612548828125
-1.8408203125 -3.0704345703125 50.027587890625
-22.057373046875 -2.9654541015625 -17.680908203125
-4.280517578125 -3.968994140625 -20.65771484375
-12.88671875 -5.32373046875 51.712646484375
-5.802978515625 -1.8385009765625 -6.887939453125
-1.73681640625 -0.3515625 2.588623046875
40.644287109375 0.103271484375 10.26708984375
22.04443359375 -4.7652587890625 -22.544921875
-24.492919921875 2.41015625 3.35009765625
-3.001953125 -2.9466552734375 -13.390625
8.014892578125 2.0230712890625 31.787841796875
33.0380859375 -1.0799560546875 3.221923828125
-29.96044921875 -2.156005859375 73.625244140625
-16.784912109375 1.1746826171875 -5.044921875
2.92529296875 -0.540283203125 2.763427734375
-16.676025390625 -4.3211669921875 -25.69580078125
-6.39453125 -3.1612548828125 -16.688720703125
24.8994140625 -3.85205078125 -17.9423828125
17.155517578125 -4.5543212890625 -21.75341796875
2.10546875 -3.088134765625 -15.006591796875
44.345947265625 -1.8787841796875 -3.013671875
30.001708984375 -2.6273193359375 -9.690673828125
41.529052734375 -0.6368408203125 5.095947265625
-10.766845703125 -4.486083984375 -26.194580078125
13.1240234375 3.4425048828125 29.419189453125
31.138427734375 0.1160888671875 11.413818359375
5.726806640625 -2.9578857421875 -13.2236328125
11.181396484375 2.780517578125 31.489990234375
14.19140625 -1.91650390625 -4.6591796875
27.49951171875 -3.6124267578125 -14.862060546875
2.18310546875 -2.7149658203125 -12.18359375
-23.930419921875 -3.3756103515625 -22.73388671875
30.123046875 -1.29833984375 -0.75244140625
-0.588134765625 -0.2437744140625 34.478271484375
17.70849609375 -4.03173828125 -18.052490234375
26.11865234375 -3.42431640625 -13.86083984375
9.96435546875 -0.287353515625 5.3828125
31.162841796875 -0.2392578125 7.873779296875
1.466064453125 36.0355224609375 -27.89453125
13.359375 1.390380859375 16.53955078125
16.052001953125 -4.1368408203125 -18.371826171875
-21.2236328125 -2.391357421875 -13.330810546875
-15.338134765625 -3.8992919921875 -22.525146484375
-32.36767578125 -2.3564453125 70.553955078125
-26.15771484375 -2.404541015625 -32.446044921875
-25.2998046875 1.583740234375 2.16015625
-0.03515625 0.5655517578125 31.72998046875
-8.854736328125 38.3607177734375 -33.560546875
16.458984375 -2.272216796875 -7.610107421875
29.022705078125 -1.63720703125 -3.07177734375
28.09765625 -3.4005126953125 -13.279052734375
4.5576171875 0.2025146484375 7.721923828125
-18.682861328125 -4.415771484375 -26.148193359375
30.70654296875 -1.900390625 -3.783935546875
28.737060546875 1.5126953125 18.822265625
-25.64453125 0.176513671875 -17.0146484375
40.08154296875 -0.9639892578125 2.65673828125
-13.467529296875 -2.886474609375 -13.362060546875
10.93359375 -2.492431640625 -7.204833984375
37.48779296875 -1.2642822265625 1.53076171875
10.81982421875 1.7249755859375 19.13720703125
8.9912109375 -4.8060302734375 -26.59619140625
-24.38037109375 -0.93017578125 -8.59619140625
20.79638671875 -3.2845458984375 -14.0244140625
-13.35302734375 2.754638671875 -6.861572265625
15.111328125 3.0184326171875 34.64306640625
43.62353515625 -0.90576171875 2.806884765625
33.820068359375 0.5506591796875 13.1416015625
12.301513671875 -3.2813720703125 -14.050048828125
-3.699951171875 -4.254638671875 53.5927734375
0.0283203125 -2.33251953125 47.194580078125
-0.614501953125 -1.90087890625 -6.826171875
19.528076171875 -1.5413818359375 -2.803466796875
38.7763671875 -2.0418701171875 -13.448486328125
21.2490234375 3.1995849609375 15.81005859375
44.60546875 -3.919189453125 -16.15673828125
-17.728759765625 0.3323974609375 6.047119140625
36.646484375 -0.08544921875 8.492431640625
9.503173828125 2.16748046875 21.897216796875
-2.117431640625 36.9130859375 -32.283203125
-12.90478515625 -5.22998046875 55.09912109375
12.381591796875 -1.4326171875 -3.56396484375
-25.983642578125 1.88916015625 -0.23583984375
-26.648681640625 -2.7701416015625 -34.596923828125
31.67431640625 -0.1097412109375 9.485107421875
-25.96630859375 -3.470703125 -37.55712890625
-19.8203125 -0.038818359375 1.98876953125
18.093994140625 2.3092041015625 23.617919921875
-26.01123046875 -0.768798828125 -24.886474609375
16.36181640625 -1.31396484375 -0.801025390625
-18.583984375 -6.5654296875 48.397705078125
21.981201171875 -0.2989501953125 5.893798828125
36.4853515625 -1.093505859375 3.485595703125
8.056640625 -0.3111572265625 4.816162109375
7.300048828125 0.4429931640625 38.851806640625
1.57958984375 -0.077880859375 4.8056640625
20.93310546875 0.1561279296875 8.07373046875
-14.91357421875 0.543701171875 7.3759765625
-26.93310546875 9.9837646484375 -16.065673828125
-12.244384765625 0.8974609375 10.0087890625
-14.701171875 -5.4576416015625 -32.802978515625
33.870361328125 -1.832763671875 -2.029052734375
1.794677734375 1.775634765625 26.36376953125
-13.655029296875 -4.7044677734375 -26.682373046875
-26.869384765625 4.9375 -6.05126953125
26.44970703125 -2.307861328125 -6.11669921875
34.890380859375 -0.3306884765625 7.539306640625
-2.231689453125 0.7635498046875 27.613037109375
9.716064453125 0.72265625 39.90087890625
7.849853515625 -2.12109375 -7.157958984375
-26.427978515625 9.5098876953125 -3.52099609375
11.2548828125 -0.822021484375 2.594482421875
-21.17431640625 -2.0115966796875 73.66015625
6.124755859375 -0.6927490234375 2.395751953125
38.83447265625 0.2176513671875 11.167236328125
6.960205078125 -0.355712890625 6.211181640625
31.492431640625 -0.677978515625 3.689697265625
-7.73876953125 -4.4825439453125 51.954345703125
33.162841796875 -3.0072021484375 -10.636474609375
-10.4013671875 -1.95849609375 35.78857421875
35.960693359375 -1.665283203125 -0.807861328125
11.325927734375 -0.392578125 4.341064453125
-27.041015625 -3.07666015625 68.840576171875
36.70361328125 -2.1273193359375 -4.081787109375
41.53759765625 -2.400390625 -5.5703125
-1.927734375 3.242919921875 14.71875
22.65185546875 1.0263671875 16.12060546875
11.997314453125 2.330322265625 34.83154296875
14.809814453125 3.33935546875 28.59228515625
2.87255859375 -2.4371337890625 -10.748779296875
2.52685546875 -1.991455078125 49.60791015625
-3.710693359375 -3.7105712890625 56.94140625
-6.18115234375 -4.322265625 52.9033203125
-4.071533203125 -3.147216796875 -15.976806640625
16.222900390625 2.2852783203125 23.058349609375
18.554443359375 -2.104736328125 -6.38818359375
-11.09423828125 -0.9053955078125 -3.554931640625
-25.9541015625 -3.0555419921875 66.50146484375
-25.96484375 1.824951171875 -3.383544921875
15.332275390625 2.1729736328125 21.3828125
-20.646728515625 -1.700927734375 76.597412109375
-19.6572265625 -3.4063720703125 -20.4365234375
-0.9482421875 -2.7811279296875 -13.0537109375
-4.517822265625 -2.7481689453125 46.43310546875
-18.501708984375 0.5655517578125 2.94140625
-4.25048828125 1.0943603515625 24.838134765625
6.02197265625 0.6815185546875 37.273681640625
-12.621337890625 0.9296875 -5.77099609375
-13.569580078125 -0.409423828125 2.212158203125
4.517578125 -1.0850830078125 -0.757080078125
-0.14404296875 2.3262939453125 21.65576171875
-13.414794921875 -4.39208984375 61.21923828125
-5.164306640625 -1.635498046875 -5.362548828125
24.097412109375 2.1134033203125 20.300537109375
-7.6630859375 -1.4993896484375 -5.567138671875
-6.726318359375 -4.2960205078125 -25.285400390625
13.24169921875 1.939453125 38.94140625
-22.40771484375 -5.0264892578125 55.186767578125
-2.574951171875 1.360107421875 13.085205078125
21.16796875 3.1234130859375 28.681640625
33.6142578125 -0.8768310546875 4.74072265625
-24.244384765625 -1.927490234375 74.481689453125
-23.24267578125 -2.4036865234375 72.298583984375
-1.781005859375 -0.708740234375 0.734130859375
-22.91552734375 -4.3819580078125 -27.557861328125
33.38427734375 -1.526611328125 -0.148681640625
-21.976806640625 -5.5081787109375 53.330078125
-7.71240234375 -1.27880859375 -3.459716796875
-9.721435546875 0.2734375 7.102783203125
-10.47216796875 -1.35400390625 -5.04443359375
-9.187744140625 0.681640625 9.771484375
19.247802734375 -1.096435546875 0.56689453125
32.251953125 -0.6983642578125 5.680908203125
-20.048095703125 0.391357421875 3.575439453125
-19.970947265625 -2.5726318359375 -14.3056640625
-3.898681640625 -0.9422607421875 -0.346923828125
15.7822265625 0.9150390625 13.302001953125
27.046875 1.6920166015625 19.5810546875
-2.4013671875 3.8060302734375 16.738525390625
-22.106201171875 -5.41748046875 -35.22705078125
4.1484375 1.05322265625 14.189208984375
4.23486328125 32.7333984375 -31.500732421875
37.91552734375 -2.086181640625 -5.547607421875
-6.99462890625 1.32763671875 12.524658203125
38.515625 -0.1324462890625 9.177490234375
-17.9736328125 -2.1343994140625 62.884033203125
-0.1337890625 35.137939453125 -28.5498046875
-8.566162109375 -3.6343994140625 -20.886962890625
-27.5625 -3.8179931640625 59.7939453125
-2.459716796875 0.353271484375 29.791748046875
-19.51953125 -3.401123046875 -18.6513671875
34.4775390625 0.0338134765625 11.796875
-19.2509765625 -4.914306640625 56.02392578125
-0.037353515625 0.3865966796875 8.373291015625
12.733154296875 -3.5946044921875 -15.982421875
3.9853515625 -0.1558837890625 39.564208984375
-0.158935546875 -1.18408203125 -2.91259765625
6.108154296875 -3.9517822265625 -20.08349609375
-12.77978515625 -4.94921875 58.181884765625
7.512451171875 2.619384765625 25.16845703125
8.855712890625 0.4683837890625 41.557861328125
36.626953125 -2.6551513671875 -12.026123046875
-20.74755859375 -5.0101318359375 54.9990234375
1.749755859375 1.8031005859375 18.467529296875
-8.763427734375 -5.0091552734375 -29.979736328125
4.4736328125 0.4156494140625 9.76708984375
7.479736328125 2.356201171875 21.7001953125
-21.376953125 -5.68310546875 50.283447265625
-18.706787109375 -0.9998779296875 -5.813232421875
-26.12255859375 0.2611083984375 -19.046630859375
18.662841796875 0.4952392578125 10.05224609375
-0.037841796875 -2.712646484375 52.169677734375
22.29443359375 -0.0220947265625 8.8388671875
-27.639404296875 1.7989501953125 -5.519775390625
19.901611328125 -2.28759765625 -7.36083984375
2.46484375 1.5426025390625 29.301513671875
