-42.41650390625 -14.1417236328125 -90.62744140625
99.631103515625 77.3289794921875 -57.8232421875
98.606201171875 109.45166015625 -41.4423828125
-7.827392578125 37.0869140625 -55.275634765625
52.967529296875 21.731201171875 -71.5263671875
87.483642578125 66.5738525390625 -51.282470703125
-70.147705078125 69.9830322265625 -40.1318359375
22.439208984375 83.2275390625 -15.1728515625
-15.31982421875 12.0191650390625 -88.87744140625
-29.04833984375 99.7208251953125 15.7998046875
55.129638671875 65.8006591796875 -29.706787109375
-46.534912109375 -10.0494384765625 -70.8095703125
1.087646484375 -16.1229248046875 -65.842529296875
61.12646484375 72.8021240234375 117.175048828125
36.347900390625 84.4742431640625 45.112548828125
2.173828125 83.06591796875 38.837646484375
-58.741455078125 -6.5787353515625 -76.388916015625
33.849365234375 -13.9461669921875 -98.823486328125
76.21484375 67.5635986328125 99.640625
30.5302734375 44.9710693359375 -25.905517578125
-55.38037109375 83.5904541015625 -32.59326171875
47.837890625 74.880126953125 -23.421142578125
117.251708984375 29.9044189453125 -57.1103515625
0.29052734375 10.4730224609375 -89.509033203125
9.0029296875 39.16943359375 -48.69140625
-29.257568359375 48.08544921875 -45.842041015625
-17.958984375 -16.128662109375 -102.955322265625
103.329345703125 102.6798095703125 -49.865234375
-16.7197265625 84.7623291015625 -18.64892578125
-39.052734375 -19.455322265625 -98.693603515625
-26.07080078125 84.8077392578125 -1.191162109375
64.7119140625 84.2806396484375 -2.125732421875
29.99755859375 80.0772705078125 30.427734375
52.745361328125 47.9293212890625 -45.458740234375
35.739501953125 63.4600830078125 65.7109375
32.782470703125 -13.725830078125 -84.388916015625
-48.36962890625 45.802978515625 -52.39453125
63.66748046875 64.96044921875 117.24365234375
-20.81396484375 65.4268798828125 72.898193359375
-12.918212890625 28.1107177734375 -62.86865234375
86.830810546875 96.8572998046875 54.974365234375
-49.97802734375 99.8653564453125 -25.751220703125
62.1025390625 60.568603515625 125.228271484375
-113.88232421875 74.2091064453125 78.60791015625
-7.98388671875 85.175537109375 -5.73095703125
68.040283203125 -5.6063232421875 -70.27587890625
-44.616943359375 89.7349853515625 -22.144775390625
14.69580078125 -10.7178955078125 -97.501220703125
-4.884521484375 11.88134765625 -85.78173828125
-73.29296875 -16.712646484375 -39.60302734375
-69.481201171875 -22.85791015625 -56.298095703125
55.2421875 84.5333251953125 25.25390625
-10.12451171875 69.5023193359375 78.644775390625
-0.39501953125 68.3798828125 78.3671875
-67.1875 64.5531005859375 -43.81396484375
21.55078125 65.20166015625 -27.7470703125
-6.940673828125 84.0994873046875 2.6943359375
90.078125 48.582763671875 40.260009765625
-46.89453125 84.49169921875 -26.0966796875
64.513427734375 -16.380859375 -74.54736328125
-22.656494140625 77.928466796875 -22.132568359375
7.836669921875 19.0968017578125 -74.400146484375
-54.72998046875 58.6131591796875 -44.056884765625
-30.273193359375 -19.964111328125 -64.631591796875
48.947998046875 -17.5313720703125 -91.720947265625
-62.507568359375 -22.5648193359375 -105.6474609375
10.436767578125 63.36181640625 66.12744140625
-10.9765625 64.211181640625 66.417236328125
26.79248046875 -11.78515625 -94.131591796875
-70.36572265625 94.6490478515625 -34.551513671875
-52.380126953125 106.5179443359375 -26.484619140625
-50.256103515625 -20.4901123046875 -51.934814453125
13.270751953125 83.224609375 42.533447265625
-60.215576171875 73.9180908203125 -35.61328125
-28.6083984375 85.2769775390625 -13.343017578125
22.1484375 -13.2626953125 -73.139892578125
-69.99853515625 73.5357666015625 60.9814453125
-32.6572265625 71.3812255859375 -25.558837890625
-43.37646484375 -10.1224365234375 -110.05322265625
13.33984375 9.630859375 -88.97607421875
-14.698974609375 -9.9998779296875 -97.57763671875
21.44921875 62.279541015625 67.18896484375
-58.38330078125 -19.554931640625 -47.408203125
14.57568359375 81.433349609375 -3.543701171875
-24.611572265625 72.6375732421875 -25.021728515625
23.063232421875 65.6475830078125 76.55126953125
23.53515625 73.2491455078125 19.594482421875
10.691162109375 41.766845703125 -32.676025390625
58.351318359375 21.2698974609375 -64.8955078125
36.90771484375 79.94482421875 0.02734375
36.096923828125 74.8634033203125 16.857177734375
10.880615234375 83.9749755859375 -7.990234375
79.30810546875 87.548583984375 51.183349609375
34.275146484375 70.8778076171875 -25.112548828125
94.59228515625 93.368408203125 46.475341796875
-22.291748046875 68.8609619140625 77.791015625
-54.2119140625 93.9603271484375 -29.082763671875
-38.667236328125 -8.305908203125 -78.794921875
-10.10107421875 83.4251708984375 11.93408203125
-64.29052734375 -10.7757568359375 -97.424560546875
-85.00927734375 -15.9832763671875 -42.6611328125
1.28857421875 63.83203125 73.605224609375
59.513427734375 78.436279296875 -21.068115234375
-42.056640625 40.621337890625 -54.068359375
48.92724609375 81.5303955078125 -15.9296875
101.654052734375 82.9571533203125 -56.604248046875
80.842529296875 87.521484375 57.289794921875
44.4111328125 -16.4251708984375 -81.72705078125
-38.0537109375 78.890869140625 -21.282958984375
11.998291015625 73.8885498046875 20.445068359375
60.14501953125 73.29736328125 69.840087890625
-38.465087890625 88.4775390625 2.361083984375
81.22705078125 62.541259765625 -52.8740234375
-122.644775390625 71.8946533203125 76.648193359375
37.4150390625 79.625244140625 8.714111328125
8.9130859375 27.4549560546875 -64.4013671875
8.956787109375 -15.127685546875 -69.47607421875
77.193115234375 -14.262451171875 -75.64892578125
-23.36181640625 34.5816650390625 -57.940185546875
-24.0205078125 84.3824462890625 10.842529296875
-45.81005859375 50.0576171875 -47.663330078125
59.142822265625 73.6942138671875 55.631103515625
64.99560546875 47.9254150390625 -48.9658203125
63.80078125 -18.565185546875 -86.655517578125
-36.64794921875 46.4893798828125 -47.121826171875
3.88720703125 -10.3890380859375 -93.294921875
-53.90380859375 77.82861328125 -33.414794921875
49.376953125 27.203125 -64.5185546875
-60.291259765625 -19.1016845703125 -56.14794921875
51.9013671875 69.2523193359375 59.48828125
14.51806640625 6.4659423828125 -100.286865234375
41.97216796875 74.09326171875 -23.639404296875
-64.270751953125 92.8714599609375 -32.635498046875
-91.477294921875 69.1912841796875 73.99267578125
-22.36474609375 -12.635498046875 -111.2666015625
-72.438232421875 90.7236328125 -38.858154296875
-22.2900390625 85.2335205078125 22.042236328125
63.026123046875 83.606201171875 17.78173828125
59.9619140625 65.3131103515625 -33.969970703125
-58.675048828125 106.60693359375 -27.4541015625
80.119140625 106.4232177734375 -41.42822265625
21.458984375 80.6241455078125 35.969482421875
-31.494140625 63.8226318359375 -31.101318359375
-73.488037109375 -14.030517578125 -53.8876953125
-41.000732421875 31.622802734375 -61.777099609375
-65.006591796875 67.5556640625 65.8564453125
48.058349609375 84.552978515625 36.632568359375
86.966552734375 72.1444091796875 -49.550537109375
32.160888671875 83.80224609375 41.0146484375
57.4013671875 83.5548095703125 -3.36328125
75.134765625 22.227294921875 -77.300048828125
13.948974609375 78.146484375 25.20947265625
68.164794921875 58.5955810546875 126.664306640625
-74.64111328125 -5.3203125 -67.214599609375
-13.635986328125 85.112548828125 -7.12548828125
67.24560546875 67.5904541015625 -44.465087890625
-8.230224609375 84.701171875 -16.75830078125
45.92626953125 65.895263671875 63.13671875
77.551025390625 15.9786376953125 -63.7880859375
2.498046875 81.0028076171875 18.080322265625
-33.88720703125 -8.76708984375 -88.150146484375
19.8076171875 74.0047607421875 10.986083984375
-41.66650390625 69.0076904296875 -27.684814453125
-24.755615234375 43.171630859375 -49.98583984375
30.025390625 74.837646484375 5.064208984375
90.36572265625 108.69140625 -42.691162109375
-58.51953125 48.266357421875 -56.847412109375
47.04443359375 47.322509765625 -45.19287109375
-11.70556640625 71.2315673828125 -25.2431640625
32.741943359375 35.96875 -55.983154296875
-23.105224609375 98.355712890625 20.876953125
56.545166015625 18.7589111328125 -76.114013671875
-42.729736328125 -17.1097412109375 -65.931884765625
-33.568603515625 84.0625 -6.731201171875
-53.234130859375 -9.7218017578125 -99.963134765625
-67.167724609375 -6.638671875 -71.736328125
75.000244140625 61.71240234375 108.4375
29.49365234375 10.4964599609375 -90.603515625
5.708984375 36.4361572265625 -44.955078125
48.1748046875 83.9412841796875 -9.2216796875
-51.75732421875 66.6444091796875 66.8955078125
-4.9697265625 -10.0509033203125 -95.053955078125
88.016845703125 98.892333984375 -46.524169921875
65.773193359375 19.7164306640625 -75.707275390625
-4.664794921875 -16.356689453125 -109.0927734375
19.9345703125 37.5594482421875 -45.97802734375
88.177978515625 18.0594482421875 -59.126953125
-65.7900390625 -21.4974365234375 -100.692138671875
-22.33935546875 58.4278564453125 -35.824462890625
15.661376953125 48.3629150390625 -25.310302734375
-40.987060546875 -22.125244140625 -54.5107421875
18.0146484375 -13.9423828125 -68.783935546875
29.8974609375 29.7427978515625 -61.33349609375
-61.488525390625 -17.43603515625 -88.335693359375
-91.7421875 -11.0167236328125 -26.73046875
11.4111328125 60.47021484375 -27.745849609375
78.83642578125 6.2091064453125 66.751953125
-50.990234375 53.0859375 -49.032958984375
42.483642578125 -11.59130859375 -71.965576171875
-11.331787109375 84.3099365234375 27.850341796875
-51.567138671875 38.2314453125 -61.568359375
-51.202880859375 -7.4437255859375 -79.77783203125
80.0810546875 81.514404296875 -47.34326171875
71.783935546875 58.410400390625 117.287109375
34.246337890625 81.9189453125 -17.857421875
-115.7099609375 70.09130859375 67.628173828125
-43.49169921875 103.447021484375 -19.778564453125
-90.592041015625 70.814453125 63.1318359375
-12.69580078125 87.1036376953125 3.486328125
70.944091796875 84.2386474609375 49.824462890625
-47.8046875 66.3997802734375 -34.5322265625
27.201416015625 34.6387939453125 -38.620849609375
67.601318359375 84.3387451171875 -10.92529296875
-94.05029296875 72.47998046875 77.998779296875
94.30029296875 1.468505859375 42.113037109375
5.435546875 -12.03515625 -108.58447265625
48.41162109375 66.3465576171875 70.276123046875
39.09228515625 10.1094970703125 -88.77783203125
53.46728515625 56.815185546875 -37.667236328125
19.86767578125 25.9610595703125 -64.988525390625
-35.285888671875 -19.888427734375 -61.081298828125
55.723876953125 28.655029296875 -58.082275390625
1.72021484375 -12.8682861328125 -104.453125
90.436279296875 79.16259765625 -51.2578125
75.059814453125 19.0692138671875 -53.238525390625
77.197265625 85.1326904296875 68.326171875
66.328369140625 70.6947021484375 -39.99560546875
-49.4443359375 69.2142333984375 76.328857421875
-81.78466796875 -16.135986328125 -35.406982421875
-76.635986328125 -19.2552490234375 -44.64306640625
67.9619140625 17.988525390625 -59.236572265625
3.15087890625 21.1903076171875 -69.969482421875
88.55224609375 93.170654296875 -47.39501953125
94.801025390625 94.43896484375 -54.476806640625
103.213134765625 106.98291015625 -44.92333984375
63.5048828125 86.8526611328125 5.05224609375
78.230224609375 89.8812255859375 -46.301513671875
-63.15234375 87.5218505859375 -33.125732421875
54.699462890625 69.02099609375 -25.286376953125
6.6982421875 81.244140625 5.17724609375
110.693115234375 25.4718017578125 -62.563720703125
-111.271240234375 70.2647705078125 72.035888671875
22.852783203125 30.9556884765625 -59.76416015625
71.571044921875 -18.3275146484375 -79.732666015625
34.207763671875 39.8265380859375 -40.322021484375
-42.5732421875 1.3363037109375 -117.197021484375
55.290771484375 84.4482421875 14.28759765625
93.638427734375 -5.1495361328125 50.43408203125
-46.7724609375 66.523681640625 59.343505859375
-64.51904296875 -21.7490234375 -59.390625
14.336669921875 34.2972412109375 -57.01953125
51.588134765625 39.2548828125 -53.104248046875
-36.7275390625 40.212646484375 -53.072021484375
-3.684326171875 38.31494140625 -51.988037109375
-76.417236328125 -17.209228515625 -76.173095703125
12.086181640625 67.5712890625 78.061767578125
55.169677734375 43.697021484375 -48.9072265625
-70.54541015625 -9.9320068359375 -96.290771484375
54.023193359375 84.8739013671875 3.1298828125
-33.9130859375 -10.4345703125 -96.02880859375
50.639892578125 -11.7298583984375 -72.97021484375
-16.5703125 13.737548828125 -82.56494140625
-25.15283203125 62.5704345703125 -32.240966796875
-33.120849609375 35.35107421875 -57.583251953125
22.81494140625 7.4776611328125 -93.42236328125
64.663330078125 21.877685546875 -54.4990234375
32.389404296875 74.314697265625 24.499755859375
-16.2333984375 -9.86474609375 -87.62939453125
-77.187744140625 66.7327880859375 -48.206298828125
-11.22900390625 -17.0811767578125 -106.319580078125
54.552978515625 -18.134765625 -87.53125
47.115234375 19.3719482421875 -73.357177734375
82.98974609375 94.8521728515625 45.760986328125
-68.4501953125 -22.5252685546875 -84.2431640625
-80.8193359375 95.48974609375 -39.14208984375
3.671142578125 36.67236328125 -36.62841796875
25.37353515625 46.3729248046875 -26.71826171875
41.075927734375 64.0274658203125 -29.540283203125
91.816162109375 89.842041015625 -50.49853515625
13.54052734375 22.0933837890625 -70.0205078125
-25.05859375 -8.689453125 -84.76806640625
-12.404541015625 24.5611572265625 -67.201904296875
-27.960693359375 88.12451171875 17.685302734375
69.52001953125 66.7977294921875 109.76416015625
-2.578125 -16.285400390625 -69.68017578125
-39.34130859375 84.7352294921875 6.079833984375
-22.3798828125 67.4766845703125 -26.97607421875
-51.975341796875 -18.4337158203125 -92.130859375
-29.13232421875 84.473876953125 9.419921875
63.622314453125 72.6092529296875 62.202880859375
63.989990234375 57.8489990234375 -45.818359375
5.606689453125 80.7974853515625 22.35986328125
-9.118408203125 77.0465087890625 -22.504638671875
-64.164306640625 -9.62060546875 -103.375244140625
56.2470703125 86.756103515625 34.33349609375
10.84375 82.990478515625 30.397216796875
-4.664306640625 68.121337890625 -25.417236328125
-25.256103515625 83.0963134765625 18.231689453125
-49.945068359375 74.8380126953125 -31.640625
74.3212890625 87.7645263671875 47.852783203125
-48.37451171875 -23.9267578125 -62.316650390625
-38.945556640625 84.8834228515625 -18.49169921875
19.140625 17.7989501953125 -74.12060546875
-71.3623046875 63.292236328125 -48.648681640625
-70.685546875 69.045654296875 63.858642578125
-14.76220703125 88.3822021484375 -2.096923828125
-4.474365234375 34.96875 -42.487548828125
82.734375 26.7532958984375 -48.028076171875
20.58642578125 35.9703369140625 -35.697021484375
-9.24658203125 11.501220703125 -88.794921875
0.03955078125 -18.6634521484375 -108.606201171875
30.50048828125 40.91650390625 -33.590087890625
-58.26708984375 52.4072265625 -53.4677734375
-58.816162109375 -10.481201171875 -96.327880859375
-25.25732421875 24.43115234375 -67.862548828125
39.02783203125 35.38720703125 -56.825927734375
-91.088134765625 -16.99853515625 -34.131103515625
17.301025390625 63.6087646484375 64.3173828125
32.876708984375 81.36181640625 34.879150390625
29.263671875 -13.043212890625 -69.798095703125
-62.29931640625 -13.6236572265625 -106.604736328125
86.82080078125 20.8594970703125 -74.1669921875
-29.82763671875 27.4342041015625 -65.60888671875
56.4306640625 0.9456787109375 102.212890625
30.554443359375 84.4466552734375 -9.21728515625
-44.941650390625 61.8306884765625 -36.568603515625
23.822509765625 78.898681640625 2.744384765625
99.29296875 25.155517578125 -51.47509765625
-23.74609375 -14.7142333984375 -100.7294921875
24.275634765625 11.26513671875 -89.403076171875
-59.69091796875 67.63427734375 -36.195556640625
-37.09619140625 -13.5860595703125 -102.26513671875
58.75146484375 24.017333984375 -59.801513671875
24.701171875 83.0340576171875 48.151123046875
30.405029296875 74.0115966796875 14.7060546875
39.79638671875 64.8759765625 72.68505859375
29.0380859375 80.3155517578125 -2.893310546875
99.23046875 19.0838623046875 -64.337890625
69.3564453125 59.2734375 -51.18798828125
14.465087890625 70.7215576171875 -25.359130859375
-55.22265625 -23.316162109375 -64.14892578125
-29.030029296875 55.535400390625 -38.680908203125
19.560546875 63.1783447265625 73.738525390625
-18.673583984375 -21.0279541015625 -101.631591796875
63.652099609375 68.427490234375 -35.8828125
84.9453125 83.3687744140625 -46.95703125
-14.8662109375 89.5406494140625 27.81005859375
-11.396240234375 45.4837646484375 -30.255126953125
-69.400390625 56.2100830078125 -55.5078125
-52.49560546875 44.228759765625 -57.00439453125
38.771728515625 -16.546142578125 -97.34521484375
39.5068359375 -17.736328125 -91.867431640625
39.42626953125 81.710205078125 -16.872314453125
0.922119140625 84.1497802734375 -7.47802734375
7.405029296875 81.3944091796875 -16.0400390625
-45.042236328125 36.712890625 -57.86328125
14.326904296875 64.2064208984375 74.48193359375
64.453857421875 77.8785400390625 53.60986328125
-75.31201171875 77.705322265625 -58.5322265625
52.367919921875 83.5419921875 21.174560546875
-59.215576171875 97.8668212890625 -29.102783203125
23.923583984375 73.8912353515625 24.61181640625
63.73974609375 75.2535400390625 -24.644775390625
64.952880859375 17.3887939453125 -64.080078125
-14.4580078125 63.4154052734375 -30.691650390625
-29.9208984375 -16.15625 -96.782958984375
95.24853515625 97.9029541015625 48.618896484375
-20.462890625 104.0107421875 -5.2158203125
-53.2734375 -10.96484375 -104.85888671875
81.01318359375 111.0823974609375 -36.560546875
19.40673828125 73.1328125 5.039306640625
-14.549560546875 41.59033203125 -33.25390625
78.1015625 101.7462158203125 -44.174072265625
-30.567138671875 83.2178955078125 3.9873046875
48.12353515625 83.885009765625 12.042236328125
85.670166015625 31.61474609375 58.1650390625
12.421142578125 -13.89990234375 -66.03076171875
-70.578369140625 -20.2294921875 -51.243896484375
-65.22021484375 73.070068359375 79.3603515625
-40.0537109375 64.1138916015625 71.247802734375
-34.55859375 75.974609375 -23.42724609375
32.886474609375 79.5789794921875 26.2822265625
111.86083984375 27.284912109375 -58.021728515625
55.84814453125 64.1829833984375 125.847900390625
77.6728515625 71.6356201171875 -49.770263671875
-17.298583984375 83.5369873046875 19.529052734375
70.205322265625 -10.98779296875 -73.2001953125
23.436279296875 43.850341796875 -35.791259765625
-62.3818359375 60.7874755859375 -41.29052734375
-46.96533203125 58.9219970703125 -40.913330078125
79.42333984375 65.0084228515625 102.52294921875
35.42724609375 66.643310546875 77.360107421875
-10.506591796875 37.7078857421875 -36.76806640625
72.45166015625 72.3507080078125 -47.947021484375
-28.57470703125 -23.0711669921875 -100.90966796875
-9.9130859375 83.28515625 21.916015625
25.19482421875 37.1202392578125 -54.84130859375
78.106689453125 89.21240234375 71.048828125
-43.72412109375 78.1783447265625 -22.00634765625
81.737548828125 -15.635009765625 -78.79296875
-66.583251953125 84.7222900390625 -38.669189453125
-6.679443359375 85.0565185546875 32.40380859375
61.78076171875 -6.6923828125 -71.999755859375
77.966552734375 -1.6004638671875 -78.409912109375
-3.007568359375 21.4395751953125 -70.417236328125
10.584228515625 -11.6439208984375 -106.59716796875
-19.5556640625 50.0546875 -42.3330078125
104.8037109375 19.3529052734375 -64.9970703125
35.77978515625 41.796875 -35.7900390625
56.11376953125 81.164794921875 -17.358642578125
5.535400390625 -11.677001953125 -97.778564453125
0.07958984375 39.7930908203125 -35.213623046875
62.06103515625 60.7081298828125 -40.86279296875
-62.18896484375 -21.9261474609375 -49.48779296875
-58.303955078125 -16.4600830078125 -107.218017578125
103.980224609375 91.398193359375 -55.192626953125
35.55126953125 -12.2265625 -72.922607421875
60.1259765625 31.2093505859375 -52.445556640625
-59.447509765625 70.442138671875 61.44140625
-23.84130859375 -11.085693359375 -95.075927734375
8.8955078125 7.482666015625 -98.25341796875
-73.011474609375 -5.1533203125 -57.581298828125
40.2626953125 48.3497314453125 -43.522216796875
1.076171875 63.797607421875 66.050537109375
-66.336181640625 -9.2564697265625 -92.171142578125
64.75537109375 -29.2760009765625 47.728759765625
62.42041015625 53.22314453125 -46.28759765625
16.371337890625 39.664306640625 -49.426513671875
-34.63330078125 95.479736328125 11.393310546875
25.053466796875 21.5087890625 -70.477294921875
-17.874267578125 78.7216796875 -21.42041015625
-31.722412109375 68.136962890625 76.07373046875
-51.659912109375 -8.6461181640625 -84.658935546875
76.0986328125 71.2352294921875 102.86328125
26.072265625 79.74072265625 33.313232421875
-5.646484375 -10.15869140625 -87.740478515625
106.773193359375 82.3819580078125 -54.471435546875
56.988037109375 61.12158203125 131.9833984375
-21.3232421875 66.57275390625 62.496826171875
20.018310546875 82.3929443359375 -5.255126953125
104.270751953125 28.3443603515625 -49.7978515625
39.033203125 84.189453125 -7.272216796875
17.17529296875 7.9586181640625 -93.499267578125
73.680419921875 79.933837890625 57.0078125
-72.988525390625 68.1527099609375 74.1767578125
-67.336669921875 66.0826416015625 70.923583984375
-42.33837890625 -9.1241455078125 -90.518310546875
-31.502685546875 -17.1109619140625 -68.34375
70.7705078125 70.3480224609375 104.22705078125
-76.156982421875 92.5733642578125 -41.330810546875
5.67138671875 44.6270751953125 -30.665283203125
56.207763671875 51.13134765625 -44.115966796875
-60.583984375 -14.962158203125 -78.3046875
-35.198486328125 -22.1270751953125 -97.595947265625
-25.24658203125 14.4774169921875 -82.682861328125
80.919677734375 92.6123046875 62.662353515625
81.382568359375 74.9560546875 -48.856201171875
-15.43408203125 -11.179443359375 -92.513916015625
47.367919921875 83.666748046875 6.811767578125
81.52685546875 16.8316650390625 -59.052001953125
61.29541015625 79.001953125 74.12158203125
11.3486328125 -11.0667724609375 -101.378662109375
22.482177734375 -9.8023681640625 -64.672119140625
-64.579833984375 -19.3916015625 -81.247802734375
-27.90771484375 65.0478515625 68.9375
-26.645263671875 80.39990234375 -20.33447265625
-56.61474609375 67.46337890625 69.882568359375
-43.791259765625 66.62109375 69.580078125
26.259765625 39.551513671875 -47.174560546875
46.14697265625 29.568359375 -61.53515625
30.544189453125 64.1683349609375 74.087890625
55.990234375 -49.2578125 98.85205078125
93.384521484375 -4.523681640625 45.348876953125
-11.258056640625 84.4439697265625 7.42724609375
-17.59716796875 -17.8670654296875 -63.93505859375
-67.01318359375 -18.1563720703125 -75.986083984375
56.35009765625 71.0633544921875 52.827392578125
-4.376708984375 -16.14794921875 -65.287353515625
95.588623046875 18.940185546875 -58.1591796875
-0.301025390625 84.5421142578125 19.73583984375
-50.4140625 -18.50048828125 -85.470947265625
2.431884765625 65.2078857421875 -28.031005859375
-16.569091796875 22.7044677734375 -70.176025390625
-13.935546875 98.5399169921875 -3.002685546875
67.651611328125 79.140869140625 69.09033203125
93.224609375 92.5943603515625 57.0302734375
-47.242431640625 -22.57470703125 -48.655029296875
-109.9248046875 71.9564208984375 76.241943359375
16.834228515625 12.541259765625 -85.55859375
95.178466796875 19.8592529296875 -67.8291015625
-1.161865234375 83.89990234375 29.784912109375
52.508056640625 74.3660888671875 -23.812255859375
88.10791015625 47.7435302734375 45.79833984375
-8.475341796875 63.71875 70.489990234375
-38.65087890625 67.86865234375 62.287109375
-45.98193359375 -6.2193603515625 -110.3955078125
29.449951171875 72.954833984375 10.22314453125
57.3466796875 70.7391357421875 58.818359375
-37.033203125 -15.2183837890625 -92.979736328125
3.471435546875 79.7054443359375 -19.933349609375
67.516845703125 75.239501953125 62.291015625
-8.9287109375 84.2943115234375 -10.34375
-39.153076171875 85.5316162109375 -1.277587890625
53.639404296875 71.9219970703125 73.6220703125
76.781982421875 63.9217529296875 -52.271484375
-36.7548828125 61.43994140625 -33.689453125
-1.48193359375 9.442138671875 -94.175048828125
7.634765625 8.879638671875 -93.20703125
59.8369140625 85.570556640625 14.51220703125
36.433349609375 -17.089599609375 -87.11669921875
72.08935546875 77.0506591796875 -46.3994140625
39.550048828125 83.1212158203125 -2.17724609375
-1.212890625 72.671875 -24.7763671875
25.54833984375 81.2392578125 -18.581787109375
-16.2900390625 66.201904296875 74.58642578125
77.977783203125 -7.4569091796875 -77.46435546875
-43.676513671875 66.54150390625 -31.748291015625
-70.7412109375 86.267578125 -41.529296875
76.1787109375 56.6138916015625 117.435791015625
-47.901123046875 -14.0987548828125 -87.8349609375
-35.461181640625 87.1865234375 12.19970703125
34.94970703125 41.3857421875 -49.775634765625
45.07470703125 82.66845703125 20.89990234375
3.767822265625 32.849609375 -58.239013671875
-19.375732421875 84.216064453125 11.807861328125
67.906494140625 75.234619140625 -39.874755859375
90.551025390625 19.68017578125 -67.214599609375
72.60498046875 57.191650390625 127.6259765625
93.189453125 90.5169677734375 70.926025390625
-46.84375 -1.853515625 -111.902099609375
26.5048828125 69.69482421875 -25.1953125
-32.91162109375 -11.887939453125 -111.33984375
74.12744140625 -18.12255859375 -85.267333984375
-1.681640625 65.6259765625 62.659423828125
42.64453125 56.77294921875 -36.090576171875
-10.791748046875 67.7161865234375 60.999755859375
-33.654296875 49.733154296875 -43.94091796875
-9.5712890625 21.999267578125 -70.506591796875
33.44287109375 78.2186279296875 6.662353515625
-90.056884765625 81.7364501953125 7.022216796875
54.412353515625 23.0419921875 -67.3388671875
19.74462890625 82.8665771484375 42.588623046875
43.194091796875 -15.1834716796875 -77.27490234375
-18.09765625 46.597900390625 -45.520751953125
-20.751220703125 -17.7457275390625 -69.626708984375
-76.03662109375 72.0164794921875 -51.814697265625
99.004150390625 73.061279296875 -59.455322265625
-45.727783203125 -6.46240234375 -74.015869140625
42.08935546875 24.154296875 -67.99755859375
74.94970703125 17.1226806640625 -67.416015625
43.4755859375 83.2357177734375 27.435791015625
-2.7861328125 -22.5833740234375 -106.726806640625
7.440185546875 65.9783935546875 61.2744140625
14.15576171875 43.903564453125 -30.5498046875
-142.768310546875 43.095703125 114.02197265625
77.911376953125 20.128173828125 -72.790771484375
12.734130859375 81.7098388671875 37.1923828125
-4.75439453125 43.37060546875 -36.239013671875
-43.749267578125 53.561279296875 -43.109375
0.070068359375 83.8524169921875 -12.239501953125
85.727783203125 39.271240234375 51.239990234375
44.16357421875 65.8951416015625 -26.7294921875
-73.512939453125 -21.15283203125 -41.8984375
-19.56591796875 -22.432861328125 -106.81494140625
-46.56494140625 -11.905517578125 -106.875732421875
81.171142578125 -18.4044189453125 -82.601806640625
78.5 59.1357421875 -54.194091796875
13.144287109375 79.809326171875 2.59912109375
64.302490234375 87.6134033203125 11.6533203125
-44.014404296875 -10.7156982421875 -100.653564453125
-8.85888671875 -12.8485107421875 -107.39599609375
54.9140625 84.1998291015625 -8.35986328125
70.173828125 20.8751220703125 -76.2255859375
60.35595703125 68.1171875 118.32568359375
66.610595703125 37.7950439453125 -49.055908203125
45.246337890625 42.18505859375 -50.654296875
39.1220703125 30.62451171875 -61.319580078125
13.89013671875 79.6015625 -19.99755859375
56.404052734375 83.6080322265625 7.258544921875
24.22509765625 -10.9332275390625 -90.34521484375
50.313720703125 67.9775390625 129.490478515625
105.127685546875 99.5186767578125 -52.550537109375
78.158447265625 26.516357421875 -48.350341796875
-87.062255859375 -16.985107421875 -36.317626953125
48.54052734375 35.21484375 -56.4404296875
24.1865234375 -10.604248046875 -97.773681640625
47.98046875 60.4090576171875 -33.38232421875
47.7783203125 -15.884765625 -78.431396484375
-2.521240234375 48.14697265625 -26.457275390625
73.599365234375 87.2633056640625 66.644287109375
66.343017578125 65.8602294921875 113.732421875
-55.448974609375 -22.9073486328125 -43.703857421875
31.524169921875 -14.6087646484375 -88.955322265625
-22.7509765625 92.9757080078125 -2.633056640625
-59.732421875 67.811767578125 73.81591796875
35.057861328125 65.6046142578125 60.46044921875
61.963134765625 62.65234375 121.2529296875
-2.736328125 84.6903076171875 23.504150390625
7.95751953125 12.742431640625 -83.59423828125
-83.60107421875 67.36083984375 70.274658203125
70.14404296875 86.983642578125 -1.331298828125
68.505615234375 83.93017578125 -20.63134765625
-30.951171875 -9.856201171875 -92.724853515625
-80.80078125 71.5350341796875 61.255859375
66.405517578125 58.1907958984375 132.196533203125
-17.969482421875 34.8597412109375 -57.181884765625
-17.0966796875 41.9791259765625 -37.0634765625
-47.47509765625 89.0445556640625 -25.852294921875
87.822021484375 13.6043701171875 42.784423828125
9.833251953125 84.5025634765625 39.981201171875
-46.55615234375 100.90087890625 -23.0732421875
18.2919921875 84.3277587890625 -13.9580078125
-15.095458984375 98.9012451171875 27.478271484375
68.252685546875 -17.3204345703125 -76.93408203125
-42.03125 -8.7430419921875 -81.684326171875
-30.31103515625 -8.9150390625 -78.27490234375
-69.63427734375 60.834228515625 -52.213134765625
-22.53466796875 85.5238037109375 -8.611572265625
47.06396484375 84.6693115234375 -2.589111328125
-68.2216796875 -21.0550537109375 -47.560546875
10.78955078125 81.280029296875 23.6611328125
-85.620361328125 -9.7374267578125 -31.916748046875
10.521728515625 66.7122802734375 -25.658447265625
-12.322998046875 -17.240966796875 -70.4345703125
-0.906494140625 31.42919921875 -59.550048828125
6.696044921875 75.4674072265625 -23.19482421875
-5.888427734375 83.6058349609375 13.30322265625
-8.57275390625 27.2913818359375 -63.1171875
83.44287109375 91.9766845703125 49.54736328125
-70.166015625 71.890869140625 78.15185546875
-60.947998046875 45.388671875 -59.158935546875
-77.705322265625 -15.49267578125 -36.96240234375
-34.488525390625 -15.8287353515625 -57.398681640625
90.583251953125 67.8817138671875 -56.677978515625
-37.283935546875 -12.243896484375 -106.95556640625
-56.6591796875 -20.0142822265625 -58.466064453125
34.084228515625 75.076416015625 -23.345458984375
-61.4033203125 -8.984619140625 -78.940185546875
63.284423828125 84.037841796875 -12.7724609375
68.707763671875 76.8477783203125 56.540771484375
88.85693359375 86.9632568359375 -47.072509765625
-54.79736328125 65.009765625 -36.916259765625
-20.97216796875 13.729736328125 -82.009765625
39.663818359375 83.7757568359375 30.654296875
16.294189453125 64.02197265625 -30.236572265625
-51.812255859375 -0.2408447265625 -116.23046875
68.295654296875 33.9371337890625 -47.82763671875
61.587646484375 -11.4949951171875 -75.531494140625
-101.56396484375 71.6029052734375 76.31201171875
94.126708984375 107.2255859375 -44.37841796875
-49.330078125 -20.9810791015625 -89.755615234375
104.1962890625 20.68798828125 -57.0380859375
37.7890625 19.28564453125 -75.494873046875
-17.431396484375 94.97802734375 25.353515625
-15.133056640625 -10.95751953125 -102.156005859375
5.192626953125 82.9149169921875 1.454833984375
74.19677734375 81.708251953125 64.156005859375
10.747314453125 36.0689697265625 -36.5322265625
-23.6826171875 89.15625 20.790283203125
2.858154296875 81.5159912109375 8.952880859375
-29.207275390625 -20.619873046875 -96.62451171875
-19.244873046875 70.6175537109375 -25.48095703125
53.255859375 -17.5482177734375 -92.264892578125
43.364501953125 83.6910400390625 0.564453125
-4.321044921875 77.608642578125 -22.69921875
-70.334716796875 -14.3914794921875 -37.4453125
7.038818359375 79.7706298828125 16.42578125
18.27783203125 68.3695068359375 -25.232177734375
29.4287109375 20.5916748046875 -72.55419921875
35.24658203125 -8.2388916015625 -65.949462890625
42.91015625 -9.1363525390625 -77.44384765625
-5.982421875 33.7908935546875 -57.9404296875
26.79638671875 -9.56005859375 -64.84423828125
56.114990234375 70.0098876953125 122.093017578125
48.08056640625 53.13818359375 -39.84814453125
-14.665771484375 32.3680419921875 -59.188232421875
-58.07373046875 78.224609375 -34.939208984375
56.4189453125 54.7237548828125 -40.91064453125
25.69775390625 64.42138671875 61.522705078125
-83.099609375 69.240234375 64.701416015625
17.716064453125 78.8935546875 27.868408203125
-2.256103515625 83.7808837890625 2.260009765625
-42.09033203125 -19.05908203125 -89.864013671875
-14.767333984375 39.7208251953125 -51.8212890625
-29.10595703125 83.89306640625 -19.77490234375
33.9921875 21.53125 -70.177001953125
63.613525390625 76.261962890625 70.37109375
-109.17431640625 72.03759765625 62.93017578125
55.109375 -11.5574951171875 -75.375732421875
59.992431640625 36.56201171875 -50.92041015625
67.16015625 71.6063232421875 109.395751953125
20.581298828125 74.006103515625 15.222412109375
67.446044921875 92.028076171875 71.12841796875
95.4521484375 76.3580322265625 -57.95947265625
-55.87890625 -6.950927734375 -72.28271484375
-75.1572265625 -16.302978515625 -72.1748046875
19.17431640625 82.966064453125 33.20458984375
26.302734375 65.5543212890625 -27.89453125
-3.7587890625 83.088134765625 -14.92626953125
-4.864990234375 68.3587646484375 77.465576171875
83.118896484375 98.2369384765625 42.33447265625
79.642578125 85.6937255859375 -46.585205078125
75.83544921875 80.2593994140625 -46.914306640625
-45.171142578125 -22.89599609375 -52.86083984375
-70.850341796875 -15.5970458984375 -97.8427734375
5.271728515625 82.4366455078125 26.2802734375
103.96484375 75.19482421875 -58.706787109375
10.50390625 84.063720703125 45.6591796875
63.131103515625 44.1031494140625 -49.147705078125
-63.680419921875 78.1640625 -36.31787109375
-7.34619140625 -13.0869140625 -61.990478515625
83.9638671875 92.9642333984375 -46.26611328125
-139.5986328125 27.573486328125 124.611572265625
-4.173583984375 -11.5791015625 -100.778076171875
-32.846435546875 84.826904296875 -16.587646484375
-51.5810546875 -22.2366943359375 -55.569091796875
-22.8232421875 31.03564453125 -61.39990234375
62.057861328125 19.235107421875 -67.9609375
-3.74365234375 85.011474609375 -5.720458984375
-13.48193359375 -20.4052734375 -103.843994140625
-14.795654296875 65.4755859375 64.89697265625
1.997314453125 36.64404296875 -54.3349609375
19.541259765625 38.861083984375 -52.978759765625
46.482666015625 67.5528564453125 59.280517578125
24.911376953125 74.0712890625 -23.95703125
-20.424072265625 -9.403564453125 -87.278564453125
47.8115234375 -10.2462158203125 -69.453857421875
1.149658203125 54.4583740234375 -25.4716796875
31.239990234375 43.09033203125 -30.039306640625
-9.668212890625 -11.7364501953125 -103.310546875
-38.294677734375 53.83642578125 -40.89453125
87.401123046875 62.51513671875 -52.458740234375
-28.160400390625 35.8385009765625 -56.889404296875
-55.148681640625 70.391357421875 77.49658203125
-81.7236328125 82.4542236328125 -57.00341796875
-39.846435546875 -18.685302734375 -52.344970703125
-89.205322265625 78.51318359375 9.612548828125
20.259033203125 74.5833740234375 -23.567626953125
18.136962890625 79.435791015625 -19.991455078125
62.421630859375 72.3968505859375 66.33056640625
-74.3251953125 -22.1402587890625 -50.90869140625
89.01806640625 105.026611328125 -44.723388671875
37.180908203125 81.5447998046875 33.898681640625
-38.671630859375 43.7183837890625 -50.4375
-19.618408203125 27.7850341796875 -63.574951171875
-34.724365234375 83.652099609375 3.435546875
88.461181640625 18.072021484375 -63.326904296875
-30.263916015625 85.1654052734375 -1.248291015625
-14.3701171875 76.4107666015625 -22.768798828125
56.729248046875 31.645751953125 -54.88916015625
106.399658203125 105.2264404296875 -47.033935546875
4.142822265625 25.71044921875 -64.167236328125
15.363525390625 76.8955078125 5.632080078125
-1.33251953125 84.9246826171875 8.704833984375
1.222412109375 -12.1702880859375 -62.494873046875
40.344482421875 63.7987060546875 65.671630859375
-26.5849609375 -21.1160888671875 -104.090087890625
34.431640625 66.76318359375 -25.91064453125
-12.11083984375 83.66064453125 -18.888916015625
74.723388671875 107.615478515625 -38.62646484375
-125.031005859375 72.8931884765625 65.898681640625
-11.64453125 -13.6614990234375 -61.254150390625
-3.833740234375 25.833984375 -65.010009765625
48.025634765625 83.5220947265625 32.572509765625
55.091064453125 68.11669921875 63.73779296875
-51.703857421875 56.037841796875 -46.152587890625
40.884521484375 80.5238037109375 19.924560546875
-39.22216796875 59.20361328125 -36.3330078125
-49.872314453125 49.6915283203125 -51.277587890625
64.5654296875 29.5316162109375 -50.08056640625
-36.003662109375 33.0484619140625 -59.55224609375
-23.184326171875 84.7342529296875 -4.557861328125
70.83203125 84.620361328125 -42.658203125
-66.416748046875 -17.36865234375 -41.6220703125
48.546142578125 84.7764892578125 -13.33203125
-64.11328125 61.9869384765625 -44.97998046875
28.010009765625 84.2706298828125 41.406982421875
107.109619140625 26.083740234375 -54.715576171875
-69.924560546875 -21.4779052734375 -100.152099609375
-82.85986328125 -12.320068359375 -33.675537109375
20.043701171875 80.6444091796875 -1.47021484375
1.115966796875 47.374755859375 -30.4833984375
-28.230224609375 44.729248046875 -48.086669921875
-55.00244140625 -18.578369140625 -83.564453125
-53.101806640625 -19.8758544921875 -48.669921875
-15.6513671875 84.35791015625 13.662841796875
10.068115234375 36.1949462890625 -54.775390625
93.46923828125 101.4296875 -50.9248046875
63.504638671875 73.2122802734375 -29.444580078125
-129.601806640625 71.8885498046875 79.262451171875
38.160400390625 62.85693359375 69.37451171875
40.948486328125 41.477294921875 -50.363525390625
31.7060546875 11.3868408203125 -86.33544921875
-20.927734375 23.6180419921875 -68.107177734375
50.608154296875 64.6591796875 -29.33740234375
6.841796875 46.9481201171875 -27.149658203125
-25.513916015625 40.066162109375 -52.718505859375
-39.1103515625 -20.80517578125 -59.79296875
-48.783447265625 -10.0765380859375 -88.618896484375
-48.393798828125 68.9913330078125 62.560302734375
-18.893310546875 92.9833984375 -4.60498046875
78.939208984375 18.24462890625 -54.405029296875
93.8115234375 23.2899169921875 -52.6337890625
97.201171875 0.3558349609375 38.1171875
-39.34033203125 87.235595703125 -9.3916015625
13.3310546875 72.528564453125 15.56884765625
5.88916015625 38.94775390625 -51.3955078125
-54.94873046875 -6.71044921875 -78.203857421875
-31.6630859375 97.1331787109375 13.927490234375
26.6904296875 -11.982421875 -73.73681640625
-89.84130859375 -15.6822509765625 -30.346923828125
-28.703369140625 94.1336669921875 16.458251953125
67.804931640625 82.55908203125 47.75390625
-9.24267578125 38.5828857421875 -45.4375
20.915771484375 40.343505859375 -34.70263671875
63.482177734375 18.640869140625 -71.977294921875
-75.689453125 66.647216796875 69.503662109375
-61.77685546875 -7.613525390625 -73.685791015625
12.139892578125 79.2113037109375 28.760498046875
36.271484375 80.056640625 4.32177734375
-18.27099609375 57.89697265625 -35.71484375
-51.036376953125 59.29833984375 -42.4072265625
-42.491455078125 -20.0736083984375 -96.54541015625
-25.248291015625 -19.3177490234375 -64.105224609375
63.921142578125 80.8416748046875 50.82763671875
28.490478515625 73.275146484375 23.7841796875
-24.365966796875 -14.364990234375 -108.136962890625
-55.087890625 88.0120849609375 -30.890625
-109.05810546875 78.85498046875 79.41455078125
66.566650390625 62.148681640625 116.578125
-61.683349609375 56.397216796875 -48.990966796875
-65.90234375 53.4691162109375 -56.56591796875
29.309326171875 26.0096435546875 -65.165283203125
-61.328369140625 94.5338134765625 -30.158203125
54.8583984375 85.9188232421875 29.744384765625
79.1279296875 58.841064453125 108.68408203125
-13.36962890625 -17.753173828125 -65.814208984375
89.0146484375 81.851806640625 -48.053466796875
18.3212890625 34.51904296875 -42.18603515625
-18.306884765625 -11.15869140625 -96.080078125
77.8427734375 96.36865234375 -45.67138671875
5.69091796875 84.251220703125 36.751708984375
-39.352783203125 -20.0594482421875 -64.4189453125
31.1435546875 35.9993896484375 -40.026123046875
-100.325439453125 70.96044921875 63.987060546875
72.36181640625 18.3719482421875 -56.197265625
-95.41650390625 -13.1964111328125 -25.56689453125
-61.775390625 63.59521484375 -37.84912109375
-139.9052734375 44.6365966796875 117.216796875
-90.193115234375 67.9229736328125 70.18505859375
43.60302734375 70.275146484375 -25.038330078125
36.971923828125 45.53369140625 -44.971923828125
42.7802734375 83.404052734375 -9.051025390625
96.959716796875 111.5513916015625 -38.39306640625
51.310546875 84.7730712890625 -0.701904296875
-46.860107421875 96.9757080078125 -24.02685546875
-77.715087890625 76.094970703125 -62.4072265625
29.068603515625 37.801513671875 -35.89599609375
-75.8955078125 -5.6883544921875 -71.0458984375
0.487548828125 28.26904296875 -62.678955078125
66.218017578125 84.56494140625 6.995849609375
33.931396484375 74.2314453125 20.76025390625
-85.231689453125 71.7279052734375 78.11865234375
12.59765625 28.69970703125 -61.15771484375
-19.48388671875 -15.705322265625 -59.90283203125
-67.08251953125 -13.8885498046875 -86.6005859375
40.4736328125 83.2076416015625 41.57666015625
65.36328125 -4.9097900390625 -73.214111328125
-39.8818359375 71.8941650390625 79.14599609375
53.450927734375 -46.9952392578125 95.6455078125
84.505859375 31.2650146484375 54.318603515625
-26.2060546875 23.201171875 -71.584228515625
-72.90234375 -21.3533935546875 -82.44189453125
43.181640625 35.893310546875 -55.6435546875
31.727783203125 63.471923828125 64.35888671875
-6.682861328125 51.0301513671875 -24.8935546875
-60.455810546875 -18.9896240234375 -78.8623046875
59.0380859375 61.297119140625 127.730224609375
5.67041015625 71.586181640625 -25.0283203125
-50.4326171875 -20.0390625 -65.08203125
-73.811279296875 88.2918701171875 58.848876953125
66.650634765625 85.623046875 -5.3740234375
-23.931640625 84.7623291015625 -13.734619140625
-28.462890625 71.517822265625 -25.157958984375
42.052978515625 21.085205078125 -72.029296875
86.58154296875 20.2738037109375 -52.434814453125
-26.448486328125 97.738525390625 18.1220703125
35.2490234375 29.239501953125 -62.18359375
74.789306640625 31.1055908203125 -47.000244140625
-30.739013671875 83.4847412109375 -10.46337890625
102.361572265625 87.4161376953125 -55.469970703125
47.1484375 -16.9462890625 -87.416259765625
1.545166015625 83.4688720703125 -0.09130859375
-18.498779296875 100.3331298828125 -4.3720703125
-11.292724609375 38.457763671875 -53.333251953125
-45.493408203125 42.4710693359375 -53.222412109375
70.299072265625 17.759033203125 -69.4345703125
11.1240234375 76.680908203125 -22.593505859375
-14.27392578125 47.9920654296875 -28.153076171875
59.416748046875 84.2001953125 -11.806396484375
-43.242431640625 72.3597412109375 -26.20361328125
73.3701171875 91.1019287109375 45.89599609375
4.221923828125 65.7601318359375 75.59033203125
40.73388671875 80.343505859375 11.880126953125
95.745361328125 89.572265625 64.046142578125
-12.708740234375 66.9539794921875 -26.4501953125
-116.091796875 76.50146484375 80.986328125
-119.62744140625 70.4720458984375 70.662841796875
10.58056640625 83.0694580078125 -3.424072265625
48.142822265625 -51.801513671875 98.727294921875
-0.32421875 -10.0299072265625 -93.352294921875
50.48193359375 23.5479736328125 -67.4541015625
-0.536865234375 62.8231201171875 69.7392578125
-33.785400390625 38.0177001953125 -54.728515625
60.790771484375 19.8502197265625 -74.725341796875
-42.84912109375 -24.8614501953125 -57.3251953125
95.121337890625 -10.74267578125 55.938720703125
30.44384765625 40.2353515625 -46.0390625
55.700439453125 -16.97412109375 -79.948486328125
-47.878173828125 -8.2445068359375 -81.763916015625
-27.8115234375 30.109375 -62.394775390625
-76.637451171875 69.0948486328125 -45.086181640625
-17.7294921875 20.1019287109375 -72.909912109375
65.563720703125 82.5899658203125 -16.825927734375
69.335693359375 69.6732177734375 -47.08837890625
-41.103271484375 75.8419189453125 -23.81103515625
71.543701171875 84.840576171875 -10.1005859375
-32.415771484375 78.9910888671875 -21.360595703125
-119.165771484375 73.611083984375 77.335693359375
-64.642822265625 -5.9268798828125 -68.060791015625
31.308349609375 -13.15185546875 -95.921875
118.56005859375 28.683837890625 -61.4482421875
58.66552734375 11.099609375 103.297607421875
85.769775390625 106.8089599609375 -41.59619140625
69.2265625 58.2113037109375 121.994140625
44.132080078125 81.42529296875 -16.350830078125
-80.78955078125 -13.1444091796875 -68.0439453125
-89.804931640625 -13.5018310546875 -42.588134765625
72.327392578125 17.2911376953125 -60.4541015625
11.208740234375 81.231689453125 -17.000244140625
85.475830078125 94.729736328125 51.9677734375
62.31787109375 80.5673828125 -19.210205078125
-130.533447265625 75.0972900390625 82.8486328125
-56.034912109375 68.262451171875 62.20703125
8.515869140625 39.18359375 -34.6669921875
73.4921875 59.0078125 113.817626953125
19.72705078125 86.7247314453125 48.958984375
58.21875 69.5340576171875 -26.913330078125
-60.604736328125 -19.110107421875 -105.4921875
-13.162109375 37.2315673828125 -40.298828125
-74.271484375 68.41650390625 65.276123046875
-30.082275390625 -8.5242919921875 -86.53076171875
-22.122802734375 94.6497802734375 21.60400390625
89.0673828125 26.18359375 -50.264892578125
-35.606201171875 64.17333984375 -31.1572265625
21.200439453125 74.80322265625 27.24462890625
23.465576171875 73.123779296875 8.801025390625
16.035888671875 73.980224609375 11.953369140625
21.61669921875 85.0924072265625 -9.796142578125
73.234619140625 -12.845458984375 -74.781005859375
38.576416015625 27.3253173828125 -64.8515625
-41.144287109375 -13.0379638671875 -108.773193359375
-58.43603515625 -3.93408203125 -47.713134765625
-69.32763671875 -18.1396484375 -38.324462890625
-91.04638671875 69.7440185546875 66.83935546875
64.2724609375 61.351806640625 -43.9921875
23.238525390625 24.44677734375 -66.841552734375
-40.994873046875 48.439453125 -46.268798828125
75.12939453125 -3.11083984375 -75.015625
97.624267578125 82.6859130859375 -56.46630859375
33.5595703125 38.37255859375 -53.022216796875
96.86376953125 103.1370849609375 -49.409912109375
79.73193359375 87.740966796875 60.9990234375
61.235595703125 86.5284423828125 19.5869140625
-16.42138671875 84.202880859375 -14.1376953125
-49.749755859375 71.2021484375 -33.017578125
10.533203125 62.168701171875 70.295166015625
38.073974609375 65.9190673828125 -27.155517578125
68.844482421875 77.5592041015625 65.636962890625
60.918701171875 22.5023193359375 -56.97900390625
54.393310546875 -8.0811767578125 -69.966064453125
41.4580078125 -17.104248046875 -85.42333984375
-98.55029296875 68.41796875 69.21630859375
52.218505859375 35.6968994140625 -54.768798828125
103.10400390625 111.56591796875 -38.97509765625
-5.883544921875 87.9407958984375 35.172607421875
-56.90283203125 -17.2982177734375 -89.38916015625
89.224365234375 74.69677734375 -51.361083984375
9.112548828125 35.605712890625 -43.337890625
54.94873046875 77.0938720703125 -22.133544921875
-26.869873046875 84.5345458984375 13.675537109375
-13.65380859375 83.4443359375 22.841064453125
-20.296630859375 65.114990234375 -29.202392578125
-28.1767578125 -9.5263671875 -82.556640625
23.09130859375 47.2333984375 -33.981201171875
26.974365234375 80.23828125 0.980712890625
48.434326171875 78.078857421875 -21.362060546875
77.43017578125 95.2672119140625 43.785888671875
86.552490234375 59.020751953125 -54.268310546875
-43.240234375 -15.4652099609375 -50.85693359375
45.840576171875 67.70947265625 73.23388671875
77.44091796875 -18.10400390625 -76.80908203125
-29.9541015625 -11.353515625 -107.544921875
-79.64208984375 67.132080078125 70.756103515625
-51.4326171875 67.0435791015625 -35.63720703125
83.65771484375 19.7474365234375 -72.282958984375
67.651611328125 -14.207763671875 -74.129150390625
-60.38916015625 -18.7265625 -44.240966796875
-21.861328125 81.0831298828125 -20.072265625
49.5322265625 50.751220703125 -42.479248046875
19.34716796875 -10.9052734375 -96.616455078125
9.322265625 -12.104248046875 -98.13671875
43.0751953125 53.90380859375 -38.58544921875
68.2060546875 19.31494140625 -72.782470703125
89.6298828125 52.903076171875 38.569091796875
-80.4326171875 92.8204345703125 -41.8505859375
