20.549560546875 -56.540771484375 0.790283203125
15.0390625 11.02392578125 16.369140625
7.6240234375 -59.392822265625 14.929443359375
18.97412109375 -22.0771484375 -53.05224609375
-10.2783203125 5.183837890625 38.27685546875
-11.762451171875 6.541748046875 33.74951171875
10.923828125 20.095947265625 -15.149169921875
16.03662109375 -18.84375 -50.551025390625
8.625 12.3779296875 3.63427734375
-22.56201171875 -28.709228515625 74.569091796875
22.41796875 4.8818359375 -43.385986328125
16.683837890625 -17.71240234375 38.57568359375
-16.13818359375 -34.663818359375 51.926025390625
19.9638671875 -35.502197265625 -39.885009765625
26.0 -18.18896484375 -30.19921875
-11.439697265625 3.201171875 46.094970703125
37.113525390625 -6.552978515625 -26.18359375
10.466552734375 -48.8115234375 -30.332763671875
18.685546875 -67.719482421875 70.245849609375
-20.490234375 -7.77685546875 34.256103515625
17.905517578125 -60.122314453125 -1.662841796875
-18.69482421875 -9.8876953125 20.59228515625
-11.67578125 -35.822021484375 52.874267578125
8.984619140625 -36.068359375 -38.685791015625
11.818359375 15.14111328125 3.735107421875
15.474609375 -22.2158203125 33.291015625
-20.689208984375 -2.997314453125 43.566162109375
-0.798828125 8.3984375 28.1787109375
18.0927734375 -9.509765625 43.923583984375
18.935546875 -54.685302734375 7.1572265625
26.48388671875 36.40869140625 -55.483642578125
17.170166015625 -63.854248046875 17.6162109375
7.815673828125 -29.83349609375 46.5947265625
-16.100830078125 -29.9296875 72.8623046875
-5.314453125 20.415771484375 -27.81103515625
7.982421875 11.881103515625 15.595458984375
9.96240234375 7.738525390625 32.4951171875
8.3291015625 -31.104736328125 -40.89697265625
-24.93359375 -8.926025390625 26.572021484375
16.248291015625 24.19580078125 -34.7978515625
-19.3466796875 -41.3203125 61.17529296875
-5.52490234375 3.934326171875 44.21142578125
-23.126953125 -25.147216796875 77.601318359375
11.822265625 -30.407958984375 -45.704345703125
-21.211669921875 -1.19970703125 24.92138671875
11.559326171875 -63.771728515625 16.251953125
-12.0771484375 7.390869140625 30.095703125
31.0107421875 -7.76220703125 -30.567626953125
19.590087890625 -27.046875 63.806396484375
13.475341796875 3.893798828125 47.632568359375
5.192626953125 -24.017822265625 40.242431640625
6.5009765625 4.689208984375 43.872802734375
8.27734375 5.510986328125 37.470703125
27.720703125 -11.482421875 -27.353271484375
21.76220703125 -20.166748046875 66.408203125
-18.52099609375 -2.865478515625 20.857177734375
17.681640625 -25.14501953125 -51.143310546875
32.007080078125 -6.072265625 -35.562744140625
-6.3828125 9.041015625 24.310302734375
-8.573486328125 -28.13134765625 32.6572265625
0.957763671875 -29.531982421875 46.5625
26.707763671875 4.529052734375 -40.173828125
21.82275390625 -30.2060546875 55.990234375
-9.10888671875 -24.961669921875 39.0361328125
-13.821044921875 -22.166259765625 78.33056640625
31.62890625 -1.412841796875 -39.8359375
6.25830078125 -40.40966796875 -38.260986328125
9.474365234375 -51.709716796875 -32.846435546875
19.053466796875 -33.570068359375 84.574951171875
6.462158203125 -34.57080078125 50.383544921875
16.11962890625 -28.214599609375 -49.554443359375
19.13916015625 -29.531982421875 -29.15185546875
3.356201171875 -41.1103515625 -38.192138671875
-18.147216796875 -1.295654296875 46.484375
29.6708984375 25.54638671875 -64.8203125
17.900634765625 -34.281494140625 -42.512939453125
18.62353515625 -25.0869140625 67.7470703125
6.883544921875 -45.6123046875 -35.43115234375
22.27392578125 -4.669921875 -46.79248046875
19.54736328125 -22.1435546875 68.719482421875
18.958740234375 -59.467529296875 78.071533203125
14.651123046875 14.89794921875 3.197998046875
21.95654296875 -30.269287109375 -45.43701171875
26.956787109375 -19.753662109375 -27.1142578125
-9.962646484375 -24.1552734375 69.792724609375
2.06494140625 9.76318359375 23.057861328125
3.701416015625 -33.03759765625 50.21435546875
-28.597412109375 -4.338623046875 57.80224609375
12.537109375 -34.92431640625 -24.3173828125
8.162353515625 -35.99560546875 -26.81103515625
10.35791015625 16.314697265625 -0.68212890625
12.8525390625 25.307373046875 -35.860595703125
17.720947265625 26.086181640625 -40.243896484375
-6.76953125 -20.525146484375 43.20703125
-9.243408203125 4.41845703125 41.71728515625
34.0849609375 26.43115234375 -60.4326171875
25.2197265625 -21.24658203125 -42.78662109375
12.45556640625 -62.35986328125 -1.500732421875
5.76953125 24.2509765625 -31.997314453125
18.70751953125 9.985595703125 18.22509765625
-13.772705078125 -30.752197265625 47.77490234375
18.506103515625 -36.02783203125 80.1279296875
-7.709716796875 -27.019775390625 43.75439453125
19.386962890625 -27.9765625 81.210205078125
-16.9638671875 -32.0966796875 48.22705078125
16.045166015625 10.722900390625 19.040771484375
-22.23828125 -37.68212890625 55.017578125
40.523681640625 18.579345703125 -51.59814453125
0.16650390625 22.144775390625 -26.265625
44.114501953125 19.644775390625 -58.71923828125
7.262451171875 -63.152099609375 15.343994140625
-18.69189453125 2.561279296875 44.486083984375
3.544921875 10.59423828125 19.677490234375
7.8828125 19.79638671875 -19.2255859375
19.694580078125 -59.57666015625 3.842529296875
15.8681640625 -16.8427734375 41.206787109375
24.8583984375 -20.33837890625 -37.73779296875
-17.260498046875 8.35205078125 24.0322265625
12.5869140625 7.148193359375 34.671142578125
-14.4140625 -39.842041015625 59.228515625
10.942138671875 -22.846923828125 42.670654296875
20.95556640625 -19.3173828125 -45.5380859375
18.760498046875 -65.857666015625 72.469970703125
27.232666015625 -5.78173828125 -39.53173828125
-20.70703125 -5.019287109375 34.897705078125
-1.826416015625 -31.3642578125 48.540771484375
-23.334228515625 -35.6025390625 69.0849609375
37.526123046875 25.830322265625 -59.197998046875
19.373046875 -62.288330078125 73.205322265625
16.23388671875 -0.053466796875 47.4482421875
4.2578125 20.364990234375 -23.8212890625
-11.853515625 -33.89892578125 69.96630859375
-9.099609375 -20.81787109375 74.866455078125
26.3291015625 0.8232421875 -40.9521484375
-16.23681640625 4.2783203125 40.783935546875
1.186279296875 3.16845703125 45.601806640625
11.67138671875 21.65478515625 -21.887451171875
31.18994140625 32.26953125 -68.119140625
7.811767578125 -64.283447265625 10.0107421875
1.740478515625 7.940185546875 31.844482421875
-8.04541015625 2.80419921875 47.409423828125
-4.12939453125 -21.696533203125 41.896728515625
18.589111328125 -5.500732421875 40.3935546875
10.455810546875 4.041259765625 47.274658203125
14.02978515625 -32.53564453125 47.376953125
19.198974609375 -53.357666015625 9.59423828125
19.03857421875 -31.17529296875 63.531005859375
-2.210693359375 -26.723876953125 73.703369140625
15.218017578125 -35.4912109375 -21.83349609375
7.116455078125 24.82080078125 -34.4970703125
12.968017578125 -59.768798828125 -3.689453125
19.467529296875 -8.6484375 -45.125
25.854248046875 -28.617919921875 -48.797607421875
14.015869140625 13.59228515625 9.012939453125
24.23974609375 -25.116943359375 -52.522216796875
29.291259765625 38.1484375 -56.02001953125
-4.802978515625 -28.100830078125 45.150390625
-16.32470703125 -24.634765625 10.6689453125
12.549560546875 10.341064453125 23.1669921875
26.053955078125 36.822021484375 -52.709228515625
23.8779296875 -29.3974609375 -50.38134765625
13.51904296875 -62.6767578125 17.65771484375
6.544921875 -57.420654296875 20.650390625
9.28076171875 -33.4833984375 -40.14306640625
-21.1201171875 -2.10498046875 30.313720703125
24.510986328125 -13.496826171875 -29.913330078125
19.105224609375 -34.533935546875 67.934814453125
6.846923828125 -18.398193359375 44.504150390625
30.03564453125 -1.682373046875 -42.3232421875
8.802734375 -38.955078125 -37.93701171875
-20.3955078125 0.400146484375 42.2568359375
-8.856689453125 -22.255126953125 38.734375
19.880615234375 -31.452880859375 -35.10107421875
27.26904296875 -2.7412109375 -41.311279296875
-0.19091796875 4.508544921875 43.382080078125
19.351806640625 -24.45654296875 76.42529296875
33.54931640625 -3.15283203125 -29.071044921875
-19.531982421875 -0.56201171875 27.304443359375
-0.263916015625 23.265869140625 -28.581787109375
14.667724609375 -24.905029296875 -52.190185546875
18.184326171875 -31.743408203125 -41.6044921875
-14.504638671875 -39.408447265625 65.906982421875
19.335205078125 -34.293212890625 -34.557373046875
-16.9541015625 -21.081298828125 78.59228515625
27.89111328125 -14.869384765625 -29.200927734375
21.597900390625 -22.590087890625 64.330322265625
5.40673828125 -31.609375 -40.212646484375
21.462158203125 -57.99658203125 2.73388671875
17.85595703125 -31.8291015625 -44.823486328125
-17.1416015625 -37.16162109375 54.814697265625
22.23486328125 -16.7861328125 -38.0283203125
19.161376953125 -32.028076171875 -24.57763671875
-0.2880859375 19.04736328125 -28.596435546875
24.92431640625 -20.706787109375 -32.007080078125
27.529541015625 -9.790283203125 -40.405029296875
5.22607421875 4.01171875 46.4248046875
15.984130859375 -59.452880859375 -4.3193359375
19.30322265625 -32.277587890625 78.815673828125
23.04443359375 -5.676025390625 -43.479736328125
32.749267578125 -11.99755859375 -26.501220703125
-14.716064453125 0.784912109375 48.11865234375
-9.720703125 -24.328857421875 33.610595703125
19.40283203125 -22.89208984375 80.397705078125
22.665771484375 -11.66552734375 -41.364990234375
21.2861328125 -25.267578125 -51.882080078125
24.069091796875 -31.260498046875 -43.42578125
-18.477783203125 4.2158203125 36.065673828125
-18.805419921875 -38.6787109375 56.325927734375
-10.499755859375 -19.0947265625 44.028076171875
6.04541015625 -51.72265625 -34.033447265625
31.619384765625 28.69287109375 -64.419189453125
32.885009765625 34.376220703125 -66.865966796875
6.285400390625 8.3427734375 29.2802734375
-7.27978515625 -31.19970703125 48.39599609375
-15.06982421875 5.95166015625 34.3515625
8.433837890625 23.091064453125 -27.477294921875
21.087890625 -13.39111328125 -42.69921875
8.96484375 15.433349609375 -3.573486328125
18.28857421875 -6.98828125 44.13232421875
30.892333984375 37.409912109375 -60.60888671875
6.89208984375 -61.04541015625 16.7060546875
19.15380859375 -69.15576171875 64.64111328125
18.715576171875 -62.870849609375 77.064453125
17.8984375 -11.4921875 -42.95361328125
4.820068359375 23.0986328125 -28.2490234375
24.543701171875 -10.36669921875 -36.853271484375
18.0029296875 -11.98583984375 41.661865234375
22.6708984375 -0.4873046875 -45.999755859375
35.4853515625 36.488037109375 -62.979736328125
-13.03076171875 8.334228515625 26.018798828125
14.64306640625 -33.875244140625 -42.13427734375
19.873779296875 -13.384521484375 45.55517578125
1.408935546875 -35.0009765625 -36.08251953125
35.018798828125 -12.109619140625 -28.66796875
-23.532470703125 -32.641357421875 70.06201171875
-19.7646484375 -35.806640625 51.318115234375
30.142822265625 30.126220703125 -68.85400390625
10.4677734375 18.9921875 -10.922607421875
7.11865234375 -55.904296875 22.7236328125
-8.668701171875 -23.3955078125 76.917236328125
36.889404296875 36.929931640625 -65.013427734375
12.4140625 -12.55126953125 -44.932373046875
17.30615234375 -2.405029296875 44.25341796875
34.44384765625 -5.07275390625 -35.636962890625
14.700927734375 -34.620361328125 -28.7666015625
8.142333984375 12.68408203125 11.849609375
-8.56591796875 -26.211669921875 31.096923828125
14.32275390625 -10.223388671875 -46.888916015625
20.49951171875 -65.511474609375 68.214111328125
-3.330078125 24.340087890625 -33.737548828125
4.933349609375 -46.08544921875 -38.7177734375
22.379150390625 -10.58447265625 -30.116455078125
-22.651123046875 -38.177978515625 67.669921875
-11.953125 -31.225341796875 71.31201171875
8.907958984375 16.3154296875 -6.184814453125
15.26171875 -28.543212890625 50.085205078125
19.3251953125 -26.617919921875 59.2353515625
20.306396484375 -23.93798828125 -26.31103515625
19.46533203125 -23.393798828125 58.9462890625
7.938720703125 -52.62548828125 26.077392578125
18.8251953125 -20.905517578125 21.6650390625
-0.253173828125 9.85205078125 22.16015625
5.24169921875 4.97314453125 32.780029296875
9.72314453125 -63.095947265625 -2.7861328125
19.097900390625 -59.38916015625 8.208251953125
-20.897216796875 -41.86865234375 64.896728515625
-4.386474609375 -34.186767578125 51.337646484375
31.438232421875 30.5419921875 -66.0029296875
10.3046875 -19.1533203125 45.01953125
22.771240234375 -15.406982421875 -33.35498046875
-22.216552734375 -22.9697265625 78.98974609375
28.64697265625 -7.613037109375 -31.13037109375
25.59619140625 -9.673828125 -28.146728515625
-16.71484375 -21.76416015625 9.9873046875
13.7138671875 12.6005859375 13.43115234375
36.28662109375 -5.58642578125 -28.24853515625
7.12939453125 4.64697265625 6.7333984375
10.564697265625 -24.946533203125 44.553466796875
18.009521484375 19.650634765625 -19.317138671875
10.344970703125 6.707275390625 37.10791015625
5.546142578125 11.2783203125 16.310546875
11.873046875 4.889404296875 44.126953125
34.743408203125 26.306640625 -56.962646484375
8.97705078125 -27.293212890625 44.5224609375
15.50439453125 13.34765625 7.13671875
8.62890625 -26.763427734375 -46.474853515625
-1.64013671875 8.751953125 25.951416015625
-20.2392578125 -6.52294921875 28.0595703125
1.880615234375 17.948974609375 -28.612548828125
14.97705078125 -16.936279296875 43.43603515625
13.073486328125 17.07568359375 -2.20068359375
15.64208984375 -30.060546875 54.217041015625
19.031494140625 -32.75341796875 61.72119140625
17.709716796875 -24.49560546875 57.546142578125
8.366455078125 13.205322265625 8.540283203125
19.622802734375 -27.79931640625 -25.051513671875
-10.84521484375 -28.93505859375 46.098388671875
8.039794921875 10.300048828125 22.165771484375
17.0810546875 -25.936767578125 54.28515625
19.151123046875 -33.97900390625 73.4892578125
-2.702880859375 7.02392578125 32.88818359375
-22.464599609375 -43.23974609375 57.3046875
-1.41748046875 5.14306640625 38.150634765625
38.29150390625 18.748046875 -56.441162109375
18.57275390625 -32.355712890625 -22.290771484375
2.7275390625 -25.324462890625 41.93212890625
34.510986328125 22.86328125 -56.743408203125
18.287353515625 -9.179931640625 36.86181640625
6.6474609375 -56.596923828125 18.422119140625
8.005126953125 11.60302734375 5.79345703125
3.844970703125 -32.7294921875 -38.5966796875
8.09619140625 25.191162109375 -36.628662109375
8.5830078125 -15.2978515625 -46.261474609375
16.9404296875 18.682861328125 -12.300537109375
11.839599609375 20.74462890625 -17.677001953125
-4.89404296875 7.8291015625 29.42822265625
8.702880859375 24.3359375 -31.64111328125
-11.96533203125 -20.4541015625 77.633056640625
25.850830078125 -25.78857421875 -44.6142578125
13.105712890625 -36.451171875 -40.575927734375
6.178955078125 3.732666015625 40.805419921875
-27.0634765625 -1.86962890625 53.565185546875
9.110107421875 16.7998046875 -11.201904296875
14.3505859375 27.2744140625 -42.486328125
23.082275390625 0.507568359375 -48.172607421875
-22.671875 -23.513671875 75.343017578125
-10.977294921875 7.9111328125 28.08251953125
14.478515625 -19.4287109375 38.5341796875
13.299560546875 13.279296875 11.22265625
20.265869140625 -31.80419921875 -44.91162109375
22.373291015625 -7.878662109375 -43.978271484375
-27.05078125 -10.520263671875 26.624267578125
0.804931640625 24.083251953125 -34.707275390625
-20.9794921875 -40.373291015625 62.55859375
18.871826171875 -36.5595703125 60.624267578125
-10.75732421875 -21.8583984375 73.54443359375
4.71142578125 -30.387939453125 47.295654296875
17.699462890625 -25.092041015625 23.3076171875
10.512451171875 8.923828125 28.011962890625
19.4775390625 -27.30029296875 70.48974609375
18.272705078125 -17.737548828125 33.2294921875
-26.410888671875 -12.145263671875 30.5146484375
7.63818359375 22.009765625 -23.366455078125
8.385498046875 -37.173828125 -23.603271484375
32.291259765625 35.91748046875 -63.252685546875
-22.512939453125 -44.0078125 60.233642578125
-22.99072265625 -40.54052734375 57.207275390625
19.144775390625 -55.623291015625 11.859130859375
-13.784912109375 -34.100830078125 51.76611328125
16.207275390625 20.7900390625 -23.05615234375
24.72119140625 -17.895751953125 -34.70263671875
19.30029296875 -25.53662109375 -29.32080078125
3.65234375 3.2099609375 48.271484375
6.56689453125 27.2265625 -42.960205078125
-12.380126953125 -32.09814453125 49.01318359375
-19.66943359375 4.18212890625 26.8701171875
17.472412109375 -33.452392578125 -25.199462890625
19.022216796875 -43.332763671875 57.97802734375
1.071044921875 8.183349609375 29.47412109375
5.762939453125 7.619384765625 7.95947265625
17.662353515625 11.152587890625 12.98486328125
22.4326171875 -45.239013671875 61.16943359375
-21.095703125 -37.18310546875 52.545166015625
-17.179443359375 7.272216796875 27.940673828125
31.1845703125 2.289306640625 -39.98876953125
17.952392578125 -15.285888671875 38.392578125
6.74658203125 -27.67529296875 44.470458984375
3.532958984375 -27.2822265625 44.26123046875
20.129150390625 -23.058349609375 62.677490234375
11.01953125 17.70556640625 -7.692626953125
-22.78076171875 -37.86474609375 65.4375
2.356689453125 -35.412353515625 53.392822265625
-5.05810546875 0.595703125 47.74365234375
18.725341796875 16.29931640625 -1.662353515625
37.409912109375 27.810546875 -60.2568359375
41.894775390625 20.632080078125 -54.138916015625
-6.819091796875 22.284423828125 -27.32470703125
18.3486328125 -24.82763671875 21.177734375
5.18310546875 -49.843017578125 -34.891357421875
-2.82177734375 22.48583984375 -28.161376953125
13.99169921875 -28.216796875 54.99072265625
-18.978759765625 -1.27099609375 24.794677734375
28.89697265625 -14.851318359375 -26.753173828125
14.702880859375 -31.046875 -44.541259765625
21.83984375 -58.95458984375 0.754150390625
18.60205078125 -67.2529296875 75.06103515625
-16.981201171875 6.798828125 30.227783203125
2.65185546875 4.16845703125 41.896484375
-5.0400390625 -26.35205078125 74.592041015625
7.5390625 -47.098876953125 -33.770751953125
-11.384033203125 -24.992919921875 68.24462890625
24.0703125 -18.427978515625 -36.954833984375
19.3662109375 -30.961669921875 -26.5
-8.988525390625 -35.717529296875 52.94873046875
8.9052734375 24.05126953125 -39.740966796875
25.544189453125 -8.447265625 -42.502197265625
32.177001953125 24.93115234375 -59.673828125
19.1796875 -26.42041015625 77.603515625
-6.260986328125 5.947021484375 36.59326171875
33.09716796875 -6.924072265625 -31.447998046875
8.27685546875 -18.3525390625 42.792724609375
45.06640625 19.487548828125 -56.69775390625
34.08251953125 24.151611328125 -62.233642578125
9.595458984375 -34.369384765625 -27.102294921875
20.094970703125 -32.225341796875 59.888427734375
4.957763671875 24.765625 -33.95751953125
44.830322265625 19.163818359375 -63.0234375
6.794189453125 24.94384765625 -43.230712890625
13.583251953125 22.479736328125 -24.332275390625
24.88232421875 -23.6005859375 -46.0
-18.7333984375 0.98095703125 24.531982421875
19.2705078125 -31.548828125 85.632080078125
17.158203125 -13.388671875 -43.967041015625
22.775390625 -2.5439453125 -46.703857421875
18.1396484375 -34.640869140625 -31.618408203125
-19.78076171875 -1.99169921875 32.01416015625
-0.418701171875 1.546875 48.473876953125
5.637939453125 -20.15869140625 44.140380859375
19.064697265625 -21.470703125 66.7177734375
13.6533203125 27.781982421875 -47.495361328125
-22.00244140625 -8.50341796875 30.748291015625
18.964599609375 -17.16552734375 -45.258544921875
15.711669921875 28.217529296875 -43.87939453125
5.441162109375 5.890380859375 6.2080078125
19.44677734375 -38.896484375 -38.194580078125
7.314208984375 -24.387939453125 40.403076171875
-6.29931640625 -24.08154296875 39.956298828125
24.857177734375 -22.730224609375 -48.94482421875
43.652099609375 18.785888671875 -60.64208984375
-14.68359375 -30.1806640625 45.160400390625
8.26611328125 -60.390380859375 18.62939453125
34.825439453125 36.196044921875 -66.468994140625
-1.385986328125 24.328857421875 -34.657958984375
20.362548828125 -25.821044921875 68.777587890625
15.1455078125 -21.003173828125 35.033935546875
21.503662109375 -43.495849609375 62.286865234375
23.656982421875 -20.705810546875 -44.15625
21.174072265625 -33.843017578125 -40.51171875
-4.600341796875 9.484130859375 22.6552734375
27.445068359375 28.044189453125 -66.047607421875
0.350830078125 -36.104248046875 52.69677734375
19.1357421875 -38.076904296875 -41.42138671875
9.66162109375 -28.98974609375 -45.2138671875
19.2138671875 12.721923828125 8.96240234375
22.378173828125 -13.697021484375 -38.168701171875
26.39013671875 -26.976318359375 -47.54150390625
18.376708984375 -20.0166015625 27.154296875
47.45166015625 19.998291015625 -65.660888671875
18.41455078125 -39.803466796875 84.117431640625
24.821533203125 -9.796630859375 -34.82177734375
-19.531982421875 -8.075927734375 22.388671875
19.187744140625 -58.58154296875 10.27685546875
-18.511962890625 -0.429443359375 20.822021484375
13.08251953125 23.07568359375 -27.153076171875
-23.915771484375 -28.381103515625 72.966796875
25.328369140625 -23.6044921875 -34.708740234375
19.60986328125 -56.9013671875 -1.09375
13.16357421875 24.61181640625 -30.56982421875
27.636962890625 6.192138671875 -41.1005859375
6.77978515625 -29.666748046875 -41.032958984375
-11.418701171875 9.14990234375 23.002197265625
19.158935546875 -27.57373046875 68.41552734375
21.97900390625 -9.963623046875 -42.41796875
-19.9912109375 -35.144287109375 69.91650390625
-22.27001953125 -41.54443359375 61.360595703125
2.493896484375 -30.557373046875 47.728515625
27.866455078125 -16.425537109375 -25.744873046875
19.405029296875 -30.85205078125 77.26318359375
-5.384521484375 -36.11865234375 52.753662109375
-7.622802734375 -20.43359375 76.369384765625
19.941162109375 -35.57421875 -37.5078125
24.625 -0.71923828125 -43.31005859375
15.338134765625 15.334228515625 -0.07421875
-25.31103515625 -10.32763671875 28.9453125
42.515625 19.054931640625 -55.936767578125
2.064453125 -39.18212890625 -36.8193359375
8.82763671875 -37.68994140625 -25.763427734375
40.810546875 17.1162109375 -50.119873046875
14.456298828125 -14.729736328125 -45.309326171875
10.482666015625 27.418701171875 -41.340087890625
16.97119140625 3.490234375 -0.851806640625
19.193359375 -7.52587890625 -48.955078125
-19.627685546875 -0.63134765625 39.16796875
-7.060546875 6.731689453125 33.386474609375
19.447021484375 -51.62548828125 14.161865234375
6.937744140625 -63.557861328125 11.889404296875
8.672119140625 11.451171875 17.521728515625
23.336181640625 -9.798095703125 -39.12451171875
8.224609375 8.733154296875 27.55029296875
8.69482421875 19.70654296875 -17.30322265625
9.04296875 -13.212646484375 -44.94970703125
-12.885986328125 -38.802734375 56.436279296875
11.53662109375 -36.45849609375 -23.32177734375
3.939208984375 -37.457275390625 -36.408447265625
32.9375 -7.556640625 -33.580810546875
-19.426025390625 3.488525390625 33.057861328125
21.167236328125 -27.555908203125 58.774658203125
-14.081298828125 3.709228515625 43.655029296875
20.646240234375 -22.1240234375 72.054443359375
-16.6826171875 0.512451171875 47.501220703125
18.26953125 -14.83935546875 30.60498046875
25.353271484375 -18.719970703125 -32.43701171875
11.210693359375 24.520263671875 -31.391845703125
18.77783203125 -24.3515625 18.186767578125
-21.708984375 -7.91845703125 24.97412109375
19.2861328125 -37.5029296875 -34.51025390625
9.838623046875 21.93212890625 -22.81494140625
16.851318359375 13.44921875 4.8564453125
28.5859375 -0.231689453125 -42.04443359375
19.4765625 -54.137939453125 14.740478515625
19.35986328125 -24.06103515625 -51.675537109375
9.51416015625 23.8203125 -29.677734375
18.68408203125 -34.13134765625 75.715576171875
-8.28271484375 9.754638671875 22.060302734375
18.98193359375 -40.08154296875 62.65087890625
15.12548828125 -34.221923828125 -23.4560546875
8.073974609375 -52.90625 -33.77294921875
12.359130859375 -45.13427734375 -33.401611328125
11.304443359375 -42.596435546875 -36.4189453125
-19.583984375 -2.333984375 45.42041015625
18.84423828125 -71.764404296875 76.10888671875
16.84423828125 10.149658203125 16.8193359375
7.98681640625 -40.64892578125 -37.111083984375
-6.89599609375 4.701171875 41.551513671875
7.261962890625 -28.355224609375 -43.28759765625
19.3779296875 -29.73193359375 84.06591796875
7.229248046875 -51.1494140625 24.588134765625
15.849853515625 11.273193359375 14.099365234375
-18.541015625 0.609619140625 45.8330078125
29.529296875 3.4033203125 -39.511474609375
38.618408203125 17.027099609375 -52.639404296875
33.25830078125 0.46484375 -40.8681640625
3.226806640625 8.96044921875 25.52880859375
9.9287109375 14.892822265625 4.979736328125
16.282470703125 -24.71630859375 28.6328125
-6.6689453125 -18.80615234375 44.52490234375
18.3330078125 -13.9814453125 33.030517578125
16.596435546875 -43.573486328125 -42.428955078125
-19.718017578125 -8.714111328125 32.566650390625
-21.330322265625 -8.758056640625 23.110595703125
-0.9482421875 4.404296875 41.154296875
17.109130859375 -14.94775390625 43.03271484375
19.871337890625 -26.0810546875 72.900634765625
28.214111328125 26.9287109375 -64.476318359375
13.639892578125 -31.103271484375 50.572265625
10.9755859375 -12.53955078125 -46.373779296875
11.044921875 11.3642578125 18.423828125
14.087890625 -34.039306640625 -25.2861328125
19.263427734375 -29.654296875 80.04638671875
18.1025390625 -4.0556640625 45.122802734375
10.99462890625 6.065673828125 39.49951171875
17.4755859375 -21.444091796875 30.526611328125
32.841552734375 27.1630859375 -63.910400390625
18.99951171875 -34.822998046875 61.86279296875
23.141357421875 2.185791015625 -47.049560546875
12.572998046875 -18.434814453125 42.580810546875
-9.4951171875 -0.45703125 46.884033203125
22.427001953125 -16.7158203125 -41.7236328125
25.5166015625 -22.103759765625 -39.5615234375
16.063232421875 24.154052734375 -30.68603515625
18.60498046875 -69.388916015625 71.369384765625
-8.524658203125 -22.8154296875 67.614501953125
21.765625 -25.71923828125 -49.98291015625
-31.9013671875 -2.4619140625 55.150390625
-2.218017578125 -26.539306640625 43.3271484375
-19.651123046875 4.269775390625 24.863037109375
18.742431640625 -65.818115234375 69.607666015625
-19.47802734375 -2.2216796875 22.774658203125
-10.028076171875 -36.762451171875 54.36865234375
18.740966796875 -33.326171875 -29.902587890625
14.36328125 0.65625 47.52392578125
18.690673828125 -68.577880859375 68.36669921875
18.717529296875 -17.877685546875 26.272216796875
47.87255859375 18.638427734375 -61.87548828125
0.73046875 6.5107421875 33.767578125
12.876708984375 20.421875 -14.886474609375
8.98095703125 28.4912109375 -46.623291015625
8.074462890625 4.5693359375 35.72412109375
19.513427734375 -33.219482421875 -41.78173828125
2.814697265625 20.83984375 -25.113037109375
10.89794921875 -26.1064453125 -48.8486328125
0.70654296875 -21.494140625 42.07470703125
14.5361328125 9.838623046875 24.94140625
-23.222900390625 -32.31201171875 72.083251953125
19.406494140625 -24.968994140625 81.44580078125
4.815185546875 8.03955078125 5.719970703125
14.17236328125 11.06298828125 18.162841796875
5.73828125 10.844482421875 20.198974609375
19.623046875 -8.3134765625 46.492919921875
11.658203125 24.621337890625 -33.52490234375
25.7685546875 -23.784912109375 -37.472900390625
7.843505859375 3.86669921875 47.56396484375
10.680908203125 -36.917724609375 -39.265625
19.015380859375 -35.6396484375 66.179931640625
10.189208984375 5.21923828125 42.158935546875
1.112060546875 23.528076171875 -30.556396484375
-19.844482421875 0.883056640625 44.139404296875
19.487548828125 -25.63134765625 -25.499755859375
18.17919921875 17.947998046875 -6.491455078125
-17.9755859375 -1.579833984375 19.307861328125
8.3740234375 5.013671875 43.227783203125
40.5 22.718505859375 -61.03466796875
-9.09716796875 -28.24365234375 45.507568359375
7.47509765625 -32.3271484375 47.4775390625
8.531494140625 24.472412109375 -41.62548828125
19.9873046875 -26.977783203125 -34.04296875
-11.23583984375 6.873046875 31.791259765625
0.295166015625 -23.798095703125 40.05078125
19.22607421875 -54.197509765625 5.2470703125
11.419921875 14.543701171875 6.719482421875
-10.900634765625 -26.97705078125 43.645751953125
2.907470703125 24.040771484375 -31.28955078125
21.753173828125 -21.239990234375 60.340576171875
33.750244140625 25.316162109375 -58.320068359375
22.20654296875 -6.817626953125 -47.9150390625
3.32568359375 -29.28564453125 46.477783203125
-5.06396484375 4.312744140625 42.3544921875
1.98046875 -33.791748046875 50.732666015625
-4.23193359375 23.1982421875 -30.016845703125
3.98974609375 -30.017822265625 -41.060546875
19.190673828125 3.37255859375 -0.251708984375
19.16796875 -35.92041015625 85.10791015625
24.208740234375 -7.04443359375 -42.323974609375
35.594970703125 -3.983154296875 -36.762939453125
19.7412109375 -30.018798828125 -33.797119140625
-0.751220703125 20.265380859375 -26.444091796875
-9.47900390625 9.105224609375 23.6875
-11.19482421875 5.752685546875 36.663330078125
1.42041015625 18.9990234375 -27.020751953125
9.84619140625 -44.24072265625 -36.113525390625
-3.37353515625 -35.43212890625 52.453857421875
-7.46875 -24.70947265625 36.067626953125
-10.35400390625 -22.8232421875 34.649169921875
16.601318359375 -28.660400390625 -47.669677734375
24.603759765625 -21.989990234375 -33.41845703125
-2.325927734375 -24.280517578125 40.393310546875
7.679931640625 -54.83056640625 24.8076171875
-10.461181640625 -38.1083984375 57.670654296875
22.2119140625 -6.020751953125 -49.68603515625
5.486083984375 -22.69970703125 28.421875
12.611572265625 -32.800537109375 44.14111328125
16.233642578125 9.025634765625 25.484375
-5.997802734375 -33.306884765625 50.756103515625
-2.65673828125 9.59619140625 21.36083984375
19.9931640625 -57.300048828125 4.06640625
34.5576171875 27.850341796875 -66.279052734375
-8.806396484375 7.874267578125 29.04833984375
7.04150390625 -58.473388671875 16.51123046875
-4.7666015625 8.8173828125 25.320068359375
6.58203125 -47.6484375 -38.675537109375
-11.466064453125 4.515380859375 40.810546875
10.96484375 25.33447265625 -36.18896484375
33.267578125 33.410888671875 -68.475341796875
9.972412109375 25.5693359375 -40.830810546875
-22.959716796875 -42.007080078125 55.789794921875
9.162353515625 -29.1474609375 45.425048828125
10.100830078125 9.585693359375 25.86181640625
5.470703125 -35.8955078125 -36.8095703125
-4.130126953125 7.360595703125 31.213623046875
19.43505859375 -56.462890625 7.83056640625
18.417236328125 -15.182861328125 34.50830078125
-7.19677734375 -25.09130859375 41.7685546875
19.5751953125 -27.2236328125 -47.14697265625
17.59619140625 -23.375244140625 -52.832763671875
-18.814697265625 4.705322265625 31.4853515625
16.55615234375 -19.74609375 35.278564453125
20.38427734375 -24.0361328125 73.303466796875
19.353515625 -46.937744140625 55.955322265625
-7.709228515625 -20.453857421875 73.260009765625
26.481689453125 2.43212890625 -39.94775390625
15.016845703125 -8.99951171875 -49.367431640625
-19.021484375 -0.262451171875 34.220458984375
22.44970703125 -3.44677734375 -49.90966796875
37.55859375 27.9228515625 -58.038818359375
33.870361328125 27.479736328125 -58.428955078125
-8.888427734375 -32.21533203125 49.349853515625
18.305419921875 -12.34375 33.990234375
10.728515625 7.262451171875 34.30712890625
-9.085205078125 -23.531982421875 32.01123046875
15.8828125 -11.74169921875 -44.40283203125
21.816162109375 -19.56640625 62.564453125
18.814697265625 -23.4541015625 61.371826171875
11.139404296875 10.40185546875 21.904052734375
19.1435546875 -56.495361328125 -2.883544921875
-7.406982421875 -22.677001953125 35.957275390625
-17.864990234375 7.509521484375 25.611328125
18.271240234375 -11.8505859375 36.490234375
16.71875 -26.05224609375 57.948486328125
17.39306640625 -18.32861328125 36.50634765625
6.692138671875 -61.324462890625 14.758056640625
-20.366943359375 -4.501708984375 45.228271484375
41.020751953125 18.9892578125 -54.446533203125
8.234619140625 12.462646484375 13.81982421875
12.328857421875 -60.181640625 -1.967529296875
24.419189453125 -22.416748046875 -44.342529296875
1.849365234375 23.800537109375 -37.493896484375
18.951904296875 -56.180419921875 13.660888671875
11.793701171875 -34.2177734375 -42.158935546875
6.32568359375 6.157470703125 33.757568359375
-9.796630859375 6.001708984375 35.391357421875
19.589111328125 -28.8896484375 63.439453125
11.687744140625 -19.145263671875 40.8994140625
6.340087890625 -44.4345703125 -37.7998046875
-13.427490234375 -38.603515625 60.235595703125
13.588623046875 28.306640625 -45.69580078125
18.42578125 -12.106689453125 45.230224609375
-24.156005859375 -24.491455078125 76.18115234375
6.767578125 -64.09619140625 13.673583984375
5.365234375 -33.944091796875 -37.850341796875
25.751708984375 -28.131591796875 -38.03564453125
-2.459716796875 4.968994140625 40.043212890625
-22.33349609375 -38.420166015625 53.2041015625
15.70703125 12.54150390625 10.0791015625
-9.02392578125 -23.538818359375 71.287109375
-18.2216796875 -3.951416015625 36.000244140625
18.738037109375 -59.117431640625 80.55810546875
-3.129150390625 3.15234375 47.8857421875
14.345458984375 7.01611328125 33.654296875
12.8681640625 -19.741455078125 39.423095703125
7.7392578125 3.09033203125 37.047607421875
8.26513671875 -34.355712890625 -38.513671875
-1.395751953125 -32.773681640625 49.6845703125
21.507568359375 -9.50341796875 -44.278564453125
24.774169921875 -21.720703125 -36.48828125
33.595458984375 -7.0341796875 -25.6689453125
12.403564453125 26.41455078125 -39.920654296875
25.908203125 -26.30712890625 -35.274169921875
11.812255859375 -34.36328125 45.869873046875
3.21435546875 23.399658203125 -38.9296875
19.728515625 -31.6005859375 88.005126953125
15.01708984375 3.38623046875 45.412353515625
7.92138671875 -25.332275390625 41.89501953125
-14.183349609375 -31.845947265625 71.351318359375
13.13330078125 -26.685546875 -48.2158203125
-4.919921875 7.014892578125 32.917724609375
28.015869140625 -5.094482421875 -37.993408203125
16.814697265625 -23.00634765625 29.126708984375
17.8115234375 12.97900390625 12.286865234375
17.88330078125 -19.897216796875 31.63330078125
16.91162109375 -19.572265625 -49.087158203125
19.16015625 -61.725830078125 8.2080078125
12.640625 -9.9833984375 -49.262451171875
19.07421875 -37.089111328125 64.793701171875
-6.949951171875 3.4765625 45.952392578125
24.52880859375 -22.779296875 -30.457763671875
-13.26416015625 6.7099609375 32.67578125
7.301513671875 7.7236328125 33.341796875
19.02783203125 -8.369384765625 -51.755126953125
26.157958984375 -19.522705078125 -36.701416015625
22.4443359375 -18.1669921875 -40.57421875
18.175537109375 -8.669677734375 -47.91552734375
-10.927490234375 -21.871337890625 78.21533203125
-16.087158203125 8.1806640625 25.9091796875
28.10693359375 37.28857421875 -57.148681640625
12.761474609375 21.397705078125 -20.221923828125
21.80078125 -28.65283203125 -47.651123046875
26.239013671875 -27.777099609375 -43.23291015625
-2.055908203125 -33.956298828125 51.267822265625
-19.821533203125 -5.004150390625 22.631591796875
29.547119140625 -6.8603515625 -34.88037109375
12.3408203125 8.025634765625 30.90771484375
24.84912109375 -30.21435546875 56.95458984375
2.192138671875 -33.247802734375 -39.22021484375
-10.21240234375 -25.169189453125 40.5244140625
14.314208984375 20.86474609375 -19.00830078125
40.370849609375 18.644775390625 -57.9404296875
26.2490234375 -24.005126953125 -44.418701171875
-12.51708984375 -19.71923828125 42.435546875
-5.962158203125 6.441650390625 34.849365234375
-8.720947265625 5.4951171875 37.353515625
-18.3515625 -1.719970703125 33.1357421875
6.25 -47.907958984375 -34.798828125
22.633056640625 3.317138671875 -42.449462890625
19.55322265625 -23.919189453125 -24.4345703125
19.148681640625 -27.307373046875 79.518310546875
32.52294921875 34.308349609375 -64.103515625
-22.923583984375 -38.957763671875 56.143310546875
18.908447265625 -38.302734375 83.187255859375
20.0068359375 -27.267578125 -23.1533203125
18.50341796875 -64.834716796875 77.3525390625
14.401123046875 -31.620361328125 48.988037109375
15.3125 -18.0205078125 39.75048828125
18.62158203125 -58.386474609375 -2.362548828125
15.93408203125 -16.068359375 -45.081787109375
-2.005615234375 -30.146484375 47.187255859375
27.53955078125 37.8984375 -55.390380859375
10.793701171875 -34.918212890625 -24.8671875
8.841796875 -45.27734375 -37.444580078125
25.86767578125 -15.11669921875 -30.66064453125
-17.74755859375 -41.20947265625 60.258544921875
23.02880859375 -14.16943359375 -30.742431640625
20.123046875 -56.02099609375 81.168701171875
8.38916015625 13.359619140625 1.22119140625
-20.428466796875 -41.03466796875 59.734375
-15.548828125 -30.964599609375 47.417236328125
19.08349609375 -29.71240234375 75.588623046875
10.629638671875 -45.58447265625 -35.161865234375
25.724853515625 -4.66748046875 -43.2607421875
17.400146484375 -1.383056640625 46.063720703125
18.955810546875 -4.584228515625 46.86328125
5.13671875 11.21630859375 18.20947265625
22.635498046875 -8.697509765625 -30.9462890625
12.5302734375 -42.69140625 -34.149658203125
-20.8701171875 -3.896728515625 30.10595703125
14.629638671875 23.709228515625 -29.25390625
-6.703369140625 7.71875 29.59619140625
19.322265625 -31.845947265625 -43.355712890625
-15.754638671875 -39.761474609375 58.0009765625
-18.19775390625 4.041748046875 39.201904296875
-16.588623046875 8.752685546875 22.39111328125
18.8447265625 -71.75341796875 71.324951171875
14.75244140625 7.98193359375 30.796630859375
14.1572265625 26.36865234375 -38.314453125
29.7109375 -4.990234375 -37.355224609375
-15.461181640625 3.257080078125 45.379638671875
35.981689453125 36.92333984375 -67.65966796875
15.350341796875 -17.569091796875 -47.44580078125
19.12939453125 -34.918701171875 81.41796875
33.299560546875 25.76904296875 -62.01025390625
0.683349609375 -19.902587890625 43.99658203125
-8.30322265625 -23.692626953125 37.783203125
-16.27685546875 2.98583984375 47.06640625
12.643798828125 -41.041259765625 -38.36669921875
15.740478515625 26.418701171875 -41.068359375
10.056396484375 -27.5966796875 -47.390625
-16.639892578125 6.17333984375 33.353515625
0.046142578125 3.231201171875 48.010009765625
29.6865234375 -14.39501953125 -28.658935546875
4.205810546875 -31.714599609375 48.757080078125
6.08154296875 9.481689453125 5.02685546875
-19.353515625 -0.2939453125 35.993896484375
-21.6044921875 -37.029296875 68.587158203125
4.2900390625 4.73193359375 42.874755859375
-0.408447265625 23.882568359375 -32.323974609375
-8.671630859375 -29.640869140625 46.641357421875
-29.06591796875 -0.857177734375 52.07177734375
9.4248046875 16.874755859375 -14.74951171875
3.9326171875 6.70751953125 32.893310546875
18.92333984375 -29.2275390625 -32.401611328125
18.243408203125 -26.861083984375 15.60107421875
26.56640625 -21.500732421875 -27.293212890625
-18.306640625 -34.951171875 51.92529296875
13.69384765625 -34.58251953125 -27.186767578125
23.838134765625 -24.045166015625 -53.90478515625
22.79541015625 -13.612548828125 -33.3828125
29.949951171875 -10.722900390625 -42.228271484375
16.091796875 14.183349609375 2.4013671875
-19.686767578125 0.702392578125 32.861328125
-17.505126953125 5.909912109375 31.714111328125
22.406982421875 -10.45703125 -32.43115234375
-18.98828125 4.48583984375 22.730224609375
20.994384765625 -58.1572265625 79.25146484375
8.365478515625 -57.14208984375 22.156982421875
-10.775634765625 -20.744873046875 76.22802734375
18.211669921875 -32.366943359375 -26.50439453125
25.914794921875 -16.892822265625 -31.845458984375
-19.101806640625 -7.90625 19.947265625
18.84814453125 -25.76611328125 -31.75048828125
4.3642578125 8.48095703125 4.050048828125
31.0615234375 -3.134765625 -38.692138671875
21.387451171875 -24.22314453125 63.173583984375
17.260009765625 17.615234375 -9.900146484375
28.419189453125 -6.4619140625 -41.875732421875
34.353515625 -1.848876953125 -38.456298828125
18.2333984375 -9.9326171875 39.410400390625
23.669677734375 -30.196044921875 -44.798583984375
-18.600830078125 6.228515625 22.33935546875
40.025146484375 18.4345703125 -55.8154296875
19.173095703125 -27.955810546875 75.8681640625
19.3193359375 -24.949462890625 -27.621826171875
17.44775390625 12.547119140625 10.565185546875
19.05322265625 -22.946533203125 -27.366455078125
26.018310546875 -26.025634765625 -42.417724609375
38.110595703125 16.7509765625 -50.9580078125
18.3994140625 -17.59228515625 29.079345703125
20.225341796875 -41.0771484375 63.637939453125
1.8427734375 4.401123046875 44.03076171875
22.234130859375 -16.45703125 -39.774658203125
22.82080078125 -32.7001953125 -42.170166015625
-1.000732421875 9.215576171875 24.3603515625
18.61328125 -71.76318359375 64.242431640625
28.722412109375 -12.59130859375 -28.312744140625
-22.51220703125 -41.13134765625 64.856201171875
0.276123046875 17.3369140625 -25.30712890625
18.82275390625 -26.5498046875 65.326904296875
18.52197265625 -21.234619140625 24.000732421875
-3.499755859375 5.91748046875 37.0517578125
-0.984130859375 6.9658203125 33.31640625
14.259521484375 -46.213134765625 -31.81640625
6.664794921875 -65.146484375 11.093017578125
9.951904296875 18.373291015625 -9.345947265625
28.790771484375 29.082763671875 -67.44775390625
-28.275634765625 -1.968505859375 55.124267578125
-8.341796875 -25.40576171875 33.382568359375
6.069580078125 -23.2509765625 30.95556640625
-14.78515625 7.634521484375 29.151123046875
-0.45751953125 -26.450439453125 43.2626953125
18.581787109375 14.40087890625 4.29248046875
25.01904296875 -20.9755859375 -40.82177734375
10.510009765625 15.79248046875 1.80908203125
19.081787109375 -35.98974609375 63.295654296875
24.02978515625 -9.3916015625 -28.893798828125
5.38134765625 23.850341796875 -36.65625
17.01416015625 16.468017578125 -6.971923828125
41.94091796875 19.3427734375 -50.6572265625
19.31103515625 -44.858154296875 58.7978515625
23.017578125 1.8251953125 -41.103759765625
10.515625 -61.566162109375 18.211669921875
-13.175048828125 3.318603515625 45.72314453125
13.036865234375 -64.760498046875 15.47119140625
26.335693359375 -25.599365234375 -46.290283203125
6.664794921875 -21.31201171875 43.306640625
20.091552734375 -39.97705078125 -41.807373046875
14.48095703125 14.658447265625 4.92724609375
26.394287109375 -25.80322265625 -38.677001953125
26.592529296875 -19.373046875 -29.05029296875
10.724609375 -18.15234375 43.6435546875
19.276123046875 -51.44384765625 12.167724609375
16.395263671875 -24.589111328125 -52.194580078125
25.0166015625 -26.569091796875 -49.1298828125
14.6435546875 -28.287841796875 -48.616943359375
22.756103515625 -12.515625 -28.7685546875
28.39892578125 -1.5556640625 -40.69580078125
18.60400390625 -36.62158203125 -37.92626953125
7.1787109375 22.475830078125 -25.107666015625
-22.66796875 -41.412109375 63.1201171875
21.456787109375 -19.074462890625 68.9150390625
-6.3505859375 -26.20458984375 43.0185546875
1.233154296875 4.66455078125 34.850830078125
14.18701171875 -22.5771484375 34.413818359375
8.994384765625 22.987060546875 -25.827880859375
19.38232421875 -59.362060546875 6.313232421875
26.028076171875 -28.387451171875 -46.58447265625
-5.457763671875 -24.999755859375 41.70068359375
8.464111328125 -48.57470703125 -31.800537109375
22.212890625 -12.990966796875 -40.328857421875
16.191650390625 -22.431640625 31.166748046875
25.562255859375 -24.148681640625 -49.672119140625
19.34765625 -34.138671875 -32.82275390625
20.210205078125 -41.513427734375 -40.747314453125
16.1806640625 5.660400390625 -48.641357421875
13.064208984375 -34.77587890625 -41.110107421875
18.864990234375 -42.88525390625 60.979248046875
22.408447265625 -14.572021484375 -35.302978515625
25.188232421875 -29.515380859375 -43.95654296875
9.77490234375 27.714599609375 -44.024658203125
23.53857421875 6.057861328125 -42.775390625
17.84423828125 6.580078125 -49.771728515625
36.744384765625 25.0791015625 -57.81689453125
20.4736328125 -22.31298828125 -52.2119140625
11.20068359375 -24.47705078125 42.024169921875
-23.3525390625 -23.198974609375 77.252685546875
16.550048828125 -29.12939453125 55.362548828125
18.194580078125 -27.167236328125 18.268798828125
14.581298828125 25.214599609375 -35.92626953125
7.848876953125 11.371826171875 7.50244140625
-2.724609375 -19.170654296875 44.491943359375
15.759033203125 -19.0615234375 37.4287109375
-8.641357421875 -21.86181640625 77.719482421875
-8.134033203125 8.8232421875 25.43505859375
24.98095703125 0.768310546875 -42.501708984375
19.51025390625 -25.185546875 60.916015625
8.387451171875 9.35791015625 25.891357421875
27.162109375 -7.737060546875 -30.25390625
16.319580078125 -27.569580078125 56.91259765625
-21.165771484375 -21.4462890625 78.046630859375
39.603515625 17.06787109375 -48.34326171875
-20.051513671875 -7.033935546875 32.35498046875
12.04638671875 -38.91552734375 -23.2529296875
3.212890625 23.972412109375 -35.5302734375
-22.65673828125 -34.15087890625 68.44775390625
17.543212890625 -15.362548828125 44.648681640625
8.28857421875 27.56201171875 -43.0458984375
9.958984375 -57.77783203125 22.319091796875
9.353271484375 16.5732421875 -13.054443359375
25.98095703125 -29.25439453125 -42.384521484375
10.425048828125 -37.625 -23.92724609375
-11.6435546875 2.667236328125 47.718505859375
-31.180419921875 -0.9599609375 51.656005859375
17.078369140625 -26.7822265625 -51.13427734375
33.400634765625 35.46044921875 -65.596923828125
-28.77685546875 -3.185546875 56.537841796875
12.845703125 -41.94091796875 -36.812744140625
20.670654296875 -29.246826171875 -46.498779296875
15.882080078125 9.49853515625 20.23681640625
31.24169921875 33.866455078125 -68.752197265625
18.67822265625 -64.141357421875 79.05859375
3.353759765625 4.2470703125 33.482421875
10.706787109375 9.937255859375 23.811279296875
32.18359375 32.8134765625 -66.75244140625
13.581298828125 -28.95703125 -46.328369140625
16.867919921875 -10.39892578125 -44.818603515625
16.276611328125 -60.399169921875 -2.90966796875
7.57958984375 7.936279296875 30.62548828125
2.54736328125 -36.604248046875 -35.53662109375
17.586669921875 -29.003662109375 -46.307373046875
15.705810546875 28.387451171875 -47.89404296875
-5.213623046875 -17.828125 43.213134765625
-8.200927734375 -24.051025390625 40.1708984375
14.869140625 4.61083984375 -49.046875
18.106689453125 -13.77734375 39.1884765625
10.76025390625 -24.0703125 40.404541015625
-17.044189453125 -33.502685546875 50.760986328125
9.033935546875 -61.60400390625 -3.2587890625
13.525146484375 -30.5615234375 -45.693115234375
19.341064453125 -35.897216796875 -35.1484375
11.28955078125 3.12109375 49.008544921875
11.884521484375 5.435791015625 42.1630859375
26.1640625 -24.842041015625 -36.113525390625
-12.068603515625 -30.67431640625 47.721435546875
11.03173828125 -9.73095703125 -48.75341796875
19.8095703125 -51.568115234375 8.995361328125
4.425537109375 -25.1689453125 41.93603515625
14.4501953125 -32.5087890625 -43.700927734375
2.466064453125 -18.3876953125 44.353515625
-0.36279296875 -27.611328125 44.694091796875
22.395263671875 -18.658203125 -43.4599609375
-22.851806640625 -39.62841796875 66.03173828125
26.388427734375 -2.913818359375 -42.7578125
12.379150390625 1.775390625 48.6416015625
10.28369140625 -10.64306640625 -46.802001953125
19.046875 -42.337646484375 59.356689453125
27.385986328125 -4.256103515625 -40.265869140625
-15.239990234375 8.864501953125 24.106201171875
19.288818359375 -23.905029296875 74.596435546875
6.032470703125 22.22705078125 -22.8544921875
15.0849609375 -25.90087890625 54.46337890625
16.19091796875 27.13037109375 -42.66552734375
14.146728515625 -0.51708984375 46.3154296875
23.94921875 -20.366943359375 -33.35498046875
-9.408203125 8.23291015625 27.12109375
1.51806640625 22.749755859375 -27.09375
30.99658203125 4.201171875 -39.80908203125
13.889404296875 -36.67333984375 -23.9404296875
10.111328125 -50.602783203125 -31.7314453125
-3.116943359375 3.7265625 44.990966796875
-0.86669921875 9.819091796875 20.20947265625
26.6923828125 -16.646240234375 -30.311279296875
13.32958984375 -22.01904296875 36.132080078125
35.146484375 24.29736328125 -57.382080078125
19.257080078125 -29.005859375 -27.54638671875
19.880859375 -55.100341796875 1.378173828125
15.134033203125 -33.115478515625 45.98876953125
4.9443359375 -41.44189453125 -38.674072265625
30.688720703125 -11.58837890625 -27.372314453125
7.8369140625 -26.3798828125 43.48779296875
17.72216796875 17.09130859375 -2.859130859375
9.18798828125 22.08984375 -24.367431640625
19.291748046875 -28.014892578125 -29.882080078125
16.502685546875 -21.241455078125 32.368408203125
