20.648193359375 22.808837890625 -28.327880859375
14.674560546875 -36.408935546875 47.1279296875
33.323486328125 -15.025146484375 -28.141845703125
-17.326904296875 -4.162841796875 37.33837890625
20.5224609375 -3.415771484375 44.866455078125
30.052001953125 2.96337890625 -40.4404296875
1.832763671875 8.439208984375 24.599853515625
22.359130859375 2.03564453125 -1.62255859375
9.369384765625 -53.400390625 29.17919921875
44.364990234375 -7.064208984375 -35.3720703125
25.027587890625 -57.881103515625 81.422119140625
15.129150390625 5.168701171875 40.220703125
-15.985595703125 -13.039306640625 18.046630859375
21.2724609375 -46.009765625 61.53564453125
-7.539794921875 -28.28564453125 45.0
26.074462890625 -12.4404296875 -33.698974609375
21.99169921875 -65.618896484375 77.985107421875
26.370361328125 -0.738525390625 -41.48095703125
-13.33251953125 -24.166259765625 13.2822265625
-0.74609375 -34.217041015625 51.377685546875
43.742431640625 -9.473388671875 -31.803466796875
19.881591796875 -17.17578125 40.1005859375
21.1416015625 -39.328857421875 67.162841796875
26.22412109375 -20.720947265625 -36.495361328125
12.697021484375 7.1396484375 31.456298828125
20.96142578125 -8.909912109375 43.950439453125
45.146484375 -4.910400390625 -37.87060546875
4.197509765625 -24.771240234375 41.107421875
23.61474609375 -44.12890625 81.021728515625
16.913818359375 7.36328125 3.8466796875
35.727294921875 0.681884765625 -39.574951171875
-18.12060546875 -0.964599609375 45.809326171875
3.992919921875 6.06201171875 31.49853515625
0.580322265625 -21.112548828125 44.43798828125
-1.630126953125 8.2685546875 21.928466796875
-20.3125 -43.016357421875 65.041259765625
-22.500732421875 -27.533935546875 76.1474609375
23.03271484375 -32.126220703125 -32.307373046875
22.244140625 -53.9541015625 8.750732421875
2.7041015625 5.77294921875 33.989013671875
21.019775390625 -16.04150390625 32.406982421875
33.1943359375 -3.790771484375 -40.354248046875
-3.59765625 -18.567626953125 43.62548828125
21.72314453125 -21.2060546875 23.711669921875
-20.60546875 -40.546875 66.5556640625
-12.291748046875 -32.1572265625 49.139892578125
-17.47021484375 -8.59033203125 23.72412109375
22.901611328125 -21.081298828125 64.49267578125
16.442138671875 -37.185302734375 49.621337890625
35.081787109375 -10.087646484375 -33.87744140625
-20.6220703125 -31.136962890625 74.1875
-0.062744140625 6.9130859375 30.232666015625
27.519287109375 -21.883544921875 -39.3056640625
18.69482421875 -36.321533203125 -23.91748046875
16.310546875 11.53076171875 13.808349609375
12.074462890625 -26.401123046875 42.998779296875
-4.7294921875 -24.3271484375 40.166748046875
-9.148193359375 -39.456298828125 57.054443359375
-6.08203125 7.150634765625 27.892578125
21.1767578125 -24.5732421875 61.869384765625
-0.811767578125 -26.876220703125 43.740966796875
-19.63134765625 -39.0859375 65.28662109375
34.94970703125 -9.922119140625 -29.6376953125
13.593017578125 -19.701904296875 45.10546875
11.666259765625 11.3173828125 15.09521484375
9.6435546875 5.151123046875 34.260498046875
11.8271484375 16.319091796875 -10.33837890625
-9.316162109375 6.702880859375 29.2734375
43.3544921875 -4.18212890625 -38.8828125
21.5732421875 -24.45703125 70.119873046875
-21.77685546875 -31.415283203125 72.08642578125
21.410400390625 -36.374267578125 80.677001953125
12.77734375 4.643798828125 42.385986328125
-13.147705078125 6.29150390625 30.077880859375
-17.052490234375 4.04638671875 30.543212890625
30.6943359375 -8.646240234375 -38.755859375
9.2333984375 -19.224365234375 44.973388671875
21.9326171875 -41.431396484375 85.729248046875
20.43896484375 -27.087158203125 59.01123046875
21.090087890625 -35.341552734375 64.84033203125
13.556640625 17.279541015625 -8.396728515625
44.143310546875 -11.650634765625 -32.017822265625
0.307373046875 2.50390625 48.599853515625
-10.025146484375 7.849853515625 24.56005859375
12.243896484375 -39.248779296875 -25.676513671875
-6.7421875 4.111083984375 40.33984375
34.271240234375 -5.323486328125 -39.372314453125
11.093505859375 4.70458984375 35.852783203125
31.26318359375 -8.1474609375 -36.253173828125
6.195068359375 -30.35205078125 47.850341796875
-5.5966796875 5.80859375 33.287353515625
30.4111328125 -5.835693359375 -41.6162109375
-4.439697265625 4.26416015625 40.207275390625
-19.083984375 -40.59814453125 57.53271484375
-15.802490234375 3.360595703125 38.834228515625
-6.44970703125 5.033203125 36.001220703125
-16.70703125 -4.79736328125 32.818115234375
23.19091796875 5.79052734375 -19.341064453125
-15.7451171875 -6.468994140625 37.326416015625
24.274169921875 -31.101806640625 62.439208984375
19.448486328125 -24.8701171875 23.410400390625
28.08740234375 -22.20654296875 -27.245849609375
7.9287109375 -31.892578125 49.341796875
1.2841796875 -34.72900390625 52.055908203125
12.46435546875 -62.1123046875 21.4384765625
9.54345703125 9.804443359375 20.98388671875
4.359375 3.419677734375 37.076171875
25.791259765625 -14.46240234375 -28.674072265625
41.195556640625 -1.75537109375 -41.462158203125
16.91455078125 -46.322998046875 -32.22021484375
17.529296875 20.705322265625 -24.60546875
9.7880859375 -37.02783203125 51.53271484375
-16.3447265625 -40.24462890625 57.59228515625
21.724365234375 -31.114013671875 80.002197265625
14.83251953125 9.783935546875 21.375732421875
24.59619140625 -20.8955078125 -21.028076171875
21.532958984375 -34.124267578125 84.79736328125
15.418701171875 -61.358154296875 22.550048828125
-18.364990234375 -3.941162109375 26.2626953125
25.916259765625 -17.89794921875 -41.1376953125
21.229248046875 -46.8564453125 57.521484375
20.0869140625 -24.55859375 29.913818359375
-8.089599609375 -31.234130859375 48.140380859375
21.360107421875 -31.123291015625 73.8173828125
-21.788330078125 -41.47509765625 70.38427734375
15.065673828125 -39.443603515625 -23.23974609375
13.059814453125 21.129150390625 -25.5888671875
-23.867431640625 -10.46728515625 27.142822265625
29.2763671875 -20.1884765625 -27.680419921875
-8.376953125 3.615966796875 41.541015625
21.540283203125 -26.091064453125 72.269287109375
21.546630859375 -34.828369140625 77.00244140625
11.78564453125 15.051025390625 -2.510009765625
-17.47998046875 -1.008544921875 32.674560546875
-3.483642578125 3.75439453125 42.601806640625
18.37841796875 -18.084716796875 41.715576171875
18.02734375 22.127197265625 -31.943115234375
30.80859375 -19.017822265625 -25.40625
22.776611328125 -35.690185546875 -20.724609375
22.27392578125 9.995849609375 -24.52587890625
-21.526123046875 -11.548828125 30.6005859375
29.05224609375 -14.979736328125 -28.89404296875
46.12255859375 -13.13330078125 -31.702880859375
20.880615234375 -61.68896484375 24.695556640625
13.003173828125 15.181640625 -0.706787109375
10.72314453125 11.775146484375 8.79931640625
-14.1953125 -34.314208984375 51.64697265625
24.023681640625 -27.290283203125 63.796875
-18.207275390625 -0.923583984375 18.145751953125
-11.677001953125 -16.139404296875 44.12646484375
-30.843994140625 -3.7080078125 47.769775390625
32.89599609375 -0.213134765625 -40.244873046875
-20.775390625 -36.674560546875 68.366943359375
-8.28759765625 -37.0205078125 69.267822265625
23.032470703125 -29.538818359375 -16.521728515625
4.567626953125 -28.5751953125 45.76123046875
22.420654296875 -23.513427734375 -23.870849609375
-13.48681640625 -36.6171875 13.960693359375
10.038330078125 4.486328125 43.770263671875
8.224365234375 2.93359375 49.16943359375
-18.114501953125 -2.431640625 36.29296875
32.86376953125 -17.27490234375 -25.918212890625
20.762451171875 -18.236083984375 35.90185546875
-16.767822265625 -0.935791015625 22.811767578125
22.531982421875 -59.670166015625 5.450927734375
-8.32763671875 -24.6259765625 30.818359375
-14.333251953125 4.957275390625 35.124755859375
-18.018798828125 -37.3115234375 53.54296875
29.176513671875 -18.1552734375 -29.45458984375
29.1103515625 -12.57470703125 -27.27490234375
13.637451171875 -37.99560546875 -23.31787109375
7.576904296875 6.034423828125 33.59765625
-15.34521484375 1.348388671875 47.669677734375
22.50439453125 -30.973876953125 -27.173828125
20.725341796875 -16.22216796875 37.885498046875
22.379150390625 -21.2060546875 -21.01416015625
-14.13671875 -22.087158203125 10.028564453125
22.555419921875 -28.3564453125 -26.72509765625
-20.739013671875 -23.2958984375 77.516845703125
-31.145263671875 -4.506103515625 51.989501953125
22.2177734375 -59.446533203125 11.896484375
25.78173828125 -13.7216796875 -38.770263671875
33.979736328125 1.34619140625 -38.79345703125
10.849609375 -35.6474609375 49.6787109375
22.258544921875 -55.78759765625 13.90087890625
-17.69384765625 3.964599609375 24.8369140625
-10.156005859375 -35.0908203125 52.39794921875
22.82177734375 -33.4091796875 -21.44140625
-22.10546875 -25.756591796875 75.2685546875
22.694091796875 -31.38916015625 -24.948486328125
27.58056640625 -23.743408203125 -40.49609375
-18.68994140625 -37.83154296875 69.9638671875
17.317138671875 16.540771484375 -7.385986328125
-18.916015625 -4.33447265625 41.05419921875
9.3896484375 10.88720703125 16.265625
21.71240234375 -41.196044921875 66.4501953125
16.1142578125 -42.702880859375 -24.552978515625
-15.074462890625 -28.438720703125 6.670654296875
22.238037109375 -21.489990234375 62.440673828125
-12.05224609375 1.966064453125 47.2822265625
-6.02587890625 8.213134765625 23.6337890625
17.702880859375 5.8115234375 35.305908203125
-38.41650390625 -5.1748046875 57.323974609375
18.691162109375 22.332763671875 -24.456787109375
21.690185546875 -47.854736328125 59.360107421875
17.091552734375 -36.495361328125 -27.93505859375
41.467041015625 -4.43896484375 -37.977294921875
27.4892578125 -7.806640625 -42.760498046875
8.416015625 17.55859375 -23.975830078125
22.4912109375 -47.746337890625 83.031494140625
27.585693359375 -11.249755859375 -33.183349609375
41.952880859375 -8.51611328125 -35.80224609375
-6.327392578125 -29.982177734375 46.8125
-16.0908203125 6.817138671875 23.99462890625
22.249267578125 -56.939697265625 2.66748046875
20.61328125 -5.43505859375 45.982177734375
18.757080078125 -47.207275390625 -33.096923828125
40.9873046875 -12.732177734375 -31.885009765625
17.5537109375 12.96142578125 -15.7998046875
14.05517578125 -58.33935546875 25.55322265625
1.06103515625 -25.046630859375 41.2646484375
38.133056640625 -7.612060546875 -36.399169921875
15.177001953125 16.026611328125 -2.40771484375
23.260498046875 -66.694091796875 73.74365234375
35.844482421875 -8.1162109375 -36.943359375
3.1630859375 -19.17626953125 44.553955078125
4.766357421875 19.642333984375 -25.046875
18.8798828125 24.570068359375 -32.72119140625
40.170166015625 -10.820068359375 -33.110595703125
7.02783203125 7.726318359375 29.217041015625
20.8017578125 -23.850830078125 26.687255859375
-13.85888671875 7.159912109375 22.803466796875
21.08984375 -11.5078125 38.345947265625
25.6357421875 -55.2744140625 0.6083984375
17.487548828125 13.68212890625 3.627685546875
-8.490478515625 0.416015625 48.865478515625
21.44970703125 -19.970947265625 25.976318359375
-8.697998046875 -19.8427734375 44.265380859375
20.56787109375 -13.709228515625 41.46435546875
34.76416015625 -18.24609375 -25.59716796875
14.4130859375 19.081787109375 -15.280029296875
20.743896484375 -11.292724609375 33.855224609375
-17.206787109375 0.026123046875 28.811279296875
30.558837890625 -9.360107421875 -41.613525390625
8.248779296875 21.2568359375 -26.243408203125
28.197509765625 -35.640380859375 -40.595703125
10.87158203125 -40.837646484375 -27.457275390625
26.684814453125 -11.866943359375 -40.16845703125
21.547119140625 -37.27294921875 86.5458984375
9.803955078125 -56.11669921875 23.03759765625
3.77490234375 -32.19677734375 49.64892578125
-18.818359375 -39.47021484375 71.638916015625
-14.662841796875 -38.277099609375 55.776611328125
11.951416015625 12.887451171875 7.279541015625
30.611572265625 6.011962890625 -43.384765625
-16.28076171875 3.922607421875 34.071044921875
-10.92626953125 -18.78466796875 43.752197265625
43.17138671875 -6.6904296875 -33.263671875
42.17138671875 -13.179443359375 -30.414306640625
5.6240234375 8.349609375 24.975830078125
-3.533203125 5.9541015625 32.8076171875
10.161865234375 10.63525390625 10.894775390625
1.495849609375 -32.0107421875 49.15966796875
9.63134765625 -55.0537109375 27.4638671875
43.93408203125 -13.382568359375 -31.182373046875
-11.845458984375 0.5478515625 48.7255859375
13.443603515625 5.417724609375 39.3134765625
19.348876953125 2.628173828125 48.766357421875
20.478515625 -26.347412109375 26.003173828125
31.207763671875 -10.4013671875 -37.31494140625
32.83056640625 4.41015625 -41.55224609375
-14.337158203125 -25.934326171875 12.52099609375
36.582763671875 -5.474853515625 -39.427734375
21.33984375 -5.893798828125 41.9228515625
9.975341796875 10.400634765625 18.517578125
-21.05908203125 -34.687744140625 69.887451171875
-12.9931640625 -26.975341796875 6.057861328125
5.629638671875 4.605224609375 34.5556640625
11.832763671875 4.177490234375 44.594482421875
34.9677734375 -54.9130859375 5.688232421875
5.149169921875 -25.57568359375 42.567138671875
21.08984375 -23.89404296875 72.853515625
13.46630859375 10.4990234375 19.144287109375
15.537109375 9.101806640625 23.02392578125
-19.468017578125 -42.269287109375 58.917236328125
15.238525390625 22.08544921875 -29.1025390625
21.900390625 -54.150390625 12.388916015625
-15.016845703125 -30.254150390625 9.97998046875
16.32763671875 18.444580078125 -13.952880859375
25.5751953125 -15.431396484375 -37.945556640625
26.5556640625 -22.23486328125 -25.44287109375
4.79931640625 1.404296875 49.605224609375
0.56494140625 -28.96484375 46.00341796875
25.700439453125 -17.168212890625 -33.222900390625
4.1103515625 -33.730224609375 51.06494140625
-21.136474609375 -39.66162109375 69.807861328125
19.04150390625 -28.333251953125 57.992919921875
-20.6328125 -45.249267578125 60.935546875
3.7265625 9.348388671875 21.583740234375
9.59619140625 -62.49169921875 18.594970703125
9.35888671875 18.750244140625 -21.9453125
-1.431396484375 -22.760498046875 42.878662109375
26.436279296875 -17.392333984375 -31.43603515625
21.362548828125 -36.61328125 -23.6806640625
-18.6416015625 -4.5205078125 30.128662109375
22.02685546875 -56.09228515625 15.76416015625
21.8974609375 -52.499267578125 54.416015625
21.35595703125 -39.09375 79.4814453125
11.50341796875 14.177001953125 1.03369140625
10.186279296875 20.26318359375 -18.715576171875
12.448486328125 20.882080078125 -23.380126953125
36.927978515625 -9.531982421875 -33.5810546875
-28.57763671875 -18.728515625 40.386474609375
21.4140625 -15.173583984375 34.184814453125
22.2724609375 -24.99169921875 64.723876953125
-7.3310546875 -23.34326171875 69.057373046875
22.1455078125 2.357666015625 2.945068359375
3.04736328125 -36.880615234375 54.57470703125
21.451171875 -31.81103515625 70.337158203125
16.90771484375 2.793701171875 48.36083984375
6.81884765625 3.854248046875 44.510498046875
-7.164306640625 -22.515625 41.798828125
22.1083984375 -23.34033203125 -16.650146484375
1.501953125 3.6123046875 41.12353515625
22.298828125 11.217529296875 -29.20947265625
21.404296875 -27.658447265625 75.953369140625
35.103515625 -1.591064453125 -41.376953125
21.870361328125 7.799072265625 -11.03662109375
12.7822265625 17.779052734375 -12.822509765625
12.509033203125 -41.66650390625 -23.44873046875
19.097412109375 15.9619140625 -5.951171875
22.02587890625 -39.122314453125 -22.9296875
-16.204345703125 -9.295166015625 19.629638671875
-18.75830078125 -38.326171875 55.142333984375
-11.123779296875 -19.299560546875 41.88134765625
32.24462890625 -13.013916015625 -27.37890625
13.085205078125 22.16162109375 -29.0751953125
4.04443359375 6.95556640625 29.851806640625
21.669921875 -28.714111328125 74.40087890625
29.425048828125 -6.46875 -43.18896484375
-17.201171875 -2.4921875 18.494384765625
11.83349609375 -38.168701171875 -24.203369140625
-17.17724609375 -2.49609375 26.32861328125
9.927978515625 -62.464111328125 16.1259765625
0.55615234375 4.259521484375 39.201904296875
-9.352294921875 -28.92919921875 45.3076171875
14.7822265625 7.9892578125 28.361328125
-21.02392578125 -44.703125 64.659423828125
-29.534912109375 -2.54052734375 48.7236328125
-18.1357421875 0.792724609375 36.63720703125
-4.408203125 -38.544677734375 56.751708984375
21.831787109375 -33.89404296875 65.757568359375
16.578369140625 23.216796875 -34.84521484375
22.079833984375 -17.663330078125 -14.000244140625
-3.1435546875 8.09033203125 24.62939453125
3.33154296875 3.39306640625 43.919189453125
39.6884765625 -15.930908203125 -28.3583984375
-19.134765625 -41.398681640625 63.119140625
-13.69775390625 -16.55322265625 42.0419921875
-0.368408203125 4.11279296875 40.883544921875
29.507568359375 -9.613037109375 -32.419921875
20.85400390625 -10.20751953125 42.5693359375
10.4375 4.65576171875 39.911376953125
18.9462890625 17.302978515625 -12.0224609375
28.38037109375 -9.23779296875 -30.356201171875
22.133544921875 -14.96044921875 -13.018798828125
14.298828125 1.54345703125 49.19677734375
23.09619140625 -35.0234375 -35.249755859375
22.80126953125 -28.92333984375 64.717041015625
-24.518310546875 -13.1337890625 23.594482421875
29.62939453125 -11.037109375 -41.39892578125
8.23486328125 -30.549072265625 48.005859375
-12.7568359375 3.080322265625 42.699951171875
-2.205810546875 4.778076171875 38.072021484375
-4.26611328125 -20.9033203125 44.25048828125
22.154541015625 -61.202880859375 12.60595703125
38.940673828125 -9.361328125 -34.583740234375
21.1220703125 -16.239013671875 30.2294921875
15.716064453125 9.706298828125 0.793212890625
-14.460693359375 5.62451171875 32.628173828125
-4.392578125 7.346435546875 27.154296875
21.781005859375 -55.717529296875 18.147705078125
8.798583984375 -25.2646484375 41.553955078125
3.527099609375 2.974365234375 45.8359375
36.347900390625 -9.280029296875 -31.35595703125
25.564208984375 -19.703857421875 -40.789306640625
20.783935546875 -11.09912109375 44.23291015625
-18.441650390625 7.14892578125 22.65380859375
-18.03515625 -11.205078125 31.05810546875
-17.23193359375 -2.758056640625 30.009033203125
20.81787109375 -16.5341796875 27.269287109375
-11.567626953125 4.399169921875 37.713623046875
20.68212890625 -23.157958984375 28.8681640625
26.161865234375 -10.07421875 -30.317626953125
-20.650390625 -43.91357421875 67.316162109375
21.58154296875 -27.8896484375 78.323974609375
-23.06494140625 -11.181640625 28.6416015625
22.31787109375 -40.680419921875 80.02001953125
-18.613525390625 -6.7236328125 34.855712890625
21.53955078125 -48.7802734375 56.436767578125
7.87744140625 20.208251953125 -21.367919921875
24.211181640625 -23.965087890625 -27.0400390625
21.959228515625 -50.218017578125 -34.40283203125
20.697021484375 -7.74169921875 46.099365234375
-16.579345703125 -2.361083984375 33.616943359375
7.37060546875 6.916259765625 31.6181640625
28.3740234375 2.327392578125 -40.8388671875
7.673828125 -18.400634765625 44.44921875
-0.332763671875 3.456298828125 44.953857421875
-1.14599609375 -25.347412109375 42.329345703125
16.140380859375 4.14501953125 44.204833984375
27.4462890625 -10.25146484375 -42.644287109375
-3.799072265625 -33.395751953125 71.41943359375
0.77587890625 -26.2353515625 43.095458984375
16.436279296875 10.300048828125 18.061767578125
18.920166015625 -20.824951171875 37.881103515625
-17.8203125 1.644287109375 38.38671875
1.587890625 7.611328125 27.954833984375
15.733154296875 20.183349609375 -20.87890625
-18.38623046875 -7.569091796875 36.781005859375
-17.1806640625 -32.855224609375 72.96533203125
-20.191162109375 -42.8759765625 62.960693359375
22.760009765625 -30.554443359375 -18.59033203125
2.694091796875 -26.663818359375 43.84228515625
6.206298828125 -19.5869140625 45.033935546875
-14.574951171875 3.002685546875 42.002197265625
21.942626953125 -32.0224609375 76.010009765625
-19.300537109375 -8.787841796875 25.6533203125
20.894775390625 -19.536376953125 33.26171875
-5.447265625 -29.469482421875 28.962158203125
21.874267578125 -50.856689453125 56.38037109375
26.6689453125 -60.7734375 79.176513671875
21.06396484375 -63.637451171875 23.58203125
15.707275390625 21.6259765625 -26.602294921875
-18.885986328125 -2.013427734375 44.422119140625
21.37451171875 -40.923095703125 62.583984375
49.172607421875 -8.9130859375 -35.45654296875
22.86669921875 -33.91162109375 -19.698974609375
9.78662109375 -50.9794921875 32.50244140625
22.12890625 -61.7138671875 26.008544921875
16.250732421875 10.6455078125 -4.068603515625
13.105712890625 16.65234375 -5.80517578125
20.001220703125 -2.142578125 47.16748046875
22.064208984375 -70.459228515625 72.789794921875
14.455810546875 20.862548828125 -23.28857421875
-18.07666015625 0.460693359375 44.689453125
-18.939697265625 4.328125 21.60986328125
-1.65966796875 -20.200927734375 44.925537109375
-4.378662109375 5.30908203125 36.022216796875
14.324951171875 13.07373046875 8.7353515625
22.485595703125 -69.102783203125 76.976806640625
23.61865234375 7.431640625 -23.7607421875
13.024658203125 9.900634765625 21.61767578125
16.056640625 14.01416015625 5.22607421875
4.6142578125 3.087646484375 41.011474609375
21.223876953125 -11.642822265625 46.03857421875
22.63232421875 -38.13134765625 -35.9677734375
-12.111083984375 5.291015625 33.98193359375
42.1953125 -7.450439453125 -37.23291015625
16.74267578125 12.468017578125 10.750732421875
23.853271484375 7.0068359375 -17.630126953125
22.498779296875 -19.32421875 -17.708740234375
21.39013671875 -40.116943359375 65.047119140625
19.693359375 15.591064453125 -3.06982421875
11.502685546875 7.6005859375 30.19189453125
19.188720703125 0.020263671875 49.072998046875
26.2734375 -21.437255859375 -22.90869140625
17.87109375 -17.365234375 43.567138671875
14.118896484375 22.50146484375 -30.5029296875
-9.70947265625 6.0009765625 31.148681640625
21.051025390625 -38.609130859375 70.678466796875
21.300537109375 -30.1953125 72.283935546875
21.820068359375 -38.533203125 63.115966796875
-7.243896484375 -26.419189453125 32.220947265625
-10.537353515625 7.203369140625 26.53466796875
21.51513671875 -31.26025390625 67.747314453125
-3.682373046875 -30.760009765625 72.604736328125
2.3408203125 -21.151123046875 44.74853515625
18.103271484375 17.5966796875 -13.620361328125
-20.363525390625 -35.1689453125 71.88525390625
22.759033203125 -32.991455078125 -33.847412109375
-1.676025390625 5.420166015625 36.11962890625
23.353271484375 -48.584716796875 -32.575439453125
-19.954345703125 -42.805908203125 60.7958984375
39.89599609375 -1.98779296875 -39.81787109375
21.94775390625 -28.88232421875 -30.952392578125
-5.088134765625 3.081787109375 44.788818359375
38.6396484375 -12.083984375 -30.07666015625
11.927734375 18.539306640625 -14.418212890625
0.21484375 8.995361328125 21.5693359375
-2.501220703125 2.46240234375 48.54443359375
20.217529296875 -26.495849609375 62.143798828125
-17.60986328125 1.1142578125 30.60302734375
25.40771484375 -18.149658203125 -37.11767578125
-13.302734375 -20.2001953125 12.54150390625
5.822265625 -34.80517578125 52.53125
10.18798828125 -58.895263671875 19.614990234375
12.106201171875 11.92138671875 12.59765625
26.459716796875 -12.599365234375 -37.5703125
11.506591796875 21.794677734375 -28.348876953125
19.421630859375 -22.019287109375 34.456787109375
22.201171875 -34.802001953125 -28.5625
13.387939453125 7.0556640625 33.569580078125
-22.394287109375 -45.80615234375 65.192138671875
7.358154296875 9.832763671875 20.468994140625
9.570068359375 6.697021484375 33.1767578125
22.19873046875 9.037109375 -22.704833984375
11.029052734375 4.3994140625 37.978515625
24.2646484375 -55.28271484375 2.20947265625
6.145263671875 -35.874755859375 53.923828125
24.736572265625 -60.849365234375 80.8740234375
19.15869140625 16.63818359375 -8.807373046875
14.888916015625 5.96728515625 36.214599609375
-9.621826171875 8.111328125 22.68115234375
32.75146484375 -6.40966796875 -37.513916015625
25.92529296875 -16.125732421875 -34.630126953125
30.629150390625 -6.983154296875 -38.167236328125
2.42919921875 -30.873779296875 47.919921875
16.30078125 17.56298828125 -9.98291015625
-8.525146484375 2.177734375 48.772705078125
21.66064453125 -38.126708984375 84.117919921875
-17.981689453125 -7.543701171875 28.23388671875
32.6328125 -18.317138671875 -24.517333984375
37.81201171875 -3.9306640625 -39.873046875
-19.422119140625 2.076171875 21.04345703125
9.955322265625 20.93359375 -21.940673828125
-16.9169921875 5.024658203125 26.2666015625
-6.5283203125 2.61962890625 47.841064453125
-18.525634765625 -8.399169921875 33.854736328125
21.47265625 -54.616943359375 10.485107421875
3.43798828125 8.700439453125 23.931884765625
-17.798583984375 -2.43603515625 47.168212890625
22.518798828125 -28.467041015625 -20.23828125
-16.04248046875 -2.950439453125 19.730712890625
-9.5673828125 -21.671630859375 40.388916015625
12.45654296875 8.081787109375 27.91796875
22.18017578125 -38.52783203125 76.445556640625
-17.895751953125 -6.119873046875 25.49462890625
21.769775390625 -34.28466796875 68.84765625
9.43310546875 8.71533203125 25.3369140625
-20.813232421875 -32.98046875 72.516357421875
-0.6162109375 1.20751953125 49.3291015625
16.116455078125 -36.09814453125 48.204345703125
22.2646484375 -25.55078125 -20.742919921875
9.3671875 -32.673095703125 49.95849609375
-16.8291015625 -0.604736328125 19.172119140625
-18.259765625 -8.869873046875 29.55029296875
-18.068115234375 -39.4208984375 56.73876953125
22.071044921875 -52.289306640625 18.285888671875
20.07861328125 14.206787109375 1.10986328125
-6.594970703125 -26.40625 35.92919921875
-3.667236328125 2.77880859375 46.828125
-20.904296875 -9.697998046875 26.921142578125
13.708740234375 4.306396484375 43.8115234375
-5.668212890625 -28.49462890625 33.284423828125
21.81005859375 3.34130859375 0.936767578125
-8.68505859375 4.8310546875 37.63037109375
27.9052734375 -21.9404296875 -30.066650390625
15.596923828125 -0.84765625 46.97802734375
24.693115234375 -54.810302734375 4.144775390625
22.16015625 -22.231201171875 -19.635986328125
21.842529296875 -28.115966796875 63.247802734375
3.142578125 -27.804443359375 45.15380859375
5.28662109375 3.083984375 38.49560546875
9.70947265625 -66.019287109375 14.249267578125
23.011962890625 -68.91943359375 70.011474609375
14.309326171875 3.652587890625 47.0078125
7.70263671875 17.7919921875 -25.6796875
31.375 -4.701416015625 -40.046142578125
-11.4453125 6.302734375 30.356689453125
16.517333984375 -41.40478515625 -23.155517578125
13.100830078125 6.091552734375 36.4189453125
30.303466796875 -6.304931640625 -39.718017578125
21.042236328125 -44.212158203125 59.48974609375
12.71728515625 14.307373046875 2.830810546875
11.551513671875 15.56982421875 -6.20947265625
21.2041015625 1.760498046875 1.474853515625
-7.168701171875 7.726806640625 25.552734375
20.781982421875 -21.027587890625 31.320556640625
14.888916015625 7.105712890625 31.9931640625
5.3076171875 9.801025390625 19.866943359375
33.87451171875 -11.362060546875 -28.73095703125
-16.648193359375 -4.4150390625 21.843017578125
-8.850341796875 2.64794921875 46.970947265625
-14.80810546875 5.52734375 30.327880859375
14.631591796875 -63.938232421875 19.957763671875
2.600341796875 -35.74365234375 53.267333984375
15.16259765625 14.561279296875 0.965576171875
-1.635498046875 5.72314453125 34.02001953125
-0.9658203125 6.443115234375 32.4638671875
28.534912109375 -11.977783203125 -40.47509765625
-7.10107421875 6.609375 29.708251953125
21.588134765625 -36.795166015625 68.173583984375
-13.78515625 -24.46435546875 8.765380859375
20.70361328125 -3.694580078125 47.324951171875
26.256103515625 -15.8369140625 -29.580078125
-17.39306640625 -4.144775390625 31.2353515625
10.628173828125 -37.22998046875 -27.378662109375
25.55029296875 -15.728515625 -40.909423828125
32.02001953125 -9.631591796875 -39.192626953125
16.197021484375 20.828369140625 -23.54443359375
-19.422119140625 -12.107177734375 29.556884765625
30.155029296875 -10.801513671875 -28.761474609375
21.986083984375 9.4736328125 -17.419677734375
21.595947265625 -37.740478515625 66.73779296875
15.2490234375 19.879150390625 -18.786376953125
30.64501953125 -12.20068359375 -27.915771484375
-10.793212890625 2.63037109375 46.345458984375
16.493408203125 22.72412109375 -33.02392578125
-16.509521484375 -10.77685546875 20.46337890625
23.933349609375 -45.19677734375 82.407470703125
-8.98583984375 7.457763671875 25.8818359375
-10.103271484375 3.919189453125 40.738525390625
-9.945068359375 5.506591796875 33.9150390625
25.465576171875 -13.79443359375 -30.205322265625
22.974609375 7.499755859375 -20.388427734375
23.4765625 -25.166259765625 66.98046875
22.06103515625 -25.951171875 -25.83447265625
-7.452880859375 2.815673828125 45.972900390625
-14.223876953125 3.997314453125 39.669189453125
22.62451171875 -33.505615234375 -25.3994140625
-0.546630859375 -35.20849609375 52.840576171875
21.282958984375 -36.245849609375 73.821533203125
-27.3330078125 -2.40087890625 53.035888671875
11.266357421875 11.918212890625 4.5947265625
-20.095703125 -41.104248046875 56.2705078125
-6.95703125 -19.732666015625 45.060791015625
6.371337890625 3.093017578125 41.31396484375
-12.6923828125 7.11376953125 27.115478515625
-16.43701171875 2.21240234375 44.9013671875
16.947265625 18.685302734375 -16.1328125
21.611328125 -50.20751953125 19.59912109375
18.19287109375 21.88916015625 -22.904296875
-8.876953125 -34.031982421875 51.4287109375
22.375244140625 -25.780517578125 -23.157958984375
-27.6689453125 -1.946533203125 51.281982421875
-22.466796875 -25.940185546875 76.962890625
11.502197265625 -37.518310546875 -25.72265625
-24.959228515625 -12.10693359375 26.49853515625
21.141357421875 -21.83935546875 27.387939453125
-13.814453125 -32.86181640625 13.504638671875
22.401123046875 -30.228759765625 -22.998291015625
45.235107421875 -10.031982421875 -32.344970703125
21.963623046875 -55.54638671875 5.085205078125
21.332275390625 -40.23681640625 83.044921875
-16.272216796875 2.865966796875 41.226318359375
34.02294921875 3.4736328125 -40.09765625
21.625732421875 -36.05908203125 79.0390625
11.17919921875 -31.2431640625 47.585693359375
22.274658203125 -71.94482421875 74.314453125
-1.298828125 8.363037109375 24.294677734375
-10.666259765625 -35.3349609375 70.241455078125
-17.9677734375 -4.6015625 24.430419921875
27.907470703125 -18.645751953125 -30.789306640625
14.117919921875 11.498046875 14.88330078125
6.8935546875 -26.956787109375 44.55078125
-14.5927734375 6.4638671875 27.541259765625
32.0498046875 -10.6103515625 -40.978759765625
33.11572265625 -10.474609375 -29.938232421875
26.208251953125 -19.23974609375 -32.96142578125
9.607177734375 -56.23974609375 25.375
21.834228515625 -35.95849609375 83.81005859375
-10.072021484375 0.795654296875 48.454833984375
21.76123046875 -34.4228515625 82.733642578125
25.9990234375 -21.60009765625 -34.490478515625
29.4150390625 1.461181640625 -39.276123046875
21.763671875 -53.658935546875 21.356689453125
17.66943359375 -38.053466796875 -22.44189453125
29.997802734375 -2.841064453125 -41.982177734375
-28.864501953125 -4.9853515625 55.7685546875
12.270751953125 16.942626953125 -7.383056640625
25.547607421875 -18.709228515625 -39.007568359375
15.033447265625 -37.35595703125 -28.01123046875
22.052734375 -17.643310546875 -15.70361328125
30.767333984375 -9.716552734375 -35.201416015625
13.487548828125 20.119140625 -19.654052734375
22.611083984375 -31.555908203125 -30.7958984375
42.402099609375 -14.96484375 -29.326904296875
7.836669921875 -35.326416015625 51.70849609375
22.45263671875 -72.279541015625 76.264892578125
22.30029296875 -25.070068359375 -17.303955078125
-18.23486328125 -23.22021484375 79.1865234375
8.325927734375 9.998291015625 18.691650390625
-9.65673828125 2.7841796875 45.0263671875
19.775146484375 19.310302734375 -14.438232421875
10.972900390625 -41.316650390625 -23.98193359375
28.825439453125 4.88916015625 -41.889892578125
22.878662109375 -31.8828125 62.895263671875
29.663818359375 -15.793701171875 -27.579345703125
22.468017578125 -28.291259765625 -23.129638671875
22.49267578125 -26.8056640625 -17.959716796875
7.876953125 10.557373046875 16.86962890625
9.029541015625 1.492431640625 49.734619140625
25.806396484375 -15.756591796875 -31.584228515625
20.273193359375 -35.406005859375 -27.581787109375
4.518798828125 -36.188720703125 54.031494140625
19.462890625 22.6591796875 -26.227294921875
-6.117919921875 3.47119140625 43.475830078125
22.003662109375 -70.579833984375 76.396728515625
-16.124267578125 -6.279541015625 34.5224609375
42.273681640625 -2.98876953125 -39.2734375
7.63623046875 -33.700439453125 50.7001953125
-14.283447265625 -30.7685546875 12.1484375
-17.13720703125 5.44287109375 24.339599609375
-28.93359375 -3.530517578125 54.748779296875
11.79296875 5.482177734375 39.42626953125
0.8076171875 3.793701171875 42.614990234375
-16.751220703125 5.697509765625 22.473388671875
-21.962890625 -30.110107421875 73.085693359375
22.261474609375 3.9921875 -3.317138671875
25.154541015625 -21.998291015625 -24.343505859375
22.2841796875 -67.093017578125 76.924560546875
-17.79931640625 -41.4375 59.194091796875
37.810791015625 -9.833740234375 -31.891845703125
37.361083984375 -12.447021484375 -29.060302734375
13.5908203125 15.876953125 -2.836181640625
-4.574951171875 6.34716796875 31.482666015625
27.33154296875 -23.7822265625 -37.28515625
-5.471923828125 -18.613525390625 42.91015625
10.71484375 -56.673095703125 26.77685546875
16.484619140625 15.89404296875 -3.3994140625
-11.859375 -31.134033203125 45.702392578125
22.608642578125 -35.61767578125 -22.3564453125
27.919921875 -19.68505859375 -20.192138671875
28.60107421875 -3.764892578125 -43.205810546875
-3.314453125 -28.6513671875 45.623291015625
-14.967529296875 4.25244140625 36.649169921875
-12.864990234375 -30.45654296875 13.2001953125
22.090576171875 -58.640625 14.189453125
-13.63623046875 -26.13671875 14.1474609375
23.47705078125 -22.5927734375 64.7548828125
21.7021484375 -28.46044921875 69.38916015625
12.27783203125 1.799072265625 49.52978515625
-11.36572265625 9.434814453125 22.36328125
-16.466064453125 1.35498046875 46.475341796875
22.287841796875 -58.919189453125 8.99462890625
20.756103515625 -24.62255859375 22.458984375
-12.586669921875 4.181396484375 38.974365234375
5.502685546875 -31.6357421875 48.932373046875
21.788330078125 5.04541015625 -5.23974609375
28.367431640625 -25.656494140625 -41.073486328125
22.193115234375 -48.6455078125 -34.043212890625
18.504638671875 21.93310546875 -28.294189453125
-13.95849609375 -41.4150390625 59.521728515625
6.117431640625 18.97900390625 -24.426025390625
17.08935546875 24.806640625 -33.581298828125
-5.91015625 -34.487548828125 51.926025390625
-19.9052734375 -43.796875 59.325927734375
22.1083984375 -56.4208984375 11.804443359375
15.114990234375 -37.170166015625 -23.9521484375
21.97705078125 9.05029296875 -19.10107421875
-16.839111328125 -41.9091796875 61.558349609375
-8.656494140625 5.742431640625 32.9580078125
38.57958984375 -4.8251953125 -38.656494140625
-11.6796875 3.85302734375 40.362060546875
19.62646484375 -14.620361328125 45.2763671875
12.548095703125 12.528076171875 10.08837890625
22.029052734375 -20.21875 -14.419921875
10.4140625 9.011962890625 24.085693359375
19.85205078125 17.6904296875 -13.302978515625
19.076904296875 23.347900390625 -31.683837890625
17.981689453125 -60.1748046875 24.47998046875
24.137451171875 -46.82080078125 83.421142578125
20.519287109375 3.301513671875 -4.1875
6.394775390625 21.216552734375 -26.433349609375
-17.078369140625 3.635009765625 27.493896484375
-7.914306640625 7.99365234375 22.447998046875
35.890380859375 -14.8408203125 -28.39501953125
20.634765625 20.11279296875 -17.9599609375
29.831298828125 -11.989013671875 -39.13232421875
22.444091796875 -35.8212890625 -33.491943359375
-2.8291015625 6.9794921875 29.137939453125
16.7294921875 13.994384765625 -21.994140625
22.301025390625 -42.765869140625 82.194580078125
-20.764892578125 -38.229248046875 70.4296875
1.99072265625 -37.934326171875 55.880859375
9.72412109375 -64.97265625 15.857177734375
23.120361328125 -53.5166015625 54.20751953125
-8.478759765625 -25.055908203125 69.46533203125
-8.822265625 4.14990234375 39.802490234375
-2.75244140625 -25.67919921875 42.457763671875
21.355224609375 -36.54248046875 77.275146484375
-14.982421875 -33.786376953125 12.283203125
6.361328125 20.531494140625 -23.543701171875
-13.91259765625 1.906982421875 48.109130859375
16.71484375 -19.053955078125 41.36474609375
21.469970703125 -26.98828125 66.409423828125
-10.624267578125 -33.6669921875 50.600830078125
22.68359375 -33.760498046875 -31.369384765625
5.380859375 -29.463134765625 46.805419921875
12.931640625 19.336181640625 -15.804443359375
0.325439453125 5.928955078125 33.624755859375
-7.545166015625 -18.236572265625 43.340576171875
9.0009765625 16.780029296875 -22.718505859375
-29.710693359375 -2.41259765625 53.280029296875
22.02734375 -56.52392578125 6.792236328125
19.26611328125 -18.54345703125 39.576416015625
18.818115234375 21.165283203125 -19.402099609375
22.799560546875 -4.289306640625 47.50341796875
9.601806640625 -58.592529296875 22.78076171875
14.37109375 -37.12939453125 -26.298583984375
22.14697265625 -69.949951171875 78.2744140625
21.58984375 -6.698486328125 47.47216796875
12.30615234375 16.009521484375 -12.931640625
16.589599609375 14.966552734375 0.412109375
22.034423828125 -66.0537109375 79.50634765625
21.090576171875 -13.924072265625 33.26904296875
9.611328125 -59.933837890625 21.752197265625
8.425048828125 21.12548828125 -24.676513671875
-3.90283203125 0.834228515625 49.130126953125
17.294921875 -18.59375 45.08349609375
-17.156494140625 -9.514404296875 22.479736328125
23.03369140625 -40.513671875 77.086669921875
21.964111328125 -38.23828125 -33.61669921875
37.208740234375 -18.341552734375 -25.1416015625
22.24169921875 5.705810546875 -9.5361328125
2.486328125 2.4453125 47.600830078125
22.091552734375 -51.0654296875 22.0625
21.519775390625 -32.348388671875 65.82666015625
4.214111328125 5.318359375 33.97021484375
-1.61328125 -30.173583984375 47.095947265625
33.280517578125 -8.354248046875 -34.888671875
7.12939453125 8.8056640625 24.90234375
22.220947265625 -36.852783203125 -32.07763671875
-15.274658203125 -0.13671875 48.710693359375
22.01806640625 -55.48046875 8.438720703125
-5.0107421875 -27.134033203125 44.155029296875
31.0478515625 -9.232177734375 -33.0732421875
29.55517578125 -11.400634765625 -35.35302734375
20.860595703125 -27.1494140625 60.77001953125
-15.731201171875 7.387939453125 21.611572265625
21.02197265625 -10.838134765625 35.730712890625
21.41796875 -41.3837890625 64.1201171875
31.15869140625 -17.385986328125 -26.338623046875
8.024169921875 -29.076904296875 46.499267578125
22.962158203125 -41.36376953125 78.69580078125
15.322998046875 19.0009765625 -16.555419921875
19.54150390625 -22.550537109375 32.821533203125
-10.322021484375 -38.06689453125 55.75390625
-17.846923828125 0.50146484375 32.8662109375
15.195068359375 17.974853515625 -11.37060546875
12.281005859375 -18.859130859375 44.912353515625
11.55126953125 16.91064453125 -15.734619140625
20.98779296875 -8.7080078125 38.21630859375
22.37939453125 -23.973876953125 -18.572998046875
-27.50537109375 -4.146240234375 55.720703125
9.070556640625 7.75390625 29.8330078125
-12.6904296875 -34.994384765625 52.654296875
20.840087890625 -10.7900390625 40.547607421875
21.66943359375 -32.655029296875 73.75927734375
9.2119140625 3.77099609375 40.311767578125
-17.556396484375 1.50048828125 41.234375
15.868408203125 12.233154296875 12.48388671875
23.2119140625 -63.019775390625 78.50244140625
-20.35498046875 -42.482177734375 66.51806640625
1.69140625 -22.3291015625 43.224365234375
-16.19287109375 2.384033203125 42.707763671875
44.63525390625 -6.504150390625 -36.802490234375
16.83349609375 16.246826171875 -5.339111328125
27.72265625 -21.83740234375 -33.48779296875
9.767822265625 -61.85693359375 20.64453125
-23.60595703125 -10.630126953125 25.387451171875
-6.899169921875 -24.06884765625 38.60693359375
21.9619140625 -29.98779296875 66.35009765625
20.2412109375 -15.377197265625 41.807861328125
22.03515625 -69.1337890625 73.7119140625
16.598876953125 6.263916015625 32.41064453125
22.466064453125 -26.79833984375 -19.683837890625
9.813232421875 -52.94140625 26.661865234375
20.96142578125 -12.497802734375 36.412841796875
11.00537109375 14.077880859375 -3.512451171875
-17.174560546875 3.36865234375 32.721435546875
21.200927734375 -17.67919921875 31.862548828125
20.45849609375 -12.76025390625 44.575927734375
38.558837890625 -1.321533203125 -40.5712890625
8.524169921875 -26.777099609375 43.92431640625
-19.96484375 -9.889404296875 28.815673828125
21.197998046875 -43.024658203125 84.36669921875
-16.722412109375 0.522705078125 21.659912109375
20.4345703125 -37.187744140625 -30.022705078125
48.39501953125 -11.42041015625 -32.349853515625
20.829833984375 -5.06689453125 44.2685546875
48.17333984375 -9.783203125 -34.04296875
21.499755859375 -29.405517578125 70.5966796875
13.69482421875 6.428466796875 34.94921875
-6.45947265625 -25.757568359375 42.52685546875
-21.317138671875 -40.4951171875 68.519287109375
10.33349609375 18.3974609375 -20.453857421875
16.1767578125 12.569091796875 -11.3349609375
19.30078125 -16.281982421875 45.61962890625
9.0810546875 9.3994140625 22.399169921875
-13.5107421875 7.2548828125 25.1337890625
22.677978515625 9.23779296875 -27.12255859375
24.152099609375 -37.6376953125 -37.829345703125
-0.9619140625 -24.40234375 41.103759765625
39.9892578125 -7.0146484375 -37.896484375
23.19677734375 -39.116943359375 74.372314453125
19.08154296875 -38.322021484375 -21.7958984375
22.2734375 -27.82666015625 -16.583251953125
15.72607421875 7.6474609375 29.8056640625
19.22802734375 -61.23583984375 24.19970703125
-13.41455078125 -33.588623046875 50.538330078125
10.07373046875 -29.271240234375 46.652099609375
16.738037109375 -30.017822265625 56.077880859375
23.36181640625 -58.33447265625 -0.388671875
11.132080078125 8.603515625 26.739990234375
26.472412109375 -19.53125 -35.544677734375
-16.888916015625 -1.3173828125 27.60693359375
-7.175048828125 -32.179443359375 49.08935546875
42.167724609375 -9.95361328125 -35.3134765625
21.669677734375 -36.7216796875 65.594970703125
-14.4912109375 -27.008544921875 8.8837890625
21.561279296875 -25.03662109375 75.620849609375
21.767333984375 -37.0126953125 70.588134765625
-12.352783203125 6.020263671875 31.55810546875
27.870849609375 -24.2275390625 -41.925048828125
-0.84228515625 -36.532470703125 54.15673828125
-16.872314453125 7.663818359375 22.989013671875
21.395751953125 -37.21240234375 63.787353515625
41.84765625 -6.256591796875 -38.802734375
-0.451904296875 -19.35009765625 44.5322265625
21.15625 -0.9560546875 49.360595703125
42.37548828125 -8.256591796875 -34.356689453125
23.2275390625 6.453125 -14.845947265625
-16.91455078125 -5.4052734375 38.125
-17.951171875 0.68798828125 42.576904296875
-13.28271484375 2.761474609375 44.10302734375
1.351806640625 1.08837890625 49.483642578125
-18.84130859375 -2.475341796875 42.9091796875
19.334228515625 15.10400390625 -1.6708984375
31.577392578125 -29.041015625 34.00830078125
-2.392578125 -27.51416015625 44.383544921875
28.44873046875 -12.624755859375 -37.392822265625
25.847412109375 -13.9580078125 -34.052734375
14.58740234375 -1.674560546875 46.195556640625
17.538818359375 -35.875732421875 -25.363525390625
13.968505859375 13.644287109375 5.18310546875
-4.34130859375 -32.253662109375 49.147216796875
-2.037841796875 7.643798828125 27.483154296875
19.212646484375 -1.169189453125 48.13134765625
-0.932373046875 -30.98583984375 48.214111328125
26.7119140625 -53.867431640625 1.4453125
-12.541748046875 -41.20263671875 59.025390625
38.154052734375 -14.00439453125 -28.430419921875
-17.152099609375 0.29736328125 25.12841796875
22.057373046875 8.880859375 -14.0498046875
31.3642578125 2.3095703125 -39.695556640625
25.26611328125 -15.2626953125 -39.493408203125
-14.1552734375 -36.662353515625 54.302734375
22.40576171875 -34.361083984375 -23.423095703125
-3.2919921875 -19.77490234375 44.51220703125
22.749755859375 -31.22314453125 -20.889404296875
8.839599609375 10.59130859375 14.55810546875
38.55322265625 -16.35986328125 -27.455322265625
29.49560546875 -21.301513671875 -24.277099609375
9.538330078125 -60.50634765625 18.52734375
-2.185546875 -34.754150390625 52.41162109375
21.017578125 -24.90478515625 73.97607421875
28.337158203125 -11.19287109375 -28.47998046875
30.86767578125 -20.203857421875 -24.227294921875
-18.021240234375 -3.05810546875 40.324951171875
21.3193359375 -14.4833984375 29.973388671875
25.4130859375 -12.200439453125 -40.913818359375
19.33642578125 2.218017578125 47.28271484375
-12.851806640625 -37.960693359375 55.998779296875
-16.8818359375 -37.327880859375 54.756591796875
2.601806640625 -33.65478515625 51.072509765625
21.97900390625 -58.520751953125 15.942138671875
-21.376220703125 -10.209228515625 24.698486328125
15.012939453125 10.36962890625 18.558837890625
-0.80810546875 -33.140625 50.32373046875
-9.14892578125 -35.783447265625 69.258056640625
-4.4384765625 -36.173828125 54.0703125
10.459716796875 3.0107421875 48.652587890625
8.53173828125 4.491943359375 43.791015625
21.771728515625 -32.6513671875 79.62255859375
-3.014892578125 -31.488037109375 48.6787109375
19.815673828125 -23.474853515625 31.630126953125
18.472412109375 -35.749267578125 -27.30224609375
1.098388671875 -35.664794921875 53.27099609375
-3.65625 3.384521484375 44.263427734375
21.914306640625 -30.789794921875 76.904296875
21.3486328125 -29.12744140625 77.105224609375
6.388916015625 4.53076171875 43.23876953125
-7.362060546875 5.979248046875 31.99658203125
-17.379150390625 -6.8505859375 23.569091796875
-3.574951171875 -34.442138671875 51.82470703125
22.84130859375 -32.817138671875 -27.965087890625
6.51025390625 9.712158203125 17.396484375
22.64013671875 -58.374755859375 6.436767578125
-16.5986328125 -1.76123046875 47.763671875
11.57080078125 21.382568359375 -26.1025390625
16.231689453125 13.240234375 -14.212158203125
12.044189453125 20.301513671875 -18.51123046875
20.95556640625 -19.097412109375 30.006103515625
21.50390625 -40.761962890625 84.45947265625
21.780517578125 -32.189453125 81.046875
45.767333984375 -8.7587890625 -34.60400390625
21.6572265625 -29.273193359375 79.874755859375
43.73974609375 -9.24951171875 -34.787353515625
-10.179443359375 5.0146484375 36.667236328125
21.490966796875 -36.201416015625 85.505126953125
20.1845703125 -35.659423828125 -25.135986328125
-11.43994140625 -39.94384765625 57.165771484375
-16.442138671875 4.620849609375 28.511474609375
-17.28271484375 2.43505859375 23.039306640625
21.419677734375 -12.24365234375 32.9248046875
-6.16259765625 -40.231689453125 58.077880859375
40.30615234375 -4.499755859375 -39.446044921875
21.64501953125 -37.88427734375 69.236083984375
-17.533935546875 1.522216796875 27.4296875
-18.521484375 -3.853515625 27.93408203125
-6.11962890625 -31.045166015625 71.786376953125
-7.65771484375 -39.843505859375 57.5654296875
-8.407958984375 -26.947265625 42.452392578125
36.653076171875 -6.869873046875 -37.040771484375
21.543701171875 -28.53955078125 67.496826171875
12.2314453125 17.008544921875 -9.017822265625
-11.621826171875 7.777099609375 24.20361328125
37.748291015625 -2.57177734375 -40.47265625
23.6025390625 -29.967529296875 63.78759765625
-5.733154296875 -21.307373046875 44.29296875
-3.05517578125 -32.453125 72.32763671875
33.16064453125 -3.247314453125 -42.14208984375
31.5107421875 -5.041259765625 -43.13818359375
8.584716796875 -27.869384765625 44.994140625
1.916259765625 3.73095703125 38.783935546875
24.68115234375 -56.25537109375 -0.343017578125
23.65283203125 -67.46923828125 72.035888671875
31.669677734375 -11.436279296875 -38.84375
-3.512451171875 -35.51416015625 52.874267578125
11.186279296875 6.14111328125 36.206787109375
22.705322265625 -50.6083984375 -33.18408203125
22.07421875 -25.638427734375 66.9111328125
-17.70458984375 2.03369140625 33.699951171875
21.48779296875 -44.568359375 61.78955078125
-2.233642578125 -29.7783203125 73.04443359375
14.662841796875 -18.28466796875 43.237548828125
-7.654296875 4.441162109375 38.944091796875
28.745361328125 -21.390380859375 -28.98193359375
14.55810546875 11.969482421875 11.85400390625
11.38427734375 13.053466796875 5.532470703125
32.758056640625 -9.265869140625 -33.250244140625
-5.650146484375 -29.224609375 72.3115234375
-10.81298828125 -17.351806640625 44.09130859375
17.923828125 22.1123046875 -30.1298828125
22.544677734375 -70.893310546875 69.4521484375
