-21.21630859375 -36.85205078125 69.565673828125
-18.47021484375 -1.7080078125 23.104736328125
-9.19482421875 3.90234375 28.9267578125
23.4072265625 -58.679443359375 0.49658203125
27.03662109375 -34.640625 -41.571533203125
-1.62548828125 -25.053466796875 40.364990234375
19.6220703125 -11.5546875 39.853515625
22.731201171875 -43.24365234375 -41.117431640625
19.23876953125 -27.112548828125 24.584716796875
19.93017578125 -29.58544921875 80.94091796875
21.13232421875 -19.518310546875 70.32568359375
25.57373046875 -15.945556640625 -30.589599609375
21.35302734375 -19.734130859375 -18.16748046875
32.288818359375 -21.7548828125 -26.939208984375
-5.782958984375 5.68505859375 22.0244140625
9.996826171875 8.636962890625 13.861083984375
12.3642578125 -46.960205078125 -29.092041015625
29.476806640625 -23.376953125 -26.9033203125
12.916748046875 -40.052001953125 -28.725341796875
19.03173828125 -28.0419921875 56.607177734375
-16.14697265625 3.01611328125 29.221435546875
-6.2919921875 -32.1875 28.25634765625
19.531494140625 -31.904541015625 72.64306640625
22.030029296875 -23.72119140625 -22.539794921875
32.017578125 -4.195068359375 -43.138427734375
-10.60986328125 -33.8486328125 46.685302734375
-2.73583984375 -37.788330078125 51.435546875
25.749267578125 -22.85546875 -38.677001953125
21.872314453125 -53.9580078125 13.750732421875
20.9345703125 -36.15283203125 -33.324951171875
-7.4287109375 -1.842529296875 46.307373046875
8.726806640625 1.165771484375 46.458251953125
12.587158203125 -41.34375 -25.427734375
19.552978515625 -38.52978515625 -29.65576171875
17.737548828125 -18.02392578125 42.274169921875
19.9013671875 -13.43359375 35.66455078125
23.871826171875 -56.916748046875 7.396240234375
19.904541015625 1.390869140625 -4.7646484375
31.659912109375 2.734619140625 -43.20361328125
29.3916015625 -10.2841796875 -39.4150390625
20.644775390625 -32.30322265625 -26.1767578125
20.60205078125 -49.20703125 55.4921875
-5.5888671875 -32.521728515625 69.435791015625
-18.892333984375 -10.369384765625 27.6455078125
0.665771484375 5.521240234375 23.336669921875
33.5322265625 -17.070068359375 -28.232177734375
16.93408203125 -24.07470703125 32.938720703125
11.14306640625 -30.4599609375 42.882568359375
18.434814453125 10.805908203125 3.979248046875
-26.153076171875 -4.099365234375 52.902099609375
19.998779296875 -40.14306640625 61.670654296875
20.2177734375 -26.49755859375 -23.80419921875
19.702880859375 -36.799560546875 72.044677734375
9.364013671875 -41.52978515625 -26.228515625
-14.361572265625 -32.655029296875 10.56787109375
20.0283203125 1.285400390625 -11.564208984375
-9.292724609375 -29.47021484375 65.3681640625
20.22216796875 -24.900390625 -18.66943359375
21.036376953125 -21.873779296875 68.658935546875
-15.26123046875 -28.46044921875 11.051513671875
19.651611328125 -17.39501953125 28.822998046875
8.327392578125 18.7734375 -30.700439453125
19.796142578125 -22.8076171875 23.829345703125
-12.163818359375 -2.093994140625 46.311767578125
21.69775390625 -24.6796875 61.034423828125
19.50244140625 -20.923583984375 30.81005859375
17.697021484375 9.353515625 6.279541015625
-1.2021484375 -26.706787109375 38.634521484375
32.1513671875 -0.227294921875 -41.07470703125
-6.777099609375 4.6572265625 26.50048828125
-21.18896484375 -47.05517578125 58.07568359375
-17.3037109375 -6.582763671875 31.303466796875
-20.382080078125 -40.203369140625 63.872802734375
21.813232421875 -39.152099609375 -38.719482421875
10.53369140625 15.237548828125 -14.25537109375
-18.13671875 1.150390625 28.33544921875
-19.11328125 -37.39599609375 69.091796875
10.37841796875 -37.5849609375 47.146240234375
15.505859375 -45.837646484375 -27.0556640625
21.99951171875 -10.002197265625 44.220947265625
19.74462890625 -40.6552734375 63.9111328125
9.387939453125 8.74169921875 4.12109375
5.819580078125 1.29150390625 43.98388671875
20.445556640625 -70.21875 77.989990234375
21.58154296875 -29.31298828125 59.5517578125
10.424072265625 9.862548828125 -2.2216796875
10.739013671875 19.462158203125 -31.0673828125
8.097412109375 8.2421875 15.346923828125
20.025634765625 -25.34033203125 20.63134765625
-6.625244140625 -21.568115234375 40.201416015625
23.427734375 -32.661865234375 -35.60888671875
14.171875 -38.103759765625 45.530517578125
2.53369140625 0.794189453125 44.875732421875
-8.614501953125 -37.301513671875 50.58203125
-18.384521484375 -5.42724609375 44.7138671875
21.1416015625 -56.01025390625 9.9892578125
20.202880859375 -37.307373046875 63.275634765625
-20.933349609375 -42.30029296875 56.50390625
-10.258056640625 -31.18798828125 39.034912109375
15.947265625 -20.240966796875 42.189208984375
-28.53369140625 -6.26904296875 54.359619140625
-18.236083984375 -13.523681640625 30.966552734375
23.09033203125 -19.45849609375 -43.193359375
7.843994140625 -53.696533203125 28.705810546875
20.5283203125 -67.0224609375 71.568115234375
20.0869140625 -27.7568359375 63.916748046875
28.402587890625 1.26025390625 -48.150146484375
28.2041015625 -26.430908203125 -44.79736328125
19.91796875 -25.834716796875 78.60888671875
9.254638671875 -43.10205078125 -29.603515625
-5.978271484375 2.128662109375 37.8671875
-1.028076171875 -28.35888671875 40.704345703125
-7.189453125 -31.696533203125 36.759033203125
14.474609375 7.57275390625 -4.748291015625
6.50634765625 13.98974609375 -29.48291015625
-7.044677734375 -28.275390625 34.83251953125
-18.7470703125 -0.71875 27.3974609375
19.533203125 -19.987548828125 26.46728515625
27.363525390625 -36.142578125 57.8544921875
9.636474609375 2.937255859375 37.025146484375
-17.652099609375 -8.833984375 32.2451171875
3.74462890625 15.78857421875 -27.2138671875
21.046142578125 -38.244140625 -22.646240234375
21.634765625 -62.603759765625 77.92724609375
7.084716796875 15.69580078125 -24.3583984375
19.8935546875 -41.790771484375 82.7568359375
20.167236328125 -33.868408203125 76.857177734375
23.1240234375 -39.10986328125 -40.443115234375
0.466796875 -31.4384765625 43.9794921875
-5.72216796875 5.10986328125 24.6201171875
9.882568359375 2.493408203125 34.316162109375
17.85791015625 -28.876708984375 23.60009765625
26.61474609375 -4.428466796875 -43.944091796875
10.079833984375 -51.99462890625 29.052490234375
-18.425048828125 -6.832275390625 36.276123046875
1.297607421875 -28.58154296875 41.07666015625
16.492919921875 -25.737060546875 21.68359375
11.36474609375 7.688720703125 18.1953125
19.3798828125 -14.66357421875 42.879150390625
18.271484375 -28.45849609375 58.68017578125
-15.39697265625 -30.558837890625 10.201904296875
16.322265625 18.321533203125 -26.546142578125
-3.837890625 -36.662109375 49.59326171875
-18.0869140625 -2.54052734375 26.4853515625
-21.8486328125 -37.51025390625 67.15185546875
8.34814453125 -67.192626953125 15.076171875
-7.1669921875 -29.15234375 30.812744140625
-0.634033203125 -29.6904296875 42.583740234375
-6.9130859375 -42.70947265625 56.379150390625
18.420654296875 -5.856689453125 40.718505859375
-9.948974609375 -29.337646484375 40.721923828125
13.194091796875 -48.4443359375 -32.708984375
27.050048828125 -36.20263671875 -43.326416015625
32.5869140625 -9.935546875 -38.52587890625
24.7666015625 0.81884765625 -42.6357421875
-18.510009765625 -1.541748046875 33.418212890625
14.802490234375 -39.434326171875 -27.984130859375
-11.375732421875 2.272216796875 35.82080078125
28.146240234375 -29.99267578125 -43.355224609375
35.284423828125 -11.568359375 -34.716552734375
27.634033203125 2.445556640625 -44.55908203125
-7.705322265625 -27.061767578125 67.467529296875
21.7333984375 -57.543212890625 3.432861328125
20.46435546875 -26.046630859375 -20.538818359375
29.47900390625 -39.69873046875 55.24267578125
27.486572265625 -1.1533203125 -41.865966796875
-19.18701171875 -8.564453125 28.789306640625
30.7724609375 -7.91357421875 -40.1025390625
21.68359375 -54.6083984375 11.711669921875
-6.290771484375 -27.434326171875 39.3798828125
-6.976318359375 -31.156982421875 43.78076171875
-12.162353515625 -33.15625 43.1884765625
16.60009765625 16.171630859375 -22.103759765625
17.39892578125 15.15283203125 -16.4873046875
5.285400390625 -28.240234375 40.7177734375
18.005126953125 -62.095458984375 22.815673828125
1.81005859375 -29.98583984375 42.879638671875
20.57958984375 -34.574462890625 68.7607421875
-14.006103515625 -18.259521484375 39.862548828125
-6.103271484375 -22.35302734375 42.43505859375
-14.260498046875 3.0927734375 31.34033203125
20.250732421875 -24.86865234375 59.010009765625
-17.857421875 -0.24658203125 40.91748046875
-21.82568359375 -42.870361328125 63.661865234375
-7.904052734375 -28.235595703125 38.0703125
19.08447265625 -23.147705078125 30.769775390625
20.5673828125 -61.839111328125 12.534423828125
-11.631591796875 3.857177734375 29.260986328125
21.010498046875 -33.86279296875 -32.316650390625
4.807373046875 18.315673828125 -27.107177734375
-14.879638671875 6.077392578125 20.267822265625
-20.20166015625 -30.851806640625 73.632568359375
22.256591796875 -29.74267578125 -30.612060546875
27.6796875 -33.6337890625 -45.8193359375
22.3486328125 -34.264892578125 -37.012451171875
13.53076171875 14.39794921875 -11.071533203125
-18.76220703125 -13.105224609375 19.356689453125
40.581787109375 -4.833740234375 -44.255615234375
-24.068359375 -14.7333984375 26.84326171875
4.4365234375 6.982177734375 19.826171875
20.63232421875 -28.05322265625 -25.229248046875
20.498291015625 -26.29931640625 60.490966796875
-18.572021484375 -0.4150390625 31.345458984375
-18.404541015625 -37.868408203125 50.2548828125
32.56298828125 -14.31640625 -28.1962890625
19.70263671875 -40.8115234375 -35.035888671875
19.82373046875 -37.397705078125 76.9580078125
19.650634765625 -41.140380859375 77.95263671875
25.827880859375 -15.24462890625 -37.946044921875
-0.7685546875 2.188720703125 36.02490234375
-14.103759765625 1.578369140625 37.9384765625
-18.332763671875 -1.31787109375 18.794677734375
-10.119384765625 3.396728515625 30.698974609375
9.61376953125 16.447265625 -19.169677734375
17.676025390625 -25.28271484375 31.44287109375
-5.59765625 0.1943359375 44.80078125
-11.010986328125 1.038818359375 40.697265625
20.247314453125 -14.0048828125 31.274169921875
12.818359375 9.92333984375 8.38427734375
24.894287109375 -6.804931640625 -45.354736328125
20.839599609375 -58.636962890625 6.468994140625
19.766845703125 -0.68798828125 -3.961669921875
9.621826171875 -65.4580078125 18.40576171875
-18.99609375 -2.275146484375 38.914306640625
-20.9052734375 -42.019775390625 66.861083984375
-21.347412109375 -35.381103515625 70.985107421875
10.66650390625 2.7490234375 40.38232421875
31.5166015625 -11.79248046875 -35.7490234375
15.097900390625 -54.27587890625 -31.64453125
-16.752197265625 -43.506103515625 60.036865234375
19.239501953125 -20.85986328125 33.630859375
-21.917724609375 -45.728759765625 61.987548828125
33.49560546875 -11.14111328125 -33.271484375
-18.5322265625 -3.6806640625 43.190673828125
20.2880859375 -10.16357421875 36.14794921875
24.874755859375 -18.816162109375 -31.028076171875
-2.0234375 5.013427734375 26.464111328125
-12.159912109375 -21.46484375 40.243896484375
-21.27587890625 -44.427490234375 58.925537109375
-22.383056640625 -28.3154296875 75.888671875
15.8486328125 18.578369140625 -31.321044921875
21.20703125 -36.6953125 86.705810546875
-11.010009765625 -37.954345703125 51.374267578125
19.908935546875 -38.1845703125 67.07177734375
8.112060546875 -28.281982421875 40.73876953125
20.478515625 -32.70166015625 -30.7431640625
20.32666015625 -68.250244140625 74.348876953125
27.920166015625 -27.24609375 -37.875244140625
19.931396484375 -34.224853515625 79.48974609375
-19.6748046875 -43.490966796875 60.66552734375
20.270751953125 -24.433837890625 68.43408203125
5.473876953125 4.7841796875 28.60546875
12.058837890625 18.972412109375 -28.151123046875
18.75244140625 17.27734375 -19.40576171875
14.55126953125 -43.40966796875 -25.200439453125
14.5498046875 4.151123046875 35.423095703125
20.86181640625 -58.932861328125 9.853759765625
16.981689453125 10.301513671875 2.4208984375
19.133056640625 -0.95849609375 -0.67626953125
20.77392578125 -59.641357421875 13.334228515625
-20.849365234375 -24.764404296875 76.40087890625
23.867431640625 -22.41162109375 -40.7041015625
8.967041015625 17.993408203125 -26.065185546875
14.785400390625 6.617431640625 20.986083984375
27.395263671875 -13.97998046875 -30.442626953125
31.043701171875 -19.845458984375 -28.392578125
-10.83740234375 -40.98291015625 54.530029296875
-15.950439453125 -38.59912109375 52.02734375
20.486328125 -25.14892578125 -22.353271484375
27.483642578125 -26.060546875 -32.79541015625
14.059326171875 19.911376953125 -35.06591796875
13.79736328125 17.976806640625 -24.994384765625
8.230224609375 5.8857421875 25.941650390625
35.7392578125 -13.216064453125 -31.439208984375
36.585693359375 -12.321533203125 -29.232666015625
18.862060546875 -15.93115234375 41.293701171875
19.956787109375 -24.619384765625 22.78076171875
2.96484375 7.530029296875 15.64306640625
18.28271484375 12.09619140625 -1.451416015625
20.844482421875 -36.943115234375 -29.635009765625
33.706298828125 -20.73583984375 -28.7431640625
29.865966796875 -19.602783203125 -30.3896484375
18.512939453125 -39.792236328125 67.658935546875
19.000732421875 -4.62548828125 43.785400390625
31.200927734375 -37.863037109375 55.44921875
-13.4521484375 2.054443359375 35.8896484375
24.132568359375 -55.52685546875 8.7861328125
20.811279296875 -58.40380859375 15.444091796875
-18.88525390625 -2.55908203125 31.2265625
33.38671875 -11.294677734375 -37.327392578125
10.15234375 11.35595703125 1.17236328125
21.6552734375 -70.094970703125 68.59033203125
19.640380859375 -25.626708984375 66.989013671875
8.166259765625 8.3232421875 9.41845703125
8.74072265625 -63.529541015625 20.046875
-18.857421875 -10.453125 21.89208984375
-22.6845703125 -27.703369140625 73.656982421875
-18.56689453125 -40.21435546875 53.586181640625
28.26025390625 -29.091064453125 -38.664306640625
6.841796875 0.39794921875 37.731201171875
23.66357421875 -17.662841796875 -36.591064453125
-18.788818359375 -13.328125 28.28173828125
19.7548828125 -26.69970703125 22.018310546875
21.266845703125 -37.28076171875 -36.54248046875
18.939697265625 0.59814453125 -10.087890625
30.370849609375 -21.390625 -25.98779296875
-3.19482421875 -39.38818359375 52.917724609375
2.3896484375 7.1025390625 18.22998046875
20.807861328125 -36.342529296875 -23.1455078125
12.186279296875 -39.7265625 -26.942138671875
19.701416015625 -45.952392578125 60.912353515625
19.93994140625 -4.335205078125 45.65185546875
32.223876953125 -7.19287109375 -41.35693359375
8.096923828125 -62.47314453125 18.261962890625
14.404541015625 5.05908203125 27.68505859375
14.393798828125 15.20654296875 -14.0498046875
-18.604248046875 -0.5966796875 29.334228515625
11.67333984375 9.441162109375 10.376708984375
-19.020263671875 0.013671875 22.389892578125
-4.540283203125 -29.042724609375 41.80908203125
1.510986328125 1.55908203125 42.021240234375
-8.269287109375 -39.73779296875 53.06640625
20.39501953125 -71.60693359375 75.65478515625
27.18359375 -8.26953125 -44.835205078125
-20.454833984375 -42.00634765625 62.595947265625
8.82373046875 16.225830078125 -22.447998046875
-19.451904296875 -8.196533203125 26.904296875
9.958740234375 11.74365234375 -2.519775390625
-10.395751953125 0.227294921875 44.320068359375
19.779052734375 -32.775390625 69.1064453125
7.943359375 -26.61181640625 38.646240234375
11.43896484375 3.9228515625 34.608154296875
24.822998046875 -14.812255859375 -42.498291015625
-18.09033203125 -3.8466796875 16.65625
16.7080078125 -40.828125 -31.89794921875
-1.5166015625 3.11767578125 33.95263671875
11.81787109375 14.616455078125 -11.921875
0.542724609375 0.658203125 45.3173828125
12.936767578125 6.93408203125 21.81689453125
22.85986328125 -66.070068359375 73.98046875
1.632568359375 -24.744384765625 40.51904296875
24.8857421875 -0.82958984375 -41.464599609375
34.179443359375 -17.521484375 -25.79248046875
18.512451171875 -38.941162109375 -25.80419921875
19.0244140625 -25.846923828125 26.781982421875
20.46630859375 -32.624755859375 -24.248046875
-1.195068359375 6.55029296875 18.932861328125
32.61767578125 -11.806884765625 -31.331298828125
26.85595703125 -10.2119140625 -45.060546875
-6.43359375 -34.266845703125 47.21044921875
13.2333984375 -44.66064453125 -25.797607421875
-4.4013671875 -34.5224609375 47.275390625
12.390625 8.507080078125 14.16943359375
-20.663818359375 -11.5107421875 22.355224609375
17.572021484375 16.127197265625 -14.443359375
14.228515625 8.650634765625 13.290771484375
-8.3525390625 5.659912109375 20.895263671875
25.149169921875 -38.409912109375 -40.990478515625
37.31982421875 -5.332763671875 -40.32373046875
11.17431640625 1.93408203125 42.630615234375
8.9404296875 15.254638671875 -20.797607421875
20.84228515625 -28.115966796875 60.93994140625
-3.546142578125 0.30908203125 45.80078125
17.12939453125 -40.0830078125 -24.589111328125
11.42529296875 19.75927734375 -32.815185546875
-17.859619140625 -2.7998046875 21.64892578125
20.689697265625 -30.504638671875 -29.85302734375
-16.15087890625 0.575439453125 41.07177734375
11.4599609375 -27.14013671875 39.2578125
14.47900390625 16.40576171875 -19.8056640625
15.271728515625 1.35986328125 43.32861328125
-7.664794921875 -36.281982421875 49.2958984375
4.82373046875 -31.161865234375 43.879150390625
-16.979736328125 -5.798583984375 20.09521484375
19.4736328125 -39.42578125 -32.51904296875
-15.206298828125 -27.391357421875 8.773193359375
-19.77587890625 -45.040283203125 64.8310546875
28.589599609375 -20.86328125 -29.266845703125
-21.46875 -38.9736328125 66.025634765625
-16.7373046875 1.4443359375 34.890869140625
10.591796875 4.750732421875 30.514892578125
17.00146484375 1.437744140625 -5.8046875
34.76318359375 -10.35107421875 -36.13916015625
-8.161865234375 0.478271484375 43.150634765625
17.450439453125 18.89306640625 -30.3828125
-0.92431640625 4.074462890625 30.353759765625
28.208740234375 -13.120849609375 -41.85791015625
27.539794921875 -21.70166015625 -33.08349609375
-7.1259765625 4.429443359375 28.33349609375
-7.459716796875 -25.208984375 66.63916015625
23.80517578125 -19.23388671875 -38.417236328125
-11.559326171875 2.89208984375 33.36962890625
20.033935546875 -26.566162109375 80.552001953125
6.08447265625 7.0390625 18.562744140625
8.92822265625 2.58740234375 39.609130859375
14.110595703125 4.48974609375 31.584228515625
34.26611328125 -4.00341796875 -42.04150390625
17.487060546875 13.875244140625 -12.55810546875
19.734375 -19.26513671875 28.91650390625
20.08642578125 -70.90283203125 72.2509765625
-10.22216796875 6.712158203125 18.109130859375
-25.01953125 -13.1669921875 23.86279296875
19.74755859375 -46.2373046875 58.870361328125
-10.822998046875 -32.722900390625 40.6083984375
5.587890625 -20.56494140625 41.923828125
-14.506591796875 -27.017333984375 11.9736328125
20.26953125 -70.252197265625 74.08642578125
-3.360107421875 -26.856201171875 38.697998046875
15.690185546875 0.29931640625 46.17041015625
20.123291015625 15.99462890625 -15.9345703125
10.543701171875 10.27783203125 5.815185546875
10.011962890625 -43.278076171875 -27.871337890625
3.905517578125 -36.9736328125 50.167724609375
10.790283203125 -42.5966796875 -25.025146484375
20.86962890625 -6.142333984375 45.1689453125
13.146240234375 17.358642578125 -22.715576171875
-14.42041015625 -24.25 10.65625
20.261474609375 -26.0927734375 -25.617919921875
-19.0625 -7.813232421875 22.930908203125
27.0009765625 -15.063232421875 -39.540283203125
-20.565185546875 -13.846923828125 27.64013671875
10.861328125 14.0146484375 -8.338134765625
9.756591796875 17.6064453125 -23.302734375
7.651123046875 18.47998046875 -28.965576171875
20.587890625 -29.84765625 -21.582763671875
1.304443359375 -39.00244140625 52.201171875
-18.06494140625 -11.435302734375 30.68896484375
-1.348876953125 1.823974609375 40.041259765625
7.731201171875 -38.37841796875 50.125732421875
8.11376953125 -59.119384765625 20.7568359375
1.816162109375 -20.775634765625 41.604248046875
-18.189453125 -7.60400390625 30.006103515625
21.3408203125 -28.866943359375 -28.713134765625
20.006591796875 -19.150390625 72.98046875
10.215087890625 7.075927734375 19.6396484375
-20.90478515625 -11.855712890625 25.179443359375
-4.935546875 -38.585693359375 52.0751953125
12.80712890625 20.357421875 -36.333984375
19.48681640625 -15.633544921875 35.62841796875
20.1640625 -36.9345703125 84.97314453125
20.30419921875 -21.306396484375 74.96435546875
5.0771484375 -35.32177734375 48.163330078125
19.853271484375 -39.611572265625 81.087646484375
23.002197265625 -23.321533203125 -42.929443359375
19.788818359375 -32.43115234375 77.927978515625
29.924560546875 -9.08349609375 -38.138916015625
-17.228271484375 -36.841796875 49.2978515625
2.248779296875 -33.518310546875 46.454345703125
13.422607421875 3.103271484375 36.837890625
-1.5400390625 0.982177734375 44.286865234375
36.192626953125 -11.50732421875 -31.91064453125
1.751220703125 5.022216796875 27.232666015625
20.466064453125 -29.89111328125 84.5
20.68115234375 -32.868408203125 86.615234375
14.177978515625 -53.510009765625 -33.301513671875
23.134521484375 -17.531982421875 -43.3251953125
29.61279296875 -12.118896484375 -35.337158203125
24.040283203125 -14.119140625 -44.266845703125
20.92138671875 -56.644287109375 13.558837890625
-4.5693359375 -31.454345703125 44.07763671875
19.850830078125 -61.9619140625 14.208740234375
-18.4541015625 0.772216796875 23.967041015625
-17.702880859375 1.5517578125 18.6318359375
32.38818359375 -17.157958984375 -29.650146484375
-17.9541015625 1.01123046875 32.2978515625
-10.70068359375 -42.304443359375 56.052978515625
20.91552734375 -27.810791015625 -17.904296875
28.56103515625 -22.614501953125 -28.552734375
16.40576171875 3.376708984375 34.666015625
27.32080078125 -27.63916015625 -39.7548828125
12.12841796875 5.587646484375 27.236572265625
15.560302734375 9.788330078125 7.3544921875
-12.7021484375 -39.824951171875 53.271728515625
7.7978515625 -54.709228515625 27.199462890625
-18.40771484375 0.35009765625 19.79541015625
19.17236328125 -18.917236328125 25.04833984375
20.323974609375 -42.808349609375 63.734619140625
20.127685546875 -29.47900390625 82.739501953125
16.316650390625 11.833740234375 -2.632568359375
20.503662109375 -34.340087890625 -21.837890625
-22.633056640625 -32.775634765625 70.7021484375
7.98046875 -59.870849609375 22.5556640625
-6.61865234375 -1.2939453125 44.667236328125
18.58056640625 11.643310546875 2.17431640625
19.7109375 -16.76953125 30.841064453125
16.19873046875 -38.82568359375 -26.23681640625
17.6083984375 -1.09521484375 46.474365234375
-18.71875 -24.535888671875 76.804443359375
19.96533203125 -12.700927734375 43.834716796875
15.88134765625 7.260986328125 17.999267578125
7.765869140625 -56.869873046875 25.22021484375
11.755859375 10.87890625 2.65869140625
14.385986328125 -22.059814453125 39.318359375
30.751220703125 -17.7841796875 -30.0419921875
14.177490234375 11.506103515625 0.714599609375
17.476806640625 14.323974609375 -9.2373046875
8.93701171875 4.701171875 31.736083984375
8.411865234375 -63.27294921875 16.417236328125
20.545166015625 -65.141845703125 76.3984375
17.09716796875 20.93408203125 -33.649169921875
-5.174072265625 4.43701171875 27.3564453125
1.40380859375 3.22314453125 32.793212890625
20.315185546875 -31.510009765625 82.35595703125
20.015625 -30.289794921875 71.17431640625
-7.70068359375 -32.3271484375 44.921875
-15.276611328125 -29.170166015625 8.934814453125
11.04736328125 9.889404296875 8.14453125
19.69921875 -23.749755859375 26.650146484375
1.63818359375 -36.045654296875 49.157470703125
-7.322998046875 -23.6484375 41.396240234375
7.10107421875 -36.272216796875 48.851318359375
13.705322265625 2.547119140625 39.753662109375
17.746337890625 13.578857421875 -6.6337890625
19.78173828125 -27.999755859375 73.55322265625
15.243896484375 -31.412353515625 52.411376953125
8.041259765625 -56.6806640625 23.365478515625
10.072265625 19.79443359375 -33.96533203125
-17.968017578125 -42.59765625 56.349853515625
-14.97509765625 -34.708740234375 47.451904296875
-27.12109375 -5.025634765625 51.7373046875
-15.201416015625 -25.93212890625 7.5966796875
13.447265625 15.973876953125 -17.244384765625
-17.794189453125 -11.891357421875 18.503173828125
20.791259765625 -24.030517578125 -16.87548828125
19.402587890625 -27.529296875 59.84033203125
-30.129150390625 -6.4111328125 53.6123046875
3.057373046875 -28.086669921875 40.262939453125
15.252197265625 -38.490478515625 46.87353515625
18.027587890625 -26.44775390625 29.692138671875
-2.439697265625 2.751220703125 36.201171875
20.17724609375 -35.22314453125 73.056640625
11.444091796875 15.86572265625 -16.15625
-8.966064453125 -42.144775390625 55.79296875
20.602294921875 -55.293701171875 19.79443359375
19.940185546875 -35.57763671875 75.71044921875
20.8720703125 -63.579833984375 79.51806640625
-22.62890625 -26.46923828125 75.893798828125
13.847900390625 1.912353515625 42.2548828125
14.85693359375 6.6337890625 -2.7841796875
14.15478515625 -1.57080078125 45.897705078125
20.70068359375 1.86865234375 -13.831298828125
28.68505859375 -4.489013671875 -43.90283203125
20.583984375 -33.001953125 -28.446533203125
-21.6064453125 -43.03515625 55.05615234375
20.500732421875 -32.508056640625 74.536376953125
20.62841796875 3.904541015625 -16.727783203125
20.4404296875 -36.072509765625 67.00830078125
28.462158203125 -36.82568359375 55.648193359375
-0.014892578125 -37.56591796875 50.9853515625
6.572998046875 7.66943359375 16.5576171875
-3.229248046875 -30.4658203125 43.010986328125
20.505859375 -20.53173828125 -16.85498046875
5.4296875 -0.942626953125 46.470947265625
19.334228515625 -19.21533203125 34.4736328125
19.6953125 -10.798583984375 42.3125
15.6572265625 -40.017822265625 -30.45458984375
19.966064453125 -15.507080078125 32.12939453125
-16.319580078125 2.43701171875 31.443115234375
-1.965087890625 -1.512939453125 45.807861328125
8.122314453125 5.221923828125 28.155029296875
21.112548828125 -42.17236328125 76.62548828125
10.706787109375 -21.2509765625 40.859619140625
23.810791015625 -16.395263671875 -42.156982421875
-22.468017578125 -14.827880859375 28.172119140625
13.2470703125 1.50439453125 44.7451171875
20.133056640625 -19.334716796875 -14.90380859375
22.86181640625 -28.910888671875 60.670166015625
6.80126953125 -27.76220703125 39.573486328125
21.112548828125 1.28125 -0.719482421875
9.6240234375 9.365478515625 1.7216796875
-8.10693359375 3.41455078125 32.748779296875
10.309814453125 17.95751953125 -24.919189453125
18.23193359375 -18.98828125 38.379150390625
27.91943359375 -27.70703125 -42.672607421875
-2.84326171875 -33.225341796875 46.030517578125
-21.880615234375 -35.665283203125 68.47802734375
-17.779296875 -4.77197265625 25.35693359375
27.406494140625 -24.1552734375 -36.41162109375
-12.256103515625 1.51611328125 39.577880859375
-17.046630859375 -23.84130859375 75.583251953125
-30.651123046875 -5.1826171875 49.008544921875
29.724365234375 -6.916259765625 -41.066650390625
20.646240234375 -29.390625 -26.33984375
-17.87353515625 -5.493896484375 28.583740234375
11.2431640625 17.044677734375 -22.24853515625
18.44091796875 -18.20166015625 43.85546875
21.439208984375 -52.590576171875 -35.3056640625
-21.97216796875 -33.955078125 71.78564453125
-19.02880859375 -2.50390625 35.413330078125
19.845947265625 -41.692138671875 62.43017578125
-16.06640625 4.969970703125 21.28076171875
4.15576171875 4.001953125 30.68359375
23.7158203125 -3.463623046875 -43.314453125
27.887939453125 -12.0234375 -33.31787109375
8.110107421875 7.50830078125 17.509521484375
10.06103515625 14.251708984375 -11.583251953125
27.18505859375 -23.59033203125 -38.051025390625
-22.344482421875 -31.1533203125 71.80224609375
20.543701171875 -30.246826171875 -19.776611328125
10.38525390625 6.566650390625 22.70654296875
18.671142578125 -26.78271484375 20.6748046875
-13.647705078125 3.875244140625 28.76220703125
8.67626953125 -0.55126953125 46.64501953125
22.818359375 -30.174560546875 58.296142578125
-19.860595703125 -6.9462890625 39.9169921875
18.31884765625 15.459228515625 -12.767578125
-18.026611328125 -9.826416015625 19.086669921875
-18.410888671875 3.673095703125 19.064453125
28.013427734375 -28.486083984375 -45.139892578125
-3.6279296875 5.644287109375 24.010009765625
-18.118408203125 -2.727783203125 24.451171875
9.646484375 6.060302734375 24.86962890625
9.320556640625 -59.948486328125 23.72607421875
20.2705078125 -23.556640625 77.656005859375
8.75537109375 -33.80908203125 46.944091796875
27.034423828125 -32.044677734375 -38.0791015625
8.842529296875 8.130859375 7.830078125
32.801513671875 -2.6396484375 -42.085205078125
20.097412109375 -29.89794921875 78.9248046875
-9.401123046875 -21.178955078125 41.218994140625
-12.783447265625 -34.200927734375 47.306396484375
-19.52490234375 -6.57421875 26.335693359375
17.984375 -21.492919921875 36.162353515625
25.06591796875 -21.642822265625 -36.968505859375
20.0546875 2.22802734375 -6.60791015625
-8.90185546875 -27.74609375 30.46875
5.45556640625 -29.90234375 42.800048828125
19.80224609375 -38.70751953125 64.184814453125
1.851318359375 3.69482421875 30.363037109375
19.935302734375 -29.291748046875 64.669677734375
12.07666015625 2.9140625 39.356689453125
29.533203125 -13.306884765625 -31.0673828125
19.52099609375 -19.357666015625 32.775146484375
-29.544189453125 -7.369384765625 55.2001953125
9.050048828125 0.69677734375 33.526123046875
12.56591796875 -0.9111328125 46.450927734375
31.122314453125 -41.673828125 55.35986328125
19.9970703125 4.398193359375 -8.93603515625
-8.0341796875 -38.460205078125 51.7763671875
19.632080078125 -37.638671875 -26.80859375
-8.664306640625 -26.034912109375 65.59912109375
25.674072265625 -13.48681640625 -43.89013671875
4.535888671875 5.091796875 27.20849609375
15.232666015625 13.2724609375 -8.484619140625
22.64599609375 -61.581787109375 79.1611328125
-1.1376953125 -31.0107421875 43.574951171875
20.85986328125 -35.36474609375 -30.920654296875
12.49755859375 14.8994140625 -13.60595703125
-29.81982421875 -7.48974609375 51.99267578125
-2.970947265625 3.82470703125 31.91259765625
-19.79248046875 -10.953857421875 26.31884765625
-7.931884765625 -20.916748046875 42.14599609375
34.54052734375 -9.93798828125 -38.35986328125
19.747314453125 -8.278076171875 43.077880859375
20.474853515625 -30.385986328125 -24.9677734375
5.8662109375 7.859619140625 14.9677734375
-11.193115234375 -0.32177734375 45.95263671875
1.035888671875 6.61767578125 19.832763671875
20.461181640625 -29.048095703125 -23.8603515625
-9.00927734375 -28.26220703125 66.53076171875
-0.5146484375 -0.797607421875 46.705322265625
3.63037109375 -22.91748046875 42.51318359375
-18.4853515625 -9.071044921875 20.982421875
6.36376953125 17.1083984375 -24.9580078125
-16.132568359375 -2.035400390625 45.262451171875
17.707763671875 13.137451171875 -4.917724609375
5.14892578125 1.87890625 40.87451171875
11.976318359375 1.424072265625 46.154052734375
-12.944580078125 -18.476318359375 41.626220703125
20.38671875 -32.572998046875 -19.511474609375
18.048583984375 -18.84765625 40.055908203125
-19.42626953125 -3.9111328125 38.858154296875
19.906005859375 -37.429931640625 70.487548828125
30.0322265625 -3.05322265625 -42.722900390625
19.72900390625 -11.82958984375 36.171142578125
-2.14501953125 -36.712158203125 49.89990234375
35.6103515625 -7.2421875 -39.99462890625
7.08447265625 1.2490234375 45.100341796875
23.462158203125 -21.348388671875 -39.21435546875
37.34765625 -7.895263671875 -33.658935546875
8.921875 -21.15283203125 42.13671875
9.826416015625 13.15869140625 -4.1484375
-12.671630859375 6.248291015625 20.073486328125
22.3662109375 -31.694091796875 -33.571044921875
14.631103515625 -51.802734375 -33.772705078125
-24.010009765625 -12.646240234375 25.103759765625
-26.736083984375 -6.29541015625 53.508056640625
11.58984375 13.05810546875 -4.454345703125
28.356689453125 -12.632080078125 -36.636474609375
3.45849609375 -38.4248046875 52.143798828125
21.42529296875 -60.44873046875 80.818359375
6.947265625 0.986572265625 30.917236328125
10.47998046875 -46.201171875 -28.715576171875
-13.207763671875 -33.051025390625 44.9853515625
11.779052734375 12.064453125 -1.25244140625
-18.539794921875 1.33154296875 21.402099609375
8.412109375 -66.6298828125 16.653564453125
9.912841796875 11.768798828125 -0.8447265625
20.195068359375 -35.80517578125 70.132568359375
17.10400390625 -23.040283203125 34.832275390625
10.916259765625 2.895263671875 38.1494140625
-17.513916015625 4.28564453125 21.9541015625
-3.33740234375 1.284912109375 42.050537109375
-19.213134765625 -5.92822265625 24.489990234375
1.462890625 6.96240234375 16.845947265625
15.331298828125 19.78173828125 -36.142578125
-19.0029296875 -5.26318359375 35.081787109375
9.871337890625 14.34765625 -18.140380859375
22.800048828125 -25.359130859375 62.872314453125
13.503662109375 4.071044921875 34.126708984375
-18.030029296875 -3.53173828125 33.18798828125
-17.261474609375 2.560791015625 28.068359375
-18.344970703125 -7.1630859375 44.81689453125
-9.547607421875 1.67236328125 38.543701171875
17.951904296875 -38.95166015625 -29.47607421875
33.307373046875 -5.156982421875 -43.572021484375
34.4462890625 -8.767578125 -39.540283203125
-19.927490234375 -9.33935546875 32.50830078125
31.519287109375 1.839111328125 -44.830078125
2.677734375 6.121826171875 22.8037109375
8.522216796875 2.55810546875 31.697509765625
8.99169921875 8.49658203125 6.0712890625
23.497314453125 -21.100341796875 -41.656005859375
-16.84033203125 1.108154296875 36.514892578125
17.977294921875 -63.146240234375 21.265380859375
-17.1123046875 -43.56103515625 58.306396484375
7.754150390625 8.252197265625 13.484130859375
-11.869873046875 -31.5576171875 42.845947265625
-5.154541015625 -30.288818359375 42.876708984375
-5.070556640625 -37.250732421875 50.536865234375
27.40478515625 -25.452880859375 -42.3505859375
-36.893798828125 -6.023681640625 54.308837890625
-13.824462890625 4.06103515625 26.31298828125
15.9541015625 9.000244140625 9.802734375
28.0751953125 -10.79248046875 -42.46435546875
5.583740234375 1.150634765625 46.1796875
29.29052734375 -6.57958984375 -45.51025390625
21.697265625 -36.751708984375 63.732421875
25.896728515625 -2.12939453125 -41.660888671875
13.329345703125 12.51904296875 -3.059326171875
-31.606201171875 -5.593017578125 46.80712890625
-19.06640625 -9.17919921875 25.62744140625
31.516845703125 -1.686279296875 -41.65625
10.9609375 -32.381103515625 45.246826171875
37.430908203125 -6.02001953125 -37.39599609375
-4.086181640625 6.12255859375 20.67822265625
27.00341796875 -23.89013671875 -27.78759765625
35.06103515625 -5.523193359375 -41.426025390625
14.6162109375 9.353759765625 11.338134765625
20.06689453125 -38.910400390625 -24.15087890625
4.30126953125 1.05224609375 44.58984375
31.98974609375 -5.95361328125 -42.42333984375
35.76513671875 -8.09765625 -35.90576171875
32.711669921875 -12.9677734375 -30.161865234375
24.47998046875 -56.406494140625 -0.497314453125
16.864013671875 -19.5556640625 40.960693359375
20.59326171875 -54.99853515625 13.686767578125
34.19189453125 -13.85205078125 -28.3740234375
22.139404296875 -28.17431640625 62.0869140625
20.2255859375 -41.25439453125 60.1044921875
25.56689453125 -13.875244140625 -31.876953125
23.2041015625 -1.451171875 -43.572998046875
31.40576171875 -8.701416015625 -38.801025390625
20.0869140625 -21.92236328125 22.470947265625
31.283447265625 -10.556884765625 -36.812255859375
29.575927734375 -12.2197265625 -32.343505859375
-11.95751953125 -33.110595703125 46.097900390625
26.3720703125 -20.452392578125 -33.366943359375
24.375732421875 -15.44677734375 -36.712890625
-19.1865234375 -8.240966796875 37.978271484375
9.576171875 1.854248046875 42.256591796875
32.0107421875 -12.508056640625 -34.338134765625
23.179931640625 -57.950927734375 2.33544921875
19.804931640625 -9.69921875 40.077392578125
20.60693359375 5.7685546875 -18.52587890625
24.5302734375 -13.70361328125 -33.97216796875
20.695068359375 -35.50634765625 -28.40283203125
24.4990234375 2.37890625 -44.271728515625
2.65576171875 0.473876953125 46.824951171875
17.85986328125 -29.3466796875 57.024169921875
26.7734375 -13.429931640625 -35.863525390625
20.765380859375 -60.71923828125 8.930908203125
27.662109375 -35.242919921875 -44.5048828125
-17.382568359375 -4.374267578125 21.37158203125
34.872314453125 -5.439697265625 -43.0693359375
-10.0078125 -23.09814453125 40.286376953125
34.9931640625 -7.112548828125 -41.880859375
18.08642578125 -26.53369140625 28.060302734375
26.8623046875 -24.128173828125 -40.151123046875
13.717041015625 -21.02490234375 41.78076171875
26.225830078125 -24.185302734375 -42.620849609375
-18.599609375 0.7734375 26.665771484375
-21.148681640625 -42.583984375 65.119384765625
-4.974853515625 1.40673828125 42.235595703125
24.327392578125 -39.4990234375 -42.0576171875
-17.97265625 -10.6708984375 29.01513671875
20.748779296875 -34.125244140625 -25.57275390625
31.267822265625 -13.67138671875 -28.93994140625
-13.825927734375 -22.44091796875 11.14453125
20.70751953125 -59.702392578125 11.7109375
-18.621826171875 -9.48681640625 23.7333984375
17.83984375 15.561279296875 -17.995849609375
28.516357421875 -12.333740234375 -43.960205078125
13.2333984375 4.90673828125 29.0791015625
-21.124267578125 -39.961181640625 67.331298828125
22.296630859375 -56.431884765625 8.5712890625
20.72412109375 -68.746337890625 77.155517578125
9.74462890625 1.366455078125 45.21484375
-5.493408203125 -25.33251953125 39.65185546875
-4.2158203125 -32.481201171875 45.4384765625
19.646484375 -22.87744140625 29.27783203125
-7.280029296875 1.27099609375 40.92529296875
-22.19970703125 -30.983154296875 73.60791015625
-17.63134765625 2.963623046875 24.72412109375
9.715576171875 -28.407470703125 40.625732421875
24.716064453125 -40.1044921875 -43.57763671875
34.162109375 -12.260986328125 -31.38916015625
27.823974609375 -20.841796875 -31.58935546875
-25.68212890625 -4.62744140625 49.148681640625
3.886962890625 -30.2333984375 42.934326171875
20.28662109375 -24.187255859375 71.848876953125
9.1318359375 -40.990234375 -27.827880859375
-4.969970703125 2.87158203125 35.531005859375
-1.663818359375 -21.793212890625 43.209228515625
-9.48681640625 -0.071044921875 45.673828125
29.515380859375 -14.88818359375 -29.7841796875
20.31689453125 -48.590576171875 58.1962890625
14.396240234375 10.800537109375 4.940185546875
-18.498779296875 -0.447021484375 36.88525390625
4.314453125 7.3203125 17.788330078125
8.065185546875 -31.56396484375 44.66943359375
-12.49658203125 -37.301513671875 50.38720703125
23.987548828125 -15.967529296875 -40.53125
20.7548828125 -54.525390625 17.9658203125
19.619384765625 -39.43994140625 78.775146484375
-19.533935546875 -3.757568359375 41.94873046875
-15.38134765625 2.313720703125 34.80419921875
-8.749267578125 1.034912109375 41.5302734375
27.51123046875 -25.596435546875 -39.420166015625
20.620849609375 -23.731689453125 -20.802490234375
12.109375 18.958251953125 -29.909423828125
-9.523681640625 -36.3857421875 49.649658203125
16.590576171875 12.0078125 -5.06201171875
-13.024169921875 -27.373046875 12.414794921875
7.99755859375 6.559326171875 21.88037109375
8.1669921875 -51.83642578125 28.858642578125
15.63427734375 4.183837890625 32.054931640625
20.328125 -33.6943359375 72.306884765625
-6.812255859375 -40.104736328125 53.5595703125
7.274169921875 -23.41650390625 41.971435546875
19.78173828125 -24.650390625 76.626220703125
-1.02783203125 4.543212890625 28.848876953125
6.853271484375 7.20263671875 12.122314453125
14.729248046875 2.611083984375 37.992431640625
20.944580078125 -52.538330078125 18.2236328125
9.630126953125 11.298095703125 -4.422607421875
13.6435546875 11.31396484375 2.779296875
11.71044921875 4.21435546875 32.840576171875
21.573974609375 -24.851318359375 72.553955078125
2.76416015625 1.77978515625 41.091796875
20.057373046875 2.245849609375 -3.27783203125
6.73974609375 -30.58203125 43.476806640625
-17.503662109375 -39.1240234375 52.713134765625
39.330322265625 -4.542724609375 -42.632568359375
19.533447265625 -17.179443359375 35.20458984375
-1.195556640625 5.8623046875 22.648193359375
5.242431640625 18.261962890625 -28.614501953125
20.436767578125 -34.10791015625 85.45947265625
20.052734375 -37.43359375 65.398681640625
18.3251953125 1.22265625 -8.51708984375
5.15283203125 17.084716796875 -26.2021484375
-0.932861328125 -34.388916015625 47.294921875
19.263916015625 -63.26513671875 23.613525390625
-12.914306640625 5.3798828125 21.36474609375
-20.257080078125 -43.510498046875 57.60400390625
-28.4462890625 -4.118408203125 49.225830078125
20.42041015625 -26.44970703125 -18.739501953125
-30.8037109375 -4.879150390625 51.067626953125
20.087646484375 4.64697265625 -12.949462890625
20.82861328125 -34.116943359375 83.280517578125
0.90185546875 6.262451171875 21.533935546875
28.137451171875 -12.06005859375 -38.268310546875
-19.553955078125 -2.936767578125 40.395751953125
28.372802734375 -0.150390625 -42.666748046875
9.4052734375 12.90673828125 -10.41357421875
13.731201171875 -40.373291015625 -25.852294921875
20.927734375 -59.07568359375 8.125
-9.611083984375 3.033447265625 32.897216796875
17.245361328125 0.53857421875 -7.053955078125
19.9794921875 2.85693359375 -11.063232421875
20.086181640625 -19.672119140625 71.5146484375
24.041748046875 -16.477294921875 -32.232666015625
19.777099609375 -29.936767578125 77.184814453125
-13.218017578125 -43.372314453125 57.965087890625
34.95849609375 -10.2646484375 -33.931884765625
23.390625 -57.787353515625 4.43408203125
30.106689453125 -38.6181640625 56.257080078125
-3.605224609375 -1.384765625 45.984375
17.439208984375 16.376953125 -20.539794921875
20.931640625 -71.40966796875 68.181884765625
-22.251953125 -12.247314453125 22.62744140625
24.2138671875 -20.033935546875 -35.740478515625
-21.331298828125 -44.32080078125 63.9189453125
35.844970703125 -8.48486328125 -38.925537109375
26.3369140625 -38.28564453125 -42.615234375
14.874755859375 12.07568359375 -3.1572265625
26.86962890625 -14.397216796875 -42.458251953125
-2.55224609375 -27.707275390625 39.714599609375
-19.366943359375 -0.954345703125 17.505615234375
7.063720703125 5.865966796875 24.730712890625
20.37255859375 -70.082275390625 70.965576171875
19.652587890625 -27.885498046875 78.99609375
-18.203125 -3.847412109375 29.24365234375
20.0380859375 -40.916259765625 84.030029296875
13.91064453125 5.437255859375 25.4072265625
13.364990234375 8.3349609375 16.101318359375
20.833740234375 -56.205810546875 11.9189453125
16.161865234375 19.056640625 -32.76220703125
19.763427734375 -21.0732421875 24.78515625
-9.509033203125 -33.18701171875 45.8173828125
-17.84326171875 -5.107421875 22.829345703125
23.60498046875 -17.420166015625 -34.180908203125
15.458984375 18.414794921875 -25.26318359375
24.131103515625 -19.2890625 -33.3369140625
-17.175048828125 -7.473388671875 32.8056640625
19.279541015625 -42.8369140625 81.79736328125
19.987060546875 -38.8828125 62.56640625
-19.046875 -9.89599609375 30.318115234375
30.938720703125 -13.526611328125 -30.443603515625
19.872314453125 -24.33056640625 78.96337890625
20.102294921875 -32.732666015625 70.87255859375
-9.658203125 2.131103515625 37.072265625
19.7724609375 -38.667724609375 74.662841796875
25.706787109375 -38.181640625 -44.51953125
-18.691650390625 -6.43359375 22.024169921875
31.77978515625 1.07470703125 -42.024169921875
-16.471923828125 -41.344970703125 55.150634765625
15.206298828125 17.145751953125 -23.277587890625
20.917236328125 -50.780029296875 55.424072265625
19.3642578125 -13.50244140625 40.724365234375
21.40380859375 -43.457763671875 -39.971923828125
3.925048828125 2.232177734375 32.026123046875
-0.171142578125 1.541015625 41.7314453125
5.671142578125 -36.50048828125 49.3779296875
19.80712890625 -36.814208984375 79.843994140625
14.007080078125 10.091552734375 6.913818359375
13.195556640625 9.595703125 10.80224609375
14.076904296875 7.40576171875 19.872314453125
9.474853515625 11.97119140625 -7.093017578125
10.865234375 8.071533203125 15.896728515625
-2.15625 6.029296875 20.76171875
18.15087890625 -23.8359375 32.034423828125
10.60107421875 13.23486328125 -6.42431640625
-0.99462890625 -40.022705078125 53.424560546875
20.251953125 -41.8193359375 -36.05224609375
16.541015625 -21.440673828125 37.717529296875
7.510498046875 8.060302734375 11.017822265625
20.802001953125 -32.752685546875 -22.759765625
19.434326171875 -38.88134765625 72.433349609375
6.3349609375 1.593994140625 42.57666015625
20.3359375 -28.135009765625 -22.640869140625
19.92138671875 -25.64453125 23.962890625
13.53759765625 6.35107421875 23.515869140625
19.82275390625 -42.659423828125 61.020263671875
27.9755859375 -30.83349609375 -41.350341796875
20.136962890625 -28.259765625 75.7998046875
-7.090087890625 -30.7060546875 27.708984375
1.057373046875 -32.611572265625 45.1884765625
27.540771484375 -25.2001953125 -29.92578125
-6.902587890625 3.904052734375 29.745849609375
16.663330078125 1.8291015625 41.795166015625
21.916748046875 -22.651123046875 -20.766357421875
-6.765869140625 5.47412109375 23.321533203125
20.9501953125 -34.56982421875 -34.615234375
20.880859375 -21.64453125 -15.3671875
19.735595703125 -7.069091796875 44.00146484375
-28.212158203125 -5.50927734375 53.082763671875
19.6279296875 -28.09619140625 80.97412109375
19.0654296875 -27.531494140625 23.134521484375
15.82861328125 1.93359375 39.82568359375
-17.19384765625 -9.854736328125 35.03759765625
5.438720703125 1.27294921875 39.18994140625
0.34033203125 -33.63037109375 46.820068359375
19.26220703125 -24.08935546875 28.06396484375
-16.16552734375 4.220947265625 24.51953125
19.162841796875 0.0634765625 -5.202880859375
27.353515625 -11.75732421875 -44.805908203125
19.90966796875 -37.697021484375 81.3349609375
5.206787109375 -33.946533203125 46.92578125
15.246826171875 15.107421875 -15.296630859375
25.98779296875 -34.852294921875 -40.06591796875
19.90869140625 -24.04931640625 74.530029296875
-7.8837890625 2.892578125 34.1513671875
9.203857421875 4.993896484375 29.964599609375
17.88525390625 -27.91162109375 25.11376953125
20.883056640625 -35.462158203125 -20.33154296875
21.94580078125 -66.706787109375 72.62548828125
-9.3955078125 6.02392578125 19.597900390625
-14.814208984375 -23.362060546875 8.759033203125
-0.344482421875 -35.559326171875 48.5009765625
-15.015869140625 -26.06201171875 10.1669921875
26.771484375 -22.5224609375 -36.564208984375
6.5849609375 6.383544921875 22.960693359375
-8.62939453125 -28.71630859375 41.227294921875
8.788330078125 3.759765625 32.953125
-4.369873046875 1.646240234375 40.76220703125
31.650146484375 -18.88330078125 -29.534423828125
27.364501953125 -27.90087890625 -30.812255859375
-4.4892578125 -40.64697265625 54.462158203125
21.135498046875 -63.7646484375 76.873046875
24.206298828125 -22.95947265625 63.2001953125
6.9638671875 -33.00341796875 46.09814453125
-21.861083984375 -45.7333984375 58.463134765625
14.9052734375 -41.964599609375 -24.98486328125
27.2041015625 -14.5419921875 -40.935546875
4.79736328125 -32.150146484375 45.011474609375
-3.666259765625 4.008544921875 30.367431640625
9.2939453125 5.515869140625 27.2607421875
24.685302734375 -15.33203125 -39.3623046875
-21.263427734375 -44.765625 60.437744140625
4.826171875 -27.589111328125 39.4453125
13.107177734375 19.732177734375 -33.092529296875
15.005126953125 3.49365234375 36.69287109375
4.5791015625 -21.781494140625 42.757080078125
28.442626953125 -10.835693359375 -43.9736328125
-1.498046875 -32.2392578125 44.966552734375
-11.22265625 4.324462890625 26.85302734375
3.062255859375 -34.375732421875 47.478515625
-19.005615234375 -1.885009765625 37.378173828125
16.35595703125 -39.3720703125 -29.297119140625
-8.147705078125 4.757568359375 25.478515625
-13.562255859375 -1.218994140625 46.279052734375
24.946044921875 -10.706298828125 -45.208740234375
19.569091796875 -30.814453125 74.4736328125
-18.466796875 -6.587890625 34.252685546875
-15.04541015625 5.04833984375 22.54638671875
25.7021484375 -32.28369140625 -36.945068359375
31.3115234375 1.2998046875 -43.431640625
-3.97119140625 -23.25 41.953125
-17.375732421875 -2.995361328125 18.658447265625
11.316162109375 10.945068359375 4.083984375
-20.131103515625 -41.2373046875 55.325927734375
-8.25439453125 5.633544921875 22.384521484375
25.224365234375 -17.380126953125 -30.808837890625
-24.5546875 -13.33642578125 22.455078125
20.51025390625 -66.120361328125 77.523193359375
-12.583984375 4.82958984375 24.25830078125
2.39013671875 -21.489501953125 42.78369140625
