-53.03173828125 -1.888916015625 36.574951171875
-59.89501953125 19.8671875 -10.787841796875
-22.689697265625 22.7247314453125 10.32080078125
-37.789306640625 1.2537841796875 25.8662109375
-69.089111328125 35.3359375 23.7020263671875
10.66845703125 23.72119140625 -16.206787109375
-18.736328125 33.9432373046875 -18.8243408203125
-72.04443359375 10.5509033203125 10.4488525390625
-10.77587890625 28.1568603515625 -1.118408203125
-48.253173828125 27.583984375 -1.2413330078125
-73.2080078125 38.49609375 13.44287109375
-65.529052734375 39.7225341796875 13.124267578125
34.030517578125 29.8004150390625 -65.533935546875
-44.26806640625 24.1949462890625 9.1842041015625
-9.740234375 34.5849609375 -27.682373046875
34.30908203125 15.79833984375 -32.907958984375
-40.6201171875 25.9595947265625 0.53564453125
-13.29345703125 31.6383056640625 -13.667724609375
36.722412109375 16.0325927734375 -34.50830078125
-30.74072265625 27.4775390625 -39.76611328125
38.70703125 6.836181640625 -24.35791015625
-52.724609375 19.3770751953125 16.459716796875
-45.973876953125 12.228515625 18.32373046875
-42.200439453125 24.7650146484375 6.7127685546875
-16.17236328125 30.62451171875 -34.010986328125
-18.232177734375 30.0147705078125 -31.1331787109375
-8.716064453125 28.7666015625 -3.996337890625
-26.031005859375 24.88720703125 7.79931640625
-31.806396484375 23.95556640625 8.131103515625
9.136474609375 29.576416015625 -24.5875244140625
-11.289794921875 36.643798828125 -32.52001953125
-41.28466796875 10.090087890625 18.657470703125
-18.439453125 40.9923095703125 -35.4388427734375
25.595947265625 5.4189453125 -14.4453125
-35.47021484375 12.300048828125 18.16943359375
-13.2275390625 30.5899658203125 -32.3427734375
42.721435546875 29.2635498046875 -70.0096435546875
-32.178466796875 32.482666015625 -18.5128173828125
-9.44384765625 21.564208984375 12.0257568359375
-18.962890625 20.4764404296875 14.477783203125
35.395751953125 12.912353515625 -32.4329833984375
36.401123046875 26.657470703125 -67.740478515625
-19.441650390625 27.0302734375 -3.320556640625
34.162109375 2.062744140625 2.9771728515625
-22.06591796875 33.5986328125 -20.5477294921875
-44.513916015625 28.6234130859375 -5.79443359375
41.465576171875 17.2635498046875 -36.4090576171875
-23.16552734375 28.8299560546875 -4.267822265625
-67.934814453125 14.4964599609375 7.756591796875
-6.560791015625 31.9881591796875 -13.244873046875
-34.742431640625 28.2640380859375 -39.263916015625
-2.17626953125 31.2645263671875 -15.48779296875
-47.27587890625 5.023193359375 21.0531005859375
20.907958984375 11.3504638671875 -18.4066162109375
-42.29052734375 24.857666015625 -29.9686279296875
-28.196044921875 28.2515869140625 -3.0386962890625
-41.15087890625 23.222412109375 -26.3970947265625
-44.161865234375 22.81298828125 -20.56689453125
-44.0361328125 7.3997802734375 19.4100341796875
-45.653076171875 4.0506591796875 33.2369384765625
-47.73583984375 25.7647705078125 -24.793701171875
-50.81494140625 20.10791015625 -18.3734130859375
-24.79931640625 25.6617431640625 2.0018310546875
39.5703125 11.0386962890625 -31.0556640625
-38.54736328125 24.8995361328125 -26.203369140625
-37.9873046875 4.44873046875 21.189208984375
-11.59716796875 19.099609375 15.78173828125
-22.3232421875 25.9598388671875 2.868408203125
-24.382568359375 25.308349609375 6.16162109375
-26.447509765625 25.198974609375 4.054931640625
-36.837158203125 25.1767578125 -29.5313720703125
-47.236328125 21.634033203125 -23.2171630859375
21.63720703125 7.83935546875 -9.2098388671875
-24.3896484375 26.0172119140625 -0.89990234375
2.389404296875 27.761962890625 -2.5828857421875
-41.3212890625 23.7015380859375 -23.4034423828125
10.919189453125 25.6754150390625 -24.2508544921875
-10.282958984375 16.889892578125 9.9217529296875
6.18603515625 28.884033203125 -15.8753662109375
-2.086181640625 54.8524169921875 -34.0137939453125
-47.16064453125 20.9957275390625 -19.9515380859375
-49.215087890625 18.5245361328125 -16.09326171875
-47.760986328125 0.9166259765625 30.51123046875
37.875 0.5528564453125 3.460693359375
-44.1416015625 -0.359375 30.5677490234375
12.666259765625 21.158935546875 -15.7513427734375
37.548095703125 27.81689453125 -71.3402099609375
-9.26171875 37.1571044921875 -31.1971435546875
22.22216796875 10.6751708984375 -20.12841796875
-7.86083984375 39.013916015625 -30.9927978515625
-30.995849609375 33.1605224609375 -20.130126953125
-37.444580078125 7.8466796875 18.9765625
-44.44140625 3.4830322265625 22.3392333984375
42.604248046875 24.5145263671875 -55.229736328125
34.490966796875 18.854736328125 -41.9107666015625
17.245849609375 18.432373046875 -24.782958984375
-65.404541015625 15.6912841796875 -3.40380859375
35.755126953125 3.3023681640625 -11.244384765625
6.455810546875 30.5025634765625 -21.946044921875
34.139892578125 23.1397705078125 -50.0626220703125
34.10595703125 23.8466796875 -54.081787109375
14.3671875 17.2547607421875 -11.3846435546875
42.366943359375 21.76220703125 -46.510986328125
33.150634765625 6.0694580078125 -18.020751953125
7.35302734375 33.2891845703125 -24.117431640625
-54.3193359375 0.58740234375 29.7421875
-47.907470703125 1.9407958984375 26.2012939453125
-31.365478515625 2.013671875 26.7313232421875
-40.944091796875 -0.1092529296875 33.026611328125
-35.75927734375 1.3770751953125 26.2657470703125
34.875 3.9365234375 -8.7376708984375
38.570068359375 1.911865234375 -0.3070068359375
-51.5126953125 1.0198974609375 29.78271484375
-58.655517578125 43.663818359375 0.154052734375
-37.75439453125 0.9078369140625 27.8453369140625
-43.990966796875 37.4412841796875 -21.21484375
-33.671630859375 29.485595703125 -41.6627197265625
-4.9384765625 56.3568115234375 -34.286865234375
-56.71728515625 7.7835693359375 19.281005859375
-46.22314453125 26.06494140625 0.614501953125
30.255859375 7.6090087890625 -24.6119384765625
-12.71728515625 16.4326171875 10.7037353515625
27.661376953125 9.8980712890625 -30.7440185546875
-49.9892578125 24.1605224609375 -22.03857421875
-10.724853515625 41.227294921875 -35.853515625
-11.154541015625 32.8663330078125 -27.4586181640625
-49.933837890625 11.1123046875 18.583984375
-42.33544921875 27.063232421875 -30.974365234375
28.981201171875 3.608642578125 -13.137939453125
36.502197265625 9.5675048828125 -30.0142822265625
31.87744140625 7.1827392578125 -22.270263671875
-31.911865234375 13.2706298828125 18.7215576171875
-17.370849609375 29.9324951171875 -6.2684326171875
-4.988525390625 24.878173828125 14.6845703125
5.36962890625 28.3428955078125 -11.7557373046875
7.595947265625 23.6025390625 -2.4688720703125
32.914794921875 3.872314453125 -11.1314697265625
42.47705078125 19.8428955078125 -39.3839111328125
3.674560546875 57.337646484375 -34.198486328125
-54.408203125 39.15087890625 -22.2353515625
-16.5107421875 32.2144775390625 -30.8885498046875
-51.604248046875 38.575927734375 -24.0426025390625
-31.567626953125 5.519287109375 20.473876953125
-14.06689453125 24.8023681640625 2.99755859375
-50.7724609375 19.416259765625 -13.0262451171875
-11.615234375 35.26171875 -24.20654296875
-71.82666015625 13.4822998046875 3.848388671875
-59.955322265625 36.141845703125 -16.1356201171875
-42.546142578125 50.995361328125 -21.68017578125
19.06298828125 12.7906494140625 -14.5322265625
-53.295654296875 21.937744140625 14.41259765625
-31.9736328125 19.8385009765625 16.654541015625
-20.8896484375 37.4578857421875 -30.705078125
-55.8271484375 2.0472412109375 25.1314697265625
-46.871337890625 22.1334228515625 12.660400390625
-4.163330078125 53.6263427734375 -28.4942626953125
-46.52880859375 47.9959716796875 -11.9884033203125
-44.818359375 48.6064453125 -15.414794921875
19.17724609375 11.6302490234375 -11.855224609375
-53.72705078125 45.890869140625 -5.673583984375
1.85400390625 29.098388671875 -8.67626953125
4.10400390625 31.9666748046875 -19.2222900390625
3.961669921875 33.2421875 -22.4232177734375
-37.633544921875 12.5845947265625 18.2603759765625
-66.429931640625 40.229736328125 8.4158935546875
-38.9658203125 28.6177978515625 -3.7225341796875
-56.377685546875 45.9144287109375 -6.5228271484375
-14.912353515625 34.5064697265625 -23.4373779296875
2.263671875 54.3153076171875 -27.13232421875
-46.086669921875 16.4365234375 17.4752197265625
-58.201171875 15.472900390625 17.8974609375
-67.184814453125 37.0782470703125 17.9014892578125
-34.522705078125 22.1138916015625 14.1724853515625
16.38916015625 13.9415283203125 -7.3974609375
-20.33837890625 33.1177978515625 -16.3790283203125
-52.2900390625 23.9803466796875 5.4278564453125
-44.8193359375 0.892578125 29.2120361328125
1.433837890625 57.859130859375 -35.88427734375
-46.781494140625 0.076171875 32.776123046875
35.804443359375 8.185791015625 -26.17138671875
-58.438232421875 16.80615234375 -3.7156982421875
-54.068359375 9.00244140625 19.065185546875
-33.763916015625 1.8463134765625 24.6861572265625
40.504150390625 9.49365234375 -30.439697265625
-10.720458984375 21.3084716796875 15.7733154296875
41.66015625 26.99755859375 -66.0615234375
2.0966796875 34.4053955078125 -22.265869140625
-39.20703125 28.8123779296875 -35.4178466796875
-7.702880859375 22.972412109375 19.835693359375
-38.47509765625 25.46484375 5.5159912109375
-36.705078125 24.766845703125 -31.6729736328125
-48.108642578125 6.8839111328125 19.7884521484375
4.5302734375 27.95654296875 -7.6124267578125
-5.85205078125 39.8173828125 -30.9083251953125
-5.353271484375 36.105712890625 -24.5546875
-11.0576171875 30.8472900390625 -12.1063232421875
-54.671630859375 11.4681396484375 18.7310791015625
-71.451171875 12.8682861328125 12.129150390625
-69.264404296875 16.9808349609375 0.2100830078125
-14.803955078125 18.252685546875 16.0858154296875
-35.126708984375 -0.3341064453125 33.6776123046875
-34.95263671875 30.7283935546875 -11.9385986328125
-30.79345703125 31.45361328125 -12.7161865234375
-19.04345703125 34.0855712890625 -27.282958984375
-4.885009765625 24.0543212890625 16.6328125
11.458984375 20.317626953125 -9.25048828125
-61.68896484375 43.1951904296875 1.8604736328125
-58.54443359375 19.72265625 -12.0810546875
22.295166015625 9.89404296875 -18.213623046875
2.69873046875 29.2359619140625 -10.3443603515625
-45.586181640625 24.6910400390625 5.468994140625
-52.625244140625 23.2708740234375 8.7039794921875
-55.10791015625 22.5947265625 11.5877685546875
-14.533203125 31.1536865234375 -10.7659912109375
-15.781494140625 31.5064697265625 -16.2061767578125
42.309814453125 22.927001953125 -52.100830078125
-28.145263671875 29.656494140625 -42.906982421875
-44.468994140625 22.53759765625 -23.1162109375
-60.941650390625 17.076171875 -8.67919921875
-70.849365234375 37.4033203125 19.3280029296875
40.023193359375 4.8017578125 -16.6512451171875
-23.185791015625 32.1431884765625 -14.3726806640625
-47.1005859375 21.090087890625 14.586181640625
-36.34326171875 23.131103515625 9.3116455078125
-14.49169921875 27.8765869140625 -4.079833984375
-45.733642578125 22.1275634765625 -19.3902587890625
-72.70556640625 11.2215576171875 12.258544921875
-39.42138671875 3.0697021484375 25.049072265625
-27.718017578125 25.330078125 2.4019775390625
-37.62109375 2.4879150390625 24.481201171875
13.968994140625 16.7862548828125 -7.341064453125
-7.052001953125 25.4752197265625 5.5540771484375
-8.28173828125 24.99462890625 8.4320068359375
10.3720703125 22.487548828125 -12.23193359375
-54.29638671875 18.733154296875 17.2054443359375
42.311767578125 22.7247314453125 -50.085205078125
15.921875 39.1953125 -28.926025390625
-54.83251953125 6.9588623046875 19.5001220703125
-10.71826171875 21.1016845703125 17.833251953125
10.727783203125 27.180419921875 -25.30908203125
-1.555419921875 28.953125 -4.4586181640625
-58.419921875 21.874755859375 13.6253662109375
40.931884765625 19.1240234375 -40.6722412109375
-45.81103515625 51.4068603515625 -18.5438232421875
35.1171875 21.7073974609375 -52.6199951171875
-13.093017578125 13.7091064453125 12.2784423828125
-49.838623046875 3.324462890625 23.2269287109375
-3.666015625 32.6436767578125 -15.286376953125
30.059326171875 4.9595947265625 -16.152099609375
-2.180419921875 27.45849609375 -3.42578125
-46.1025390625 48.278564453125 -14.1392822265625
-47.8154296875 47.9278564453125 -13.30126953125
-38.3955078125 49.986572265625 -19.2044677734375
-22.212646484375 40.198486328125 -33.3817138671875
4.726806640625 30.2490234375 -15.6761474609375
-12.71923828125 16.6376953125 8.66064453125
-16.77734375 15.9713134765625 9.0106201171875
15.873779296875 14.6041259765625 -5.64990234375
-47.3837890625 47.690673828125 -10.2752685546875
-70.41064453125 35.6455078125 20.2938232421875
21.15478515625 13.1839599609375 -24.2486572265625
-39.019775390625 17.05419921875 17.4853515625
-15.094970703125 30.9619140625 -25.9859619140625
-53.899169921875 18.011474609375 -10.2755126953125
-53.914794921875 0.284423828125 33.3814697265625
-58.564697265625 21.5582275390625 -12.6552734375
-26.123046875 28.4031982421875 -1.34033203125
-39.825439453125 27.5816650390625 -33.8670654296875
-42.785400390625 18.8043212890625 16.6202392578125
-36.968505859375 9.5283203125 18.4754638671875
-44.8017578125 25.470458984375 -18.9486083984375
-34.68603515625 25.52880859375 -34.5228271484375
18.962646484375 18.1097412109375 -28.1048583984375
-56.3193359375 -0.2078857421875 34.557861328125
-24.8818359375 28.76220703125 -2.99072265625
-22.629150390625 28.10107421875 -2.6953125
36.952392578125 3.5159912109375 -14.41796875
24.566650390625 7.782470703125 -18.92626953125
-55.656982421875 18.6297607421875 -14.3582763671875
39.42919921875 24.21728515625 -61.7679443359375
-6.580810546875 38.877685546875 -29.3121337890625
-8.49560546875 40.6160888671875 -34.64404296875
-55.911376953125 17.750732421875 -12.39013671875
-37.348876953125 0.3638916015625 33.8828125
-54.515625 -2.92822265625 40.068359375
-49.724853515625 -2.0283203125 38.5291748046875
-33.75830078125 1.2811279296875 30.315673828125
-4.467041015625 38.8701171875 -27.620361328125
-44.569091796875 -0.9232177734375 37.030029296875
39.00341796875 18.3582763671875 -43.5823974609375
-34.543701171875 51.013916015625 -23.462646484375
42.557373046875 18.58984375 -35.8631591796875
-40.542724609375 -0.24951171875 35.04296875
-76.385986328125 45.4759521484375 -5.0994873046875
-11.287109375 21.7904052734375 19.6593017578125
-16.01904296875 22.2386474609375 20.667236328125
-49.03076171875 5.441650390625 20.340576171875
38.677001953125 17.236572265625 -40.4544677734375
-37.88916015625 19.758544921875 16.3077392578125
-6.933837890625 28.03369140625 -2.022216796875
-30.4873046875 28.151611328125 -38.0224609375
-35.82763671875 50.6859130859375 -22.18701171875
-16.94091796875 20.6136474609375 17.835205078125
-33.825927734375 34.153564453125 -17.8541259765625
5.429931640625 34.88330078125 -23.4881591796875
26.19140625 7.9127197265625 -22.1385498046875
-51.26318359375 23.9993896484375 -20.7899169921875
-57.56689453125 0.399658203125 28.113037109375
-32.6357421875 24.245361328125 3.9654541015625
34.3818359375 20.4207763671875 -47.0426025390625
-13.138916015625 29.538330078125 -26.5875244140625
-36.396728515625 16.674560546875 17.370361328125
-39.937744140625 29.2864990234375 -5.3094482421875
-18.5537109375 29.30224609375 -5.0849609375
22.9775390625 7.0850830078125 -12.97021484375
-26.768310546875 33.653564453125 -21.788818359375
-73.5283203125 11.632568359375 6.897705078125
7.858642578125 59.0660400390625 -37.9482421875
-23.9619140625 24.57958984375 14.059814453125
-7.11474609375 22.2935791015625 16.3280029296875
-24.142822265625 32.9837646484375 -17.64599609375
-32.87548828125 31.34326171875 -14.8404541015625
-42.018310546875 29.050048828125 -6.1771240234375
-18.322509765625 34.217529296875 -20.9124755859375
-19.985595703125 33.8770751953125 -20.098876953125
-53.655517578125 26.2041015625 4.1253662109375
-68.1865234375 28.54248046875 6.412841796875
-5.363525390625 28.8798828125 -3.16796875
35.3916015625 1.797119140625 1.7127685546875
35.107177734375 27.218994140625 -66.085693359375
-48.09765625 19.29443359375 -17.247802734375
-18.95361328125 22.310302734375 18.619384765625
39.476318359375 7.2584228515625 -25.9072265625
-10.6171875 30.023681640625 -30.736083984375
-61.698974609375 41.262939453125 3.7296142578125
-1.15283203125 54.13427734375 -30.6180419921875
0.97802734375 54.6785888671875 -32.7349853515625
-42.5283203125 21.8438720703125 12.5452880859375
1.032958984375 28.8052978515625 -7.0313720703125
29.12744140625 6.599853515625 -20.726806640625
-43.93212890625 25.239501953125 2.5732421875
-19.08984375 30.40966796875 -10.4146728515625
-19.982177734375 31.0987548828125 -15.387939453125
-41.446533203125 25.62255859375 2.609130859375
-39.378662109375 26.2767333984375 -0.69775390625
-36.89599609375 26.9527587890625 -3.58154296875
-41.444091796875 25.371337890625 5.11181640625
-42.324462890625 28.1363525390625 -2.489990234375
13.361328125 18.5439453125 -10.3603515625
-72.388916015625 12.2872314453125 5.3236083984375
-48.429443359375 21.0836181640625 -21.1884765625
42.512451171875 8.92822265625 -26.1112060546875
-53.850830078125 23.8316650390625 -18.269287109375
-57.5634765625 22.841552734375 -14.1649169921875
-11.464599609375 18.5068359375 13.9935302734375
-58.28857421875 42.047607421875 1.20166015625
33.302001953125 4.3680419921875 -15.46240234375
-30.984619140625 24.416259765625 4.820068359375
2.00048828125 31.4202880859375 -13.8104248046875
-21.906005859375 25.564697265625 7.4434814453125
-19.850830078125 26.633056640625 -0.0035400390625
-16.55322265625 27.43359375 -2.863525390625
-38.401123046875 22.3128662109375 14.2664794921875
-34.2783203125 23.240478515625 11.41845703125
-17.40869140625 30.3087158203125 -32.7828369140625
-74.0859375 10.3602294921875 9.1868896484375
11.524658203125 19.5386962890625 -6.0628662109375
39.002685546875 2.5123291015625 -11.3946533203125
-30.815673828125 28.99755859375 -7.984130859375
-57.324951171875 13.638671875 18.3646240234375
23.7998046875 11.76123046875 -28.4891357421875
12.34765625 24.376953125 -24.8353271484375
35.910400390625 5.3026123046875 -6.124755859375
-54.475830078125 21.0084228515625 -16.968017578125
-5.418212890625 53.390625 -29.820556640625
-56.26953125 21.7587890625 14.846923828125
-17.091064453125 32.55126953125 -25.361572265625
-9.954345703125 35.7281494140625 -26.275634765625
-39.26513671875 22.7987060546875 9.7137451171875
35.7294921875 18.836181640625 -44.3468017578125
-51.226318359375 14.776611328125 18.0716552734375
-40.619873046875 29.2362060546875 -33.683837890625
-16.805419921875 31.0625 -26.3876953125
-52.048095703125 21.791748046875 -19.396240234375
-12.31689453125 40.485107421875 -35.92822265625
-38.404296875 24.90283203125 7.9613037109375
7.09814453125 24.3162841796875 -4.018310546875
4.075439453125 28.0372314453125 -5.9169921875
-47.991455078125 19.0859375 -19.7833251953125
-56.892822265625 19.3111572265625 -5.433349609375
36.437255859375 4.57373046875 -12.657470703125
-43.685546875 1.1640625 31.309814453125
39.64501953125 20.759033203125 -49.848876953125
-9.45703125 27.7554931640625 0.0679931640625
13.637939453125 40.43310546875 -28.3511962890625
-13.426025390625 20.53076171875 9.7952880859375
-73.439453125 14.5704345703125 4.8975830078125
-8.742431640625 32.9267578125 -19.441162109375
-5.005859375 26.580810546875 -2.276123046875
-44.36279296875 26.3389892578125 -28.5272216796875
-7.677734375 27.2740478515625 -0.451904296875
2.4091796875 31.859130859375 -17.5428466796875
-41.296630859375 13.922607421875 18.165283203125
-26.249755859375 35.541748046875 -23.2532958984375
-34.09765625 27.114013671875 -38.1240234375
-23.8115234375 36.796142578125 -28.6444091796875
-68.34033203125 12.9437255859375 6.64501953125
-30.67138671875 25.2366943359375 1.9974365234375
-15.630615234375 29.8011474609375 -7.150634765625
35.303955078125 2.8428955078125 -0.107666015625
34.64208984375 1.078857421875 4.7979736328125
-8.2666015625 21.810791015625 14.5728759765625
25.5380859375 10.6971435546875 -28.6260986328125
-57.950927734375 9.330322265625 19.1942138671875
-38.693115234375 29.815185546875 -8.64208984375
-19.157470703125 34.3836669921875 -23.8563232421875
-36.613037109375 30.1356201171875 -8.612060546875
-32.4580078125 31.2392578125 -13.1590576171875
-40.771728515625 29.3685302734375 -7.4156494140625
40.939208984375 1.911865234375 0.4638671875
-2.460205078125 54.277587890625 -32.336669921875
18.036376953125 14.715576171875 -17.104248046875
41.45458984375 30.0958251953125 -74.061279296875
-8.802978515625 29.98583984375 -11.4044189453125
-40.003173828125 27.4013671875 -3.0552978515625
-44.943603515625 26.2264404296875 -0.6466064453125
8.4482421875 24.0404052734375 -8.659912109375
8.47265625 28.0767822265625 -21.85107421875
-20.7490234375 30.3636474609375 -12.524169921875
-8.189453125 31.5341796875 -12.874755859375
-26.162841796875 29.4393310546875 -10.0760498046875
-12.849853515625 31.37744140625 -12.01611328125
-36.214599609375 29.16552734375 -39.1715087890625
-75.0791015625 14.110107421875 6.9400634765625
-36.8916015625 26.5340576171875 0.5894775390625
-50.554931640625 23.673828125 7.8997802734375
-17.43310546875 30.706787109375 -10.807861328125
-14.1240234375 31.719970703125 -15.76513671875
-17.021728515625 31.063720703125 -13.7215576171875
-3.3603515625 34.091552734375 -22.7001953125
-2.528564453125 33.88427734375 -19.3514404296875
-49.310791015625 23.73974609375 9.1689453125
-57.178466796875 22.1917724609375 12.3919677734375
-44.3447265625 25.0081787109375 4.235595703125
-36.475341796875 26.3885498046875 2.6810302734375
-1.286865234375 34.201416015625 -20.584716796875
-32.338134765625 27.5712890625 -2.681396484375
13.802978515625 18.51025390625 -12.4285888671875
-38.6123046875 15.156494140625 17.94677734375
-23.793212890625 33.8695068359375 -22.6256103515625
-52.525146484375 18.08935546875 -15.294921875
-53.958251953125 1.0775146484375 26.9537353515625
-57.926025390625 17.8143310546875 17.5059814453125
-7.468017578125 25.9102783203125 0.583984375
35.441162109375 22.841796875 -55.78271484375
-0.51220703125 27.598388671875 -3.8406982421875
13.404052734375 18.040771484375 -8.3768310546875
-45.903076171875 2.290283203125 25.82666015625
-53.115234375 0.6512451171875 30.970703125
-1.709228515625 30.5145263671875 -10.541015625
-10.364990234375 28.38720703125 -2.7740478515625
-0.47412109375 30.9554443359375 -13.015380859375
-22.73779296875 26.104736328125 0.7855224609375
-7.07080078125 29.521240234375 -8.95703125
-3.773193359375 30.32177734375 -11.8170166015625
-33.870849609375 23.804443359375 6.4398193359375
-57.470703125 1.7822265625 26.75830078125
18.753662109375 16.1578369140625 -24.261962890625
2.5322265625 30.5350341796875 -12.2564697265625
-54.955078125 -2.5640869140625 37.2821044921875
-51.486572265625 12.3111572265625 18.4283447265625
-66.797119140625 15.9840087890625 -2.0831298828125
18.21142578125 12.9063720703125 -12.4715576171875
9.48583984375 26.7330322265625 -21.197265625
2.36279296875 28.207763671875 -5.4542236328125
-36.152099609375 0.669677734375 32.6937255859375
-52.519287109375 -2.5802001953125 39.695068359375
35.750732421875 24.2105712890625 -59.751220703125
5.777587890625 28.6549072265625 -14.228759765625
-6.6728515625 33.413330078125 -21.0797119140625
-51.113525390625 19.8262939453125 16.0985107421875
-33.375244140625 -0.64404296875 31.9302978515625
-10.52880859375 32.0899658203125 -31.7623291015625
-17.373779296875 26.8477783203125 1.69384765625
21.396484375 10.5230712890625 -16.90478515625
-55.7548828125 16.8126220703125 -9.1842041015625
-57.3466796875 36.379638671875 -17.84130859375
-81.2158203125 45.2982177734375 -7.2840576171875
-56.050048828125 43.936767578125 -0.2662353515625
39.24365234375 20.8994140625 -51.865234375
12.474853515625 23.135986328125 -21.6834716796875
-52.197509765625 -1.74755859375 34.9429931640625
-1.243896484375 29.890380859375 -6.8448486328125
-63.84814453125 16.454345703125 -5.3946533203125
-31.1416015625 0.44140625 32.1295166015625
42.355712890625 5.424072265625 -17.7784423828125
-47.336181640625 -0.89208984375 30.9237060546875
10.558837890625 24.8541259765625 -19.787841796875
39.185791015625 21.8192138671875 -55.036865234375
-41.3251953125 12.17041015625 18.2376708984375
42.64453125 23.901123046875 -53.649169921875
-34.20458984375 14.27978515625 17.7047119140625
-51.75244140625 20.8524169921875 14.6094970703125
-15.15478515625 16.303466796875 8.216796875
-10.6904296875 16.991455078125 8.28125
-15.963623046875 15.8912353515625 11.0655517578125
5.134765625 30.6451416015625 -18.98388671875
-58.222412109375 7.0498046875 19.5745849609375
-65.279052734375 43.1136474609375 4.0760498046875
-11.5830078125 14.595947265625 12.00830078125
-8.664306640625 24.5694580078125 10.4659423828125
40.937255859375 25.803466796875 -64.50732421875
1.227294921875 30.5633544921875 -9.7152099609375
-53.50439453125 17.1859130859375 17.7371826171875
-27.469970703125 32.3868408203125 -16.8564453125
-20.81591796875 33.5806884765625 -18.435546875
-11.660888671875 28.8836669921875 -6.48193359375
-34.97607421875 29.48193359375 -40.4019775390625
43.956298828125 5.3179931640625 -18.603515625
31.874755859375 7.4609375 -25.040771484375
31.34619140625 3.868408203125 -13.51953125
-6.75927734375 22.91162109375 13.9185791015625
-5.98046875 54.424072265625 -32.3134765625
37.36669921875 24.6724853515625 -63.3743896484375
-12.32861328125 20.779541015625 16.9556884765625
-10.32421875 19.3555908203125 12.0465087890625
15.668212890625 17.0611572265625 -15.1187744140625
-26.2080078125 30.7669677734375 -44.4810791015625
-8.322998046875 32.488037109375 -14.4300537109375
-25.2978515625 28.8658447265625 -4.6651611328125
39.9013671875 5.2342529296875 -6.5782470703125
44.056640625 3.86865234375 -15.6204833984375
34.518798828125 24.123291015625 -57.7265625
40.873779296875 20.242431640625 -45.837646484375
-36.382568359375 4.7366943359375 20.808349609375
-41.895263671875 3.11083984375 23.865966796875
-51.515869140625 1.3441162109375 26.5528564453125
-65.3623046875 13.59423828125 0.0211181640625
-43.615234375 14.8538818359375 17.9664306640625
23.54736328125 10.057373046875 -23.855712890625
-22.51904296875 24.1458740234375 9.3106689453125
-43.900390625 24.2830810546875 -28.352783203125
-36.61865234375 3.78564453125 22.2650146484375
-44.522216796875 13.27001953125 18.0880126953125
-18.200439453125 26.887451171875 0.0203857421875
-29.745849609375 24.4818115234375 6.0841064453125
-12.0146484375 28.0911865234375 -2.3824462890625
-44.982666015625 19.1405029296875 16.296630859375
-3.357421875 30.0517578125 -8.4879150390625
-19.8525390625 26.7999267578125 -1.6650390625
-21.50146484375 26.4205322265625 -0.4427490234375
-9.133544921875 29.203369140625 -8.98681640625
-5.009765625 30.0059814453125 -10.5887451171875
-13.663330078125 27.670166015625 -0.744873046875
-26.4453125 24.990478515625 6.1318359375
-14.10400390625 30.4002685546875 -28.581298828125
-35.637451171875 25.6463623046875 -30.73828125
-76.3896484375 45.823974609375 -8.5654296875
-78.538818359375 45.27490234375 -6.4302978515625
-37.695068359375 27.838623046875 -36.3651123046875
37.938232421875 11.374755859375 -31.0101318359375
-40.094970703125 4.6170654296875 20.8472900390625
-33.36083984375 1.5445556640625 28.3109130859375
-39.74853515625 0.317626953125 30.6312255859375
-48.927734375 -1.7437744140625 36.9322509765625
-57.729736328125 -1.5396728515625 37.994873046875
-49.057861328125 18.2708740234375 17.03515625
21.0048828125 14.84228515625 -28.9151611328125
-9.926025390625 24.824462890625 7.580810546875
39.407470703125 1.11376953125 3.14111328125
-15.251708984375 22.46484375 22.8095703125
-19.777099609375 22.3497314453125 16.9527587890625
40.44580078125 20.6802978515625 -47.8267822265625
3.977294921875 29.2396240234375 -11.6143798828125
13.343505859375 23.17431640625 -25.403564453125
9.523193359375 22.091552734375 -6.4736328125
28.078125 9.2559814453125 -25.1925048828125
-46.7294921875 10.0203857421875 18.7320556640625
40.67236328125 16.8997802734375 -34.017578125
-17.071533203125 34.115478515625 -17.962646484375
-14.554443359375 33.2471923828125 -31.6209716796875
-31.237060546875 1.07421875 30.2200927734375
19.00537109375 13.39208984375 -16.0745849609375
-48.4072265625 13.6058349609375 18.216064453125
14.3359375 21.8546142578125 -24.748046875
42.339111328125 22.263427734375 -48.4986572265625
42.36474609375 3.4307861328125 3.51513671875
10.775634765625 22.7962646484375 -14.678466796875
30.06494140625 9.6151123046875 -27.1688232421875
13.892822265625 21.9310302734375 -23.0865478515625
-47.69287109375 -1.823486328125 38.121337890625
20.1962890625 9.6829833984375 -8.910888671875
34.63134765625 7.4080810546875 -20.25146484375
11.1572265625 23.3392333984375 -17.921630859375
12.53857421875 18.161865234375 -6.2886962890625
39.92529296875 6.3515625 -22.030029296875
-22.8203125 30.04443359375 -12.5540771484375
6.8427734375 30.887939453125 -23.5755615234375
-63.521484375 14.8287353515625 -1.468994140625
-41.349609375 0.4346923828125 26.9891357421875
30.047119140625 9.958984375 -29.137451171875
31.22998046875 10.2611083984375 -30.3125
38.0263671875 3.7628173828125 -3.5909423828125
36.950927734375 13.447998046875 -32.37646484375
-17.14013671875 32.0284423828125 -16.9720458984375
43.056884765625 7.0721435546875 -24.351318359375
9.97021484375 22.0146484375 -8.150390625
40.389404296875 3.8642578125 -2.3984375
-25.21435546875 32.171875 -43.9310302734375
36.5947265625 7.90966796875 -22.2020263671875
42.091796875 9.3934326171875 -28.4552001953125
16.426513671875 18.09228515625 -21.1339111328125
42.789306640625 28.13525390625 -66.3978271484375
41.360595703125 8.3404541015625 -24.9783935546875
16.865478515625 18.018310546875 -22.7855224609375
23.514404296875 5.6395263671875 -9.5682373046875
36.6923828125 16.48779296875 -36.07763671875
42.693359375 6.4097900390625 -21.240234375
29.390625 3.329345703125 -11.182373046875
31.35009765625 3.47265625 -9.5771484375
-53.762451171875 24.680419921875 5.992431640625
41.129638671875 5.9310302734375 -18.8974609375
19.81591796875 13.9324951171875 -21.7052001953125
-47.257080078125 19.7840576171875 16.0322265625
-50.06396484375 20.9945068359375 14.18798828125
-42.04345703125 5.9517822265625 19.9127197265625
-35.802001953125 20.005126953125 15.480224609375
-47.943359375 17.09521484375 17.6326904296875
37.05224609375 1.0120849609375 1.9541015625
-20.88671875 37.162353515625 -27.760986328125
34.426025390625 25.353515625 -60.90185546875
42.122314453125 3.0718994140625 -12.1348876953125
18.413818359375 15.2884521484375 -20.7012939453125
-15.231689453125 16.1387939453125 14.43359375
-55.923828125 0.3807373046875 29.315185546875
-59.130859375 -0.194580078125 30.0762939453125
-10.607666015625 16.212646484375 11.46533203125
41.215087890625 21.4246826171875 -51.0074462890625
-41.02001953125 23.0079345703125 9.7750244140625
35.51611328125 5.40087890625 -7.7113037109375
-13.22802734375 18.8070068359375 16.168701171875
16.387451171875 14.103271484375 -9.0086669921875
37.056884765625 17.3668212890625 -41.2491455078125
-0.161865234375 31.9796142578125 -16.245849609375
9.145751953125 25.8792724609375 -17.9779052734375
-32.787841796875 27.9150390625 -5.1654052734375
21.543212890625 9.0418701171875 -13.8807373046875
-10.588623046875 29.701171875 -29.0958251953125
-49.510498046875 1.612548828125 26.985595703125
-10.4013671875 19.5635986328125 14.5968017578125
-0.4794921875 55.8331298828125 -34.3486328125
36.022216796875 20.462646484375 -49.473388671875
34.177734375 3.1239013671875 -10.4578857421875
-57.002197265625 18.8145751953125 -13.483642578125
-45.590087890625 25.06787109375 1.715087890625
-33.779052734375 27.10205078125 -32.6756591796875
-17.42138671875 18.949951171875 14.58447265625
-11.635986328125 31.851806640625 -13.2266845703125
-66.996337890625 13.301025390625 0.408935546875
-29.18994140625 29.5357666015625 -9.189208984375
-45.919921875 23.56201171875 -25.9151611328125
-14.322998046875 33.116943359375 -18.53662109375
-54.453369140625 -1.1717529296875 36.3599853515625
16.086669921875 17.2584228515625 -17.964599609375
11.669189453125 22.4781494140625 -16.3868408203125
-57.4921875 3.974609375 21.84130859375
-40.338623046875 25.9307861328125 -32.7884521484375
-47.215087890625 -0.0032958984375 34.415283203125
38.919189453125 3.675537109375 -14.41064453125
26.29443359375 6.732666015625 -19.083740234375
41.1318359375 4.569091796875 -3.892578125
-27.887451171875 30.293212890625 -40.747314453125
-3.924072265625 55.388427734375 -33.5194091796875
-26.669921875 26.7872314453125 -0.75
11.92236328125 24.3026123046875 -23.185791015625
-59.625732421875 22.27294921875 -11.699951171875
40.518798828125 9.19091796875 -28.8736572265625
-52.93310546875 19.267822265625 -10.0960693359375
-32.490234375 29.2791748046875 -34.540283203125
11.415283203125 20.823974609375 -11.242431640625
-38.7236328125 30.633544921875 -36.4903564453125
5.1044921875 26.481689453125 -3.2349853515625
31.09326171875 6.8629150390625 -20.3026123046875
43.662841796875 9.7550048828125 -29.619873046875
42.090087890625 9.5523681640625 -30.038330078125
8.021728515625 28.115966796875 -19.755859375
34.217529296875 8.0870361328125 -26.1759033203125
-27.82373046875 34.721923828125 -22.4976806640625
-32.976318359375 8.3829345703125 19.0106201171875
-37.03759765625 25.980712890625 -28.177490234375
-50.563232421875 -1.6446533203125 34.932373046875
42.653076171875 4.904296875 0.9613037109375
37.138916015625 6.594482421875 -24.3804931640625
-8.3466796875 36.5548095703125 -28.72607421875
21.130859375 8.965576171875 -12.2701416015625
-45.75390625 20.7357177734375 15.3455810546875
24.461669921875 8.8868408203125 -21.1922607421875
-58.205810546875 23.0489501953125 10.4378662109375
29.392333984375 3.1710205078125 -9.6053466796875
32.912841796875 4.0701904296875 -13.1026611328125
-50.519287109375 25.7982177734375 3.1683349609375
13.5087890625 16.927490234375 -4.84521484375
-73.853759765625 46.4761962890625 -9.3701171875
-49.83984375 26.7618408203125 1.19482421875
27.807861328125 3.269287109375 -11.5775146484375
7.229736328125 27.3802490234375 -15.2552490234375
40.563232421875 2.7132568359375 -10.9793701171875
38.2255859375 2.1160888671875 -8.656982421875
-78.156982421875 45.7259521484375 -8.565673828125
39.80419921875 7.8360595703125 -23.833740234375
-21.51025390625 29.1689453125 -5.07763671875
-10.066650390625 33.292236328125 -20.231201171875
7.454833984375 29.4268798828125 -22.5078125
-81.1181640625 44.6160888671875 -3.8681640625
-78.10546875 45.0367431640625 -3.391357421875
-70.369384765625 47.1436767578125 -12.3775634765625
-32.7490234375 27.1724853515625 0.6494140625
1.304443359375 55.5904541015625 -34.376708984375
-42.802001953125 3.6256103515625 21.9276123046875
7.52587890625 24.473388671875 -6.5013427734375
-39.42724609375 7.34814453125 19.3233642578125
28.443115234375 5.06591796875 -15.3223876953125
-43.75927734375 50.33056640625 -20.4447021484375
19.1318359375 16.6912841796875 -27.4613037109375
7.862060546875 25.5736083984375 -12.1781005859375
-53.10205078125 39.2691650390625 -23.0888671875
-37.5771484375 50.6329345703125 -22.6224365234375
-39.4345703125 51.0838623046875 -22.995849609375
-39.134521484375 24.025146484375 -29.6578369140625
-15.416748046875 14.9581298828125 13.3790283203125
41.344482421875 1.594482421875 2.8017578125
-53.381103515625 46.636474609375 -9.0677490234375
6.575927734375 58.608154296875 -35.3785400390625
-63.652587890625 43.9259033203125 1.999755859375
4.861572265625 58.3873291015625 -35.834716796875
-74.66796875 46.045654296875 -8.1072998046875
-13.619140625 30.600830078125 -8.7396240234375
42.533447265625 25.9178466796875 -61.64404296875
-53.723876953125 45.587890625 -2.6553955078125
-55.865478515625 45.30126953125 -3.1175537109375
-8.778564453125 39.6201171875 -33.47412109375
-32.005859375 27.234375 -37.69580078125
36.685302734375 22.6986083984375 -57.0084228515625
36.22216796875 29.011962890625 -72.9246826171875
8.42724609375 28.5513916015625 -23.459716796875
-7.0673828125 22.4012451171875 12.1474609375
-22.9580078125 39.4156494140625 -31.7584228515625
-50.73974609375 18.1700439453125 17.0416259765625
-65.19384765625 40.763916015625 6.7442626953125
-32.9609375 27.8538818359375 -38.8880615234375
-1.150634765625 53.918701171875 -28.47021484375
-66.810791015625 39.69775390625 11.3875732421875
4.8212890625 54.9254150390625 -29.2430419921875
0.556396484375 54.1385498046875 -28.0159912109375
-54.79345703125 18.065185546875 -9.0030517578125
14.52197265625 19.92724609375 -19.233154296875
35.42236328125 17.443603515625 -40.0250244140625
17.9775390625 15.36083984375 -19.055908203125
-49.8798828125 19.36181640625 -14.29736328125
-51.299560546875 2.4144287109375 23.88818359375
41.591552734375 28.041259765625 -68.8565673828125
10.05810546875 21.1214599609375 -5.385498046875
19.253173828125 10.885498046875 -10.3419189453125
-35.754638671875 27.697021484375 -4.3231201171875
35.10498046875 27.422607421875 -68.114501953125
35.2451171875 3.5682373046875 -1.5872802734375
-43.514404296875 24.9683837890625 5.916015625
-6.267822265625 50.1771240234375 -26.716552734375
-39.841552734375 -1.6396484375 36.3502197265625
3.114013671875 33.1051025390625 -20.75146484375
-45.751953125 0.617919921875 36.5899658203125
-29.89599609375 31.139892578125 -11.4937744140625
-58.327392578125 42.0399169921875 2.9473876953125
36.576416015625 1.99462890625 0.13134765625
36.978271484375 3.430419921875 -16.42578125
8.133056640625 27.1788330078125 -18.2120361328125
36.006103515625 20.773193359375 -51.0703125
-67.239013671875 39.8045654296875 9.6632080078125
3.592529296875 28.7301025390625 -8.74658203125
-51.529052734375 40.2744140625 -25.5587158203125
-58.2265625 25.0364990234375 8.6663818359375
11.497314453125 24.18701171875 -21.126220703125
-7.0869140625 21.93359375 18.359130859375
11.547607421875 19.183837890625 -4.0516357421875
6.98388671875 25.4542236328125 -7.5975341796875
-71.86669921875 31.6435546875 -1.630615234375
-41.9970703125 38.50537109375 -23.6654052734375
22.271728515625 14.5185546875 -29.7711181640625
-56.128662109375 -1.2117919921875 37.211669921875
38.24951171875 17.6715087890625 -42.43408203125
42.467041015625 26.8775634765625 -63.6202392578125
-9.541748046875 36.1282958984375 -29.6185302734375
-13.30322265625 28.116455078125 -27.177734375
21.11767578125 8.6300048828125 -7.46240234375
-47.0146484375 20.21826171875 -18.383056640625
-53.57080078125 18.958984375 -16.00146484375
-35.131103515625 25.9869384765625 3.869384765625
-12.458984375 31.155029296875 -33.5419921875
-61.19140625 30.9647216796875 -1.84716796875
8.20068359375 26.51025390625 -16.21826171875
-14.135009765625 34.7418212890625 -21.291748046875
-3.876953125 31.2398681640625 -14.63623046875
-52.206787109375 22.916015625 12.8809814453125
5.3876953125 57.4716796875 -32.8809814453125
-23.114501953125 34.9605712890625 -24.1907958984375
-8.705810546875 22.2730712890625 10.8875732421875
-50.852783203125 18.35498046875 -16.94091796875
5.580322265625 26.247802734375 -4.952392578125
-46.659912109375 4.0875244140625 22.0902099609375
6.323974609375 27.62353515625 -12.7049560546875
-42.778076171875 28.4814453125 -4.9822998046875
-43.01904296875 26.1888427734375 -29.811279296875
-56.632080078125 10.8553466796875 18.6409912109375
-34.57861328125 28.3275146484375 -5.50830078125
-70.217529296875 12.0274658203125 6.50634765625
-28.265380859375 31.63818359375 -12.2841796875
-22.556640625 36.8204345703125 -26.9439697265625
-25.897705078125 36.220947265625 -26.151123046875
-19.135009765625 21.269287109375 15.8927001953125
14.963623046875 19.85205078125 -20.89208984375
-12.008544921875 32.770751953125 -26.2010498046875
-23.783935546875 24.026611328125 10.1505126953125
-46.515380859375 27.4425048828125 -0.4315185546875
-8.595947265625 34.8232421875 -21.734375
-46.703125 13.556640625 18.17919921875
-47.580078125 2.576171875 23.443115234375
-17.892333984375 32.3916015625 -26.6446533203125
-48.56005859375 21.94970703125 13.4979248046875
-28.744140625 30.1971435546875 -39.495849609375
-40.279052734375 15.0556640625 17.9532470703125
-41.8994140625 26.049560546875 -0.7078857421875
-28.5595703125 29.759765625 -44.574462890625
-29.168701171875 32.5830078125 -19.7913818359375
-17.073486328125 34.3258056640625 -20.0567626953125
-32.46142578125 31.5755615234375 -16.509765625
-34.12451171875 31.235107421875 -15.6961669921875
-25.80810546875 32.853515625 -18.926513671875
-55.73291015625 25.63134765625 6.6082763671875
-35.78759765625 30.89453125 -14.882568359375
-35.785888671875 30.726318359375 -13.2071533203125
-19.56689453125 33.6888427734375 -17.579833984375
-52.40869140625 26.5224609375 2.8868408203125
-49.083740234375 27.3297119140625 0.003173828125
-47.42236328125 27.83837890625 -2.48583984375
-44.510498046875 28.287109375 -2.4437255859375
-42.02099609375 29.3023681640625 -8.690185546875
-45.3447265625 28.3690185546875 -4.5499267578125
-37.442626953125 29.7552490234375 -6.111083984375
-24.556396484375 32.6673583984375 -15.1390380859375
-28.30029296875 32.0904541015625 -15.193115234375
22.887939453125 8.0045166015625 -14.8511962890625
-38.5205078125 25.4520263671875 -33.2657470703125
-57.587646484375 17.5675048828125 -11.5662841796875
-44.176513671875 21.381103515625 14.598388671875
-35.609130859375 25.99072265625 -35.7265625
-34.343994140625 4.900146484375 20.8070068359375
-12.911865234375 32.362060546875 -18.645751953125
-43.09765625 24.781005859375 8.424560546875
-22.77001953125 26.468505859375 -1.265869140625
-36.02490234375 29.076904296875 -5.378662109375
-42.2763671875 25.6204833984375 1.3458251953125
-27.78466796875 28.6083984375 -5.952392578125
-34.8203125 26.853271484375 0.6195068359375
-36.066162109375 26.954833984375 -2.3182373046875
-34.408203125 27.12646484375 -1.4600830078125
-46.825927734375 24.2064208984375 8.3707275390625
-29.854248046875 28.121826171875 -4.3138427734375
-53.8642578125 22.7025146484375 12.43994140625
-5.840576171875 33.1641845703125 -17.3138427734375
-15.77685546875 31.0458984375 -11.6181640625
-47.246337890625 24.7288818359375 2.5252685546875
-38.131591796875 26.049560546875 3.4912109375
-29.0283203125 28.500732421875 -6.8045654296875
-21.576171875 30.1103515625 -11.2847900390625
-53.45166015625 22.933837890625 10.7774658203125
-31.51123046875 27.866455078125 -4.337890625
-24.057861328125 29.3504638671875 -7.56689453125
-10.3974609375 32.4620361328125 -17.379638671875
-26.127685546875 28.86376953125 -5.9283447265625
-26.95751953125 28.8616943359375 -7.191650390625
-39.991943359375 24.1771240234375 -30.8929443359375
40.647216796875 24.0496826171875 -59.7425537109375
-65.27490234375 14.491943359375 3.943115234375
-43.7578125 1.77685546875 28.149169921875
12.30517578125 20.549560546875 -13.3568115234375
-69.52978515625 13.017578125 2.4832763671875
35.112548828125 5.16552734375 -4.5318603515625
-32.1806640625 23.1536865234375 13.9110107421875
-49.01806640625 9.010986328125 18.984375
-2.092041015625 29.7943115234375 -5.5867919921875
-28.921875 24.734130859375 4.849853515625
-35.104736328125 23.2384033203125 10.160400390625
-28.91943359375 24.48388671875 7.3421630859375
-16.58056640625 30.1439208984375 -29.8631591796875
-7.893310546875 29.1439208984375 -6.4766845703125
-35.932373046875 23.3614501953125 7.6561279296875
-12.84326171875 28.297607421875 -5.7174072265625
-10.367919921875 28.6790771484375 -5.681640625
-5.416748046875 29.4002685546875 -5.1947021484375
-7.4775390625 28.8739013671875 -3.147705078125
-14.487060546875 27.4178466796875 0.4893798828125
-16.55029296875 27.1417236328125 0.044189453125
-4.179931640625 29.6744384765625 -6.007568359375
-30.15625 24.2098388671875 8.155029296875
-30.982666015625 24.207763671875 6.89697265625
-39.22509765625 12.1846923828125 18.206787109375
37.70703125 19.57421875 -47.1160888671875
9.935302734375 26.6534423828125 -22.875
-42.470458984375 23.7874755859375 9.5113525390625
-34.813232421875 29.5521240234375 -6.5911865234375
-3.4736328125 51.673095703125 -25.2509765625
-71.35595703125 11.2496337890625 9.31201171875
-33.963623046875 26.2442626953125 -35.7027587890625
-11.578857421875 31.2861328125 -10.7703857421875
41.5390625 4.21044921875 -1.15087890625
17.36083984375 12.7802734375 -7.996337890625
-22.654052734375 21.9896240234375 16.0838623046875
-9.520751953125 25.4276123046875 2.208984375
-55.112548828125 4.5748291015625 21.09521484375
38.44091796875 26.664306640625 -67.727783203125
-9.107666015625 25.283203125 4.2833251953125
1.56884765625 27.5107421875 -1.353759765625
-6.63916015625 25.3309326171875 7.6282958984375
-23.47998046875 22.2783203125 11.935302734375
-1.30810546875 27.150634765625 -2.22265625
-7.0478515625 25.0599365234375 9.6907958984375
-6.64501953125 25.9122314453125 1.8369140625
-17.718994140625 22.2926025390625 20.70556640625
-5.40234375 25.1055908203125 11.782958984375
-11.159423828125 24.717529296875 6.7357177734375
-21.833984375 22.2823486328125 14.4410400390625
-10.341064453125 25.1763916015625 3.4381103515625
-12.80322265625 24.505859375 6.2982177734375
-47.30224609375 21.276611328125 -16.560546875
-50.3671875 22.057861328125 -21.0496826171875
27.063232421875 7.1962890625 -21.0341796875
-53.302490234375 17.4390869140625 -11.62060546875
-32.61181640625 4.4842529296875 21.515869140625
-22.850830078125 35.9481201171875 -25.345947265625
-52.95263671875 20.4239501953125 15.393310546875
-61.76025390625 16.8255615234375 -7.452880859375
11.753173828125 25.771240234375 -25.4881591796875
-12.10546875 21.539794921875 20.88525390625
5.463134765625 27.43359375 -8.95751953125
-51.741455078125 18.119140625 -12.7882080078125
-18.17041015625 20.507080078125 16.9927978515625
36.429931640625 5.2860107421875 -19.7537841796875
-57.837158203125 16.400634765625 -6.718017578125
-34.939453125 15.7637939453125 17.5888671875
-58.618896484375 16.329833984375 -8.8135986328125
-9.083740234375 21.5606689453125 15.7969970703125
-62.481689453125 19.6552734375 -7.85205078125
-8.268310546875 21.976318359375 12.9249267578125
-19.664306640625 35.0484619140625 -26.317626953125
42.055908203125 4.0943603515625 -15.1728515625
6.103271484375 25.4173583984375 -3.833251953125
-40.656494140625 2.948486328125 25.870361328125
-64.341064453125 14.8267822265625 -2.7166748046875
-28.067138671875 27.37548828125 -0.6392822265625
-69.310546875 36.6214599609375 19.1556396484375
40.4658203125 26.7821044921875 -67.302001953125
-41.027099609375 25.1839599609375 7.620361328125
-34.239013671875 18.50244140625 16.8519287109375
-2.951416015625 26.8973388671875 -2.246337890625
-34.49169921875 7.6524658203125 19.3028564453125
-7.21923828125 34.26513671875 -22.2359619140625
41.890869140625 4.85546875 -2.6505126953125
-13.691162109375 21.1470947265625 19.1500244140625
9.43408203125 23.0281982421875 -9.6531982421875
41.146240234375 28.720703125 -71.678955078125
13.15869140625 24.6253662109375 -26.0504150390625
12.40087890625 27.206787109375 -26.1451416015625
-16.779052734375 16.1353759765625 7.3759765625
-47.16357421875 23.455322265625 12.0604248046875
-13.5322265625 16.6357421875 7.4229736328125
40.961181640625 6.6607666015625 -5.95849609375
-11.929443359375 16.4207763671875 13.6048583984375
-32.93115234375 16.229248046875 17.6484375
-60.00927734375 19.287353515625 17.4007568359375
-63.837646484375 19.800048828125 -6.5535888671875
-54.44580078125 3.4114990234375 22.9130859375
-52.9033203125 19.903076171875 -17.9688720703125
-50.458251953125 6.1759033203125 20.0992431640625
8.6494140625 22.0933837890625 -3.1397705078125
44.006591796875 4.592529296875 -17.1104736328125
-55.19970703125 1.1177978515625 26.160400390625
-37.045166015625 26.7303466796875 -35.6446533203125
40.80078125 21.673828125 -52.610595703125
34.041748046875 3.5521240234375 -0.3720703125
-34.085205078125 3.4945068359375 22.9832763671875
-37.451416015625 -1.190673828125 35.5823974609375
34.997314453125 28.8963623046875 -72.122314453125
-56.935302734375 3.2493896484375 23.7508544921875
-46.45703125 3.804443359375 34.4412841796875
1.87646484375 32.7470703125 -19.105712890625
-46.69677734375 1.3560791015625 33.8895263671875
38.812744140625 27.314208984375 -70.5416259765625
26.840087890625 9.94580078125 -29.528076171875
-5.528076171875 22.8939208984375 15.9989013671875
0.864501953125 30.020751953125 -8.1080322265625
38.596435546875 8.218994140625 -26.5816650390625
-52.688232421875 2.9957275390625 23.6220703125
30.010986328125 5.5458984375 -17.6710205078125
