-48.8359375 8.72607421875 29.02294921875
49.371337890625 19.070556640625 -56.175048828125
0.50390625 20.222900390625 14.4715576171875
12.16162109375 23.9862060546875 4.3780517578125
-15.44970703125 37.4716796875 -26.486572265625
-43.08935546875 40.178466796875 -3.2010498046875
-15.178955078125 24.93701171875 2.2366943359375
41.27490234375 4.5352783203125 -22.628662109375
-34.068603515625 4.9342041015625 25.26416015625
-28.689697265625 23.8095703125 8.0738525390625
44.9921875 23.76953125 -52.9554443359375
55.6279296875 3.496337890625 -23.4168701171875
-12.7373046875 42.3892822265625 -28.725341796875
68.543701171875 16.446044921875 -43.680908203125
-32.71923828125 43.3134765625 -12.4320068359375
46.851806640625 5.4071044921875 -24.2940673828125
22.16162109375 16.9027099609375 -8.462646484375
54.332275390625 -1.59228515625 -5.893310546875
-23.433349609375 12.6141357421875 23.4984130859375
-33.939453125 41.397705078125 -7.036376953125
-38.299560546875 44.095703125 -16.6689453125
-43.203125 18.669921875 -13.2518310546875
70.017578125 4.2642822265625 -23.51806640625
40.490234375 1.6199951171875 -13.246337890625
61.794189453125 0.5328369140625 -14.9827880859375
-67.64404296875 33.2110595703125 20.5804443359375
25.01025390625 15.5283203125 -14.9718017578125
52.167724609375 14.8897705078125 -52.148681640625
-9.890625 21.7127685546875 13.6099853515625
-60.33984375 38.4952392578125 3.55908203125
-47.020263671875 12.268310546875 0.08203125
-14.686767578125 24.2733154296875 -50.4437255859375
-26.21044921875 40.908203125 -4.5164794921875
-3.986328125 45.145263671875 -30.8905029296875
-22.7109375 44.0618896484375 -13.7642822265625
64.740234375 13.2181396484375 -17.4608154296875
6.1650390625 22.22900390625 16.858642578125
22.73193359375 9.0152587890625 7.538330078125
-15.775146484375 39.96875 -1.95654296875
67.0283203125 21.151123046875 -46.635498046875
48.695556640625 11.2723388671875 -37.18994140625
-50.0986328125 -0.1502685546875 37.8262939453125
-63.231689453125 8.687255859375 12.25927734375
67.56787109375 25.3507080078125 -54.3690185546875
-33.400146484375 15.935791015625 -21.9786376953125
17.7939453125 19.72119140625 -0.8385009765625
23.166748046875 12.5128173828125 -0.91796875
-36.293701171875 20.7330322265625 15.7802734375
63.983642578125 1.7891845703125 -19.5931396484375
16.319580078125 23.781494140625 -3.616943359375
-14.203369140625 46.619140625 -28.7950439453125
-44.4013671875 44.0911865234375 -10.7584228515625
-45.00048828125 16.6226806640625 22.1854248046875
41.49609375 20.1600341796875 -41.9561767578125
11.645263671875 26.493896484375 -3.9345703125
44.61572265625 25.6104736328125 -57.5313720703125
16.055419921875 26.22265625 -21.3228759765625
-0.94775390625 29.31298828125 -11.495849609375
48.42724609375 1.4439697265625 -17.91357421875
63.75634765625 19.0927734375 -33.97119140625
-35.715087890625 19.194091796875 -22.86328125
-39.484619140625 19.7025146484375 -17.670166015625
-10.00439453125 23.894287109375 4.8043212890625
22.9716796875 14.5164794921875 -5.686279296875
15.07470703125 24.58349609375 -5.859375
-58.48974609375 15.186279296875 5.537353515625
81.29736328125 0.838134765625 -20.8653564453125
-12.555908203125 24.565673828125 1.814697265625
-47.439697265625 38.5465087890625 3.281982421875
-40.17041015625 19.119140625 19.522216796875
39.1201171875 2.685791015625 -17.41943359375
-39.656005859375 46.21044921875 -21.6009521484375
81.27490234375 -0.372314453125 -16.77880859375
-11.609375 37.9481201171875 -30.364501953125
-6.677001953125 18.1961669921875 24.013427734375
-38.41357421875 37.161376953125 7.72998046875
-45.84228515625 5.0506591796875 25.39306640625
-27.376220703125 16.981689453125 -26.7347412109375
-47.281494140625 0.74609375 28.83154296875
68.897216796875 20.6038818359375 -52.014892578125
-38.576171875 40.7525634765625 -5.65380859375
71.453857421875 13.129150390625 -39.0557861328125
-30.375244140625 38.95166015625 1.0240478515625
49.73876953125 14.504150390625 -47.4951171875
-8.418701171875 22.7867431640625 9.177978515625
-69.678955078125 11.5064697265625 17.868408203125
-44.937744140625 34.5057373046875 16.2547607421875
53.278076171875 22.345703125 -61.3685302734375
46.453125 9.2265625 -26.67236328125
21.427734375 14.227783203125 6.458251953125
47.418701171875 3.184326171875 -20.5672607421875
24.790283203125 12.556640625 -4.271240234375
-66.39990234375 34.4989013671875 17.3729248046875
-34.6064453125 36.2117919921875 11.2640380859375
-23.029541015625 21.216796875 -39.2403564453125
-6.124267578125 16.059814453125 20.971923828125
66.03369140625 14.2774658203125 -34.220458984375
-5.3076171875 52.1148681640625 -37.38037109375
-18.466552734375 23.274169921875 7.4088134765625
-42.184326171875 42.940673828125 -11.755615234375
-17.58642578125 28.0242919921875 -50.8419189453125
27.4853515625 12.23681640625 -16.47998046875
-69.70361328125 7.0361328125 19.78515625
20.83349609375 15.8785400390625 1.775146484375
-20.98974609375 23.99951171875 2.8984375
-23.317138671875 25.2755126953125 1.375
-23.85400390625 19.100341796875 -34.522705078125
-8.52978515625 47.610595703125 -30.70947265625
-33.10009765625 47.7841796875 -26.019287109375
-23.742919921875 48.0277099609375 -27.0025634765625
42.618408203125 19.26123046875 -21.05908203125
25.057861328125 7.8267822265625 5.4259033203125
-46.62939453125 33.295166015625 20.923828125
-25.970947265625 24.2110595703125 -36.277587890625
-28.0107421875 9.4617919921875 24.446044921875
34.071533203125 6.29833984375 -22.4599609375
59.780517578125 -1.4697265625 -8.0377197265625
-37.17724609375 19.7728271484375 18.4100341796875
-49.265625 5.71728515625 24.8404541015625
-27.891845703125 21.2054443359375 -33.91015625
48.28759765625 10.627197265625 -34.697265625
-25.190185546875 1.0771484375 29.1607666015625
-17.65625 22.3336181640625 -46.144287109375
-50.845947265625 28.3001708984375 31.015380859375
37.875244140625 9.97314453125 -22.5164794921875
10.578369140625 29.6341552734375 -12.5670166015625
50.904052734375 4.814208984375 -24.3289794921875
-44.630859375 11.8533935546875 23.8076171875
15.41650390625 22.0364990234375 0.7686767578125
-21.947998046875 47.4583740234375 -25.01904296875
70.7900390625 10.3714599609375 -31.044189453125
35.974853515625 0.5059814453125 -7.1632080078125
51.175537109375 19.123046875 -57.8441162109375
-34.72265625 15.4866943359375 -16.5516357421875
43.385986328125 18.1767578125 -30.2799072265625
-15.875244140625 20.636962890625 15.68017578125
-48.5390625 -1.3077392578125 34.8287353515625
-31.801513671875 16.508056640625 -24.7647705078125
-10.014892578125 29.0340576171875 -23.2877197265625
20.0732421875 23.016845703125 -21.089111328125
-19.1943359375 47.9088134765625 -26.003662109375
-64.878173828125 6.94775390625 16.408447265625
-26.557373046875 17.9703369140625 -30.6334228515625
77.55419921875 0.78857421875 -20.9249267578125
-68.899658203125 9.556640625 16.6390380859375
48.529296875 17.5009765625 -53.367919921875
-40.097900390625 35.3173828125 14.6239013671875
-48.90966796875 41.146728515625 -4.1234130859375
53.378173828125 22.346923828125 -65.09130859375
39.65283203125 -1.2998046875 -4.26904296875
71.730712890625 0.9942626953125 -18.67919921875
83.650634765625 -0.107177734375 -17.7198486328125
-4.268310546875 28.94970703125 -17.7288818359375
-37.50048828125 17.9293212890625 -20.529296875
-17.21484375 36.6669921875 -21.3350830078125
-44.643798828125 12.5596923828125 -4.485595703125
-36.60791015625 15.4566650390625 -18.962158203125
54.26318359375 -0.4473876953125 -10.5616455078125
3.09716796875 24.4619140625 4.364013671875
-16.1611328125 41.755615234375 -11.8544921875
-27.228515625 42.3583984375 -9.290771484375
44.491943359375 14.8040771484375 -31.38037109375
-19.0224609375 44.521484375 -21.715087890625
33.68505859375 3.900390625 -14.216064453125
72.124755859375 14.8294677734375 -43.4940185546875
-16.64501953125 23.984619140625 -49.100341796875
56.251708984375 0.4674072265625 -13.8690185546875
-14.958251953125 48.74755859375 -29.562255859375
-43.426025390625 -0.9189453125 33.8709716796875
-21.46728515625 46.701171875 -22.242919921875
-40.292724609375 5.2823486328125 25.061767578125
25.90673828125 5.6075439453125 1.537841796875
-22.7880859375 25.34228515625 -41.822265625
-17.5009765625 42.0133056640625 -7.83056640625
-25.452880859375 46.165283203125 -20.89599609375
-7.683837890625 20.86669921875 13.767333984375
-49.93798828125 11.767333984375 -2.7640380859375
55.71728515625 2.517822265625 -19.780029296875
-7.615234375 24.4552001953125 3.7138671875
-56.82080078125 35.189453125 14.8297119140625
27.804931640625 10.482177734375 -13.1422119140625
81.395751953125 3.4935302734375 -23.19970703125
-53.168701171875 36.663818359375 9.9261474609375
-33.416259765625 11.211669921875 24.0078125
-56.443115234375 9.50732421875 5.9327392578125
-38.1748046875 -1.181396484375 35.795654296875
-40.5029296875 12.9061279296875 -9.0753173828125
44.947509765625 25.64892578125 -60.2220458984375
-13.549560546875 23.333984375 6.8524169921875
41.7763671875 -1.1241455078125 -5.256591796875
40.36474609375 1.2254638671875 -10.936279296875
-46.091552734375 0.09814453125 30.7467041015625
14.73046875 26.811767578125 -9.0037841796875
8.72216796875 24.3533935546875 4.460205078125
-59.646240234375 25.7586669921875 35.05712890625
15.022216796875 24.15673828125 -1.452880859375
66.04052734375 19.158935546875 -37.523193359375
51.501220703125 0.3929443359375 -12.4342041015625
26.826904296875 10.16796875 -7.614501953125
41.9716796875 16.669189453125 -22.5687255859375
-46.033203125 39.4617919921875 -1.056884765625
-59.89111328125 29.615478515625 29.75439453125
-41.715087890625 45.84326171875 -22.7484130859375
21.604736328125 18.501953125 -12.5194091796875
17.765869140625 18.0146484375 5.0589599609375
1.57177734375 46.921630859375 -30.1136474609375
45.188232421875 28.85205078125 -67.6710205078125
-29.932373046875 2.4774169921875 27.25732421875
-31.919677734375 14.9072265625 23.28125
51.57470703125 12.1513671875 -42.9652099609375
-64.201416015625 35.6328125 12.562255859375
42.564453125 3.5391845703125 -19.5108642578125
49.636962890625 30.6248779296875 -79.187744140625
-39.406494140625 -0.3992919921875 31.7633056640625
50.07470703125 21.432373046875 -61.9913330078125
-0.24951171875 22.7640380859375 9.6456298828125
62.977783203125 17.9251708984375 -29.7916259765625
-66.13720703125 11.26904296875 13.642333984375
46.4287109375 -1.345947265625 -4.74609375
-0.302490234375 52.9989013671875 -39.231201171875
64.479736328125 14.740478515625 -21.9981689453125
64.90087890625 11.0260009765625 -25.0758056640625
-40.5546875 -1.7628173828125 36.7080078125
-40.41845703125 47.1956787109375 -25.807373046875
73.53076171875 12.0626220703125 -35.7122802734375
-25.63134765625 -0.0474853515625 31.46923828125
-49.397705078125 2.172607421875 26.8466796875
-4.366943359375 26.0113525390625 -0.56591796875
58.08447265625 3.1759033203125 -23.0152587890625
-10.229248046875 27.7987060546875 -6.57568359375
14.0302734375 27.858154296875 -15.4100341796875
-29.534423828125 37.269287109375 7.2193603515625
-8.259033203125 13.9453125 16.007568359375
83.200927734375 12.14794921875 -19.49267578125
69.89208984375 16.661376953125 -45.5252685546875
44.078125 17.4097900390625 -18.7666015625
5.362548828125 36.273681640625 -29.106201171875
-36.73779296875 43.9237060546875 -15.0299072265625
-23.986083984375 41.4134521484375 -6.2037353515625
-29.983642578125 22.051025390625 7.4580078125
41.31396484375 7.439453125 -23.7296142578125
44.5947265625 23.833984375 -46.8404541015625
-29.00390625 18.3306884765625 21.037109375
-24.82275390625 2.6754150390625 27.094970703125
42.818603515625 22.4981689453125 -18.418212890625
-40.11083984375 34.06005859375 18.0941162109375
38.052734375 0.0831298828125 -7.94921875
74.170654296875 -0.659423828125 -13.7437744140625
66.283203125 0.0113525390625 -17.9000244140625
-41.355712890625 33.352783203125 20.1700439453125
-3.403076171875 50.351806640625 -33.539794921875
-19.7724609375 42.7371826171875 -9.0460205078125
5.31640625 29.3564453125 -11.58642578125
64.805908203125 13.3143310546875 -26.0902099609375
-10.4990234375 50.951171875 -33.8494873046875
-42.253662109375 44.0498046875 -14.66259765625
28.962890625 13.28466796875 -24.8466796875
2.326171875 52.5806884765625 -37.8624267578125
-23.172607421875 22.81298828125 7.8267822265625
72.99169921875 0.049560546875 -17.033203125
-58.516845703125 38.0921630859375 4.8092041015625
-42.8095703125 36.164794921875 11.05810546875
-31.396484375 34.6412353515625 14.16943359375
-26.870849609375 20.62255859375 15.59326171875
-7.086181640625 25.824462890625 -25.980712890625
-48.896484375 15.67724609375 22.035888671875
-30.80712890625 16.6571044921875 -20.342041015625
68.07080078125 3.4173583984375 -24.2264404296875
73.207275390625 2.2349853515625 -23.1162109375
25.088623046875 16.7093505859375 -20.4105224609375
-48.486083984375 32.5394287109375 23.6732177734375
-41.72314453125 45.2261962890625 -19.671142578125
26.272705078125 20.55517578125 -21.0338134765625
64.947998046875 0.2550048828125 -15.274658203125
46.790283203125 25.1209716796875 -65.854736328125
64.8759765625 10.61474609375 -22.2188720703125
23.780517578125 21.088623046875 -19.8729248046875
1.300537109375 25.344970703125 1.3458251953125
51.153564453125 11.376220703125 -39.5748291015625
-29.21435546875 21.3673095703125 13.184814453125
-55.641845703125 36.435302734375 10.0042724609375
42.399169921875 18.66015625 -17.3740234375
-6.523193359375 28.1270751953125 -28.00927734375
-44.7978515625 18.582275390625 20.29150390625
-25.317626953125 47.568359375 -25.5078125
45.03173828125 31.9013671875 -72.0213623046875
17.572021484375 21.5743408203125 -4.6600341796875
22.537109375 17.43408203125 -10.581787109375
-62.784423828125 10.2760009765625 10.39794921875
-43.833740234375 41.806640625 -9.1981201171875
67.130859375 15.0931396484375 -37.905029296875
17.191650390625 23.83056640625 -8.328857421875
18.095458984375 23.239990234375 -11.7802734375
68.457763671875 -0.2469482421875 -16.043212890625
68.24658203125 -1.0308837890625 -11.8431396484375
-44.67578125 8.4296875 24.3919677734375
-50.11962890625 -2.4066162109375 38.0244140625
78.01220703125 2.7059326171875 -23.949951171875
-30.56982421875 46.257080078125 -22.2235107421875
-13.398193359375 20.8450927734375 21.3570556640625
45.1767578125 19.157958984375 -44.814697265625
-22.8466796875 7.482666015625 24.0672607421875
-50.914306640625 37.2642822265625 7.3702392578125
-15.0234375 21.655517578125 11.95849609375
44.52099609375 21.96142578125 -50.0987548828125
74.437255859375 11.0789794921875 -20.024169921875
-35.8857421875 -1.25341796875 34.9609375
14.957763671875 21.8623046875 4.6378173828125
64.88134765625 3.07666015625 -23.70458984375
32.9033203125 5.807373046875 -17.1827392578125
-36.93359375 7.337890625 24.5067138671875
-34.837646484375 16.826416015625 -23.66162109375
-61.34130859375 11.7626953125 8.02880859375
70.99169921875 11.11279296875 -35.1502685546875
16.64501953125 26.0257568359375 -13.0986328125
-6.16064453125 28.315185546875 -8.9107666015625
-9.991943359375 19.76318359375 24.1864013671875
66.687744140625 22.258544921875 -48.7310791015625
-38.6435546875 13.8499755859375 -14.4984130859375
82.802734375 15.7369384765625 -19.04736328125
5.99365234375 30.1396484375 -13.914794921875
44.78271484375 1.629638671875 -16.399169921875
-11.629150390625 21.166015625 15.04052734375
-59.010986328125 34.0694580078125 18.6761474609375
7.259033203125 25.6224365234375 0.7606201171875
3.600341796875 25.068359375 2.3267822265625
-47.1064453125 41.2884521484375 -5.6331787109375
11.495361328125 27.8214111328125 -7.9559326171875
52.654052734375 1.0570068359375 -14.6781005859375
-43.221435546875 37.583984375 5.969970703125
-11.9072265625 19.836181640625 22.661865234375
45.34716796875 0.623046875 -9.453857421875
65.147216796875 22.6939697265625 -40.2843017578125
27.00439453125 15.1629638671875 -21.810546875
23.45556640625 15.1353759765625 -7.719970703125
-50.085205078125 9.4000244140625 24.4598388671875
4.767822265625 52.5792236328125 -37.3447265625
-57.790283203125 34.183837890625 16.8251953125
-43.982666015625 38.615234375 2.0635986328125
-54.69189453125 38.6044921875 3.0694580078125
-54.895263671875 30.0557861328125 29.1866455078125
-9.740234375 26.210693359375 -1.05029296875
-26.5654296875 18.9388427734375 20.6036376953125
-24.071533203125 16.020263671875 22.9652099609375
-48.945556640625 -0.45361328125 32.4276123046875
-33.9931640625 36.90234375 8.337646484375
-5.599609375 13.773193359375 12.5609130859375
66.454345703125 4.78369140625 -23.254150390625
-21.33349609375 39.0111083984375 3.52880859375
-33.741455078125 20.980712890625 14.1790771484375
3.246337890625 26.2423095703125 -2.4063720703125
29.84619140625 3.684326171875 -1.72119140625
-45.427490234375 -1.162353515625 34.661865234375
13.1650390625 31.17919921875 -17.1983642578125
-31.02587890625 47.606201171875 -26.61376953125
-37.6923828125 20.9327392578125 -19.05615234375
64.955322265625 18.6097412109375 -35.7069091796875
41.807373046875 -1.937744140625 -3.0509033203125
2.593017578125 23.854248046875 6.4056396484375
-21.741943359375 48.951416015625 -30.01953125
-56.26708984375 39.281982421875 1.10400390625
-57.961181640625 37.5126953125 6.81103515625
-55.10302734375 15.907470703125 0.7686767578125
23.11767578125 17.0601806640625 -13.048583984375
67.040771484375 28.11328125 -57.739013671875
-0.28125 24.2052001953125 5.161865234375
-17.018310546875 37.2554931640625 -17.996826171875
-2.845947265625 22.61083984375 10.875732421875
-9.396240234375 18.0126953125 16.064453125
-19.459716796875 43.142822265625 -11.7025146484375
-33.134521484375 18.5892333984375 -26.7354736328125
28.38623046875 3.045166015625 2.9874267578125
-6.172119140625 29.708740234375 -13.242431640625
45.562255859375 14.9188232421875 -43.163330078125
20.6005859375 18.2213134765625 -6.9891357421875
-36.91455078125 40.0406494140625 -2.1845703125
27.792236328125 7.6573486328125 -2.7486572265625
-32.1376953125 46.9942626953125 -23.5501708984375
-16.54296875 26.8267822265625 -3.5745849609375
32.919677734375 6.7310791015625 -20.254150390625
-3.113037109375 15.464111328125 12.1419677734375
63.858154296875 19.717529296875 -38.1387939453125
41.902587890625 19.846435546875 -45.80859375
67.898681640625 18.264892578125 -44.6114501953125
-49.329345703125 10.003173828125 27.3773193359375
-6.335205078125 14.248046875 19.852294921875
-8.732666015625 18.2108154296875 29.94189453125
26.979736328125 18.403076171875 -21.2574462890625
-22.8515625 0.977783203125 28.8336181640625
-3.57470703125 24.9742431640625 -23.3348388671875
-57.850830078125 33.51220703125 20.567138671875
-27.053955078125 16.0823974609375 22.948974609375
-27.876953125 39.7166748046875 -0.380615234375
33.03173828125 3.37060546875 -9.6728515625
36.317626953125 -1.293212890625 -3.771484375
-49.876708984375 6.6729736328125 27.6983642578125
17.88427734375 25.5062255859375 -20.3564453125
-15.346435546875 20.995361328125 17.7437744140625
43.210693359375 10.8795166015625 -21.2528076171875
-14.843994140625 50.7337646484375 -34.3612060546875
-27.343017578125 44.1002197265625 -13.937744140625
52.293701171875 10.216796875 -36.192626953125
-47.41748046875 12.846435546875 30.2081298828125
21.733154296875 22.102783203125 -19.791015625
-45.190673828125 -2.2686767578125 38.4427490234375
42.525634765625 18.626953125 -25.9359130859375
-40.093994140625 35.98046875 11.359375
-52.061279296875 10.661865234375 0.9609375
15.08447265625 23.3404541015625 8.6290283203125
21.42431640625 19.8492431640625 -16.498291015625
29.818359375 7.9266357421875 -9.910400390625
-16.54443359375 38.7188720703125 -15.5570068359375
-17.164794921875 21.2874755859375 -39.4163818359375
31.85595703125 8.192138671875 -21.526123046875
-24.606689453125 22.381103515625 -38.44091796875
-37.2958984375 -0.1075439453125 31.5838623046875
44.822021484375 17.6114501953125 -38.833251953125
-16.768798828125 23.8341064453125 5.477783203125
44.085693359375 11.6844482421875 -26.5291748046875
25.807373046875 6.4256591796875 3.485595703125
1.284423828125 28.305419921875 -8.423828125
-12.968017578125 40.1351318359375 -9.6636962890625
-56.322021484375 9.5118408203125 9.044189453125
-44.744873046875 3.2774658203125 26.030517578125
40.315185546875 21.9874267578125 -42.5810546875
19.20849609375 22.8223876953125 -15.031005859375
-38.9072265625 9.99462890625 23.8814697265625
44.9345703125 17.7001953125 -15.1859130859375
-32.140625 22.6375732421875 11.2899169921875
-31.100830078125 1.3212890625 28.56982421875
-18.84326171875 22.205322265625 19.7327880859375
-14.7734375 40.9932861328125 -3.4959716796875
-59.250732421875 24.9727783203125 36.9671630859375
-56.397216796875 31.4718017578125 25.9786376953125
-63.1376953125 36.735107421875 9.684814453125
-59.577392578125 32.890869140625 21.84716796875
-28.755126953125 19.765625 -32.1824951171875
-6.424560546875 29.3232421875 -19.528564453125
76.775634765625 0.2110595703125 -17.39599609375
-6.001953125 21.90966796875 12.567138671875
45.7392578125 16.7462158203125 -48.0772705078125
-66.431640625 29.84912109375 29.78076171875
-23.082275390625 25.35400390625 4.09814453125
-36.11376953125 35.8363037109375 12.8629150390625
-28.050537109375 3.125732421875 26.5838623046875
53.15673828125 -1.14794921875 -7.7781982421875
-32.1064453125 5.6346435546875 25.206298828125
-45.20947265625 13.3212890625 -9.3140869140625
83.051025390625 8.8897705078125 -21.05517578125
-67.823974609375 6.14599609375 19.849609375
-2.377197265625 29.7950439453125 -12.9288330078125
-8.55078125 44.7659912109375 -30.61181640625
-21.26953125 41.1365966796875 -5.032470703125
-17.659423828125 42.732421875 -15.05908203125
-36.665283203125 33.42724609375 17.498779296875
44.970458984375 28.9061279296875 -64.9345703125
3.361572265625 27.8685302734375 -7.6644287109375
-20.823974609375 39.6036376953125 1.01123046875
-13.854736328125 20.8170166015625 15.26318359375
-19.666259765625 23.95556640625 5.6092529296875
48.218505859375 19.9315185546875 -57.662841796875
-17.216064453125 38.28759765625 -20.03955078125
-17.8037109375 25.32470703125 2.146728515625
-16.148681640625 39.5465087890625 -25.3006591796875
8.17919921875 53.6107177734375 -39.3543701171875
-44.71875 -0.37109375 32.354248046875
-37.520263671875 43.087158203125 -12.381591796875
-22.759033203125 23.3416748046875 5.2327880859375
46.280517578125 28.53173828125 -71.11572265625
-6.5302734375 17.384765625 13.522705078125
-34.095947265625 3.1715087890625 26.3328857421875
-58.7041015625 36.15771484375 10.7498779296875
-46.916015625 15.87841796875 22.7615966796875
-28.42919921875 48.5675048828125 -29.794921875
-58.644287109375 12.8685302734375 4.6251220703125
-29.591796875 22.3037109375 9.869384765625
-43.372314453125 13.1580810546875 -2.985107421875
-3.437255859375 13.59326171875 17.8289794921875
-40.67333984375 8.8677978515625 24.3203125
-20.7587890625 23.064697265625 -43.8897705078125
43.653076171875 14.8001708984375 -23.2325439453125
-59.090576171875 30.44677734375 28.059814453125
62.42919921875 8.021728515625 -21.408935546875
40.760009765625 -0.9669189453125 0.0848388671875
-5.148193359375 48.0091552734375 -31.010986328125
-25.9453125 22.0880126953125 -36.364501953125
-20.10595703125 20.3271484375 -41.6505126953125
45.619873046875 17.46875 -45.8748779296875
-26.623291015625 2.103515625 27.86962890625
-17.7646484375 40.958740234375 -2.40966796875
69.413818359375 12.2467041015625 -36.273681640625
-16.3984375 35.434814453125 -25.9666748046875
44.489990234375 3.5291748046875 -20.1778564453125
2.99365234375 22.62353515625 12.265380859375
82.126953125 14.0460205078125 -22.692138671875
-61.13916015625 24.225341796875 36.9951171875
51.749267578125 2.571044921875 -18.9510498046875
-40.423828125 38.10986328125 4.641845703125
-58.88623046875 8.5032958984375 13.630615234375
-6.40673828125 42.330322265625 -31.32470703125
44.62939453125 16.673583984375 -36.8853759765625
-11.2841796875 25.051025390625 3.7412109375
-30.92578125 20.3033447265625 -30.0728759765625
-30.036865234375 40.5709228515625 -3.5374755859375
-11.078125 22.550537109375 10.301513671875
-69.647705078125 32.8504638671875 20.781005859375
-35.185546875 43.799560546875 -16.3212890625
-57.40771484375 39.8258056640625 -1.1988525390625
-16.357666015625 21.447265625 13.7681884765625
72.5390625 13.8133544921875 -41.801513671875
-51.998291015625 10.6419677734375 2.992919921875
45.35888671875 21.7734375 -56.53125
46.802490234375 1.0965576171875 -16.7711181640625
-62.30859375 34.13525390625 18.4261474609375
-24.9814453125 38.99365234375 2.212890625
59.057861328125 1.485107421875 -17.27490234375
36.225341796875 -1.726806640625 -0.9122314453125
-60.36865234375 39.606201171875 0.6387939453125
43.175537109375 20.0413818359375 -18.923095703125
25.084228515625 11.291748046875 -5.806884765625
-22.93212890625 19.5228271484375 -36.259033203125
-68.098876953125 32.16552734375 25.4462890625
30.52734375 7.9521484375 -14.6728515625
-15.9990234375 41.7969970703125 -9.2451171875
-12.2509765625 18.5770263671875 28.225830078125
-59.233642578125 8.3001708984375 9.7386474609375
-56.04833984375 12.2054443359375 2.1622314453125
-47.280029296875 -2.586181640625 39.126953125
-5.68798828125 13.4639892578125 15.5106201171875
-16.399658203125 36.450927734375 -24.006103515625
47.768310546875 30.6002197265625 -78.468017578125
-9.421875 19.4769287109375 27.5699462890625
66.76611328125 11.9208984375 -32.985107421875
-13.48828125 20.34912109375 18.9029541015625
23.119873046875 11.4306640625 3.7257080078125
-36.39208984375 2.688720703125 26.84423828125
64.5947265625 11.798095703125 -20.248291015625
-41.422607421875 13.8701171875 -13.4510498046875
83.296630859375 15.181640625 -16.4896240234375
23.952392578125 6.0408935546875 8.1639404296875
22.301025390625 25.7606201171875 -17.762939453125
67.2705078125 28.0457763671875 -55.7584228515625
-4.0185546875 30.72509765625 -15.7315673828125
7.81591796875 24.4677734375 7.2191162109375
-50.37890625 35.4296875 13.3104248046875
50.2919921875 28.1531982421875 -76.3021240234375
20.982421875 20.2913818359375 -13.4432373046875
-37.08740234375 44.7821044921875 -18.6820068359375
-62.966064453125 38.05322265625 5.4442138671875
-39.236328125 33.1475830078125 19.6297607421875
44.302001953125 -2.16015625 -3.0264892578125
-31.755126953125 42.5189208984375 -10.8865966796875
33.28125 3.839599609375 -11.882568359375
43.950439453125 14.888916015625 -26.5816650390625
49.779541015625 26.7437744140625 -72.45849609375
-46.65576171875 11.8026123046875 32.1680908203125
60.0419921875 3.0234375 -22.751708984375
56.0107421875 1.088623046875 -15.7332763671875
44.09814453125 4.711669921875 -23.3135986328125
25.732421875 3.4327392578125 -0.1959228515625
-39.869384765625 41.802001953125 -8.7371826171875
64.38916015625 16.2186279296875 -16.7154541015625
69.455078125 1.779052734375 -20.828369140625
-4.54833984375 18.30859375 25.2171630859375
-38.888427734375 14.801025390625 -16.555419921875
46.201171875 11.9478759765625 -36.925048828125
-24.539794921875 45.2652587890625 -17.974609375
58.1142578125 2.081787109375 -18.939453125
-7.459228515625 13.364013671875 18.2303466796875
45.255859375 7.8380126953125 -23.3267822265625
-59.44091796875 32.4378662109375 23.7568359375
-45.176513671875 35.496826171875 12.527587890625
-58.169677734375 10.5693359375 5.5810546875
-40.972412109375 16.0595703125 -16.446044921875
45.032958984375 13.345458984375 -33.8104248046875
-43.67333984375 14.953125 -13.0379638671875
-49.1650390625 12.5963134765625 -4.87158203125
-50.1474609375 13.2088623046875 25.6427001953125
18.720458984375 17.8673095703125 3.3489990234375
39.599365234375 2.2076416015625 -14.894775390625
-19.073486328125 23.6912841796875 -46.113037109375
-19.5390625 20.7750244140625 23.3465576171875
-43.428466796875 40.4444580078125 -5.23388671875
39.61767578125 9.156494140625 -22.142333984375
-15.4375 42.5001220703125 -25.97900390625
-39.052978515625 46.8623046875 -24.380126953125
67.133544921875 19.1434326171875 -47.464111328125
-52.6982421875 31.1484375 26.8385009765625
35.605224609375 2.8076171875 -14.8946533203125
-55.108642578125 28.0694580078125 31.616455078125
-24.036865234375 18.4288330078125 21.166015625
0.95849609375 50.479248046875 -33.1014404296875
-46.917236328125 17.658447265625 -9.31591796875
-65.33447265625 35.0306396484375 14.66845703125
-18.929443359375 40.3460693359375 -0.7415771484375
67.77294921875 24.0537109375 -55.8050537109375
69.067138671875 2.3209228515625 -22.7864990234375
81.455810546875 0.1214599609375 -19.064697265625
25.316650390625 23.352783203125 -18.091796875
-52.40966796875 14.827392578125 -2.876708984375
76.59765625 2.0113525390625 -22.81494140625
27.886474609375 4.0150146484375 0.6302490234375
64.766845703125 14.5933837890625 -27.5465087890625
34.48486328125 4.477783203125 -18.13037109375
-53.179443359375 40.1917724609375 -2.3165283203125
59.09619140625 -0.407958984375 -11.4688720703125
-43.95849609375 -1.5296630859375 35.86669921875
-1.794677734375 44.3505859375 -30.3238525390625
-35.073486328125 7.9642333984375 24.34912109375
-23.326416015625 48.4974365234375 -29.0078125
45.138671875 10.7059326171875 -25.0338134765625
8.250732421875 33.3487548828125 -29.7342529296875
-0.34423828125 21.8720703125 12.80859375
47.73583984375 15.626953125 -47.78662109375
46.0419921875 11.3106689453125 -32.8458251953125
54.711181640625 9.4776611328125 -19.9591064453125
24.802001953125 10.1893310546875 2.327880859375
-22.08740234375 4.0931396484375 26.2664794921875
-47.487060546875 4.0501708984375 25.41162109375
-6.875 51.04296875 -34.199951171875
30.1220703125 5.217041015625 -3.40234375
-31.776611328125 44.9571533203125 -18.056640625
-35.238525390625 19.3228759765625 19.22265625
-67.226318359375 10.1590576171875 14.9052734375
-38.670654296875 38.7730712890625 1.8233642578125
-35.9658203125 17.3743896484375 21.91455078125
-46.3916015625 -1.6094970703125 36.4927978515625
30.6953125 4.65478515625 0.75244140625
-9.4501953125 51.464111328125 -35.5728759765625
-0.648681640625 26.8021240234375 -3.9935302734375
3.252197265625 34.62353515625 -24.9217529296875
45.056396484375 32.256591796875 -75.08251953125
-33.76904296875 0.472412109375 29.7205810546875
45.2880859375 11.9742431640625 -29.87548828125
-41.65283203125 19.4354248046875 18.3553466796875
7.808349609375 27.12548828125 -4.9156494140625
31.634033203125 2.36083984375 -1.5416259765625
-17.97998046875 42.3359375 -12.9149169921875
26.264404296875 14.875 -19.7725830078125
43.97607421875 -0.8355712890625 -6.6766357421875
-6.5615234375 23.3997802734375 8.362060546875
-26.203125 10.0196533203125 24.1875
-54.85009765625 33.68701171875 20.2569580078125
42.06689453125 1.0521240234375 -11.77978515625
-22.303466796875 21.680419921875 12.337158203125
7.07080078125 35.6263427734375 -29.6544189453125
68.398193359375 14.9884033203125 -41.9119873046875
-42.1328125 17.05517578125 -15.0386962890625
28.495361328125 5.95947265625 -2.2423095703125
40.679443359375 21.805908203125 -18.150634765625
-2.289794921875 20.6944580078125 12.7628173828125
-15.864501953125 49.6212158203125 -30.9920654296875
-44.79248046875 37.1390380859375 6.9508056640625
-56.8232421875 28.6641845703125 30.9730224609375
9.71923828125 28.6568603515625 -9.8941650390625
16.601806640625 27.572021484375 -18.4208984375
-30.45654296875 44.525146484375 -16.6719970703125
32.267578125 2.298095703125 -5.9398193359375
-7.739990234375 31.1937255859375 -15.22900390625
-62.10546875 29.6708984375 29.55859375
-29.085693359375 13.587158203125 23.572509765625
-8.555419921875 18.833251953125 23.3626708984375
66.013427734375 11.9879150390625 -29.74169921875
29.84423828125 8.872802734375 -18.07373046875
30.316650390625 9.491943359375 -20.076171875
-15.730224609375 20.1820068359375 25.0814208984375
37.432861328125 2.856689453125 -16.5777587890625
-30.9365234375 10.7099609375 24.0545654296875
5.63623046875 24.0111083984375 10.107177734375
46.243408203125 15.6939697265625 -44.96728515625
-16.762939453125 34.7237548828125 -18.6507568359375
-52.84228515625 32.1929931640625 24.721435546875
75.05908203125 0.7977294921875 -18.89013671875
23.134765625 13.4306640625 6.35205078125
7.890869140625 31.507080078125 -16.90234375
-31.2001953125 41.2109375 -5.79150390625
10.1591796875 32.4940185546875 -17.90625
-25.8271484375 21.814697265625 11.5914306640625
2.674072265625 21.574951171875 14.7210693359375
-68.0439453125 34.5079345703125 16.45263671875
-43.396484375 16.8369140625 -12.8634033203125
48.1806640625 12.3447265625 -40.343994140625
-54.1123046875 34.48291015625 16.433837890625
-17.429931640625 21.6788330078125 21.79345703125
26.31103515625 16.8370361328125 -22.309814453125
65.891845703125 22.4752197265625 -42.5631103515625
7.356689453125 52.06103515625 -35.548828125
-19.91748046875 49.692626953125 -32.717529296875
48.733154296875 20.6351318359375 -60.0029296875
-32.047607421875 37.757568359375 5.16748046875
23.47119140625 17.1416015625 -16.3955078125
-35.884521484375 -0.58203125 33.210205078125
22.337890625 13.815185546875 1.4381103515625
-30.959228515625 36.9915771484375 8.40380859375
-54.07275390625 39.251220703125 1.226318359375
-36.768310546875 0.5040283203125 29.5849609375
-30.2080078125 0.3238525390625 30.6405029296875
-65.31982421875 33.3193359375 21.448974609375
-37.140869140625 15.6475830078125 22.89794921875
-47.525634765625 11.0330810546875 30.6551513671875
-12.4794921875 50.128662109375 -32.670654296875
-13.32958984375 26.3258056640625 -1.739990234375
-12.944580078125 41.17919921875 -7.1014404296875
-52.438720703125 10.6732177734375 5.2906494140625
-33.038818359375 17.31689453125 21.927490234375
-40.670166015625 39.7197265625 -1.7218017578125
-43.09716796875 34.6212158203125 15.7508544921875
70.263427734375 15.0413818359375 -43.629150390625
65.57568359375 17.28466796875 -34.552978515625
57.4736328125 4.5037841796875 -24.1710205078125
58.97021484375 0.298583984375 -13.252197265625
35.759521484375 1.2908935546875 -10.470947265625
-34.004638671875 12.9324951171875 23.6168212890625
-49.556396484375 10.89208984375 0.9490966796875
-14.869384765625 27.400634765625 -6.000244140625
20.259521484375 15.7783203125 3.5389404296875
-19.5224609375 41.0479736328125 -3.72509765625
8.87548828125 36.2755126953125 -31.5078125
16.572998046875 19.5599365234375 7.913330078125
-16.88134765625 27.1629638671875 -52.3248291015625
-49.312255859375 36.54931640625 10.3873291015625
28.03515625 13.2708740234375 -21.767822265625
76.269775390625 -0.5604248046875 -14.864501953125
45.497802734375 13.1611328125 -38.1319580078125
-52.702880859375 35.373046875 13.5682373046875
-30.750732421875 6.9229736328125 24.60791015625
-59.213623046875 34.4593505859375 15.6768798828125
-4.473388671875 11.9642333984375 19.57421875
-49.755126953125 38.4940185546875 3.0623779296875
-34.364013671875 21.6099853515625 12.117919921875
17.2578125 25.1566162109375 -16.2843017578125
-50.361083984375 2.2132568359375 30.009033203125
-53.493408203125 41.583740234375 -3.724365234375
-50.9716796875 6.2928466796875 25.237060546875
-14.924560546875 41.550537109375 -6.3333740234375
5.676025390625 50.276123046875 -31.7049560546875
18.611328125 26.5823974609375 -19.0091552734375
-18.818603515625 20.2320556640625 -38.307373046875
-51.684326171875 12.246337890625 -2.437744140625
-40.876708984375 6.9835205078125 24.675048828125
51.534912109375 14.4261474609375 -48.2716064453125
64.359130859375 17.5047607421875 -30.930419921875
12.63818359375 25.5430908203125 -2.3983154296875
-40.878662109375 44.35400390625 -17.7650146484375
-2.86767578125 51.5057373046875 -35.198486328125
-12.82861328125 40.6639404296875 -29.595458984375
-4.36865234375 25.1683349609375 -20.64697265625
-14.868408203125 22.4952392578125 9.8834228515625
44.889404296875 16.1595458984375 -39.953125
-31.164306640625 17.384765625 21.9490966796875
-5.369873046875 26.15478515625 -24.0609130859375
-60.157470703125 35.803955078125 11.8065185546875
-43.71630859375 12.427490234375 -6.0579833984375
80.588134765625 9.0079345703125 -19.43798828125
56.290771484375 3.237548828125 -21.731201171875
-18.130859375 46.6278076171875 -24.6884765625
-2.629150390625 26.009521484375 -25.830322265625
-44.224853515625 35.2548828125 14.4581298828125
-66.525390625 36.0767822265625 12.0445556640625
8.51171875 32.887451171875 -27.87841796875
-46.021484375 36.4422607421875 8.9951171875
-43.174072265625 16.688232421875 22.207275390625
-51.032958984375 34.1236572265625 17.9234619140625
-17.492431640625 42.040283203125 -21.750244140625
-42.003173828125 13.2506103515625 23.497314453125
65.65380859375 24.3021240234375 -45.3052978515625
-17.513671875 41.8980712890625 -18.8768310546875
-18.001220703125 27.209716796875 -4.6005859375
-3.436767578125 23.5020751953125 6.862060546875
34.288818359375 0.5057373046875 -4.857666015625
-13.8173828125 19.4656982421875 27.8736572265625
-63.57177734375 29.3182373046875 30.6124267578125
-7.76318359375 27.6961669921875 -21.937255859375
-28.509765625 17.6868896484375 -29.305419921875
48.784423828125 8.3494873046875 -26.5877685546875
0.497314453125 32.780517578125 -26.5352783203125
-50.285888671875 40.3087158203125 -3.2728271484375
-24.374755859375 39.6708984375 -0.1971435546875
68.141357421875 0.5589599609375 -19.40380859375
49.422119140625 -1.5611572265625 -6.0640869140625
82.11572265625 1.8876953125 -23.640869140625
33.70654296875 4.6639404296875 -15.86083984375
-31.060791015625 4.3087158203125 26.0892333984375
-47.29443359375 14.002197265625 -8.5499267578125
-10.403076171875 21.92822265625 11.88427734375
71.425048828125 3.198974609375 -23.9306640625
-40.078369140625 13.451904296875 -12.010009765625
-17.063232421875 48.915283203125 -27.9783935546875
-62.273681640625 33.0118408203125 20.9140625
-4.536376953125 26.6903076171875 -28.79150390625
-34.07177734375 9.4658203125 24.20849609375
45.05322265625 20.232666015625 -50.170654296875
45.072998046875 19.8165283203125 -46.49755859375
-47.76904296875 38.81640625 1.233154296875
-59.57421875 13.5574951171875 6.016357421875
-36.724365234375 9.230712890625 24.1502685546875
-58.6279296875 28.57421875 30.933349609375
-24.992431640625 11.72802734375 23.72021484375
11.37548828125 31.2548828125 -16.9599609375
18.6162109375 21.05322265625 -7.5198974609375
-46.78662109375 40.4375 -2.926025390625
-46.1962890625 17.76220703125 21.1220703125
45.071044921875 26.71533203125 -63.947021484375
-8.349609375 27.378173828125 -25.302001953125
-31.7744140625 19.8265380859375 18.2591552734375
-22.205810546875 42.0623779296875 -8.0361328125
34.40625 1.7027587890625 -9.35546875
45.402587890625 21.4879150390625 -53.788330078125
-48.9619140625 12.5933837890625 27.5548095703125
-24.53173828125 4.1363525390625 25.9766845703125
-8.94970703125 23.6331787109375 6.2349853515625
13.844970703125 24.45654296875 9.6610107421875
47.519775390625 -1.8909912109375 -6.5931396484375
13.181884765625 27.807373046875 -10.244140625
-11.81201171875 23.859130859375 5.9439697265625
-40.800537109375 0.0421142578125 30.6658935546875
27.914794921875 16.1051025390625 -23.45361328125
-22.7265625 44.6746826171875 -15.4501953125
-6.8349609375 19.0205078125 26.54833984375
44.3642578125 20.2047119140625 -40.78076171875
-21.119140625 43.927490234375 -14.5789794921875
76.77294921875 0.5048828125 -19.3275146484375
45.2705078125 28.597412109375 -69.5999755859375
64.62060546875 2.627685546875 -21.9893798828125
-19.577392578125 21.7156982421875 16.423583984375
44.858154296875 31.94873046875 -68.8292236328125
-25.35205078125 7.9681396484375 24.5421142578125
70.534423828125 9.9285888671875 -29.3299560546875
-43.6455078125 33.3994140625 19.9959716796875
-22.347900390625 16.535888671875 22.0777587890625
-22.946044921875 10.819580078125 23.27099609375
-4.971923828125 43.66357421875 -31.0433349609375
56.156005859375 -0.7218017578125 -9.8372802734375
-50.7626953125 31.9735107421875 24.7099609375
-48.951904296875 11.5477294921875 -0.8602294921875
-10.72900390625 29.386962890625 -12.548095703125
44.6630859375 14.341552734375 -35.47900390625
35.89111328125 2.1400146484375 -12.034423828125
-8.61083984375 26.85693359375 -3.736328125
-8.462158203125 40.9630126953125 -31.413330078125
-8.943115234375 18.688720703125 20.39794921875
-62.180419921875 13.1070556640625 8.844482421875
18.67919921875 14.6090087890625 7.41455078125
49.153076171875 28.017578125 -74.0001220703125
27.210205078125 8.9710693359375 -3.9112548828125
65.994384765625 18.4541015625 -40.830810546875
34.786376953125 3.0216064453125 -13.126953125
60.89111328125 0.1707763671875 -13.491943359375
-17.457275390625 20.7213134765625 -43.1002197265625
64.9423828125 21.2542724609375 -39.0159912109375
23.1962890625 18.8543701171875 -19.209228515625
26.3779296875 4.2080078125 2.6103515625
33.05322265625 2.114501953125 -8.2398681640625
24.757080078125 14.456298828125 -12.0606689453125
-32.4267578125 -0.1397705078125 32.29052734375
8.113037109375 34.067626953125 -26.0120849609375
51.548095703125 -0.42138671875 -10.231201171875
67.280517578125 19.580322265625 -45.749755859375
-63.00048828125 37.448486328125 7.1114501953125
63.55029296875 4.2469482421875 -23.722900390625
42.98291015625 4.197998046875 -22.037109375
17.702392578125 16.6470947265625 6.9456787109375
16.85986328125 21.10205078125 -0.058837890625
-35.50634765625 20.991455078125 -22.3162841796875
-10.78662109375 26.46435546875 -2.455322265625
-6.9912109375 26.150390625 -21.365478515625
-27.2421875 21.526123046875 13.284423828125
47.11083984375 9.414794921875 -28.3040771484375
62.581787109375 17.674560546875 -17.3199462890625
7.852294921875 34.52783203125 -27.8756103515625
11.254150390625 25.663330078125 9.015625
63.380615234375 20.5889892578125 -34.950927734375
40.162841796875 4.02294921875 -21.3553466796875
-38.0615234375 36.2586669921875 11.5496826171875
3.1201171875 22.41357421875 9.052978515625
-23.036865234375 40.4659423828125 -2.179931640625
2.074462890625 27.01171875 -4.1146240234375
12.042724609375 25.61083984375 -22.9058837890625
70.1494140625 13.924560546875 -40.21044921875
-48.45068359375 15.57470703125 -7.7998046875
-50.63037109375 16.6273193359375 -4.9039306640625
42.712890625 17.240966796875 -27.00732421875
82.1337890625 10.315673828125 -20.2615966796875
51.585205078125 3.294921875 -21.2169189453125
66.544921875 20.780029296875 -42.558349609375
27.45068359375 12.4183349609375 -18.426025390625
-60.267333984375 28.6358642578125 31.6102294921875
82.470703125 4.7823486328125 -22.67236328125
-1.947509765625 13.42138671875 15.330810546875
7.870849609375 24.9124755859375 2.2489013671875
-31.2099609375 36.05322265625 11.9130859375
-31.804443359375 17.728271484375 -27.4979248046875
-35.175048828125 45.58349609375 -19.821044921875
5.153076171875 22.586181640625 15.4666748046875
-41.0234375 18.1514892578125 -15.8486328125
17.237548828125 22.2564697265625 -2.922119140625
-3.236572265625 27.44384765625 -6.4376220703125
-61.168701171875 39.9139404296875 -1.112060546875
-21.575927734375 20.2889404296875 18.78173828125
33.3583984375 6.4652099609375 -24.1962890625
-55.371826171875 40.2200927734375 -2.4298095703125
-28.903076171875 41.8006591796875 -7.37939453125
-5.642822265625 23.9049072265625 4.927978515625
-19.10546875 26.5364990234375 -0.9317626953125
10.1640625 52.5445556640625 -38.06494140625
28.135009765625 7.7664794921875 -6.152587890625
6.97216796875 24.564208984375 3.7137451171875
-32.207763671875 9.5174560546875 24.2347412109375
15.062744140625 25.827880859375 -7.29345703125
-9.90478515625 25.3961181640625 0.4921875
-17.398193359375 21.2459716796875 19.9713134765625
-18.390625 21.3067626953125 13.1468505859375
48.4326171875 26.5565185546875 -71.16455078125
12.64794921875 26.9276123046875 -5.3018798828125
0.655517578125 34.6326904296875 -27.044677734375
-37.178955078125 35.314697265625 14.614501953125
-45.659423828125 17.2969970703125 -10.8304443359375
42.684326171875 5.318115234375 -24.14501953125
-47.89794921875 8.437744140625 30.46923828125
-23.12646484375 19.9833984375 -38.0059814453125
24.70166015625 10.4295654296875 -0.7296142578125
-57.731689453125 27.12841796875 33.798828125
3.0107421875 51.3094482421875 -33.803955078125
16.200927734375 25.2442626953125 -8.59375
-61.612548828125 31.3543701171875 26.0855712890625
-13.8759765625 19.55078125 25.732666015625
51.17236328125 18.3843994140625 -56.263916015625
-17.392822265625 43.3179931640625 -23.0386962890625
44.252685546875 13.8828125 -29.9207763671875
-38.486083984375 19.0845947265625 -18.95751953125
45.087158203125 16.00927734375 -41.8916015625
66.734619140625 26.84423828125 -54.045654296875
37.875244140625 4.2779541015625 -20.7396240234375
-28.468017578125 20.147705078125 17.6134033203125
1.675537109375 21.931396484375 13.3419189453125
-52.598388671875 37.8660888671875 5.2845458984375
44.789306640625 33.41064453125 -72.872314453125
-2.849853515625 27.323974609375 -23.8153076171875
-44.5537109375 36.1573486328125 10.6446533203125
30.685302734375 9.568359375 -22.8828125
-46.723388671875 36.2818603515625 10.5904541015625
46.801025390625 13.52783203125 -41.344482421875
10.80859375 25.4879150390625 -0.7109375
-6.16796875 27.5389404296875 -5.7633056640625
-0.98486328125 25.619873046875 0.3709716796875
-53.921875 26.918701171875 33.227783203125
-54.516357421875 14.326904296875 -0.3043212890625
44.996826171875 18.6163330078125 -36.832763671875
8.9150390625 52.4400634765625 -36.6805419921875
-55.66259765625 32.8299560546875 22.9737548828125
20.35693359375 16.1937255859375 0.142578125
-50.557373046875 14.53515625 24.611328125
78.3134765625 1.574462890625 -22.29541015625
45.206787109375 23.7803955078125 -60.9190673828125
47.310302734375 3.8734130859375 -22.3067626953125
-27.9716796875 47.821533203125 -27.0625
-10.9052734375 19.857421875 18.938720703125
-27.539794921875 14.474365234375 23.3509521484375
-16.697509765625 35.25732421875 -16.8701171875
-43.463134765625 43.3812255859375 -13.62744140625
15.37255859375 27.44970703125 -16.5164794921875
48.710205078125 8.5396728515625 -28.5330810546875
-25.892333984375 20.4912109375 -35.71142578125
53.8125 11.0025634765625 -20.13427734375
-56.376708984375 38.591796875 2.681640625
48.247802734375 25.648193359375 -69.2919921875
45.43359375 18.638916015625 -47.84130859375
-16.780029296875 22.396728515625 10.4039306640625
66.91552734375 10.4573974609375 -29.56591796875
6.676025390625 28.0146484375 -7.5592041015625
-21.7275390625 24.2421875 -42.818115234375
-27.636474609375 36.7486572265625 8.94677734375
12.23046875 54.6990966796875 -42.065185546875
-56.626220703125 37.1617431640625 7.8389892578125
20.23779296875 15.4683837890625 6.521728515625
43.603271484375 14.536865234375 -21.358642578125
1.662353515625 22.740234375 10.07177734375
6.058837890625 34.9395751953125 -25.0140380859375
50.550048828125 3.801025390625 -22.94580078125
-48.64208984375 7.9957275390625 24.4630126953125
70.77392578125 -0.4254150390625 -14.0782470703125
-49.465087890625 11.1409912109375 23.75341796875
44.96533203125 1.50634765625 -14.3341064453125
-3.636474609375 13.8348388671875 12.5634765625
-40.718505859375 -0.5780029296875 33.0191650390625
26.729248046875 7.052490234375 4.7890625
59.458984375 3.8592529296875 -24.1302490234375
-43.79345703125 39.43115234375 -0.93896484375
-37.6181640625 13.4765625 23.480224609375
42.315185546875 -0.3714599609375 -7.7364501953125
-24.872802734375 22.900146484375 8.0225830078125
40.613525390625 5.2738037109375 -24.071044921875
-18.254638671875 42.2236328125 -16.5828857421875
66.6767578125 -0.5084228515625 -12.2869873046875
-38.16748046875 33.6568603515625 18.3929443359375
28.0546875 12.3447265625 -23.20751953125
-19.61962890625 43.704833984375 -15.4830322265625
-52.6396484375 34.8392333984375 15.369873046875
28.530029296875 9.234130859375 -11.389404296875
-33.55908203125 15.6942138671875 -20.246337890625
-17.502197265625 47.8604736328125 -26.2490234375
79.73388671875 3.8978271484375 -23.1922607421875
15.345703125 22.3919677734375 2.482421875
4.59130859375 53.1005859375 -39.5924072265625
-30.077392578125 19.714111328125 18.5966796875
-29.9287109375 16.6702880859375 -25.225830078125
29.895751953125 5.3897705078125 -6.5255126953125
-21.302001953125 24.1612548828125 4.881103515625
-50.52685546875 14.6943359375 21.047119140625
0.551025390625 51.3193359375 -34.82470703125
40.917724609375 0.393310546875 -9.5521240234375
-5.29541015625 41.161376953125 -31.883056640625
