-38.906005859375 35.3692626953125 12.032470703125
-12.996826171875 35.4097900390625 -35.0921630859375
38.768798828125 -0.753173828125 -18.1185302734375
-28.862060546875 16.6138916015625 38.1488037109375
-19.91259765625 31.4234619140625 -18.633544921875
55.088623046875 17.9052734375 -66.298583984375
-21.4560546875 24.0096435546875 22.4442138671875
-41.902099609375 31.549560546875 -18.341796875
-30.562255859375 27.6131591796875 -7.6287841796875
-17.492919921875 20.3328857421875 13.3507080078125
-7.23095703125 22.699462890625 11.457763671875
-12.87255859375 21.7342529296875 15.8182373046875
20.79736328125 0.899169921875 -11.8104248046875
-15.876953125 26.4664306640625 -4.4832763671875
30.801513671875 4.00439453125 -31.175048828125
-18.58984375 33.359130859375 -26.9664306640625
65.7080078125 12.256103515625 -54.1090087890625
-6.156005859375 30.77783203125 -20.5643310546875
-21.953369140625 29.9384765625 -31.5008544921875
-39.028564453125 21.572509765625 33.8853759765625
66.087646484375 9.5185546875 -41.0211181640625
1.420654296875 24.4478759765625 -12.574462890625
51.0537109375 0.442626953125 -24.179931640625
55.4482421875 11.2078857421875 -43.471435546875
35.813720703125 1.555908203125 -25.5032958984375
6.841552734375 16.3143310546875 -10.6241455078125
-36.057861328125 23.08642578125 32.1834716796875
49.7939453125 1.72509765625 -27.6953125
69.478759765625 0.209228515625 -28.25537109375
-17.093994140625 17.2213134765625 10.6021728515625
79.045654296875 6.208740234375 -11.5333251953125
34.904296875 11.4774169921875 -43.5181884765625
-24.853759765625 12.4078369140625 40.802490234375
56.9775390625 -1.736083984375 -19.388427734375
-9.944580078125 23.9405517578125 5.784423828125
40.684814453125 23.453857421875 -67.1278076171875
-14.855712890625 15.1768798828125 4.5576171875
66.5830078125 12.4249267578125 -58.8778076171875
-44.382080078125 26.3167724609375 -3.998291015625
27.751220703125 0.0589599609375 -19.035888671875
-31.80810546875 25.7777099609375 -3.60546875
68.183837890625 8.4267578125 -42.9442138671875
-27.015380859375 12.73291015625 41.8851318359375
8.858642578125 14.818603515625 -15.459716796875
59.071044921875 1.7955322265625 -30.561767578125
36.403076171875 -2.2930908203125 -2.7828369140625
77.488037109375 -3.1473388671875 -19.5845947265625
1.86962890625 23.8380126953125 -5.8521728515625
26.66455078125 2.981689453125 -9.90185546875
72.6337890625 -4.1158447265625 -15.8719482421875
-17.68115234375 14.7230224609375 8.541259765625
-17.925537109375 29.1260986328125 -30.203369140625
28.6025390625 2.6259765625 -26.651123046875
29.486328125 1.8892822265625 -24.8397216796875
57.32568359375 -2.888916015625 -11.39501953125
-37.099365234375 0.8306884765625 25.754150390625
36.8486328125 -0.981689453125 -17.0257568359375
-32.725830078125 17.0140380859375 37.9462890625
-30.992431640625 33.03955078125 -25.5928955078125
0.076904296875 29.3134765625 -21.941162109375
-37.720458984375 0.05615234375 29.8016357421875
-21.47216796875 18.096435546875 10.2335205078125
16.125244140625 7.6324462890625 -25.0889892578125
51.355224609375 -1.7091064453125 -6.6226806640625
-17.6337890625 28.847900390625 -12.94775390625
37.3115234375 -1.8818359375 -13.2939453125
-11.195556640625 23.8316650390625 7.7896728515625
46.96826171875 -1.30029296875 -19.0028076171875
52.07568359375 -0.8934326171875 -9.836669921875
49.650390625 -1.3043212890625 -18.8204345703125
52.42431640625 3.1719970703125 -33.736328125
37.72021484375 13.9332275390625 -45.149658203125
33.131591796875 0.918701171875 -22.3985595703125
-32.9482421875 14.673095703125 42.650390625
55.657958984375 14.422607421875 -53.9326171875
-10.940185546875 37.580078125 -35.0238037109375
41.99560546875 2.142578125 -27.95703125
68.8984375 -4.2264404296875 -15.7158203125
-18.21044921875 22.776123046875 22.3590087890625
72.926513671875 0.9764404296875 -33.230224609375
30.333740234375 12.4014892578125 -42.0902099609375
30.53076171875 -0.9273681640625 -11.98388671875
29.431640625 10.103515625 -36.350830078125
22.14892578125 0.5140380859375 -17.5428466796875
-15.515869140625 35.33251953125 -37.7969970703125
-6.81787109375 32.09033203125 -25.0751953125
58.551025390625 16.265625 -53.0020751953125
29.469482421875 -1.2880859375 -14.3204345703125
-2.716552734375 30.4244384765625 -19.8533935546875
53.835693359375 -0.852783203125 -20.578125
22.145751953125 3.3671875 -26.0860595703125
-24.705078125 31.890380859375 -21.560302734375
-42.960205078125 18.98193359375 38.1224365234375
28.442138671875 -0.23388671875 -11.089111328125
13.44091796875 10.77880859375 -22.3648681640625
34.260009765625 -2.25830078125 -12.244140625
33.7626953125 -5.041015625 -1.6346435546875
-45.691650390625 24.8475341796875 -0.88037109375
-36.744140625 20.1265869140625 12.4083251953125
33.883544921875 -5.93359375 0.0865478515625
-21.8701171875 21.115234375 13.4169921875
-16.760009765625 38.7884521484375 -39.975830078125
66.3720703125 1.577880859375 -31.5335693359375
-13.029052734375 33.64404296875 -32.996826171875
32.69091796875 9.697509765625 -36.81201171875
-27.060302734375 32.8521728515625 -25.7203369140625
-41.850341796875 18.0035400390625 41.1317138671875
51.662109375 14.4127197265625 -51.4364013671875
55.5029296875 -3.3836669921875 -11.79296875
-34.15869140625 14.461181640625 45.047607421875
-1.171630859375 26.6572265625 -10.6917724609375
70.629150390625 6.094970703125 -38.606201171875
-13.089111328125 22.362060546875 21.024169921875
-9.099365234375 36.9176025390625 -33.04736328125
-31.176513671875 28.7855224609375 22.9833984375
-1.0361328125 30.7779541015625 -25.2486572265625
7.666259765625 16.563720703125 -14.6798095703125
44.607177734375 3.0548095703125 -29.560791015625
-23.386962890625 33.7589111328125 -29.0650634765625
-36.872314453125 30.898193359375 21.1790771484375
-15.660400390625 14.9580078125 7.392578125
17.27392578125 2.7530517578125 -11.629150390625
67.373291015625 7.6268310546875 -37.6739501953125
-1.466796875 53.2939453125 -36.670654296875
-42.25 28.621826171875 -31.7357177734375
-15.09716796875 22.9072265625 3.6259765625
22.041748046875 1.26708984375 -19.6854248046875
-2.79052734375 28.485107421875 -13.6358642578125
-31.65576171875 20.828125 34.6917724609375
-29.2802734375 36.65576171875 -33.51171875
9.021484375 13.8153076171875 -12.4141845703125
-4.730224609375 50.127685546875 -34.44482421875
30.24560546875 -4.8621826171875 -0.7203369140625
55.468505859375 -2.439208984375 -15.855224609375
19.027099609375 5.23046875 -27.1322021484375
-17.3251953125 16.747314453125 4.967529296875
58.15966796875 16.9569091796875 -56.8563232421875
35.60888671875 1.0489501953125 -10.509033203125
17.840087890625 7.5078125 -30.5460205078125
-23.662353515625 21.350830078125 18.619873046875
-37.699462890625 27.6002197265625 25.752685546875
-39.22607421875 5.4716796875 16.5794677734375
18.2509765625 4.8232421875 -23.5091552734375
66.53857421875 2.5372314453125 -11.5638427734375
71.190185546875 -4.328857421875 -17.069091796875
2.04150390625 25.9027099609375 -19.8486328125
-14.602783203125 31.4798583984375 -35.9871826171875
42.0029296875 -2.489990234375 -11.6964111328125
78.22607421875 -1.803955078125 -24.0625
-25.875244140625 38.8043212890625 -38.9075927734375
32.97705078125 10.7386474609375 -40.2601318359375
-34.163818359375 24.9635009765625 -1.093505859375
58.185546875 3.599853515625 -35.378173828125
4.255126953125 23.45556640625 -21.6619873046875
-14.595947265625 20.814208984375 4.8314208984375
-28.9990234375 22.88916015625 6.591796875
-14.3798828125 32.0020751953125 -29.764404296875
57.279541015625 -0.6822509765625 -21.9317626953125
65.10302734375 -4.3857421875 -13.253173828125
-38.490234375 24.230224609375 30.7025146484375
-27.284423828125 30.1390380859375 -17.9918212890625
15.58740234375 5.614013671875 -16.3013916015625
-33.80322265625 30.392578125 -17.18408203125
10.689208984375 16.9385986328125 -30.429443359375
-37.52734375 31.463623046875 -20.170166015625
-36.9130859375 32.4207763671875 -22.024658203125
-44.631591796875 27.2755126953125 -8.386474609375
69.38671875 9.0894775390625 -47.7696533203125
74.824951171875 -0.7708740234375 -26.8607177734375
5.50927734375 21.38134765625 -20.72509765625
-7.470458984375 28.7579345703125 -13.561279296875
-38.3583984375 33.25 17.4254150390625
54.7666015625 9.6434326171875 -38.7425537109375
-40.52001953125 29.681640625 -15.7672119140625
25.640869140625 0.9158935546875 -19.36669921875
-29.097412109375 32.3485107421875 -24.0516357421875
-15.126953125 16.0443115234375 9.2703857421875
52.766357421875 16.269775390625 -59.1278076171875
-25.239990234375 32.42626953125 -24.66455078125
-45.04248046875 28.7647705078125 -12.0625
-3.808837890625 31.746826171875 -23.1282958984375
-23.321533203125 14.4642333984375 39.4259033203125
-33.32373046875 33.85302734375 14.2218017578125
-10.93017578125 24.64892578125 4.3779296875
77.546875 -2.9112548828125 -22.69873046875
-10.72802734375 26.076904296875 -5.35693359375
-39.765625 21.9169921875 7.8387451171875
20.29833984375 2.1893310546875 -20.4014892578125
32.663330078125 13.439208984375 -47.8350830078125
-24.7998046875 16.9849853515625 37.865966796875
-32.22216796875 29.2015380859375 -13.4822998046875
-20.010009765625 27.3323974609375 -31.620849609375
-37.423583984375 24.320556640625 2.16748046875
-17.2626953125 31.488525390625 -27.7366943359375
-40.443603515625 29.9517822265625 -34.4600830078125
-36.957763671875 24.8453369140625 29.8663330078125
-39.12841796875 29.987060546875 -37.3526611328125
-19.70947265625 23.715087890625 22.976806640625
-23.358154296875 29.73828125 -15.5670166015625
52.975341796875 18.865478515625 -66.359130859375
-22.187255859375 27.64306640625 -34.3621826171875
-8.12109375 22.7308349609375 15.494140625
-12.930908203125 26.498779296875 -5.1484375
-45.708251953125 23.3238525390625 4.8023681640625
58.466552734375 16.5858154296875 -51.083251953125
-7.868408203125 33.087646484375 -27.0419921875
-25.615966796875 28.470458984375 -12.939453125
-11.77734375 22.5595703125 12.06494140625
-21.630615234375 31.6168212890625 -22.1500244140625
-20.651611328125 19.65380859375 12.887939453125
-42.5087890625 17.3145751953125 43.622802734375
39.797119140625 0.8409423828125 -24.27490234375
-6.956298828125 26.12353515625 -6.3865966796875
-40.37353515625 32.817626953125 14.871337890625
-25.575439453125 28.1795654296875 -9.533447265625
26.76171875 1.418701171875 -21.3720703125
-39.923583984375 17.906982421875 13.82568359375
41.0029296875 24.4442138671875 -70.28271484375
44.61083984375 3.5341796875 -33.2200927734375
-10.19384765625 39.8323974609375 -1.53857421875
-13.74951171875 30.6195068359375 -19.3397216796875
-10.760498046875 24.8585205078125 19.957763671875
59.147216796875 0.344482421875 -25.923095703125
-28.200439453125 34.0858154296875 -30.3077392578125
74.403076171875 6.4947509765625 -38.421875
34.76025390625 12.80908203125 -47.50439453125
15.61865234375 10.763916015625 -32.28076171875
33.989501953125 -3.9228515625 -3.384765625
-27.243896484375 22.5289306640625 9.6307373046875
-7.6337890625 24.6107177734375 8.260009765625
-43.1142578125 23.226318359375 5.3726806640625
-6.4306640625 24.9024658203125 6.6329345703125
-44.576416015625 18.69970703125 39.315673828125
-35.0341796875 33.7535400390625 15.83251953125
-19.947998046875 17.0009765625 10.896728515625
-16.776123046875 26.2567138671875 -31.15625
-37.527587890625 19.2125244140625 36.274169921875
34.00732421875 3.650390625 -31.2548828125
-20.452880859375 14.21923828125 8.883544921875
32.95166015625 14.4971923828125 -51.3353271484375
-41.162353515625 18.587890625 39.0555419921875
-16.540283203125 21.22265625 19.7991943359375
50.359130859375 0.3746337890625 -9.4342041015625
-42.39013671875 25.3154296875 -1.197021484375
1.089111328125 23.81494140625 -8.7685546875
30.496826171875 17.61572265625 -56.049072265625
-14.4541015625 18.3958740234375 8.10498046875
-1.8310546875 30.32421875 -21.4447021484375
-26.1474609375 23.3245849609375 5.431884765625
-16.968994140625 16.8880615234375 6.9996337890625
65.310546875 -0.5860595703125 -24.4921875
31.413818359375 -1.251220703125 -14.59228515625
-15.595458984375 31.3004150390625 -20.8568115234375
72.135986328125 7.217529296875 -42.318115234375
67.9541015625 -0.21044921875 -25.94140625
-45.768798828125 27.334716796875 -32.533203125
-20.255615234375 30.1474609375 -35.2279052734375
-34.84375 29.73193359375 22.2686767578125
-39.055419921875 17.0252685546875 42.972412109375
-33.099853515625 32.799560546875 -24.4056396484375
38.721923828125 15.025634765625 -44.14599609375
-28.83642578125 29.369873046875 -13.7301025390625
-40.335693359375 28.937255859375 -12.2359619140625
-31.33837890625 31.186279296875 16.8072509765625
-44.715087890625 28.0245361328125 -26.68408203125
-36.826904296875 34.0296630859375 14.8642578125
-13.43017578125 29.06396484375 -14.8214111328125
-22.72607421875 25.604248046875 24.219970703125
34.925048828125 11.1077880859375 -41.4119873046875
4.629638671875 18.8052978515625 -7.5906982421875
54.38232421875 16.7086181640625 -63.1666259765625
-18.198974609375 39.44580078125 -41.5179443359375
-37.62451171875 30.1973876953125 -17.8038330078125
38.15087890625 17.9964599609375 -59.2044677734375
41.06298828125 3.9530029296875 -34.373046875
70.269775390625 5.4779052734375 -36.9072265625
35.9453125 12.5203857421875 -44.514404296875
39.7607421875 21.1292724609375 -63.6494140625
11.8759765625 14.987548828125 -28.675537109375
-35.929443359375 25.764892578125 28.55517578125
10.9638671875 15.2279052734375 -25.5440673828125
-40.08056640625 24.6763916015625 1.12841796875
29.90673828125 15.92138671875 -51.9627685546875
-40.81884765625 29.8447265625 -37.863037109375
40.402099609375 22.4627685546875 -65.626220703125
62.271240234375 -0.3524169921875 -25.5367431640625
-41.483642578125 30.4351806640625 -30.3897705078125
-15.013916015625 27.895263671875 -35.1817626953125
-13.691162109375 22.1937255859375 5.466552734375
-27.94873046875 23.2550048828125 18.5452880859375
55.605224609375 15.959716796875 -60.418701171875
-49.072265625 45.7196044921875 -21.64306640625
-46.922119140625 46.04248046875 -23.7490234375
-45.4765625 28.810791015625 -13.785888671875
38.846435546875 17.1402587890625 -47.1175537109375
-44.49169921875 25.1822509765625 -2.1268310546875
-12.10693359375 30.9063720703125 -20.5523681640625
-46.08203125 26.8646240234375 -29.907958984375
19.1376953125 1.7913818359375 -17.230224609375
35.262939453125 -4.954345703125 -0.404052734375
-39.4296875 23.8594970703125 2.55322265625
34.2353515625 13.88330078125 -50.2576904296875
10.738037109375 13.9921875 -20.827880859375
58.836669921875 19.5028076171875 -65.63818359375
68.207763671875 8.9500732421875 -46.2431640625
-23.424560546875 26.22265625 -4.0408935546875
58.50244140625 18.5013427734375 -62.9361572265625
1.812744140625 22.2916259765625 -7.2025146484375
25.41650390625 2.62109375 -24.499755859375
-15.469482421875 31.285888671875 -30.942138671875
-28.844970703125 25.8486328125 -3.8662109375
57.520751953125 1.599853515625 -28.6754150390625
-20.379638671875 15.65087890625 6.210205078125
41.36865234375 27.9720458984375 -74.631591796875
26.481689453125 3.7801513671875 -29.8443603515625
-13.641357421875 32.0999755859375 -22.5802001953125
-37.912353515625 30.362548828125 -39.907470703125
-11.39306640625 27.1864013671875 -6.845458984375
29.609619140625 11.5687255859375 -38.30859375
-13.123779296875 25.486083984375 -3.7314453125
-33.857177734375 28.8753662109375 -12.6767578125
-11.488525390625 27.76904296875 -10.283935546875
79.42626953125 12.8843994140625 -19.59033203125
-31.444091796875 33.237548828125 -29.062255859375
-35.611572265625 32.494384765625 -24.503173828125
12.294921875 9.903564453125 -15.0224609375
24.368408203125 4.743896484375 -32.2135009765625
-24.164794921875 21.853759765625 14.0079345703125
-30.648681640625 26.25927734375 -4.8775634765625
-17.047119140625 32.0845947265625 -22.3753662109375
-30.44921875 13.1217041015625 43.7188720703125
-9.976318359375 30.774658203125 -19.1331787109375
-37.1298828125 28.1534423828125 -8.5325927734375
-37.739013671875 20.6856689453125 11.0335693359375
38.949951171875 16.7808837890625 -49.4482421875
-25.381591796875 24.6107177734375 20.9422607421875
-34.5517578125 26.5047607421875 -5.5640869140625
48.61767578125 2.352783203125 -31.0657958984375
-36.99951171875 17.28662109375 38.9615478515625
-27.7001953125 35.582763671875 -33.16259765625
-51.59033203125 45.1339111328125 -19.507568359375
36.179443359375 -1.8134765625 -15.3292236328125
-11.97607421875 21.735107421875 10.549072265625
-20.461669921875 20.4759521484375 14.40576171875
-5.049560546875 31.5604248046875 -21.9129638671875
-30.046142578125 23.74169921875 3.4971923828125
-43.97412109375 24.7750244140625 2.150146484375
18.200927734375 5.220458984375 -25.1951904296875
-36.75634765625 21.742431640625 9.6776123046875
-43.833251953125 29.1031494140625 -13.321533203125
-9.61767578125 33.361572265625 -28.0604248046875
-7.72119140625 27.9234619140625 -11.749267578125
-16.035400390625 25.272705078125 -1.7904052734375
35.23486328125 15.6219482421875 -54.7071533203125
-37.140625 28.2962646484375 -11.921142578125
19.609375 4.1180419921875 -25.24365234375
-8.051025390625 26.6793212890625 3.363525390625
-25.345703125 34.7945556640625 -31.9742431640625
-1.4296875 28.080810546875 -14.71630859375
-15.0185546875 32.69580078125 -26.1654052734375
-22.11328125 29.92529296875 -16.7864990234375
-27.66259765625 28.0487060546875 -10.468994140625
-43.27294921875 27.64501953125 -30.7392578125
-33.7548828125 16.1578369140625 39.6243896484375
-32.922607421875 32.237060546875 18.25
-4.495361328125 26.244384765625 -5.0263671875
-10.07275390625 37.6292724609375 -36.6761474609375
-14.337158203125 31.99755859375 -33.1341552734375
-35.373046875 15.8841552734375 42.42578125
67.030517578125 4.608642578125 -10.029541015625
-46.10498046875 24.75146484375 0.7852783203125
75.1025390625 7.5089111328125 -39.807861328125
15.67626953125 7.7177734375 -23.1380615234375
-38.69921875 22.6865234375 6.5260009765625
25.354736328125 3.2728271484375 -27.8218994140625
-27.964599609375 14.8037109375 39.2008056640625
-34.959228515625 31.810302734375 19.05078125
-10.376708984375 23.296875 18.97607421875
39.102294921875 4.017822265625 -34.533447265625
-19.492431640625 27.6864013671875 -10.3302001953125
75.22607421875 -0.08447265625 -30.47314453125
39.114013671875 3.438232421875 -30.4412841796875
28.623291015625 -4.57373046875 0.6756591796875
-13.544921875 21.240234375 12.5916748046875
-26.9873046875 25.149169921875 -1.1409912109375
-5.135986328125 32.15380859375 -25.3980712890625
-13.01318359375 20.9664306640625 8.574462890625
29.56298828125 15.1728515625 -48.1309814453125
32.03662109375 0.3470458984375 -21.1661376953125
33.722412109375 2.4166259765625 -25.8497314453125
0.206787109375 26.252685546875 -13.421142578125
-39.84130859375 3.278564453125 20.0880126953125
32.335693359375 4.5347900390625 -33.96875
-8.777099609375 25.4180908203125 17.512451171875
-30.89501953125 14.8343505859375 40.6947021484375
-21.99560546875 31.2205810546875 -18.7227783203125
7.6337890625 16.84033203125 -16.36376953125
-6.47802734375 50.3138427734375 -36.76953125
-18.6826171875 25.84619140625 -3.7012939453125
3.90869140625 25.3360595703125 -25.395263671875
35.82275390625 4.90966796875 -34.5989990234375
55.699951171875 -0.17333984375 -22.5465087890625
-37.837158203125 2.035888671875 21.96435546875
-19.134765625 29.1495361328125 -36.60400390625
-12.22216796875 25.069580078125 -0.712890625
31.9521484375 12.6328125 -45.2540283203125
-15.856201171875 28.3985595703125 -10.666748046875
-27.73388671875 33.885009765625 -28.5328369140625
76.282958984375 6.401123046875 -37.080322265625
45.54248046875 1.439453125 -25.5797119140625
12.640625 13.0283203125 -26.1494140625
-34.56787109375 27.043701171875 26.7947998046875
-41.271484375 20.5123291015625 35.14892578125
2.15185546875 27.7122802734375 -25.619140625
-24.02978515625 28.9093017578125 -12.510498046875
-40.347412109375 25.702392578125 -2.405029296875
56.489013671875 -0.00048828125 -7.808349609375
-32.892333984375 24.9007568359375 1.483642578125
-35.80419921875 20.601806640625 34.9552001953125
57.8671875 14.635498046875 -48.59228515625
52.552001953125 -2.748779296875 -19.8482666015625
34.10791015625 2.85693359375 -29.4764404296875
-15.020263671875 26.5487060546875 -7.3531494140625
-35.774169921875 22.0357666015625 33.555419921875
34.5205078125 -1.1368408203125 -15.5848388671875
-36.48779296875 -0.0421142578125 33.0386962890625
-13.4609375 27.127685546875 -8.616455078125
52.428955078125 20.59521484375 -70.1883544921875
-29.295166015625 28.25146484375 19.411376953125
-18.154541015625 27.25341796875 -6.837646484375
37.096923828125 12.0721435546875 -38.682373046875
-8.852294921875 22.55810546875 10.98779296875
36.47412109375 -1.6651611328125 -11.8375244140625
56.010009765625 1.298583984375 -27.93115234375
50.687744140625 0.000732421875 -22.1553955078125
66.91162109375 8.734375 -39.5697021484375
16.39599609375 5.1527099609375 -11.3861083984375
-43.085205078125 23.083984375 7.0599365234375
16.36279296875 8.83642578125 -29.76025390625
51.932861328125 0.4332275390625 -29.1865234375
-10.554443359375 35.79052734375 -32.4676513671875
67.371337890625 9.87060546875 -47.7464599609375
53.948486328125 10.1622314453125 -40.1292724609375
57.402099609375 19.0340576171875 -69.689208984375
-21.11962890625 25.400634765625 -2.1005859375
37.740478515625 1.723388671875 -25.80078125
-27.8193359375 27.4090576171875 21.671875
17.762939453125 8.0469970703125 -32.283447265625
-17.462158203125 25.9635009765625 -2.4093017578125
60.88525390625 -3.5362548828125 -14.484375
54.203125 18.8677978515625 -67.88232421875
-21.529541015625 29.2447509765625 -15.35595703125
-43.13134765625 28.752197265625 -34.7957763671875
-26.40478515625 24.44775390625 1.503173828125
-36.167236328125 22.703125 8.31298828125
36.671142578125 17.1866455078125 -59.0972900390625
-8.89111328125 24.851318359375 4.4539794921875
26.780517578125 -1.729248046875 -12.05615234375
-18.322265625 30.6964111328125 -29.7391357421875
54.859619140625 -1.463134765625 -11.47119140625
34.63916015625 -3.062744140625 -4.6766357421875
28.457275390625 1.6614990234375 -9.12744140625
-25.9638671875 26.7415771484375 23.0906982421875
-37.47607421875 22.0758056640625 33.4791259765625
5.1689453125 23.24658203125 -24.4400634765625
-24.003662109375 30.7176513671875 -18.7459716796875
59.92431640625 -2.409423828125 -11.7135009765625
76.319580078125 -0.3782958984375 -28.0048828125
67.81884765625 11.3507080078125 -56.8685302734375
78.2685546875 -3.1031494140625 -21.0714111328125
-7.783447265625 25.9666748046875 -4.3392333984375
66.79296875 1.7222900390625 -33.8739013671875
75.24755859375 -3.743408203125 -17.3077392578125
19.408935546875 5.452392578125 -28.751708984375
-22.133056640625 20.5791015625 11.8482666015625
-15.91455078125 28.17529296875 -36.570068359375
46.09765625 -1.541259765625 -12.4083251953125
-30.538330078125 16.6494140625 38.076904296875
-39.465576171875 18.5823974609375 37.9005126953125
-29.777587890625 22.450927734375 11.986328125
-12.161865234375 39.408447265625 -40.2244873046875
46.96923828125 -1.70703125 -16.1942138671875
-30.500732421875 29.6090087890625 18.3275146484375
-27.188720703125 29.6575927734375 -14.9464111328125
-32.532958984375 28.6939697265625 -11.3021240234375
-0.1240234375 25.6148681640625 -9.6007080078125
11.984375 9.1717529296875 -11.287109375
-10.23876953125 25.597900390625 -1.9342041015625
65.09716796875 -3.9178466796875 -15.272216796875
0.447265625 27.2608642578125 -16.506103515625
36.63232421875 1.7354736328125 -9.0220947265625
51.70654296875 -1.2364501953125 -8.2423095703125
-32.576416015625 27.1502685546875 -7.241455078125
3.980712890625 22.5362548828125 -17.783203125
37.2294921875 5.41015625 -10.52197265625
-38.3642578125 6.7933349609375 15.6148681640625
-13.46533203125 23.8828125 21.60693359375
57.46240234375 -3.4259033203125 -14.350341796875
-43.7109375 17.8443603515625 13.2342529296875
71.50732421875 -2.6939697265625 -21.637451171875
-34.481201171875 25.110595703125 29.527587890625
-21.9326171875 32.9683837890625 -25.8333740234375
-8.901123046875 38.048828125 -35.415771484375
-14.19873046875 28.573974609375 -11.434814453125
-16.418701171875 29.9368896484375 -30.70361328125
-19.99951171875 19.01318359375 6.4820556640625
58.967041015625 -3.50439453125 -13.4644775390625
-8.8876953125 29.4576416015625 -14.2034912109375
37.96337890625 3.6104736328125 -32.9354248046875
-18.331787109375 15.5538330078125 10.8067626953125
-4.37548828125 30.322509765625 -19.9378662109375
5.8203125 17.1510009765625 -8.8233642578125
-24.9833984375 14.4979248046875 39.3553466796875
6.377685546875 21.7344970703125 -28.5499267578125
-4.806640625 30.1903076171875 -17.0169677734375
-5.95654296875 27.951416015625 12.334716796875
60.102783203125 -2.7083740234375 -17.7991943359375
53.004150390625 -1.8895263671875 -11.114501953125
-20.087890625 16.2362060546875 3.6817626953125
66.964111328125 4.1444091796875 -36.425048828125
-14.983154296875 32.655517578125 -28.2626953125
35.745361328125 14.5765380859375 -51.5401611328125
-28.089599609375 13.6907958984375 40.5303955078125
-38.73388671875 27.82080078125 -11.0843505859375
25.230712890625 4.5828857421875 -34.499755859375
-12.208740234375 24.9276123046875 0.96337890625
64.3388671875 15.8289794921875 -62.8697509765625
-32.46435546875 14.481689453125 41.07568359375
52.189208984375 0.7470703125 -25.34130859375
14.633056640625 11.482666015625 -30.0994873046875
5.189453125 20.650146484375 -16.49462890625
55.27978515625 14.597412109375 -55.6217041015625
69.859375 1.1265869140625 -32.3309326171875
-26.7861328125 26.1243896484375 -4.6314697265625
-31.244873046875 26.933349609375 -6.2879638671875
7.349365234375 18.424560546875 -19.5655517578125
31.020751953125 10.2396240234375 -37.470947265625
-12.20068359375 25.0655517578125 -2.362548828125
13.6884765625 9.212890625 -17.99267578125
-38.406982421875 17.78125 39.6630859375
42.9140625 0.9180908203125 -25.6422119140625
0.811767578125 27.75634765625 -20.3175048828125
3.8369140625 23.3614501953125 -20.02197265625
23.799072265625 2.8150634765625 -24.260009765625
50.53857421875 12.9105224609375 -44.6968994140625
8.340576171875 14.8206787109375 -8.2152099609375
-19.551513671875 18.9625244140625 4.8778076171875
26.585693359375 -0.177001953125 -17.09912109375
22.61865234375 5.6810302734375 -32.96484375
77.967529296875 5.341552734375 -10.6455078125
-14.23974609375 24.7918701171875 -1.6026611328125
25.968994140625 1.6207275390625 -23.048583984375
27.482666015625 0.14599609375 -4.9688720703125
-34.435791015625 23.3369140625 32.221435546875
31.660400390625 -3.8291015625 -3.5445556640625
56.0185546875 15.5054931640625 -58.638916015625
8.19384765625 18.5714111328125 -23.2144775390625
-6.100341796875 28.1734619140625 -11.7000732421875
13.044677734375 10.52294921875 -19.520751953125
-11.79296875 29.349853515625 -16.030029296875
58.22900390625 2.9462890625 -33.643798828125
-22.514892578125 21.823486328125 17.37646484375
33.897705078125 4.544921875 -33.4605712890625
-39.31689453125 1.4263916015625 23.9752197265625
34.25634765625 -0.21240234375 -9.9434814453125
-36.74365234375 18.62158203125 13.0538330078125
78.694580078125 12.12744140625 -18.2940673828125
9.475341796875 13.7288818359375 -14.3865966796875
23.290283203125 0.822021484375 -18.7156982421875
21.068603515625 2.467041015625 -22.38916015625
-15.474365234375 24.5738525390625 0.84423828125
35.806640625 1.2738037109375 -22.688720703125
-4.513427734375 28.7501220703125 -14.6258544921875
10.104248046875 12.54150390625 -12.8934326171875
54.419677734375 -1.5355224609375 -8.3955078125
-33.229248046875 30.0948486328125 21.876708984375
37.726806640625 13.427978515625 -41.390869140625
-27.360107421875 25.7491455078125 19.8616943359375
52.19970703125 12.8291015625 -48.1527099609375
-21.77099609375 21.997314453125 21.8927001953125
-5.999755859375 30.21728515625 8.254638671875
38.3115234375 16.15576171875 -52.5762939453125
31.25634765625 14.9195556640625 -50.366455078125
13.961181640625 10.31494140625 -23.83544921875
33.810791015625 -1.706787109375 -13.9483642578125
-35.83056640625 2.1802978515625 22.8367919921875
73.76953125 -2.0355224609375 -24.7081298828125
64.056640625 2.387939453125 -34.2447509765625
14.125 9.293212890625 -21.188232421875
54.958984375 -0.0108642578125 -24.5794677734375
47.6240234375 0.0093994140625 -22.7586669921875
38.873046875 2.287353515625 -28.606689453125
52.728759765625 11.090576171875 -43.6505126953125
-31.08935546875 29.90869140625 -17.340087890625
-6.422119140625 28.0399169921875 14.356689453125
-42.904052734375 18.83251953125 36.50732421875
-9.72265625 22.482421875 15.4522705078125
15.44921875 9.1737060546875 -27.0914306640625
52.135009765625 -2.7958984375 -17.9317626953125
-21.944580078125 29.03955078125 -11.5731201171875
11.06640625 12.09130859375 -16.766357421875
59.546630859375 0.7152099609375 -28.7060546875
28.87646484375 3.6396484375 -30.03662109375
57.998046875 0.171875 -24.797607421875
15.37451171875 6.956298828125 -19.7928466796875
11.80224609375 10.228515625 -13.517333984375
-10.058837890625 22.2354736328125 13.839111328125
-19.060791015625 19.940185546875 13.3326416015625
29.850830078125 13.0281982421875 -43.4986572265625
-36.52783203125 3.228271484375 20.2559814453125
44.7802734375 1.7015380859375 -28.046630859375
21.39453125 5.966064453125 -34.320556640625
-14.365234375 30.3599853515625 -33.1837158203125
43.716064453125 0.2362060546875 -21.9091796875
15.69873046875 10.218505859375 -30.5340576171875
41.76318359375 0.332275390625 -21.6741943359375
-18.33154296875 28.0267333984375 -8.2421875
13.47900390625 13.303955078125 -31.4168701171875
52.043212890625 -2.551025390625 -15.28564453125
-30.986328125 31.2802734375 -21.8336181640625
76.337158203125 -1.89990234375 -23.0211181640625
-35.4306640625 29.99169921875 -15.5172119140625
9.921142578125 16.2032470703125 -23.80029296875
13.417724609375 7.9879150390625 -10.5584716796875
-3.64013671875 28.43701171875 -12.0177001953125
26.64990234375 5.21337890625 -31.7646484375
15.113525390625 5.8345947265625 -14.3896484375
53.7255859375 14.0177001953125 -53.1727294921875
55.00537109375 12.562255859375 -49.060546875
-37.605712890625 35.4058837890625 10.825927734375
78.70556640625 13.361572265625 -22.892333984375
14.043212890625 7.1119384765625 -13.5299072265625
46.740234375 1.5072021484375 -27.86083984375
25.884521484375 -0.96923828125 -13.4471435546875
40.002197265625 21.8760986328125 -61.38134765625
34.474609375 -0.4989013671875 -18.853515625
73.832275390625 -3.9320068359375 -19.6568603515625
-25.494384765625 25.9849853515625 -2.8682861328125
52.9013671875 8.672607421875 -36.6527099609375
70.203857421875 8.2080078125 -45.8853759765625
79.755615234375 12.251220703125 -15.5072021484375
66.13623046875 9.8736572265625 -44.6737060546875
-6.783935546875 35.9046630859375 -29.2760009765625
30.521728515625 3.2127685546875 -29.8172607421875
27.3251953125 3.3067626953125 -28.087158203125
33.581298828125 -0.9503173828125 -8.664794921875
49.386962890625 -2.58349609375 -15.841552734375
31.48095703125 -2.571533203125 -5.7442626953125
58.139404296875 -2.1331787109375 -18.060791015625
-9.722412109375 29.5870361328125 -17.20166015625
2.047607421875 25.760498046875 -18.164794921875
36.053466796875 2.7667236328125 -28.1329345703125
73.6064453125 8.15478515625 -43.6324462890625
47.73046875 3.2896728515625 -32.144775390625
69.430419921875 7.0076904296875 -40.505615234375
-15.3193359375 38.1712646484375 -39.728271484375
9.80419921875 16.9033203125 -25.5916748046875
24.272705078125 1.2130126953125 -11.6546630859375
10.7763671875 16.3792724609375 -28.6644287109375
55.137939453125 17.210693359375 -64.465576171875
48.217529296875 1.9158935546875 -27.4613037109375
23.770263671875 3.23486328125 -27.1314697265625
50.361328125 15.1688232421875 -50.941162109375
37.36767578125 4.73193359375 -11.946044921875
43.279541015625 0.7923583984375 -23.63037109375
28.11865234375 0.030029296875 -17.4351806640625
29.2841796875 0.265869140625 -19.37158203125
78.94580078125 0.41064453125 -30.70849609375
-7.198974609375 29.484375 -14.9385986328125
30.73779296875 -1.3363037109375 -19.309814453125
60.245849609375 2.0911865234375 -33.28173828125
68.6201171875 9.732421875 -50.780517578125
42.0087890625 2.4254150390625 -30.7760009765625
49.786376953125 1.822998046875 -10.159423828125
19.2607421875 0.876953125 -13.8719482421875
-23.528564453125 24.8797607421875 -1.31396484375
68.17333984375 7.869384765625 -40.03857421875
25.0361328125 -0.40966796875 -15.581298828125
-36.931884765625 29.1414794921875 -13.755615234375
-34.3017578125 15.0198974609375 43.36865234375
-38.948974609375 23.5986328125 5.1168212890625
-36.011474609375 18.2904052734375 37.259033203125
54.706298828125 10.616455078125 -41.7806396484375
57.482666015625 -3.30712890625 -15.9154052734375
42.64599609375 -0.55908203125 -20.240966796875
-40.07177734375 19.8494873046875 14.7548828125
13.63134765625 12.3057861328125 -28.3414306640625
56.476318359375 0.7294921875 -11.443603515625
-5.342041015625 26.373046875 -6.3388671875
57.02197265625 1.69384765625 -7.34716796875
49.08251953125 1.1168212890625 -26.42822265625
-16.107421875 24.349365234375 23.465576171875
-39.056884765625 34.281982421875 14.7178955078125
-7.247802734375 24.954833984375 4.5252685546875
75.255859375 -2.02099609375 -24.2215576171875
59.542724609375 -0.076416015625 -24.242431640625
-10.980712890625 37.923095703125 -38.0850830078125
39.032470703125 15.0677490234375 -40.096923828125
44.737060546875 -2.227783203125 -15.8404541015625
23.56884765625 4.598876953125 -30.246826171875
4.0771484375 21.96435546875 -16.0167236328125
-5.89892578125 45.474609375 -32.1915283203125
-34.44287109375 34.861328125 12.332275390625
-41.8154296875 30.1058349609375 22.313232421875
26.552001953125 3.02880859375 -26.09716796875
17.798828125 2.453857421875 -15.8798828125
67.607177734375 2.823486328125 -10.0076904296875
-25.388916015625 21.669921875 15.2069091796875
23.896240234375 5.316162109375 -33.97998046875
69.17919921875 -1.387451171875 -24.4163818359375
77.12353515625 -0.0838623046875 -31.1063232421875
30.0498046875 -3.57421875 -2.5289306640625
-1.249755859375 29.49951171875 -19.983642578125
63.72021484375 0.9130859375 -28.841796875
-35.83984375 31.640869140625 -20.947265625
-37.150390625 23.26416015625 5.2684326171875
7.44677734375 20.392822265625 -26.1221923828125
-36.753173828125 24.0797119140625 31.2078857421875
-26.44580078125 30.155029296875 -16.6810302734375
52.07763671875 -3.0592041015625 -13.6279296875
14.57177734375 6.2991943359375 -11.338134765625
67.483642578125 0.760986328125 -11.126708984375
-12.6064453125 33.410400390625 -28.270263671875
-3.91650390625 50.2923583984375 -33.130126953125
-29.255859375 13.369384765625 41.727294921875
27.518798828125 1.73046875 -22.9674072265625
57.898193359375 13.1468505859375 -41.79296875
-37.3291015625 32.622802734375 18.40380859375
-11.66552734375 22.261474609375 8.8426513671875
74.104736328125 -2.3450927734375 -21.92138671875
37.095947265625 3.747314453125 -9.796142578125
-41.29638671875 29.8287353515625 -31.94140625
31.2900390625 11.320068359375 -40.5343017578125
-34.194091796875 31.9691162109375 -21.7579345703125
-6.0302734375 38.2252197265625 -29.3145751953125
-36.8369140625 35.798095703125 9.5372314453125
56.528564453125 -0.1380615234375 -25.6055908203125
72.545654296875 6.615966796875 -40.9493408203125
58.496337890625 -1.6617431640625 -19.6884765625
-24.25 23.496826171875 21.1536865234375
-18.43603515625 17.5716552734375 11.2906494140625
50.019287109375 -0.96044921875 -20.4263916015625
19.296142578125 0.523193359375 -11.8277587890625
54.216796875 -0.4482421875 -22.9744873046875
-12.077880859375 32.8363037109375 -25.581298828125
-5.789794921875 29.1864013671875 10.0855712890625
8.52880859375 19.39697265625 -29.5113525390625
72.347900390625 -4.3211669921875 -18.5220947265625
37.302734375 14.4166259765625 -48.1368408203125
57.442138671875 -3.54443359375 -12.78662109375
51.52734375 4.244140625 -34.85595703125
40.439208984375 2.166259765625 -28.0732421875
-27.56689453125 23.9031982421875 5.2591552734375
43.111083984375 2.6800537109375 -29.5780029296875
32.83935546875 6.37060546875 -35.576904296875
71.7880859375 -0.848388671875 -25.5164794921875
75.31591796875 -3.6361083984375 -20.3878173828125
-44.072265625 20.5428466796875 11.145751953125
-16.156982421875 15.4808349609375 3.2144775390625
73.334228515625 -0.7845458984375 -27.3504638671875
55.03857421875 -0.0933837890625 -10.58837890625
-32.836669921875 29.958251953125 -15.77294921875
-19.657958984375 32.52734375 -27.7010498046875
-39.164306640625 17.44775390625 41.2972412109375
70.591064453125 7.772705078125 -44.16064453125
46.197021484375 3.1810302734375 -32.22998046875
13.265869140625 9.1611328125 -16.00634765625
-7.3134765625 30.2562255859375 -19.6934814453125
-5.31884765625 26.369384765625 -7.9903564453125
-8.821533203125 31.47998046875 -22.9775390625
-7.271728515625 26.27978515625 14.5841064453125
32.23388671875 -1.119873046875 -18.083984375
-31.38134765625 29.218017578125 -12.174072265625
59.214599609375 17.8753662109375 -56.2205810546875
-37.982177734375 33.5003662109375 15.7269287109375
-21.56103515625 27.342041015625 -7.052978515625
67.65966796875 -1.804931640625 -22.11181640625
57.187744140625 14.2281494140625 -50.9434814453125
-36.568359375 29.7784423828125 22.1827392578125
-37.31396484375 26.164306640625 28.029541015625
-2.668701171875 52.7415771484375 -35.7596435546875
65.68701171875 12.998779296875 -56.7183837890625
-42.10205078125 32.7559814453125 16.8978271484375
-12.5205078125 24.3953857421875 2.6876220703125
-39.77197265625 28.941162109375 23.400146484375
-28.03076171875 26.04443359375 -5.521240234375
35.9921875 -0.1962890625 -19.60107421875
-15.015625 38.7723388671875 -41.1309814453125
69.588134765625 -3.378173828125 -17.0076904296875
-35.980224609375 27.5556640625 25.8355712890625
65.2265625 14.3011474609375 -59.9359130859375
54.025390625 2.908935546875 -34.729736328125
-6.81982421875 36.244140625 -32.315673828125
67.765869140625 9.0341796875 -44.322998046875
-43.236572265625 26.8394775390625 -4.8662109375
-36.907470703125 -1.406005859375 33.58837890625
-26.7705078125 33.444091796875 -27.1002197265625
-11.574951171875 34.5792236328125 -30.5718994140625
-29.507568359375 24.99658203125 0.4068603515625
60.996826171875 1.89111328125 -31.6153564453125
-39.541015625 23.4227294921875 31.582275390625
-46.162353515625 26.5093994140625 -4.1337890625
70.435546875 -3.9752197265625 -18.3486328125
-32.7216796875 31.450927734375 19.6253662109375
33.37158203125 -2.272705078125 -6.075927734375
-23.58837890625 32.6793212890625 -24.6112060546875
-38.0205078125 30.3736572265625 22.0335693359375
-6.211181640625 23.749755859375 10.1146240234375
-36.79736328125 35.571533203125 12.106689453125
-13.1650390625 34.0626220703125 -30.14111328125
-34.32763671875 30.7784423828125 -18.56103515625
57.554443359375 1.68701171875 -30.6456298828125
61.010498046875 2.4000244140625 -34.8653564453125
53.0517578125 11.963623046875 -45.8529052734375
-21.4970703125 25.29736328125 -3.76220703125
27.873046875 5.1197509765625 -32.84716796875
60.109375 23.556884765625 -73.281494140625
77.867919921875 -1.5186767578125 -25.69287109375
-20.82275390625 32.110107421875 -28.9542236328125
-9.37939453125 27.7142333984375 -9.7318115234375
51.334228515625 18.8397216796875 -64.0491943359375
39.16943359375 18.998779296875 -57.7708740234375
-43.416259765625 29.2364501953125 -16.27880859375
33.5859375 16.0037841796875 -55.7596435546875
-14.43359375 22.71923828125 21.7265625
55.591064453125 16.37158203125 -62.1563720703125
19.20703125 6.794677734375 -32.2802734375
-16.216552734375 32.319580078125 -25.31982421875
20.50830078125 0.8382568359375 -17.327880859375
71.091064453125 -1.987548828125 -22.9847412109375
-23.291259765625 31.4024658203125 -21.7900390625
-18.613525390625 21.3675537109375 15.5889892578125
-25.304443359375 23.03271484375 12.946044921875
70.942138671875 2.4346923828125 -35.6905517578125
-36.1142578125 4.7076416015625 17.653076171875
-19.91015625 31.5687255859375 -22.02978515625
-6.7822265625 31.7576904296875 -22.066162109375
47.248046875 -0.39697265625 -20.35400390625
51.5126953125 -2.12890625 -11.1600341796875
-35.862060546875 26.5765380859375 -4.8162841796875
53.84326171875 12.247802734375 -47.866943359375
-21.5615234375 28.4073486328125 -31.5498046875
-14.433837890625 19.9300537109375 9.4866943359375
-7.626953125 31.8541259765625 -23.818603515625
-29.353515625 29.753173828125 -15.097900390625
-16.05224609375 26.858154296875 -33.3369140625
-39.55419921875 32.8726806640625 18.262451171875
-3.71484375 26.5849609375 -6.6966552734375
-38.966796875 30.848876953125 -34.137939453125
-26.0341796875 28.3734130859375 -11.2711181640625
-8.831298828125 49.1788330078125 -37.10498046875
66.968994140625 11.5128173828125 -54.59375
-10.815673828125 40.728271484375 -2.575927734375
40.089599609375 22.07421875 -67.1842041015625
64.2412109375 -2.4129638671875 -18.35546875
-38.769287109375 31.236572265625 -19.3546142578125
-13.39501953125 28.80810546875 -12.6826171875
-11.43505859375 39.60546875 -0.723388671875
-17.374267578125 29.5775146484375 -14.329833984375
-34.393798828125 31.0771484375 -20.316650390625
-40.7099609375 23.787109375 4.9915771484375
50.036865234375 0.2371826171875 -11.3663330078125
-43.3525390625 18.787841796875 41.8035888671875
-39.00830078125 25.4530029296875 -0.1983642578125
-38.41943359375 29.8505859375 -14.4061279296875
40.523681640625 -2.860595703125 -11.713623046875
-41.25244140625 32.770751953125 18.1964111328125
-28.94140625 31.708740234375 -22.6378173828125
-14.524658203125 20.22216796875 11.068603515625
-42.490966796875 32.5443115234375 19.0098876953125
-8.447265625 35.87841796875 -31.9205322265625
-35.880859375 25.006103515625 -1.1968994140625
-20.159423828125 28.696533203125 -11.399658203125
31.00439453125 13.6175537109375 -46.393310546875
13.94775390625 7.814208984375 -16.47705078125
-21.83837890625 32.5177001953125 -24.0408935546875
6.155517578125 20.225830078125 -20.02685546875
-33.646484375 26.2645263671875 -3.7979736328125
-21.52734375 27.30078125 -9.1268310546875
-46.338623046875 28.69140625 -9.593994140625
-5.826171875 31.208251953125 9.76025390625
-41.961181640625 26.9158935546875 -5.6461181640625
8.5927734375 18.8372802734375 -26.1065673828125
0.974609375 24.427978515625 -10.1279296875
-1.145263671875 28.9111328125 -18.1903076171875
-16.06396484375 14.995361328125 5.7410888671875
75.9365234375 1.2529296875 -33.8507080078125
-18.5400390625 16.6644287109375 4.1004638671875
-1.830810546875 25.6278076171875 -6.8182373046875
-26.01171875 30.2147216796875 -18.7691650390625
0.65771484375 23.758056640625 -6.7294921875
-31.334716796875 25.5146484375 -1.032958984375
-12.49365234375 35.0185546875 -33.6961669921875
-9.122802734375 28.5830078125 -12.7952880859375
54.704833984375 -2.209716796875 -17.115966796875
77.879638671875 0.540771484375 -33.525634765625
-20.710205078125 28.671630859375 -37.4453125
66.96484375 10.3466796875 -49.098876953125
-34.871826171875 24.29736328125 3.5567626953125
-42.230224609375 25.4139404296875 29.5660400390625
-35.84716796875 32.2237548828125 -38.070068359375
-25.06103515625 33.507568359375 -27.4254150390625
-10.74658203125 25.7989501953125 1.304443359375
58.808837890625 21.0360107421875 -72.622314453125
-23.063720703125 20.5889892578125 20.3961181640625
53.62060546875 2.7274169921875 -32.7535400390625
-19.206298828125 32.806884765625 -35.7701416015625
11.619873046875 11.224365234375 -14.939697265625
-26.0546875 32.1522216796875 -22.123291015625
-3.793701171875 27.0926513671875 -9.279052734375
52.47314453125 19.8243408203125 -67.502685546875
-38.759521484375 -0.650634765625 32.62158203125
51.306640625 -0.6617431640625 -11.0955810546875
-6.088134765625 27.0345458984375 6.7080078125
67.317138671875 -3.53173828125 -15.592529296875
27.48876953125 -1.096923828125 -14.490234375
-32.93994140625 25.187255859375 -1.8973388671875
-45.589599609375 22.8544921875 7.7972412109375
15.427490234375 6.55615234375 -18.1068115234375
5.881103515625 19.25 -15.3448486328125
-33.630615234375 27.94873046875 -9.5469970703125
28.076171875 1.4443359375 -7.5389404296875
-2.0791015625 31.7322998046875 -25.943359375
-34.617431640625 26.797607421875 -7.294677734375
-8.572509765625 30.1810302734375 -18.921875
-13.30322265625 28.294677734375 -10.07763671875
33.900390625 13.34033203125 -48.9249267578125
67.3251953125 8.9197998046875 -41.560546875
-23.547119140625 24.8837890625 0.342041015625
-18.598876953125 25.376220703125 -0.7115478515625
-2.475830078125 29.1690673828125 -17.0792236328125
5.009521484375 19.1766357421875 -10.898193359375
-6.878173828125 48.1253662109375 -35.43505859375
-8.820068359375 24.3857421875 7.4132080078125
-32.497314453125 23.333740234375 5.5048828125
-28.473388671875 24.1768798828125 3.922607421875
-42.859130859375 23.8717041015625 3.19775390625
-11.357177734375 27.145263671875 -8.9102783203125
-14.12939453125 38.5537109375 -38.8804931640625
-6.93115234375 28.015625 -9.6436767578125
19.693603515625 6.4730224609375 -33.7679443359375
38.058349609375 14.47607421875 -46.4771728515625
69.220947265625 -2.62451171875 -20.6593017578125
56.55029296875 12.1331787109375 -45.625
-16.442626953125 20.9622802734375 16.98388671875
16.560791015625 7.5831298828125 -26.648681640625
-27.31103515625 22.5802001953125 14.97314453125
-3.849609375 52.2742919921875 -37.4698486328125
-14.167236328125 21.704833984375 20.2509765625
5.129638671875 23.67236328125 -27.8358154296875
37.3828125 13.3914794921875 -43.8248291015625
-22.28271484375 32.8250732421875 -29.6326904296875
-25.3525390625 32.915771484375 -26.0458984375
-1.635009765625 26.4976806640625 -4.907470703125
-17.063232421875 32.232666015625 -24.0924072265625
-13.72705078125 32.54833984375 -24.364013671875
41.05078125 3.667724609375 -31.54052734375
-10.02685546875 26.1844482421875 3.3406982421875
-19.88134765625 16.9150390625 6.83935546875
-36.54736328125 34.622314453125 13.527099609375
-9.75927734375 25.471923828125 -4.3621826171875
-20.17529296875 32.732177734375 -24.40087890625
37.49951171875 16.6519775390625 -56.0289306640625
32.717529296875 -5.7646484375 -0.7860107421875
54.030517578125 15.788330078125 -59.6929931640625
-35.77001953125 0.4779052734375 26.26171875
52.128662109375 13.649169921875 -49.9849853515625
73.297607421875 5.8868408203125 -37.5660400390625
-15.177978515625 28.385009765625 -31.529296875
-24.816650390625 32.3785400390625 -22.9364013671875
-39.596435546875 20.5806884765625 34.800537109375
30.244873046875 2.201416015625 -26.43701171875
38.9453125 17.294189453125 -53.2427978515625
12.94775390625 11.1048583984375 -20.8599853515625
79.74169921875 -2.08154296875 -23.889404296875
15.159912109375 8.177490234375 -21.6744384765625
-19.755126953125 22.5460205078125 16.173583984375
-10.04296875 24.2020263671875 8.6109619140625
-25.530517578125 22.4840087890625 8.078857421875
24.058837890625 1.097900390625 -20.6949462890625
-41.73583984375 21.31689453125 9.90234375
52.3798828125 10.292236328125 -40.6795654296875
-19.66943359375 14.4444580078125 7.670166015625
-22.855712890625 22.958740234375 21.7059326171875
39.638916015625 1.9617919921875 -25.3306884765625
33.30810546875 -0.358154296875 -20.1375732421875
-29.433349609375 33.783203125 -28.623291015625
-10.47314453125 37.33837890625 -33.661376953125
-26.515380859375 34.2259521484375 -29.801025390625
56.245361328125 10.1929931640625 -38.373779296875
-15.980712890625 20.8743896484375 14.9775390625
-34.796630859375 27.9276123046875 25.0096435546875
-8.59033203125 32.4383544921875 -25.2666015625
-22.18701171875 19.218505859375 10.8336181640625
9.756103515625 14.615234375 -18.19287109375
38.91455078125 17.7105712890625 -54.987060546875
-37.150146484375 16.240478515625 42.7239990234375
-14.020751953125 21.365234375 15.000244140625
-13.698486328125 21.6494140625 17.015625
-12.130615234375 22.042236328125 17.0338134765625
-18.31884765625 20.2481689453125 14.5482177734375
-14.618896484375 28.6917724609375 -13.9857177734375
23.13671875 -0.8681640625 -14.0380859375
-20.32568359375 18.4647216796875 11.0501708984375
62.075927734375 -4.12646484375 -13.8927001953125
