-48.356201171875 15.809814453125 38.3233642578125
-70.325439453125 40.6494140625 13.9278564453125
-64.932861328125 48.7550048828125 -8.2569580078125
-15.340576171875 53.5306396484375 -22.873291015625
-19.151123046875 24.682373046875 16.276123046875
-30.92919921875 27.2955322265625 0.873291015625
-46.89794921875 45.1729736328125 0.816650390625
42.53564453125 0.1158447265625 -8.0777587890625
-48.001708984375 47.379638671875 -6.6416015625
-55.61083984375 46.4613037109375 -4.926513671875
-64.137451171875 38.9884033203125 18.3934326171875
-33.689697265625 36.5609130859375 -12.7991943359375
30.76318359375 27.9716796875 -68.60107421875
-35.58935546875 19.4078369140625 35.112548828125
44.14599609375 8.5994873046875 -22.1722412109375
-20.80126953125 45.163330078125 -14.2476806640625
44.87451171875 19.5494384765625 -58.954345703125
35.510009765625 19.35400390625 -50.7730712890625
50.762451171875 13.87158203125 -17.742431640625
-39.455810546875 46.74560546875 -6.8421630859375
17.732666015625 4.179931640625 -10.2984619140625
-31.962646484375 33.1328125 -8.771728515625
50.687744140625 4.0054931640625 -7.04638671875
65.42138671875 25.9803466796875 -54.09326171875
34.7197265625 16.2010498046875 -38.1104736328125
29.59814453125 12.689453125 -36.602783203125
-49.186767578125 22.4195556640625 25.015625
-31.389892578125 47.1070556640625 -13.239990234375
33.8359375 14.1602783203125 -26.2958984375
35.072998046875 21.2264404296875 -39.44677734375
-54.873291015625 6.465576171875 40.1712646484375
-18.67626953125 26.125732421875 11.5096435546875
65.1484375 15.6708984375 -41.87158203125
49.573974609375 9.150390625 -17.206787109375
-42.701904296875 20.518310546875 31.5601806640625
38.803955078125 -2.375244140625 0.693115234375
27.154541015625 9.5618896484375 -23.9066162109375
57.931884765625 27.034912109375 -70.884033203125
-21.622802734375 13.1937255859375 31.8760986328125
-21.49462890625 27.3778076171875 -8.772216796875
38.869140625 29.9095458984375 -63.4140625
-42.542236328125 23.7108154296875 21.4952392578125
54.400146484375 15.3250732421875 -32.572998046875
42.569580078125 11.7342529296875 -30.11962890625
44.119140625 15.23193359375 -40.41015625
-32.219482421875 29.9088134765625 -36.9481201171875
49.80322265625 29.3035888671875 -73.469970703125
-55.596435546875 0.2021484375 45.0257568359375
59.278564453125 22.287841796875 -62.62255859375
-22.0 17.823974609375 29.3399658203125
58.8349609375 16.3909912109375 -48.1141357421875
34.80810546875 23.638671875 -61.873291015625
47.55810546875 -1.9859619140625 -2.972900390625
-14.31298828125 41.769775390625 -9.6817626953125
-28.457763671875 12.207763671875 30.4896240234375
-65.399658203125 20.7928466796875 31.0921630859375
-42.91796875 25.7969970703125 15.0201416015625
55.67626953125 31.96044921875 -74.45654296875
49.814697265625 12.362548828125 -27.190185546875
48.20703125 0.9896240234375 -10.526123046875
63.017578125 8.1397705078125 -25.4718017578125
-33.6875 28.0565185546875 -32.046630859375
-66.7080078125 15.610107421875 3.0218505859375
-61.13671875 5.240966796875 40.3494873046875
47.46875 21.8172607421875 -66.5496826171875
-28.063232421875 37.8187255859375 -15.77880859375
-20.317138671875 29.0560302734375 3.37646484375
-51.67431640625 42.48193359375 8.7305908203125
-28.421875 30.1092529296875 -11.4912109375
-10.8623046875 31.5611572265625 -0.220703125
-30.241943359375 26.61572265625 11.3631591796875
48.063720703125 19.01416015625 -53.15966796875
-58.712890625 16.090087890625 -2.2564697265625
-32.397705078125 53.04931640625 -22.206298828125
-41.181884765625 52.5020751953125 -20.853271484375
-18.51904296875 36.0008544921875 -11.167236328125
-13.48291015625 38.17919921875 -0.609619140625
34.8251953125 16.58154296875 -42.5250244140625
66.5732421875 19.3035888671875 -32.16845703125
35.681640625 13.719970703125 -20.612060546875
31.907470703125 11.442626953125 -8.158935546875
-28.284423828125 32.508544921875 -41.68115234375
-59.98388671875 14.0584716796875 39.64013671875
-56.064208984375 23.5772705078125 21.692626953125
-26.891357421875 24.786376953125 17.388916015625
-54.643310546875 44.294189453125 2.7235107421875
46.684814453125 9.581298828125 -25.8052978515625
-49.05322265625 20.4635009765625 -9.297607421875
63.26513671875 11.07080078125 -33.4505615234375
-25.790771484375 27.8612060546875 -2.21533203125
13.45556640625 -1.753662109375 6.217041015625
-14.380126953125 29.0572509765625 3.126708984375
23.369873046875 -3.0714111328125 3.6851806640625
-57.279052734375 19.45361328125 34.5003662109375
-43.34033203125 15.1436767578125 39.0208740234375
-17.16015625 51.607666015625 -18.56982421875
-13.956787109375 49.01611328125 -13.9122314453125
36.78759765625 23.4598388671875 -48.50439453125
-28.474365234375 17.72021484375 29.48779296875
-76.426025390625 46.5406494140625 -3.0460205078125
65.174560546875 21.30908203125 -52.3992919921875
13.08837890625 2.5782470703125 -5.2442626953125
35.322998046875 -1.2257080078125 -1.5367431640625
-68.95751953125 37.6177978515625 24.198486328125
-41.69189453125 24.3397216796875 -25.0076904296875
-40.8798828125 28.430908203125 6.3094482421875
-45.50244140625 21.164794921875 -18.4830322265625
31.13623046875 9.82666015625 -2.421630859375
-31.363037109375 24.164794921875 19.71533203125
-13.238037109375 44.4090576171875 -6.6314697265625
51.2783203125 18.6551513671875 -39.4217529296875
-14.29296875 54.8621826171875 -26.8056640625
-37.985107421875 25.7470703125 -26.288330078125
37.365234375 23.468505859375 -57.5655517578125
21.846435546875 4.259033203125 -10.1136474609375
-34.982421875 23.66162109375 21.5985107421875
50.49267578125 15.0648193359375 -31.372802734375
-26.92724609375 51.2166748046875 -16.3585205078125
-56.80859375 21.1175537109375 29.639892578125
-22.152099609375 22.33154296875 25.1263427734375
31.2724609375 -1.30029296875 -0.3270263671875
-54.546630859375 17.79931640625 -8.4599609375
-39.98388671875 48.5782470703125 -10.943603515625
-10.4375 53.206298828125 -20.5386962890625
49.990966796875 14.7349853515625 -23.701171875
-37.135009765625 26.7548828125 -30.4334716796875
-42.946044921875 50.1634521484375 -14.739501953125
-26.056640625 22.93603515625 23.2740478515625
-16.675048828125 42.99560546875 -12.6844482421875
39.200439453125 35.0496826171875 -71.1072998046875
-65.4990234375 14.0496826171875 8.96875
-7.871826171875 57.2476806640625 -27.856201171875
-34.619873046875 25.25537109375 16.945556640625
-55.499267578125 12.42431640625 39.8099365234375
-28.828125 29.48974609375 3.3896484375
66.362060546875 20.7698974609375 -44.97119140625
-55.306396484375 18.0582275390625 -2.500244140625
28.72265625 1.4266357421875 -7.2528076171875
61.228271484375 19.548583984375 -57.5452880859375
-67.564453125 40.121826171875 16.8670654296875
-22.6708984375 50.4677734375 -15.6270751953125
-35.146240234375 50.1126708984375 -14.851806640625
36.25732421875 21.0555419921875 -54.21630859375
50.982666015625 19.2821044921875 -50.5723876953125
31.420166015625 11.141357421875 -27.2498779296875
55.325439453125 28.3214111328125 -67.468505859375
-64.877685546875 38.0037841796875 22.0902099609375
-51.285400390625 23.73046875 20.65673828125
-51.926025390625 21.002197265625 -16.17822265625
-23.234375 24.984619140625 16.091064453125
-49.076904296875 27.731201171875 10.256591796875
38.89111328125 13.5323486328125 -23.806640625
48.24951171875 21.1611328125 -57.6534423828125
36.383056640625 28.75244140625 -69.9742431640625
16.45263671875 0.32763671875 -1.2718505859375
-20.900390625 37.6337890625 -16.735595703125
-13.796875 34.054443359375 0.0631103515625
67.308837890625 14.1722412109375 -31.937744140625
-38.2578125 25.456787109375 15.375
-55.431640625 26.2674560546875 14.626953125
-59.954345703125 18.086181640625 4.8018798828125
52.1865234375 9.2877197265625 -9.341064453125
-76.8828125 44.6689453125 3.5865478515625
-47.695068359375 18.871337890625 35.1778564453125
-25.219970703125 26.6630859375 -9.306884765625
49.68994140625 27.10693359375 -70.3343505859375
42.3125 18.1978759765625 -49.5728759765625
17.0419921875 -3.1058349609375 7.923095703125
-61.571533203125 43.515380859375 2.885009765625
-28.666259765625 21.832275390625 26.7152099609375
-26.125244140625 27.1878662109375 8.8338623046875
-66.181640625 42.129150390625 9.67236328125
-63.0625 19.582763671875 34.6014404296875
-62.443359375 14.7589111328125 2.7867431640625
46.392333984375 20.2357177734375 -63.3172607421875
27.70458984375 5.630126953125 -9.8651123046875
-63.931640625 23.3382568359375 23.638671875
46.1953125 -0.4183349609375 -7.5458984375
51.641845703125 19.250732421875 -46.0557861328125
-51.184326171875 17.6978759765625 36.8402099609375
30.791015625 8.985107421875 -16.1983642578125
-20.04296875 19.2662353515625 32.25244140625
-27.173583984375 44.86328125 -14.2354736328125
-44.340087890625 27.833984375 7.885009765625
65.443359375 24.488525390625 -58.858154296875
-48.476318359375 1.9354248046875 42.234375
57.395751953125 15.519287109375 -43.0216064453125
34.406005859375 19.008056640625 -24.76123046875
-34.46875 21.5123291015625 27.9681396484375
33.2509765625 1.1951904296875 -7.7861328125
-43.991455078125 6.12841796875 40.4462890625
-36.453125 51.545166015625 -17.948486328125
-52.178955078125 47.2691650390625 -7.0035400390625
53.40087890625 24.2928466796875 -55.2843017578125
-56.087158203125 2.1641845703125 42.00048828125
46.26416015625 15.8040771484375 -43.9752197265625
-51.45361328125 7.6800537109375 39.9957275390625
-55.242431640625 45.7872314453125 -1.34814453125
44.9375 12.0311279296875 -33.424072265625
37.516357421875 26.5565185546875 -55.591796875
-80.75732421875 47.0496826171875 -2.91552734375
51.672119140625 1.726318359375 -9.7950439453125
34.8701171875 17.862548828125 -32.2352294921875
34.21875 14.7999267578125 -29.9696044921875
19.579345703125 0.8497314453125 -2.9808349609375
-51.14453125 21.4761962890625 28.18408203125
-61.517578125 42.3070068359375 8.935302734375
21.242431640625 2.036865234375 -7.2598876953125
-51.39990234375 44.792724609375 0.864501953125
65.96484375 20.5513916015625 -37.5771484375
57.857421875 25.212646484375 -67.8116455078125
-15.38330078125 25.41162109375 12.6942138671875
-45.6044921875 22.5650634765625 24.69384765625
-32.999755859375 28.9649658203125 4.604736328125
54.043212890625 32.85302734375 -78.05615234375
-18.5146484375 53.5926513671875 -24.7686767578125
-22.205078125 30.5853271484375 -10.0848388671875
30.68994140625 -2.721923828125 3.8485107421875
-27.6044921875 24.2586669921875 -7.4970703125
-9.556640625 28.8338623046875 1.5816650390625
-39.177490234375 23.036865234375 22.814453125
27.278076171875 -0.056396484375 -3.8778076171875
-44.48681640625 47.4312744140625 -6.8419189453125
-72.207275390625 40.108154296875 16.830078125
-69.29638671875 45.4500732421875 -0.3897705078125
-35.5185546875 30.86181640625 -37.5538330078125
-48.08984375 48.7447509765625 -10.5750732421875
-16.952880859375 23.77880859375 18.9210205078125
-73.12841796875 46.162109375 -2.0809326171875
37.215576171875 25.625732421875 -63.33984375
30.65625 8.1986083984375 -8.896728515625
-42.6796875 22.74658203125 -21.241455078125
44.77197265625 5.6932373046875 -12.7413330078125
13.43408203125 -0.496337890625 2.2412109375
-55.178955078125 39.1461181640625 14.548095703125
20.189453125 -1.543212890625 2.813720703125
45.764892578125 20.8582763671875 -54.91162109375
-39.081298828125 30.4609375 1.3260498046875
-25.873291015625 28.9945068359375 5.0543212890625
-22.384765625 28.78662109375 -5.1900634765625
43.74462890625 -1.980224609375 -5.2301025390625
32.8349609375 14.28076171875 -16.03125
31.755615234375 19.75927734375 -54.2095947265625
-12.820068359375 36.1253662109375 -7.2408447265625
-43.3525390625 24.6790771484375 18.3438720703125
-32.736083984375 18.4156494140625 33.5826416015625
32.343994140625 13.816650390625 -38.4771728515625
52.392333984375 30.612548828125 -75.2066650390625
60.642822265625 13.626708984375 -40.856201171875
-50.102783203125 25.34814453125 16.385009765625
31.662841796875 22.703125 -60.1331787109375
56.071044921875 23.3255615234375 -60.059326171875
-47.4541015625 12.79736328125 39.495361328125
66.718017578125 17.42529296875 -39.2498779296875
47.658447265625 4.1429443359375 -8.4656982421875
-28.630859375 48.8489990234375 -14.10986328125
52.611572265625 22.8851318359375 -52.355224609375
-23.5751953125 53.243408203125 -23.1177978515625
-59.938232421875 23.79931640625 21.5634765625
-18.33544921875 31.661376953125 -4.5697021484375
59.147216796875 18.4910888671875 -54.6182861328125
-12.793701171875 36.1767578125 -3.3392333984375
-55.28759765625 42.41064453125 8.993408203125
30.537353515625 9.4794921875 -19.6864013671875
-26.194091796875 32.38671875 -12.4466552734375
-29.9931640625 31.268798828125 -39.01123046875
62.650634765625 21.6171875 -60.1865234375
-67.81396484375 47.553955078125 -6.8546142578125
-69.274169921875 13.9151611328125 15.309326171875
-61.821044921875 21.800048828125 27.3994140625
55.871337890625 21.4703369140625 -54.973876953125
-32.81884765625 30.1968994140625 -7.4935302734375
52.948974609375 25.99072265625 -64.17578125
-53.52587890625 43.3846435546875 6.155517578125
-25.475341796875 13.287841796875 31.3857421875
-17.276123046875 47.2977294921875 -12.2645263671875
-19.60107421875 22.98828125 21.7493896484375
59.890380859375 23.55029296875 -65.8431396484375
-15.67822265625 39.550537109375 -13.012939453125
31.6220703125 12.1038818359375 -31.292724609375
29.935302734375 17.6396484375 -48.17822265625
-68.7138671875 13.5438232421875 11.3961181640625
-27.810546875 25.7916259765625 14.421875
29.630859375 16.0023193359375 -44.0955810546875
66.16796875 14.246337890625 -37.7659912109375
35.39111328125 4.409423828125 -8.9715576171875
-45.1591796875 29.464599609375 4.0938720703125
35.416748046875 18.55615234375 -47.6241455078125
34.111572265625 24.9278564453125 -65.1217041015625
45.240234375 10.4271240234375 -28.813232421875
47.82568359375 8.2440185546875 -19.786865234375
-13.86328125 31.908203125 -2.351318359375
-25.27734375 36.7440185546875 -14.558349609375
-46.2646484375 46.3270263671875 -3.337158203125
-32.48486328125 43.423828125 -12.90478515625
48.344970703125 23.9935302734375 -64.3570556640625
-31.077392578125 37.5367431640625 -14.71240234375
58.041015625 31.2032470703125 -77.5294189453125
-44.93798828125 22.0521240234375 -15.4556884765625
-34.627197265625 27.9652099609375 7.348388671875
-62.639892578125 40.183349609375 15.8411865234375
-13.123291015625 41.1849365234375 -1.930908203125
39.79931640625 3.2164306640625 -8.7470703125
61.80517578125 9.4107666015625 -28.1297607421875
-38.841064453125 21.6644287109375 27.297119140625
51.216552734375 11.9649658203125 -7.926025390625
-18.66650390625 36.6943359375 -14.2626953125
48.829833984375 24.200927734375 -68.4674072265625
-61.50048828125 38.5458984375 20.0885009765625
59.215576171875 13.052001953125 -36.940673828125
-71.5166015625 48.659423828125 -8.70361328125
-19.687744140625 27.17236328125 8.7061767578125
53.539306640625 16.949951171875 -35.1318359375
51.334228515625 23.64501953125 -61.315185546875
59.978759765625 9.2000732421875 -25.4287109375
-49.7099609375 19.628173828125 -12.2655029296875
-13.48486328125 39.1190185546875 -7.919677734375
-12.368896484375 27.623046875 6.6282958984375
-26.359375 35.9219970703125 -39.390869140625
-27.0283203125 27.1278076171875 -12.920166015625
-74.77783203125 45.5194091796875 0.48486328125
-43.926025390625 26.87353515625 12.1331787109375
48.865478515625 14.4495849609375 -39.589111328125
50.647216796875 15.4046630859375 -34.71826171875
-57.66015625 5.111572265625 40.248779296875
-47.52783203125 9.7054443359375 39.80126953125
-56.22412109375 24.8629150390625 18.3876953125
-15.628662109375 26.6322021484375 9.5662841796875
45.791259765625 13.625732421875 -38.3631591796875
-20.24365234375 30.29345703125 0.5498046875
-37.90234375 27.2772216796875 10.0947265625
65.318603515625 19.67724609375 -49.539306640625
34.65234375 16.1451416015625 -34.950927734375
-44.656005859375 21.0361328125 29.1302490234375
46.14990234375 18.3270263671875 -49.9505615234375
-29.465576171875 31.576171875 -35.3988037109375
-58.582763671875 44.2001953125 2.67724609375
-45.93896484375 17.3585205078125 37.2645263671875
-72.922607421875 47.4315185546875 -5.062255859375
-36.363525390625 27.7197265625 -24.630126953125
33.369873046875 27.50927734375 -70.1016845703125
44.304443359375 1.9140625 -10.0362548828125
25.167236328125 6.394287109375 -11.541748046875
51.540771484375 22.5404052734375 -58.013916015625
-48.65576171875 20.162109375 -15.4122314453125
-20.85205078125 25.5008544921875 13.674072265625
39.384765625 29.787841796875 -66.38671875
39.38916015625 0.5279541015625 -7.440185546875
64.526611328125 12.2042236328125 -35.94482421875
-50.858154296875 20.324462890625 32.0634765625
32.19482421875 14.4949951171875 -0.0794677734375
28.611083984375 10.375732421875 -26.533935546875
33.930419921875 16.1502685546875 -23.9906005859375
62.185546875 18.86865234375 -54.697021484375
49.43310546875 6.5546875 -8.5010986328125
50.8935546875 16.2816162109375 -37.569091796875
-45.6162109375 19.725830078125 33.2017822265625
-17.845947265625 23.671142578125 24.92236328125
52.635498046875 27.6185302734375 -69.059326171875
58.324951171875 17.124267578125 -51.634033203125
-22.646728515625 14.2740478515625 29.0010986328125
64.17578125 16.3641357421875 -44.77392578125
-41.7470703125 48.1600341796875 -8.175537109375
-16.40380859375 34.2978515625 -7.17724609375
-64.677490234375 15.926025390625 11.1270751953125
-58.861328125 17.791259765625 37.270751953125
14.48583984375 3.146728515625 -7.79833984375
-20.939697265625 33.2261962890625 -10.5545654296875
28.872314453125 12.2332763671875 -33.7803955078125
-40.7880859375 31.721923828125 -1.32421875
-34.072021484375 48.368896484375 -12.7386474609375
61.734619140625 16.2979736328125 -48.5780029296875
-23.790283203125 38.3748779296875 -16.4906005859375
49.603515625 17.009521484375 -44.9720458984375
-51.560302734375 15.60986328125 38.8612060546875
-40.0810546875 26.348388671875 12.842529296875
18.4375 -0.677978515625 0.6143798828125
18.355224609375 -2.464111328125 5.4046630859375
-59.830078125 15.9180908203125 2.267578125
-52.821533203125 0.7386474609375 43.6053466796875
33.746337890625 15.8076171875 -19.2764892578125
-12.873046875 29.602294921875 0.498291015625
-22.70068359375 15.7506103515625 36.6793212890625
-61.866943359375 16.580810546875 -2.567626953125
32.441650390625 15.1778564453125 -43.5211181640625
44.44140625 18.021728515625 -47.6309814453125
28.809814453125 -1.7747802734375 1.8814697265625
-73.57568359375 44.756103515625 4.506103515625
32.186767578125 5.449462890625 -7.7117919921875
-50.15771484375 26.3165283203125 13.6806640625
-40.340576171875 29.229248046875 3.606689453125
-58.285888671875 -0.5802001953125 45.640869140625
-47.5859375 23.28515625 -21.31787109375
-53.730224609375 9.4073486328125 39.9259033203125
35.9169921875 0.5318603515625 -7.0126953125
42.013916015625 4.413818359375 -7.4107666015625
38.8720703125 -1.6533203125 -2.060791015625
25.71044921875 7.599609375 -16.17431640625
49.95458984375 8.617431640625 -13.8724365234375
65.713623046875 11.4061279296875 -32.0511474609375
56.571044921875 29.2286376953125 -72.0567626953125
-10.331298828125 56.02734375 -29.1864013671875
-21.572021484375 16.88330078125 32.3104248046875
-17.187744140625 28.85595703125 3.4036865234375
-33.884765625 28.818359375 -34.9462890625
61.748046875 10.2733154296875 -31.210205078125
-46.37255859375 50.7320556640625 -16.62060546875
-12.6181640625 25.878173828125 13.1197509765625
-55.0849609375 18.6060791015625 36.03857421875
32.46923828125 17.6968994140625 -49.6826171875
35.1220703125 22.5718994140625 -59.2972412109375
-23.528076171875 45.81640625 -14.20654296875
31.000732421875 12.0771484375 -5.5889892578125
35.319580078125 18.0916748046875 -40.2275390625
23.49951171875 -0.537841796875 -2.4908447265625
-78.412841796875 47.28564453125 -4.859375
-20.47314453125 31.037841796875 -6.426513671875
-34.71630859375 52.16162109375 -20.042236328125
-27.295166015625 23.9195556640625 20.0068359375
-42.027587890625 51.30615234375 -18.48291015625
-35.886962890625 32.921875 -6.635986328125
18.707763671875 5.6036376953125 -7.8248291015625
-19.927001953125 54.83251953125 -28.251708984375
24.6357421875 -1.0269775390625 0.519775390625
-64.43408203125 21.680419921875 28.4837646484375
55.41748046875 22.979248046875 -57.383544921875
28.065673828125 9.02880859375 -21.3455810546875
-29.74462890625 52.2747802734375 -20.156982421875
47.5380859375 9.107421875 -23.2154541015625
-49.691650390625 3.99609375 40.8331298828125
46.9521484375 6.2103271484375 -14.6224365234375
-55.689453125 20.400634765625 32.474365234375
52.755615234375 21.626953125 -45.260986328125
-41.196533203125 21.2442626953125 28.917724609375
-13.467041015625 52.83740234375 -19.9833984375
-21.765625 20.5380859375 29.577392578125
66.458984375 19.3931884765625 -35.1531982421875
-68.1318359375 41.2161865234375 11.3414306640625
50.185302734375 11.819580078125 -19.437744140625
-21.906982421875 14.4267578125 34.28466796875
-53.15625 22.9820556640625 22.989501953125
-27.7890625 53.3470458984375 -23.2088623046875
66.442138671875 13.4749755859375 -34.414306640625
-20.4208984375 51.354736328125 -17.7904052734375
-78.193603515625 48.5562744140625 -7.8427734375
-38.7587890625 27.7420654296875 -32.362548828125
31.41455078125 9.6807861328125 -11.30615234375
50.572998046875 10.0704345703125 -11.5482177734375
-60.55419921875 19.768798828125 33.6199951171875
-31.24755859375 34.419189453125 -11.02978515625
33.3935546875 13.9505615234375 -22.5301513671875
-58.564697265625 21.7301025390625 27.5958251953125
43.029296875 16.038818359375 -43.216064453125
50.87548828125 17.4061279296875 -30.10302734375
50.042724609375 24.8876953125 -71.806884765625
-71.644775390625 14.369873046875 9.4027099609375
-61.462158203125 11.058349609375 39.5963134765625
-16.678955078125 32.8006591796875 -2.796875
-56.825439453125 41.0477294921875 13.6326904296875
-28.787353515625 20.3370361328125 29.0421142578125
32.259765625 13.1544189453125 -35.8896484375
-36.804931640625 29.084716796875 2.6363525390625
-56.2646484375 17.1915283203125 -5.8026123046875
-27.65380859375 11.47314453125 32.953857421875
30.110595703125 11.1282958984375 -0.3355712890625
-61.40673828125 15.137451171875 0.2716064453125
49.6728515625 13.390625 -33.279541015625
-12.4833984375 54.021484375 -23.2108154296875
-22.97216796875 29.1708984375 3.396728515625
-42.572998046875 22.7958984375 24.3359375
-14.806884765625 44.2315673828125 -10.546875
-63.13134765625 49.2452392578125 -10.975830078125
-14.83544921875 55.96044921875 -30.0377197265625
-33.404296875 26.9913330078125 10.5848388671875
-62.450439453125 41.0123291015625 12.8360595703125
-9.3095703125 54.323974609375 -22.66357421875
-67.10693359375 14.1510009765625 6.87548828125
-28.824951171875 27.2987060546875 8.869873046875
40.565673828125 -0.763427734375 -4.542724609375
33.128662109375 14.8096923828125 -40.78564453125
-16.242919921875 36.916748046875 -12.11474609375
-37.574462890625 49.0443115234375 -11.8834228515625
65.259033203125 25.3741455078125 -61.5911865234375
-33.11865234375 29.172119140625 -29.7431640625
-42.546630859375 25.509765625 -27.2415771484375
47.14599609375 12.675537109375 -34.6688232421875
24.24365234375 1.79443359375 -7.5067138671875
-23.65673828125 30.44189453125 -1.12109375
-46.039306640625 27.260009765625 10.6480712890625
-33.27099609375 25.5673828125 14.5577392578125
31.61279296875 25.9246826171875 -67.2208251953125
-22.72705078125 27.0775146484375 9.2327880859375
63.6650390625 23.977294921875 -65.197998046875
42.13818359375 8.08935546875 -23.7464599609375
-55.32275390625 19.189453125 -11.5216064453125
59.04345703125 11.154541015625 -30.410400390625
-12.544921875 42.5050048828125 -4.080322265625
50.292724609375 11.3170166015625 -15.065185546875
23.647705078125 6.5599365234375 -9.458984375
-19.53125 23.8232421875 18.86767578125
35.246337890625 18.4827880859375 -35.8631591796875
28.25830078125 2.689697265625 -9.8804931640625
-18.939208984375 28.21875 5.676513671875
-36.23486328125 27.4952392578125 -32.7529296875
-35.51708984375 20.3193359375 30.774169921875
46.3857421875 22.1444091796875 -59.3369140625
-40.1708984375 25.2779541015625 -20.0040283203125
-25.2509765625 18.673095703125 28.6990966796875
-58.103515625 12.327392578125 39.550537109375
35.423583984375 29.995849609375 -73.4140625
-60.722900390625 50.470947265625 -13.803466796875
50.483154296875 15.1009521484375 -21.2244873046875
-47.574462890625 25.4154052734375 16.6875
-23.3349609375 25.3038330078125 -8.2835693359375
-23.94580078125 54.4488525390625 -27.2271728515625
35.4248046875 20.1087646484375 -31.2239990234375
-48.3046875 44.0263671875 3.251708984375
65.982421875 24.1741943359375 -52.4254150390625
55.37158203125 25.014892578125 -62.1243896484375
35.123779296875 17.4632568359375 -45.3787841796875
65.893310546875 26.045166015625 -56.56201171875
-27.503173828125 26.2708740234375 11.9771728515625
-9.6845703125 57.2261962890625 -31.3348388671875
50.337646484375 14.7735595703125 -26.739501953125
57.842529296875 15.670166015625 -45.4832763671875
65.83349609375 18.125 -44.1468505859375
50.0693359375 12.1044921875 -24.38525390625
-53.5947265625 21.0933837890625 28.4697265625
-25.23193359375 34.57861328125 -13.15087890625
-14.593505859375 24.9482421875 18.493408203125
-34.160400390625 22.253662109375 24.76708984375
38.137939453125 30.4119873046875 -70.58935546875
30.2119140625 -0.2613525390625 -2.784912109375
-66.983154296875 49.104736328125 -11.186767578125
30.51123046875 12.86865234375 -2.2813720703125
-26.99853515625 29.8958740234375 1.7525634765625
-37.943359375 31.101806640625 -1.409423828125
47.968505859375 10.6324462890625 -27.65869140625
-44.861572265625 8.4095458984375 40.0045166015625
32.060302734375 10.9862060546875 -15.4744873046875
-64.6640625 14.6478271484375 4.037841796875
65.451904296875 23.589599609375 -55.2628173828125
-30.616943359375 53.8101806640625 -25.0015869140625
-31.458984375 49.96484375 -15.34423828125
-31.719970703125 29.59814453125 -33.8392333984375
-22.704833984375 26.6240234375 -11.729248046875
32.7001953125 12.2532958984375 -29.0364990234375
-23.86376953125 16.533935546875 28.3931884765625
-44.276611328125 24.3846435546875 -25.170654296875
-16.224609375 49.4266357421875 -13.0772705078125
-49.740234375 24.6488037109375 18.7054443359375
-34.7509765625 24.2103271484375 19.22216796875
-52.993408203125 26.185546875 14.408935546875
60.15380859375 27.53271484375 -73.8770751953125
37.025146484375 21.251220703125 -51.082763671875
-18.370361328125 25.5089111328125 13.8565673828125
-65.453369140625 43.7601318359375 8.0037841796875
60.2734375 11.3509521484375 -33.45849609375
33.05810546875 18.9715576171875 -52.301513671875
34.119140625 20.119140625 -54.923095703125
-36.474609375 26.5494384765625 -28.0963134765625
63.749267578125 18.396484375 -50.8927001953125
-27.9267578125 13.24658203125 28.355224609375
47.103515625 -1.5477294921875 -5.594482421875
58.98876953125 21.2967529296875 -60.425048828125
-20.080810546875 42.9566650390625 -14.95361328125
32.468994140625 11.2130126953125 -20.5130615234375
-49.1328125 45.4185791015625 -1.195556640625
25.475830078125 -1.938720703125 3.3184814453125
-60.11083984375 17.1962890625 -5.2613525390625
-58.924072265625 3.3134765625 41.2520751953125
49.998046875 30.5194091796875 -76.0694580078125
-50.95654296875 20.2198486328125 -7.080322265625
-48.169677734375 21.3201904296875 27.9652099609375
54.640380859375 27.41357421875 -65.344970703125
-45.18798828125 25.57763671875 15.7913818359375
-61.7646484375 15.538818359375 38.9158935546875
-16.491455078125 52.4046630859375 -20.7373046875
-18.305419921875 53.0992431640625 -22.4293212890625
-58.962158203125 40.502685546875 14.860595703125
-34.369384765625 34.8192138671875 -9.2615966796875
-56.972412109375 9.4405517578125 39.7662353515625
-11.751953125 55.3193359375 -27.3961181640625
34.1630859375 16.275146484375 -28.0870361328125
-60.59228515625 43.5911865234375 5.06591796875
42.494140625 10.4769287109375 -28.095947265625
-14.400146484375 50.7789306640625 -15.441650390625
-12.717529296875 48.0478515625 -12.1319580078125
-32.109130859375 21.4437255859375 27.717041015625
-53.120361328125 20.524169921875 31.381591796875
-38.8828125 53.016845703125 -21.6492919921875
-48.421875 23.8309326171875 21.2362060546875
29.236328125 8.346923828125 -17.85302734375
42.580078125 7.8878173828125 -20.564453125
-27.049560546875 33.4237060546875 -39.563232421875
-25.13330078125 43.783203125 -14.67431640625
-67.75048828125 38.3330078125 21.340576171875
-73.692626953125 48.83837890625 -9.5638427734375
-53.4267578125 20.539306640625 -14.4346923828125
-33.065185546875 31.052490234375 -39.130859375
29.978271484375 13.76025390625 -38.989013671875
-67.801513671875 46.84619140625 -3.53076171875
-45.18212890625 50.0169677734375 -14.06494140625
51.410400390625 18.6053466796875 -42.66943359375
14.485595703125 -2.5888671875 8.1395263671875
22.30029296875 -1.4124755859375 1.83544921875
65.050048828125 14.5123291015625 -39.854248046875
14.60107421875 4.084228515625 -9.9248046875
-56.628662109375 18.36669921875 -9.3258056640625
-49.74462890625 19.405517578125 34.22021484375
-40.163818359375 25.149658203125 -26.8271484375
48.979248046875 20.032470703125 -55.03466796875
-23.468994140625 52.3748779296875 -20.6142578125
18.61328125 2.441162109375 -7.5560302734375
-45.582763671875 23.7269287109375 21.1630859375
-39.750244140625 24.9971923828125 17.2581787109375
-28.11572265625 15.5450439453125 28.461181640625
36.759521484375 21.581298828125 -47.163818359375
-70.317138671875 39.6651611328125 18.07763671875
35.9892578125 19.7071533203125 -43.0257568359375
-40.53857421875 24.4703369140625 -22.6190185546875
46.822021484375 5.1871337890625 -11.82177734375
-59.3134765625 6.703857421875 40.0804443359375
-52.291259765625 18.22998046875 -8.5379638671875
-38.709716796875 28.225341796875 7.008544921875
-52.348876953125 46.7083740234375 -4.7919921875
60.08154296875 25.427978515625 -69.66064453125
-17.935302734375 54.444091796875 -26.8089599609375
45.650634765625 7.3179931640625 -19.192138671875
32.5478515625 14.1407470703125 -13.0467529296875
25.483154296875 7.1702880859375 -13.9310302734375
38.44384765625 27.470458984375 -63.8736572265625
-34.4306640625 44.8782958984375 -11.3577880859375
14.18701171875 1.7059326171875 -3.4495849609375
34.48388671875 26.30908203125 -67.4111328125
67.6845703125 17.352783203125 -32.534423828125
-43.674072265625 28.783935546875 5.6767578125
-68.204833984375 15.5042724609375 4.73046875
39.439208984375 33.01318359375 -70.12451171875
-30.042236328125 32.6038818359375 -10.3922119140625
30.058837890625 6.1822509765625 -7.990234375
-38.5498046875 25.8992919921875 -28.7381591796875
45.1201171875 20.233154296875 -52.8326416015625
-31.904541015625 52.5748291015625 -19.5487060546875
33.16162109375 13.593017578125 -19.019775390625
-27.5361328125 26.7646484375 -1.287841796875
33.752685546875 2.0496826171875 -9.816650390625
50.50537109375 13.9891357421875 -28.8507080078125
30.627685546875 8.34033203125 -13.38427734375
-68.4970703125 13.735107421875 9.15869140625
64.18603515625 22.529052734375 -58.8104248046875
-20.7919921875 53.585693359375 -23.9354248046875
-26.55224609375 41.198974609375 -15.318603515625
36.292724609375 -2.3968505859375 1.7064208984375
-58.731689453125 42.6832275390625 7.656005859375
61.8359375 11.5692138671875 -35.114013671875
-65.172119140625 49.5880126953125 -12.6065673828125
-62.90771484375 41.7611083984375 10.60693359375
-39.203125 25.39208984375 -24.240234375
-26.42431640625 33.8538818359375 -42.73046875
50.090576171875 0.2037353515625 -9.38623046875
56.63427734375 27.6754150390625 -69.18359375
-63.19921875 20.442626953125 31.2352294921875
-27.10107421875 35.7325439453125 -13.5555419921875
-62.082763671875 43.115234375 6.8402099609375
-51.416015625 22.3751220703125 25.0150146484375
50.60400390625 13.46875 -15.5594482421875
-58.375 15.4296875 38.949462890625
-35.160888671875 27.4580078125 -29.689697265625
33.793701171875 14.490966796875 -36.7847900390625
-67.76416015625 39.0606689453125 19.2406005859375
-20.89111328125 35.7554931640625 -12.1026611328125
-68.57373046875 47.2939453125 -1.395751953125
61.26025390625 22.5546875 -63.5897216796875
62.73876953125 14.09033203125 -41.4246826171875
64.759521484375 28.544189453125 -56.8426513671875
-49.997314453125 47.4892578125 -7.59375
-34.21484375 19.74658203125 32.618896484375
-74.888916015625 44.873291015625 2.656982421875
-21.40966796875 39.4727783203125 -15.6248779296875
-32.024658203125 29.5673828125 -31.65283203125
-40.645751953125 22.0789794921875 26.0968017578125
23.423095703125 -4.11474609375 5.6280517578125
-68.1201171875 40.4788818359375 14.76953125
37.895263671875 24.397705078125 -54.776123046875
-49.7255859375 6.0423583984375 40.03466796875
-42.7041015625 47.002685546875 -5.6324462890625
63.968505859375 19.5980224609375 -53.6419677734375
-52.406982421875 44.0592041015625 3.4425048828125
-50.03662109375 46.8580322265625 -4.218017578125
-46.841796875 45.8001708984375 -1.29052734375
12.45458984375 -1.780029296875 8.2615966796875
-33.273193359375 28.5252685546875 -6.158935546875
55.9345703125 33.4752197265625 -77.1597900390625
-44.17822265625 23.0958251953125 22.8868408203125
-61.874755859375 23.5399169921875 22.535888671875
-12.29345703125 28.8310546875 2.45556640625
-63.614501953125 16.0576171875 9.2269287109375
-71.17431640625 47.53125 -6.3621826171875
-38.552490234375 51.3402099609375 -17.3975830078125
-35.58203125 27.43115234375 9.2325439453125
44.5693359375 9.79931640625 -25.3367919921875
-44.517578125 49.1790771484375 -12.1722412109375
50.583740234375 16.7308349609375 -40.8389892578125
62.888916015625 20.8255615234375 -58.1248779296875
34.656005859375 17.0833740234375 -30.043212890625
41.40234375 1.001220703125 -9.7056884765625
32.620361328125 23.35107421875 -61.971435546875
-58.01220703125 24.0574951171875 20.59619140625
-67.90283203125 15.5772705078125 15.5565185546875
-15.437744140625 34.7398681640625 -9.068115234375
-36.66943359375 24.0164794921875 20.283203125
-32.865966796875 27.5550537109375 8.5374755859375
-29.858642578125 23.2462158203125 21.9625244140625
62.972412109375 24.515625 -67.1802978515625
-25.563720703125 53.4176025390625 -23.946044921875
-28.84375 24.8712158203125 16.4716796875
-23.45556640625 12.095703125 31.5755615234375
-60.418701171875 44.6363525390625 1.447021484375
-15.9951171875 24.4949951171875 16.2607421875
35.4033203125 19.6845703125 -37.9757080078125
-41.278076171875 49.7996826171875 -13.4234619140625
45.74658203125 15.06494140625 -42.022216796875
-37.293701171875 46.6929931640625 -9.407958984375
-14.18603515625 39.7314453125 -10.344970703125
38.737060546875 34.541259765625 -68.7598876953125
66.527099609375 18.34521484375 -42.0830078125
43.23388671875 19.4761962890625 -55.020263671875
-37.34228515625 49.9671630859375 -14.1829833984375
37.9091796875 28.947998046875 -68.4810791015625
43.25537109375 14.5087890625 -38.5860595703125
-13.23486328125 34.0255126953125 -7.22412109375
-14.046630859375 38.57568359375 1.416015625
-71.810791015625 45.5849609375 -0.208740234375
47.44482421875 16.494873046875 -45.6182861328125
-46.613525390625 22.0028076171875 26.6729736328125
-40.47412109375 23.60693359375 20.97802734375
-60.8701171875 15.7874755859375 4.1265869140625
29.853759765625 16.774658203125 -46.229736328125
51.534423828125 28.9375 -72.2783203125
-25.848388671875 25.9205322265625 13.2752685546875
-24.918212890625 24.026611328125 18.9971923828125
60.8720703125 20.4366455078125 -59.44873046875
-25.61279296875 51.6451416015625 -17.9752197265625
37.9072265625 3.8314208984375 -7.996337890625
45.582275390625 20.8822021484375 -57.030029296875
-22.435546875 42.0672607421875 -15.22998046875
-51.301025390625 18.7833251953125 -10.3609619140625
46.80859375 21.98388671875 -64.5413818359375
12.955810546875 -1.033447265625 4.2342529296875
-30.178955078125 18.720458984375 30.2506103515625
-53.809814453125 14.6416015625 38.94189453125
-30.137939453125 30.5107421875 -10.100341796875
-63.582275390625 42.636474609375 8.6248779296875
-30.486083984375 39.54736328125 -14.952392578125
-15.06591796875 51.5885009765625 -17.2705078125
-47.6845703125 20.7052001953125 -17.2001953125
-9.199951171875 30.508056640625 -0.9693603515625
50.154052734375 24.814208984375 -65.0496826171875
-27.250244140625 26.826171875 -8.78076171875
-28.466064453125 51.5120849609375 -17.7615966796875
-12.906005859375 34.0958251953125 -3.056640625
50.295654296875 22.52490234375 -59.8697509765625
-46.00341796875 48.570556640625 -9.7357177734375
42.992919921875 12.7042236328125 -33.8463134765625
-14.568359375 35.2125244140625 1.63671875
-30.767822265625 32.572265625 -41.8807373046875
49.528564453125 7.0230712890625 -10.6138916015625
-40.924560546875 27.7779541015625 8.41064453125
-19.563720703125 30.7227783203125 -1.652099609375
-18.924072265625 34.5596923828125 -9.2613525390625
-46.24853515625 22.0589599609375 -20.21875
20.769775390625 -2.30322265625 4.66943359375
-18.8974609375 46.7867431640625 -13.47314453125
34.021240234375 17.42236328125 -26.0595703125
-49.1982421875 45.24072265625 0.8809814453125
-22.4345703125 36.6959228515625 -14.1524658203125
50.257568359375 13.2435302734375 -22.136474609375
26.259765625 1.5535888671875 -7.0589599609375
-20.778076171875 30.3555908203125 -8.5927734375
-8.748779296875 55.594970703125 -24.734375
28.237060546875 11.894287109375 -31.6873779296875
21.518798828125 0.6708984375 -3.697021484375
-32.478515625 27.1533203125 -0.499755859375
47.35888671875 21.943603515625 -69.2813720703125
25.159912109375 -0.555908203125 -4.1527099609375
31.814453125 28.480224609375 -71.65283203125
-58.416259765625 20.8800048828125 30.927490234375
-23.06884765625 33.03076171875 -12.4415283203125
-33.586669921875 31.9583740234375 -6.7197265625
59.845703125 15.5992431640625 -46.488525390625
-24.18408203125 23.13134765625 22.2130126953125
-49.48974609375 13.0709228515625 39.242919921875
-36.63232421875 24.68017578125 18.148193359375
52.02392578125 11.56201171875 -9.78369140625
44.427734375 11.651123046875 -31.4593505859375
-29.945068359375 36.413818359375 -13.404296875
-21.5439453125 49.3392333984375 -14.3194580078125
-46.112060546875 47.333984375 -5.577880859375
-56.117431640625 22.402587890625 25.2628173828125
-22.3232421875 47.4505615234375 -13.864990234375
31.738525390625 10.1845703125 -5.9188232421875
32.667724609375 12.181884765625 -24.61328125
-24.575927734375 50.5770263671875 -16.5574951171875
33.236083984375 15.3828125 -2.92431640625
-35.29443359375 25.675048828125 15.0516357421875
20.668212890625 2.784423828125 -9.0838623046875
16.400390625 3.18798828125 -9.0947265625
18.872314453125 -3.602783203125 8.70361328125
-80.072265625 48.2967529296875 -7.0633544921875
-25.882568359375 22.1595458984375 25.1629638671875
54.916748046875 30.7537841796875 -72.243408203125
-13.2333984375 41.601806640625 -5.7852783203125
66.475341796875 21.135986328125 -46.97998046875
-17.277099609375 29.5457763671875 1.48193359375
-70.7822265625 13.1534423828125 16.4583740234375
-55.103759765625 45.0269775390625 0.542724609375
45.6572265625 -2.5660400390625 -3.4404296875
-34.935302734375 36.029296875 -11.271484375
44.668701171875 19.461669921875 -50.9990234375
-37.43896484375 21.034423828125 29.01806640625
-16.0478515625 41.54248046875 -11.40673828125
50.013671875 8.5693359375 -8.073974609375
34.628662109375 16.189453125 -40.4248046875
-15.5673828125 28.5106201171875 4.6832275390625
35.95263671875 20.0877685546875 -33.1846923828125
32.946044921875 -1.9244384765625 1.2452392578125
59.1748046875 19.3162841796875 -56.469482421875
51.413818359375 20.0460205078125 -40.889404296875
-53.235107421875 17.9818115234375 36.581787109375
-37.07177734375 26.087158203125 13.858154296875
28.272216796875 7.401611328125 -15.2142333984375
39.557373046875 1.9583740234375 -10.3145751953125
31.243408203125 1.2545166015625 -7.5462646484375
48.588623046875 7.3016357421875 -15.088623046875
-53.650634765625 18.4100341796875 -10.176513671875
33.49462890625 -0.6937255859375 -2.207763671875
65.68896484375 23.9593505859375 -50.18505859375
-32.693359375 24.76611328125 16.595458984375
47.50146484375 7.330810546875 -18.0169677734375
-12.88916015625 36.850830078125 -5.2376708984375
56.0126953125 26.573486328125 -66.560546875
-49.438232421875 23.27197265625 23.2061767578125
35.67041015625 14.378662109375 -18.7069091796875
37.316650390625 23.80712890625 -50.4176025390625
39.089111328125 33.304931640625 -72.562255859375
50.002685546875 19.44970703125 -52.8282470703125
-51.287109375 43.150634765625 6.8702392578125
-42.23193359375 49.0975341796875 -10.945556640625
41.451416015625 -2.05810546875 -0.546875
-30.740234375 28.9102783203125 3.1507568359375
51.08984375 16.296630859375 -25.3216552734375
51.65185546875 20.799072265625 -53.3428955078125
16.294189453125 -1.8272705078125 4.940673828125
-20.64501953125 50.23828125 -16.1363525390625
53.256103515625 29.7867431640625 -72.866943359375
14.481689453125 0.5067138671875 -0.542236328125
-32.836181640625 28.2032470703125 6.452880859375
-26.343017578125 54.0743408203125 -26.254638671875
46.806640625 8.2659912109375 -21.510986328125
-46.503173828125 20.2772216796875 31.4959716796875
-26.296875 27.947265625 6.99169921875
-25.736572265625 26.512451171875 11.07275390625
-25.35888671875 29.546875 3.0443115234375
-42.04296875 23.616943359375 -19.5628662109375
-45.550537109375 13.2825927734375 39.1522216796875
-62.544921875 14.958984375 4.8316650390625
-49.881103515625 10.5889892578125 39.9105224609375
-32.837890625 35.6107177734375 -11.1597900390625
63.044677734375 16.261962890625 -46.805419921875
53.82080078125 26.4473876953125 -62.446044921875
-56.56494140625 44.5595703125 2.28759765625
-50.874755859375 28.3555908203125 9.68505859375
59.951904296875 8.3316650390625 -23.4658203125
-8.36962890625 57.0631103515625 -29.7681884765625
-27.28369140625 19.005615234375 28.556396484375
-16.392333984375 31.3150634765625 -4.365234375
-39.685302734375 26.805419921875 -30.6085205078125
48.48291015625 10.183349609375 -25.22802734375
-46.4853515625 23.1112060546875 23.00439453125
-29.422119140625 23.8792724609375 19.995849609375
19.765625 4.54248046875 -9.2177734375
-53.3310546875 45.5211181640625 -0.9083251953125
-79.875732421875 46.50439453125 -1.2025146484375
57.623779296875 22.3590087890625 -61.541259765625
-30.8203125 30.101318359375 -35.527099609375
-20.0107421875 22.7952880859375 23.6744384765625
35.267822265625 1.3138427734375 -8.7061767578125
-65.046630859375 48.8323974609375 -10.729736328125
30.54638671875 10.169189453125 -24.7694091796875
61.433349609375 26.087890625 -70.93896484375
-27.01708984375 13.285400390625 33.4090576171875
-42.278076171875 29.28759765625 3.9556884765625
-59.956787109375 41.11083984375 13.273681640625
-77.766845703125 45.215576171875 1.8695068359375
-65.359619140625 39.7294921875 17.0411376953125
-33.46533203125 50.794677734375 -15.6129150390625
31.043701171875 -2.146484375 2.00146484375
24.98583984375 5.1270751953125 -9.30859375
-47.242919921875 28.00732421875 8.0362548828125
-46.270751953125 11.22900390625 39.5047607421875
-77.203125 47.9495849609375 -6.2603759765625
-41.92138671875 20.4759521484375 33.359130859375
-61.715087890625 12.9964599609375 39.7540283203125
-54.491455078125 3.0902099609375 41.3377685546875
58.0322265625 12.771240234375 -35.2303466796875
-27.7529296875 28.6165771484375 5.4351806640625
48.84765625 23.3358154296875 -66.715576171875
15.382568359375 -3.54443359375 9.588623046875
-14.612548828125 24.9447021484375 14.42724609375
-72.94970703125 13.8955078125 11.590576171875
-40.816650390625 20.0892333984375 31.2891845703125
-19.03564453125 44.47998046875 -13.7718505859375
50.373291015625 24.01904296875 -62.97265625
36.731201171875 23.607421875 -59.68115234375
-28.51220703125 32.31005859375 -11.5672607421875
-22.6416015625 21.074462890625 27.91845703125
19.187744140625 1.6905517578125 -5.7237548828125
-56.838623046875 17.774658203125 -0.062744140625
52.442138671875 24.9278564453125 -62.2772216796875
-48.60546875 17.3302001953125 37.1300048828125
-14.656005859375 47.99609375 -12.31494140625
49.59033203125 4.0772705078125 -8.69921875
-22.88720703125 44.092529296875 -14.8455810546875
-19.84228515625 20.6978759765625 29.8123779296875
-34.91796875 53.3238525390625 -23.1029052734375
-69.51513671875 37.9808349609375 22.075927734375
-23.8369140625 29.468017578125 -2.7913818359375
-50.735107421875 21.628662109375 -17.5885009765625
34.499267578125 15.753662109375 -31.635986328125
28.352294921875 0.4715576171875 -5.4029541015625
-58.48681640625 16.51611328125 0.66455078125
-20.003662109375 40.7509765625 -14.8729248046875
-27.79150390625 43.0714111328125 -14.6290283203125
57.177001953125 14.8126220703125 -40.8543701171875
-45.60107421875 22.4012451171875 -13.4652099609375
-52.346435546875 22.2025146484375 26.85302734375
38.131103515625 25.226318359375 -58.66552734375
60.8193359375 12.68994140625 -38.00634765625
48.555419921875 9.0863037109375 -21.4967041015625
42.138671875 -1.5390625 -3.54150390625
-46.63232421875 15.2503662109375 38.9881591796875
-27.1884765625 49.4383544921875 -15.248291015625
-61.3076171875 22.7078857421875 24.65478515625
29.407470703125 6.9676513671875 -9.6993408203125
34.6806640625 21.2216796875 -56.8900146484375
47.056640625 14.441650390625 -40.75244140625
45.73095703125 17.026611328125 -46.32275390625
-51.859130859375 20.731689453125 29.811279296875
-54.80029296875 21.8214111328125 27.1353759765625
-24.100830078125 25.5135498046875 14.4552001953125
-50.198974609375 27.0400390625 11.659912109375
-52.47998046875 24.452880859375 19.3316650390625
57.85009765625 29.6422119140625 -74.91796875
-37.80419921875 27.090576171875 -23.530517578125
-33.06982421875 23.8563232421875 20.5343017578125
42.114013671875 3.13232421875 -8.833740234375
-46.550537109375 21.018310546875 29.424560546875
-31.19873046875 44.7974853515625 -13.269287109375
-60.86572265625 8.24853515625 39.78125
51.986572265625 20.894287109375 -50.81591796875
-27.961669921875 25.9859619140625 -11.699462890625
-44.987548828125 20.16015625 37.9727783203125
-15.9794921875 45.621826171875 -11.1431884765625
-41.754638671875 24.3800048828125 19.7877197265625
59.75146484375 26.8062744140625 -72.1583251953125
37.816162109375 24.964111328125 -60.580810546875
-31.35546875 18.9552001953125 31.7608642578125
-25.461669921875 13.093505859375 29.298828125
-26.052001953125 34.4683837890625 -40.8084716796875
-20.5244140625 17.58642578125 30.8828125
-28.8095703125 40.882568359375 -15.1483154296875
-23.8896484375 19.611328125 29.640869140625
-25.63037109375 38.0230712890625 -16.1602783203125
-60.877197265625 39.568603515625 17.8929443359375
23.018798828125 5.914794921875 -13.06787109375
47.93359375 2.5618896484375 -9.4986572265625
-36.5810546875 32.029541015625 -3.125732421875
-33.630615234375 26.4537353515625 12.9205322265625
37.511474609375 22.6217041015625 -52.393310546875
59.42236328125 14.193359375 -42.1917724609375
-51.2509765625 23.44580078125 22.6788330078125
46.009033203125 22.3079833984375 -61.186279296875
-67.504638671875 48.2802734375 -8.5765380859375
-31.813232421875 36.4871826171875 -13.1024169921875
-36.26708984375 22.6365966796875 23.291259765625
36.412109375 22.0089111328125 -56.828857421875
-29.038818359375 44.9560546875 -13.9349365234375
42.814208984375 8.9796142578125 -25.3563232421875
-35.662109375 29.26708984375 -36.0152587890625
49.856201171875 23.61962890625 -73.1943359375
-22.234619140625 54.61328125 -28.009521484375
-20.008544921875 52.9307861328125 -21.6322021484375
51.010986328125 18.7559814453125 -32.8436279296875
65.776611328125 21.3135986328125 -39.808349609375
-66.47705078125 14.75732421875 4.793701171875
-40.424560546875 52.0521240234375 -19.1314697265625
29.459228515625 4.7431640625 -9.0460205078125
47.75732421875 18.3623046875 -50.9293212890625
-54.58447265625 23.864013671875 20.565185546875
-53.143310546875 5.7247314453125 40.1591796875
-65.336181640625 38.76416015625 19.8265380859375
-28.673095703125 24.5386962890625 18.31591796875
53.998779296875 28.9791259765625 -68.629638671875
-65.764404296875 47.4503173828125 -7.1868896484375
45.933349609375 1.06689453125 -10.4449462890625
