-7.27099609375 32.0677490234375 -3.6534423828125
-27.128662109375 27.871337890625 10.4991455078125
-27.734375 28.2850341796875 17.454345703125
-21.17041015625 21.420166015625 5.5753173828125
70.886962890625 9.1610107421875 -32.854248046875
-21.38037109375 35.4891357421875 -31.9654541015625
-22.071533203125 24.5584716796875 14.0982666015625
16.241455078125 9.1141357421875 -12.81396484375
73.615234375 3.43896484375 -10.1656494140625
-41.806640625 19.41748046875 16.3519287109375
35.780029296875 29.3270263671875 -70.0831298828125
32.677734375 27.982177734375 -67.076416015625
30.775146484375 11.8189697265625 -31.5390625
54.0048828125 30.7701416015625 -78.4222412109375
36.75927734375 4.703857421875 -12.6802978515625
30.66796875 20.878662109375 -46.141845703125
11.540283203125 16.6224365234375 -14.938720703125
61.133544921875 4.775390625 -17.7763671875
66.379638671875 10.5477294921875 -8.4884033203125
57.464599609375 8.3651123046875 -28.922607421875
2.7431640625 26.7591552734375 -7.55419921875
-46.070556640625 15.2242431640625 17.1324462890625
29.86376953125 0.31494140625 2.1268310546875
36.314697265625 20.401611328125 -42.366455078125
-38.8974609375 7.91748046875 23.273681640625
39.838134765625 9.034423828125 -27.1297607421875
68.372802734375 11.5906982421875 -34.7734375
-37.997314453125 6.17529296875 26.7386474609375
73.41796875 2.02587890625 -11.8175048828125
54.266845703125 9.489501953125 -30.96728515625
66.46337890625 16.6715087890625 -43.63525390625
33.816162109375 2.5595703125 -1.9251708984375
12.675537109375 14.9974365234375 -14.5577392578125
-46.560791015625 23.9638671875 15.1029052734375
-20.298583984375 38.1173095703125 -33.72021484375
7.916748046875 19.8780517578125 -8.076171875
-46.4736328125 34.57568359375 -11.717041015625
56.6865234375 19.3599853515625 -40.2266845703125
55.25048828125 18.069580078125 -38.8255615234375
4.27587890625 25.6300048828125 -10.9561767578125
50.528076171875 18.2080078125 -40.0013427734375
1.33154296875 29.692138671875 -11.4534912109375
-26.36328125 39.4520263671875 -24.6051025390625
-21.979248046875 39.1907958984375 -23.4324951171875
42.016845703125 10.5946044921875 -30.8843994140625
39.861083984375 34.737060546875 -70.84228515625
15.2333984375 12.5562744140625 -17.9349365234375
14.005126953125 14.00439453125 -9.075439453125
62.770263671875 3.069580078125 -13.4600830078125
14.008544921875 12.1690673828125 -11.53515625
3.642578125 29.161865234375 -19.47900390625
5.82421875 26.86572265625 -21.7781982421875
49.524169921875 10.363037109375 -33.0748291015625
56.510009765625 21.9578857421875 -47.697998046875
-1.869140625 32.698974609375 -9.27587890625
-50.262451171875 29.2906494140625 6.6614990234375
55.49658203125 3.1871337890625 -12.392333984375
54.964599609375 6.868896484375 -10.0350341796875
34.6796875 21.092041015625 -47.11181640625
38.885986328125 6.5599365234375 -17.616943359375
66.475341796875 18.692626953125 -54.50830078125
21.587158203125 11.7664794921875 -29.76123046875
-15.22509765625 26.0118408203125 8.051513671875
29.994873046875 22.91064453125 -50.767578125
27.499267578125 0.2216796875 5.1163330078125
-12.365966796875 42.613037109375 -30.7406005859375
73.191650390625 9.047119140625 -33.0537109375
35.659423828125 6.3475341796875 -9.9302978515625
32.1533203125 6.1923828125 -9.3267822265625
46.1962890625 7.6795654296875 -22.0845947265625
18.457275390625 8.177001953125 -15.2760009765625
-30.10595703125 29.4176025390625 11.3802490234375
28.438232421875 7.224365234375 -9.34912109375
5.683837890625 22.68310546875 -7.8924560546875
19.89697265625 6.713623046875 -12.92333984375
35.85205078125 1.50634765625 2.6416015625
-16.169921875 34.199951171875 -10.3533935546875
47.739990234375 8.21923828125 -25.631103515625
-40.177978515625 24.03125 17.042236328125
19.865966796875 12.4447021484375 -30.427978515625
-15.318603515625 40.642822265625 -33.07568359375
-54.39501953125 50.8931884765625 -16.346923828125
57.329833984375 9.91943359375 -32.0296630859375
64.715087890625 18.7947998046875 -45.885498046875
25.04052734375 6.4412841796875 -9.7989501953125
29.307861328125 3.957275390625 -3.209716796875
51.81640625 27.4954833984375 -68.2188720703125
-39.040771484375 24.6029052734375 14.5355224609375
20.69482421875 9.591064453125 -22.9700927734375
11.36328125 20.18701171875 -24.5699462890625
64.251220703125 22.8060302734375 -63.8363037109375
-33.099853515625 36.6619873046875 -14.7154541015625
30.313720703125 5.53662109375 -9.7059326171875
21.488037109375 6.9075927734375 -15.63037109375
65.757568359375 10.903564453125 -34.8006591796875
79.436279296875 21.1165771484375 -20.35693359375
51.4462890625 16.79931640625 -36.805419921875
51.251953125 3.9801025390625 -16.306884765625
50.772705078125 20.061767578125 -45.246826171875
-4.375 57.2952880859375 -31.521240234375
34.706298828125 28.2301025390625 -68.6270751953125
71.06982421875 6.10546875 -9.68359375
54.65576171875 21.502685546875 -50.9486083984375
17.3232421875 12.8299560546875 -26.6728515625
20.934814453125 10.77490234375 -27.1917724609375
70.40478515625 1.965576171875 -11.2266845703125
53.092529296875 4.8564453125 -18.31201171875
53.264892578125 18.9256591796875 -43.5782470703125
-38.420654296875 9.19775390625 20.7144775390625
-38.491455078125 32.308349609375 -4.1285400390625
-0.732666015625 33.6331787109375 -15.2015380859375
-40.189453125 35.498779296875 -12.3714599609375
38.89990234375 29.544921875 -64.10400390625
54.147705078125 23.5687255859375 -58.8040771484375
1.72412109375 29.940185546875 -13.542236328125
-42.7216796875 11.0794677734375 18.2498779296875
-37.082763671875 7.3797607421875 23.8226318359375
41.5302734375 3.8291015625 -11.047607421875
-7.25341796875 48.4813232421875 -29.050048828125
-31.13818359375 37.5601806640625 -18.158203125
-39.377197265625 35.80078125 -15.3480224609375
28.42431640625 1.874755859375 1.782470703125
6.63671875 22.24658203125 -10.6103515625
-34.218017578125 30.7310791015625 0.9677734375
77.224609375 12.4925537109375 -7.4273681640625
48.560302734375 8.292724609375 -8.349609375
-21.37646484375 21.9320068359375 12.4510498046875
-42.61474609375 29.8333740234375 4.864501953125
14.691162109375 15.91064453125 -26.2943115234375
74.188720703125 5.237060546875 -10.095458984375
78.116943359375 11.6798095703125 -9.93896484375
-40.609375 37.0941162109375 -16.08056640625
36.475830078125 26.6993408203125 -62.7083740234375
-47.092529296875 32.0396728515625 -4.1251220703125
31.4541015625 24.48486328125 -56.78076171875
-43.47998046875 35.4215087890625 -33.40087890625
11.7734375 20.449951171875 -28.260498046875
66.899169921875 4.3218994140625 -18.0833740234375
-20.125732421875 23.56787109375 13.0977783203125
73.46435546875 16.35595703125 -43.42724609375
77.18505859375 3.21923828125 -17.571044921875
36.980712890625 21.035400390625 -40.445556640625
-26.17529296875 38.650390625 -22.736328125
-47.680419921875 34.1080322265625 -7.4627685546875
-33.558349609375 36.889892578125 -18.601318359375
-26.940673828125 34.47216796875 -10.592529296875
65.295166015625 10.2750244140625 -10.0599365234375
-40.42626953125 31.3634033203125 0.545654296875
-37.900390625 29.8831787109375 6.3475341796875
61.0986328125 11.0303955078125 -33.984375
73.1630859375 14.7037353515625 -39.8857421875
34.300537109375 5.6092529296875 -14.5765380859375
-36.812255859375 34.139892578125 -7.2935791015625
-34.977294921875 30.2274169921875 5.1881103515625
-48.70556640625 32.16064453125 -25.83203125
8.24609375 23.091552734375 -20.4652099609375
35.658447265625 4.1231689453125 -11.07177734375
-22.712890625 30.92578125 0.2845458984375
-0.53515625 32.58837890625 -12.917724609375
-12.20263671875 29.1558837890625 7.7320556640625
-6.794189453125 38.4517822265625 -22.350830078125
30.948486328125 21.9140625 -49.222900390625
74.281494140625 14.4881591796875 -37.3876953125
9.441162109375 18.5821533203125 -10.1817626953125
28.51318359375 18.3985595703125 -36.3953857421875
-1.697265625 36.5364990234375 -22.0814208984375
-23.552490234375 32.7947998046875 -5.916015625
34.99267578125 25.4847412109375 -59.630615234375
-17.258544921875 39.8922119140625 -36.0224609375
32.75048828125 20.5023193359375 -46.3001708984375
-30.505615234375 27.580810546875 15.76611328125
-39.63427734375 6.126708984375 25.8739013671875
-3.794921875 38.4566650390625 -23.8502197265625
66.826416015625 5.863525390625 -22.6712646484375
1.614990234375 30.5594482421875 -15.31884765625
-23.58740234375 35.6025390625 -29.5946044921875
-14.028564453125 36.1011962890625 -13.927001953125
-21.45068359375 33.9271240234375 -28.6900634765625
-10.387939453125 32.802001953125 -4.3619384765625
2.646240234375 27.0001220703125 -4.3177490234375
56.56396484375 12.29345703125 -9.40625
-42.443115234375 37.768310546875 -28.6912841796875
-10.112548828125 33.5933837890625 -7.398681640625
-31.32080078125 29.248779296875 9.266357421875
2.23583984375 32.035400390625 -22.6181640625
66.305908203125 4.6866455078125 -10.086669921875
70.827392578125 15.88134765625 -44.300537109375
-8.171630859375 38.9599609375 -23.801025390625
27.013916015625 5.5736083984375 -0.491455078125
-43.05126953125 34.7271728515625 -8.5838623046875
-14.221435546875 39.255615234375 -25.082763671875
-21.946044921875 25.383056640625 21.7996826171875
28.69482421875 6.35693359375 -15.466796875
-15.466796875 37.599365234375 -31.17431640625
1.721435546875 27.552001953125 -6.1068115234375
-45.36279296875 34.1298828125 -24.7379150390625
70.025634765625 3.6650390625 -19.285888671875
-27.323974609375 26.6058349609375 20.9969482421875
-10.53515625 40.087158203125 -26.710693359375
-16.053466796875 36.410400390625 -29.697265625
-21.9970703125 34.6348876953125 -34.362060546875
-21.50927734375 27.16796875 17.060302734375
54.003662109375 25.7010498046875 -65.492919921875
64.333740234375 20.8468017578125 -57.25537109375
36.0087890625 11.21728515625 -30.6455078125
36.45654296875 5.29541015625 -1.08740234375
-18.76416015625 33.5283203125 -30.118896484375
67.81787109375 7.7579345703125 -7.8758544921875
62.748291015625 3.9730224609375 -17.5068359375
31.641357421875 4.2403564453125 -5.4710693359375
36.546142578125 1.7396240234375 4.964599609375
-13.845458984375 26.7978515625 17.049072265625
30.962646484375 3.4908447265625 -3.8126220703125
-15.506591796875 26.595458984375 19.875244140625
64.25537109375 3.7103271484375 -15.424560546875
-38.268798828125 11.6090087890625 17.9771728515625
-28.626953125 28.3201904296875 20.72119140625
30.495361328125 19.0855712890625 -41.668701171875
-1.83056640625 34.8656005859375 -16.3306884765625
-9.448486328125 27.8419189453125 13.8233642578125
-28.63134765625 41.723876953125 -30.753173828125
58.369140625 29.75048828125 -69.119873046875
36.603759765625 9.8687744140625 -29.511474609375
-42.9228515625 35.9625244140625 -14.308837890625
30.39453125 16.638916015625 -34.653076171875
-15.827880859375 36.6495361328125 -17.499267578125
-47.179443359375 34.552978515625 -32.1807861328125
28.281494140625 20.03271484375 -39.6220703125
-42.04443359375 7.25439453125 25.23046875
36.6767578125 3.626708984375 1.9390869140625
2.105712890625 27.88427734375 -9.0225830078125
44.508544921875 9.0552978515625 -26.0299072265625
-48.125732421875 34.50537109375 -21.576416015625
-21.255126953125 21.6309814453125 8.406494140625
52.656494140625 10.015625 -31.5926513671875
37.95458984375 27.489501953125 -61.568359375
-28.052978515625 39.2420654296875 -23.8173828125
34.13037109375 0.2283935546875 2.763427734375
-19.9716796875 32.014404296875 -3.082763671875
57.731201171875 27.8702392578125 -65.7841796875
49.533447265625 5.5775146484375 -18.690185546875
20.918701171875 9.4171142578125 -9.8116455078125
23.798583984375 10.37255859375 -26.9132080078125
37.91455078125 31.6785888671875 -73.05224609375
40.2138671875 5.434326171875 -16.521484375
-11.65576171875 39.217041015625 -23.6458740234375
-38.452392578125 35.4962158203125 -11.8482666015625
68.452392578125 18.5753173828125 -55.1182861328125
21.40771484375 7.471435546875 -17.330078125
-47.695068359375 26.3719482421875 12.64013671875
24.980224609375 7.4122314453125 -17.0933837890625
-36.563232421875 6.9151611328125 27.5106201171875
78.64697265625 20.3453369140625 -16.6959228515625
24.440185546875 11.5499267578125 -30.718017578125
28.64404296875 3.02685546875 -0.3509521484375
50.628173828125 21.940673828125 -50.968017578125
18.3466796875 8.8812255859375 -17.0098876953125
11.339599609375 17.8282470703125 -18.012451171875
29.723388671875 -1.3961181640625 5.501953125
46.52197265625 4.3668212890625 -13.5706787109375
17.605224609375 11.0443115234375 -22.2763671875
-26.485595703125 26.7486572265625 18.127685546875
35.119384765625 4.1204833984375 -2.5167236328125
-18.271240234375 35.161865234375 -33.8040771484375
-12.33642578125 27.61865234375 14.5408935546875
-10.061279296875 37.729736328125 -20.7261962890625
32.63671875 21.5469970703125 -49.8167724609375
30.21728515625 18.1431884765625 -39.445556640625
48.1904296875 3.352783203125 -12.4901123046875
52.451904296875 19.613525390625 -47.019287109375
-27.583740234375 29.8245849609375 4.37109375
64.258056640625 4.2757568359375 -18.6319580078125
56.75634765625 24.2861328125 -54.7340087890625
-27.158203125 31.5870361328125 0.7813720703125
19.85205078125 7.1123046875 -14.98095703125
-31.78466796875 38.4683837890625 -21.3431396484375
-21.34619140625 37.093017578125 -32.72412109375
31.813232421875 18.3175048828125 -40.5826416015625
-36.11279296875 36.6512451171875 -17.43505859375
-37.891845703125 31.6026611328125 -0.6197509765625
-23.312744140625 39.39501953125 -24.8294677734375
32.737060546875 9.265625 -28.0572509765625
53.6005859375 8.172119140625 -27.577880859375
44.2255859375 4.2847900390625 -14.0870361328125
52.28955078125 31.44580078125 -77.9481201171875
-7.13525390625 51.8740234375 -29.7301025390625
-28.23779296875 38.1502685546875 -20.2178955078125
-7.20703125 46.3270263671875 -28.6104736328125
61.48583984375 5.8599853515625 -22.638671875
54.4072265625 31.0458984375 -80.1180419921875
3.9912109375 24.63916015625 -5.06640625
-44.93603515625 30.417236328125 3.4005126953125
32.4912109375 19.4140625 -44.02880859375
70.402587890625 10.4580078125 -34.36328125
-33.928466796875 34.7869873046875 -10.6214599609375
-17.882568359375 30.22705078125 1.8956298828125
57.7646484375 3.0906982421875 -10.6871337890625
52.873291015625 29.5633544921875 -74.4622802734375
-25.140380859375 32.28466796875 -5.0797119140625
-41.94189453125 35.53271484375 -12.477294921875
-32.501708984375 30.6741943359375 2.7379150390625
-2.176025390625 32.0311279296875 -6.6864013671875
56.268798828125 18.9632568359375 -36.564453125
53.36767578125 17.6221923828125 -40.054931640625
-29.654541015625 29.541748046875 5.5589599609375
34.4404296875 11.281494140625 -31.961181640625
-15.068603515625 45.17041015625 -36.1553955078125
71.564208984375 2.4959716796875 -15.09716796875
8.93505859375 21.6697998046875 -19.3245849609375
72.879638671875 7.7828369140625 -30.4482421875
-18.4716796875 26.77734375 18.07421875
-24.343994140625 30.54052734375 2.7601318359375
-21.480712890625 34.9345703125 -10.3646240234375
-44.9970703125 32.2974853515625 -3.63330078125
50.806884765625 6.1475830078125 -8.9814453125
-17.883056640625 38.2412109375 -21.7249755859375
-24.499755859375 38.8304443359375 -21.8193359375
28.6171875 5.7857666015625 -4.751220703125
40.07177734375 6.865966796875 -21.13720703125
42.739990234375 7.43994140625 -22.654296875
-26.6865234375 37.08837890625 -17.8055419921875
15.419189453125 11.455322265625 -15.7071533203125
-19.065185546875 25.861572265625 16.525146484375
71.960205078125 16.69384765625 -46.7952880859375
-8.319580078125 28.4732666015625 12.1429443359375
55.0546875 4.081787109375 -15.3096923828125
66.58447265625 3.415771484375 -16.3731689453125
62.049072265625 9.1776123046875 -31.920166015625
-44.992919921875 27.4619140625 11.364501953125
-16.181884765625 38.2674560546875 -20.7806396484375
-10.173583984375 44.469482421875 -33.5435791015625
64.915283203125 6.4039306640625 -25.2469482421875
-23.202392578125 27.081787109375 19.46875
0.460693359375 32.017333984375 -15.2454833984375
-55.18115234375 48.9149169921875 -12.1214599609375
30.984130859375 10.5018310546875 -30.434814453125
73.81201171875 2.55029296875 -14.9647216796875
28.749267578125 9.10888671875 -24.326171875
-28.468017578125 28.177978515625 8.730712890625
-20.7890625 35.011962890625 -35.6307373046875
-40.114990234375 33.564697265625 -7.7998046875
25.666015625 6.87890625 -4.7247314453125
77.66552734375 8.770751953125 -11.7274169921875
77.106689453125 6.702392578125 -28.3551025390625
33.222412109375 8.1361083984375 -22.2440185546875
65.19775390625 8.3753662109375 -31.1239013671875
37.029541015625 9.3521728515625 -26.5980224609375
52.197021484375 22.64697265625 -54.66650390625
-23.6884765625 24.401611328125 11.576416015625
46.34228515625 6.1898193359375 -18.2401123046875
38.65234375 4.80224609375 -10.62939453125
51.30615234375 7.1776123046875 -22.033935546875
51.3984375 6.94873046875 -25.1092529296875
-18.424560546875 38.839599609375 -24.83935546875
-30.6162109375 28.05224609375 14.0386962890625
26.37890625 7.5521240234375 -7.562255859375
-24.771484375 38.1097412109375 -19.5772705078125
-12.145751953125 33.102783203125 -4.9251708984375
-20.836181640625 37.9290771484375 -20.152587890625
-42.64697265625 35.454833984375 -29.515380859375
76.169677734375 7.81103515625 -8.5428466796875
35.599365234375 7.7884521484375 -20.044921875
33.5986328125 27.140625 -65.1199951171875
32.28759765625 5.1546630859375 -6.7740478515625
63.56396484375 9.5123291015625 -32.6734619140625
-15.80810546875 37.3385009765625 -33.2581787109375
-38.60693359375 6.895263671875 24.619873046875
61.010009765625 4.5196533203125 -10.3785400390625
-19.120361328125 35.869873046875 -12.498291015625
-24.424072265625 30.9554443359375 0.1900634765625
64.8037109375 18.370849609375 -47.767578125
-7.983642578125 37.8927001953125 -19.3681640625
52.953857421875 10.9505615234375 -33.3619384765625
-28.46728515625 27.9239501953125 15.3992919921875
37.73095703125 25.7158203125 -56.197265625
-49.195556640625 25.598388671875 13.9263916015625
-18.978515625 32.60888671875 -28.6805419921875
-42.822998046875 4.1241455078125 33.575439453125
-14.994140625 34.51806640625 -8.2490234375
74.4111328125 12.696533203125 -35.3829345703125
-43.555908203125 28.5330810546875 7.9400634765625
57.420166015625 26.564208984375 -62.189453125
-10.097412109375 35.7431640625 -14.8907470703125
56.9140625 29.5064697265625 -74.9163818359375
68.87109375 16.2930908203125 -45.343994140625
64.41650390625 7.689697265625 -26.7314453125
57.336669921875 28.398681640625 -69.2347412109375
38.8955078125 29.372314453125 -62.4088134765625
-48.19140625 32.82958984375 -5.15966796875
68.457763671875 17.834716796875 -51.7322998046875
53.194580078125 30.53857421875 -76.77685546875
70.65966796875 5.91357421875 -7.3575439453125
69.474609375 7.28759765625 -29.0185546875
19.975341796875 11.730224609375 -28.6622314453125
19.620849609375 8.6240234375 -18.8643798828125
65.1669921875 17.897705078125 -44.03466796875
37.962890625 7.781494140625 -20.6783447265625
-38.06591796875 22.6268310546875 16.50146484375
61.778076171875 7.4847412109375 -27.647216796875
-37.578125 25.462646484375 14.4854736328125
35.32177734375 29.837646484375 -71.9207763671875
2.044189453125 33.078369140625 -24.919921875
32.474853515625 5.00244140625 -16.1396484375
51.22607421875 4.3974609375 -17.9488525390625
76.95751953125 4.19287109375 -11.6417236328125
-8.872314453125 31.6806640625 -3.260498046875
-29.3720703125 27.989501953125 19.0753173828125
71.706298828125 1.7486572265625 -18.0054931640625
55.774169921875 4.8736572265625 -18.1424560546875
7.3515625 25.7354736328125 -25.1541748046875
16.191650390625 11.9168701171875 -19.747314453125
74.350341796875 8.0953369140625 -29.6385498046875
74.963623046875 1.7022705078125 -12.422119140625
-42.322021484375 35.8983154296875 -31.291259765625
-7.73974609375 48.849365234375 -31.3009033203125
4.43603515625 24.677001953125 -7.90966796875
54.028076171875 25.04736328125 -62.4613037109375
53.463623046875 16.435302734375 -36.9747314453125
34.6376953125 21.626708984375 -49.684326171875
76.75732421875 4.6036376953125 -20.966796875
-39.1484375 38.1688232421875 -17.8956298828125
-41.262939453125 34.600830078125 -9.7327880859375
57.3994140625 27.021484375 -63.945556640625
33.4892578125 21.126220703125 -48.4278564453125
3.19921875 29.1793212890625 -17.8568115234375
-37.626708984375 4.766845703125 32.1142578125
77.917724609375 3.000732421875 -15.944091796875
-11.899658203125 27.3759765625 17.8817138671875
-17.724365234375 25.6114501953125 14.9776611328125
-15.791015625 26.2198486328125 16.2164306640625
28.72265625 23.125 -49.6932373046875
-31.90087890625 35.34619140625 -12.29443359375
-39.227294921875 6.098876953125 27.8973388671875
30.989013671875 4.656982421875 -17.3414306640625
-12.9619140625 41.4073486328125 -29.254638671875
-36.661865234375 30.106689453125 5.121826171875
37.179443359375 23.0030517578125 -46.5816650390625
51.721923828125 28.4210205078125 -69.716796875
-8.732666015625 37.3475341796875 -17.62744140625
62.824462890625 24.640625 -62.4385986328125
31.738037109375 25.5347900390625 -59.904541015625
33.40185546875 25.335205078125 -60.12841796875
0.67724609375 28.4639892578125 -5.0880126953125
-23.2294921875 21.1455078125 8.79052734375
-18.44775390625 22.2021484375 6.412841796875
73.6884765625 6.177490234375 -8.766845703125
9.23291015625 22.4259033203125 -22.311767578125
-7.46923828125 45.7188720703125 -31.0655517578125
31.64013671875 -1.155029296875 4.0201416015625
77.963623046875 20.3035888671875 -20.2841796875
-38.4443359375 33.805908203125 -8.1708984375
48.99853515625 21.3001708984375 -44.4742431640625
-46.452880859375 28.0689697265625 9.5380859375
-12.953125 45.39306640625 -36.0621337890625
-26.767333984375 43.0416259765625 -33.04736328125
-36.674072265625 5.8267822265625 29.2359619140625
64.279052734375 21.9095458984375 -60.3619384765625
55.21630859375 25.77294921875 -66.634033203125
-17.5732421875 20.233154296875 10.0218505859375
-18.781982421875 20.01513671875 11.2181396484375
16.120849609375 9.4842529296875 -9.7120361328125
64.4375 8.02587890625 -29.5357666015625
65.273193359375 19.47509765625 -57.2137451171875
41.76904296875 5.0897216796875 -13.6185302734375
-16.195068359375 36.2125244140625 -13.65283203125
26.53662109375 7.6148681640625 -17.8262939453125
-44.162109375 26.0531005859375 13.2666015625
57.996337890625 30.0218505859375 -72.09912109375
-40.87939453125 38.505615234375 -30.880615234375
28.29052734375 5.26416015625 -3.108642578125
-45.646484375 28.30615234375 7.87109375
-29.595458984375 31.0484619140625 1.9932861328125
49.21533203125 19.16845703125 -40.3250732421875
7.193115234375 21.654541015625 -12.0972900390625
8.881591796875 19.4696044921875 -12.4031982421875
-41.9169921875 28.86181640625 6.7186279296875
34.597900390625 17.9388427734375 -35.861083984375
37.271728515625 30.38330078125 -71.495849609375
-30.98583984375 42.34326171875 -30.17431640625
-39.6650390625 37.35595703125 -32.2750244140625
8.724853515625 20.349365234375 -14.2008056640625
-32.99267578125 29.212158203125 6.2747802734375
77.181396484375 9.2720947265625 -9.1468505859375
21.140625 6.51708984375 -13.9945068359375
37.19482421875 23.140869140625 -48.6478271484375
67.202880859375 6.5313720703125 -25.8966064453125
34.56103515625 25.9271240234375 -62.2449951171875
66.472412109375 17.9801025390625 -50.729736328125
16.115478515625 15.10546875 -29.6566162109375
22.162353515625 10.7115478515625 -28.2930908203125
-41.59423828125 5.6400146484375 29.85546875
-22.1328125 20.1112060546875 9.8157958984375
44.08154296875 5.6590576171875 -17.49462890625
-12.408935546875 36.552001953125 -15.5955810546875
-18.520263671875 36.078125 -31.901611328125
37.970458984375 8.092529296875 -23.8951416015625
30.094970703125 25.4195556640625 -57.952392578125
-9.094482421875 34.868408203125 -10.90576171875
-40.520751953125 28.4334716796875 8.9376220703125
-39.5615234375 4.2730712890625 34.086181640625
11.022216796875 17.062744140625 -13.4404296875
-4.407470703125 32.527099609375 -5.235107421875
-26.85400390625 28.280517578125 14.5970458984375
56.447509765625 30.826416015625 -79.870849609375
30.29638671875 9.7340087890625 -28.7225341796875
55.15087890625 7.6884765625 -24.625732421875
67.614501953125 19.404296875 -56.60546875
35.45849609375 5.8182373046875 -15.7225341796875
31.305419921875 4.822265625 -14.6077880859375
32.77978515625 5.273193359375 -13.8204345703125
40.043701171875 6.7689208984375 -18.762939453125
-9.33837890625 42.42822265625 -28.3809814453125
64.34228515625 2.639404296875 -13.660888671875
-35.778564453125 38.743408203125 -21.6380615234375
14.340087890625 18.015380859375 -30.8145751953125
13.042724609375 15.423583984375 -17.83642578125
55.255615234375 17.76806640625 -37.1573486328125
-25.6318359375 40.0362548828125 -25.9521484375
31.77197265625 7.1292724609375 -19.36767578125
76.420654296875 2.8031005859375 -15.2330322265625
-14.8935546875 26.15478515625 12.5699462890625
35.165283203125 20.4293212890625 -45.6966552734375
56.921875 29.7940673828125 -77.0535888671875
49.613525390625 5.8726806640625 -5.1107177734375
6.7763671875 23.950927734375 -16.6353759765625
23.414306640625 15.1953125 -33.60693359375
77.587890625 1.899169921875 -13.4437255859375
44.28759765625 7.1968994140625 -20.146728515625
10.1494140625 17.0443115234375 -9.052001953125
32.380615234375 8.7947998046875 -25.6025390625
-28.741943359375 27.514892578125 11.3013916015625
41.95654296875 6.9913330078125 -18.6856689453125
65.639892578125 18.8885498046875 -53.0272216796875
36.837890625 13.5677490234375 -10.0364990234375
68.113525390625 3.1732177734375 -15.8402099609375
67.33984375 10.3779296875 -34.17236328125
-16.72509765625 26.37548828125 21.0811767578125
-15.457763671875 26.4744873046875 18.2509765625
37.328369140625 21.1422119140625 -38.4229736328125
51.6123046875 3.9259033203125 -14.719482421875
-17.72119140625 37.778076171875 -25.8543701171875
72.377197265625 4.4910888671875 -10.06201171875
-5.105224609375 38.537841796875 -22.6845703125
23.60205078125 8.9183349609375 -22.6400146484375
36.406982421875 11.2293701171875 -8.834228515625
-22.6083984375 33.545654296875 -31.6378173828125
56.44482421875 6.170166015625 -2.827392578125
35.43701171875 7.4639892578125 -7.7989501953125
60.1845703125 7.9266357421875 -27.464111328125
58.030029296875 29.011474609375 -67.7122802734375
-47.2421875 33.2227783203125 -29.77978515625
63.836669921875 22.681396484375 -62.2218017578125
-29.0986328125 38.0616455078125 -18.554931640625
66.065673828125 6.83544921875 -10.1295166015625
31.98486328125 16.7315673828125 -34.96484375
-18.436767578125 38.8099365234375 -23.139404296875
-50.0009765625 31.9998779296875 -21.63525390625
37.95947265625 11.5693359375 -32.5762939453125
29.706787109375 6.631591796875 -8.3763427734375
-23.13916015625 36.5926513671875 -14.9688720703125
-14.81689453125 27.80712890625 7.39111328125
29.2109375 5.8004150390625 -16.898193359375
29.727783203125 21.757568359375 -47.24072265625
54.886962890625 30.01171875 -77.2967529296875
68.4267578125 5.162841796875 -22.801025390625
66.905517578125 4.8883056640625 -21.2952880859375
-34.744873046875 36.2984619140625 -13.8974609375
71.8642578125 5.5439453125 -25.748291015625
28.67041015625 0.296875 4.0035400390625
57.24755859375 21.634033203125 -43.1378173828125
72.186767578125 2.76416015625 -10.5057373046875
13.552001953125 12.3245849609375 -9.9927978515625
-0.35791015625 34.004638671875 -17.748779296875
36.887939453125 7.0313720703125 -19.4124755859375
-53.669677734375 49.9013671875 -13.513916015625
70.84814453125 15.3095703125 -42.5748291015625
29.90478515625 17.2923583984375 -36.0440673828125
-29.64794921875 36.775146484375 -16.22900390625
2.913818359375 28.316650390625 -13.996826171875
-6.990478515625 34.99951171875 -12.0626220703125
20.81982421875 7.89404296875 -10.3243408203125
22.851806640625 8.4052734375 -19.408203125
-43.684814453125 7.2269287109375 22.74951171875
-34.25830078125 32.6087646484375 -3.9503173828125
34.25830078125 9.5550537109375 -27.6209716796875
75.646484375 4.03271484375 -19.3792724609375
44.583740234375 4.0782470703125 -10.9091796875
15.76123046875 9.4051513671875 -11.308349609375
56.54296875 13.492431640625 -34.8787841796875
53.505615234375 12.75830078125 -34.133544921875
29.78564453125 18.16015625 -37.865478515625
33.195068359375 23.65625 -55.6103515625
5.47900390625 23.469482421875 -5.189208984375
69.876708984375 6.4296875 -8.66015625
54.79248046875 5.276123046875 -10.12890625
-40.09619140625 31.82666015625 -2.8734130859375
46.037109375 9.7337646484375 -29.6236572265625
64.673095703125 10.12548828125 -33.912353515625
77.822021484375 6.5355224609375 -25.9462890625
23.703369140625 7.1795654296875 -8.833984375
38.37158203125 4.4752197265625 -13.7086181640625
52.691162109375 2.6136474609375 -2.019775390625
46.025390625 10.0264892578125 -31.2691650390625
17.097412109375 9.001708984375 -15.1243896484375
53.347412109375 3.7218017578125 -4.1131591796875
35.46630859375 9.25732421875 -26.2869873046875
31.201171875 5.080810546875 -11.134765625
58.457763671875 28.1925048828125 -64.1798095703125
41.247314453125 10.6905517578125 -32.5443115234375
42.926025390625 9.203369140625 -26.1685791015625
5.641357421875 28.0308837890625 -26.1485595703125
-14.2177734375 37.13232421875 -18.757568359375
-51.31201171875 33.0306396484375 -4.9381103515625
1.177978515625 32.9056396484375 -20.359375
-0.0966796875 29.98681640625 -3.327880859375
-43.138916015625 5.2852783203125 28.632080078125
66.910888671875 9.061767578125 -7.787841796875
-19.3212890625 36.8421630859375 -16.056396484375
56.291015625 7.8409423828125 -5.8582763671875
56.270263671875 8.16552734375 -25.82763671875
53.286376953125 7.3814697265625 -25.8587646484375
-39.3408203125 27.218505859375 12.0836181640625
34.498291015625 5.907470703125 -6.39111328125
28.963623046875 7.41455078125 -19.21142578125
73.6259765625 7.45263671875 -28.3782958984375
74.94384765625 2.7545166015625 -16.0849609375
47.149169921875 9.9805908203125 -28.41845703125
69.641845703125 16.7607421875 -47.3870849609375
13.933837890625 17.8907470703125 -29.193603515625
-49.7041015625 32.4141845703125 -19.5743408203125
34.459716796875 10.90673828125 -29.490966796875
53.166748046875 20.5120849609375 -49.2008056640625
69.5048828125 3.166015625 -10.365478515625
-41.607666015625 4.093017578125 38.4107666015625
49.51025390625 7.010498046875 -8.0528564453125
56.462158203125 7.2308349609375 -10.402587890625
34.2705078125 24.7919921875 -58.276123046875
-43.000244140625 24.9910888671875 14.298095703125
48.606201171875 21.0343017578125 -42.82666015625
67.27099609375 4.7017822265625 -19.684326171875
-5.120849609375 36.248046875 -14.6912841796875
57.231201171875 5.7864990234375 -20.1815185546875
22.345703125 12.1265869140625 -31.3896484375
-23.50146484375 38.576904296875 -28.0770263671875
-38.617919921875 31.0623779296875 1.1064453125
36.44384765625 7.7552490234375 -23.1361083984375
54.50830078125 5.7794189453125 -18.4107666015625
-45.145751953125 31.22705078125 -0.0985107421875
18.35791015625 8.281494140625 -10.1480712890625
48.89794921875 8.42822265625 -26.777099609375
76.2919921875 8.4595947265625 -33.0848388671875
57.72705078125 4.099853515625 -15.1441650390625
52.626708984375 5.7110595703125 -20.0771484375
50.0771484375 3.3192138671875 -10.4278564453125
27.933349609375 7.5986328125 -6.6917724609375
64.286865234375 20.9637451171875 -55.6837158203125
49.97119140625 4.8079833984375 -15.7777099609375
-50.472900390625 32.2510986328125 -27.236083984375
-41.8486328125 31.8883056640625 -2.5560302734375
-19.3486328125 37.3846435546875 -25.455078125
36.677978515625 20.036376953125 -37.00146484375
68.65185546875 6.6307373046875 -5.6817626953125
36.979248046875 6.154296875 -16.478759765625
67.9140625 6.6016845703125 -23.9217529296875
74.791748046875 6.375732421875 -24.9573974609375
-27.367919921875 28.8765869140625 7.8515625
73.025390625 4.08984375 -20.3343505859375
-7.862548828125 28.1693115234375 14.674072265625
0.4619140625 34.507080078125 -24.0555419921875
-21.513427734375 36.985595703125 -15.3677978515625
48.428466796875 4.56005859375 -13.8792724609375
-16.92236328125 21.0938720703125 7.0677490234375
-6.20556640625 37.5526123046875 -19.1956787109375
32.924560546875 10.80419921875 -31.1636962890625
-8.18603515625 50.88232421875 -32.17919921875
5.553466796875 25.8948974609375 -17.49365234375
-39.300048828125 30.37255859375 2.85546875
27.065185546875 6.1243896484375 -9.6182861328125
18.92919921875 10.4583740234375 -22.8673095703125
67.38818359375 7.9075927734375 -6.38037109375
79.04931640625 3.71875 -19.08935546875
-19.413330078125 36.023193359375 -27.7216796875
-12.903076171875 43.159423828125 -32.593994140625
-40.48583984375 25.1748046875 14.3897705078125
40.01953125 10.5458984375 -28.635009765625
38.168212890625 9.96337890625 -29.8211669921875
31.723388671875 22.2847900390625 -50.8858642578125
50.482177734375 18.791015625 -41.746826171875
-7.64599609375 31.2645263671875 7.229736328125
-8.4501953125 35.9224853515625 -13.98876953125
32.928466796875 3.3424072265625 -3.283203125
20.0048828125 6.015869140625 -11.20361328125
52.529052734375 28.6512451171875 -71.354248046875
-27.7724609375 36.1304931640625 -13.887451171875
71.8916015625 2.294189453125 -11.9659423828125
65.5361328125 8.164794921875 -27.929931640625
-51.807373046875 51.25927734375 -15.82763671875
34.45849609375 23.021484375 -52.4921875
47.64501953125 9.8692626953125 -33.0943603515625
55.552490234375 4.1531982421875 -2.51708984375
-1.82470703125 37.2030029296875 -23.4791259765625
70.364501953125 5.3170166015625 -25.41357421875
38.7890625 29.728759765625 -59.6279296875
-8.01318359375 44.3480224609375 -31.6700439453125
-8.477294921875 42.516845703125 -30.0439453125
-17.8212890625 33.784423828125 -6.1875
25.64599609375 5.37353515625 -10.7413330078125
75.719970703125 15.3497314453125 -36.6995849609375
16.473876953125 10.2171630859375 -16.197021484375
17.84423828125 9.5169677734375 -18.3614501953125
8.125732421875 21.3331298828125 -15.23681640625
27.75048828125 10.753662109375 -29.517822265625
-13.53076171875 33.687744140625 -7.187744140625
45.942138671875 6.5909423828125 -20.6968994140625
-26.6064453125 40.5040283203125 -27.385498046875
37.94873046875 27.2327880859375 -59.036376953125
49.7451171875 6.9573974609375 -19.742919921875
-25.59033203125 32.30224609375 -3.432861328125
25.153076171875 9.150390625 -22.9842529296875
66.484130859375 19.5997314453125 -59.55322265625
-7.255859375 44.5615234375 -27.4039306640625
-28.3994140625 44.2884521484375 -33.4140625
69.46875 6.5062255859375 -24.960205078125
55.781494140625 9.74755859375 -30.919921875
-17.73291015625 34.4534912109375 -28.1375732421875
78.63818359375 5.076904296875 -22.868896484375
68.634765625 8.6322021484375 -32.111572265625
59.499267578125 6.830810546875 -24.9281005859375
-43.545166015625 35.015380859375 -11.6285400390625
-10.134521484375 42.245849609375 -30.0950927734375
-14.737060546875 25.650146484375 9.7738037109375
-36.876708984375 36.224365234375 -16.1280517578125
72.81787109375 14.0081787109375 -38.5615234375
-6.58056640625 55.281494140625 -29.952392578125
-18.6005859375 31.6097412109375 -2.525390625
35.884765625 6.8966064453125 -5.7073974609375
-47.957763671875 32.5291748046875 -23.73486328125
69.68408203125 2.8184814453125 -16.8214111328125
-46.002685546875 33.3642578125 -25.9019775390625
-40.978271484375 26.947998046875 12.0440673828125
-44.30078125 9.3126220703125 20.4361572265625
67.697021484375 17.3359375 -50.0699462890625
-46.515869140625 33.566162109375 -23.8485107421875
59.32568359375 9.4354248046875 -32.1712646484375
58.97314453125 8.62255859375 -28.8758544921875
55.588623046875 7.8193359375 -9.01025390625
-25.37646484375 27.4127197265625 16.8509521484375
34.8720703125 7.611083984375 -21.6319580078125
52.04052734375 8.3961181640625 -28.5191650390625
57.779052734375 26.32763671875 -58.842041015625
51.334228515625 7.197509765625 -23.6015625
29.9228515625 23.510009765625 -52.55810546875
-48.720458984375 31.646240234375 -3.7257080078125
-33.239990234375 35.545654296875 -13.6751708984375
51.39501953125 17.489013671875 -38.9677734375
32.958251953125 5.93701171875 -8.054443359375
-24.203857421875 39.5517578125 -26.1917724609375
-26.044921875 26.5362548828125 21.88623046875
71.81884765625 5.6571044921875 -24.2279052734375
-40.89892578125 29.8929443359375 4.104248046875
-25.85302734375 35.30517578125 -11.94140625
-15.390625 36.4833984375 -14.9171142578125
-23.18115234375 38.7794189453125 -22.57763671875
-13.991943359375 27.810791015625 8.6688232421875
-55.336181640625 49.4635009765625 -13.5313720703125
4.658447265625 28.4505615234375 -21.75439453125
78.315185546875 13.8031005859375 -10.3345947265625
-15.086181640625 30.9854736328125 0.259521484375
-18.68115234375 35.942626953125 -15.0107421875
26.377197265625 7.7080078125 -9.168212890625
-22.9423828125 26.2757568359375 14.642333984375
-29.74560546875 33.4959716796875 -5.5343017578125
0.368408203125 30.0531005859375 -7.8551025390625
-13.1689453125 27.7579345703125 11.1890869140625
-36.683349609375 32.0057373046875 -3.5609130859375
55.53515625 19.85986328125 -44.84033203125
73.905517578125 9.8280029296875 -34.355224609375
-41.514404296875 36.1724853515625 -32.575927734375
68.08447265625 16.0728759765625 -43.762451171875
-29.67431640625 40.6243896484375 -28.4576416015625
66.47509765625 17.460205078125 -48.205810546875
2.37744140625 28.775634765625 -12.4637451171875
-37.084228515625 33.518310546875 -5.938232421875
50.60595703125 7.492919921875 -28.0250244140625
66.042724609375 19.3427734375 -55.9150390625
-11.710693359375 37.27978515625 -16.9510498046875
-37.713134765625 37.717041015625 -17.72705078125
-7.211669921875 38.316650390625 -20.6654052734375
49.248291015625 23.3441162109375 -51.4317626953125
-28.43310546875 31.71630859375 -3.4891357421875
-44.7802734375 33.71240234375 -27.59521484375
55.965087890625 7.629150390625 -7.3946533203125
-35.014892578125 30.462646484375 2.223876953125
49.7822265625 7.1312255859375 -22.9075927734375
-8.87890625 33.8160400390625 -8.61962890625
-37.72509765625 36.1046142578125 -14.8829345703125
-48.921630859375 33.8507080078125 -6.6396484375
-6.018798828125 34.2486572265625 -8.5341796875
-49.520751953125 31.919677734375 -24.1368408203125
15.080322265625 16.1455078125 -28.3370361328125
-10.794189453125 41.25927734375 -27.811767578125
-25.7802734375 38.7271728515625 -21.0283203125
16.0849609375 12.68310546875 -22.7135009765625
57.43115234375 25.62744140625 -57.059326171875
35.62841796875 5.9427490234375 -4.375
74.84765625 6.3385009765625 -27.268310546875
4.739990234375 25.552490234375 -13.37451171875
-3.2705078125 33.3140869140625 -9.048095703125
32.069091796875 7.8192138671875 -20.673828125
53.851318359375 9.9534912109375 -32.6759033203125
-19.598876953125 38.185546875 -20.972900390625
-40.25537109375 39.4345703125 -31.888427734375
-31.0556640625 35.46533203125 -13.5347900390625
-16.24267578125 38.603759765625 -22.5406494140625
-11.2021484375 30.2396240234375 8.0333251953125
-19.53564453125 37.849365234375 -19.213134765625
-39.73046875 33.673583984375 -5.6866455078125
-50.42724609375 31.4110107421875 0.8621826171875
-20.068603515625 33.576171875 -29.3712158203125
-10.42041015625 39.47314453125 -24.465087890625
-47.7998046875 31.379150390625 0.1602783203125
-41.03759765625 35.379150390625 -11.1265869140625
-0.546875 30.293212890625 -5.88232421875
-13.237548828125 32.22216796875 -2.33837890625
33.126953125 24.2568359375 -57.4078369140625
50.0498046875 23.8514404296875 -55.1495361328125
-45.376953125 30.48974609375 1.6871337890625
-12.93115234375 30.8502197265625 -0.4354248046875
-41.97900390625 30.673583984375 3.0916748046875
-26.424072265625 30.2308349609375 5.61669921875
-19.47216796875 37.5137939453125 -17.4560546875
-21.52099609375 37.5272216796875 -26.8907470703125
-34.652099609375 32.531005859375 -5.6397705078125
-29.711181640625 33.46240234375 -8.0484619140625
-25.2509765625 34.531982421875 -9.2457275390625
4.392578125 24.99267578125 -9.6051025390625
5.93505859375 23.755859375 -12.56103515625
53.84130859375 22.39404296875 -55.6837158203125
-28.261962890625 40.2001953125 -27.855712890625
66.04248046875 16.1715087890625 -39.5767822265625
-29.947021484375 37.9420166015625 -17.309814453125
34.66552734375 9.1749267578125 -24.7401123046875
12.39306640625 19.32666015625 -27.16796875
-7.130859375 42.031494140625 -26.038330078125
56.096923828125 23.1170654296875 -54.0771484375
49.57470703125 6.76220703125 -9.561767578125
-7.05712890625 49.4742431640625 -27.9512939453125
-12.655029296875 29.374755859375 6.0238037109375
31.74169921875 0.820556640625 0.5927734375
-16.8173828125 34.4462890625 -33.1331787109375
-35.731689453125 29.8094482421875 6.4661865234375
-9.80615234375 29.6619873046875 8.1883544921875
-14.58056640625 34.6514892578125 -9.924072265625
-27.678955078125 31.9913330078125 -0.564697265625
53.089599609375 27.1334228515625 -69.2366943359375
-10.15087890625 29.1217041015625 12.374755859375
21.974365234375 9.0965576171875 -22.385986328125
8.714111328125 19.8856201171875 -6.81640625
-41.744873046875 28.1795654296875 9.7493896484375
-7.84033203125 30.2120361328125 8.6165771484375
-10.51513671875 37.6875 -17.7979736328125
20.804443359375 8.806396484375 -20.414794921875
16.977294921875 12.349853515625 -24.18896484375
58.79150390625 5.6151123046875 -20.432373046875
-15.904296875 32.8797607421875 -5.5106201171875
54.555908203125 23.2181396484375 -57.0577392578125
32.8974609375 22.6441650390625 -52.109130859375
-21.01416015625 23.989501953125 7.6551513671875
-41.884033203125 8.202880859375 21.4954833984375
-38.548583984375 27.4849853515625 10.8358154296875
6.985107421875 22.8001708984375 -14.361328125
-15.7841796875 32.2821044921875 -3.318359375
21.43798828125 9.9779052734375 -24.1971435546875
75.273681640625 4.76318359375 -22.641845703125
-10.620361328125 27.4447021484375 14.6453857421875
-19.770751953125 31.0028076171875 1.6749267578125
36.19140625 25.4471435546875 -58.2957763671875
-36.53076171875 31.3466796875 -0.088134765625
49.283935546875 18.252197265625 -37.298583984375
70.505126953125 14.6116943359375 -41.2442626953125
-7.194580078125 50.1732177734375 -29.38916015625
30.279052734375 5.3919677734375 -6.15185546875
33.914306640625 1.849365234375 -0.6287841796875
-50.279296875 34.311767578125 -19.1153564453125
52.001220703125 25.1732177734375 -61.84765625
-11.4296875 31.42333984375 3.700927734375
-13.800537109375 30.7667236328125 3.2667236328125
-3.576416015625 32.6444091796875 -6.4549560546875
-45.068359375 34.8114013671875 -31.6707763671875
4.99658203125 29.049072265625 -25.1590576171875
-24.96240234375 27.6826171875 11.044677734375
33.65869140625 30.0133056640625 -72.1116943359375
35.33349609375 2.5618896484375 0.1038818359375
45.42431640625 7.8013916015625 -23.339111328125
68.071044921875 17.1357421875 -48.3980712890625
-19.712890625 38.7069091796875 -22.3507080078125
-38.171142578125 8.3099365234375 22.0489501953125
69.39111328125 13.1585693359375 -36.2470703125
65.20654296875 17.291015625 -42.68896484375
-30.634033203125 31.8843994140625 -2.37841796875
-2.4169921875 31.067626953125 -4.0496826171875
-21.63232421875 27.5279541015625 19.8929443359375
-25.204833984375 26.622802734375 20.2635498046875
-23.141357421875 26.9300537109375 17.4300537109375
-39.188720703125 4.471923828125 31.68603515625
3.053955078125 30.0322265625 -20.5125732421875
31.604736328125 20.0030517578125 -45.0472412109375
-24.859130859375 36.6561279296875 -16.77099609375
50.400634765625 24.5198974609375 -57.32763671875
33.59716796875 4.1197509765625 -4.554443359375
-39.385986328125 34.110107421875 -9.5428466796875
30.435546875 8.1312255859375 -20.4488525390625
55.536376953125 8.1240234375 -27.434814453125
-10.287353515625 27.6993408203125 16.679931640625
-21.760986328125 23.415771484375 12.6312255859375
-14.684326171875 39.5477294921875 -28.136474609375
57.855712890625 7.856689453125 -26.0439453125
-19.79833984375 35.05322265625 -10.290283203125
28.519775390625 21.4044189453125 -43.98974609375
59.437744140625 7.5484619140625 -26.2596435546875
37.572265625 22.8238525390625 -44.4771728515625
31.870361328125 27.75048828125 -65.4288330078125
-15.283935546875 38.5650634765625 -30.0927734375
-17.1513671875 21.7734375 12.267578125
-37.6005859375 4.5899658203125 35.32373046875
16.680419921875 14.1746826171875 -28.2091064453125
13.91796875 12.745849609375 -13.2493896484375
41.426025390625 8.545654296875 -24.156494140625
-21.516845703125 34.3773193359375 -33.0076904296875
64.169677734375 6.0283203125 -24.0496826171875
37.3251953125 21.5870361328125 -42.170654296875
51.524169921875 30.6007080078125 -74.46826171875
68.9453125 14.8734130859375 -41.8194580078125
-45.07177734375 29.323974609375 6.4937744140625
44.68701171875 11.3880615234375 -33.2542724609375
-15.998291015625 20.5599365234375 10.8665771484375
-21.517822265625 19.296142578125 11.189697265625
-15.5947265625 20.6866455078125 9.2364501953125
34.569091796875 18.5186767578125 -39.623779296875
-18.048583984375 20.3404541015625 12.837646484375
-22.6083984375 32.3165283203125 -2.8568115234375
55.5849609375 31.4403076171875 -80.956298828125
-8.4921875 36.2237548828125 -16.1431884765625
41.26318359375 5.4881591796875 -10.6021728515625
51.734130859375 6.690673828125 -20.73046875
49.850830078125 21.5733642578125 -49.3192138671875
51.785888671875 17.751220703125 -40.60107421875
32.78955078125 5.0140380859375 -11.8092041015625
-36.914794921875 29.4058837890625 7.302490234375
40.3037109375 7.9874267578125 -22.143310546875
57.205078125 23.2288818359375 -50.7877197265625
-31.4189453125 33.28662109375 -4.7498779296875
62.892822265625 7.4901123046875 -26.01171875
-4.76513671875 36.80419921875 -18.9659423828125
63.734130859375 24.17919921875 -65.474609375
36.346923828125 27.9150390625 -66.341552734375
-2.84716796875 35.681396484375 -16.96240234375
20.256103515625 10.827392578125 -10.1141357421875
54.410400390625 4.486083984375 -4.9644775390625
30.659912109375 27.4461669921875 -63.383056640625
-41.749267578125 33.1431884765625 -5.7076416015625
36.2900390625 9.4151611328125 -7.71630859375
-41.73583984375 6.203857421875 26.17578125
50.27783203125 10.3748779296875 -31.840576171875
53.7373046875 28.9539794921875 -73.389404296875
10.67333984375 21.7689208984375 -27.389404296875
61.674072265625 2.572998046875 -12.658935546875
32.06494140625 22.9248046875 -53.468505859375
23.288818359375 5.55224609375 -13.280517578125
14.30029296875 13.0579833984375 -16.0892333984375
53.139404296875 26.4161376953125 -66.98779296875
54.009033203125 19.844970703125 -47.360595703125
-6.04638671875 34.5166015625 -11.0863037109375
39.412353515625 32.1854248046875 -69.7506103515625
-22.491455078125 35.692626953125 -13.924072265625
50.76416015625 25.160400390625 -59.9093017578125
51.944580078125 25.802490234375 -63.245849609375
55.595703125 25.591796875 -64.5157470703125
-2.607177734375 34.3294677734375 -12.5228271484375
64.3681640625 19.736083984375 -52.9486083984375
-10.46875 35.308837890625 -11.0626220703125
42.16259765625 9.376220703125 -28.626220703125
-16.314453125 41.265380859375 -34.55029296875
52.0576171875 24.54541015625 -60.4530029296875
54.89990234375 24.307373046875 -61.3759765625
-40.56494140625 7.9293212890625 23.1993408203125
36.199951171875 4.3475341796875 0.232421875
66.869384765625 16.087158203125 -41.477783203125
-6.3095703125 33.5455322265625 -6.3455810546875
24.95068359375 7.860595703125 -20.35107421875
44.458251953125 9.9610595703125 -30.5732421875
-41.81982421875 3.4635009765625 36.8748779296875
-29.88134765625 41.4647216796875 -29.92431640625
54.53125 5.90380859375 -20.3828125
68.48388671875 2.194091796875 -10.623046875
-44.0458984375 35.2752685546875 -12.97607421875
55.962646484375 25.4405517578125 -62.003173828125
38.73583984375 8.3392333984375 -25.080078125
48.780517578125 9.6097412109375 -29.4068603515625
47.88330078125 6.2850341796875 -18.5516357421875
39.124755859375 4.4898681640625 -12.4930419921875
67.26513671875 16.7540283203125 -45.1839599609375
8.3095703125 25.2938232421875 -27.876708984375
-14.8623046875 29.7745361328125 6.265869140625
47.991455078125 9.6513671875 -9.0299072265625
-16.418701171875 23.8543701171875 12.4141845703125
