0.334228515625 16.1593017578125 16.7877197265625
-36.456787109375 -2.467041015625 29.1441650390625
-45.99853515625 14.0191650390625 11.981689453125
-19.7958984375 18.2847900390625 10.973876953125
-19.803466796875 20.688720703125 -2.1776123046875
42.741455078125 -0.5968017578125 -5.453125
58.66015625 -6.441162109375 -12.0743408203125
15.932373046875 24.2098388671875 -19.857421875
-9.53271484375 16.599853515625 23.5277099609375
-54.924560546875 19.2025146484375 33.5191650390625
-59.478515625 9.0177001953125 2.4193115234375
46.64794921875 -3.31201171875 -5.2335205078125
-59.099609375 37.4771728515625 -10.6982421875
-3.5751953125 15.643310546875 19.427001953125
-76.796875 27.7723388671875 -23.54833984375
-38.844970703125 -5.4971923828125 30.2353515625
-56.78125 41.39453125 -22.929931640625
-14.535888671875 17.717529296875 10.4388427734375
-32.49169921875 -2.46630859375 29.5760498046875
-53.32763671875 13.5533447265625 5.638427734375
-49.27783203125 14.9295654296875 43.0450439453125
-45.260498046875 17.2403564453125 33.6392822265625
-61.042724609375 15.3646240234375 2.7938232421875
-31.684326171875 -3.9478759765625 24.5870361328125
-22.658935546875 12.188232421875 12.8739013671875
-72.267333984375 5.04638671875 14.179443359375
-48.76806640625 14.297607421875 -1.9254150390625
-59.9130859375 31.3924560546875 10.6669921875
-6.8779296875 24.661865234375 -15.046142578125
40.149658203125 -4.498046875 -15.2578125
-43.025634765625 14.786865234375 40.6771240234375
-57.72705078125 13.078125 -2.0704345703125
-67.497314453125 35.9857177734375 -2.93310546875
-48.354248046875 10.0172119140625 13.853271484375
-27.383544921875 20.869384765625 -3.6219482421875
-1.653564453125 17.1922607421875 3.9044189453125
47.422607421875 -5.9718017578125 -11.4664306640625
36.06103515625 1.494140625 -25.9720458984375
23.508544921875 9.37548828125 -9.01123046875
-45.0859375 18.4180908203125 4.4027099609375
-67.4287109375 39.3509521484375 -13.9964599609375
4.594482421875 20.18310546875 3.253662109375
-33.5849609375 20.0313720703125 -20.3150634765625
-47.809814453125 2.8828125 14.810302734375
-36.576416015625 -4.420166015625 32.8955078125
-6.051513671875 9.92626953125 5.104248046875
46.3271484375 -4.012451171875 -19.16943359375
-20.149658203125 24.094482421875 -14.307373046875
-24.765380859375 20.0340576171875 -0.952392578125
-55.84375 17.2919921875 39.4364013671875
-21.12646484375 22.105224609375 -6.83984375
-6.37890625 19.7681884765625 -0.4014892578125
42.99072265625 -0.8062744140625 -25.923828125
52.68359375 -4.51611328125 -17.0509033203125
-42.800537109375 38.35009765625 -13.3115234375
-45.3486328125 -6.72216796875 33.0
-38.583251953125 2.78076171875 15.26025390625
-11.763916015625 16.928466796875 14.94482421875
-46.961669921875 40.0540771484375 -17.69775390625
-6.715576171875 22.0968017578125 -7.962158203125
-83.566162109375 26.2623291015625 -18.37890625
-49.6669921875 -5.6219482421875 28.1649169921875
-30.466796875 21.249267578125 -24.2247314453125
-41.6279296875 41.7451171875 -22.7904052734375
-13.92041015625 21.1414794921875 -3.8270263671875
77.72119140625 -3.3748779296875 -20.5755615234375
15.94482421875 23.1995849609375 -15.9820556640625
-0.95703125 24.8560791015625 -14.60205078125
-52.377197265625 22.2728271484375 26.722412109375
35.863525390625 -1.89208984375 -21.2633056640625
-46.1552734375 26.5350341796875 19.6102294921875
-66.2890625 32.40185546875 6.4046630859375
-42.108642578125 -3.2127685546875 21.9775390625
-0.74951171875 20.481201171875 -2.480712890625
-40.07080078125 39.7425537109375 -16.4056396484375
30.188720703125 1.7020263671875 -8.190673828125
3.610107421875 15.661376953125 15.190673828125
-0.431884765625 26.887939453125 -21.79541015625
34.933837890625 -3.9385986328125 -9.79345703125
-32.6806640625 1.9537353515625 15.64208984375
66.10302734375 -2.8875732421875 -21.24267578125
-25.0966796875 0.5467529296875 16.482666015625
-39.734130859375 21.44873046875 -21.7713623046875
31.013427734375 6.883544921875 -25.3914794921875
47.572021484375 -2.26123046875 -21.8883056640625
68.906005859375 -2.6953125 -24.1807861328125
9.21923828125 27.15625 -23.83056640625
64.9140625 -5.4564208984375 -15.034912109375
-5.86328125 27.5989990234375 -24.6873779296875
-42.456298828125 13.8441162109375 44.863525390625
-55.126708984375 14.8203125 45.80224609375
-46.897216796875 -4.028076171875 24.2318115234375
26.62841796875 11.6783447265625 -23.087646484375
-71.936767578125 32.7904052734375 3.8341064453125
-57.93212890625 20.7269287109375 34.014404296875
71.9853515625 -4.255615234375 -17.9400634765625
-38.895751953125 12.6578369140625 13.2022705078125
61.38525390625 -4.91455078125 -15.6304931640625
-65.353759765625 4.7672119140625 14.7955322265625
24.99609375 6.89599609375 -7.144775390625
-21.728271484375 25.96875 -19.7940673828125
-11.9609375 17.0643310546875 8.314697265625
-58.17822265625 34.990966796875 1.105224609375
-46.53173828125 -1.5174560546875 18.1287841796875
-82.294189453125 23.9581298828125 -12.41015625
4.244384765625 25.7977294921875 -18.9993896484375
41.7783203125 -0.168212890625 0.3663330078125
-28.27783203125 -4.8878173828125 25.9952392578125
-54.0966796875 18.56201171875 -4.0587158203125
-53.12646484375 10.15966796875 -0.1710205078125
-37.92578125 20.8564453125 -3.157470703125
-3.34619140625 16.4676513671875 23.6611328125
-52.06640625 15.90283203125 45.159423828125
-18.1416015625 25.9222412109375 -19.1243896484375
-55.3857421875 22.941162109375 27.880859375
-63.113525390625 7.4404296875 6.800537109375
-33.23828125 16.3204345703125 10.204345703125
22.033447265625 15.48046875 -20.06005859375
-2.895751953125 10.7086181640625 5.5413818359375
-11.568359375 23.6417236328125 -11.5738525390625
-10.453857421875 15.4501953125 20.05615234375
-45.1240234375 21.1221923828125 27.6300048828125
66.5703125 -5.266845703125 -18.030029296875
-68.666015625 10.0 9.3818359375
1.692138671875 14.781494140625 21.0750732421875
26.91455078125 7.8516845703125 -14.8349609375
20.021240234375 18.5225830078125 -18.3243408203125
-27.90283203125 14.284423828125 12.4208984375
-30.448974609375 23.7210693359375 -11.60986328125
60.131591796875 -3.387939453125 -19.923828125
45.78955078125 -5.0350341796875 -14.51513671875
36.642822265625 -2.641357421875 -16.49169921875
-36.42578125 40.9967041015625 -20.3731689453125
-36.037109375 23.6422119140625 -25.47265625
-44.20751953125 19.39453125 -1.365234375
-3.7041015625 26.6466064453125 -20.70947265625
6.56689453125 16.823974609375 15.7215576171875
-39.55615234375 18.6044921875 3.620849609375
-50.041015625 17.1898193359375 10.16357421875
-7.6357421875 21.2830810546875 -4.6387939453125
-23.02099609375 16.553955078125 9.4271240234375
-79.385009765625 23.9468994140625 -8.3975830078125
21.70947265625 12.807861328125 -9.3914794921875
-1.991943359375 22.0595703125 -7.1712646484375
-56.459716796875 35.7364501953125 -4.723388671875
-27.54541015625 25.4151611328125 -16.3394775390625
-51.003662109375 34.7794189453125 -2.294921875
-51.635009765625 24.5257568359375 24.288330078125
-39.816162109375 -0.027587890625 16.6114501953125
-64.951171875 31.1173095703125 10.1512451171875
12.292236328125 21.47021484375 -10.705078125
-47.760498046875 23.517822265625 24.87646484375
-44.402587890625 40.31103515625 -20.56494140625
19.088623046875 20.5455322265625 -22.9696044921875
-31.284423828125 -3.13232421875 21.4140625
-16.443115234375 20.036376953125 14.76318359375
41.19189453125 -1.93603515625 -22.6888427734375
-62.276123046875 40.0687255859375 -17.8538818359375
-24.3984375 21.8203125 -7.58251953125
-5.913818359375 9.145751953125 8.464599609375
32.687744140625 -1.5826416015625 -14.8123779296875
23.384521484375 16.0906982421875 -23.4444580078125
-55.54052734375 38.60595703125 -11.53857421875
3.954345703125 22.38134765625 -8.9007568359375
-65.798828125 29.3375244140625 14.88330078125
-50.022705078125 14.1201171875 49.708740234375
-18.052490234375 23.2318115234375 -12.1168212890625
-70.648681640625 39.6275634765625 -13.3087158203125
-44.093017578125 15.3162841796875 -11.611572265625
-16.475341796875 19.5731201171875 8.899169921875
-82.864013671875 27.7257080078125 -21.01171875
42.307861328125 -2.858642578125 -19.23681640625
-13.578125 25.7554931640625 -18.4080810546875
-41.627685546875 18.2540283203125 -6.5623779296875
19.85107421875 17.1502685546875 -12.752685546875
48.161376953125 -5.3109130859375 -17.058837890625
-45.986572265625 18.868896484375 -14.9356689453125
-54.968017578125 33.73291015625 0.675537109375
-46.221923828125 17.116943359375 36.5579833984375
-19.613037109375 28.0015869140625 -25.0286865234375
-48.844482421875 36.0389404296875 -4.07080078125
-51.98046875 18.369384765625 33.6285400390625
-60.42626953125 6.223876953125 8.8802490234375
-50.218505859375 17.0546875 36.0960693359375
-53.606689453125 12.9339599609375 -6.001708984375
-64.114013671875 40.0831298828125 -14.062255859375
-13.929931640625 22.1846923828125 -8.04248046875
-14.447265625 18.2720947265625 3.9383544921875
-56.83642578125 10.437744140625 -0.8511962890625
-44.8056640625 37.289794921875 -9.6849365234375
-57.2021484375 40.328857421875 -17.02685546875
22.46533203125 13.5352783203125 -15.4593505859375
-64.076904296875 41.343505859375 -19.926025390625
-0.225830078125 22.4993896484375 -9.6309814453125
-24.18359375 -2.0413818359375 19.4000244140625
-33.032470703125 18.7259521484375 2.4632568359375
-66.32958984375 11.7147216796875 7.4547119140625
-34.404052734375 -0.11572265625 30.3955078125
-54.405517578125 13.255126953125 51.101318359375
-33.438720703125 21.843994140625 -6.5230712890625
54.3564453125 -2.7047119140625 -22.8614501953125
-9.583251953125 18.697509765625 2.222900390625
-45.820556640625 15.900146484375 40.652099609375
-27.080078125 16.52099609375 9.931884765625
13.989501953125 21.7689208984375 -13.224365234375
18.70654296875 17.146484375 -3.408935546875
3.5029296875 23.61376953125 -14.06982421875
-49.340087890625 16.553466796875 13.1025390625
-51.42236328125 16.5216064453125 38.867919921875
-59.1923828125 22.2236328125 28.6082763671875
-3.9677734375 20.368896484375 -2.31103515625
74.63671875 -3.6383056640625 -20.3677978515625
49.6767578125 -2.097900390625 -7.8963623046875
-62.8486328125 35.6983642578125 -4.7939453125
-18.590087890625 22.1656494140625 -8.3955078125
-67.961669921875 3.410400390625 16.7279052734375
-3.8779296875 24.4412841796875 -14.8782958984375
-1.729248046875 14.115966796875 13.9105224609375
-44.17529296875 17.308349609375 7.2684326171875
-51.937744140625 41.0357666015625 -19.614501953125
7.40087890625 17.6380615234375 10.1365966796875
-37.663818359375 14.355224609375 44.6903076171875
-1.366455078125 26.0623779296875 -18.4300537109375
17.94287109375 17.9541015625 -8.703857421875
-10.68505859375 26.3646240234375 -20.7657470703125
-49.720947265625 19.8636474609375 30.7662353515625
-17.403076171875 19.53857421875 -0.454833984375
-24.80615234375 18.023681640625 4.763427734375
8.076171875 22.1754150390625 -8.636962890625
-43.689208984375 -4.435302734375 26.1627197265625
-62.817626953125 37.682861328125 -7.8868408203125
2.740478515625 21.0489501953125 -3.8826904296875
-25.75439453125 -3.975830078125 24.3468017578125
43.037353515625 -2.6241455078125 -10.27294921875
-68.03857421875 33.7752685546875 3.5087890625
-35.01513671875 -1.89501953125 19.20068359375
13.14208984375 19.8870849609375 -3.3052978515625
-79.62744140625 24.5133056640625 -11.259765625
-36.5185546875 14.1302490234375 12.4578857421875
-3.03173828125 8.6778564453125 10.38037109375
-55.466552734375 14.6077880859375 -4.54150390625
-57.045654296875 8.1744384765625 4.139892578125
52.875 -6.06396484375 -11.5308837890625
-70.8515625 3.32080078125 15.99853515625
-41.780029296875 -5.4908447265625 29.9124755859375
8.05322265625 25.108642578125 -18.4205322265625
-56.774169921875 8.459228515625 7.1849365234375
-9.300537109375 14.07763671875 8.3486328125
-40.724853515625 12.4161376953125 48.179931640625
-52.239990234375 37.356689453125 -9.779541015625
-38.6923828125 19.3951416015625 0.388916015625
-20.16552734375 18.13916015625 4.306640625
-42.25146484375 18.193115234375 4.6007080078125
-29.687744140625 19.24853515625 2.417724609375
-66.971923828125 38.1507568359375 -8.979736328125
-45.407958984375 14.6029052734375 46.469970703125
-78.834228515625 27.3514404296875 -20.803466796875
-26.63427734375 2.8621826171875 15.1495361328125
-47.384033203125 16.54296875 -0.9207763671875
20.27294921875 13.62744140625 -7.107177734375
57.427001953125 -2.4188232421875 -22.1697998046875
-30.053466796875 11.615966796875 13.7974853515625
-8.658203125 17.55859375 5.1644287109375
38.519287109375 -1.236328125 -21.8585205078125
27.057373046875 6.2698974609375 -10.2236328125
28.778076171875 7.991943359375 -22.239990234375
-16.281982421875 26.6181640625 -22.408203125
-52.725830078125 39.4052734375 -15.133544921875
-37.74560546875 22.3741455078125 -23.6368408203125
37.63330078125 -4.32568359375 -14.0806884765625
7.546875 20.3427734375 -4.0968017578125
-7.01025390625 11.220703125 10.1380615234375
-32.450439453125 -4.568359375 27.7646484375
48.905517578125 -1.786376953125 -24.3873291015625
-8.165771484375 15.4150390625 13.60888671875
-81.299072265625 22.0390625 -6.8199462890625
-86.364990234375 26.2254638671875 -17.743896484375
-22.0517578125 14.785888671875 11.3193359375
-62.5830078125 11.8680419921875 2.7584228515625
-43.51318359375 17.4793701171875 -4.712158203125
-22.250244140625 19.0015869140625 2.114013671875
-0.9521484375 14.900390625 19.06103515625
-58.984130859375 14.956298828125 -0.513916015625
-57.453857421875 40.9168701171875 -19.9984130859375
-44.716796875 13.0543212890625 50.49755859375
-17.057373046875 19.08837890625 2.5654296875
-21.788818359375 28.3681640625 -21.1431884765625
17.461181640625 21.86865234375 -20.607177734375
-4.335205078125 13.3919677734375 13.510986328125
-0.765625 19.3739013671875 2.199951171875
40.697021484375 -5.3731689453125 -12.7294921875
-45.66357421875 10.4296875 13.7763671875
-70.80517578125 36.0709228515625 -1.881591796875
-37.44775390625 16.0723876953125 -17.84130859375
44.435791015625 -2.5299072265625 -6.5894775390625
-68.4609375 30.9771728515625 8.5048828125
-58.404052734375 17.0224609375 40.3720703125
-4.673828125 14.6131591796875 22.202880859375
4.117919921875 24.673828125 -16.5205078125
-12.076416015625 19.768798828125 0.024169921875
-48.586669921875 16.7933349609375 -11.667236328125
-24.748291015625 9.662841796875 14.2889404296875
16.607421875 20.322509765625 -15.547119140625
-40.689697265625 17.103271484375 -15.7381591796875
-14.978515625 20.1632080078125 -1.4559326171875
-10.690673828125 24.344970703125 -14.03857421875
-55.333251953125 14.3052978515625 48.67529296875
-69.977783203125 5.8895263671875 12.0924072265625
-70.860595703125 38.1103515625 -8.84619140625
-51.2822265625 11.7938232421875 -3.072265625
-48.33154296875 -6.83935546875 32.63037109375
-7.56982421875 12.2332763671875 5.4613037109375
-59.181396484375 33.0906982421875 3.247314453125
-40.695068359375 19.7435302734375 -19.5545654296875
-19.667236328125 18.67333984375 7.9837646484375
6.336181640625 23.8270263671875 -13.3868408203125
28.956298828125 6.5225830078125 -18.4864501953125
-40.22216796875 16.3526611328125 9.5780029296875
23.655517578125 10.47705078125 -11.4693603515625
-4.072509765625 11.0621337890625 8.6014404296875
27.1513671875 8.384765625 -17.8360595703125
-33.701171875 41.517822265625 -24.10498046875
-13.882080078125 16.9798583984375 12.98974609375
-36.761474609375 18.9539794921875 -20.7176513671875
15.76416015625 19.5030517578125 -9.9207763671875
-13.15234375 27.547119140625 -23.819580078125
51.461669921875 -2.158935546875 -22.9539794921875
-21.84716796875 19.8084716796875 -0.7611083984375
-6.5478515625 17.89990234375 24.1295166015625
-27.8876953125 8.706787109375 14.209228515625
15.51953125 18.764892578125 -4.2391357421875
42.241943359375 -0.730712890625 -2.8387451171875
-66.2001953125 5.077392578125 12.26953125
-27.545166015625 23.5025634765625 -11.4385986328125
-48.47998046875 36.8060302734375 -6.531005859375
-32.618896484375 20.15576171875 -23.252685546875
2.091064453125 26.674072265625 -21.2242431640625
-46.140380859375 25.5814208984375 22.0230712890625
-66.48583984375 38.2808837890625 -11.5233154296875
-43.002197265625 19.6246337890625 28.7962646484375
-45.60205078125 35.796142578125 -7.3861083984375
-47.300048828125 -5.8280029296875 30.4808349609375
13.5634765625 25.3939208984375 -19.3583984375
-67.125244140625 33.87060546875 -0.2952880859375
-55.703857421875 18.4989013671875 37.162841796875
-38.132080078125 17.4573974609375 7.40478515625
18.945556640625 19.42431640625 -20.4796142578125
13.7578125 20.362548828125 -8.559814453125
81.130859375 -3.3428955078125 -21.7120361328125
-46.9970703125 12.650146484375 48.7947998046875
-31.088623046875 20.5140380859375 -2.241455078125
-2.30908203125 15.3697509765625 16.80908203125
-58.93798828125 16.731201171875 44.1351318359375
-47.759521484375 42.411865234375 -22.6246337890625
-23.263427734375 24.8531494140625 -14.8277587890625
-28.914306640625 19.8516845703125 -0.452392578125
-38.342529296875 39.146240234375 -14.6240234375
-49.478759765625 17.4547119140625 7.68896484375
-4.28857421875 15.638671875 3.8048095703125
-48.982177734375 -3.42138671875 22.897216796875
-37.38671875 -4.561279296875 27.23388671875
-28.7578125 4.2261962890625 14.8289794921875
-29.128662109375 17.4344482421875 7.32470703125
-42.598876953125 23.95263671875 22.8680419921875
72.3837890625 -2.785888671875 -22.17431640625
-69.0693359375 26.6837158203125 19.1502685546875
-59.627685546875 40.3502197265625 -16.315673828125
-38.739013671875 -3.3316650390625 22.7230224609375
42.519775390625 1.8726806640625 -4.990966796875
-22.74658203125 -4.74658203125 24.9005126953125
-34.160400390625 40.3779296875 -17.66943359375
-50.15087890625 2.1424560546875 16.1005859375
29.636962890625 2.5816650390625 -10.7252197265625
-64.947265625 36.2432861328125 -3.5474853515625
-25.3837890625 -3.26416015625 21.9873046875
18.98583984375 18.337158203125 -14.8408203125
76.013916015625 -2.47509765625 -23.248779296875
-6.823974609375 25.7459716796875 -18.40234375
-30.2509765625 21.7725830078125 -27.1533203125
23.881591796875 12.659423828125 -17.3035888671875
-30.0703125 -1.03857421875 17.76513671875
70.77880859375 -5.1593017578125 -15.926513671875
-40.56640625 15.4332275390625 -11.3248291015625
-47.84423828125 15.90234375 10.940673828125
-32.616943359375 -4.286865234375 31.23583984375
-39.566650390625 9.9462890625 13.81640625
-52.97705078125 35.5615234375 -0.542724609375
-50.308837890625 15.7939453125 40.979248046875
-0.021240234375 27.6622314453125 -24.3167724609375
-15.360107421875 18.4410400390625 16.280029296875
-65.107666015625 6.2913818359375 9.7169189453125
-54.442626953125 36.7398681640625 -5.6834716796875
56.260986328125 -5.959228515625 -12.1580810546875
30.003662109375 3.503662109375 -16.7330322265625
-4.0087890625 23.1319580078125 -9.7891845703125
-24.15771484375 17.2919921875 7.29345703125
-82.41357421875 25.6893310546875 -16.29931640625
-12.487548828125 13.9324951171875 20.3931884765625
-15.3935546875 15.989501953125 17.0494384765625
-48.723876953125 38.554931640625 -14.5697021484375
-46.548828125 4.9498291015625 14.5643310546875
62.302734375 -1.7445068359375 -24.8824462890625
-47.7333984375 13.711669921875 -4.0948486328125
-56.80322265625 38.007568359375 -9.556396484375
-47.75341796875 14.8494873046875 -10.2701416015625
-9.265869140625 16.4671630859375 7.9803466796875
-44.33740234375 -1.94287109375 19.09423828125
-39.898681640625 13.0908203125 45.8367919921875
-65.96826171875 36.0263671875 -1.0648193359375
-45.24951171875 19.133544921875 1.516357421875
-69.021484375 35.9453125 -4.79541015625
-47.707763671875 37.5611572265625 -11.6048583984375
-72.32373046875 8.295166015625 13.6796875
-50.643798828125 14.895751953125 46.79638671875
-37.143798828125 18.4942626953125 3.3702392578125
31.785400390625 3.419189453125 -22.3822021484375
-68.820068359375 37.32763671875 -7.1090087890625
-51.11328125 20.9842529296875 28.2813720703125
-55.9658203125 13.8245849609375 52.8074951171875
37.12060546875 -4.5140380859375 -11.06396484375
10.40087890625 26.397705078125 -21.6383056640625
-54.369384765625 16.2337646484375 43.670654296875
-11.606689453125 20.7503662109375 -4.1651611328125
-44.074462890625 -6.0482177734375 29.9378662109375
-52.163330078125 19.470703125 -5.862548828125
-7.260986328125 19.070068359375 2.0479736328125
36.14111328125 -0.0421142578125 -22.691650390625
-38.3408203125 7.9219970703125 14.330078125
-14.89453125 17.351806640625 7.6776123046875
-33.953369140625 -0.0919189453125 16.7493896484375
29.140625 3.6300048828125 -14.5557861328125
31.851806640625 0.6446533203125 -12.253662109375
-34.82763671875 10.3817138671875 13.93359375
-24.812255859375 23.0015869140625 -11.33251953125
-54.16064453125 41.5145263671875 -20.1162109375
-11.67626953125 22.534423828125 -9.1341552734375
-4.83984375 11.6048583984375 6.4451904296875
-12.042236328125 15.6090087890625 16.837158203125
-43.544189453125 9.0697021484375 14.0958251953125
-20.729248046875 24.9180908203125 -16.3970947265625
-44.00830078125 13.19921875 12.84423828125
-33.08740234375 12.1317138671875 43.3077392578125
-57.67041015625 33.0167236328125 5.9788818359375
-39.11279296875 24.067138671875 -21.2752685546875
-18.41845703125 17.03564453125 14.3521728515625
42.0908203125 2.3516845703125 0.0029296875
33.162353515625 -2.6805419921875 -10.5697021484375
-35.03759765625 16.7293701171875 8.8260498046875
-41.480712890625 40.0443115234375 -18.656005859375
-46.359375 17.8016357421875 6.749267578125
-45.447265625 17.3951416015625 -2.304931640625
-49.666259765625 39.7708740234375 -19.245361328125
-35.8525390625 13.1407470703125 46.3314208984375
25.8037109375 10.2730712890625 -18.9298095703125
52.511962890625 -3.1114501953125 -20.3778076171875
-42.51513671875 20.7591552734375 -18.6387939453125
-53.32666015625 17.3995361328125 39.7532958984375
-42.4619140625 20.59814453125 -0.543212890625
78.95068359375 -4.0909423828125 -18.805908203125
-22.7939453125 23.8341064453125 -12.3470458984375
24.85595703125 8.7860107421875 -5.9007568359375
-58.01904296875 15.545654296875 48.694091796875
-40.9765625 37.0589599609375 -11.2127685546875
-49.46630859375 13.26318359375 52.153564453125
30.877685546875 5.8448486328125 -23.35693359375
21.044189453125 15.9283447265625 -14.2342529296875
-55.025634765625 16.8994140625 41.59912109375
-60.825439453125 32.64794921875 5.6280517578125
-28.195556640625 22.192138671875 -6.925048828125
-47.27490234375 41.3785400390625 -20.12841796875
-47.168212890625 19.101806640625 3.5042724609375
-27.492431640625 -0.8624267578125 17.205322265625
17.354248046875 17.7333984375 -6.5443115234375
-5.599853515625 24.1116943359375 -13.2796630859375
18.4267578125 18.0321044921875 -10.8984375
15.676513671875 20.2801513671875 -12.0289306640625
-40.54833984375 18.2545166015625 -17.6636962890625
-33.00732421875 14.5950927734375 44.4207763671875
-52.500732421875 13.4322509765625 3.552001953125
-31.61376953125 22.443115234375 -8.0108642578125
-49.1650390625 5.3204345703125 16.52197265625
-30.802978515625 41.15966796875 -22.65185546875
81.720947265625 -2.498291015625 -23.8038330078125
61.322509765625 -4.1519775390625 -17.7388916015625
-43.549560546875 17.2208251953125 -15.064697265625
-35.437744140625 21.9150390625 -7.533447265625
4.88916015625 19.6953125 5.41943359375
15.8154296875 25.075439453125 -23.767578125
-53.37890625 12.3946533203125 53.157958984375
24.417724609375 10.2099609375 -13.6925048828125
-28.302734375 18.0640869140625 5.34619140625
-34.600341796875 24.4417724609375 -26.9805908203125
-24.40478515625 26.5546875 -19.4307861328125
22.181396484375 11.833984375 -7.3055419921875
-47.428466796875 27.8388671875 18.0318603515625
-38.203125 -6.1485595703125 32.2620849609375
-51.009765625 25.750244140625 21.5811767578125
-66.42041015625 41.452880859375 -18.7591552734375
50.9140625 -5.67578125 -12.490966796875
-46.180419921875 1.551025390625 15.5062255859375
24.88232421875 12.9276123046875 -22.5423583984375
-58.43798828125 38.7623291015625 -12.5924072265625
9.8310546875 22.5050048828125 -10.2423095703125
-13.38134765625 25.1297607421875 -16.2957763671875
-70.171142578125 34.3626708984375 2.151123046875
-7.046142578125 14.417724609375 18.8138427734375
-16.9384765625 20.37841796875 -2.451416015625
21.07421875 17.90283203125 -20.601806640625
-59.299072265625 42.08642578125 -21.2276611328125
-6.076416015625 14.4801025390625 4.739013671875
-45.281005859375 -0.209716796875 16.8743896484375
-47.521728515625 14.4666748046875 44.8704833984375
-63.8173828125 34.50390625 1.4100341796875
-29.528564453125 22.5933837890625 -8.6973876953125
-52.337158203125 14.3179931640625 50.35205078125
-34.158203125 18.3798828125 4.9071044921875
-16.6533203125 23.9010009765625 -13.6556396484375
-7.60205078125 12.7373046875 8.65087890625
-35.611572265625 8.3310546875 14.254150390625
44.96728515625 -3.6434326171875 -10.322265625
-5.719482421875 15.6973876953125 17.4534912109375
27.333251953125 6.373779296875 -6.62255859375
-19.9638671875 21.4195556640625 -5.1248779296875
-58.398193359375 10.143798828125 0.643310546875
-22.6689453125 9.7918701171875 13.6429443359375
-50.986328125 13.3258056640625 -6.988525390625
-47.531005859375 7.3441162109375 14.17138671875
-38.087158203125 39.7974853515625 -18.4742431640625
33.60546875 1.2845458984375 -18.651611328125
-48.922119140625 20.491455078125 28.8258056640625
-8.47119140625 22.70751953125 -9.7509765625
-47.245361328125 -4.727294921875 26.5501708984375
-42.448486328125 18.6229248046875 33.4224853515625
-53.354248046875 38.1470947265625 -12.3411865234375
-34.810546875 21.132080078125 -4.5933837890625
-44.38916015625 38.9923095703125 -11.983642578125
-34.50048828125 19.76806640625 -0.491455078125
-43.491455078125 14.7119140625 42.78955078125
27.9228515625 6.1431884765625 -12.407470703125
-47.62548828125 16.11767578125 41.8123779296875
-42.24658203125 0.7972412109375 16.1407470703125
-34.7294921875 23.9019775390625 -7.967041015625
-47.038330078125 22.1429443359375 26.3682861328125
-61.446044921875 32.2113037109375 9.4005126953125
-55.936767578125 12.083251953125 -2.9735107421875
-2.79541015625 19.4625244140625 25.768310546875
-55.737060546875 39.3599853515625 -15.7879638671875
54.811279296875 -1.955078125 -25.381591796875
-24.524169921875 4.568359375 14.8818359375
-5.433837890625 8.942138671875 10.661865234375
-45.186767578125 16.2491455078125 38.6319580078125
15.83154296875 22.857666015625 -13.3497314453125
59.030517578125 -1.609375 -25.0628662109375
-34.7041015625 -3.967041015625 23.4130859375
-58.209716796875 36.23779296875 -6.943115234375
-42.190185546875 22.856689453125 24.8438720703125
-62.745849609375 39.9930419921875 -15.7236328125
-48.246826171875 17.887451171875 36.095703125
-61.378173828125 38.7528076171875 -12.3695068359375
64.514404296875 -2.647705078125 -22.6514892578125
-46.638916015625 14.0478515625 -6.5008544921875
31.8984375 -1.4332275390625 -11.7528076171875
-32.91455078125 6.30615234375 14.4781494140625
-38.55126953125 22.367431640625 -4.6441650390625
-54.289306640625 16.6527099609375 -5.311767578125
-57.113037109375 15.6402587890625 44.921630859375
-61.196533203125 31.6282958984375 12.3463134765625
-61.244140625 33.95654296875 -0.229736328125
-69.31787109375 8.0050048828125 9.708740234375
-43.8134765625 16.2835693359375 34.86279296875
-16.37109375 18.673583984375 13.1373291015625
-4.06103515625 19.178955078125 1.889404296875
-45.17578125 15.4560546875 10.656005859375
47.627197265625 -5.5562744140625 -13.5931396484375
-30.23486328125 -4.9161376953125 27.0614013671875
-61.506103515625 38.3670654296875 -9.4007568359375
-52.6494140625 14.6209716796875 -7.28857421875
-51.22900390625 15.7801513671875 43.0462646484375
42.652587890625 -4.9278564453125 -13.390380859375
-27.63134765625 -2.8314208984375 21.0054931640625
-64.785400390625 10.4122314453125 4.778564453125
-79.763916015625 25.3995361328125 -16.5833740234375
-31.88525390625 16.9681396484375 8.7249755859375
-59.8388671875 17.9710693359375 39.158935546875
-56.830810546875 15.1727294921875 46.997314453125
7.575439453125 21.3175048828125 -6.59521484375
-33.583251953125 17.56982421875 6.9615478515625
-57.062744140625 19.5880126953125 35.9903564453125
-54.753173828125 19.6119384765625 31.4686279296875
-33.3037109375 -3.238525390625 22.033447265625
-3.70361328125 27.567138671875 -22.779296875
1.883056640625 22.4273681640625 -8.5975341796875
-17.37109375 21.3133544921875 9.637939453125
-43.770263671875 15.5882568359375 -7.2540283203125
-26.84326171875 19.9427490234375 -0.7020263671875
-36.883544921875 -3.2508544921875 31.0311279296875
-48.2900390625 -2.9659423828125 20.9742431640625
-44.975341796875 19.482421875 31.615478515625
-62.991943359375 6.7237548828125 8.7532958984375
-42.98388671875 5.9970703125 14.2984619140625
-42.210205078125 16.377197265625 8.9705810546875
-52.08154296875 19.9456787109375 32.2769775390625
-40.70166015625 8.1009521484375 14.1453857421875
-32.4453125 15.0933837890625 11.7467041015625
-45.41357421875 21.404296875 -13.99560546875
-81.03369140625 26.7591552734375 -21.0584716796875
-50.734375 37.3106689453125 -8.3612060546875
-5.667236328125 26.968505859375 -22.55908203125
-32.097412109375 11.5389404296875 14.0216064453125
-26.791015625 -4.9866943359375 27.412841796875
-38.16552734375 40.6875 -21.423095703125
-53.47314453125 33.682373046875 2.1009521484375
-48.20556640625 14.4052734375 12.292724609375
5.270751953125 26.71435546875 -21.90966796875
-50.9970703125 18.275390625 -8.1468505859375
62.698974609375 -2.8870849609375 -21.46240234375
-78.85595703125 28.330810546875 -23.5872802734375
-48.553466796875 -1.6474609375 17.8935546875
23.063232421875 14.8076171875 -21.8944091796875
-5.86083984375 15.874267578125 23.273681640625
56.282470703125 -4.1915283203125 -17.1932373046875
-15.42822265625 25.252685546875 -17.7376708984375
-9.908935546875 16.6510009765625 14.1671142578125
-41.493896484375 13.966796875 41.9468994140625
42.613525390625 2.1556396484375 -7.16845703125
-39.788818359375 41.486572265625 -23.6019287109375
67.31689453125 -2.6595458984375 -22.9249267578125
26.128173828125 11.5443115234375 -20.4697265625
0.120849609375 18.253662109375 3.8270263671875
-9.379638671875 15.38134765625 21.9215087890625
-67.046630859375 40.2220458984375 -17.2828369140625
3.891357421875 20.2388916015625 -1.26953125
-34.37109375 -3.7281494140625 27.769775390625
-37.53271484375 4.4658203125 14.8980712890625
-20.01708984375 13.0072021484375 14.6171875
-35.8125 42.2421875 -24.1156005859375
68.1435546875 -3.16357421875 -21.157958984375
-7.468505859375 27.4654541015625 -23.477294921875
-48.619384765625 17.521484375 3.045166015625
-15.259033203125 21.603271484375 -6.0479736328125
-48.805419921875 7.527099609375 16.222900390625
-40.876708984375 -2.6905517578125 20.11328125
-46.30712890625 39.3155517578125 -15.1441650390625
-32.426513671875 23.7642822265625 -11.31005859375
-49.33935546875 -4.9781494140625 26.260009765625
57.478759765625 -3.9664306640625 -18.8590087890625
-60.99365234375 36.388427734375 -4.51318359375
-29.1845703125 21.331787109375 -5.4207763671875
-75.617431640625 28.2850341796875 -25.0733642578125
34.08056640625 -0.0540771484375 -20.6212158203125
-25.59228515625 -1.044189453125 17.7791748046875
19.044677734375 16.4471435546875 -8.0084228515625
59.854248046875 -5.491455078125 -14.4981689453125
-2.228271484375 12.3760986328125 6.3935546875
-57.3388671875 22.09521484375 27.9027099609375
-43.671875 20.3857421875 -17.0673828125
-9.7451171875 27.1041259765625 -22.3511962890625
-7.768798828125 25.007568359375 -16.8204345703125
47.1201171875 -4.3917236328125 -10.3043212890625
40.697265625 -3.6231689453125 -17.712646484375
-13.775390625 17.5904541015625 6.0596923828125
14.087646484375 25.5863037109375 -22.4410400390625
2.88525390625 18.479736328125 3.2108154296875
-9.31494140625 25.9598388671875 -18.9739990234375
-38.299072265625 -4.3470458984375 25.490234375
-43.92919921875 23.2105712890625 26.0697021484375
15.4462890625 24.1314697265625 -17.652587890625
-36.70166015625 -1.4014892578125 18.29736328125
9.42529296875 23.716552734375 -14.0887451171875
14.0537109375 19.8726806640625 -6.384521484375
-7.660888671875 9.563720703125 9.278564453125
-11.4814453125 24.832763671875 -15.776123046875
1.38818359375 27.3115234375 -22.9482421875
-49.25732421875 20.4271240234375 -8.8800048828125
52.29150390625 -5.6998291015625 -7.93994140625
18.490966796875 19.262451171875 -16.50390625
0.620849609375 25.9332275390625 -19.213623046875
70.10400390625 -5.135986328125 -17.769775390625
-71.96533203125 6.478515625 12.872802734375
-18.3076171875 20.728271484375 -3.8114013671875
-1.840576171875 12.0341796875 8.56591796875
-55.730224609375 32.98583984375 5.70263671875
-12.967529296875 19.0177001953125 2.8922119140625
-43.75048828125 36.4053955078125 -7.571044921875
-84.74267578125 27.7322998046875 -21.5587158203125
-65.604248046875 34.8392333984375 0.4615478515625
2.762451171875 15.844482421875 16.9434814453125
-62.456298828125 33.26953125 4.748291015625
-6.8330078125 19.78759765625 24.5462646484375
21.31201171875 14.0089111328125 -13.220703125
-1.864990234375 10.8038330078125 3.885986328125
-0.35546875 24.076904296875 -12.916748046875
6.169677734375 25.4407958984375 -18.0391845703125
24.882080078125 8.392333984375 -9.9857177734375
-8.646484375 19.423095703125 0.6759033203125
-2.96044921875 12.41650390625 12.5340576171875
-44.1455078125 25.6510009765625 20.9180908203125
-48.484130859375 24.8955078125 23.3814697265625
-42.32275390625 42.37548828125 -24.4949951171875
40.020263671875 -2.16064453125 -21.0360107421875
41.9833984375 -1.9002685546875 -0.85986328125
-44.22265625 39.49462890625 -15.849609375
-44.878173828125 40.234375 -18.4073486328125
-65.670654296875 39.98095703125 -15.4945068359375
-50.998291015625 41.056640625 -21.742431640625
-43.724609375 18.6683349609375 -3.19873046875
-20.5185546875 23.3919677734375 -12.264892578125
-40.662841796875 13.56982421875 44.125
-35.310302734375 15.3250732421875 11.5345458984375
-26.299072265625 22.0064697265625 -7.25341796875
-25.53076171875 16.6400146484375 8.78369140625
-61.23876953125 7.43115234375 6.128662109375
-52.098388671875 41.9041748046875 -24.7374267578125
-49.54833984375 18.3658447265625 -10.1568603515625
-56.55517578125 34.522216796875 -1.4781494140625
34.5537109375 -1.3876953125 -22.5836181640625
34.080810546875 2.3424072265625 -24.6285400390625
-38.341796875 14.430419921875 11.922607421875
-50.733642578125 34.2467041015625 0.2508544921875
-28.231689453125 24.1251220703125 -13.122314453125
-64.6591796875 32.84228515625 4.0350341796875
-22.36572265625 -2.35546875 19.937255859375
-34.999755859375 19.297607421875 -19.24560546875
-70.714599609375 36.3441162109375 -3.9842529296875
-2.898193359375 14.95654296875 21.5643310546875
36.756591796875 0.8634033203125 -24.26611328125
22.33203125 12.600830078125 -4.9097900390625
-34.23681640625 19.895751953125 -22.108642578125
-50.271484375 41.571533203125 -23.80224609375
68.613525390625 -4.080810546875 -19.4849853515625
-15.325439453125 24.48583984375 -15.6614990234375
-59.803955078125 31.7216796875 8.133056640625
-67.846923828125 31.1239013671875 10.3243408203125
-0.43994140625 21.1038818359375 -5.00927734375
3.798095703125 16.797607421875 13.66845703125
8.263671875 23.468017578125 -12.42041015625
-46.8818359375 17.7864990234375 34.4744873046875
5.5673828125 27.2890625 -24.0338134765625
-30.438232421875 13.4095458984375 13.2967529296875
-38.2783203125 17.0457763671875 -16.435546875
-40.096923828125 13.9617919921875 12.51953125
-41.938720703125 -4.7996826171875 27.1060791015625
-48.256103515625 18.961669921875 31.5689697265625
-41.7783203125 13.229248046875 46.5264892578125
50.4755859375 -3.760009765625 -9.0457763671875
-53.921875 22.0396728515625 28.68310546875
-42.561767578125 -4.0966796875 24.67529296875
-54.39990234375 23.041015625 26.264892578125
-35.056884765625 13.2301025390625 13.2589111328125
-16.280517578125 17.3721923828125 11.090576171875
-22.498046875 20.542724609375 -3.2998046875
57.4873046875 -4.896728515625 -15.449951171875
-25.77001953125 24.9798583984375 -15.8568115234375
-49.82421875 14.71875 45.10205078125
-53.875732421875 18.392822265625 35.1656494140625
-64.911865234375 8.4522705078125 6.43994140625
-45.20751953125 13.995361328125 48.513427734375
53.16845703125 -6.5499267578125 -9.373291015625
23.081298828125 10.1175537109375 -7.1185302734375
32.947509765625 2.0269775390625 -21.218994140625
-60.5712890625 35.2847900390625 -2.519775390625
7.695556640625 17.1502685546875 12.3023681640625
-2.770751953125 18.029296875 24.53369140625
-44.41796875 16.0357666015625 -5.5015869140625
51.713623046875 -5.2486572265625 -14.135009765625
-40.06640625 -4.9307861328125 27.2755126953125
-19.353515625 25.533935546875 -17.5130615234375
-25.667724609375 21.2181396484375 -4.2930908203125
50.11572265625 -6.10205078125 -10.849609375
-48.351318359375 16.7843017578125 9.3665771484375
-58.709228515625 7.5655517578125 8.0760498046875
-25.55615234375 22.503662109375 -9.2913818359375
-54.79443359375 42.3057861328125 -23.0875244140625
74.000732421875 -4.6484375 -16.970703125
-11.125 17.6455078125 6.7420654296875
-45.677978515625 23.644287109375 25.55712890625
21.8876953125 14.369384765625 -17.5833740234375
-47.228759765625 -0.213623046875 16.679443359375
45.851806640625 -3.740966796875 -3.5953369140625
-22.94775390625 21.6131591796875 -6.1962890625
-13.38525390625 23.254638671875 -11.7763671875
-31.727783203125 42.2396240234375 -23.8641357421875
-43.587646484375 -7.0347900390625 33.54052734375
-17.2119140625 22.7767333984375 -9.498046875
58.5380859375 -3.205322265625 -20.891357421875
-49.37109375 8.31591796875 14.2183837890625
-81.22216796875 25.1451416015625 -13.366943359375
-30.966552734375 22.7987060546875 -10.0755615234375
-34.036865234375 -3.488525390625 32.139892578125
53.21240234375 -3.74658203125 -18.6602783203125
-6.35205078125 23.6614990234375 -11.6385498046875
27.132080078125 9.516845703125 -23.863525390625
-60.23681640625 15.1905517578125 1.1273193359375
-2.296875 10.69873046875 7.3555908203125
-68.848876953125 39.3521728515625 -12.796875
-58.891845703125 11.8087158203125 -0.316162109375
-69.6884765625 9.779052734375 10.917236328125
49.884765625 -4.4676513671875 -18.122314453125
-33.778564453125 8.0804443359375 14.3714599609375
-17.020751953125 26.1685791015625 -20.7698974609375
12.286865234375 22.335693359375 -12.3428955078125
-76.3251953125 20.2015380859375 5.4566650390625
-5.739990234375 12.934814453125 12.3955078125
-70.569580078125 4.7767333984375 13.4478759765625
32.49169921875 1.02587890625 -15.677978515625
-24.22509765625 19.1064453125 1.9708251953125
-65.376708984375 11.80615234375 5.8736572265625
26.1474609375 9.1072998046875 -16.442138671875
-44.123779296875 0.921630859375 15.98486328125
31.0625 4.7783203125 -24.852783203125
-33.615478515625 4.40966796875 14.8343505859375
44.56396484375 -3.4691162109375 -19.1925048828125
-49.515380859375 14.5537109375 0.201904296875
-5.381103515625 11.7806396484375 3.3516845703125
-53.457763671875 15.1263427734375 46.521728515625
-54.5693359375 38.7366943359375 -14.50732421875
-30.444091796875 21.8177490234375 -6.7332763671875
-20.453857421875 28.1832275390625 -23.2904052734375
-16.1884765625 17.650146484375 8.9520263671875
71.94677734375 -3.4293212890625 -20.506591796875
-46.134033203125 41.8812255859375 -24.8115234375
-42.28759765625 38.538330078125 -16.3282470703125
-38.719482421875 20.2818603515625 -1.6011962890625
-39.24560546875 19.7813720703125 -21.1690673828125
-6.303466796875 14.9969482421875 15.0184326171875
45.257080078125 -4.8773193359375 -16.2957763671875
-9.645751953125 16.5306396484375 10.174560546875
-81.614013671875 26.3896484375 -17.7972412109375
-30.038818359375 2.990966796875 15.281005859375
-4.29736328125 10.2584228515625 4.445556640625
3.916748046875 23.326171875 -12.3052978515625
58.189208984375 -5.533203125 -13.728759765625
-57.5078125 16.982177734375 38.7301025390625
-67.0791015625 4.2020263671875 15.3299560546875
-44.33251953125 14.8349609375 44.9114990234375
-48.9765625 39.1455078125 -17.553955078125
-20.358154296875 22.6600341796875 -9.3133544921875
9.595703125 24.95654296875 -17.44775390625
35.73388671875 -2.282958984375 -18.2547607421875
3.403076171875 21.3560791015625 -5.5601806640625
-18.468505859375 18.2359619140625 6.673095703125
-8.09521484375 20.4920654296875 -3.0556640625
-40.111083984375 38.7294921875 -14.8209228515625
-52.81201171875 36.0595703125 -4.3758544921875
-50.6201171875 -5.7037353515625 29.721923828125
45.108642578125 -5.3258056640625 -12.844482421875
18.994873046875 21.993408203125 -24.0804443359375
-42.25927734375 15.83935546875 -10.5174560546875
-33.2763671875 21.1199951171875 -3.6033935546875
-54.647705078125 20.7156982421875 30.018310546875
-6.01806640625 20.5557861328125 -4.211669921875
-58.287353515625 41.096923828125 -18.275390625
-39.067626953125 15.732666015625 10.84619140625
-40.901611328125 -3.693603515625 23.2562255859375
-9.388671875 21.8939208984375 -6.4283447265625
-46.036865234375 -2.370361328125 19.6632080078125
-45.925048828125 37.18994140625 -11.5450439453125
-49.521728515625 11.277587890625 14.458984375
21.44287109375 16.77978515625 -18.532958984375
29.77978515625 7.270751953125 -23.6297607421875
-42.489990234375 21.3233642578125 28.3917236328125
49.188720703125 -2.960205078125 -4.521484375
-6.903564453125 14.243408203125 13.0213623046875
10.1455078125 22.072021484375 -8.5045166015625
-32.802001953125 -1.565673828125 31.9166259765625
-49.59765625 38.62451171875 -11.9837646484375
-9.375 14.61279296875 10.224365234375
10.69189453125 24.1103515625 -15.7271728515625
-34.292724609375 41.102783203125 -19.3292236328125
-11.638916015625 15.32373046875 18.58251953125
-25.48974609375 19.5946044921875 0.6514892578125
45.119384765625 -2.236328125 -8.264404296875
5.607421875 20.6475830078125 -4.63427734375
1.635986328125 24.865478515625 -15.76123046875
28.556640625 5.6837158203125 -14.2236328125
7.1064453125 18.125732421875 7.9708251953125
7.433349609375 26.9012451171875 -23.9827880859375
-47.92333984375 26.9117431640625 19.5262451171875
27.091064453125 11.699462890625 -24.8363037109375
43.863525390625 -2.68701171875 -4.8812255859375
-50.399169921875 12.3726806640625 -1.6043701171875
-29.93798828125 -4.28369140625 24.260498046875
10.077392578125 20.9808349609375 -5.1253662109375
50.822021484375 -3.06640625 -21.3707275390625
-4.712890625 17.5089111328125 24.2188720703125
-56.7431640625 37.153564453125 -7.9658203125
-2.999755859375 21.1568603515625 -4.30517578125
-3.892578125 22.417236328125 -8.135498046875
16.954345703125 23.47021484375 -21.2666015625
54.54638671875 -5.9666748046875 -12.728759765625
-14.845947265625 26.30224609375 -20.1636962890625
30.072998046875 6.7852783203125 -21.474365234375
20.916259765625 14.0159912109375 -10.5654296875
-21.1298828125 25.2005615234375 -18.1317138671875
-25.212158203125 11.3184814453125 13.7493896484375
-63.836669921875 30.390380859375 12.263916015625
-48.55322265625 13.343505859375 -7.218017578125
48.073486328125 -4.6124267578125 -18.7142333984375
29.9619140625 4.3743896484375 -19.6817626953125
-67.439697265625 8.0491943359375 8.6365966796875
-64.338134765625 37.6944580078125 -10.1729736328125
35.1796875 1.564453125 -23.3638916015625
-30.777587890625 0.2291259765625 16.7099609375
-35.629638671875 21.0166015625 -24.5941162109375
-31.02197265625 7.7034912109375 14.5478515625
-51.797607421875 40.3201904296875 -17.975830078125
-0.536376953125 19.9097900390625 -0.794189453125
-52.025390625 17.3516845703125 35.53662109375
-62.9130859375 36.54638671875 -6.3726806640625
-13.529541015625 15.767822265625 15.8480224609375
-56.294189453125 23.977294921875 26.7333984375
-20.04541015625 26.1612548828125 -19.2093505859375
-9.920166015625 20.8790283203125 -3.1226806640625
-56.772705078125 16.4541015625 40.8426513671875
80.930908203125 -3.7120361328125 -19.9720458984375
2.129150390625 19.9971923828125 -1.45703125
-44.112060546875 14.702880859375 11.8802490234375
33.5283203125 -1.7642822265625 -16.5501708984375
-25.033447265625 21.51904296875 -5.93701171875
-26.932373046875 21.705322265625 -5.6097412109375
1.849365234375 24.2901611328125 -14.06298828125
1.100341796875 15.8916015625 14.564208984375
-35.1435546875 -2.9486083984375 20.6370849609375
-36.827880859375 -2.454833984375 19.73388671875
43.826171875 -4.70556640625 -15.03662109375
-26.095947265625 26.1710205078125 -17.4193115234375
-43.23095703125 -5.3924560546875 28.5078125
3.427978515625 27.158447265625 -22.39892578125
-51.78564453125 16.1285400390625 -8.201171875
-16.6796875 19.098388671875 11.4324951171875
-23.59033203125 19.4061279296875 0.3311767578125
-85.0576171875 26.131591796875 -19.3470458984375
-30.594482421875 9.9549560546875 14.237060546875
-68.040283203125 5.14208984375 12.525146484375
-22.716552734375 25.0157470703125 -16.516357421875
-26.210693359375 20.242431640625 -2.3409423828125
-64.68212890625 5.30908203125 11.211181640625
-36.560791015625 6.028564453125 14.4949951171875
-0.83056640625 9.8656005859375 6.423095703125
4.408935546875 15.168701171875 16.945068359375
-62.4208984375 40.7784423828125 -19.4794921875
-19.416259765625 21.5810546875 -6.8104248046875
-12.291015625 20.33544921875 -1.6480712890625
19.565673828125 16.638427734375 -11.073486328125
-24.276611328125 12.79345703125 13.2962646484375
-42.622314453125 22.1497802734375 -17.5361328125
-49.833984375 16.776123046875 37.80859375
51.4013671875 -4.8192138671875 -15.858642578125
29.269287109375 3.2816162109375 -7.51416015625
-36.413818359375 3.1055908203125 15.119140625
-30.023193359375 16.72314453125 8.838134765625
-30.500732421875 -2.594482421875 19.915771484375
-49.709716796875 -6.80322265625 33.746826171875
17.4599609375 18.3997802734375 -3.26123046875
-9.901611328125 15.6107177734375 18.37060546875
-5.45263671875 26.394775390625 -20.8653564453125
13.879638671875 24.9588623046875 -17.612548828125
49.567138671875 -5.0196533203125 -16.0220947265625
14.157958984375 24.4097900390625 -14.98876953125
-53.348388671875 35.8948974609375 -2.69775390625
38.087646484375 -3.5308837890625 -16.99267578125
-40.307861328125 3.1651611328125 15.181884765625
-7.496337890625 16.54638671875 23.2705078125
8.240966796875 26.406982421875 -22.221923828125
-51.2265625 35.3453369140625 -3.9539794921875
-60.78076171875 9.1732177734375 3.6025390625
-5.70751953125 20.1282958984375 -2.495849609375
-65.865234375 30.1746826171875 13.3306884765625
-56.701171875 34.081298828125 1.9146728515625
-58.483642578125 35.4112548828125 -0.58154296875
-36.2578125 18.066162109375 -19.11962890625
-63.771484375 40.9232177734375 -18.2392578125
-84.041748046875 24.187744140625 -12.497802734375
11.826904296875 21.4490966796875 -8.947021484375
47.162353515625 -2.8944091796875 -20.248779296875
-48.442138671875 12.315673828125 13.51416015625
-22.60009765625 22.2568359375 -7.801025390625
20.96142578125 12.2791748046875 -5.9713134765625
-52.94384765625 36.902587890625 -8.1656494140625
-23.135498046875 -0.247314453125 16.0587158203125
-36.043701171875 11.6295166015625 13.669921875
-49.1005859375 13.0009765625 -3.0714111328125
-2.303955078125 22.4888916015625 -8.8944091796875
-42.470947265625 14.1326904296875 12.3365478515625
-36.559326171875 41.7208251953125 -22.0321044921875
-49.94384765625 24.0643310546875 23.9114990234375
-50.510986328125 36.7430419921875 -6.6973876953125
-37.967529296875 -2.797119140625 21.234619140625
-41.87646484375 41.2266845703125 -21.12744140625
-19.225341796875 19.8680419921875 -0.09619140625
-44.070068359375 18.4454345703125 32.763916015625
-62.600341796875 33.9722900390625 3.1422119140625
-61.99951171875 31.142578125 10.8587646484375
22.9453125 11.566162109375 -9.5333251953125
-23.160400390625 23.1329345703125 -10.3099365234375
-21.677734375 21.12451171875 -4.87646484375
3.741455078125 22.9561767578125 -10.59765625
-58.121826171875 16.554931640625 42.4478759765625
42.915283203125 -1.81103515625 -22.9989013671875
64.096435546875 -5.8870849609375 -13.3753662109375
-69.9296875 40.1888427734375 -15.754150390625
-63.80908203125 12.15478515625 3.9791259765625
-51.5791015625 15.647216796875 6.24853515625
31.56396484375 0.1485595703125 -10.59716796875
