-24.97021484375 77.46484375 -47.8369140625
6.906982421875 42.396728515625 44.4853515625
-92.202392578125 37.414794921875 -16.81591796875
-87.65625 63.891845703125 5.45556640625
55.023193359375 106.669189453125 12.906494140625
-44.59130859375 -1.829345703125 63.682373046875
-76.13818359375 35.413330078125 3.447509765625
-92.03271484375 55.654541015625 -28.978515625
-8.85888671875 21.395263671875 8.162109375
-8.56103515625 30.914306640625 22.131103515625
-27.155517578125 85.162109375 -13.494873046875
-6.064453125 36.193603515625 32.1982421875
-17.8134765625 19.372802734375 3.188232421875
-45.222900390625 55.091064453125 28.039794921875
-8.56103515625 88.114990234375 -12.2470703125
-95.0126953125 35.301025390625 2.79638671875
-16.3037109375 71.246826171875 -47.5859375
-55.272216796875 67.69677734375 -28.189697265625
-23.8408203125 -94.51416015625 0.919677734375
33.06298828125 60.1171875 -3.226806640625
-59.587890625 70.9365234375 -21.419921875
-33.426025390625 85.16552734375 -9.913330078125
25.531982421875 112.422119140625 52.722412109375
10.46484375 12.327880859375 -47.385986328125
51.02587890625 48.545654296875 -4.063720703125
-38.7333984375 24.180419921875 6.785888671875
29.22900390625 108.805908203125 60.453125
-86.424072265625 21.74658203125 -6.54345703125
-72.2998046875 23.065185546875 19.192138671875
14.73828125 10.28369140625 -70.34912109375
1.218994140625 20.2109375 -30.74853515625
3.7744140625 -22.179931640625 -43.27490234375
-79.246337890625 32.696044921875 -18.84521484375
-44.982666015625 -74.884521484375 -53.54443359375
-78.732666015625 26.94189453125 1.47509765625
-19.655517578125 81.47119140625 -20.106689453125
-85.045654296875 -11.370361328125 37.712646484375
-24.848876953125 88.667724609375 -3.095947265625
-23.90087890625 34.419189453125 26.03662109375
-45.097900390625 -5.996826171875 -14.548583984375
-17.626953125 77.514892578125 -39.794189453125
14.73876953125 18.384521484375 -70.02880859375
-85.01904296875 55.572998046875 22.720947265625
-45.30419921875 71.139892578125 -29.206787109375
-16.731201171875 94.07470703125 -3.2421875
-86.4111328125 45.939453125 27.236083984375
-94.8662109375 47.060546875 -7.645263671875
-63.5693359375 29.739501953125 15.495361328125
-85.227294921875 71.0087890625 -2.2685546875
-28.093017578125 26.498291015625 11.583740234375
13.977294921875 49.001220703125 -50.664306640625
-31.291748046875 20.11474609375 -1.50732421875
8.026611328125 36.4794921875 34.13818359375
-82.713623046875 18.472900390625 28.1416015625
6.052978515625 16.468505859375 -37.564208984375
-112.10986328125 -20.6962890625 34.34033203125
4.0947265625 8.70849609375 -41.32861328125
-87.54345703125 56.413818359375 8.829833984375
-92.953857421875 41.07177734375 -8.38916015625
13.43359375 54.541015625 -50.86572265625
-2.010498046875 94.379150390625 -8.35302734375
-13.6591796875 77.895751953125 -14.976806640625
45.66259765625 47.464599609375 -7.826904296875
-83.7080078125 39.12841796875 14.877197265625
-0.085205078125 -8.37744140625 -99.266845703125
-70.097900390625 -0.943359375 37.81298828125
-46.382568359375 75.837890625 -9.630126953125
-84.21142578125 40.897216796875 9.061767578125
-86.64306640625 36.470458984375 5.681884765625
34.032958984375 54.951171875 -4.706787109375
-64.455810546875 12.439697265625 28.3935546875
8.053955078125 -26.997802734375 -25.7548828125
-80.40234375 26.89892578125 20.772216796875
-62.4658203125 64.892333984375 -29.677734375
-7.74169921875 21.92529296875 2.989990234375
-39.5595703125 31.448974609375 -88.743408203125
-16.7734375 20.578857421875 -6.073486328125
1.87158203125 24.975341796875 -28.8505859375
-92.396484375 30.574462890625 -4.789794921875
5.83935546875 90.548583984375 -14.704345703125
-67.96875 63.36962890625 -37.292236328125
-0.0556640625 26.96044921875 18.76025390625
-8.1025390625 82.52978515625 -23.86669921875
-23.622802734375 -92.005615234375 -5.3583984375
-33.05078125 29.09423828125 15.575439453125
-85.305419921875 56.011474609375 -33.7509765625
-75.869384765625 5.91357421875 32.7578125
-68.4287109375 22.759765625 -1.683837890625
-1.196044921875 88.337646484375 -15.05859375
-16.79443359375 79.60693359375 -23.98876953125
-32.513427734375 79.483642578125 -40.4970703125
22.958251953125 18.111083984375 -14.231689453125
-86.431884765625 52.48486328125 19.33984375
-39.35546875 34.481201171875 22.385498046875
18.71142578125 23.963134765625 -14.5009765625
-28.980224609375 79.698974609375 -31.416748046875
-3.16259765625 -5.049072265625 58.898193359375
-50.482177734375 72.197021484375 -23.869873046875
-9.857421875 38.82568359375 35.73876953125
-86.056640625 14.328857421875 32.33642578125
54.93798828125 45.580322265625 -7.8359375
-82.1630859375 58.843017578125 -30.499267578125
11.1416015625 54.381103515625 -44.130859375
-7.96484375 26.26953125 15.92138671875
-16.137939453125 23.8544921875 11.109130859375
-23.123046875 17.3095703125 -0.830810546875
-89.301513671875 -17.915771484375 44.033935546875
-29.622314453125 -96.147216796875 -12.330322265625
-13.31396484375 77.75537109375 -29.802978515625
-49.90185546875 51.73388671875 21.760009765625
-94.84326171875 47.54833984375 -23.31494140625
-50.671630859375 -0.968017578125 62.250732421875
-68.82177734375 16.562744140625 24.019287109375
-97.20849609375 55.427001953125 -19.447998046875
-31.30322265625 23.866455078125 7.185546875
-106.48681640625 -17.509033203125 33.132080078125
-19.458740234375 22.404541015625 8.1884765625
-67.97607421875 -8.37451171875 43.312255859375
2.0537109375 14.4716796875 -29.959228515625
-71.60107421875 -43.512939453125 32.049072265625
18.920654296875 46.166015625 52.590087890625
17.367919921875 42.271240234375 45.89501953125
-70.520263671875 27.907470703125 5.191650390625
4.90771484375 87.562744140625 -6.988037109375
-5.171630859375 83.6025390625 -17.579345703125
-6.64404296875 97.670166015625 -0.60205078125
1.45361328125 -17.6865234375 -40.289306640625
-90.887451171875 -12.948486328125 36.2841796875
-54.630615234375 25.786376953125 6.3251953125
1.5009765625 38.757080078125 37.8544921875
-76.992919921875 21.3681640625 -6.16455078125
26.244140625 42.794921875 47.162841796875
-7.789794921875 73.531494140625 -44.521484375
-68.279052734375 -17.251220703125 50.767578125
-16.970458984375 83.93896484375 -15.4912109375
-75.4404296875 -14.475341796875 46.57861328125
-78.286376953125 0.2236328125 36.78076171875
-86.47216796875 45.56005859375 10.563720703125
-44.4775390625 -1.071044921875 56.252685546875
-36.691162109375 -0.8232421875 60.69775390625
-35.975830078125 74.25537109375 -26.562255859375
-31.96630859375 34.341552734375 24.204345703125
-83.23828125 23.91845703125 -3.765625
-114.70703125 -16.94140625 29.894775390625
-42.45849609375 51.933349609375 25.38623046875
-64.803466796875 24.844970703125 2.761962890625
-82.985107421875 -14.51123046875 42.141357421875
-92.392333984375 37.057373046875 6.04541015625
-0.467041015625 82.8291015625 -32.8564453125
-83.906982421875 35.778076171875 -17.7724609375
-22.25634765625 25.39453125 -9.7236328125
4.03466796875 2.353271484375 -40.031494140625
-75.616943359375 -8.789306640625 39.900390625
-62.460205078125 4.4384765625 34.072021484375
-73.100830078125 63.677001953125 -26.962890625
-27.91455078125 -11.80615234375 49.6103515625
-78.824951171875 -6.394775390625 37.62109375
-85.135009765625 61.865478515625 1.834228515625
-89.239013671875 53.6708984375 -24.593994140625
-62.489990234375 23.012451171875 21.884521484375
-78.814208984375 33.972412109375 14.617919921875
-44.962158203125 79.512451171875 -12.865478515625
-74.911865234375 14.28515625 26.5302734375
-68.2587890625 31.838623046875 12.25390625
-93.1611328125 23.900390625 -6.1572265625
-98.189453125 -13.58251953125 33.336669921875
-22.44482421875 7.3466796875 56.70458984375
-30.00048828125 3.293212890625 56.925048828125
30.559326171875 102.456298828125 61.279052734375
2.869873046875 -35.88037109375 -38.15869140625
-1.343994140625 -43.03271484375 -44.547607421875
-84.53662109375 34.132568359375 -0.70361328125
-27.484619140625 74.6279296875 -41.367919921875
-90.780517578125 42.120849609375 -18.824462890625
-1.773193359375 36.3896484375 33.187255859375
-52.334716796875 -3.123046875 55.000244140625
55.0263671875 109.329345703125 24.468017578125
-22.612548828125 27.378173828125 15.029296875
-22.492431640625 -85.284912109375 -17.8681640625
-52.233642578125 28.77880859375 11.200439453125
-27.533203125 81.046142578125 -46.592041015625
-19.3984375 74.152587890625 -42.66552734375
-59.41357421875 31.426025390625 12.469482421875
-31.11669921875 80.9150390625 -18.160888671875
-6.173828125 79.437255859375 -36.65234375
-52.982421875 71.38720703125 -11.212646484375
-12.99072265625 75.32373046875 -39.373046875
-31.611083984375 39.23583984375 28.203125
-46.055908203125 26.36572265625 8.8271484375
-22.625244140625 75.324462890625 -31.983642578125
-16.775390625 39.885498046875 35.2548828125
-72.659912109375 35.727783203125 8.898681640625
17.142578125 118.271484375 48.82666015625
-95.978515625 -18.600341796875 40.23193359375
-4.034423828125 -6.67236328125 -99.6708984375
-85.95556640625 47.714111328125 15.472412109375
-37.3125 28.103759765625 13.278076171875
-22.366455078125 90.88671875 -5.8408203125
-70.48388671875 -4.83349609375 40.06201171875
-66.508544921875 5.73876953125 32.712158203125
-15.15673828125 5.244384765625 58.6171875
-27.779052734375 1.490966796875 60.816162109375
-8.205322265625 23.607421875 12.39453125
4.78564453125 -22.243896484375 -27.859375
14.88232421875 39.038330078125 40.39306640625
-47.45654296875 25.643798828125 3.8310546875
-13.616943359375 -68.79052734375 -26.371337890625
-23.90185546875 27.86083984375 10.128173828125
-95.030517578125 46.713623046875 -18.4296875
-77.974365234375 -12.992431640625 43.29296875
-17.94970703125 73.260498046875 -33.841552734375
-74.000244140625 -19.65234375 52.41259765625
-92.991455078125 30.480224609375 -9.586181640625
3.659423828125 19.258056640625 -39.88623046875
-73.241943359375 29.466552734375 14.40234375
-95.75048828125 40.483154296875 -16.717529296875
12.26416015625 43.562255859375 47.486328125
-46.56591796875 75.70458984375 -19.480712890625
18.15234375 115.985595703125 53.65185546875
-8.01611328125 1.30029296875 55.482177734375
7.593505859375 38.45556640625 -37.93896484375
1.51416015625 -30.3291015625 -38.79345703125
-58.483154296875 22.841552734375 0.857177734375
-23.19677734375 -90.37109375 -10.09326171875
-29.859130859375 0.412841796875 64.312255859375
1.18701171875 -10.6689453125 56.30615234375
31.25634765625 60.873779296875 -8.4873046875
-62.16943359375 63.031494140625 -33.435302734375
-88.44921875 57.685791015625 15.058837890625
-25.299560546875 41.51123046875 32.4423828125
-45.2919921875 32.016845703125 17.39794921875
0.029296875 -9.14453125 60.08642578125
-24.341552734375 0.435791015625 47.219970703125
25.4091796875 64.190185546875 -2.0947265625
23.7783203125 40.400390625 44.512451171875
1.331787109375 -21.97607421875 -39.632080078125
-64.185302734375 0.634765625 38.10791015625
-19.02978515625 -76.26806640625 -24.73583984375
-67.193603515625 9.59521484375 29.62890625
-9.94970703125 -5.22802734375 62.93115234375
-87.123779296875 36.24462890625 -15.214599609375
-38.663330078125 79.818115234375 -6.866455078125
4.156494140625 -24.52734375 -37.11083984375
-55.271484375 73.4140625 -19.478271484375
-76.2578125 42.92041015625 5.17431640625
-15.840087890625 31.0361328125 19.822265625
-23.664794921875 7.023681640625 49.65673828125
-2.75341796875 -49.2841796875 -38.9306640625
-43.006591796875 42.23974609375 21.326904296875
4.363037109375 91.37548828125 -8.68408203125
-63.796875 70.1005859375 -21.815673828125
-96.27099609375 29.23095703125 -4.517333984375
1.6650390625 25.02685546875 15.587646484375
-85.44677734375 32.552001953125 25.25830078125
-78.222900390625 56.60595703125 -37.7490234375
-2.05712890625 87.593505859375 -19.76513671875
-7.575439453125 84.339111328125 -11.080810546875
-4.663330078125 30.318359375 23.379150390625
-0.130859375 97.060546875 -5.789306640625
-3.684326171875 43.7392578125 43.406982421875
53.8134765625 104.902587890625 17.207275390625
-91.647216796875 32.44970703125 -0.523681640625
-62.22265625 66.9091796875 -14.592529296875
-18.85791015625 37.926025390625 32.390869140625
1.0732421875 25.253662109375 10.041015625
-57.519287109375 -16.05859375 -5.666748046875
3.166259765625 29.882080078125 23.87158203125
3.783203125 33.90087890625 30.394775390625
-12.382568359375 78.7451171875 -20.562255859375
-40.04296875 50.3623046875 22.223876953125
-11.199951171875 20.08203125 5.161865234375
-12.790283203125 8.498046875 57.2509765625
-77.7255859375 42.280517578125 1.48486328125
-81.95361328125 38.690185546875 5.10791015625
-35.98779296875 82.97607421875 -12.64453125
-4.93359375 32.96337890625 27.02001953125
-63.752197265625 -18.445068359375 52.86474609375
-16.8671875 61.270751953125 -31.449951171875
8.344482421875 44.103759765625 -44.505615234375
-68.328857421875 24.76220703125 17.89990234375
-18.876953125 2.099609375 64.188232421875
-72.035400390625 9.407958984375 29.618896484375
6.512939453125 12.26123046875 -46.809326171875
-85.66015625 20.17578125 -10.1005859375
5.159912109375 5.52392578125 -43.6025390625
-38.36328125 77.81201171875 -19.87353515625
-13.220947265625 34.53466796875 28.109130859375
-38.406005859375 23.6962890625 2.88134765625
60.458740234375 105.82958984375 18.69921875
10.965576171875 39.369873046875 40.335693359375
3.542724609375 13.886962890625 -39.711181640625
-43.095703125 75.6142578125 -21.32177734375
-24.1748046875 29.570068359375 18.19091796875
-78.385986328125 62.7626953125 -24.15673828125
3.187255859375 -33.79150390625 -34.280517578125
-33.53955078125 52.405029296875 25.920166015625
-22.68994140625 88.734130859375 -9.8486328125
-10.03857421875 35.81005859375 30.7138671875
-5.85595703125 -0.817138671875 -99.86328125
-92.124755859375 60.308349609375 -22.906494140625
-59.7802734375 66.872802734375 -27.63671875
-20.537353515625 -81.69189453125 -19.625
35.5283203125 57.965087890625 -1.08935546875
4.421630859375 9.763427734375 -29.2470703125
-23.171630859375 74.01513671875 -45.750244140625
-38.073486328125 54.49169921875 29.411865234375
-69.640625 19.92626953125 21.548583984375
-59.391357421875 35.8359375 14.137939453125
-40.026611328125 -86.372802734375 -15.04443359375
-86.348388671875 45.138427734375 18.359130859375
-27.3427734375 -92.5703125 8.061767578125
31.8564453125 60.277099609375 0.67333984375
-11.50830078125 1.980224609375 61.685546875
-20.397216796875 30.6220703125 -15.977783203125
-91.57470703125 -17.03173828125 41.030029296875
-85.86376953125 74.5537109375 -0.771240234375
-23.680419921875 19.91162109375 -7.4951171875
-32.703369140625 31.23388671875 18.944091796875
-16.193359375 79.3623046875 -27.796142578125
-90.765625 54.50634765625 -14.189208984375
-22.217041015625 -65.793701171875 27.457275390625
-66.22265625 66.55908203125 -24.121826171875
-29.656494140625 86.11376953125 -10.722412109375
-53.14501953125 26.225830078125 -69.6806640625
-62.277587890625 26.75048828125 6.52490234375
-20.62548828125 32.94189453125 24.5576171875
5.750732421875 -6.004638671875 -42.65087890625
-31.744384765625 75.242919921875 -27.49072265625
-90.760009765625 49.906494140625 -22.765625
-46.5166015625 48.3857421875 18.168701171875
-76.991455078125 39.4697265625 8.39990234375
-32.317626953125 84.571533203125 -41.3271484375
-86.350830078125 22.649658203125 31.36962890625
-86.41943359375 41.751220703125 24.329833984375
-84.9228515625 37.53857421875 20.466064453125
-37.75390625 0.755859375 56.322265625
-64.76220703125 20.245361328125 23.17431640625
-86.533935546875 25.650390625 -2.269287109375
-25.650634765625 74.46435546875 -37.114501953125
-85.95361328125 69.478271484375 3.603515625
8.312255859375 49.25244140625 50.50244140625
29.0263671875 44.2041015625 51.39013671875
-7.283203125 40.545654296875 38.986083984375
-22.8505859375 -7.24560546875 49.25
-73.2412109375 22.946044921875 -1.8935546875
-83.82470703125 -16.75244140625 46.5830078125
-51.330078125 31.059326171875 14.888671875
-22.632568359375 76.939208984375 -28.574462890625
-86.409423828125 36.5283203125 27.797119140625
55.86962890625 103.00830078125 13.12939453125
20.020751953125 15.541259765625 -13.43994140625
2.98681640625 -28.41455078125 -41.96875
-38.1103515625 3.8564453125 53.9033203125
-2.16552734375 40.458740234375 39.8701171875
-11.969482421875 31.89404296875 24.392333984375
-50.876220703125 74.39208984375 -11.9345703125
-43.587890625 72.4443359375 -26.15966796875
58.49755859375 107.191162109375 24.6982421875
-101.931640625 -5.50830078125 30.93310546875
6.14501953125 8.47412109375 -38.22705078125
7.216796875 26.833251953125 18.0361328125
-0.894287109375 84.780029296875 -29.7236328125
-44.365966796875 28.35302734375 12.37841796875
-27.7666015625 83.04052734375 -16.48046875
-15.79150390625 64.8359375 -32.4970703125
-64.987060546875 -6.234375 42.834716796875
-60.546875 -35.8857421875 35.6767578125
23.628173828125 48.119384765625 57.28857421875
-85.527587890625 52.232177734375 24.225830078125
-66.5380859375 63.251220703125 -14.53369140625
37.11279296875 53.304443359375 -3.493896484375
42.488037109375 49.003173828125 -6.725830078125
-24.164794921875 2.25732421875 60.817626953125
-18.1220703125 26.118408203125 14.325439453125
-8.57177734375 1.375 59.279052734375
-23.991455078125 -60.786376953125 37.439453125
0.83251953125 16.265625 -42.4580078125
-8.93994140625 79.488037109375 -39.950927734375
-102.893798828125 1.57421875 28.748046875
-34.533447265625 5.828125 53.36474609375
4.99755859375 -13.360107421875 -43.098876953125
-58.09326171875 26.690185546875 7.28955078125
-63.820068359375 -12.72265625 48.162109375
-82.46875 25.503662109375 23.941162109375
-80.946044921875 40.531982421875 10.6962890625
-12.18359375 94.677490234375 -5.126220703125
-107.440185546875 -13.23388671875 30.082763671875
-31.536376953125 78.55517578125 -36.1962890625
-66.24951171875 63.06201171875 -30.647705078125
-79.358642578125 14.907958984375 28.673583984375
-15.95068359375 92.33154296875 -7.834228515625
-62.078369140625 -1.43505859375 40.2275390625
-112.996337890625 -13.880615234375 28.94091796875
-5.35986328125 -2.922607421875 60.84130859375
-75.608154296875 -98.1796875 -37.155517578125
-74.908447265625 26.334716796875 2.145263671875
-57.861572265625 69.163330078125 -25.42431640625
-88.462890625 56.65625 -26.4375
-11.621826171875 22.76318359375 10.00146484375
-30.47021484375 76.2841796875 -40.26513671875
-37.64111328125 26.16552734375 9.56494140625
15.930419921875 47.82568359375 53.663818359375
2.513916015625 -10.49609375 -40.286865234375
-35.67919921875 77.1650390625 -22.14599609375
9.5810546875 7.291259765625 -46.5888671875
-41.08251953125 28.267578125 -88.197265625
-42.8671875 79.56396484375 -9.977783203125
53.13525390625 105.04052734375 37.28515625
24.181396484375 43.50048828125 50.20166015625
-2.384765625 -8.0830078125 57.206298828125
-64.20166015625 69.63671875 -18.314208984375
0.494140625 -36.169677734375 -41.4794921875
-76.241943359375 59.524658203125 -31.735107421875
-94.0341796875 22.350830078125 -9.48974609375
-86.441162109375 54.015869140625 -37.60107421875
-44.67138671875 0.838623046875 53.140869140625
-81.670654296875 56.373046875 -34.265625
10.332275390625 56.105224609375 -47.463134765625
36.45703125 55.422607421875 -7.23388671875
-46.20703125 50.98974609375 20.8046875
-11.10986328125 72.732421875 -43.642333984375
-44.99853515625 18.452880859375 -85.05908203125
-34.62744140625 23.2919921875 6.173583984375
-104.224365234375 -20.77099609375 38.852294921875
-80.86083984375 32.371826171875 -15.386962890625
-38.5390625 80.147216796875 -16.3505859375
-84.9267578125 53.505615234375 -20.606201171875
-44.343994140625 -2.25439453125 59.543212890625
-86.899658203125 58.427490234375 23.468017578125
-48.00732421875 71.23095703125 -26.13037109375
-76.676513671875 34.683349609375 10.810302734375
57.489501953125 105.069580078125 20.362548828125
-41.41650390625 53.93701171875 28.30615234375
-30.4794921875 27.28076171875 14.106689453125
-3.14111328125 23.372314453125 11.402587890625
-15.048828125 18.839111328125 -2.744873046875
-85.851318359375 -16.32177734375 43.803466796875
-23.3115234375 81.031494140625 -21.96630859375
-25.61865234375 33.09033203125 23.339599609375
-3.708251953125 96.92724609375 -4.885986328125
-81.19580078125 36.010498046875 16.080322265625
-27.664794921875 -4.152587890625 47.106689453125
-87.43017578125 50.35498046875 11.9453125
-25.21826171875 -22.478271484375 -49.18896484375
-65.08349609375 65.375732421875 -27.48876953125
2.453857421875 12.034912109375 -32.938232421875
-29.25927734375 77.216064453125 -24.856689453125
-22.218017578125 4.206298828125 58.7568359375
8.251220703125 35.376708984375 -45.552001953125
-78.5400390625 9.177490234375 31.733642578125
33.1845703125 100.5556640625 60.13623046875
-50.072509765625 37.59326171875 17.715087890625
-13.966796875 77.837890625 -42.619384765625
1.587890625 21.2705078125 -34.118408203125
-14.952880859375 2.2685546875 60.298095703125
-66.461181640625 13.961181640625 26.07861328125
-48.468505859375 76.73681640625 -16.83447265625
-53.480224609375 67.732666015625 -31.093994140625
-37.28564453125 72.669189453125 -29.282470703125
23.710205078125 116.85205078125 51.90478515625
-82.855224609375 43.3369140625 11.001953125
19.976806640625 21.27685546875 -17.74072265625
-102.770751953125 -3.23876953125 28.4638671875
-83.55615234375 16.214111328125 30.533203125
-72.28515625 -7.511962890625 41.11669921875
-26.0107421875 -90.86767578125 -13.4794921875
-17.98388671875 54.706787109375 -28.131591796875
-51.732666015625 68.977294921875 -27.658447265625
-7.43505859375 80.74609375 -33.51171875
-69.55126953125 59.72509765625 -35.303955078125
-9.8193359375 76.770263671875 -18.421142578125
-80.755615234375 25.2041015625 -0.61279296875
-39.063720703125 43.718505859375 23.383544921875
28.220458984375 65.359130859375 -4.55908203125
-83.80029296875 33.1845703125 21.54638671875
-9.427490234375 91.20556640625 -11.195068359375
7.652587890625 45.049072265625 -40.685791015625
-68.068359375 24.903076171875 1.917724609375
-22.689697265625 -62.6904296875 34.6181640625
3.44677734375 43.29833984375 44.966064453125
5.66943359375 0.845458984375 -37.49951171875
-69.609375 3.885986328125 34.146240234375
-85.321533203125 58.652099609375 -25.802978515625
-85.154296875 29.2900390625 26.597412109375
-12.53857421875 75.25732421875 -13.21923828125
-64.966796875 26.2177734375 18.254638671875
-20.432861328125 35.081787109375 -17.877685546875
-60.22314453125 40.875244140625 -41.873046875
-37.270751953125 29.834228515625 16.15087890625
-15.498291015625 93.158203125 -0.260986328125
-87.81982421875 60.443115234375 6.5947265625
-19.525146484375 18.109375 0.6005859375
19.63525390625 113.3623046875 56.3720703125
-25.672607421875 -13.483154296875 51.442138671875
2.48681640625 31.79736328125 27.41259765625
-13.62353515625 -68.742431640625 -30.4951171875
-0.6005859375 -39.56494140625 -44.980224609375
30.45361328125 46.23974609375 54.986083984375
-69.96240234375 -11.19189453125 45.86474609375
31.951416015625 58.24267578125 -5.75341796875
-1.422607421875 28.67529296875 21.859375
-25.97265625 18.72314453125 0.166259765625
-36.5966796875 55.06982421875 32.89697265625
-19.482666015625 92.5166015625 -5.484130859375
21.8779296875 23.281494140625 -12.34765625
10.76220703125 16.616943359375 -48.640625
-20.080810546875 47.3134765625 -22.667724609375
-25.470947265625 75.90625 -44.270263671875
5.778076171875 37.533447265625 53.598388671875
-19.953125 -3.95654296875 50.31689453125
-10.879638671875 80.666015625 -22.81201171875
4.461181640625 12.464599609375 -43.039794921875
11.803466796875 45.392822265625 50.207763671875
-70.327880859375 33.97607421875 10.806396484375
-41.015869140625 32.410400390625 19.158935546875
5.020751953125 38.006591796875 37.39306640625
-27.80419921875 38.48193359375 29.848388671875
-67.652099609375 -74.5615234375 -20.756591796875
26.580078125 71.798828125 -8.92041015625
-24.316162109375 -92.836181640625 -2.246337890625
-28.521484375 87.732177734375 -6.476318359375
0.60302734375 -38.338623046875 -39.00244140625
-30.9736328125 76.18994140625 -30.65673828125
-95.554931640625 35.373046875 -14.609130859375
-107.95361328125 -7.239013671875 28.067626953125
-58.803466796875 72.55078125 -18.662841796875
-21.888671875 75.106689453125 -39.887939453125
16.34326171875 40.517333984375 43.311279296875
-1.525146484375 -43.76171875 -39.09033203125
-47.293212890625 33.857666015625 19.231689453125
-28.375732421875 30.459228515625 18.78564453125
-33.12646484375 86.31689453125 -44.22509765625
4.633544921875 -29.0947265625 -28.50146484375
-14.04736328125 90.868408203125 -10.177978515625
-32.89892578125 54.306640625 29.3212890625
-0.060302734375 47.777587890625 45.850830078125
3.063232421875 87.26513671875 -27.122802734375
-52.714111328125 -2.79638671875 58.688720703125
-37.02880859375 83.28173828125 -8.816162109375
-87.611572265625 53.922119140625 10.92529296875
-90.320556640625 55.81884765625 -31.741943359375
-27.67626953125 74.793701171875 -30.85986328125
8.409912109375 40.10888671875 -43.210205078125
-71.08154296875 26.08447265625 16.804443359375
-6.010498046875 22.380126953125 9.7763671875
-51.550537109375 75.94921875 -16.077880859375
41.436279296875 50.418212890625 -3.106689453125
-7.467041015625 82.44287109375 -20.704345703125
-26.006103515625 -89.85498046875 -5.04541015625
-73.54931640625 59.158447265625 -33.471435546875
-75.8701171875 -17.328857421875 50.4677734375
-14.143798828125 19.355224609375 2.357666015625
-19.07080078125 20.805419921875 -8.317626953125
-15.000732421875 81.225341796875 -21.703369140625
-54.9599609375 32.626708984375 -70.97509765625
-33.130615234375 1.2255859375 57.7919921875
-14.833984375 75.342041015625 -31.279296875
-56.8115234375 69.844970703125 -12.69921875
-25.096435546875 78.55517578125 -24.806640625
-79.859619140625 38.9267578125 2.006103515625
13.118408203125 13.06982421875 -69.38427734375
-7.827392578125 31.9248046875 25.318359375
17.876953125 15.415283203125 -15.8203125
-86.061767578125 34.989501953125 2.900146484375
-88.02099609375 60.082275390625 17.137451171875
-109.763671875 -18.92041015625 33.082763671875
-78.230224609375 19.98828125 24.015869140625
-32.110595703125 85.526123046875 -6.820068359375
-14.845703125 80.843505859375 -15.3046875
-87.8134765625 54.576171875 17.36376953125
-92.001953125 35.2744140625 -13.880126953125
-98.0546875 -17.666259765625 37.99853515625
-86.7578125 44.404296875 21.991943359375
-84.5537109375 20.97119140625 28.8408203125
29.750244140625 105.451904296875 60.592529296875
-43.261474609375 52.126220703125 21.161865234375
22.079345703125 41.5712890625 40.863525390625
-88.4423828125 32.8916015625 -0.43408203125
52.337158203125 47.213134765625 -6.78271484375
-88.53076171875 -14.0576171875 38.11181640625
-85.0673828125 41.607421875 16.313720703125
6.437744140625 38.473388671875 -40.891845703125
5.964599609375 8.22314453125 -45.084716796875
-2.001953125 -3.6640625 56.302001953125
-41.43603515625 25.77001953125 3.59619140625
-81.892333984375 6.392822265625 33.382080078125
-66.142822265625 32.8017578125 9.714599609375
-75.428955078125 57.189453125 -36.4091796875
27.263427734375 82.73388671875 -16.29443359375
-0.777099609375 44.033447265625 44.578125
-95.751220703125 30.881103515625 -7.14697265625
-88.445068359375 63.69873046875 8.49560546875
-52.73388671875 72.6123046875 -21.718017578125
-12.994384765625 29.578857421875 16.22314453125
-18.475830078125 69.9130859375 -33.274658203125
-55.989013671875 24.21484375 3.29248046875
-90.2392578125 22.762939453125 -6.304443359375
-9.391845703125 6.771240234375 57.427734375
-48.862060546875 73.733642578125 -21.66552734375
-18.723876953125 65.805908203125 -31.948486328125
-24.247802734375 22.825927734375 4.955810546875
-78.1806640625 29.766845703125 2.712646484375
29.433837890625 105.779296875 55.789306640625
-82.075927734375 56.213623046875 -20.6474609375
-26.1494140625 -92.282470703125 1.25244140625
-58.998046875 66.390380859375 -11.599365234375
-82.46923828125 58.8369140625 -23.21923828125
-23.91259765625 -87.366943359375 -10.513427734375
-21.17431640625 23.90234375 -12.2353515625
-86.12646484375 29.62109375 29.5986328125
-59.761474609375 37.274658203125 -40.66064453125
-63.02783203125 -17.63818359375 34.514892578125
-25.793701171875 -90.338134765625 -8.38720703125
-81.912353515625 -17.271484375 48.975830078125
-88.085693359375 56.825927734375 11.913818359375
-26.599853515625 28.73291015625 8.8720703125
-42.254150390625 25.66650390625 8.70458984375
-71.239990234375 31.010498046875 12.421875
-25.22021484375 89.480224609375 -6.625732421875
-9.537841796875 32.042236328125 19.416748046875
-18.171142578125 88.58544921875 -12.3203125
-66.41796875 29.71044921875 8.350830078125
3.0068359375 22.12890625 -27.675048828125
-66.479248046875 -9.878173828125 45.559814453125
6.344482421875 2.93359375 -42.40625
-26.794189453125 6.5947265625 55.537109375
-82.9541015625 13.09765625 33.380126953125
-83.450927734375 10.106201171875 32.763671875
-94.36474609375 44.0693359375 -8.162841796875
-29.0146484375 79.99560546875 -20.405517578125
-9.94970703125 35.258056640625 18.806884765625
4.29443359375 -5.349365234375 -37.742431640625
2.419189453125 19.71484375 -44.41748046875
23.027587890625 113.07080078125 57.510498046875
13.249755859375 46.92529296875 -48.521484375
26.046630859375 72.269775390625 -12.5517578125
-70.5859375 -20.679931640625 53.075927734375
1.642578125 91.004638671875 -15.50830078125
28.903076171875 41.69580078125 43.07373046875
-62.539794921875 32.505859375 14.6728515625
-82.61767578125 29.998291015625 20.796875
-11.412353515625 86.672119140625 -12.561279296875
-25.701416015625 27.3564453125 14.058349609375
-29.052734375 74.89013671875 -35.189697265625
-21.673828125 -67.91015625 31.727783203125
-47.052001953125 -2.5390625 62.0224609375
-40.688232421875 73.379150390625 -26.00390625
-49.21044921875 28.3740234375 11.21875
-96.9326171875 54.426025390625 -16.279296875
-33.37158203125 -17.635498046875 48.845458984375
-45.1298828125 78.275634765625 -15.723876953125
-8.54248046875 96.908935546875 -2.86279296875
-19.816162109375 6.4765625 57.974853515625
-76.5517578125 2.319580078125 34.765869140625
-50.708984375 -0.193603515625 52.06298828125
-94.158935546875 -13.357421875 34.9404296875
-2.407958984375 85.638916015625 -14.363037109375
-36.39697265625 33.791015625 22.382080078125
15.638916015625 46.466064453125 -50.754638671875
-79.792724609375 23.29931640625 22.421875
-94.56201171875 27.107177734375 -6.678466796875
-42.880126953125 -3.166259765625 -15.17041015625
10.192138671875 38.262451171875 -39.677734375
4.767578125 6.0439453125 -40.068115234375
-19.953857421875 80.03369140625 -23.030029296875
-20.258544921875 50.252197265625 -23.54833984375
-25.337890625 -94.575439453125 3.88671875
-33.296875 32.803466796875 21.4521484375
-2.716064453125 26.204345703125 17.55810546875
-27.4775390625 7.54296875 47.97998046875
-30.686279296875 10.90966796875 53.1806640625
-21.41796875 83.75341796875 -16.77294921875
-77.669921875 60.49169921875 -20.698974609375
-22.232666015625 29.879150390625 -13.7109375
-32.30078125 79.420166015625 -20.488037109375
-35.226318359375 41.608642578125 26.025390625
-42.44677734375 -1.0693359375 65.78515625
-78.51220703125 -3.449462890625 37.119140625
-86.977294921875 41.03125 10.225830078125
-7.997802734375 93.873291015625 -8.1416015625
4.107421875 45.900634765625 48.658935546875
-9.22216796875 73.1787109375 -14.426513671875
0.275146484375 24.439697265625 13.00146484375
-71.95263671875 14.623291015625 25.522216796875
-11.931396484375 -3.0966796875 63.62451171875
-81.531005859375 33.043701171875 15.964111328125
4.30615234375 26.22705078125 17.75390625
-88.280029296875 21.441162109375 -10.772216796875
-88.549072265625 43.390380859375 8.759521484375
14.290283203125 15.62744140625 -48.41650390625
-68.95361328125 61.57958984375 -31.722900390625
-11.1630859375 26.87060546875 15.49658203125
-55.748779296875 27.07861328125 -70.82568359375
8.905029296875 50.108642578125 -45.67431640625
-85.443603515625 31.186279296875 -1.48876953125
-73.450927734375 20.37939453125 21.204833984375
-23.198974609375 -58.712158203125 39.433349609375
17.6826171875 115.6064453125 47.2041015625
2.640380859375 -17.09228515625 -36.666015625
-94.5556640625 32.91259765625 1.123291015625
35.58251953125 52.13330078125 -7.231201171875
-83.6083984375 37.660888671875 -20.022705078125
-34.168212890625 -0.099609375 62.373046875
-72.893310546875 -13.126708984375 45.97216796875
-71.135986328125 62.798828125 -29.089111328125
4.486572265625 40.915771484375 41.656494140625
-79.788818359375 61.23583984375 -28.0009765625
-74.097412109375 7.8994140625 31.06298828125
-31.2529296875 36.656005859375 26.764404296875
-72.02392578125 34.19873046875 6.4814453125
-37.787841796875 38.719482421875 24.812255859375
27.85009765625 45.856201171875 53.7021484375
-30.564208984375 81.688232421875 -43.295166015625
-11.21728515625 80.500244140625 -28.816650390625
-23.834716796875 28.084716796875 5.460693359375
-77.81494140625 27.13818359375 18.114013671875
-89.370361328125 -18.542724609375 46.890625
-33.78369140625 21.3076171875 -0.59033203125
-42.806640625 79.82861328125 -14.91357421875
-95.74462890625 35.56298828125 -11.70849609375
30.09765625 64.555419921875 -8.6669921875
-21.686767578125 35.23583984375 27.73095703125
-41.797119140625 0.3095703125 55.2412109375
-62.05712890625 24.36669921875 1.94970703125
-86.6767578125 49.128173828125 17.898193359375
-77.77197265625 30.876953125 15.15234375
-12.816162109375 77.74609375 -17.877685546875
-94.601806640625 55.98193359375 -20.583740234375
-9.284912109375 37.203369140625 33.13916015625
4.209228515625 91.612548828125 -12.42919921875
-14.51318359375 -70.921142578125 -28.111328125
-94.250732421875 45.95263671875 -15.334228515625
-70.35986328125 1.284912109375 35.987060546875
-80.9150390625 19.669677734375 26.21875
56.837158203125 108.162841796875 22.545166015625
-15.343505859375 26.53466796875 14.986572265625
-34.73583984375 81.6923828125 -15.734130859375
-83.919189453125 38.262451171875 17.62109375
-73.05859375 30.909423828125 6.0146484375
-98.113525390625 -19.8603515625 41.94970703125
-25.33642578125 31.1083984375 20.330322265625
-81.833984375 38.276123046875 12.8642578125
4.380859375 22.77294921875 -39.093994140625
-46.21533203125 51.3125 17.839599609375
-87.12158203125 46.67138671875 24.54736328125
3.6494140625 -6.12353515625 -40.691650390625
2.3359375 17.220947265625 -29.167724609375
-47.535888671875 53.481689453125 24.89892578125
-46.6044921875 -2.421630859375 57.62841796875
-22.60791015625 -62.086669921875 31.396484375
-14.47021484375 35.953857421875 30.267333984375
-81.27783203125 28.49755859375 0.819580078125
-86.70849609375 -11.168212890625 35.22119140625
-65.790283203125 -14.632080078125 48.96875
-40.326416015625 -1.45458984375 61.9423828125
-18.6162109375 41.622314453125 -20.618408203125
-49.183349609375 31.986572265625 16.5263671875
-64.690673828125 -39.211181640625 35.54150390625
-4.786376953125 84.45458984375 -10.486572265625
-16.942138671875 33.644287109375 26.5234375
-21.876953125 27.791015625 -11.515869140625
-18.356689453125 -26.13037109375 -92.273193359375
-97.362548828125 3.019775390625 31.257568359375
3.964111328125 -15.546875 -41.587890625
-76.0419921875 22.3876953125 -3.681396484375
-71.167724609375 37.097900390625 6.899169921875
-62.69384765625 69.578125 -15.461181640625
-70.96240234375 64.7333984375 -25.4111328125
27.881591796875 66.108154296875 -10.484130859375
31.136962890625 43.072265625 49.5966796875
21.02294921875 40.38525390625 43.818115234375
-81.0439453125 22.369384765625 -4.692626953125
-1.205810546875 -7.014892578125 -101.489990234375
10.22119140625 37.02197265625 35.851806640625
22.808837890625 15.205078125 -13.828857421875
0.2392578125 -16.30908203125 -64.650634765625
-55.10693359375 29.8583984375 12.546630859375
-5.9580078125 26.44873046875 17.9228515625
2.423583984375 97.41455078125 -4.6201171875
-37.355224609375 -0.846435546875 63.963134765625
14.32568359375 118.221923828125 48.56689453125
10.9384765625 49.214599609375 -48.356689453125
-42.227294921875 74.383544921875 -23.85595703125
-16.347900390625 18.595458984375 0.759521484375
-62.30712890625 71.694580078125 -17.853759765625
24.914794921875 109.419677734375 59.453857421875
-105.4296875 -18.9697265625 35.302734375
-33.884033203125 24.747314453125 8.47314453125
-53.431640625 73.46533203125 -13.064453125
3.108642578125 -19.97509765625 -41.654052734375
-34.421142578125 38.997314453125 26.69482421875
-57.13720703125 66.388671875 -29.840087890625
-48.722412109375 -2.333740234375 55.78076171875
-78.942626953125 5.2265625 33.65625
11.60888671875 57.14501953125 -44.3251953125
-5.324951171875 94.302978515625 -8.889404296875
-17.14990234375 70.548095703125 -35.66748046875
-57.85205078125 72.239990234375 -15.744140625
29.542236328125 61.6025390625 -3.492431640625
21.101318359375 23.267822265625 -15.789306640625
0.324951171875 92.923583984375 -8.8779296875
-114.899658203125 -8.413330078125 26.9482421875
-24.44287109375 -9.524658203125 49.57568359375
-45.174072265625 52.470458984375 27.062744140625
-18.997802734375 60.960205078125 -28.93701171875
-20.076171875 72.7724609375 -45.001220703125
-85.826904296875 72.4326171875 1.050048828125
-18.509765625 74.81982421875 -37.686279296875
0.731201171875 18.6875 -33.4912109375
-68.17333984375 7.5634765625 31.267578125
-30.33154296875 25.40283203125 10.33447265625
-47.43505859375 -1.732666015625 64.6630859375
9.607666015625 42.416015625 45.1748046875
-10.025634765625 41.02294921875 38.8818359375
-0.960693359375 23.915283203125 8.6884765625
-75.692626953125 31.484130859375 13.403076171875
-14.406005859375 83.5009765625 -14.505126953125
-75.594482421875 63.697265625 -25.733154296875
46.389404296875 47.3310546875 -4.22021484375
-2.437255859375 -44.087890625 -42.168701171875
-86.386962890625 54.35205078125 -22.81494140625
-63.867919921875 6.620849609375 33.084716796875
18.959228515625 117.470458984375 51.454833984375
-78.977783203125 59.31787109375 -31.347900390625
3.208740234375 -28.480712890625 -32.277099609375
-20.85302734375 -65.118896484375 29.767822265625
-63.62939453125 31.990966796875 10.534912109375
-80.368896484375 -13.083251953125 41.91455078125
-72.330810546875 -2.45166015625 38.42138671875
-15.118408203125 77.98095703125 -38.736083984375
23.54736328125 113.18408203125 54.538818359375
-84.690185546875 57.5556640625 -31.54638671875
-44.268798828125 50.842529296875 23.60986328125
-18.145751953125 73.22265625 -48.912353515625
-63.76123046875 -3.94873046875 41.726318359375
0.0380859375 16.2333984375 -32.445068359375
-43.77587890625 55.052001953125 30.50537109375
-5.965087890625 7.746337890625 55.376708984375
-83.965576171875 25.971435546875 26.20458984375
-70.724609375 -18.343017578125 51.405517578125
-69.102783203125 22.747314453125 -4.874267578125
-26.059814453125 36.6005859375 28.8544921875
-22.9345703125 24.984375 10.326904296875
-86.500244140625 39.533935546875 25.954345703125
14.79833984375 12.55859375 -71.884521484375
0.138671875 98.623291015625 -3.185546875
-61.66162109375 28.973388671875 17.634033203125
-15.344970703125 73.52978515625 -46.112060546875
49.275146484375 49.12158203125 -6.094482421875
0.556396484375 23.37109375 -30.642822265625
-80.32958984375 54.710205078125 -37.6318359375
-40.603515625 81.162841796875 -9.58056640625
-94.318603515625 49.9775390625 -20.9970703125
-13.362060546875 -0.98828125 62.6318359375
-20.381591796875 36.6533203125 30.513427734375
-93.9345703125 45.599853515625 -21.629638671875
-30.4697265625 29.8095703125 17.157958984375
-81.400146484375 -9.624755859375 37.83740234375
10.092529296875 44.5546875 -42.457275390625
-31.129150390625 -18.319580078125 50.509521484375
-85.672607421875 48.344970703125 11.38671875
-83.06640625 20.949951171875 -9.50732421875
-2.718994140625 77.713134765625 -38.30712890625
-38.200927734375 81.93505859375 -13.867919921875
13.440673828125 48.935302734375 53.662353515625
9.366943359375 43.398681640625 -47.443359375
-113.939697265625 -18.9296875 31.591552734375
-28.514892578125 18.786865234375 -0.798095703125
5.633056640625 0.53173828125 -43.46533203125
-26.413330078125 0.909423828125 64.264404296875
9.367919921875 53.905029296875 -46.20361328125
7.712646484375 38.20361328125 37.66064453125
-85.30517578125 68.40771484375 -0.085693359375
-15.40087890625 40.68994140625 37.501953125
-86.891845703125 53.95458984375 7.90771484375
-24.533935546875 73.91650390625 -40.08056640625
-65.487548828125 -16.6484375 50.74609375
-35.62548828125 53.525634765625 27.2275390625
-66.532470703125 -0.703369140625 37.98046875
-19.193359375 20.465087890625 5.240966796875
-93.66552734375 41.257568359375 -18.541015625
-83.9404296875 -9.16650390625 36.6103515625
-22.081298828125 -0.221435546875 48.542724609375
-76.96044921875 24.763427734375 -0.327880859375
-62.681884765625 2.805419921875 36.506591796875
-51.704345703125 24.1123046875 4.44873046875
-82.990234375 -12.142333984375 39.2802734375
-14.21923828125 32.616455078125 21.288818359375
-86.95947265625 28.989501953125 -2.47802734375
19.122802734375 48.259521484375 55.360107421875
-20.365234375 74.329345703125 -33.353515625
-66.50146484375 18.2041015625 23.327392578125
25.095947265625 46.9404296875 55.072998046875
55.01123046875 102.558349609375 15.632568359375
-95.56005859375 37.410400390625 -16.356201171875
27.903564453125 67.076171875 -7.9814453125
-70.062744140625 -15.87646484375 49.316162109375
5.89892578125 -3.333740234375 -42.74072265625
-85.74462890625 36.329345703125 -12.92333984375
-36.892822265625 22.2509765625 4.548583984375
-18.899658203125 82.641845703125 -16.810791015625
-87.045654296875 59.747314453125 20.353515625
-93.307373046875 56.122314453125 -12.354248046875
28.1484375 108.360107421875 56.49560546875
-91.203125 54.10498046875 -26.351318359375
-93.79443359375 52.652587890625 -16.959716796875
1.650390625 -32.96484375 -39.184326171875
-111.266357421875 1.276611328125 29.445556640625
-74.548828125 43.820068359375 3.036865234375
-3.271484375 80.182373046875 -34.65673828125
1.835205078125 35.148193359375 32.16064453125
-24.5078125 16.443359375 -2.933837890625
-15.343505859375 19.775390625 4.6962890625
53.492431640625 104.50244140625 14.166015625
-34.944091796875 -19.781005859375 48.782958984375
-63.18212890625 11.36474609375 30.465087890625
-18.496826171875 -78.114013671875 -22.9013671875
-25.24365234375 17.768798828125 -5.143798828125
-75.691162109375 36.71630859375 9.417236328125
5.37353515625 12.627685546875 -37.1259765625
9.49755859375 46.6171875 50.67431640625
-20.392822265625 16.47900390625 -3.822265625
-89.904541015625 39.308349609375 -17.687255859375
10.601806640625 51.6748046875 -44.37744140625
-9.667236328125 95.45263671875 -4.847900390625
12.206298828125 56.843017578125 -50.416259765625
-44.352294921875 -72.101318359375 -52.586181640625
-16.623779296875 86.44091796875 -14.70458984375
3.3251953125 -30.211669921875 -43.88037109375
-28.320556640625 79.01220703125 -33.884033203125
-33.22216796875 76.220947265625 -24.88427734375
-26.05126953125 -94.599853515625 6.430419921875
-87.814208984375 59.188232421875 8.919189453125
-66.67041015625 -19.12841796875 52.480224609375
-24.7265625 -58.59130859375 36.17724609375
-93.506103515625 49.937744140625 -16.956298828125
28.9501953125 106.904296875 58.546630859375
-17.45703125 80.30029296875 -21.4951171875
-79.019287109375 21.55029296875 -7.906494140625
-90.76904296875 31.505859375 -2.816162109375
20.130615234375 44.052001953125 49.273681640625
-74.42041015625 -0.561767578125 36.677734375
3.457275390625 -27.04296875 -37.375732421875
-19.5908203125 77.91162109375 -28.423828125
-61.5361328125 -6.062255859375 44.589111328125
-108.228515625 -19.96484375 34.928955078125
1.545166015625 -2.8935546875 -103.089111328125
-29.632080078125 6.560546875 55.2939453125
-79.015625 43.1474609375 4.2861328125
-89.962646484375 36.9375 -15.551025390625
-71.965087890625 -14.7392578125 47.810791015625
-22.45458984375 -63.9482421875 25.31298828125
-7.24560546875 29.467041015625 20.40234375
-66.737060546875 -12.05517578125 46.9755859375
-23.614013671875 -90.047607421875 -12.8603515625
-66.1201171875 29.501220703125 14.477294921875
-46.89599609375 77.986083984375 -11.9326171875
-93.4345703125 32.42529296875 -11.260986328125
2.463623046875 11.132568359375 -30.497802734375
-75.23876953125 24.6923828125 18.591552734375
-20.751953125 -6.427734375 50.54638671875
-32.502685546875 4.78076171875 54.602294921875
-18.05126953125 44.4453125 -22.474853515625
25.5087890625 111.231689453125 55.406982421875
-22.9111328125 85.165283203125 -14.981689453125
-14.178955078125 32.120361328125 18.151123046875
-84.416259765625 58.779052734375 24.122802734375
-16.747314453125 90.4892578125 -9.88623046875
57.594482421875 109.10986328125 26.180908203125
-27.601806640625 2.9033203125 58.31689453125
25.485107421875 76.557861328125 -13.69287109375
-81.62060546875 42.1533203125 8.574462890625
-86.009521484375 37.2451171875 -18.1005859375
-62.4013671875 25.5244140625 4.254638671875
-48.833984375 50.14453125 23.4931640625
5.70166015625 15.090576171875 -46.772705078125
8.20703125 36.5849609375 -39.607666015625
9.5556640625 41.870849609375 -44.95751953125
7.5517578125 40.892578125 41.85302734375
-84.133056640625 37.38427734375 5.548095703125
-2.81005859375 83.63525390625 -31.007568359375
-89.434326171875 56.99072265625 -29.629150390625
1.988037109375 -14.47314453125 -40.338134765625
-69.237060546875 29.99462890625 7.06640625
-26.332763671875 35.155029296875 26.418701171875
-48.74560546875 75.588623046875 -11.14697265625
-47.7314453125 70.3486328125 -29.8427734375
8.468017578125 47.59521484375 -45.907958984375
-39.427490234375 1.748046875 54.658935546875
-28.845703125 74.476806640625 -37.995849609375
-22.597900390625 30.216064453125 6.14990234375
-94.17626953125 30.524169921875 -2.957763671875
-27.815673828125 34.082763671875 24.184326171875
-27.191162109375 77.150146484375 -45.69091796875
-19.3193359375 40.65966796875 35.210205078125
-67.507568359375 11.603759765625 28.086669921875
3.223388671875 -10.663330078125 -36.66552734375
-0.841064453125 -1.970947265625 -103.000732421875
-96.047607421875 30.322021484375 -9.61669921875
8.920654296875 40.5654296875 -37.4052734375
-70.650634765625 29.28076171875 14.502685546875
26.37939453125 109.61865234375 52.995361328125
-95.45166015625 53.591064453125 -20.35888671875
-22.701904296875 90.03369140625 -3.144775390625
4.00634765625 -31.439453125 -35.250732421875
-9.541748046875 80.865966796875 -26.6845703125
-5.424072265625 83.607177734375 -23.621337890625
-17.41748046875 31.496826171875 22.658447265625
-41.912109375 -86.741455078125 -13.130859375
-61.547119140625 1.33447265625 38.858154296875
-54.562744140625 69.335205078125 -9.9853515625
-81.586669921875 33.603759765625 -19.21875
-39.46240234375 22.56103515625 4.88916015625
-13.52685546875 79.708251953125 -28.12939453125
2.45556640625 28.470458984375 21.88916015625
-76.372314453125 28.627685546875 15.802978515625
-45.43896484375 -0.910400390625 65.98583984375
4.84912109375 9.909912109375 -43.4228515625
-32.766357421875 22.100341796875 4.486328125
4.865234375 35.111083984375 32.332275390625
-68.6923828125 26.40380859375 4.30517578125
-72.83984375 4.86865234375 33.056396484375
-38.781494140625 31.573486328125 18.343994140625
28.953125 40.66259765625 45.99365234375
-28.666015625 -14.2001953125 49.838623046875
-55.60205078125 71.927001953125 -13.440673828125
-44.7783203125 76.94189453125 -18.208984375
-88.263916015625 60.503173828125 13.009033203125
-46.163818359375 74.289794921875 -7.657470703125
-78.19580078125 25.33984375 19.83349609375
6.5654296875 90.26318359375 -8.187744140625
-48.484619140625 24.50927734375 5.826171875
-13.294677734375 79.4443359375 -24.036376953125
-93.0322265625 43.354736328125 -10.91845703125
-56.213623046875 66.363037109375 -32.1767578125
-101.63232421875 -15.55859375 33.919677734375
-24.018798828125 -22.832763671875 -47.015380859375
-17.63818359375 -3.430908203125 51.12353515625
-23.4599609375 -90.9560546875 -7.670166015625
-16.718994140625 21.046142578125 6.361328125
-32.45263671875 20.9228515625 2.1328125
-58.883056640625 68.489990234375 -13.060302734375
