-10.008544921875 5.9066162109375 24.1793212890625
20.1865234375 11.233642578125 43.2288818359375
5.265380859375 -3.018310546875 18.34912109375
12.132568359375 38.8663330078125 -37.27294921875
13.451171875 32.7374267578125 -19.1331787109375
0.53759765625 -0.2010498046875 14.5411376953125
-20.43408203125 9.533935546875 10.1036376953125
-8.255859375 0.7130126953125 4.22265625
-8.06005859375 0.2293701171875 8.4056396484375
-3.539306640625 -0.921875 12.2032470703125
-22.342529296875 -3.7208251953125 17.27392578125
-15.420654296875 0.5455322265625 11.4375
10.98291015625 27.922119140625 -6.4425048828125
-10.552978515625 2.1224365234375 3.112060546875
10.5966796875 10.7479248046875 44.3895263671875
11.757080078125 16.618896484375 -49.2763671875
21.8017578125 9.8621826171875 26.9010009765625
-12.14501953125 1.2392578125 5.771240234375
18.212646484375 9.168701171875 31.552978515625
18.098388671875 7.2635498046875 28.3011474609375
18.07421875 13.235595703125 36.112060546875
31.6953125 -4.157958984375 49.4761962890625
-2.6962890625 0.841552734375 8.411865234375
13.690673828125 8.2615966796875 -23.5296630859375
29.98974609375 -3.4833984375 40.3658447265625
12.147216796875 21.2576904296875 -61.2696533203125
10.066162109375 10.0980224609375 -24.6156005859375
12.83837890625 37.837890625 -39.3314208984375
10.4306640625 18.9559326171875 -55.3397216796875
0.680908203125 -2.6671142578125 22.518798828125
9.0771484375 13.6895751953125 -40.1710205078125
18.514404296875 7.70361328125 54.3883056640625
9.20458984375 10.109619140625 50.5528564453125
20.254150390625 20.305419921875 -11.4718017578125
19.78955078125 16.29931640625 -49.003173828125
14.884765625 13.2801513671875 29.6729736328125
2.66259765625 38.9683837890625 -52.2618408203125
8.19580078125 15.0247802734375 31.1666259765625
17.72705078125 23.9132080078125 0.3173828125
8.113525390625 20.48388671875 -53.6463623046875
-7.864990234375 7.958251953125 26.9813232421875
14.587158203125 24.552490234375 -1.258544921875
20.418701171875 9.6673583984375 -29.832763671875
23.82470703125 13.3167724609375 34.6944580078125
23.6923828125 -4.9171142578125 50.216064453125
11.410888671875 12.6864013671875 -36.2784423828125
5.543212890625 36.5618896484375 -46.212646484375
28.598388671875 -2.7408447265625 43.5126953125
10.994873046875 20.4134521484375 -59.5040283203125
0.532470703125 1.10546875 11.1099853515625
10.744384765625 12.302734375 39.7713623046875
-18.806884765625 9.27001953125 7.4388427734375
22.974853515625 5.1243896484375 50.08935546875
27.803955078125 -5.5765380859375 49.5867919921875
-19.608642578125 -3.3663330078125 22.534423828125
16.89453125 10.484375 -32.0931396484375
-20.68994140625 -2.74267578125 15.828125
12.8544921875 13.0955810546875 37.1268310546875
19.74365234375 17.5965576171875 -52.312744140625
13.80224609375 11.1507568359375 -33.55859375
-21.980224609375 -2.5269775390625 13.5875244140625
25.1923828125 -4.33935546875 47.9796142578125
-2.210693359375 -1.914306640625 19.826416015625
14.857421875 11.850830078125 -35.234130859375
25.09228515625 -3.1474609375 43.345703125
27.598876953125 -1.9970703125 39.9681396484375
28.017822265625 5.129638671875 40.78515625
-14.60205078125 1.7130126953125 7.681396484375
-0.359130859375 2.650390625 3.8140869140625
16.423828125 13.0772705078125 37.2425537109375
6.158935546875 -4.2691650390625 15.2425537109375
6.625732421875 -4.4298095703125 19.8602294921875
17.143310546875 11.310791015625 42.717041015625
-10.26708984375 -1.0340576171875 18.9925537109375
5.693603515625 36.647216796875 -42.553955078125
17.240478515625 13.08251953125 27.334716796875
18.563232421875 11.0142822265625 24.496337890625
22.126953125 -4.8314208984375 46.244873046875
-7.671630859375 -2.2838134765625 6.84033203125
23.782958984375 9.9234619140625 -29.5916748046875
14.390625 13.2706298828125 -39.2633056640625
12.08056640625 14.8328857421875 30.4658203125
15.51123046875 18.843994140625 -54.505126953125
-11.62353515625 0.580078125 9.1737060546875
23.50390625 8.2174072265625 49.533203125
-17.589111328125 0.104248046875 14.4298095703125
-6.818359375 -4.51904296875 16.653076171875
14.392578125 15.866943359375 27.7861328125
11.26904296875 15.28271484375 -45.568603515625
0.16552734375 1.9798583984375 7.2734375
-10.838134765625 -2.4072265625 20.452392578125
16.718994140625 20.4190673828125 -10.9833984375
3.421142578125 -1.56787109375 16.064208984375
1.52490234375 -0.9150390625 18.37158203125
31.91162109375 -4.3121337890625 40.78466796875
19.666748046875 -3.5294189453125 47.7786865234375
-14.17822265625 -1.713623046875 17.794189453125
-0.138427734375 -1.8056640625 20.622802734375
14.585693359375 14.048583984375 34.0623779296875
20.521484375 8.98876953125 25.6474609375
4.00244140625 0.696044921875 3.37451171875
15.528076171875 31.414306640625 -18.364990234375
21.739013671875 15.4207763671875 -46.25244140625
13.6689453125 11.448486328125 42.5892333984375
11.4375 11.4007568359375 -33.84521484375
23.051025390625 16.451171875 -49.639404296875
12.412841796875 8.43994140625 51.3770751953125
-20.759521484375 1.15771484375 5.430419921875
17.508056640625 12.6142578125 33.6795654296875
16.208740234375 12.96142578125 -38.95361328125
11.0849609375 30.2431640625 -14.5531005859375
-20.715087890625 -0.115966796875 8.785400390625
-2.265380859375 0.0084228515625 13.761962890625
15.468017578125 26.595703125 -11.7989501953125
19.53955078125 12.4254150390625 39.2987060546875
25.856689453125 9.2183837890625 46.52294921875
12.37353515625 38.2344970703125 -50.4439697265625
-4.0439453125 -1.6651611328125 16.3798828125
12.28076171875 8.476806640625 -25.857421875
23.5869140625 10.3740234375 -32.0125732421875
24.489990234375 3.356201171875 45.299072265625
8.6923828125 15.905029296875 -46.2305908203125
11.811767578125 37.2265625 -40.8935546875
15.502197265625 8.464599609375 51.926025390625
26.889892578125 -3.5426025390625 45.7532958984375
19.928955078125 12.9453125 37.3499755859375
-19.1650390625 -0.6597900390625 12.5252685546875
7.325439453125 12.654296875 -35.66064453125
19.58349609375 13.3082275390625 -40.3675537109375
-9.582275390625 0.10546875 9.5447998046875
10.58935546875 32.93701171875 -16.1927490234375
15.977783203125 25.8604736328125 -8.9678955078125
1.2822265625 38.243408203125 -44.796630859375
12.360595703125 24.23486328125 2.389404296875
10.5517578125 28.569091796875 -2.798583984375
20.53857421875 10.4736328125 -31.467041015625
9.36376953125 41.132568359375 -54.09912109375
20.261962890625 19.6138916015625 -9.0406494140625
5.2216796875 -1.7418212890625 13.7606201171875
16.706787109375 19.765625 -57.893798828125
9.40771484375 9.365234375 -27.341064453125
13.11865234375 28.134033203125 -10.1292724609375
16.546630859375 10.3555908203125 28.0009765625
23.79931640625 12.5611572265625 38.6556396484375
16.68505859375 24.9195556640625 -13.0350341796875
12.616455078125 26.6195068359375 -2.02880859375
13.097412109375 26.000732421875 -4.461669921875
14.716796875 14.38427734375 -42.5367431640625
17.790771484375 19.864013671875 -59.6107177734375
12.401123046875 18.8675537109375 -55.887451171875
18.614013671875 21.419677734375 -9.0107421875
10.112060546875 8.043701171875 53.576904296875
10.039306640625 28.790283203125 -10.466064453125
14.769775390625 20.009765625 -60.59326171875
19.075439453125 10.45068359375 45.9114990234375
21.3291015625 -0.3975830078125 48.0643310546875
9.25537109375 20.1221923828125 -58.1370849609375
8.744140625 15.2474365234375 -43.0087890625
27.412109375 -1.666259765625 42.3470458984375
15.6171875 16.258056640625 -47.9112548828125
12.87939453125 9.0584716796875 49.482421875
13.7900390625 15.842529296875 24.59228515625
4.065673828125 38.107666015625 -51.08984375
17.2919921875 15.7412109375 -46.7869873046875
-12.066650390625 -2.1961669921875 22.3271484375
3.5830078125 42.987060546875 -55.423828125
-16.329833984375 -1.54833984375 21.9053955078125
18.6591796875 -5.2943115234375 47.614501953125
16.994873046875 25.73583984375 -5.337158203125
14.777587890625 12.2391357421875 40.3079833984375
15.80712890625 12.48681640625 31.2464599609375
22.31201171875 -5.158935546875 43.890869140625
8.7373046875 31.1273193359375 -13.2811279296875
18.724609375 9.4976806640625 -29.3502197265625
26.04345703125 5.8131103515625 43.930419921875
10.41455078125 8.6884765625 -25.7847900390625
9.098876953125 13.5484619140625 34.2728271484375
12.670654296875 28.5771484375 0.00439453125
-3.389892578125 1.2957763671875 4.96826171875
7.70166015625 36.7462158203125 -47.179443359375
21.681396484375 10.498291015625 44.8341064453125
11.878662109375 32.007568359375 -17.8485107421875
7.570068359375 38.71630859375 -51.779296875
15.194580078125 15.0223388671875 -44.603759765625
-21.49609375 -4.53076171875 20.2314453125
23.7529296875 0.673095703125 45.49267578125
7.69775390625 37.470458984375 -49.262451171875
9.026611328125 11.970703125 42.830810546875
19.625244140625 1.12890625 52.3956298828125
11.62158203125 17.7994384765625 -52.143310546875
19.17138671875 7.22998046875 31.4886474609375
-11.372802734375 -1.7607421875 16.689697265625
28.925537109375 -4.8402099609375 46.938720703125
2.416259765625 -0.861572265625 11.8421630859375
9.708984375 37.1527099609375 -40.3585205078125
-9.717041015625 -0.7950439453125 13.699951171875
9.854248046875 13.166015625 36.638916015625
11.8583984375 10.3974609375 45.5986328125
18.1279296875 12.3258056640625 25.7313232421875
8.524169921875 38.21630859375 -38.2840576171875
10.293701171875 7.596435546875 55.50439453125
5.250732421875 -0.248291015625 4.5157470703125
6.265380859375 -1.6082763671875 10.6787109375
16.3583984375 7.5843505859375 54.2650146484375
8.48583984375 11.5048828125 -32.905029296875
20.11376953125 18.8115234375 -57.287841796875
18.292724609375 12.2957763671875 -37.03662109375
30.641845703125 -0.9293212890625 39.742919921875
-12.108642578125 0.3746337890625 15.9871826171875
-11.90478515625 0.7230224609375 12.9674072265625
0.900634765625 37.8873291015625 -49.6351318359375
13.196044921875 17.8636474609375 -53.0665283203125
17.077392578125 10.5382080078125 45.4361572265625
8.45849609375 17.6533203125 -51.10546875
17.888427734375 -5.0341796875 49.148193359375
10.798828125 14.6468505859375 -43.5087890625
16.33984375 21.2828369140625 -12.9971923828125
-9.396240234375 5.4095458984375 25.6983642578125
-18.57861328125 7.469482421875 14.6138916015625
6.984130859375 36.3759765625 -43.8455810546875
-7.7734375 0.1029052734375 25.5196533203125
17.717041015625 8.67919921875 51.2640380859375
17.640869140625 24.6949462890625 -8.59423828125
15.6455078125 8.150634765625 -24.0009765625
22.02197265625 13.024658203125 35.0264892578125
19.57763671875 18.0726318359375 -53.951416015625
20.8916015625 8.788818359375 50.6368408203125
21.1669921875 -5.9158935546875 45.3536376953125
20.3828125 5.0390625 53.5032958984375
2.50634765625 36.5614013671875 -46.01611328125
8.318603515625 18.83251953125 -53.968017578125
16.6494140625 14.19970703125 -41.842041015625
22.022216796875 8.1400146484375 32.00244140625
-21.6220703125 -3.4356689453125 18.7783203125
0.962158203125 37.0579833984375 -41.8797607421875
20.627197265625 -3.5751953125 46.2598876953125
13.153076171875 23.9879150390625 0.7696533203125
21.3740234375 7.42333984375 29.968505859375
32.71875 -5.2210693359375 41.9481201171875
-23.382080078125 0.1475830078125 6.1756591796875
-19.340576171875 5.711669921875 18.718017578125
13.5107421875 26.62451171875 -8.10791015625
4.701904296875 0.2381591796875 6.8470458984375
3.868408203125 2.36376953125 3.395263671875
20.488037109375 9.6136474609375 47.90087890625
-7.421875 9.7850341796875 26.681640625
10.791259765625 38.212158203125 -51.1568603515625
1.1669921875 0.01708984375 12.6273193359375
18.333984375 -6.341064453125 50.629638671875
2.577880859375 40.240234375 -53.55224609375
-8.004150390625 -4.2186279296875 17.7850341796875
-7.83056640625 -3.5888671875 24.6153564453125
-8.120849609375 -3.86669921875 21.57568359375
11.740478515625 8.1978759765625 52.8916015625
16.354736328125 28.458984375 -15.497802734375
3.50537109375 37.6824951171875 -39.6151123046875
17.1533203125 10.1312255859375 -30.49560546875
24.162109375 -2.3704833984375 41.392578125
20.833251953125 9.400390625 24.0784912109375
11.35302734375 15.9190673828125 26.9302978515625
18.53271484375 14.721435546875 24.634521484375
9.09765625 17.134765625 -49.5205078125
-5.00830078125 -3.541015625 18.9771728515625
-0.402587890625 -0.823974609375 17.2027587890625
-7.96533203125 -3.6087646484375 19.3173828125
15.9453125 17.2283935546875 24.682373046875
14.466064453125 15.285400390625 29.3531494140625
13.036865234375 12.6409912109375 39.0831298828125
18.546875 25.0174560546875 -2.928955078125
17.464599609375 24.275146484375 -1.2965087890625
12.35693359375 9.254150390625 -28.2603759765625
2.867919921875 -2.333251953125 19.495361328125
2.691162109375 1.4888916015625 4.93994140625
-7.52294921875 -1.43603515625 4.9515380859375
-18.275634765625 1.9072265625 6.5606689453125
22.07421875 9.7525634765625 -29.1075439453125
9.968017578125 14.7125244140625 31.197998046875
5.35009765625 15.2857666015625 29.533447265625
15.119384765625 30.8505859375 -16.711669921875
12.07568359375 14.296142578125 -42.3720703125
8.749267578125 10.89794921875 46.671630859375
-2.37158203125 -1.41259765625 16.40185546875
19.85986328125 11.5947265625 -33.879638671875
11.04296875 13.599609375 -40.282470703125
0.828369140625 39.820556640625 -50.138427734375
-12.69970703125 -2.9559326171875 20.7841796875
-10.150146484375 -2.794921875 21.9593505859375
30.023681640625 -3.51806640625 43.523193359375
9.106201171875 44.2503662109375 -56.740234375
-11.701416015625 0.535888671875 7.2764892578125
10.300048828125 9.6680908203125 47.83544921875
-8.9755859375 0.97216796875 6.135009765625
14.419677734375 14.514892578125 32.49365234375
11.04931640625 27.959716796875 -4.8277587890625
20.67041015625 11.864501953125 41.2969970703125
-15.068359375 3.654541015625 5.0604248046875
23.63330078125 10.9903564453125 43.7496337890625
5.391357421875 -3.42822265625 16.798828125
25.345703125 -2.894775390625 44.9423828125
7.197998046875 15.7674560546875 27.6273193359375
12.789306640625 13.1973876953125 -39.1688232421875
20.75830078125 21.0294189453125 -15.5450439453125
-6.68603515625 -3.040283203125 12.90185546875
22.596923828125 12.4501953125 -37.276123046875
17.336669921875 17.14794921875 -50.0928955078125
7.310791015625 14.571044921875 -37.3194580078125
7.651123046875 17.8253173828125 -47.8558349609375
11.287109375 10.5166015625 -31.026611328125
12.9228515625 29.246337890625 -12.158935546875
31.919677734375 -3.86962890625 47.92626953125
-15.435791015625 -0.8199462890625 15.5494384765625
18.4990234375 10.740478515625 32.0296630859375
-15.511474609375 1.0867919921875 9.938720703125
3.72216796875 -1.76611328125 14.521484375
-21.42529296875 0.2503662109375 6.5447998046875
18.9501953125 8.330810546875 26.3843994140625
4.35986328125 -4.2017822265625 21.756591796875
12.980224609375 27.0211181640625 -0.0108642578125
-7.260498046875 -5.163330078125 20.0322265625
16.79296875 15.09033203125 -45.1109619140625
-8.033203125 -2.3548583984375 14.8082275390625
4.29931640625 4.183837890625 23.5997314453125
-9.0068359375 -1.8216552734375 17.0889892578125
-5.08642578125 -2.2911376953125 14.0694580078125
8.849853515625 9.98046875 -29.31103515625
10.17578125 15.8603515625 -46.72607421875
24.10546875 -3.7078857421875 44.4468994140625
10.6650390625 9.0687255859375 -28.5762939453125
23.645263671875 11.6754150390625 41.796142578125
-13.91455078125 2.0960693359375 3.895263671875
10.6455078125 21.29345703125 -60.7440185546875
22.163330078125 9.773681640625 47.1927490234375
-6.84326171875 7.989501953125 28.156494140625
18.86376953125 12.9827880859375 34.531982421875
6.515869140625 37.009521484375 -40.9854736328125
19.5087890625 -0.1959228515625 51.5125732421875
15.10693359375 7.947021484375 53.4400634765625
21.43798828125 3.891845703125 51.5062255859375
19.26806640625 23.891357421875 0.30078125
24.067138671875 -0.1318359375 43.8814697265625
11.31640625 28.439453125 -9.684814453125
16.822998046875 8.1719970703125 29.4959716796875
24.8544921875 6.171875 47.4752197265625
16.429931640625 18.0302734375 -53.3125
22.385986328125 14.895751953125 -44.6475830078125
26.168212890625 4.776123046875 42.2847900390625
23.03955078125 15.753173828125 -47.571044921875
0.55712890625 36.6201171875 -45.0814208984375
-9.566650390625 -1.4737548828125 22.7724609375
22.969482421875 6.95361328125 50.214599609375
18.21728515625 25.3427734375 -6.1710205078125
7.813232421875 20.0595703125 -51.9935302734375
22.347900390625 13.4989013671875 -40.9404296875
20.48681640625 17.18701171875 -50.719482421875
20.16162109375 10.54296875 44.7738037109375
14.7939453125 11.074462890625 -32.408447265625
-19.47216796875 8.280517578125 10.837890625
-13.7109375 -0.3955078125 14.0648193359375
16.318603515625 9.4923095703125 26.7733154296875
11.284423828125 14.3919677734375 33.5885009765625
-11.474853515625 -1.9334716796875 18.1942138671875
2.162109375 -5.0675048828125 22.074462890625
-8.337158203125 6.1239013671875 26.5130615234375
24.594482421875 10.2105712890625 46.133056640625
13.736083984375 9.0211181640625 -26.7257080078125
18.654052734375 11.2677001953125 42.773681640625
8.042724609375 14.9180908203125 -39.762939453125
9.312744140625 10.6036376953125 -31.331298828125
17.851806640625 14.422119140625 -42.7293701171875
6.661376953125 37.818359375 -39.3922119140625
19.197998046875 22.765869140625 -8.6219482421875
26.116455078125 1.70703125 40.9151611328125
-8.205322265625 -1.27001953125 11.7978515625
-13.961181640625 -2.1217041015625 20.4180908203125
-8.036376953125 -0.177978515625 2.30517578125
15.931396484375 12.437255859375 38.777099609375
10.4248046875 31.4110107421875 -16.169921875
5.44580078125 38.200439453125 -38.5216064453125
-2.588623046875 1.0181884765625 6.8798828125
-7.890869140625 3.0142822265625 25.63330078125
-15.124755859375 2.9073486328125 6.9451904296875
-4.09765625 0.316162109375 8.4036865234375
32.93505859375 -4.447021484375 44.771240234375
20.501220703125 -4.999755859375 49.6650390625
7.414794921875 16.8138427734375 -44.992919921875
12.25048828125 11.5936279296875 42.1485595703125
16.63671875 23.550048828125 -12.213134765625
22.722412109375 12.64111328125 -38.9061279296875
19.24755859375 10.82958984375 -32.61962890625
23.03271484375 8.1826171875 28.8485107421875
5.727294921875 38.9869384765625 -52.0731201171875
22.484619140625 -0.22265625 46.559326171875
12.6904296875 34.3765869140625 -18.3154296875
9.333251953125 12.4464111328125 39.3358154296875
17.183349609375 23.541015625 -10.6065673828125
20.03369140625 14.5528564453125 -43.27197265625
17.894287109375 23.4339599609375 1.93017578125
3.947021484375 36.96728515625 -40.833251953125
22.344970703125 8.673095703125 26.0682373046875
24.488037109375 7.571533203125 47.9473876953125
-19.440673828125 0.4224853515625 5.413818359375
1.197998046875 38.335205078125 -51.3074951171875
14.41845703125 16.0325927734375 -47.014892578125
17.75 23.734130859375 -15.4871826171875
13.25390625 10.419921875 -31.11767578125
17.104736328125 -6.557861328125 49.7796630859375
17.19677734375 11.6988525390625 30.45263671875
3.897216796875 -0.8443603515625 10.6903076171875
14.08349609375 16.9754638671875 -50.260986328125
17.01318359375 22.17041015625 -15.0443115234375
10.67822265625 16.5172119140625 -47.9940185546875
21.07373046875 7.7237548828125 52.549072265625
15.024169921875 27.369384765625 -13.010986328125
31.8115234375 -5.07373046875 43.1060791015625
24.50244140625 10.1826171875 -30.841064453125
-16.0029296875 -0.4837646484375 20.8204345703125
20.6435546875 16.0150146484375 -47.020263671875
23.325439453125 -4.04248046875 45.9580078125
11.904541015625 36.82666015625 -45.814453125
13.9951171875 18.247802734375 -54.3575439453125
8.4326171875 36.8482666015625 -41.091064453125
21.117919921875 16.6519775390625 -49.5174560546875
22.058349609375 17.8626708984375 -52.493408203125
21.0712890625 11.192138671875 -34.732177734375
17.313232421875 21.76806640625 -10.1964111328125
9.4091796875 29.3245849609375 -11.6666259765625
14.53271484375 27.3427734375 -10.9693603515625
15.43994140625 26.514892578125 -10.175048828125
20.12060546875 15.3516845703125 -45.7398681640625
0.877197265625 37.6651611328125 -43.5255126953125
20.90576171875 13.6533203125 -40.8623046875
2.427001953125 -2.9210205078125 21.38818359375
8.17431640625 39.0592041015625 -37.0667724609375
17.1123046875 9.859375 25.615966796875
10.350341796875 36.75146484375 -43.6602783203125
15.395263671875 9.858154296875 -29.6077880859375
20.210693359375 12.776611328125 -39.1732177734375
8.686279296875 29.739990234375 -12.8638916015625
22.359130859375 -3.9959716796875 47.481201171875
-13.221435546875 0.998779296875 8.802978515625
-20.669677734375 -0.73779296875 11.02001953125
22.768310546875 10.6787109375 -33.190673828125
5.454345703125 -1.3275146484375 8.7515869140625
14.003662109375 25.8817138671875 -5.689697265625
23.19970703125 2.9908447265625 48.376708984375
16.826171875 9.5440673828125 48.125244140625
11.143310546875 15.6158447265625 28.4979248046875
16.8330078125 12.4322509765625 -37.7646484375
14.501220703125 17.52294921875 -51.5291748046875
19.30029296875 -1.6239013671875 50.6204833984375
25.120849609375 -0.0740966796875 41.9578857421875
30.67431640625 -4.0234375 45.4920654296875
18.31494140625 19.142822265625 -56.356201171875
22.424560546875 9.334228515625 28.08740234375
-3.166015625 -3.1361083984375 21.2969970703125
5.476318359375 -4.0283203125 20.626953125
14.235107421875 12.3782958984375 -36.4193115234375
29.0263671875 -2.1717529296875 40.01025390625
-5.6708984375 -0.3653564453125 6.1024169921875
12.052978515625 13.3944091796875 35.931884765625
3.013671875 37.3341064453125 -49.344482421875
19.523681640625 19.3922119140625 -10.640380859375
5.953857421875 16.12255859375 26.8275146484375
26.150146484375 2.9393310546875 41.779541015625
21.0673828125 18.643798828125 -55.3150634765625
0.65576171875 2.741943359375 23.86865234375
17.696533203125 10.013427734375 46.615234375
17.6376953125 11.948974609375 41.188720703125
15.5927734375 12.9244384765625 28.4840087890625
-10.77197265625 -0.36767578125 15.977783203125
-10.552490234375 1.40966796875 6.52783203125
-0.830810546875 1.2618408203125 10.7255859375
21.0537109375 2.2357177734375 50.9774169921875
9.80517578125 19.4859619140625 -56.53076171875
23.685302734375 4.7655029296875 48.912841796875
12.375732421875 20.181640625 -58.38818359375
13.39013671875 7.6915283203125 54.5069580078125
5.493408203125 -1.36181640625 11.841064453125
9.091064453125 14.3814697265625 -41.795166015625
21.371826171875 0.830078125 49.325439453125
20.71337890625 -1.734130859375 48.728515625
20.90869140625 6.29150390625 52.8328857421875
14.880615234375 24.9759521484375 -3.2803955078125
15.13720703125 26.725830078125 -8.1414794921875
16.570068359375 25.173095703125 -4.1151123046875
12.996337890625 36.952392578125 -47.536865234375
-0.89306640625 2.482666015625 8.0548095703125
2.257080078125 36.798095703125 -42.7591552734375
6.851806640625 15.201416015625 32.321044921875
9.08203125 36.52197265625 -46.4395751953125
-0.59228515625 -1.81005859375 22.52880859375
7.72900390625 13.1885986328125 -36.8929443359375
18.11474609375 26.1192626953125 -15.5234375
2.199951171875 41.800048828125 -54.8411865234375
17.87353515625 20.685302734375 -15.457763671875
20.75341796875 12.149658203125 34.14794921875
7.692626953125 19.2335205078125 -50.736083984375
15.765869140625 8.3367919921875 -25.6011962890625
-12.24658203125 1.6009521484375 9.9521484375
8.4990234375 12.19189453125 -34.515625
18.3193359375 -2.787109375 51.2686767578125
-8.12548828125 -5.099609375 22.287109375
-19.223876953125 10.6021728515625 7.462158203125
2.75537109375 0.81103515625 10.3369140625
-7.576416015625 -4.2247314453125 15.5191650390625
3.398193359375 1.0931396484375 6.477783203125
4.37109375 -2.2490234375 16.8232421875
-15.283447265625 -1.3232421875 18.5462646484375
0.767578125 1.469482421875 8.4202880859375
-10.458740234375 1.462890625 8.8104248046875
12.149658203125 10.130859375 -23.9061279296875
-15.953369140625 0.426513671875 12.9412841796875
-4.843017578125 0.6812744140625 5.732666015625
10.84619140625 38.5574951171875 -38.0142822265625
-19.347412109375 8.3511962890625 13.8734130859375
15.948486328125 20.164794921875 -59.8878173828125
-5.982177734375 -4.7694091796875 19.683837890625
-19.05517578125 1.586181640625 3.9224853515625
16.135009765625 10.076416015625 -27.6522216796875
15.3046875 13.7601318359375 30.8946533203125
17.175537109375 11.7467041015625 27.6759033203125
17.72314453125 9.3548583984375 49.338134765625
-20.499755859375 8.7706298828125 11.6041259765625
-6.9326171875 -2.6468505859375 9.4920654296875
-19.789794921875 9.18359375 8.5787353515625
4.955810546875 -0.1021728515625 8.387939453125
-9.0576171875 -2.079345703125 23.8939208984375
6.512451171875 15.506103515625 28.783203125
21.376220703125 11.0611572265625 32.9178466796875
23.60009765625 -3.6151123046875 41.2982177734375
9.10791015625 15.59716796875 28.8465576171875
6.451416015625 43.420654296875 -55.6644287109375
-13.342041015625 1.5245361328125 6.5386962890625
15.92919921875 24.29638671875 -1.2769775390625
25.803955078125 -3.6134033203125 46.8790283203125
16.442138671875 11.0537109375 43.8604736328125
19.78173828125 9.3582763671875 49.0394287109375
18.522705078125 16.6710205078125 -49.3406982421875
23.78662109375 11.969970703125 -36.5147705078125
16.566162109375 15.4476318359375 25.424072265625
-13.404296875 1.4891357421875 5.02197265625
20.075927734375 -4.8095703125 46.155517578125
-3.19580078125 -2.5052490234375 19.0321044921875
0.983642578125 40.780517578125 -52.6492919921875
13.616943359375 14.2764892578125 -41.6634521484375
9.621826171875 13.060791015625 -38.584228515625
12.769775390625 20.784912109375 -62.504150390625
-14.685546875 -1.111083984375 16.6773681640625
9.139892578125 37.35009765625 -49.3543701171875
14.0458984375 31.5245361328125 -19.134521484375
7.54052734375 37.970703125 -50.507080078125
17.387451171875 7.6763916015625 27.1173095703125
8.25146484375 14.994873046875 34.71337890625
11.469970703125 12.099365234375 -35.065185546875
26.5439453125 -5.2017822265625 48.768310546875
23.858154296875 -3.4686279296875 47.5845947265625
6.150390625 37.4591064453125 -49.565673828125
10.2353515625 39.7076416015625 -35.9678955078125
17.924072265625 9.129150390625 -28.1051025390625
-13.167236328125 0.3778076171875 11.440185546875
-8.099853515625 -4.9725341796875 18.894287109375
-23.222900390625 -2.3446044921875 14.3294677734375
11.9443359375 36.7806396484375 -42.526611328125
9.6142578125 9.4156494140625 48.9605712890625
-21.75830078125 -0.8787841796875 9.1455078125
24.046142578125 11.6126708984375 -34.8997802734375
0.89111328125 38.4691162109375 -47.22314453125
18.43603515625 12.3209228515625 40.0487060546875
16.783447265625 11.6619873046875 -34.52734375
17.38232421875 19.335693359375 -11.3963623046875
15.644775390625 27.533935546875 -14.2476806640625
23.17822265625 12.4134521484375 39.8248291015625
18.111572265625 17.513671875 -52.1910400390625
22.10986328125 8.396240234375 50.2723388671875
19.513916015625 12.5240478515625 -37.5137939453125
13.097412109375 30.903564453125 -16.65087890625
10.5009765625 39.893310546875 -52.8751220703125
13.919189453125 28.5994873046875 -13.803955078125
6.857666015625 -2.777587890625 13.3580322265625
29.578125 -3.3875732421875 41.934814453125
11.750732421875 29.7259521484375 -12.538330078125
25.560302734375 10.86962890625 -33.33544921875
-5.3125 0.7796630859375 3.0577392578125
17.109375 24.712890625 -9.799560546875
9.1748046875 9.421142578125 51.6756591796875
13.415283203125 20.2613525390625 -60.9036865234375
19.36572265625 8.6837158203125 31.95703125
22.0517578125 10.419189453125 -31.93994140625
10.80126953125 12.59716796875 -37.4375
11.25244140625 27.4984130859375 -2.4095458984375
24.2998046875 -4.194091796875 49.1221923828125
15.555908203125 29.419189453125 -15.8924560546875
15.86376953125 23.4937744140625 1.5450439453125
-19.185302734375 -1.376220703125 15.1298828125
4.69091796875 36.8380126953125 -48.2099609375
16.1435546875 12.18115234375 -36.1143798828125
-7.7705078125 -1.213623046875 7.6185302734375
0.34228515625 -0.4832763671875 16.068359375
6.07080078125 36.5499267578125 -45.0213623046875
8.5859375 42.860107421875 -55.7918701171875
3.947021484375 36.449951171875 -45.69677734375
13.341796875 24.9254150390625 -1.2406005859375
16.971923828125 8.5562744140625 -26.0546875
-21.290771484375 -2.959716796875 17.307373046875
16.9521484375 19.3961181640625 -56.6728515625
9.32666015625 36.7294921875 -42.777099609375
12.4111328125 29.9837646484375 -14.993896484375
22.914794921875 13.447509765625 35.874267578125
21.446533203125 -2.6177978515625 45.96728515625
15.200439453125 11.424072265625 43.437744140625
8.65185546875 36.5909423828125 -45.1866455078125
-1.755126953125 0.7581787109375 9.5615234375
23.554931640625 11.18212890625 32.584228515625
0.90625 2.3795166015625 3.802490234375
15.31298828125 10.25634765625 45.7379150390625
25.3173828125 11.236328125 -34.548095703125
10.52587890625 16.9962158203125 -49.211181640625
-0.7216796875 0.07177734375 14.5399169921875
13.9248046875 23.600341796875 3.175048828125
9.30322265625 22.5592041015625 -51.4329833984375
22.8125 11.38525390625 -34.4251708984375
21.1923828125 12.0028076171875 -36.37744140625
8.086669921875 19.8997802734375 -56.8248291015625
18.57373046875 11.3310546875 -35.009521484375
9.286865234375 28.9908447265625 -5.6036376953125
10.112548828125 17.8316650390625 -52.0361328125
11.5126953125 16.984130859375 -50.4833984375
25.58203125 4.6556396484375 44.2376708984375
17.982177734375 24.4410400390625 -7.3837890625
-20.44140625 -3.129150390625 19.1751708984375
9.5595703125 37.588134765625 -39.1373291015625
5.504638671875 -0.588623046875 6.0576171875
2.165283203125 36.8153076171875 -47.22607421875
18.481689453125 18.666259765625 -54.71630859375
12.82080078125 12.5325927734375 -36.348876953125
27.97900390625 -3.4715576171875 44.6241455078125
1.248046875 -0.1656494140625 23.002197265625
22.8017578125 9.255615234375 48.7762451171875
-11.110595703125 1.991943359375 4.25634765625
-4.79638671875 -1.2490234375 11.4281005859375
15.67529296875 14.956298828125 26.5823974609375
25.377685546875 6.200927734375 46.3095703125
10.0791015625 28.746826171875 -7.2337646484375
9.15869140625 29.562255859375 -8.4287109375
12.85693359375 26.3101806640625 -3.2452392578125
0.605712890625 -1.4666748046875 19.49462890625
25.166259765625 10.9462890625 43.8084716796875
16.5302734375 12.6982421875 32.8621826171875
12.3037109375 26.953125 -4.8505859375
14.916015625 19.58447265625 -61.7928466796875
15.995849609375 13.2135009765625 36.0458984375
7.444091796875 10.7454833984375 -29.2681884765625
18.67236328125 16.1878662109375 -48.112548828125
14.35498046875 24.2283935546875 -0.04736328125
25.948974609375 10.023193359375 -30.904052734375
15.99951171875 25.8082275390625 -6.1304931640625
2.447509765625 -0.2474365234375 13.0118408203125
9.567138671875 11.607421875 -33.7567138671875
-2.610595703125 -2.4815673828125 22.4716796875
8.500244140625 15.6102294921875 -44.2073974609375
8.55859375 21.181884765625 -58.551025390625
22.644287109375 -4.3212890625 49.8157958984375
7.528564453125 14.1337890625 -34.5323486328125
13.689208984375 9.6705322265625 -29.922119140625
11.799072265625 8.960205078125 50.2080078125
12.324462890625 15.83837890625 27.740478515625
10.263916015625 11.6689453125 41.290283203125
11.240478515625 19.350341796875 -56.230712890625
23.585205078125 8.2882080078125 26.077392578125
28.404541015625 -4.86083984375 48.093017578125
19.593505859375 10.39794921875 24.0938720703125
13.098388671875 15.6748046875 -46.9100341796875
8.34765625 14.5521240234375 32.3309326171875
-12.458740234375 0.594482421875 14.09765625
3.02490234375 1.193603515625 8.4132080078125
10.9345703125 14.6309814453125 32.009521484375
9.168701171875 15.0103759765625 30.007080078125
13.608154296875 20.4339599609375 -58.501708984375
13.519775390625 11.92041015625 41.427978515625
17.738525390625 13.4853515625 34.9215087890625
12.974365234375 36.8028564453125 -43.4122314453125
26.987060546875 7.5355224609375 43.6751708984375
16.21630859375 10.8609619140625 -30.0733642578125
18.30615234375 13.6717529296875 -41.1134033203125
9.520263671875 10.647216796875 45.1224365234375
16.0771484375 14.0008544921875 33.7060546875
13.59130859375 10.6693115234375 44.9027099609375
7.630126953125 15.746826171875 -42.5634765625
5.1796875 41.705078125 -54.64697265625
14.540771484375 9.8990478515625 47.257080078125
22.6396484375 -4.8109130859375 45.0975341796875
8.114990234375 40.838623046875 -53.9912109375
27.851806640625 -4.2496337890625 46.1429443359375
-9.110107421875 -1.99462890625 18.59765625
9.6474609375 16.33447265625 26.5162353515625
-14.52734375 1.161376953125 8.8065185546875
-7.843505859375 -1.369873046875 9.896728515625
12.59765625 14.128173828125 33.6131591796875
-21.43017578125 -2.45361328125 14.7113037109375
3.215087890625 4.6793212890625 23.986572265625
12.716796875 15.1507568359375 -44.8538818359375
16.106689453125 8.606201171875 50.785888671875
20.280517578125 3.7093505859375 53.0079345703125
25.168701171875 2.3712158203125 43.2899169921875
16.677001953125 26.9044189453125 -15.0836181640625
16.781494140625 10.6075439453125 29.2052001953125
18.116943359375 9.8477783203125 24.8414306640625
26.761962890625 -1.1612548828125 40.3795166015625
12.61376953125 8.22900390625 -24.6761474609375
8.24755859375 20.6871337890625 -54.8743896484375
23.9697265625 3.329345703125 46.460205078125
20.36083984375 -4.59375 50.85400390625
10.81982421875 27.6329345703125 -3.613525390625
19.223876953125 8.631591796875 51.335205078125
6.754638671875 15.146240234375 29.954345703125
13.91015625 11.0887451171875 43.7598876953125
10.33349609375 9.0159912109375 50.531982421875
-4.359375 -1.365478515625 13.33447265625
14.92822265625 16.600341796875 25.039306640625
-15.3876953125 2.5218505859375 8.453857421875
8.751708984375 14.2841796875 37.4493408203125
18.367431640625 8.1739501953125 53.232421875
-17.633544921875 5.3096923828125 24.0177001953125
-14.831298828125 0.0458984375 12.5601806640625
19.517333984375 7.689453125 53.6513671875
14.9296875 9.0703125 49.5806884765625
5.458740234375 36.3760986328125 -43.751220703125
9.26318359375 10.9954833984375 43.565673828125
-8.05859375 -3.8314208984375 23.08984375
19.42333984375 -6.2054443359375 47.9771728515625
18.615478515625 20.277099609375 -13.8572998046875
-16.429931640625 -0.9002685546875 16.2911376953125
-9.192626953125 1.3863525390625 3.4747314453125
10.310302734375 36.79736328125 -46.942626953125
-6.226806640625 -1.73291015625 8.3682861328125
18.28125 15.6591796875 -46.0401611328125
-1.97119140625 0.4052734375 12.6231689453125
22.95166015625 0.9232177734375 46.654296875
9.52197265625 13.413330078125 35.4599609375
-14.957275390625 -2.2000732421875 21.15283203125
10.93212890625 29.3121337890625 -11.7042236328125
13.573974609375 10.8411865234375 -32.3411865234375
17.378173828125 14.5853271484375 24.2103271484375
8.775390625 18.083740234375 -52.3544921875
-16.933837890625 -0.238525390625 13.296875
-8.22412109375 -0.4576416015625 3.82666015625
25.25927734375 11.7366943359375 41.4608154296875
4.2041015625 -2.512451171875 19.1219482421875
6.0244140625 -3.9200439453125 18.7147216796875
18.28857421875 13.77880859375 25.3922119140625
6.6240234375 40.1953125 -53.0242919921875
-7.869384765625 -2.6810302734375 12.146484375
20.90478515625 12.176025390625 40.129150390625
22.903564453125 12.759521484375 37.8369140625
32.812744140625 -4.0782470703125 48.7440185546875
18.455322265625 13.1922607421875 -39.8948974609375
8.6318359375 12.3887939453125 -35.7208251953125
13.318115234375 18.75146484375 -56.758056640625
3.834228515625 -0.283203125 9.5439453125
-9.427978515625 -0.3424072265625 10.6754150390625
8.510986328125 9.488525390625 -26.514892578125
23.122314453125 12.5008544921875 33.833984375
14.73193359375 12.891845703125 37.177490234375
6.41650390625 -1.9498291015625 7.5799560546875
19.00830078125 20.813232421875 -15.8968505859375
26.478759765625 8.7457275390625 45.323486328125
3.46337890625 36.41650390625 -43.6295166015625
3.484619140625 -1.4185791015625 13.373779296875
1.031982421875 38.6190185546875 -46.0189208984375
2.47998046875 -0.9390869140625 17.6124267578125
10.64501953125 8.9383544921875 -24.6129150390625
7.15380859375 45.059814453125 -56.639892578125
2.28173828125 -0.512451171875 15.3143310546875
9.42724609375 18.956298828125 -54.459716796875
19.223388671875 -5.888671875 49.9298095703125
20.2333984375 14.2813720703125 24.2484130859375
1.848876953125 -1.156005859375 19.520263671875
21.759033203125 1.8775634765625 49.8082275390625
-8.464111328125 0.3629150390625 7.2662353515625
5.35888671875 36.8372802734375 -41.318359375
9.556396484375 12.7545166015625 38.18115234375
-13.303466796875 -1.17236328125 16.6884765625
11.60498046875 15.03271484375 -44.377197265625
1.48583984375 1.7972412109375 6.4951171875
-8.6171875 -0.3758544921875 4.9718017578125
-14.297119140625 0.1646728515625 11.0545654296875
11.409912109375 27.8494873046875 -7.6630859375
18.240478515625 7.40234375 29.4962158203125
-14.116455078125 -1.678466796875 19.3017578125
16.325439453125 25.7392578125 -12.220458984375
24.69580078125 0.613525390625 43.1646728515625
-9.1181640625 -3.2918701171875 21.2025146484375
9.34423828125 13.0091552734375 42.11962890625
12.16015625 12.8367919921875 38.2742919921875
14.4443359375 29.938232421875 -14.644287109375
13.1962890625 9.4749755859375 48.34765625
15.98095703125 10.6077880859375 -31.2535400390625
16.644775390625 14.2462158203125 26.9716796875
22.59716796875 -1.849365234375 44.49951171875
-15.019775390625 -1.7049560546875 22.2965087890625
-19.966552734375 1.54638671875 6.5604248046875
-22.060791015625 -5.3077392578125 21.6807861328125
5.266357421875 -2.90576171875 14.1170654296875
13.825439453125 8.2906494140625 51.829345703125
-6.364990234375 -3.92333984375 15.5369873046875
14.27880859375 12.4635009765625 -37.6246337890625
-22.938232421875 -2.53662109375 12.83740234375
-0.5068359375 1.0206298828125 11.874755859375
17.247802734375 12.7860107421875 38.8416748046875
16.47900390625 21.4879150390625 -14.214111328125
22.0732421875 10.134033203125 28.909912109375
14.8203125 14.4852294921875 28.5325927734375
-7.617431640625 -3.0140380859375 13.656494140625
-8.25927734375 -2.0638427734375 15.951904296875
-19.752197265625 5.895751953125 15.32080078125
-19.169921875 5.80859375 22.8763427734375
-19.503662109375 6.03662109375 21.3692626953125
-19.658935546875 5.9486083984375 17.5889892578125
7.171630859375 14.430419921875 -38.499267578125
24.268310546875 4.8857421875 46.96923828125
9.822509765625 43.1490478515625 -56.3154296875
13.508056640625 27.00439453125 1.196044921875
19.748779296875 10.3677978515625 32.44287109375
10.600341796875 41.4180908203125 -54.618896484375
-17.13671875 0.1788330078125 11.048095703125
11.1611328125 12.901611328125 36.6671142578125
-0.932861328125 1.9959716796875 23.8125
1.660888671875 39.6767578125 -53.045166015625
-7.7392578125 -0.0093994140625 9.54345703125
18.223388671875 7.9468994140625 31.4969482421875
27.22607421875 1.18896484375 40.135009765625
16.514404296875 16.7552490234375 -49.2076416015625
22.06884765625 18.5640869140625 -54.5703125
8.502685546875 39.28125 -52.2869873046875
23.4638671875 10.099853515625 46.4754638671875
-11.26416015625 -1.6990966796875 19.3370361328125
-19.022216796875 5.474853515625 19.8470458984375
-6.482177734375 -2.754150390625 11.7701416015625
24.629638671875 12.9464111328125 37.904052734375
-12.356201171875 1.002685546875 4.6304931640625
8.44384765625 11.4205322265625 -31.7109375
22.089111328125 7.0087890625 31.157958984375
8.8525390625 12.574951171875 -32.56103515625
-6.564453125 -0.8536376953125 5.3359375
14.529052734375 16.0670166015625 26.6036376953125
-16.4404296875 -0.258056640625 14.8043212890625
17.71337890625 10.4371337890625 31.201904296875
27.552490234375 -2.078125 41.14501953125
-23.33154296875 -1.762451171875 10.6190185546875
14.501953125 20.2401123046875 -57.7503662109375
22.01708984375 10.2484130859375 46.02490234375
-20.40869140625 7.4970703125 16.1151123046875
17.739501953125 25.3270263671875 -3.7274169921875
20.8193359375 12.7476806640625 38.165771484375
0.290771484375 2.166748046875 6.1190185546875
21.46630859375 11.55322265625 42.1048583984375
-22.733642578125 -4.9263916015625 20.2008056640625
10.19873046875 12.4508056640625 -36.20458984375
19.69580078125 9.9248046875 47.09326171875
0.657958984375 1.2918701171875 9.95849609375
15.9423828125 26.417236328125 -7.3460693359375
13.0517578125 14.751220703125 31.2789306640625
22.93701171875 14.255615234375 -43.0318603515625
8.833740234375 8.32080078125 53.9197998046875
13.135009765625 23.2774658203125 2.3729248046875
14.07861328125 25.2843017578125 -4.0751953125
21.995849609375 -4.3106689453125 43.149169921875
14.30224609375 27.333740234375 2.000732421875
22.504150390625 10.87841796875 44.095703125
12.2109375 27.5423583984375 -6.8697509765625
11.348876953125 31.3062744140625 -17.0091552734375
2.78076171875 36.7862548828125 -41.5706787109375
13.091552734375 26.062255859375 -6.8856201171875
24.861083984375 12.671630859375 -38.6224365234375
20.899169921875 17.7293701171875 -52.4029541015625
10.4482421875 37.0133056640625 -48.1939697265625
20.17724609375 7.2152099609375 30.7222900390625
10.134765625 30.9796142578125 -14.1280517578125
14.80322265625 16.5594482421875 -49.0804443359375
0.300048828125 0.146240234375 13.3955078125
17.608154296875 14.7882080078125 -43.9395751953125
-8.00634765625 5.2869873046875 27.2501220703125
12.187255859375 38.3056640625 -38.4898681640625
10.583251953125 18.474609375 -54.1162109375
-4.47314453125 -3.5445556640625 21.2633056640625
13.2568359375 28.3433837890625 -11.3499755859375
10.791015625 39.117431640625 -36.7987060546875
12.918212890625 18.211669921875 -55.0814208984375
11.4677734375 11.901611328125 41.349365234375
11.842529296875 11.062744140625 43.28125
9.412353515625 41.8956298828125 -54.9716796875
16.221923828125 12.103515625 41.144775390625
11.542724609375 9.9803466796875 46.73583984375
26.589599609375 -2.0244140625 43.0810546875
24.871826171875 12.580810546875 39.0936279296875
21.553955078125 14.5052490234375 -43.7679443359375
13.271728515625 27.6429443359375 -8.9151611328125
0.43896484375 -1.023681640625 17.9725341796875
-0.940673828125 2.4556884765625 6.898681640625
24.852783203125 8.6246337890625 47.63525390625
6.20654296875 -4.2421875 16.3983154296875
21.1376953125 9.250732421875 -28.650634765625
12.56640625 16.318603515625 -48.1114501953125
-0.977783203125 -1.6058349609375 19.8526611328125
19.231689453125 14.865234375 -44.0443115234375
14.47314453125 14.7489013671875 -43.742431640625
4.37890625 40.615478515625 -53.7052001953125
17.090576171875 28.7542724609375 -16.3380126953125
4.3310546875 -2.3280029296875 17.9749755859375
5.225341796875 -3.0970458984375 19.5006103515625
11.5869140625 37.167724609375 -48.688720703125
19.621826171875 9.980224609375 -30.606689453125
-0.822265625 0.3240966796875 22.9852294921875
14.193115234375 33.69580078125 -19.5814208984375
31.13671875 -3.38427734375 40.413818359375
16.023681640625 19.002197265625 -60.6298828125
9.031005859375 38.607177734375 -51.4658203125
21.194580078125 13.259765625 35.811767578125
16.63818359375 23.8697509765625 -0.4798583984375
23.73974609375 -2.284912109375 42.5587158203125
-8.084716796875 4.04248046875 24.1436767578125
-19.468017578125 6.7767333984375 19.1278076171875
22.5732421875 2.2408447265625 49.0850830078125
18.531494140625 23.857421875 -8.2052001953125
24.3369140625 10.56494140625 44.5496826171875
17.346923828125 13.0859375 -39.0230712890625
-8.481689453125 0.4835205078125 23.621826171875
-6.05517578125 -0.1617431640625 3.4344482421875
12.56982421875 28.7169189453125 -9.3087158203125
18.39453125 23.2685546875 -16.3123779296875
-7.94775390625 -0.7042236328125 24.7252197265625
-17.064208984375 10.2158203125 10.8831787109375
-22.0263671875 -1.9093017578125 11.3646240234375
19.21142578125 13.3602294921875 36.1539306640625
13.505859375 13.4677734375 -40.02099609375
-20.985107421875 -0.503173828125 9.9013671875
4.1083984375 38.8602294921875 -51.9508056640625
-11.146240234375 1.9130859375 5.396728515625
19.6767578125 20.80859375 -9.03173828125
-8.074462890625 -2.6632080078125 23.8897705078125
20.980712890625 10.92236328125 44.0364990234375
9.7060546875 28.98095703125 -9.246826171875
0.80078125 35.520751953125 -42.2093505859375
10.435791015625 28.5032958984375 -5.6243896484375
13.22998046875 26.0760498046875 -1.232177734375
18.7900390625 23.876708984375 2.7369384765625
14.411865234375 7.9139404296875 -24.3443603515625
12.52099609375 32.8411865234375 -18.2882080078125
-12.211181640625 1.6795654296875 8.815185546875
6.667236328125 36.7147216796875 -46.7012939453125
8.76904296875 29.7869873046875 -10.845458984375
-19.733642578125 -3.4947509765625 21.409423828125
1.093017578125 37.4100341796875 -47.5908203125
11.526611328125 9.299072265625 48.2589111328125
-20.782470703125 -1.564453125 13.24462890625
17.25341796875 18.425537109375 -54.20556640625
11.68994140625 27.496826171875 -5.6474609375
-22.560546875 -0.6248779296875 6.53466796875
-9.706298828125 -0.8465576171875 15.9735107421875
11.924072265625 22.276123046875 -61.7237548828125
3.75634765625 1.5838623046875 4.548583984375
21.34423828125 8.7518310546875 24.8587646484375
-8.27392578125 -3.422119140625 20.4542236328125
-16.93359375 3.7373046875 24.3482666015625
19.279296875 12.210693359375 -36.2828369140625
-18.3544921875 5.0186767578125 22.8612060546875
-8.022705078125 -2.4058837890625 17.08154296875
18.935791015625 6.9801025390625 30.2850341796875
18.030517578125 10.60498046875 -32.1522216796875
12.981201171875 16.8636474609375 -49.37353515625
-13.703857421875 1.0264892578125 7.66796875
13.65478515625 12.1170654296875 40.26025390625
12.519287109375 7.8896484375 53.6922607421875
23.763671875 7.83251953125 28.0540771484375
-12.73486328125 -3.032958984375 21.909912109375
1.590576171875 1.1995849609375 10.7288818359375
-22.171142578125 -2.8665771484375 16.556640625
0.05224609375 2.5157470703125 4.967529296875
8.40869140625 13.967529296875 33.486083984375
10.05859375 37.903076171875 -50.26708984375
8.087158203125 16.44091796875 -47.01611328125
7.453369140625 38.1639404296875 -38.632080078125
20.564453125 8.3697509765625 51.778564453125
9.892333984375 14.7659912109375 -42.658935546875
26.5166015625 3.981201171875 41.457763671875
13.556396484375 15.40380859375 30.1309814453125
11.211669921875 11.091796875 -32.6304931640625
15.85107421875 12.57177734375 30.0616455078125
8.28271484375 17.3658447265625 -48.6756591796875
13.2705078125 24.7562255859375 1.5811767578125
30.495361328125 -4.1248779296875 41.1373291015625
11.4775390625 15.3671875 29.682861328125
-3.4150390625 -0.084716796875 9.544189453125
8.774658203125 15.84521484375 27.6644287109375
13.2685546875 9.7508544921875 -28.7119140625
22.437255859375 5.6954345703125 50.89306640625
9.786376953125 13.95947265625 -41.0213623046875
-8.302978515625 0.6864013671875 3.0789794921875
1.29296875 4.1123046875 25.0894775390625
15.414306640625 13.2725830078125 -39.722900390625
8.5380859375 12.955810546875 -37.7235107421875
20.19873046875 14.0806884765625 -41.64599609375
2.71728515625 -1.286376953125 18.7581787109375
1.318359375 -0.4365234375 13.7711181640625
24.417236328125 -3.9107666015625 42.8798828125
15.964111328125 17.393310546875 -50.818359375
-9.29736328125 0.4991455078125 8.41162109375
0.6162109375 -2.1112060546875 21.3890380859375
22.489990234375 13.7000732421875 -42.1708984375
9.256103515625 10.2581787109375 47.4354248046875
9.54052734375 9.5601806640625 -28.5391845703125
14.79296875 14.408935546875 30.1170654296875
4.63134765625 36.5970458984375 -42.8948974609375
4.56591796875 37.73388671875 -39.27001953125
-1.160888671875 -1.1727294921875 17.9508056640625
16.900390625 23.508544921875 1.13134765625
-16.5546875 0.977294921875 9.558349609375
24.0419921875 8.87158203125 48.807861328125
16.4248046875 8.383056640625 26.7308349609375
25.027587890625 2.7852783203125 44.495361328125
-8.488037109375 4.71728515625 25.6890869140625
16.823486328125 9.029541015625 -27.2562255859375
25.240966796875 -4.9075927734375 49.1182861328125
