6.535400390625 3.511474609375 29.591064453125
11.458251953125 19.176513671875 7.17919921875
-10.630126953125 32.613037109375 -45.203857421875
-20.001708984375 -5.843505859375 18.63330078125
2.471923828125 13.9639892578125 27.1597900390625
-34.474853515625 -3.9693603515625 9.1224365234375
14.75341796875 6.0882568359375 -26.8157958984375
10.355712890625 23.7869873046875 -10.310302734375
22.904296875 -1.2242431640625 37.972412109375
16.29443359375 18.8157958984375 27.5509033203125
12.806640625 -3.323974609375 46.179931640625
-33.4111328125 -7.393798828125 19.060302734375
-4.537841796875 4.2269287109375 -20.849609375
-18.32568359375 -8.539794921875 27.6080322265625
0.894775390625 17.2442626953125 15.6796875
21.886962890625 18.7957763671875 42.872314453125
5.535400390625 21.7412109375 0.0703125
16.4384765625 10.314697265625 43.47216796875
8.259033203125 7.8909912109375 39.612548828125
12.484130859375 13.0477294921875 -40.8612060546875
19.4052734375 23.93212890625 -9.5665283203125
17.61865234375 -9.907958984375 49.5704345703125
10.92919921875 11.9417724609375 27.42529296875
0.61962890625 6.671630859375 47.070068359375
-36.45556640625 -10.9588623046875 26.355224609375
2.482666015625 7.391845703125 -28.7491455078125
-3.026611328125 10.6307373046875 -36.7152099609375
2.197265625 13.5802001953125 -43.59912109375
4.953369140625 3.401123046875 55.16015625
-26.988037109375 -5.5037841796875 14.5897216796875
2.5478515625 17.263671875 -10.55126953125
12.7021484375 21.3065185546875 -3.0316162109375
-12.496337890625 -4.9246826171875 16.99755859375
-3.033447265625 33.0777587890625 -44.2105712890625
-1.87060546875 22.3370361328125 -1.7584228515625
23.754150390625 13.103271484375 -30.5079345703125
12.475830078125 8.4959716796875 -33.880859375
3.52783203125 2.842041015625 36.72216796875
22.5712890625 14.4578857421875 -41.265380859375
1.827392578125 18.595703125 -50.568115234375
-6.245361328125 15.4664306640625 -51.119140625
1.859130859375 8.266357421875 32.27734375
-16.384033203125 -2.1536865234375 10.4053955078125
5.126220703125 17.425048828125 9.7991943359375
15.509033203125 13.9364013671875 -47.437255859375
-1.62255859375 1.2542724609375 -26.3802490234375
-25.951416015625 -7.50244140625 21.4925537109375
18.785888671875 -2.85009765625 42.911865234375
29.13037109375 -2.8958740234375 39.4752197265625
-37.4248046875 -7.6165771484375 13.883056640625
21.365234375 7.7327880859375 -27.7584228515625
-3.9892578125 16.75 11.5111083984375
-37.0400390625 -2.3748779296875 17.5008544921875
12.65185546875 17.356201171875 13.162841796875
2.55615234375 18.082763671875 -4.148193359375
3.8193359375 15.116943359375 20.813720703125
8.38720703125 5.10986328125 -26.6051025390625
-7.173583984375 35.750732421875 -49.3343505859375
15.680908203125 21.19287109375 3.053466796875
12.112548828125 -7.2259521484375 51.16748046875
5.050048828125 25.8017578125 -12.0908203125
-1.586181640625 13.526611328125 -48.141845703125
-14.563232421875 -5.702880859375 22.6876220703125
7.599853515625 20.2755126953125 -6.369384765625
24.545166015625 -4.650634765625 42.523193359375
-12.61572265625 -7.7508544921875 27.979736328125
-21.982421875 -6.3162841796875 11.8248291015625
24.16064453125 13.9375 -17.987060546875
7.59033203125 -4.0640869140625 52.5845947265625
7.748046875 7.0433349609375 33.8741455078125
26.799560546875 -0.4095458984375 33.650390625
15.021484375 25.985595703125 -12.6253662109375
18.26220703125 14.42431640625 30.65283203125
7.657958984375 8.72998046875 -31.14892578125
-28.604248046875 -4.10693359375 8.769775390625
17.8232421875 11.5421142578125 -41.200439453125
10.34716796875 3.3922119140625 53.932861328125
7.5869140625 12.3988037109375 -43.8790283203125
16.9853515625 9.2513427734375 -30.826904296875
5.462890625 7.9376220703125 44.337158203125
6.383056640625 15.7998046875 14.9093017578125
11.976318359375 7.0501708984375 43.845458984375
14.572509765625 24.75830078125 -7.0672607421875
6.339111328125 20.0716552734375 5.146728515625
0.67236328125 2.75341796875 -19.031982421875
23.3701171875 14.5528564453125 -35.961181640625
2.8681640625 16.82666015625 -55.5040283203125
19.43701171875 14.9815673828125 45.652099609375
-6.294189453125 33.0203857421875 -40.0135498046875
6.4013671875 12.0537109375 30.1864013671875
12.61376953125 10.8975830078125 39.5860595703125
18.867919921875 12.2506103515625 38.794189453125
12.6640625 14.8480224609375 23.3916015625
-1.581298828125 8.081787109375 -32.3529052734375
4.5322265625 4.7694091796875 50.083740234375
-37.64599609375 -9.419677734375 21.5157470703125
8.188232421875 1.7825927734375 34.643310546875
-29.55615234375 -4.0628662109375 22.9722900390625
10.61474609375 20.6827392578125 2.0528564453125
1.3232421875 10.363525390625 -39.4764404296875
-22.768798828125 -7.0604248046875 29.7667236328125
0.581787109375 27.564453125 -13.859375
-3.51171875 4.4591064453125 49.1068115234375
18.626220703125 6.076171875 -23.4947509765625
6.846435546875 13.2705078125 24.6761474609375
30.121337890625 1.5826416015625 30.4921875
1.156494140625 20.4906005859375 2.10400390625
17.46826171875 -5.772705078125 46.8201904296875
7.508056640625 15.770263671875 -10.4803466796875
-4.03759765625 5.778564453125 -25.6629638671875
-31.23583984375 -3.8280029296875 12.9083251953125
9.931396484375 10.1737060546875 -37.640380859375
-18.166015625 -3.8502197265625 14.5714111328125
-33.009033203125 -8.7005615234375 23.908447265625
3.5732421875 6.9566650390625 39.3016357421875
3.4501953125 14.6572265625 -48.0748291015625
15.039306640625 11.363037109375 -37.0859375
-19.163818359375 -7.191650390625 23.1207275390625
12.395263671875 12.841796875 31.91162109375
0.4375 18.52490234375 11.0052490234375
6.45068359375 17.610595703125 -52.1636962890625
0.97265625 5.116943359375 52.99072265625
19.55126953125 14.45166015625 -44.9361572265625
-2.119873046875 12.00537109375 -41.997314453125
-8.68115234375 -6.7969970703125 18.5977783203125
2.848388671875 8.391357421875 -33.2755126953125
16.28466796875 13.6607666015625 48.6160888671875
18.1845703125 23.146728515625 -4.87548828125
9.751953125 -9.8160400390625 47.8367919921875
2.556396484375 3.821533203125 32.418701171875
-36.38037109375 -0.243896484375 10.78125
0.560791015625 20.56201171875 -7.3218994140625
-6.163818359375 8.5281982421875 -34.308349609375
7.248046875 17.40966796875 -2.5748291015625
11.5556640625 14.1727294921875 -45.056884765625
-8.988525390625 -4.9560546875 14.2740478515625
21.49267578125 9.49951171875 -32.203857421875
12.47802734375 15.5611572265625 -50.3892822265625
-29.30517578125 -5.7982177734375 18.6083984375
-1.2978515625 10.249267578125 34.7890625
3.66552734375 22.041259765625 -10.31884765625
11.262451171875 7.645751953125 -28.93408203125
-2.691162109375 34.0137939453125 -48.44921875
0.96044921875 7.6036376953125 42.849609375
5.3759765625 7.8267822265625 29.79833984375
-12.936767578125 -3.6917724609375 12.497314453125
14.810546875 14.7789306640625 27.2186279296875
5.254638671875 12.189453125 -40.189208984375
-10.140625 31.43115234375 -40.9715576171875
-2.71875 17.52734375 -52.2996826171875
-23.56884765625 -7.0291748046875 16.6644287109375
-5.556884765625 12.4349365234375 -39.57470703125
22.196533203125 16.9622802734375 48.3985595703125
17.98876953125 16.4940185546875 -49.9080810546875
-37.89013671875 -6.492431640625 9.857666015625
8.8291015625 18.1124267578125 11.6529541015625
10.637451171875 -2.8172607421875 49.7109375
18.90966796875 25.12939453125 -13.85400390625
3.802490234375 6.086669921875 -25.0228271484375
-1.354736328125 5.7744140625 -28.9066162109375
-24.68603515625 -8.87548828125 25.5625
-37.294921875 -5.4154052734375 20.525390625
12.747802734375 5.36328125 49.7974853515625
21.21484375 -5.2108154296875 45.14892578125
25.654541015625 -4.1942138671875 37.826171875
23.563232421875 11.0244140625 -26.9710693359375
-6.682861328125 34.4881591796875 -45.5357666015625
14.47802734375 -8.6192626953125 47.393798828125
-2.396484375 23.4305419921875 -5.5850830078125
-33.482177734375 -6.3843994140625 15.0240478515625
1.560791015625 12.4329833984375 30.7203369140625
-4.032958984375 5.543212890625 45.312744140625
16.494384765625 22.2486572265625 -0.7012939453125
-20.04638671875 -3.538818359375 9.2750244140625
1.88134765625 21.2073974609375 -1.704833984375
2.8642578125 18.8333740234375 6.79638671875
9.017822265625 21.109619140625 -1.58251953125
1.442138671875 6.9486083984375 35.9144287109375
-1.360107421875 2.8446044921875 -22.6121826171875
22.811279296875 16.7733154296875 -44.350341796875
7.5712890625 13.9873046875 20.8673095703125
-3.08544921875 -2.9771728515625 -24.7769775390625
15.16748046875 12.951904296875 -43.7308349609375
-32.509033203125 -9.7403564453125 27.5472412109375
-28.65185546875 -7.8597412109375 24.154296875
-36.927001953125 -8.652099609375 17.507080078125
-24.240478515625 -2.8739013671875 11.65625
4.654541015625 15.4962158203125 -5.89306640625
20.54931640625 -5.6988525390625 49.4334716796875
-40.35400390625 -2.5128173828125 15.8465576171875
29.2587890625 -2.6903076171875 35.4908447265625
9.616943359375 17.412841796875 -7.7314453125
11.36865234375 6.7021484375 -25.20947265625
16.382080078125 9.7630615234375 39.639892578125
-5.297119140625 14.3740234375 -47.81005859375
5.118896484375 18.9739990234375 -8.6407470703125
-11.5888671875 -6.09814453125 20.6873779296875
0.181396484375 9.6986083984375 -35.373291015625
21.011474609375 12.1356201171875 -38.720703125
3.343994140625 15.600830078125 -51.7994384765625
5.635009765625 5.26513671875 46.7191162109375
7.6455078125 4.8958740234375 51.832275390625
22.005859375 7.135986328125 -23.906494140625
11.445068359375 -6.7086181640625 47.666015625
7.84912109375 19.241455078125 8.233154296875
12.79541015625 16.4781494140625 16.574462890625
-15.695556640625 -6.3623046875 26.7568359375
18.7236328125 13.132568359375 35.3677978515625
3.6015625 17.0528564453125 13.1722412109375
3.67626953125 15.9913330078125 17.4168701171875
1.912109375 14.9638671875 23.7569580078125
-9.438720703125 -9.0516357421875 26.6146240234375
1.44970703125 16.7701416015625 -7.2010498046875
8.8515625 9.6884765625 -34.3463134765625
9.385498046875 11.1483154296875 -40.95751953125
21.712646484375 -3.7257080078125 40.7032470703125
16.3564453125 9.91259765625 -34.22119140625
14.7998046875 11.2362060546875 46.333251953125
5.687255859375 6.326171875 -28.29150390625
18.09033203125 6.9464111328125 -28.578125
-12.97802734375 -2.3912353515625 9.3538818359375
1.992919921875 4.2568359375 -22.503173828125
-35.262451171875 -5.31494140625 12.1318359375
8.709716796875 8.2415771484375 42.9500732421875
9.74169921875 11.118408203125 30.7076416015625
14.614013671875 6.940673828125 -30.1273193359375
9.224609375 3.890869140625 32.2137451171875
-5.2109375 32.399658203125 -36.510009765625
-11.91845703125 -6.999267578125 24.76806640625
15.13720703125 23.749755859375 -3.6348876953125
2.015869140625 26.4022216796875 -10.8555908203125
12.955078125 19.456298828125 4.21728515625
9.927978515625 17.4775390625 15.2098388671875
6.2802734375 5.2156982421875 38.6124267578125
-6.166015625 10.00048828125 -37.4710693359375
-14.700927734375 -4.861083984375 19.417236328125
15.20263671875 13.046630859375 29.968017578125
13.46142578125 21.059814453125 0.1268310546875
4.45751953125 19.392822265625 2.5755615234375
10.2158203125 12.3599853515625 24.2999267578125
0.226318359375 16.944580078125 -53.4986572265625
6.232421875 13.68603515625 -46.7664794921875
-3.068115234375 13.0977783203125 -45.3065185546875
-31.120361328125 -7.13671875 26.281005859375
11.41650390625 8.050048828125 40.442626953125
23.72705078125 13.740478515625 -21.1531982421875
13.17626953125 9.8934326171875 43.003662109375
12.05517578125 18.266357421875 10.1710205078125
29.28369140625 -1.2587890625 31.855224609375
-0.96728515625 16.574951171875 13.087158203125
-3.307373046875 32.3289794921875 -40.8197021484375
0.453369140625 22.36474609375 -4.6956787109375
6.977294921875 14.8935546875 17.8883056640625
-30.2705078125 -4.8131103515625 15.75830078125
-22.51708984375 -5.361572265625 8.5758056640625
6.62548828125 4.465087890625 35.2674560546875
22.650146484375 12.0018310546875 -34.28173828125
-2.686767578125 16.1275634765625 -49.5111083984375
-31.37255859375 -2.9931640625 9.6649169921875
27.2734375 -2.954833984375 41.97314453125
15.045654296875 -7.905029296875 50.3759765625
-8.206787109375 31.8250732421875 -43.4208984375
16.496337890625 24.9127197265625 -10.0361328125
24.987548828125 -2.8531494140625 45.8323974609375
4.609375 19.505126953125 -1.86767578125
-27.92529296875 -4.367431640625 11.7822265625
9.53662109375 20.27685546875 5.020751953125
7.6494140625 21.4710693359375 2.436767578125
-4.21044921875 37.049072265625 -49.8382568359375
3.765625 4.85546875 29.6961669921875
18.404541015625 12.653076171875 43.9207763671875
4.869384765625 8.8426513671875 41.3621826171875
12.153564453125 6.26953125 46.8184814453125
7.34521484375 4.7174072265625 -23.736328125
0.805908203125 14.707763671875 -46.51318359375
0.796142578125 5.894287109375 50.0303955078125
7.98095703125 24.91943359375 -12.0489501953125
12.90478515625 15.5059814453125 20.4117431640625
-17.61181640625 -6.3193359375 20.4730224609375
2.74267578125 9.3309326171875 -36.9844970703125
-26.392333984375 -6.21826171875 17.47802734375
2.865478515625 6.5126953125 44.989501953125
-24.176513671875 -10.0401611328125 28.313232421875
-14.772705078125 -3.839111328125 15.330810546875
14.34716796875 -5.90380859375 45.9908447265625
5.6865234375 14.6610107421875 -50.0845947265625
5.437744140625 4.757568359375 32.53076171875
0.746337890625 11.2432861328125 -42.368408203125
4.70556640625 7.3277587890625 -31.189208984375
13.43017578125 25.2957763671875 -10.1951904296875
9.164306640625 -8.3687744140625 51.3682861328125
7.97509765625 7.388916015625 45.8037109375
-0.800537109375 3.6278076171875 55.955810546875
-2.14892578125 3.602783203125 -19.072265625
16.79345703125 14.2376708984375 33.2000732421875
16.812255859375 -3.3790283203125 45.2430419921875
3.794189453125 10.546142578125 30.4093017578125
-19.87646484375 -4.287353515625 12.12548828125
-34.80224609375 -7.509033203125 21.9097900390625
14.494873046875 10.9573974609375 37.0557861328125
-2.357666015625 0.28515625 -23.6357421875
-28.7099609375 -6.512939453125 21.4979248046875
25.18212890625 -1.224609375 35.952880859375
5.390380859375 13.08544921875 27.2015380859375
-5.637451171875 33.550048828125 -42.9747314453125
-35.756591796875 -10.01171875 23.686767578125
-17.594970703125 -4.7210693359375 17.4342041015625
21.762939453125 16.82666015625 45.5238037109375
2.013427734375 4.1827392578125 55.540771484375
5.562255859375 8.7183837890625 -34.3189697265625
0.045166015625 6.5167236328125 -26.509033203125
17.588623046875 10.900634765625 -38.2958984375
15.27392578125 12.00439453125 -39.9906005859375
-1.54296875 11.1256103515625 -39.10546875
-23.592529296875 -5.5294189453125 14.04150390625
-9.149169921875 -7.348388671875 15.7933349609375
9.97607421875 13.353271484375 -42.7025146484375
18.087158203125 21.60400390625 1.543701171875
-5.4453125 5.5997314453125 -23.2216796875
20.0107421875 13.0806884765625 -42.0977783203125
15.68359375 26.5198974609375 -15.6121826171875
22.487548828125 10.13427734375 -29.402099609375
-4.314208984375 7.468994140625 -32.230712890625
-0.161376953125 12.62841796875 -44.76904296875
19.44189453125 15.2418212890625 48.5107421875
-1.06494140625 20.7437744140625 3.769775390625
10.9091796875 5.3973388671875 51.8929443359375
15.17431640625 15.8544921875 -49.7470703125
17.55078125 23.9664306640625 -7.4527587890625
8.240234375 12.0196533203125 28.0909423828125
19.808837890625 8.299560546875 -30.37109375
12.635986328125 13.4998779296875 28.931640625
1.714599609375 4.307861328125 35.1688232421875
7.6669921875 3.4765625 54.5750732421875
-1.2421875 21.5244140625 0.7967529296875
6.955810546875 17.6966552734375 -5.65673828125
18.524169921875 15.3734130859375 -47.4525146484375
8.156005859375 7.4664306640625 -28.758544921875
-26.670654296875 -5.03515625 19.943359375
-1.9052734375 17.8612060546875 9.7314453125
17.091796875 5.0804443359375 -25.5413818359375
3.0419921875 5.7353515625 47.9498291015625
12.500244140625 11.646728515625 -38.072998046875
-10.658935546875 -5.0877685546875 11.9088134765625
4.9599609375 16.3314208984375 -9.67529296875
18.785400390625 9.218017578125 -32.8782958984375
7.119873046875 11.1214599609375 -38.0941162109375
0.9912109375 8.1104736328125 -31.3052978515625
26.275146484375 -4.9967041015625 40.349365234375
18.64599609375 -7.8759765625 48.085205078125
-4.177490234375 18.4730224609375 -54.388916015625
10.310302734375 8.7427978515625 -32.257080078125
31.614501953125 -2.2384033203125 36.766357421875
11.42138671875 15.096923828125 -47.9385986328125
6.486572265625 2.29052734375 36.86474609375
-3.031005859375 9.021484375 -34.4290771484375
9.188232421875 -6.7696533203125 49.1932373046875
19.64208984375 6.3797607421875 -25.969482421875
4.775390625 13.3465576171875 -44.332763671875
13.239990234375 9.552978515625 -36.2308349609375
9.13623046875 14.93310546875 -45.949951171875
2.84619140625 12.947265625 -41.0799560546875
0.459716796875 17.5833740234375 -56.39111328125
-34.731201171875 -8.5186767578125 25.9471435546875
-17.29638671875 -8.15234375 24.7747802734375
18.239990234375 11.810791015625 41.353515625
1.240478515625 15.4727783203125 20.213623046875
11.998779296875 14.2459716796875 25.8912353515625
-20.171875 -5.094970703125 15.782958984375
6.2099609375 16.65087890625 12.4049072265625
5.74853515625 17.8612060546875 7.2618408203125
1.367919921875 19.803466796875 4.6531982421875
4.44775390625 14.3043212890625 23.368896484375
6.941162109375 5.3856201171875 49.1737060546875
-25.93701171875 -3.2501220703125 9.6702880859375
3.91259765625 4.335205078125 52.610107421875
6.291015625 15.1829833984375 -3.6077880859375
0.915771484375 20.068115234375 -52.553466796875
12.463623046875 26.65087890625 -12.23388671875
-1.027587890625 3.8121337890625 -26.25927734375
1.75048828125 8.5037841796875 38.212890625
-3.302001953125 3.77783203125 51.63427734375
24.04248046875 13.9803466796875 -32.955078125
2.658935546875 18.271728515625 9.339599609375
17.598876953125 13.2578125 46.3233642578125
3.485107421875 6.9468994140625 42.463134765625
17.73828125 12.693115234375 -43.6087646484375
14.893798828125 7.8031005859375 -32.542724609375
1.554931640625 22.718505859375 -9.00048828125
10.593994140625 15.4315185546875 21.989501953125
-5.226806640625 34.6732177734375 -48.0611572265625
20.18359375 22.23046875 -3.5628662109375
16.26318359375 15.340576171875 29.3402099609375
-4.241943359375 6.44287109375 -28.1273193359375
14.873046875 11.991455078125 32.3731689453125
14.260498046875 9.0452880859375 45.1500244140625
-11.49609375 -4.6256103515625 14.560546875
-9.31298828125 -7.3681640625 20.993896484375
3.3779296875 20.2374267578125 0.4383544921875
3.551513671875 13.1195068359375 29.2969970703125
-4.548095703125 12.7364501953125 -42.031982421875
-3.287353515625 -2.3211669921875 -27.2110595703125
31.54150390625 -1.2869873046875 30.7227783203125
-35.7431640625 -7.103515625 15.9007568359375
-3.027099609375 4.8717041015625 -23.1871337890625
0.675537109375 9.3447265625 36.0849609375
8.578369140625 14.9329833984375 -8.3614501953125
3.1875 4.1259765625 -19.8487548828125
8.390869140625 16.7213134765625 -50.8897705078125
12.68212890625 7.826171875 -31.3958740234375
20.517822265625 -1.5667724609375 40.7784423828125
-17.876220703125 -2.8529052734375 12.25634765625
23.5361328125 -4.829833984375 45.968017578125
17.03857421875 12.055419921875 37.1763916015625
-32.837158203125 -5.6693115234375 12.6966552734375
-5.43408203125 16.9136962890625 -52.986083984375
-37.073486328125 -4.729736328125 18.146728515625
-35.72412109375 -8.40966796875 19.841064453125
23.49462890625 -3.851806640625 39.052490234375
13.6220703125 -6.7344970703125 48.794677734375
8.383056640625 16.49169921875 13.462890625
22.779541015625 13.781005859375 -38.7540283203125
-3.226806640625 33.03955078125 -38.4827880859375
4.952392578125 18.4686279296875 -53.8468017578125
9.87646484375 7.556640625 -26.885498046875
-0.175048828125 23.1773681640625 -7.250732421875
6.012451171875 22.5 -10.481201171875
23.139892578125 9.604736328125 -25.0870361328125
3.770751953125 15.76806640625 -3.683349609375
3.31201171875 24.2308349609375 -11.2174072265625
8.516357421875 15.4759521484375 15.9239501953125
-2.83447265625 6.6217041015625 -30.5687255859375
3.5703125 10.766845703125 -38.8255615234375
7.304931640625 16.9874267578125 -8.4559326171875
-30.320068359375 -9.47314453125 26.5511474609375
9.950927734375 18.754150390625 9.2015380859375
21.750244140625 14.5223388671875 -43.482177734375
4.29248046875 3.9071044921875 34.4161376953125
10.983642578125 9.350341796875 -35.556884765625
13.96435546875 19.67431640625 2.1007080078125
11.274169921875 21.2147216796875 -0.9210205078125
21.53369140625 15.129638671875 -46.4365234375
-26.1474609375 -8.0386962890625 23.9208984375
27.912109375 -4.1600341796875 37.170654296875
24.6162109375 12.188720703125 -19.6331787109375
1.18408203125 19.6812744140625 -5.238037109375
-3.696044921875 33.7967529296875 -46.341796875
1.10009765625 17.805908203125 13.136474609375
9.55322265625 13.0789794921875 22.168701171875
0.64306640625 19.0865478515625 8.4620361328125
6.966064453125 20.102294921875 -1.0860595703125
-0.040283203125 7.3875732421875 44.947998046875
-3.32958984375 16.0340576171875 13.6331787109375
1.961181640625 7.8197021484375 40.751220703125
-36.440673828125 -7.322509765625 11.48583984375
20.56103515625 -4.5013427734375 43.0460205078125
20.139892578125 -5.7366943359375 47.1217041015625
-10.68603515625 -6.37841796875 17.212646484375
21.662353515625 11.4295654296875 -36.627685546875
13.361328125 14.207763671875 -46.66455078125
0.880126953125 9.9039306640625 33.5526123046875
17.048583984375 13.23779296875 -45.7252197265625
-1.739013671875 17.7388916015625 -54.3541259765625
13.773681640625 5.8768310546875 -24.761474609375
2.833251953125 6.636474609375 31.0081787109375
19.906494140625 -7.9954833984375 49.98486328125
5.892578125 5.6591796875 -25.81689453125
18.780517578125 -4.3753662109375 44.6954345703125
17.86181640625 14.57958984375 49.9931640625
17.1708984375 22.9278564453125 -2.749755859375
-10.950927734375 -6.7904052734375 22.7391357421875
22.82470703125 11.2333984375 -31.3558349609375
-19.360595703125 -7.7301025390625 25.5589599609375
-16.261474609375 -8.9620361328125 26.8238525390625
9.226318359375 5.6971435546875 50.4326171875
18.31640625 24.783935546875 -11.7222900390625
19.61865234375 23.239013671875 -6.9952392578125
-27.10693359375 -8.245849609375 25.93310546875
-29.31103515625 -4.60595703125 13.74609375
-28.37353515625 -5.7418212890625 16.5523681640625
16.36572265625 -9.786865234375 47.6788330078125
-8.660888671875 33.473876953125 -45.821533203125
13.333251953125 21.8165283203125 -5.1138916015625
10.171875 7.1778564453125 45.51708984375
1.557373046875 16.5252685546875 17.8109130859375
3.869384765625 19.05029296875 4.68896484375
4.26416015625 16.333740234375 15.303466796875
0.313232421875 7.3082275390625 -29.352294921875
-4.0498046875 15.5836181640625 -51.3946533203125
28.8291015625 1.9033203125 32.261474609375
-30.526123046875 -6.7203369140625 23.8583984375
-0.563720703125 8.476318359375 41.1376953125
5.9541015625 3.6171875 53.061767578125
-10.385498046875 32.0220947265625 -43.0877685546875
7.833740234375 -10.3648681640625 48.78857421875
3.85546875 18.9954833984375 -10.9603271484375
9.459716796875 14.256103515625 19.759765625
-17.861572265625 -3.29052734375 9.1075439453125
2.843505859375 14.232177734375 -45.6014404296875
20.80126953125 10.045654296875 -34.32568359375
7.40478515625 17.61865234375 10.049560546875
6.1298828125 24.880615234375 -10.408935546875
17.7861328125 25.8868408203125 -15.5821533203125
16.15087890625 23.9686279296875 -5.7606201171875
27.16015625 -2.161376953125 35.881103515625
14.185546875 10.111328125 40.8870849609375
10.558349609375 17.9864501953125 13.133056640625
9.043212890625 21.468994140625 0.7518310546875
7.10595703125 8.862548828125 41.60205078125
20.00439453125 15.7850341796875 -49.462158203125
0.37060546875 7.786865234375 33.793212890625
3.859619140625 13.9619140625 25.482177734375
8.828125 12.362060546875 25.9775390625
5.589599609375 14.895751953125 19.56591796875
2.48779296875 17.8038330078125 11.4588623046875
-0.20751953125 15.7584228515625 -48.1270751953125
10.364501953125 15.9237060546875 -50.03076171875
13.09326171875 13.4747314453125 -43.3450927734375
17.012939453125 10.5654296875 -36.2269287109375
-11.56787109375 -3.6036376953125 10.47412109375
2.354248046875 5.11474609375 51.3203125
-8.724365234375 -4.1099853515625 11.9102783203125
7.38671875 11.8514404296875 -41.3997802734375
12.754638671875 6.7913818359375 -27.258056640625
5.014892578125 12.76806640625 -42.260986328125
22.412353515625 10.4169921875 -22.35205078125
2.553955078125 16.025634765625 -5.5023193359375
3.204833984375 16.55078125 -8.4381103515625
-3.599853515625 11.6439208984375 -38.722900390625
0.752197265625 10.031005859375 -37.4249267578125
0.419921875 9.1224365234375 -33.3101806640625
-13.783447265625 -7.4827880859375 26.1907958984375
7.63525390625 2.7698974609375 31.282958984375
22.961669921875 -5.42919921875 43.917724609375
0.03173828125 3.448486328125 -21.09228515625
-2.386474609375 4.176513671875 -21.1268310546875
-22.96875 -3.18017578125 9.9632568359375
1.26025390625 13.831787109375 21.5833740234375
-15.12939453125 -6.0325927734375 24.72216796875
-15.00927734375 -3.267822265625 13.2847900390625
13.52880859375 14.6658935546875 -48.7393798828125
7.6982421875 4.9989013671875 33.2789306640625
-4.650390625 9.30908203125 -35.7764892578125
10.988525390625 10.7017822265625 -39.634765625
-23.827392578125 -4.9620361328125 12.0096435546875
16.106201171875 6.086181640625 -28.4512939453125
7.325927734375 10.4515380859375 -35.609130859375
9.737060546875 8.408935546875 -30.1968994140625
2.25830078125 16.3328857421875 -53.4697265625
2.924072265625 5.9189453125 37.5697021484375
-14.410400390625 -2.847900390625 10.8421630859375
4.8837890625 5.357666015625 -23.3594970703125
3.56396484375 6.662841796875 -27.0859375
-2.326171875 5.564697265625 -26.8692626953125
-14.5361328125 -4.4105224609375 17.376953125
-12.6611328125 -5.375244140625 19.037841796875
-34.873291015625 -6.4993896484375 17.8724365234375
-21.45751953125 -2.3314208984375 8.158447265625
-41.10400390625 -4.4451904296875 15.6793212890625
-22.243896484375 -7.03125 15.0626220703125
-29.910888671875 -3.8299560546875 11.3065185546875
-26.04345703125 -8.962890625 27.5689697265625
-34.872314453125 -4.97705078125 14.41064453125
16.4619140625 -7.8485107421875 46.957275390625
-35.625732421875 -5.501708984375 9.90185546875
11.490966796875 24.578125 -11.8475341796875
-2.93505859375 -4.4022216796875 -26.749755859375
5.918212890625 7.5245361328125 40.16845703125
2.430419921875 20.6925048828125 -9.3714599609375
15.3505859375 21.4578857421875 0.828125
23.053955078125 16.1871337890625 -42.2515869140625
11.286376953125 -3.8829345703125 48.0916748046875
1.686767578125 5.7164306640625 32.4281005859375
11.374755859375 12.1622314453125 29.7996826171875
1.880615234375 10.1199951171875 31.4542236328125
23.9541015625 12.3564453125 -28.4425048828125
4.30419921875 3.60302734375 31.186767578125
5.68408203125 2.433837890625 35.026611328125
3.823974609375 8.6019287109375 -35.3212890625
16.667724609375 11.3408203125 45.183349609375
6.360107421875 10.050537109375 30.0716552734375
1.476318359375 18.7818603515625 -7.196533203125
22.611083984375 9.140380859375 -26.9632568359375
16.210205078125 9.2930908203125 41.7684326171875
14.326904296875 8.8201904296875 -34.558837890625
16.56396484375 13.2052001953125 31.514892578125
25.86376953125 -3.0455322265625 44.056640625
24.375244140625 -2.4156494140625 37.3211669921875
4.401611328125 16.2001953125 -53.3614501953125
30.0634765625 -1.5633544921875 33.6475830078125
6.124755859375 7.2196044921875 46.465576171875
10.6396484375 -7.9085693359375 49.88671875
21.4140625 15.873046875 49.8426513671875
10.66748046875 17.014404296875 16.97021484375
14.841064453125 22.7764892578125 -1.6212158203125
18.783935546875 22.232666015625 -1.8707275390625
21.96142578125 -5.5450439453125 47.830810546875
16.80712890625 25.762451171875 -13.884033203125
13.201904296875 18.8602294921875 6.3516845703125
12.204833984375 16.1341552734375 18.697021484375
13.898193359375 11.8675537109375 34.06396484375
6.206298828125 8.0194091796875 -32.247314453125
5.600341796875 15.9468994140625 -51.609375
8.020751953125 19.7109375 6.10693359375
1.535888671875 24.3797607421875 -10.4307861328125
-1.699462890625 22.8050537109375 -3.877685546875
0.145263671875 21.5223388671875 -0.880859375
5.835205078125 14.30224609375 21.6912841796875
9.35888671875 4.6893310546875 52.8685302734375
11.182861328125 6.1461181640625 48.5020751953125
10.44580078125 7.9266357421875 42.126220703125
7.817138671875 13.393798828125 22.9925537109375
16.8310546875 15.5682373046875 -48.392578125
20.2998046875 16.399169921875 44.3157958984375
-24.260009765625 -8.2086181640625 29.2764892578125
2.0830078125 2.996826171875 -21.0289306640625
1.731689453125 12.900390625 28.603759765625
20.55810546875 15.8668212890625 46.9638671875
4.59423828125 6.19921875 44.1690673828125
-1.052978515625 9.6583251953125 36.9052734375
12.3095703125 -5.1600341796875 46.9012451171875
5.087646484375 11.733154296875 -38.1231689453125
-3.342041015625 4.923095703125 47.005615234375
-2.4013671875 2.4765625 55.8544921875
4.26904296875 16.9515380859375 -11.3681640625
6.743896484375 6.76025390625 35.498046875
-13.692626953125 -5.88818359375 20.9761962890625
23.62451171875 15.338134765625 -37.992431640625
-10.482421875 -7.1005859375 19.211181640625
-10.607666015625 -8.7828369140625 24.82861328125
6.370361328125 7.1287841796875 -30.2462158203125
22.358642578125 -4.4996337890625 42.337158203125
-33.890625 -5.0162353515625 10.6212158203125
7.08349609375 9.6793212890625 -33.6063232421875
-19.3994140625 -6.6226806640625 21.0830078125
-1.771240234375 16.7081298828125 11.25146484375
-0.802734375 13.3944091796875 -46.399658203125
1.611572265625 19.840087890625 -3.3814697265625
30.4267578125 -1.5396728515625 39.1099853515625
9.895263671875 14.640869140625 -44.2215576171875
-3.5419921875 14.385498046875 -48.5548095703125
14.18359375 12.739501953125 -41.6678466796875
16.2578125 12.216796875 -42.0535888671875
1.89111328125 15.3291015625 -48.9244384765625
5.3955078125 17.0924072265625 -2.8011474609375
-27.130859375 -6.808837890625 22.871337890625
5.5517578125 22.029296875 1.93896484375
-0.196044921875 11.12353515625 -40.7340087890625
2.860107421875 5.9669189453125 -23.388427734375
-4.62060546875 13.766845703125 -46.152587890625
21.7734375 -1.976318359375 39.43408203125
-31.9228515625 -9.265380859375 25.5836181640625
-5.58349609375 6.4449462890625 -26.5054931640625
20.0400390625 -3.2581787109375 41.56884765625
24.14013671875 -4.625732421875 40.6868896484375
-37.48388671875 -8.9764404296875 19.508544921875
-3.65673828125 35.66748046875 -48.692626953125
-11.2802734375 -7.7529296875 26.3651123046875
14.37939453125 13.18359375 28.104248046875
-2.426513671875 37.131591796875 -49.276123046875
29.501953125 -3.278076171875 37.595703125
-17.499267578125 -7.4935302734375 22.330810546875
10.2578125 14.236083984375 23.451904296875
19.419189453125 11.1370849609375 -38.56591796875
13.979248046875 24.412841796875 -4.935546875
9.4033203125 -9.292724609375 49.75341796875
-30.23193359375 -5.916015625 20.2159423828125
7.872314453125 13.3997802734375 -45.4178466796875
6.015625 20.3359375 2.9310302734375
-33.221923828125 -6.798828125 17.0887451171875
11.535400390625 11.1727294921875 31.3548583984375
28.209716796875 -1.7242431640625 34.3140869140625
2.70556640625 15.867919921875 19.1004638671875
7.356201171875 8.3372802734375 44.203857421875
-5.14599609375 32.363037109375 -38.72412109375
4.012451171875 18.176025390625 8.0858154296875
5.412353515625 15.6763916015625 16.5928955078125
2.721435546875 19.7076416015625 3.3994140625
2.248291015625 17.1485595703125 14.426025390625
7.27099609375 6.5631103515625 47.7532958984375
-37.5869140625 -8.059814453125 15.89013671875
-38.084716796875 -7.0242919921875 12.26611328125
-37.47802734375 -10.1590576171875 24.331298828125
-0.2900390625 17.7374267578125 14.344970703125
14.74560546875 10.361083984375 -35.551025390625
8.875 15.3031005859375 17.71923828125
-7.44384765625 33.453125 -42.66455078125
7.246337890625 15.7305908203125 -49.8212890625
31.1572265625 -2.372802734375 34.8760986328125
13.41455078125 25.4212646484375 -8.367919921875
17.427734375 6.23095703125 -27.0277099609375
21.764892578125 13.1806640625 -40.2296142578125
19.80126953125 12.46142578125 -40.047119140625
-10.55419921875 -6.0802001953125 15.131103515625
1.9697265625 11.0782470703125 -41.028076171875
20.447509765625 6.240966796875 -24.1978759765625
17.00927734375 7.746337890625 -29.80517578125
6.162841796875 4.2430419921875 51.0064697265625
21.60595703125 7.1513671875 -25.67626953125
-1.307373046875 9.0718994140625 -33.8702392578125
-13.52197265625 -6.639404296875 23.8369140625
18.51025390625 13.8255615234375 32.7965087890625
22.51806640625 12.930419921875 -37.1766357421875
15.937744140625 24.6617431640625 -8.3319091796875
17.075927734375 13.7333984375 34.916259765625
19.901123046875 22.7347412109375 -5.279052734375
14.04345703125 13.595458984375 -44.9931640625
18.13671875 9.921875 -34.964599609375
14.776123046875 10.455322265625 38.7646484375
12.095703125 17.106201171875 14.8597412109375
11.245849609375 19.8665771484375 4.6190185546875
2.572265625 26.652099609375 -12.5523681640625
0.863037109375 27.0623779296875 -12.150634765625
7.9306640625 20.968994140625 4.1455078125
12.255126953125 20.08447265625 2.50244140625
9.81787109375 19.7747802734375 6.7296142578125
12.611328125 18.516357421875 8.4742431640625
14.816650390625 9.2952880859375 43.4532470703125
5.5068359375 18.525634765625 5.6033935546875
-35.522216796875 -6.4207763671875 13.529541015625
8.439208984375 11.028076171875 -39.31640625
6.831787109375 15.2911376953125 -6.2049560546875
8.744384765625 11.9166259765625 -42.5927734375
-6.9287109375 35.081787109375 -47.6610107421875
0.7333984375 21.86474609375 -2.9942626953125
0.814208984375 19.5545654296875 6.3427734375
-3.58740234375 32.828857421875 -42.5211181640625
4.572265625 17.1761474609375 11.4886474609375
-4.666748046875 33.6734619140625 -44.6583251953125
-4.940673828125 32.9246826171875 -41.267333984375
2.528076171875 16.648681640625 16.12744140625
2.4658203125 15.2127685546875 22.0675048828125
7.12646484375 12.7705078125 26.3775634765625
-1.95361328125 12.4595947265625 -44.0548095703125
-5.130859375 14.828369140625 -49.867431640625
-0.93310546875 10.336669921875 -36.625
1.73388671875 9.0294189453125 -34.5272216796875
-3.433837890625 12.0982666015625 -40.7802734375
8.065673828125 2.9093017578125 33.1619873046875
2.35400390625 4.63232421875 30.8370361328125
2.56494140625 4.4305419921875 53.8585205078125
5.08349609375 5.017333984375 48.4014892578125
4.0087890625 5.858154296875 46.2734375
21.624755859375 8.5751953125 -29.3209228515625
-14.59033203125 -6.9951171875 27.9981689453125
27.874267578125 -4.1529541015625 39.41943359375
-1.083251953125 6.6947021484375 -30.859375
24.0615234375 11.40087890625 -24.67041015625
-19.071044921875 -5.7252197265625 17.0191650390625
-18.94580078125 -4.1690673828125 10.5113525390625
11.668212890625 10.0916748046875 -37.969482421875
20.279541015625 15.2935791015625 -47.7894287109375
-30.024169921875 -7.764404296875 27.51220703125
-35.043212890625 -8.40283203125 23.7891845703125
7.285888671875 21.5692138671875 0.1773681640625
9.83935546875 11.330322265625 28.96240234375
-23.07861328125 -5.6885986328125 10.5936279296875
13.60791015625 12.404296875 -39.598876953125
11.876953125 -6.5802001953125 49.5504150390625
16.6708984375 9.58203125 -32.5244140625
16.6689453125 25.384765625 -12.173828125
18.645751953125 21.85498046875 -0.1605224609375
13.526611328125 14.8765869140625 25.300048828125
22.920654296875 8.9176025390625 -23.4876708984375
2.64892578125 7.84619140625 -30.806640625
4.535888671875 13.9251708984375 -46.4046630859375
5.95947265625 14.173583984375 -48.425537109375
12.921630859375 7.24755859375 -29.3240966796875
3.616943359375 15.1134033203125 -50.140869140625
6.846923828125 11.6087646484375 -39.7528076171875
15.432861328125 5.4786376953125 -25.1513671875
9.391357421875 9.9310302734375 -35.9932861328125
1.912353515625 18.46826171875 -9.45263671875
10.69580078125 18.362548828125 11.43017578125
9.65576171875 24.4151611328125 -12.0250244140625
11.22998046875 16.01025390625 20.3878173828125
9.297607421875 8.583984375 40.836669921875
4.134765625 6.995361328125 -29.1375732421875
-3.605712890625 12.856201171875 -43.6663818359375
8.6591796875 4.62451171875 -24.9534912109375
4.433837890625 7.8131103515625 -32.8408203125
8.03466796875 11.4580078125 30.6341552734375
1.710205078125 20.739501953125 0.41455078125
2.19189453125 14.4639892578125 25.4583740234375
3.41455078125 12.7451171875 30.9925537109375
11.553466796875 8.4244384765625 38.7470703125
6.538330078125 12.4281005859375 28.490966796875
11.0458984375 5.771728515625 50.197509765625
12.11328125 7.424560546875 42.1500244140625
10.308837890625 7.55224609375 43.8216552734375
16.64404296875 10.6282958984375 38.0927734375
7.310546875 5.904296875 -27.823974609375
-24.47607421875 -2.3048095703125 9.61865234375
-13.53369140625 -4.2362060546875 14.036865234375
24.49560546875 -4.7078857421875 44.3037109375
-29.605712890625 -8.12744140625 25.71435546875
2.0068359375 17.301513671875 -52.0487060546875
-4.584716796875 7.952392578125 -33.8756103515625
-6.4345703125 9.011474609375 -35.953125
-5.89306640625 8.044921875 -32.66357421875
-4.4794921875 7.0166015625 -30.181884765625
2.49072265625 5.487548828125 49.632080078125
1.00634765625 13.902587890625 -44.9127197265625
4.58642578125 5.554443359375 38.537353515625
-12.5234375 -6.2169189453125 22.30810546875
16.642822265625 -8.5523681640625 50.3453369140625
10.363525390625 -7.13427734375 51.451904296875
1.39306640625 6.5802001953125 -27.6912841796875
-19.640869140625 -4.8564453125 14.1630859375
4.248046875 10.1585693359375 -37.1650390625
-41.33203125 -5.402099609375 17.1160888671875
-8.873291015625 -8.722412109375 24.5826416015625
-17.819091796875 -5.536376953125 18.929443359375
-28.18115234375 -6.275146484375 19.88427734375
13.59912109375 21.436279296875 -1.577880859375
19.45068359375 7.18408203125 -27.56640625
1.322509765625 6.267578125 34.3507080078125
-4.681640625 10.8267822265625 -37.6519775390625
-34.4912109375 -9.1435546875 27.5189208984375
13.59619140625 23.032470703125 -3.470458984375
-33.18359375 -7.8975830078125 21.529296875
11.89306640625 24.5765380859375 -10.0201416015625
5.563720703125 5.435546875 34.08984375
18.58544921875 12.7548828125 37.0780029296875
-36.0341796875 -9.8065185546875 21.1368408203125
-2.93603515625 7.6888427734375 -33.3800048828125
10.85009765625 8.9853515625 -33.904052734375
8.718017578125 9.323486328125 -32.6934814453125
14.48046875 6.57568359375 -28.4744873046875
11.97412109375 20.5865478515625 0.793701171875
-27.511474609375 -5.28271484375 18.4921875
-27.3681640625 -3.9783935546875 10.2108154296875
-2.935302734375 13.461181640625 -46.952392578125
13.22802734375 -6.7081298828125 46.963623046875
-6.03369140625 10.36279296875 -39.11181640625
3.3203125 4.4888916015625 -21.4925537109375
-5.854248046875 6.92822265625 -28.150390625
-5.7158203125 6.0830078125 -24.866455078125
10.958984375 12.2769775390625 -40.2286376953125
-10.389892578125 -5.5684814453125 13.544677734375
-34.977294921875 -6.70556640625 19.529541015625
19.23486328125 14.0357666015625 43.4993896484375
6.54248046875 19.2401123046875 6.7659912109375
18.2548828125 14.1689453125 48.056640625
-26.857177734375 -5.146240234375 12.9708251953125
-31.503173828125 -3.3505859375 11.28369140625
-26.55126953125 -6.7264404296875 19.0528564453125
21.521240234375 17.5032958984375 43.844482421875
17.260986328125 11.686279296875 43.0516357421875
14.88330078125 25.6080322265625 -10.9151611328125
11.740966796875 13.3787841796875 27.446533203125
15.314697265625 -8.678466796875 48.8116455078125
-0.6455078125 17.8380126953125 12.0863037109375
16.349365234375 16.987548828125 -49.9315185546875
2.799072265625 3.235595703125 34.516845703125
7.046875 17.790283203125 8.2584228515625
30.592529296875 0.06298828125 30.10986328125
15.98095703125 15.8448486328125 27.6240234375
2.622802734375 4.5765380859375 36.691162109375
17.175537109375 11.1055908203125 40.1177978515625
13.75439453125 12.74560546875 30.65234375
7.8271484375 14.8448486328125 -46.9095458984375
6.495361328125 21.1690673828125 -7.155517578125
-35.0546875 -5.6343994140625 15.93798828125
8.957275390625 16.4185791015625 -8.892333984375
16.05517578125 -4.47021484375 46.173828125
-29.7802734375 -3.4725341796875 9.6876220703125
6.7412109375 20.5755615234375 -5.0302734375
5.67626953125 8.634765625 42.7496337890625
-3.673828125 33.2965087890625 -36.6951904296875
12.572021484375 9.094482421875 40.873779296875
8.73876953125 13.5174560546875 -44.0499267578125
2.944091796875 20.006591796875 -1.8914794921875
11.382568359375 13.646728515625 -43.4266357421875
7.9541015625 16.13330078125 -7.2587890625
23.960693359375 -0.7213134765625 36.876953125
-7.82763671875 33.4476318359375 -44.452880859375
7.117431640625 6.8533935546875 39.185791015625
-5.3994140625 35.7559814453125 -49.2259521484375
-1.247802734375 24.2391357421875 -7.99853515625
18.2666015625 14.52392578125 -45.872314453125
8.247314453125 19.7479248046875 -1.9576416015625
-26.9716796875 -6.3001708984375 21.2958984375
4.773193359375 20.3780517578125 -0.308837890625
12.08056640625 -2.5701904296875 47.6898193359375
15.72705078125 7.7572021484375 -31.1942138671875
6.779296875 18.4739990234375 -8.6170654296875
13.2265625 13.8438720703125 26.8092041015625
-0.74951171875 18.94677734375 9.2041015625
17.688720703125 24.3441162109375 -9.1629638671875
14.7451171875 25.2303466796875 -9.2049560546875
6.5908203125 3.9344482421875 31.51171875
3.203369140625 8.171142578125 31.031982421875
9.75537109375 15.496826171875 -47.5469970703125
3.72509765625 25.991943359375 -11.25732421875
9.289794921875 20.8729248046875 2.8863525390625
15.81982421875 10.7672119140625 36.222412109375
14.63232421875 11.3333740234375 35.35302734375
8.71533203125 24.38525390625 -10.7598876953125
-41.255859375 -3.154052734375 14.7236328125
28.064208984375 -0.75537109375 32.77734375
9.603515625 8.0439453125 -28.5440673828125
-4.40576171875 4.588623046875 -22.4874267578125
5.527099609375 13.4598388671875 25.506103515625
5.218994140625 12.617431640625 29.32080078125
8.989501953125 7.7415771484375 44.6514892578125
9.2353515625 7.1480712890625 46.77685546875
5.20068359375 16.363525390625 14.0438232421875
6.115234375 13.80224609375 23.3927001953125
7.708251953125 14.36181640625 19.171875
8.548095703125 12.862060546875 24.276123046875
-0.728759765625 22.928466796875 -5.561279296875
4.8583984375 15.4276123046875 18.282470703125
-5.36376953125 34.298828125 -46.3656005859375
5.1884765625 18.8609619140625 3.8590087890625
-0.333984375 20.2119140625 5.05322265625
-0.51123046875 20.99267578125 2.0802001953125
-13.730224609375 -4.8387451171875 16.0321044921875
10.6572265625 -8.0042724609375 48.0654296875
2.1748046875 7.2030029296875 43.764404296875
-8.79296875 31.4097900390625 -41.767822265625
13.368408203125 -7.5665283203125 50.298583984375
3.428466796875 8.3431396484375 40.607421875
0.81787109375 8.4742431640625 39.46728515625
1.34765625 6.14208984375 48.34814453125
0.836181640625 4.744140625 54.678955078125
-9.452880859375 32.0517578125 -44.342041015625
2.314208984375 6.264892578125 46.6717529296875
7.88818359375 17.726318359375 -6.9110107421875
0.1240234375 9.096923828125 37.7672119140625
20.228271484375 13.7686767578125 -43.7041015625
-0.10498046875 5.6964111328125 -27.971435546875
23.17138671875 12.403076171875 -32.8641357421875
22.3046875 10.8341064453125 -32.7735595703125
30.947509765625 -1.6915283203125 32.3486328125
5.888427734375 16.3609619140625 -10.92431640625
18.569580078125 8.53466796875 -31.2830810546875
28.201904296875 -2.9254150390625 40.72412109375
23.97265625 -3.1973876953125 46.974853515625
3.482421875 16.0550537109375 -6.751220703125
16.357177734375 12.6400146484375 34.0745849609375
25.150634765625 -4.28369140625 39.5460205078125
18.53662109375 12.4910888671875 -42.2923583984375
18.620849609375 11.339599609375 -39.8839111328125
6.47216796875 13.1072998046875 -44.694091796875
14.90380859375 19.968017578125 3.6026611328125
9.712890625 -2.8466796875 50.95458984375
1.6318359375 3.7921142578125 33.662353515625
18.22998046875 6.09228515625 -25.259765625
19.418701171875 -5.212158203125 45.8558349609375
1.026123046875 12.3060302734375 -43.45849609375
11.209716796875 13.120849609375 -41.7972412109375
26.778564453125 -4.9071044921875 38.6297607421875
14.858642578125 -7.2637939453125 46.517822265625
-29.406005859375 -5.5465087890625 22.5682373046875
17.778076171875 -3.193115234375 44.0516357421875
3.488525390625 12.1790771484375 -39.446044921875
17.815185546875 -4.5609130859375 45.8853759765625
-11.022705078125 -5.7684326171875 18.6527099609375
16.37060546875 22.0159912109375 1.947265625
-18.6513671875 -4.37255859375 13.0845947265625
-10.641845703125 -8.5673828125 27.5064697265625
-17.401611328125 -4.056884765625 15.8927001953125
-27.209228515625 -3.4693603515625 8.6328125
3.4228515625 13.3486328125 -42.6973876953125
-4.0107421875 17.436767578125 -53.249267578125
9.990234375 6.374755859375 -25.80810546875
19.984130859375 8.8245849609375 -31.998779296875
18.304443359375 10.3800048828125 -37.039306640625
15.3349609375 13.41015625 -45.8055419921875
16.872802734375 11.4212646484375 -39.5523681640625
15.9560546875 11.3922119140625 -38.319091796875
14.32373046875 11.8836669921875 -38.3424072265625
10.840087890625 14.6932373046875 -46.31298828125
-1.87744140625 10.1502685546875 -35.43310546875
2.1640625 14.841796875 -47.265869140625
11.39599609375 8.0107421875 -30.5869140625
1.172607421875 17.06494140625 -55.139892578125
6.301025390625 12.5833740234375 -43.0699462890625
8.239013671875 10.4805908203125 -36.837158203125
-0.826171875 17.7679443359375 -55.5821533203125
28.800537109375 0.1898193359375 31.7698974609375
20.218505859375 10.9342041015625 -37.24658203125
-5.828857421875 12.920166015625 -41.2264404296875
-0.4013671875 11.79052734375 -43.208740234375
0.04248046875 10.54736328125 -38.6708984375
6.031494140625 4.8104248046875 -22.519287109375
2.032958984375 9.8472900390625 -38.23046875
1.4619140625 9.5147705078125 -36.178955078125
2.283447265625 6.8466796875 -26.2803955078125
-35.089599609375 -10.2764892578125 26.6943359375
-35.329345703125 -9.6533203125 25.1258544921875
4.812744140625 9.2021484375 30.130859375
5.82666015625 14.937255859375 -5.0347900390625
-2.117919921875 14.9046630859375 -48.811767578125
16.03369140625 -6.1790771484375 46.5369873046875
-0.87353515625 3.419677734375 -19.87451171875
-4.169921875 5.4166259765625 -24.02392578125
-3.291748046875 4.147705078125 -19.9090576171875
-2.966796875 6.259765625 -28.9295654296875
13.31005859375 -4.819580078125 45.767822265625
8.114013671875 -9.107666015625 50.5645751953125
-9.659912109375 -4.6026611328125 10.8255615234375
22.3798828125 17.5118408203125 46.7237548828125
-15.1142578125 -2.3359375 9.6064453125
-15.68017578125 -2.6656494140625 11.64111328125
-11.2265625 -5.10693359375 16.1986083984375
-28.640625 -5.2646484375 14.92822265625
17.793701171875 -9.38720703125 47.962158203125
5.061767578125 1.8720703125 36.5938720703125
2.64111328125 23.4110107421875 -10.104736328125
8.757568359375 2.4627685546875 54.3695068359375
7.928955078125 3.8397216796875 30.27197265625
-23.98779296875 -9.38330078125 26.7879638671875
-30.968505859375 -4.3052978515625 14.5328369140625
-30.003173828125 -5.2904052734375 17.3829345703125
6.5849609375 7.8070068359375 34.42919921875
4.1318359375 4.9449462890625 33.3521728515625
-23.114501953125 -8.9913330078125 28.29443359375
3.9287109375 2.5208740234375 35.3211669921875
25.891845703125 -4.681396484375 41.755126953125
-21.7578125 -3.7896728515625 8.1884765625
14.5732421875 21.826904296875 -0.5059814453125
-35.4716796875 -8.763427734375 22.349609375
-11.3642578125 -4.26513671875 12.9283447265625
