0.393798828125 24.9146728515625 -54.2982177734375
-0.18603515625 19.8997802734375 -44.7340087890625
0.753173828125 10.237548828125 -17.861083984375
28.541259765625 4.154541015625 40.295654296875
-19.01953125 1.9814453125 18.655029296875
-8.044677734375 17.2342529296875 -35.299072265625
7.849853515625 22.9227294921875 -7.1783447265625
10.61328125 3.4691162109375 49.5941162109375
16.902099609375 13.793701171875 -29.1182861328125
-38.33642578125 -5.365234375 28.6737060546875
14.67138671875 27.1151123046875 4.1988525390625
3.994384765625 20.582763671875 -1.7412109375
10.61767578125 12.0487060546875 -26.3782958984375
-24.296142578125 -0.9036865234375 15.232421875
-0.795654296875 13.53466796875 -29.4573974609375
-16.287109375 -1.79541015625 29.248779296875
2.262451171875 8.32275390625 38.8990478515625
17.266845703125 16.3389892578125 -35.6121826171875
16.025634765625 3.361572265625 46.046630859375
4.557373046875 15.377685546875 -32.2364501953125
-13.55712890625 -0.245849609375 20.7435302734375
-31.282958984375 -0.5372314453125 24.230712890625
19.96630859375 22.1893310546875 -46.696533203125
-4.05908203125 6.3489990234375 -22.4443359375
-14.3798828125 2.56494140625 10.9317626953125
0.18994140625 24.611572265625 -48.2958984375
11.844482421875 18.7603759765625 -43.7890625
0.908447265625 9.5614013671875 33.2662353515625
-5.470458984375 21.315185546875 -47.3983154296875
12.172607421875 29.286865234375 -2.3084716796875
20.87158203125 15.5423583984375 -21.9490966796875
21.122802734375 0.64111328125 43.03271484375
6.287109375 11.7994384765625 40.775146484375
12.217529296875 17.2271728515625 -37.9447021484375
21.074462890625 20.2763671875 -36.445556640625
-3.185546875 16.9979248046875 -40.6455078125
-5.378662109375 11.315185546875 -24.5706787109375
-39.391357421875 -2.097900390625 16.557861328125
0.168212890625 14.56396484375 -20.9447021484375
16.588623046875 29.9449462890625 -9.978515625
18.4267578125 -0.5435791015625 51.4312744140625
17.829345703125 18.8421630859375 36.6234130859375
9.0673828125 -2.1259765625 49.0389404296875
-16.395751953125 2.690673828125 23.9114990234375
1.905517578125 18.130126953125 -40.149169921875
-16.54541015625 4.8341064453125 15.2574462890625
5.037841796875 26.1539306640625 -4.447509765625
24.895263671875 5.46484375 35.7813720703125
7.435546875 15.9888916015625 -36.2822265625
-25.111083984375 4.4200439453125 10.03173828125
-4.65380859375 15.3582763671875 -31.966064453125
9.74560546875 25.7515869140625 4.393798828125
-27.278076171875 2.8720703125 14.22119140625
-33.3583984375 2.19970703125 13.5008544921875
4.9296875 20.97900390625 -44.6981201171875
3.56884765625 27.1138916015625 -8.8349609375
-2.90087890625 22.470947265625 -51.816162109375
-20.832275390625 -2.832275390625 29.38427734375
6.27392578125 13.827392578125 -28.069580078125
6.80419921875 8.499755859375 37.595458984375
-0.736328125 12.413330078125 -24.9053955078125
-34.399658203125 -2.906494140625 26.736083984375
20.447021484375 15.3961181640625 -26.8377685546875
0.772705078125 23.6788330078125 -2.6363525390625
-26.2685546875 0.6715087890625 21.9921875
12.546630859375 31.7462158203125 -12.15576171875
25.229248046875 2.2998046875 43.042724609375
10.69482421875 23.0927734375 13.3492431640625
15.42138671875 29.2730712890625 -5.686279296875
10.918212890625 -1.666015625 52.9847412109375
-3.196533203125 8.4903564453125 -17.2047119140625
9.734130859375 20.586181640625 -47.0870361328125
-28.06005859375 -0.9569091796875 27.470703125
7.927490234375 12.095703125 -23.072265625
-14.7021484375 -0.9765625 25.24951171875
1.38818359375 20.5804443359375 -48.8519287109375
6.078369140625 -4.8668212890625 50.0999755859375
-14.815673828125 1.3111572265625 16.675048828125
4.353759765625 10.636474609375 31.1993408203125
18.5576171875 4.1697998046875 42.4720458984375
-21.712890625 -0.149169921875 20.8856201171875
19.2822265625 15.7611083984375 -32.097900390625
4.167724609375 22.4468994140625 -8.8946533203125
15.940185546875 20.664794921875 -44.985595703125
15.070556640625 15.00927734375 -32.5008544921875
12.777099609375 14.92724609375 -29.1781005859375
4.09814453125 24.6009521484375 0.072998046875
12.52880859375 0.6038818359375 47.55029296875
-20.878173828125 2.87255859375 15.2305908203125
29.14501953125 3.0443115234375 36.40673828125
7.52783203125 21.9964599609375 -2.9359130859375
2.98828125 23.2108154296875 -51.385986328125
14.433349609375 13.0758056640625 -25.92724609375
18.809814453125 0.558349609375 46.3837890625
24.691162109375 3.3916015625 39.2353515625
3.40087890625 10.1004638671875 -20.73974609375
-4.27734375 16.441650390625 -36.9288330078125
-24.716796875 0.603271484375 11.6915283203125
3.6220703125 16.579833984375 -35.982421875
-2.39599609375 9.6400146484375 -20.806396484375
-25.190185546875 1.2208251953125 18.3216552734375
-7.357421875 17.9185791015625 -39.0185546875
18.249755859375 12.456787109375 -25.3526611328125
-4.137451171875 19.916748046875 -44.097412109375
-12.57470703125 -2.5450439453125 28.9569091796875
-4.388427734375 13.2532958984375 -28.018798828125
17.39013671875 26.8787841796875 1.6370849609375
20.54296875 21.314697265625 -41.559814453125
0.90771484375 14.820556640625 -32.5709228515625
2.588134765625 13.183837890625 -28.0008544921875
13.724365234375 0.26318359375 51.1849365234375
12.5146484375 11.0858154296875 -23.39013671875
9.27587890625 13.379638671875 -30.1270751953125
12.797119140625 28.4378662109375 1.1761474609375
-4.673583984375 23.9102783203125 -54.7115478515625
8.09814453125 9.774169921875 34.4744873046875
10.68115234375 11.768310546875 47.5982666015625
-8.059814453125 11.228759765625 -22.18212890625
-10.9404296875 2.59716796875 12.1138916015625
14.245849609375 17.9881591796875 -40.7362060546875
1.98681640625 21.231201171875 -4.872314453125
8.171875 19.923828125 -43.8138427734375
-30.846923828125 2.369140625 15.938720703125
-19.36181640625 0.99658203125 23.1663818359375
-8.109130859375 15.50244140625 -31.7310791015625
16.660400390625 -3.51904296875 51.659423828125
-19.337158203125 -0.268310546875 27.634033203125
-31.832275390625 0.426025390625 20.9688720703125
-38.880859375 -4.4105224609375 25.4410400390625
16.98193359375 18.360595703125 -38.3331298828125
7.87109375 14.5291748046875 -33.045166015625
-10.926513671875 -0.318603515625 18.343017578125
-17.348876953125 2.943115234375 12.51123046875
15.97119140625 0.162353515625 48.6776123046875
10.3671875 18.4197998046875 -40.4608154296875
2.968994140625 10.816162109375 36.0806884765625
-16.69775390625 1.0772705078125 20.8114013671875
-11.91796875 -2.18017578125 22.9912109375
20.381103515625 17.9471435546875 -34.263916015625
13.22021484375 16.201904296875 -35.0169677734375
3.3857421875 18.5382080078125 -43.0196533203125
-8.037841796875 19.8380126953125 -46.057373046875
-0.844482421875 19.30322265625 -41.414306640625
0.66259765625 11.2685546875 -21.99951171875
26.758544921875 7.062255859375 33.6971435546875
-21.500732421875 0.3489990234375 17.12060546875
-8.181396484375 12.1656494140625 -25.8914794921875
-13.429443359375 1.4033203125 13.7685546875
11.50634765625 28.304443359375 -5.2869873046875
-7.748046875 22.539306640625 -49.488525390625
23.197509765625 1.638671875 45.35546875
-0.81640625 17.9017333984375 -38.623046875
5.1435546875 17.1468505859375 -38.8221435546875
0.12548828125 22.2330322265625 -52.5496826171875
19.61279296875 12.7020263671875 -22.15087890625
19.942138671875 19.3065185546875 -39.304931640625
-38.751708984375 -1.518310546875 13.3331298828125
12.9296875 21.0181884765625 -45.5361328125
20.07373046875 1.98779296875 51.0382080078125
17.51318359375 21.330322265625 -48.2733154296875
-2.50537109375 20.965087890625 -46.8544921875
-2.1005859375 14.9503173828125 -33.60400390625
11.179931640625 22.559326171875 -48.869873046875
9.32958984375 18.0408935546875 -37.546875
-5.301513671875 10.1553955078125 -21.3394775390625
0.35400390625 9.367431640625 36.3087158203125
-31.193359375 -1.7391357421875 26.94482421875
15.52294921875 30.9075927734375 -12.5657958984375
15.062744140625 28.240966796875 -0.9586181640625
-33.540283203125 2.9473876953125 10.6510009765625
19.015625 20.54248046875 -43.95751953125
22.140380859375 2.478515625 40.97314453125
-30.293701171875 2.560546875 13.002685546875
15.04248046875 16.231201171875 -37.5084228515625
2.79345703125 19.4305419921875 -45.93310546875
12.21630859375 26.5687255859375 5.68994140625
-4.3935546875 3.177734375 -23.9552001953125
10.179931640625 27.166748046875 1.1348876953125
-10.5244140625 -0.1556396484375 21.487060546875
3.854736328125 21.7518310546875 -47.235595703125
13.849609375 -2.3917236328125 52.1666259765625
-27.76611328125 -3.3177490234375 29.002685546875
-28.75927734375 1.16357421875 23.2012939453125
3.693359375 13.27880859375 31.8765869140625
-27.460693359375 3.622802734375 11.3594970703125
27.139892578125 2.4742431640625 38.3056640625
21.593017578125 17.7940673828125 -27.63232421875
11.26953125 -0.5584716796875 50.214111328125
9.828369140625 16.7564697265625 -35.131103515625
14.842041015625 20.052978515625 -42.5357666015625
2.693603515625 15.1217041015625 -30.234619140625
18.313232421875 1.841796875 44.0107421875
-5.058837890625 22.7518310546875 -50.1685791015625
7.74169921875 12.859130859375 -25.982177734375
4.953857421875 23.9150390625 -6.7347412109375
5.33984375 10.6668701171875 -22.6617431640625
19.486572265625 -0.0966796875 48.966552734375
7.1376953125 20.85791015625 -46.324462890625
-5.083251953125 18.0 -42.3134765625
8.060302734375 -2.4140625 51.5384521484375
4.829833984375 9.65185546875 39.997802734375
-1.899169921875 22.7574462890625 -54.3026123046875
-1.194091796875 24.159423828125 -50.6060791015625
-5.679443359375 16.2845458984375 -34.45556640625
-27.4951171875 2.2479248046875 17.0802001953125
14.355712890625 30.2357177734375 -8.2735595703125
19.56982421875 18.112060546875 -36.908935546875
17.495849609375 17.783203125 39.048583984375
5.7607421875 11.2900390625 37.3966064453125
-15.28271484375 -0.0322265625 22.82861328125
-16.8330078125 -0.6990966796875 26.87646484375
16.59326171875 19.2149658203125 34.3123779296875
19.4560546875 14.923583984375 -29.6170654296875
4.294189453125 7.46923828125 37.49853515625
1.464111328125 16.8607177734375 -34.3348388671875
-24.97802734375 1.654541015625 14.10888671875
3.410400390625 8.870849609375 32.862060546875
-3.248779296875 12.80029296875 -25.434326171875
4.902099609375 22.2218017578125 -3.535888671875
26.74462890625 4.0408935546875 34.6495361328125
6.869384765625 14.2425537109375 -30.5587158203125
-31.5546875 1.352294921875 18.20703125
2.17919921875 21.7845458984375 -7.4068603515625
-12.622802734375 -0.3685302734375 16.4295654296875
1.71630859375 17.5860595703125 -37.6573486328125
14.36279296875 2.346435546875 47.82763671875
-16.6982421875 2.30517578125 15.0206298828125
11.704833984375 12.6514892578125 -28.8001708984375
5.864990234375 22.6446533203125 -1.12890625
6.605224609375 10.759033203125 32.351318359375
-23.36962890625 2.6881103515625 10.611572265625
26.677001953125 2.5262451171875 40.990478515625
-3.192138671875 14.39404296875 -29.8873291015625
5.829833984375 19.4940185546875 -42.719970703125
5.93408203125 15.44482421875 -34.3048095703125
22.970947265625 5.1427001953125 37.311279296875
1.381103515625 12.0433349609375 -26.1324462890625
10.795654296875 24.72021484375 6.4996337890625
-21.8759765625 -2.0067138671875 27.3341064453125
6.291748046875 24.0450439453125 -4.367431640625
-5.809814453125 14.3736572265625 -30.0626220703125
4.8154296875 13.4434814453125 -26.0672607421875
-4.2490234375 9.3228759765625 -19.2720947265625
2.17626953125 25.2064208984375 -8.4517822265625
-6.444580078125 12.0146484375 -27.5279541015625
0.661865234375 22.84716796875 -49.839111328125
-15.00244140625 0.7738037109375 19.136474609375
4.61083984375 18.337158203125 -40.81787109375
9.961181640625 4.4698486328125 51.6531982421875
14.41748046875 29.0704345703125 -3.54296875
-14.487548828125 -1.640869140625 27.7130126953125
17.130615234375 -1.97412109375 49.940673828125
21.068603515625 0.5609130859375 45.7139892578125
1.499755859375 11.824462890625 33.06396484375
3.95556640625 11.0152587890625 33.974609375
-0.421875 10.602783203125 -20.0404052734375
-19.34912109375 3.707275390625 13.403564453125
-2.16650390625 13.4677734375 -27.397705078125
17.136474609375 14.4993896484375 -31.589599609375
18.21923828125 20.77490234375 -46.14453125
14.754150390625 14.0987548828125 -28.3302001953125
12.967041015625 15.4735107421875 -31.680419921875
-1.2568359375 9.1849365234375 -18.220947265625
1.250244140625 18.8409423828125 -42.231201171875
10.022216796875 11.6334228515625 -23.88916015625
12.8984375 30.0723876953125 -5.7032470703125
-4.9296875 17.1495361328125 -39.002197265625
-1.447998046875 14.242431640625 -31.5306396484375
2.74853515625 10.8082275390625 -22.81298828125
-12.531494140625 -2.6165771484375 26.3114013671875
2.259033203125 8.14599609375 36.5931396484375
10.674072265625 27.16748046875 -1.08642578125
-29.59521484375 -0.3988037109375 25.73681640625
-20.045654296875 1.4814453125 20.61083984375
1.5849609375 21.6248779296875 -2.1407470703125
-29.591552734375 0.94775390625 20.8863525390625
-16.919677734375 1.614501953125 17.4381103515625
-26.912841796875 1.3704833984375 19.9447021484375
-25.524658203125 2.8115234375 12.1898193359375
11.54248046875 31.5435791015625 -10.0125732421875
14.09814453125 30.838134765625 -10.42529296875
15.2548828125 27.4510498046875 2.052734375
16.84619140625 29.3426513671875 -7.8267822265625
7.154052734375 18.1373291015625 -38.097412109375
10.482177734375 23.8585205078125 11.2508544921875
5.835205078125 12.4464111328125 -24.01708984375
3.15673828125 22.303955078125 -49.352294921875
-0.015625 22.0703125 -5.7310791015625
8.10400390625 22.328125 -5.0543212890625
14.607666015625 12.2421875 -23.4578857421875
18.542236328125 13.38916015625 -27.3402099609375
-5.856201171875 19.903564453125 -45.491455078125
21.418212890625 20.0108642578125 -34.2760009765625
25.2646484375 3.7218017578125 37.1259765625
13.97119140625 31.8157958984375 -14.2962646484375
16.552490234375 28.4981689453125 -3.9586181640625
16.719970703125 1.118408203125 46.7906494140625
17.47265625 15.593505859375 -33.551513671875
-15.232666015625 2.8323974609375 13.1058349609375
20.169189453125 3.4481201171875 41.0621337890625
10.532470703125 22.625732421875 15.4888916015625
0.39208984375 11.1444091796875 35.019775390625
11.186767578125 19.47412109375 -45.8798828125
0.784423828125 20.095703125 -46.8050537109375
10.294921875 0.666259765625 48.68896484375
8.143798828125 21.1456298828125 -48.8214111328125
-7.73095703125 20.927978515625 -48.016845703125
-2.821533203125 16.89404296875 -38.4862060546875
4.774658203125 14.7049560546875 -29.7418212890625
6.2861328125 23.7265625 -8.462158203125
2.20849609375 24.158447265625 -1.0732421875
-5.27587890625 23.424560546875 -52.6632080078125
8.7119140625 13.054931640625 -28.05322265625
4.27490234375 24.5692138671875 -9.32470703125
6.3486328125 10.021240234375 35.730712890625
-20.0205078125 0.21728515625 25.0767822265625
-16.642578125 3.267822265625 21.849609375
16.247314453125 13.149658203125 -27.100830078125
22.85205078125 1.91455078125 43.1387939453125
15.689453125 21.2518310546875 -47.08251953125
6.062744140625 -3.2257080078125 51.5155029296875
-19.26513671875 2.5562744140625 16.6016845703125
12.094482421875 18.1759033203125 -41.7010498046875
9.709228515625 19.133544921875 -42.5516357421875
15.22900390625 15.464599609375 -34.586181640625
1.93115234375 24.12451171875 -53.0360107421875
14.50439453125 14.683349609375 -30.418212890625
-25.5966796875 1.03076171875 16.0601806640625
-13.000244140625 0.07470703125 18.695556640625
12.75830078125 11.8553466796875 -25.4013671875
-21.53515625 -1.02587890625 22.84130859375
-35.039306640625 -3.6737060546875 28.62158203125
13.359619140625 -1.1536865234375 48.445556640625
-1.906005859375 20.1427001953125 -43.4990234375
3.46435546875 16.12646484375 -33.9058837890625
-31.581298828125 2.228271484375 11.071044921875
18.046875 11.8427734375 -23.3006591796875
-6.331787109375 16.9923095703125 -36.5289306640625
0.292724609375 12.7889404296875 -27.794921875
-2.7529296875 15.6580810546875 -35.67724609375
1.22412109375 11.591796875 -24.0645751953125
-6.7958984375 18.2418212890625 -41.0836181640625
20.002197265625 13.91064453125 -25.395263671875
-16.70166015625 4.384521484375 17.316650390625
-39.24169921875 -2.927490234375 19.787841796875
-16.611328125 -0.009033203125 24.46142578125
-29.631591796875 -2.207763671875 28.2684326171875
-10.803466796875 -2.4805908203125 27.8304443359375
-4.1865234375 21.368408203125 -45.592041015625
-28.969482421875 3.1109619140625 15.435791015625
-30.363037109375 -0.4967041015625 22.1561279296875
10.9296875 14.5343017578125 -31.111572265625
20.74267578125 16.3353271484375 -28.8359375
11.7177734375 2.4991455078125 47.5986328125
8.1435546875 -3.8160400390625 49.756591796875
1.418212890625 13.6148681640625 -29.7298583984375
3.548095703125 22.3885498046875 -0.920654296875
11.02001953125 27.028076171875 2.9803466796875
19.72216796875 1.975341796875 42.386962890625
5.78759765625 20.49853515625 -2.9588623046875
8.7109375 -1.5755615234375 53.226806640625
1.87744140625 10.2723388671875 38.9803466796875
19.60009765625 19.5714111328125 -41.4642333984375
-24.17431640625 -0.611083984375 13.15576171875
11.78564453125 21.611083984375 -47.2454833984375
-13.373779296875 -0.999755859375 23.6170654296875
-12.10107421875 -1.42724609375 20.121337890625
17.04248046875 19.90966796875 -43.3018798828125
13.054443359375 27.8355712890625 3.327880859375
16.679443359375 27.5205078125 -0.0877685546875
16.42138671875 12.315673828125 -24.6298828125
-38.218017578125 -3.4974365234375 23.60546875
-2.672119140625 18.9500732421875 -42.01318359375
-37.97705078125 0.1246337890625 12.5445556640625
22.485595703125 3.5711669921875 39.0684814453125
20.822265625 20.8662109375 -38.552490234375
5.748291015625 16.2081298828125 -37.214599609375
24.53076171875 2.9305419921875 41.347412109375
0.05517578125 24.1680908203125 -5.2645263671875
1.5634765625 8.7740478515625 34.905029296875
16.201171875 18.6636962890625 -40.0721435546875
-4.781005859375 11.7939453125 -26.595703125
1.814208984375 19.16552734375 -44.3050537109375
-5.72900390625 18.776611328125 -43.9449462890625
14.93603515625 17.36474609375 -39.0606689453125
4.169921875 14.2216796875 -27.7005615234375
8.639892578125 18.6636962890625 -39.2205810546875
11.6513671875 16.901123046875 -35.862060546875
-21.497314453125 1.634765625 11.808349609375
-11.3193359375 1.16357421875 13.4576416015625
2.4853515625 15.8623046875 -32.281494140625
-7.43603515625 16.2999267578125 -33.7010498046875
-32.265625 -2.5347900390625 28.7874755859375
2.3935546875 10.0159912109375 31.738037109375
1.688232421875 10.34228515625 -19.5098876953125
-0.419189453125 14.6181640625 -34.420166015625
-7.50048828125 11.5506591796875 -24.2386474609375
0.777587890625 17.4808349609375 -36.0015869140625
-24.094970703125 0.1949462890625 16.84326171875
9.773681640625 -1.0667724609375 51.247802734375
4.59765625 22.67333984375 -50.514404296875
-12.836669921875 1.877197265625 11.7630615234375
-17.760009765625 -0.802978515625 28.5115966796875
18.382568359375 18.497802734375 -39.9697265625
-1.031494140625 23.1817626953125 -49.01708984375
2.0166015625 22.77490234375 -8.9849853515625
0.358642578125 21.9681396484375 -3.4974365234375
-28.783447265625 3.6458740234375 12.9852294921875
13.175048828125 13.259765625 -27.283935546875
3.585205078125 20.59375 -3.5543212890625
-18.826171875 3.8740234375 11.312255859375
11.326416015625 4.339111328125 48.124755859375
17.76904296875 0.13818359375 47.9544677734375
6.508056640625 23.039306640625 -5.9139404296875
29.1611328125 3.150390625 38.2496337890625
8.529296875 15.239501953125 -34.6114501953125
-7.656982421875 13.8729248046875 -30.70751953125
-3.587646484375 23.091064453125 -53.48291015625
28.84375 3.478271484375 34.240966796875
19.79248046875 0.7567138671875 44.2862548828125
12.404052734375 -1.22265625 51.4796142578125
-1.739990234375 16.07958984375 -37.2662353515625
14.0625 20.355224609375 -44.2725830078125
-19.6318359375 -1.3885498046875 29.039794921875
17.13623046875 28.8341064453125 -6.104736328125
12.507080078125 28.9464111328125 -0.5457763671875
9.4912109375 19.80908203125 -45.0567626953125
9.654541015625 14.580810546875 -33.3563232421875
3.02978515625 17.471923828125 -38.89501953125
14.270751953125 0.4615478515625 48.14013671875
20.57470703125 0.480712890625 47.4481201171875
-1.97900390625 18.3997802734375 -39.9051513671875
12.678955078125 29.3607177734375 -4.0643310546875
19.121826171875 16.668212890625 -34.13037109375
20.541259765625 17.037109375 -32.2264404296875
-5.5517578125 9.4361572265625 -18.044677734375
0.874755859375 25.488037109375 -7.1483154296875
-6.385498046875 10.89794921875 -22.9949951171875
-29.6806640625 2.0279541015625 17.2569580078125
6.0634765625 10.5211181640625 34.0382080078125
26.949951171875 3.290283203125 36.7147216796875
-20.6298828125 2.362060546875 17.736083984375
-0.609619140625 13.3116455078125 -19.94287109375
7.595458984375 19.5281982421875 -42.17724609375
-13.44677734375 1.5048828125 15.539306640625
4.200439453125 12.0921630859375 36.115478515625
9.94580078125 21.2728271484375 -48.701904296875
3.111572265625 11.935302734375 -26.4697265625
-29.29443359375 -2.38720703125 29.992431640625
12.3759765625 17.682373046875 -40.030029296875
10.648681640625 17.92626953125 -38.789794921875
5.600341796875 21.6480712890625 -47.586669921875
12.685546875 15.967041015625 -33.3514404296875
6.52978515625 20.37109375 -44.270263671875
16.98193359375 1.95751953125 45.265380859375
4.9677734375 9.6871337890625 32.79345703125
8.99560546875 13.8709716796875 -31.791015625
6.21435546875 14.953369140625 -32.6407470703125
-2.186279296875 20.634033203125 -45.1629638671875
-0.87255859375 20.5198974609375 -46.4007568359375
-7.8876953125 17.6856689453125 -37.366943359375
-3.687744140625 15.5533447265625 -34.0284423828125
-6.240966796875 15.9613037109375 -32.3905029296875
0.13916015625 13.639404296875 -31.106201171875
-7.35400390625 19.220458984375 -44.3975830078125
-6.944580078125 10.5760498046875 -20.9384765625
-20.82373046875 2.8594970703125 13.053466796875
20.368408203125 16.51025390625 -30.5809326171875
-16.0166015625 2.9840087890625 11.3311767578125
-14.2109375 -2.126220703125 29.356201171875
7.969970703125 9.4052734375 36.1641845703125
-15.026123046875 2.0394287109375 14.664306640625
-21.189208984375 0.0810546875 19.2537841796875
-21.7763671875 0.832275390625 15.4842529296875
18.02587890625 17.3758544921875 -37.129638671875
19.694580078125 12.9078369140625 -23.85693359375
11.720458984375 -0.6343994140625 48.4345703125
17.855712890625 12.8106689453125 -21.8125
27.780517578125 5.8948974609375 32.5604248046875
-31.766845703125 1.7586669921875 13.9609375
13.346923828125 16.566162109375 -36.685302734375
8.7666015625 19.02783203125 -40.888916015625
0.535400390625 22.4835205078125 -48.173095703125
14.0185546875 21.6796875 -46.6746826171875
3.21728515625 10.3359375 40.0379638671875
-38.608642578125 -4.8878173828125 27.057373046875
0.280029296875 18.64501953125 -40.16015625
-0.31201171875 19.537109375 -43.07275390625
13.773193359375 -1.181884765625 50.2841796875
-16.78759765625 0.8721923828125 22.4979248046875
-15.193359375 0.1729736328125 21.142822265625
-12.44287109375 -2.410888671875 24.6268310546875
-5.208740234375 17.6387939453125 -40.6591796875
-3.066650390625 14.7552490234375 -31.54150390625
-2.63720703125 8.812255859375 -19.26123046875
-8.056396484375 12.5252685546875 -27.538818359375
-6.569580078125 11.655029296875 -25.880615234375
2.348388671875 21.012939453125 -47.43603515625
-16.608154296875 1.2823486328125 19.125732421875
-6.1181640625 22.0948486328125 -49.035888671875
-19.140625 2.9144287109375 14.961181640625
-12.462646484375 0.141845703125 14.8343505859375
6.50927734375 25.1922607421875 -0.052978515625
20.033447265625 14.20654296875 -21.3885498046875
19.37548828125 23.213623046875 -47.8802490234375
20.231689453125 21.6708984375 -44.1434326171875
15.01025390625 -3.06396484375 51.1761474609375
5.74658203125 12.89599609375 36.9512939453125
5.71533203125 25.17529296875 -5.9556884765625
-7.87158203125 23.74365234375 -50.60302734375
20.969970703125 18.5101318359375 -32.813232421875
-10.924560546875 -1.547119140625 24.1346435546875
-11.1669921875 0.3197021484375 16.7431640625
-20.314208984375 -0.9031982421875 26.485107421875
-6.130859375 13.158935546875 -29.015625
4.567138671875 10.1761474609375 37.4093017578125
19.73828125 14.4285888671875 -27.941162109375
0.662841796875 13.03955078125 -21.2135009765625
25.9619140625 5.9576416015625 34.6669921875
17.333740234375 3.1136474609375 43.8419189453125
-0.474365234375 23.2459716796875 -53.724853515625
18.052734375 -0.3592529296875 49.638916015625
6.709716796875 22.209228515625 -4.293212890625
14.51171875 27.9989013671875 0.7576904296875
13.866455078125 28.8282470703125 -1.82666015625
14.22509765625 29.8603515625 -6.5543212890625
13.159423828125 30.822998046875 -9.1416015625
16.00146484375 28.256103515625 -2.2423095703125
15.010986328125 -1.6087646484375 48.9285888671875
6.09228515625 9.283447265625 39.110107421875
3.646728515625 21.06591796875 -45.6241455078125
20.704345703125 19.0291748046875 -35.3685302734375
3.633544921875 19.3807373046875 -44.5970458984375
13.46875 18.2906494140625 -42.4693603515625
-6.25927734375 23.08837890625 -51.475341796875
-30.757568359375 1.2894287109375 19.5665283203125
4.154296875 16.813720703125 -37.640869140625
-28.4384765625 -2.71044921875 27.370361328125
-6.074462890625 1.5775146484375 -24.389404296875
-29.43994140625 0.109130859375 24.1513671875
18.036376953125 14.60498046875 -30.2041015625
-1.540283203125 22.5875244140625 -52.586669921875
10.33740234375 12.5400390625 -28.042236328125
11.9853515625 12.1597900390625 -27.1353759765625
18.839111328125 17.16357421875 -35.8076171875
27.567626953125 3.980712890625 41.5096435546875
23.9140625 3.771728515625 37.911865234375
22.842041015625 2.0322265625 47.2530517578125
27.872802734375 3.30517578125 35.4530029296875
1.041259765625 8.6715087890625 37.5267333984375
22.080322265625 0.889892578125 44.561279296875
24.259521484375 2.126953125 44.2520751953125
0.964111328125 22.1854248046875 -51.2181396484375
11.07373046875 16.50634765625 -34.2275390625
8.58447265625 17.00634765625 -36.03369140625
10.712646484375 2.169677734375 48.748291015625
16.00732421875 19.48095703125 -41.6903076171875
0.1455078125 20.9456787109375 -48.0020751953125
16.54443359375 16.87158203125 -36.8712158203125
16.136474609375 14.166259765625 -30.4072265625
20.753173828125 1.1484375 49.0322265625
14.5078125 15.9962158203125 -35.8428955078125
10.490478515625 17.4710693359375 -36.7044677734375
12.055908203125 15.458984375 -30.4346923828125
5.60595703125 24.9486083984375 -3.323486328125
-32.048095703125 -0.321533203125 22.914306640625
3.218994140625 18.015869140625 -41.386962890625
9.4697265625 -0.700439453125 48.627197265625
-5.994140625 23.9541015625 -53.9146728515625
9.33544921875 12.2535400390625 -25.555908203125
0.059326171875 18.0103759765625 -37.2529296875
5.2158203125 15.9742431640625 -35.55615234375
7.555908203125 13.6224365234375 -28.89208984375
0.998046875 18.1156005859375 -38.90869140625
11.30419921875 11.4285888671875 -24.7115478515625
11.071533203125 13.498046875 -29.98828125
-0.782470703125 22.218505859375 -51.3082275390625
-0.61083984375 12.7745361328125 -26.5596923828125
1.813720703125 10.7034912109375 -21.1641845703125
-8.072509765625 18.44580078125 -40.2646484375
-6.206298828125 17.353515625 -38.1832275390625
-4.40283203125 16.08056640625 -35.2745361328125
-12.8837890625 -0.92138671875 21.9342041015625
-14.27880859375 3.32177734375 14.1907958984375
-4.54541015625 14.2823486328125 -29.1324462890625
-5.82958984375 9.9234619140625 -19.69482421875
-28.510498046875 1.9404296875 20.38671875
-13.70947265625 0.5975341796875 17.459716796875
-29.278564453125 3.121826171875 11.5042724609375
-26.14111328125 2.31396484375 15.046142578125
-26.788818359375 1.7271728515625 18.3109130859375
-26.19970703125 3.42138671875 10.55078125
4.629638671875 19.9027099609375 -43.5897216796875
-13.560546875 -1.5369873046875 26.077880859375
3.24951171875 13.958984375 -29.1124267578125
-32.8369140625 2.4288330078125 11.8765869140625
-31.896728515625 -1.2205810546875 25.71923828125
2.62109375 20.416015625 -2.3321533203125
13.344482421875 27.3270263671875 5.0499267578125
-10.978271484375 -0.3712158203125 20.0731201171875
13.505126953125 17.0213623046875 -38.7706298828125
26.217529296875 2.45947265625 39.566650390625
27.44482421875 4.8216552734375 33.5828857421875
20.43896484375 19.5479736328125 -37.922607421875
13.958984375 11.4451904296875 -24.5281982421875
1.643310546875 21.4945068359375 -49.991455078125
15.968505859375 -2.8941650390625 49.9798583984375
6.02099609375 22.791748046875 -7.3443603515625
-0.50537109375 14.4149169921875 -32.73486328125
-4.060302734375 21.7310791015625 -47.2532958984375
17.57958984375 20.1455078125 -44.9744873046875
-24.539306640625 3.09326171875 9.74462890625
-20.705322265625 1.8642578125 16.28857421875
2.91748046875 12.0296630859375 31.90380859375
2.791259765625 24.0482177734375 -9.10009765625
-14.10302734375 2.07958984375 12.575439453125
-6.486328125 15.05810546875 -31.275634765625
3.713623046875 8.794921875 39.63427734375
-29.8125 -1.209716796875 27.2291259765625
27.743408203125 3.015869140625 39.882080078125
-31.011474609375 -2.7352294921875 27.98291015625
6.091796875 21.7138671875 -2.216064453125
2.374267578125 10.1707763671875 34.93408203125
-11.165283203125 -0.908935546875 22.5357666015625
6.459716796875 13.06396484375 -25.15966796875
22.058837890625 0.9017333984375 46.8258056640625
18.98193359375 21.8211669921875 -47.6806640625
12.940185546875 19.48681640625 -44.4765625
23.581787109375 2.744140625 40.2918701171875
-20.4296875 0.1544189453125 23.708251953125
4.322265625 7.670166015625 38.9129638671875
-20.454833984375 1.4176025390625 19.2454833984375
19.114990234375 0.228759765625 50.3873291015625
-3.543701171875 18.8406982421875 -43.3760986328125
11.399658203125 25.200439453125 5.3035888671875
0.423583984375 23.884521484375 -47.0950927734375
15.650390625 2.0732421875 46.5198974609375
21.860107421875 1.5721435546875 42.0313720703125
19.734619140625 21.427001953125 -45.520263671875
12.50634765625 22.564697265625 -48.361083984375
6.2705078125 12.5198974609375 -22.6678466796875
7.1064453125 -2.583740234375 52.7314453125
18.784912109375 19.782958984375 -42.78564453125
7.23388671875 -3.83056640625 51.0003662109375
0.953125 10.0782470703125 37.9278564453125
0.12548828125 24.23681640625 -49.65673828125
18.620361328125 17.8416748046875 -38.322021484375
1.218994140625 23.1024169921875 -52.361572265625
-29.863037109375 2.7777099609375 14.3990478515625
-3.418701171875 17.7144775390625 -41.83154296875
2.500732421875 11.3878173828125 -24.883544921875
6.39208984375 18.5084228515625 -39.38232421875
-4.420166015625 14.643310546875 -30.7857666015625
9.606689453125 16.0050048828125 -33.973876953125
-24.90234375 0.0699462890625 14.134521484375
-3.689697265625 9.644775390625 -21.32861328125
14.0947265625 29.485107421875 -4.835205078125
13.8408203125 31.4404296875 -12.5771484375
15.392333984375 30.5322265625 -10.8465576171875
15.64990234375 29.929931640625 -8.69482421875
17.17333984375 18.1978759765625 37.75634765625
16.041259765625 31.055908203125 -13.852294921875
17.908447265625 27.0269775390625 0.3505859375
12.869384765625 31.33154296875 -10.8636474609375
13.02880859375 30.44775390625 -7.4224853515625
7.216064453125 15.239990234375 -35.127197265625
5.7119140625 23.8360595703125 -0.4228515625
-28.59912109375 3.086669921875 17.203125
1.01171875 22.4329833984375 -7.7991943359375
9.86083984375 24.7052001953125 7.7777099609375
9.572021484375 25.21142578125 6.063232421875
16.358154296875 14.8035888671875 -33.3267822265625
4.000244140625 9.33447265625 31.7003173828125
4.718017578125 26.56494140625 -5.728515625
12.1357421875 -2.1195068359375 52.5201416015625
11.17822265625 11.06591796875 -23.05029296875
15.39111328125 20.3587646484375 -43.7603759765625
5.55615234375 8.8245849609375 37.1148681640625
3.492431640625 21.6470947265625 -7.782470703125
12.6181640625 -0.5445556640625 49.9102783203125
5.397216796875 11.2440185546875 31.9205322265625
1.477294921875 21.08544921875 -3.6077880859375
25.774169921875 3.8675537109375 35.8614501953125
1.25634765625 21.7696533203125 -6.1451416015625
4.3984375 22.0567626953125 -48.456298828125
5.473876953125 21.283935546875 -45.91845703125
5.703369140625 19.1302490234375 -41.0538330078125
16.855224609375 20.6795654296875 -46.236572265625
11.43359375 28.29931640625 -1.2266845703125
16.915771484375 18.80029296875 35.6046142578125
16.551513671875 -0.906982421875 49.309814453125
1.29833984375 14.7373046875 -31.262451171875
21.592529296875 19.166748046875 -31.77880859375
-3.0478515625 23.395263671875 -54.70068359375
-2.0595703125 12.392822265625 -24.56640625
23.4072265625 2.2178955078125 41.9281005859375
4.074951171875 10.827880859375 -23.1512451171875
19.1708984375 0.309326171875 47.7015380859375
0.401123046875 9.416259765625 34.525634765625
18.260498046875 13.8831787109375 -29.012939453125
2.07080078125 8.9190673828125 33.64599609375
-15.240234375 1.4761962890625 17.9910888671875
2.986328125 7.6097412109375 37.8604736328125
16.68994140625 11.7548828125 -23.410400390625
18.5390625 1.1212158203125 45.171630859375
15.788330078125 13.1646728515625 -25.819580078125
14.332763671875 21.2755126953125 -45.4154052734375
-14.0830078125 -0.4769287109375 22.38134765625
-1.527587890625 9.7391357421875 -19.4266357421875
-15.16162109375 -0.9654541015625 26.5234375
-15.82763671875 -1.80615234375 27.9752197265625
9.7412109375 -1.2596435546875 49.831787109375
8.330322265625 20.3790283203125 -45.899169921875
10.90185546875 18.6546630859375 -42.1263427734375
10.21240234375 19.2774658203125 -43.800048828125
8.456787109375 20.7432861328125 -47.5673828125
6.856201171875 21.351318359375 -47.9954833984375
13.94140625 15.6702880859375 -33.76025390625
25.9951171875 3.183349609375 38.3988037109375
6.147705078125 13.4647216796875 -26.408447265625
-4.151611328125 22.7664794921875 -51.4090576171875
2.371337890625 16.8753662109375 -35.5753173828125
4.056396484375 15.234375 -30.9931640625
5.681884765625 14.719482421875 -30.9822998046875
3.53076171875 17.615234375 -40.13818359375
1.09619140625 19.6949462890625 -45.556396484375
8.053466796875 12.4583740234375 -24.7335205078125
5.962158203125 14.22802734375 -29.3182373046875
7.429931640625 13.259765625 -27.2308349609375
9.023681640625 12.654296875 -26.8045654296875
2.90380859375 17.1092529296875 -37.2337646484375
7.370361328125 14.3858642578125 -31.802001953125
-12.918212890625 -2.3016357421875 27.67724609375
-20.23779296875 0.817626953125 22.160400390625
-13.180419921875 2.11962890625 10.487548828125
-12.279296875 -0.611328125 17.7049560546875
-4.0400390625 13.0123291015625 -26.7447509765625
-6.862060546875 16.7593994140625 -34.8773193359375
-2.041015625 13.8289794921875 -29.052001953125
-4.96435546875 15.75732421875 -33.20947265625
-3.377197265625 15.154296875 -32.7850341796875
-1.856201171875 13.0687255859375 -26.154296875
-1.6015625 15.093017578125 -34.8419189453125
-6.265625 18.474853515625 -42.735107421875
-4.3740234375 8.9632568359375 -17.624755859375
4.298583984375 18.7384033203125 -42.0682373046875
-16.023681640625 1.6287841796875 16.213134765625
-14.974853515625 -0.4281005859375 24.06201171875
-16.33837890625 -0.5576171875 25.6488037109375
11.265380859375 26.3536376953125 4.6561279296875
-24.294677734375 2.5208740234375 11.78955078125
-25.744873046875 0.901611328125 20.3612060546875
-27.154052734375 3.228759765625 12.5875244140625
-26.01708984375 2.6705322265625 13.4124755859375
-20.98388671875 -1.992431640625 26.1141357421875
-28.0185546875 2.017822265625 18.7113037109375
-27.436279296875 1.1405029296875 21.57568359375
-20.708251953125 -2.4757080078125 27.7506103515625
15.519287109375 29.5545654296875 -6.9757080078125
17.398193359375 17.501708984375 40.3380126953125
13.993408203125 27.8505859375 2.044189453125
13.7685546875 28.546875 -0.537353515625
3.899658203125 10.2431640625 -21.9776611328125
24.103759765625 4.365478515625 36.74560546875
16.194580078125 21.3963623046875 -48.3363037109375
-31.0908203125 2.3685302734375 9.853515625
2.335693359375 22.87548828125 -1.3531494140625
3.658203125 8.3907470703125 36.802001953125
16.54150390625 15.395751953125 -34.51611328125
11.044677734375 20.52001953125 -47.0235595703125
5.986083984375 -1.8582763671875 51.9422607421875
9.0146484375 -2.2445068359375 50.3448486328125
17.528564453125 12.9886474609375 -26.6097412109375
-23.96044921875 0.93017578125 17.92138671875
15.4658203125 1.4830322265625 47.6766357421875
-30.64111328125 -1.3587646484375 25.3660888671875
-38.968994140625 -0.678466796875 12.2457275390625
21.517333984375 3.3980712890625 40.2779541015625
19.14208984375 15.3271484375 -30.8746337890625
-30.203857421875 1.7347412109375 18.43408203125
21.20361328125 17.89892578125 -29.8360595703125
13.083251953125 2.5804443359375 47.76611328125
11.099365234375 -1.080322265625 51.83642578125
25.644287109375 2.1295166015625 41.6749267578125
9.9951171875 26.55224609375 2.3369140625
-6.458740234375 20.9110107421875 -46.65673828125
-6.3916015625 22.65576171875 -50.2567138671875
-26.26513671875 1.957275390625 16.679931640625
4.598388671875 12.697509765625 -24.9217529296875
14.251220703125 13.9549560546875 -27.081787109375
21.497314453125 17.5184326171875 -26.3701171875
20.747314453125 2.3709716796875 41.7049560546875
2.4833984375 21.4462890625 -48.6572265625
4.693603515625 22.8575439453125 -7.4300537109375
-28.70166015625 -0.0699462890625 26.7877197265625
15.77587890625 15.76806640625 -35.8040771484375
1.51513671875 12.4715576171875 -27.3406982421875
-17.65673828125 3.3388671875 11.278076171875
0.547119140625 23.865234375 -53.1480712890625
13.280029296875 15.0711669921875 -30.426513671875
15.19775390625 12.7032470703125 -24.6380615234375
-4.395263671875 11.7095947265625 -25.2906494140625
6.42431640625 17.05712890625 -37.8931884765625
-19.178466796875 0.24267578125 26.0400390625
4.71484375 15.8309326171875 -34.31298828125
8.08837890625 13.8564453125 -30.550537109375
-0.111572265625 10.2041015625 -18.7979736328125
-2.9931640625 16.3057861328125 -37.3043212890625
-0.92138671875 13.173583984375 -27.8031005859375
-3.286376953125 14.1231689453125 -28.6466064453125
0.568359375 10.9976806640625 -20.7587890625
-7.978515625 18.7166748046875 -41.50537109375
-1.947021484375 14.099853515625 -30.292724609375
0.38671875 13.059814453125 -29.03564453125
-6.112060546875 17.6243896484375 -39.423828125
-37.8271484375 0.69140625 11.4146728515625
9.720947265625 -1.185302734375 52.5577392578125
0.79541015625 16.01318359375 -33.661865234375
15.31396484375 18.6231689453125 -41.002197265625
-31.704833984375 1.873046875 12.6981201171875
-1.507568359375 15.36376953125 -36.0826416015625
5.69580078125 7.71337890625 37.70849609375
3.65234375 25.6572265625 -9.1390380859375
-16.56982421875 2.7274169921875 13.8328857421875
3.497802734375 13.3778076171875 -27.0364990234375
5.1142578125 21.464111328125 -1.454345703125
-12.408447265625 -1.0321044921875 18.889892578125
-13.46728515625 -1.2684326171875 24.8475341796875
-18.552490234375 3.324462890625 12.5030517578125
-29.77734375 0.3505859375 22.8802490234375
-12.63623046875 1.0218505859375 12.868408203125
18.68017578125 3.063720703125 43.05908203125
-30.970703125 1.94970703125 17.1182861328125
-27.37109375 2.6044921875 15.446533203125
-21.404541015625 1.9022216796875 10.5830078125
-28.476806640625 3.2518310546875 14.213134765625
7.36572265625 24.9483642578125 -0.9407958984375
19.975341796875 18.029541015625 -35.587158203125
15.934326171875 13.552001953125 -28.3544921875
17.21533203125 13.39111328125 -27.864013671875
19.430908203125 13.425537109375 -26.4005126953125
10.05126953125 14.4971923828125 -32.0438232421875
3.106201171875 11.253173828125 34.863525390625
19.5390625 4.409423828125 41.7364501953125
15.32373046875 28.9915771484375 -4.39697265625
14.8740234375 30.384033203125 -9.56005859375
16.03076171875 26.9969482421875 2.91796875
-30.6064453125 0.1993408203125 21.021484375
12.12255859375 30.5264892578125 -6.5684814453125
15.773193359375 27.5992431640625 0.7662353515625
14.7470703125 31.3616943359375 -13.4310302734375
13.06494140625 31.89453125 -13.4423828125
11.640380859375 31.824951171875 -11.3018798828125
16.77734375 27.802001953125 -1.3770751953125
16.298583984375 30.4534912109375 -11.7005615234375
14.61669921875 30.986328125 -11.7117919921875
-26.376708984375 4.4931640625 9.93994140625
20.173828125 20.0665283203125 -40.4752197265625
6.47216796875 12.1727294921875 35.9071044921875
19.863525390625 20.4228515625 -43.055419921875
0.820068359375 10.9696044921875 33.6580810546875
17.734375 -2.9111328125 51.5155029296875
-39.4833984375 -2.362060546875 17.76806640625
13.83642578125 19.5977783203125 -43.103515625
-19.053955078125 0.600830078125 24.3995361328125
-19.827392578125 3.334228515625 11.95751953125
13.721435546875 -1.300537109375 51.595703125
11.742919921875 15.861328125 -31.688720703125
6.16162109375 25.2608642578125 -4.5579833984375
-1.185791015625 23.8468017578125 -54.5367431640625
6.884521484375 20.1295166015625 -42.9879150390625
28.205810546875 2.9635009765625 37.1959228515625
-19.2373046875 1.354736328125 21.52587890625
21.95458984375 4.81005859375 38.47265625
25.421630859375 2.8531494140625 40.5081787109375
0.746826171875 21.6239013671875 -4.880615234375
7.36767578125 10.312744140625 33.20166015625
16.914794921875 3.2843017578125 45.208740234375
-3.645751953125 17.0137939453125 -39.378173828125
19.7421875 0.63818359375 45.6005859375
17.60693359375 1.041259765625 45.9549560546875
-5.424560546875 12.5662841796875 -28.2176513671875
1.94775390625 22.6417236328125 -50.6639404296875
11.17919921875 0.58935546875 47.855712890625
13.262451171875 22.1221923828125 -47.5179443359375
-7.8798828125 22.1072998046875 -48.271240234375
-30.263427734375 2.4588623046875 11.246826171875
12.1865234375 19.9281005859375 -45.3172607421875
13.530029296875 14.486572265625 -28.33837890625
15.823486328125 14.5687255859375 -31.6612548828125
11.091796875 19.2010498046875 -44.6287841796875
7.450927734375 20.4554443359375 -45.070556640625
13.846435546875 15.3970947265625 -32.509033203125
15.257080078125 14.24267578125 -29.57861328125
11.3251953125 25.0657958984375 7.5306396484375
7.906005859375 17.697265625 -37.2586669921875
-0.08984375 23.2872314453125 -50.6776123046875
5.361572265625 17.897705078125 -39.980712890625
21.027099609375 0.3656005859375 44.2945556640625
10.025634765625 12.9407958984375 -29.2908935546875
2.46923828125 18.4547119140625 -42.2230224609375
7.177734375 12.5345458984375 -23.9083251953125
0.9384765625 19.2415771484375 -43.4798583984375
0.37451171875 18.9169921875 -41.406005859375
-4.81005859375 22.1697998046875 -48.08935546875
2.2138671875 16.4219970703125 -33.498779296875
5.08642578125 14.30419921875 -28.4931640625
8.80322265625 12.01953125 -23.8973388671875
7.12158203125 14.9678955078125 -33.8812255859375
5.398193359375 13.9034423828125 -27.2445068359375
-19.11279296875 1.7127685546875 19.8853759765625
-1.63330078125 19.5819091796875 -42.279052734375
-24.99951171875 3.10546875 11.00927734375
-3.342041015625 9.4033203125 -20.05615234375
-4.18310546875 16.7125244140625 -38.1695556640625
0.4775390625 12.02880859375 -24.897216796875
-2.194580078125 14.679443359375 -32.36328125
-21.009033203125 -0.73291015625 21.66357421875
-5.459716796875 16.91650390625 -37.3505859375
-5.1494140625 16.5174560546875 -36.107177734375
1.53466796875 11.1927490234375 -22.8211669921875
-11.755859375 -2.8974609375 27.1826171875
5.246337890625 23.167724609375 -8.65966796875
-6.912841796875 13.4373779296875 -29.8775634765625
-2.328125 8.4149169921875 -18.0230712890625
-7.18798828125 12.44970703125 -28.3570556640625
-4.55810546875 9.7203369140625 -20.5103759765625
-7.31298828125 12.090087890625 -26.709716796875
-3.505615234375 8.8878173828125 -18.4429931640625
-11.6826171875 3.031494140625 11.2862548828125
26.855224609375 5.8800048828125 33.825439453125
-14.297607421875 0.1873779296875 19.9178466796875
5.600830078125 23.16796875 -3.718994140625
-12.1943359375 -1.695556640625 21.35009765625
9.2001953125 26.8580322265625 0.5357666015625
16.27490234375 17.4351806640625 -38.0975341796875
-15.902587890625 0.6959228515625 19.906982421875
-26.051513671875 1.295654296875 19.1331787109375
-21.5693359375 -2.4007568359375 28.56201171875
19.290771484375 12.99267578125 -25.180419921875
-32.315673828125 2.657958984375 10.252197265625
7.12060546875 -4.328125 49.486083984375
-4.809326171875 20.6748046875 -44.876220703125
-25.04736328125 1.1597900390625 12.6724853515625
-30.3935546875 -0.460205078125 23.4671630859375
14.884521484375 -0.5159912109375 48.35302734375
13.78857421875 12.388671875 -25.229736328125
12.9296875 10.9136962890625 -24.70068359375
10.236328125 13.6202392578125 -30.8887939453125
-24.721923828125 -0.7412109375 16.536865234375
-30.84716796875 2.1785888671875 14.5870361328125
0.798583984375 23.4725341796875 -48.870849609375
0.84619140625 21.8922119140625 -49.111328125
-0.733642578125 16.615966796875 -37.1109619140625
4.94091796875 25.8748779296875 -3.1693115234375
15.127197265625 12.5655517578125 -22.4857177734375
18.437255859375 15.8829345703125 -33.0029296875
-3.03857421875 13.5435791015625 -26.5760498046875
-20.349853515625 3.16748046875 14.046875
11.80517578125 11.5718994140625 -25.9547119140625
-11.52294921875 -2.0830078125 25.6812744140625
28.827392578125 3.5726318359375 39.2462158203125
16.624267578125 0.8428955078125 48.052490234375
13.845703125 -2.4923095703125 50.3311767578125
10.94482421875 21.7296142578125 -48.142333984375
0.1611328125 22.6739501953125 -6.9210205078125
2.6884765625 21.93017578125 -8.6712646484375
25.24267578125 6.606689453125 35.2352294921875
25.61376953125 4.81787109375 35.213623046875
10.79443359375 -0.7135009765625 49.21337890625
-16.14501953125 2.561767578125 12.519287109375
2.1240234375 20.1898193359375 -46.7142333984375
13.1552734375 18.693359375 -43.7239990234375
4.347900390625 20.1473388671875 -2.70361328125
14.031494140625 18.7816162109375 -41.48681640625
-7.943603515625 20.10888671875 -47.298095703125
-11.59130859375 1.712890625 12.2664794921875
-5.37158203125 2.7313232421875 -23.68505859375
5.494140625 10.482666015625 40.30859375
8.802490234375 16.216796875 -35.2899169921875
-2.197998046875 17.5819091796875 -39.193603515625
10.3603515625 26.3057861328125 3.6666259765625
11.73828125 29.2166748046875 -4.619384765625
19.73046875 17.2030029296875 -34.8721923828125
18.231689453125 16.6292724609375 -35.065673828125
-0.04296875 23.3282470703125 -52.39599609375
13.6435546875 17.45458984375 -39.9923095703125
5.839111328125 9.87548828125 36.9952392578125
4.818603515625 11.9146728515625 -24.1898193359375
17.74169921875 15.03076171875 -32.3270263671875
-20.6943359375 -0.938720703125 24.2537841796875
8.7216796875 -1.6124267578125 51.8638916015625
6.39208984375 21.0419921875 -3.683349609375
-6.70068359375 21.5614013671875 -48.2901611328125
13.1875 -0.216796875 47.8165283203125
-3.552978515625 20.4490966796875 -44.8399658203125
-39.091796875 -3.757080078125 23.017822265625
3.993408203125 23.489990234375 -9.1298828125
-30.056884765625 -0.7015380859375 24.7366943359375
6.372802734375 9.9342041015625 32.998779296875
3.28759765625 11.1080322265625 -24.017578125
0.166748046875 10.3203125 35.66357421875
2.16650390625 9.194580078125 32.384033203125
-38.7890625 -4.1463623046875 24.230712890625
6.984619140625 9.0953369140625 36.4302978515625
6.46630859375 15.6787109375 -35.9632568359375
13.500732421875 11.459716796875 -23.2496337890625
-5.36083984375 11.2720947265625 -25.8724365234375
1.9443359375 15.5601806640625 -31.0701904296875
18.567626953125 19.0943603515625 -41.16748046875
18.220947265625 15.197998046875 -31.393798828125
19.45947265625 19.1353759765625 -40.2354736328125
-1.80615234375 18.9906005859375 -41.091552734375
-1.017822265625 18.7117919921875 -40.226806640625
-20.75048828125 0.2330322265625 20.20703125
-2.90576171875 19.6695556640625 -43.203125
-4.500732421875 18.5294189453125 -43.0526123046875
