23.00830078125 16.6739501953125 -37.705078125
8.2724609375 21.430908203125 -3.0802001953125
28.040283203125 -0.9644775390625 37.467529296875
18.12158203125 -3.79296875 45.9443359375
1.341064453125 14.35205078125 -43.0816650390625
1.44580078125 17.8541259765625 -48.507080078125
17.131591796875 18.886962890625 -48.63916015625
13.02880859375 22.7027587890625 0.3477783203125
-2.4921875 14.7464599609375 -42.83251953125
5.7626953125 24.2633056640625 -0.7989501953125
1.945068359375 10.133544921875 31.7685546875
14.3154296875 28.4088134765625 -12.270751953125
24.257568359375 -1.245361328125 43.8021240234375
11.046630859375 -5.18017578125 46.968017578125
15.8681640625 24.8577880859375 -0.248291015625
1.939453125 12.0089111328125 -37.423095703125
3.06005859375 9.8992919921875 38.65087890625
11.798095703125 25.814208984375 -10.3414306640625
10.026123046875 13.505126953125 29.48583984375
15.45751953125 -6.6614990234375 51.047607421875
-9.541015625 -1.9244384765625 9.345947265625
11.90771484375 20.792724609375 8.404296875
21.74169921875 0.6318359375 37.296630859375
5.10498046875 6.7042236328125 31.9705810546875
7.302001953125 9.57373046875 45.882080078125
11.169921875 7.4034423828125 49.74755859375
4.46826171875 15.994873046875 24.1728515625
14.253662109375 15.1785888671875 -42.0718994140625
2.005126953125 21.545654296875 -53.0450439453125
2.146728515625 10.0443115234375 -29.9937744140625
19.50732421875 -2.2359619140625 42.5133056640625
5.668701171875 20.8623046875 -12.4095458984375
8.106689453125 15.02001953125 -44.6788330078125
2.83935546875 16.6826171875 -45.59228515625
-0.900146484375 20.167236328125 -54.74658203125
-36.229736328125 -4.75390625 13.8338623046875
-30.087646484375 -7.9063720703125 24.813720703125
-30.398681640625 -2.7244873046875 14.9815673828125
-6.461181640625 10.212158203125 -31.4534912109375
3.347900390625 24.37060546875 -10.900390625
-3.5947265625 8.2349853515625 -26.4580078125
-15.736572265625 -3.1124267578125 20.6953125
-17.884033203125 -1.6134033203125 17.3997802734375
-11.650146484375 -2.9046630859375 15.008544921875
-12.11328125 -5.4849853515625 25.642822265625
16.599853515625 14.6475830078125 32.7828369140625
13.7353515625 -3.64111328125 44.14990234375
10.50390625 9.4580078125 42.5140380859375
16.482421875 17.31591796875 28.488037109375
-24.6025390625 -1.5157470703125 14.143798828125
-36.54150390625 -8.649658203125 24.78857421875
-6.078369140625 18.7264404296875 -52.715087890625
3.173583984375 18.912841796875 -54.704833984375
-27.7509765625 -4.97705078125 23.3160400390625
30.750732421875 0.2703857421875 30.8583984375
-18.12060546875 -5.80615234375 23.175048828125
3.277587890625 18.76171875 -8.6187744140625
8.4501953125 10.819091796875 -29.374755859375
14.1533203125 9.0628662109375 -29.31640625
6.916015625 14.15478515625 -40.5782470703125
18.06591796875 -7.11328125 47.567626953125
7.802490234375 27.6295166015625 -13.4119873046875
8.01171875 22.8365478515625 3.5784912109375
8.656494140625 10.78857421875 39.5194091796875
9.5849609375 6.68017578125 31.06298828125
10.292236328125 24.131103515625 -2.7127685546875
-37.726806640625 -4.353515625 22.0474853515625
1.144287109375 23.655029296875 -1.7923583984375
16.95556640625 25.291259765625 -3.23876953125
3.94482421875 7.0643310546875 28.3385009765625
26.45556640625 -0.344970703125 34.7664794921875
-36.505615234375 -7.375732421875 19.1063232421875
-27.66162109375 -2.1405029296875 12.7999267578125
3.0986328125 12.9007568359375 -40.2041015625
6.899169921875 13.58984375 29.1959228515625
-20.67236328125 1.8634033203125 7.1414794921875
14.462158203125 12.728759765625 45.822509765625
21.72900390625 10.95361328125 -28.8154296875
21.041748046875 12.8726806640625 -35.494384765625
21.040283203125 12.0 -24.2528076171875
20.910400390625 15.27587890625 -41.17431640625
1.53076171875 22.1217041015625 3.7379150390625
7.880126953125 17.8408203125 13.6275634765625
7.834716796875 12.91748046875 -36.839599609375
3.718505859375 17.8966064453125 -51.3843994140625
7.41064453125 18.722900390625 -50.5816650390625
7.329833984375 8.2581787109375 -27.807373046875
19.916748046875 16.3299560546875 -44.107421875
20.34423828125 -3.7200927734375 48.0333251953125
9.952880859375 -0.79736328125 48.2906494140625
17.732421875 13.4683837890625 -39.53955078125
13.36865234375 17.8609619140625 -50.7900390625
6.569580078125 21.1712646484375 -9.5791015625
1.0576171875 24.4930419921875 -7.91064453125
12.6953125 8.76953125 -26.4307861328125
2.856201171875 27.8870849609375 -11.49072265625
-23.837158203125 -0.604248046875 9.6690673828125
14.9375 26.09912109375 -5.4884033203125
17.296875 14.321533203125 39.216552734375
-30.66845703125 -0.9796142578125 8.4857177734375
12.472412109375 18.4334716796875 16.948974609375
7.2734375 6.636962890625 33.989501953125
18.458984375 8.937744140625 -25.528076171875
-27.132080078125 -2.4625244140625 20.18310546875
5.1025390625 -3.6717529296875 53.1431884765625
-35.1015625 -5.73486328125 23.64501953125
27.68603515625 3.744873046875 31.126953125
-18.122802734375 0.240478515625 10.441162109375
5.05224609375 10.8736572265625 40.5394287109375
10.686279296875 12.039306640625 -36.8104248046875
22.484130859375 13.548828125 -31.3131103515625
13.26318359375 16.22900390625 -44.994873046875
13.452392578125 -6.0128173828125 48.77197265625
-12.593994140625 -0.1060791015625 9.991943359375
5.724609375 15.9002685546875 -45.9771728515625
15.377197265625 14.97021484375 29.994873046875
9.82470703125 19.8837890625 -9.163330078125
-4.137451171875 9.18115234375 -30.1968994140625
-33.758056640625 -1.8482666015625 7.52392578125
5.5205078125 18.6103515625 -10.703125
16.952392578125 26.609130859375 -8.3843994140625
7.94970703125 -6.448486328125 52.07421875
-11.18310546875 -3.1893310546875 11.4697265625
11.099853515625 22.4619140625 2.8458251953125
-19.361328125 -3.025390625 13.7899169921875
-30.175048828125 -0.947021484375 18.569091796875
3.830322265625 7.394287109375 36.589111328125
-17.11767578125 -6.74072265625 25.63037109375
-26.49169921875 -1.4713134765625 7.4420166015625
18.4150390625 15.3505859375 42.8975830078125
13.681640625 29.262451171875 -14.85009765625
12.326904296875 14.7218017578125 -40.107421875
1.98583984375 8.106689453125 46.2049560546875
14.059326171875 12.3720703125 38.739501953125
6.040771484375 17.4793701171875 -6.9046630859375
7.831298828125 6.8450927734375 51.49365234375
13.641845703125 10.1748046875 -33.0509033203125
6.067626953125 16.59033203125 19.938232421875
22.811767578125 11.8162841796875 -26.3616943359375
6.867919921875 11.2607421875 -32.0135498046875
2.40478515625 6.677734375 51.28857421875
5.840087890625 4.64501953125 55.1331787109375
15.171875 12.5936279296875 -33.7740478515625
1.308837890625 20.08349609375 -56.3536376953125
5.4765625 7.788818359375 46.9443359375
3.671630859375 7.99072265625 -23.788818359375
11.042236328125 15.4073486328125 26.02197265625
3.56494140625 10.2412109375 -32.4549560546875
9.166259765625 14.228759765625 -42.1497802734375
-0.223388671875 10.921875 -31.2900390625
-33.59912109375 -4.1907958984375 13.81787109375
5.89453125 23.210693359375 1.6728515625
4.4462890625 8.9136962890625 -28.3197021484375
-20.4248046875 -4.78369140625 21.928955078125
16.946533203125 29.2447509765625 -18.6759033203125
-30.310546875 -0.0709228515625 15.3077392578125
-25.539306640625 -6.5057373046875 23.959228515625
15.880126953125 10.937255859375 42.1737060546875
2.406982421875 19.3494873046875 13.5242919921875
-3.162841796875 35.0992431640625 -41.370849609375
5.614013671875 19.3004150390625 10.6279296875
8.64990234375 16.0802001953125 19.5885009765625
21.574951171875 18.851318359375 -48.80224609375
18.97998046875 15.1201171875 34.088134765625
-36.292236328125 -3.7579345703125 9.352783203125
-10.87548828125 -6.1072998046875 22.5037841796875
-5.8896484375 21.385498046875 -53.5545654296875
18.009033203125 11.67919921875 -32.87890625
5.411376953125 27.2799072265625 -11.423828125
-10.47705078125 -5.0330810546875 17.1502685546875
2.173583984375 20.681884765625 -50.57666015625
5.837158203125 5.94580078125 50.0538330078125
4.08544921875 13.122314453125 29.2314453125
22.22119140625 18.2138671875 -44.934814453125
17.746337890625 19.33935546875 -51.14013671875
2.66845703125 20.2994384765625 -5.1722412109375
15.007080078125 13.45556640625 -36.2386474609375
0.55615234375 11.9051513671875 33.06884765625
11.2314453125 11.0230712890625 -33.4898681640625
-3.4501953125 20.5023193359375 -54.414794921875
7.121337890625 20.0662841796875 -6.6514892578125
13.911376953125 15.914306640625 25.07568359375
16.52783203125 28.0567626953125 -13.534423828125
0.378662109375 5.4769287109375 -21.11083984375
-3.02294921875 7.2606201171875 -24.02197265625
21.181640625 -1.2734375 38.913818359375
9.796875 26.6875 -12.1107177734375
5.15966796875 17.9578857421875 15.677978515625
9.287841796875 8.6358642578125 47.177734375
-31.303466796875 -5.5767822265625 24.51953125
9.712646484375 16.90771484375 21.745849609375
9.26171875 18.3148193359375 17.5272216796875
-9.809814453125 -4.40234375 13.8895263671875
9.8408203125 20.158203125 12.6053466796875
-32.8671875 -5.8642578125 19.4833984375
4.1337890625 4.753662109375 33.54296875
-14.732421875 -2.7933349609375 18.25048828125
-28.92333984375 -4.95263671875 20.583984375
24.7412109375 -2.925537109375 39.6829833984375
-4.4619140625 12.5849609375 -36.892333984375
7.3310546875 19.351806640625 -4.109619140625
8.678955078125 -2.12646484375 49.981201171875
10.842529296875 17.0809326171875 -45.435791015625
15.40576171875 27.5244140625 -10.115478515625
12.544921875 17.3184814453125 21.21923828125
9.14013671875 14.841064453125 23.845703125
0.761962890625 9.9427490234375 -27.94482421875
-14.517333984375 -6.6878662109375 25.035400390625
-27.5712890625 -2.93408203125 17.8160400390625
-4.11181640625 18.039794921875 -50.9854736328125
16.11328125 -6.0543212890625 48.604736328125
17.949951171875 17.1214599609375 -46.2763671875
-25.638671875 -0.67529296875 12.095703125
-20.560302734375 -3.90771484375 18.6676025390625
4.18896484375 9.37841796875 42.2689208984375
14.993408203125 17.455078125 -49.019287109375
-4.577880859375 10.4735107421875 -34.7213134765625
17.681396484375 -0.7777099609375 41.8720703125
16.025390625 15.0589599609375 -43.71826171875
25.651611328125 1.4735107421875 32.9654541015625
5.07568359375 21.30615234375 -55.0654296875
12.6484375 9.1043701171875 43.5523681640625
-2.693359375 14.1748046875 -40.35888671875
-2.243896484375 9.690185546875 -31.6854248046875
22.490478515625 14.89892578125 -35.8812255859375
-32.765869140625 -6.826416015625 23.121826171875
18.790283203125 12.610107421875 -37.4482421875
3.166015625 14.8372802734375 -41.57177734375
-0.048828125 18.738525390625 -50.179931640625
1.884033203125 22.7283935546875 -4.207763671875
12.27001953125 15.2176513671875 29.75537109375
12.260986328125 19.1541748046875 14.38525390625
6.444091796875 12.8154296875 -34.781982421875
9.4951171875 9.2247314453125 44.6292724609375
6.488525390625 15.1551513671875 25.0438232421875
-21.908203125 -0.0390625 6.51611328125
-36.12841796875 -5.714111328125 17.4647216796875
-28.743896484375 -1.72314453125 9.7672119140625
1.009765625 10.5738525390625 37.7294921875
3.06494140625 5.932861328125 53.41162109375
15.963623046875 -3.590576171875 44.8646240234375
6.667724609375 23.4473876953125 -9.0447998046875
-3.17578125 21.398193359375 -56.8416748046875
19.357666015625 10.2811279296875 -30.437744140625
6.687744140625 4.3087158203125 33.6732177734375
19.21142578125 18.28564453125 -49.4832763671875
7.09912109375 7.44580078125 31.0374755859375
-26.872802734375 0.7939453125 7.1492919921875
7.40966796875 -7.2137451171875 47.241455078125
4.853759765625 5.4986572265625 29.7733154296875
9.433349609375 11.0465087890625 -31.4365234375
12.049072265625 9.498779296875 -28.5091552734375
14.34619140625 -4.5323486328125 46.19091796875
-11.3115234375 -4.47509765625 20.74072265625
12.358154296875 27.956787109375 -11.168212890625
12.860595703125 13.5748291015625 -37.672607421875
1.5830078125 8.8416748046875 33.6142578125
-38.42431640625 -4.1065673828125 8.6217041015625
-4.031494140625 6.940185546875 -21.5670166015625
-6.12109375 8.63525390625 -25.6973876953125
13.365478515625 22.4810791015625 3.0474853515625
9.3544921875 21.4696044921875 8.80517578125
-0.839111328125 17.5535888671875 -47.40771484375
7.3798828125 5.2301025390625 53.205810546875
16.659912109375 16.4930419921875 31.491455078125
10.99755859375 -5.196044921875 49.219970703125
23.748046875 -0.284912109375 36.3165283203125
19.09814453125 24.7412109375 -3.6456298828125
9.783203125 -6.6884765625 45.8787841796875
16.26220703125 12.0216064453125 37.481201171875
28.77392578125 -0.1558837890625 34.157470703125
6.3623046875 17.1907958984375 -4.7100830078125
-3.583740234375 36.534423828125 -46.476318359375
3.239990234375 20.3985595703125 8.4315185546875
13.046142578125 12.1376953125 40.8638916015625
3.6171875 22.78466796875 -1.3419189453125
3.830810546875 20.7606201171875 6.3121337890625
5.61083984375 9.8321533203125 43.9422607421875
6.283203125 6.5308837890625 37.035888671875
10.39306640625 20.35595703125 10.4302978515625
11.78759765625 -4.203369140625 45.1094970703125
26.482421875 -1.6016845703125 38.922119140625
6.955078125 20.685546875 6.5711669921875
2.5830078125 11.2828369140625 -35.3533935546875
22.8173828125 -3.1925048828125 43.0213623046875
1.74169921875 8.7235107421875 44.0860595703125
-22.75537109375 -3.6241455078125 9.37841796875
22.6796875 16.961181640625 -39.869873046875
11.949462890625 23.6517333984375 -1.328125
17.189208984375 15.3424072265625 35.356201171875
3.182373046875 11.398681640625 30.452880859375
3.689453125 21.674560546875 2.909912109375
16.2314453125 14.3565673828125 -41.2193603515625
14.47607421875 13.5550537109375 33.6204833984375
10.506591796875 22.0982666015625 4.974365234375
6.73095703125 22.5771484375 -2.0308837890625
-35.45361328125 -1.5804443359375 9.1688232421875
5.058837890625 16.35693359375 22.053466796875
4.9521484375 17.3690185546875 18.2264404296875
7.40478515625 10.24951171875 29.17578125
10.67041015625 17.87939453125 -48.350341796875
8.658935546875 18.6053466796875 -48.7869873046875
2.83251953125 8.1143798828125 29.89453125
-1.610595703125 12.088134765625 -34.19189453125
16.12255859375 8.244384765625 -28.467529296875
4.845458984375 14.686279296875 -40.18505859375
3.078125 16.078857421875 -43.51806640625
19.621337890625 -3.3173828125 44.4481201171875
12.7763671875 -0.5302734375 44.59765625
2.27734375 18.5303955078125 -6.521728515625
1.25390625 9.95703125 39.848388671875
3.966064453125 19.41259765625 -11.9833984375
-4.083984375 16.6094970703125 -48.2130126953125
-4.419677734375 15.65673828125 -44.0902099609375
-4.688232421875 14.8946533203125 -40.7919921875
-2.050048828125 13.4486083984375 -38.2891845703125
-0.531005859375 13.9312744140625 -41.9871826171875
0.1826171875 12.1275634765625 -35.79052734375
-0.05517578125 12.728759765625 -37.8560791015625
7.1591796875 16.2261962890625 -47.559814453125
-18.364501953125 -3.7283935546875 18.0614013671875
-9.5380859375 -0.19384765625 8.06201171875
14.983642578125 16.67822265625 26.7760009765625
-35.412109375 -2.7884521484375 13.1708984375
-14.7958984375 -4.2398681640625 23.978515625
-13.69189453125 -3.6373291015625 20.30712890625
9.80810546875 -6.2001953125 51.0125732421875
19.37158203125 11.6856689453125 -34.5294189453125
16.744873046875 13.239990234375 -37.4691162109375
8.9296875 19.3739013671875 -52.1131591796875
-22.566162109375 -2.03857421875 13.757080078125
-21.566162109375 -1.720703125 11.3223876953125
-25.168701171875 -1.86279296875 16.1754150390625
1.71728515625 7.14111328125 -23.6854248046875
7.08447265625 14.633056640625 -42.6483154296875
-2.085693359375 19.36572265625 -50.2008056640625
3.415283203125 17.0355224609375 -47.658203125
0.8486328125 15.779541015625 -44.5853271484375
-24.873291015625 0.236328125 7.62109375
-18.786376953125 -0.568359375 12.344482421875
-6.173583984375 14.50732421875 -37.5062255859375
-6.179443359375 17.04345703125 -47.4091796875
4.68408203125 8.3125 -26.254150390625
-10.639892578125 -6.70263671875 24.5489501953125
6.589599609375 -6.708984375 50.474365234375
-6.2939453125 10.6865234375 -33.5062255859375
-3.059326171875 8.4285888671875 -28.542236328125
-0.768798828125 14.5325927734375 -44.052734375
-38.091064453125 -5.6513671875 14.2601318359375
-36.06005859375 -6.767333984375 21.4986572265625
28.46875 1.7064208984375 30.1458740234375
-13.56201171875 -1.9432373046875 14.21630859375
-20.59912109375 -1.4970703125 9.2947998046875
-34.73388671875 -4.764892578125 18.748779296875
-25.599609375 -3.0859375 21.468505859375
21.9072265625 12.9385986328125 -33.230712890625
7.95458984375 21.481689453125 -8.0469970703125
12.110107421875 24.0084228515625 -4.4019775390625
-35.346923828125 -6.652099609375 25.520263671875
19.08154296875 16.249755859375 44.6456298828125
-28.873046875 -3.3455810546875 16.260498046875
8.65576171875 3.242431640625 53.6029052734375
-28.542236328125 -6.5863037109375 24.4998779296875
-35.292724609375 -3.9239501953125 15.462646484375
19.644287109375 -6.1937255859375 48.5018310546875
4.203857421875 12.4591064453125 -36.3118896484375
2.10986328125 23.1439208984375 -9.0372314453125
8.318359375 5.179931640625 30.4844970703125
10.203857421875 -3.36376953125 46.56640625
10.23974609375 14.15966796875 27.4117431640625
23.76220703125 15.03466796875 -30.0445556640625
7.3603515625 20.726806640625 8.8880615234375
7.302001953125 18.9852294921875 12.0615234375
10.6767578125 9.9488525390625 40.390380859375
-3.607177734375 12.744873046875 -35.070556640625
6.914306640625 22.2022705078125 5.1385498046875
2.14599609375 25.1265869140625 -9.4749755859375
10.033203125 6.622802734375 51.20654296875
8.34765625 23.6856689453125 -1.6253662109375
6.2509765625 7.4630126953125 48.7608642578125
8.2021484375 8.412841796875 -25.9693603515625
16.505126953125 9.5753173828125 -29.9132080078125
-18.841552734375 -2.3062744140625 15.7930908203125
7.62890625 27.1365966796875 -11.2789306640625
24.824951171875 -2.5286865234375 41.633544921875
17.602294921875 -2.52587890625 44.4822998046875
17.548828125 -5.8551025390625 46.113525390625
1.764892578125 19.793701171875 -9.395751953125
-26.7529296875 -1.0408935546875 17.5675048828125
1.726806640625 5.709716796875 32.678955078125
2.351318359375 8.51806640625 35.4144287109375
21.767578125 15.2806396484375 -39.3658447265625
15.542236328125 29.23828125 -16.9749755859375
7.169189453125 9.174560546875 -29.8040771484375
11.203857421875 0.50048828125 47.490234375
4.734130859375 22.5635986328125 -12.0980224609375
5.789306640625 20.424072265625 -3.5322265625
11.20703125 21.4454345703125 6.6893310546875
20.46630859375 9.64453125 -27.8604736328125
23.3359375 -1.2215576171875 45.533447265625
18.0224609375 15.8699951171875 -44.313232421875
8.74853515625 20.7568359375 -11.290771484375
-1.072998046875 7.711669921875 -28.111083984375
12.14404296875 7.5386962890625 48.05712890625
1.28564453125 22.7410888671875 1.60986328125
6.733642578125 14.5357666015625 27.1717529296875
8.9013671875 10.169189453125 41.6474609375
8.233154296875 18.9910888671875 -8.1573486328125
1.75439453125 23.84375 -6.2049560546875
3.325439453125 5.255859375 35.42333984375
3.833740234375 19.4541015625 11.413330078125
8.4814453125 18.6365966796875 15.7176513671875
19.314453125 14.3385009765625 -40.580078125
-2.6962890625 15.4429931640625 -45.3104248046875
16.25537109375 13.4964599609375 34.705322265625
6.525634765625 18.9075927734375 -12.338623046875
30.1962890625 1.3905029296875 29.320068359375
19.720703125 -1.5943603515625 40.4710693359375
15.1376953125 23.9217529296875 1.2821044921875
29.784912109375 0.1363525390625 32.5343017578125
12.698974609375 29.1260986328125 -13.1448974609375
22.901611328125 -1.588134765625 38.0914306640625
3.4794921875 5.4921875 31.4378662109375
13.838623046875 23.9686279296875 -1.091064453125
19.085205078125 -5.08740234375 46.9892578125
14.250732421875 16.4573974609375 -47.0653076171875
-1.507568359375 6.4783935546875 -22.7738037109375
5.573974609375 18.292236328125 -51.635009765625
1.659912109375 19.9620361328125 -54.19287109375
5.194091796875 8.507080078125 28.4383544921875
-14.502197265625 -0.87451171875 10.478271484375
1.202880859375 17.0556640625 -46.4984130859375
7.595947265625 13.521240234375 -38.913818359375
14.32177734375 9.541259765625 -31.386474609375
10.01220703125 10.1259765625 -28.530029296875
2.021728515625 18.20703125 -50.572998046875
-35.89306640625 -3.5 11.1915283203125
-2.528564453125 15.9193115234375 -47.371826171875
1.503173828125 10.7705078125 -32.0634765625
1.526123046875 12.0396728515625 31.3857421875
-4.37451171875 9.7799072265625 -32.25390625
1.504638671875 13.4329833984375 -41.077880859375
2.453369140625 19.810546875 -52.439208984375
3.454833984375 9.86474609375 40.5115966796875
6.91552734375 11.1070556640625 40.351806640625
-10.783203125 -1.8818359375 7.928955078125
15.079833984375 25.1778564453125 -2.058349609375
-12.989990234375 -2.9110107421875 16.631591796875
-13.966064453125 -0.73828125 7.9403076171875
21.2177734375 16.3057861328125 -42.7154541015625
11.863525390625 12.998291015625 -39.1556396484375
-11.250732421875 -1.77099609375 10.1024169921875
3.459716796875 19.9385986328125 -56.2484130859375
-19.15380859375 -6.218017578125 26.0169677734375
-20.8974609375 -2.34375 12.959228515625
12.806640625 28.105224609375 -9.2845458984375
17.97607421875 24.208740234375 -0.2266845703125
1.14794921875 21.0750732421875 -57.9312744140625
-28.5927734375 -2.269775390625 14.415771484375
-11.885986328125 -2.3084716796875 12.960205078125
-29.834716796875 -2.37890625 12.958251953125
5.44580078125 10.720458984375 -33.092529296875
7.076171875 24.247314453125 0.6697998046875
7.87255859375 9.3944091796875 38.5458984375
-18.115234375 -0.05517578125 8.17431640625
-33.428955078125 -6.2083740234375 21.4984130859375
3.318115234375 16.6754150390625 22.8857421875
3.55712890625 18.6689453125 14.811279296875
2.6806640625 21.441162109375 5.0250244140625
-26.972900390625 -0.6815185546875 13.7119140625
-36.654541015625 -5.1597900390625 11.9488525390625
-36.404541015625 -8.3338623046875 22.729736328125
-38.15380859375 -7.07421875 19.8944091796875
29.476318359375 -0.739501953125 36.3243408203125
13.052490234375 -4.28662109375 47.48681640625
-15.137451171875 -1.411865234375 13.3360595703125
-27.354248046875 -0.8514404296875 11.4461669921875
-36.639404296875 -6.5103759765625 15.885009765625
10.673583984375 15.033203125 -41.466796875
6.67138671875 9.0496826171875 47.9444580078125
8.199462890625 6.611083984375 32.26123046875
5.728515625 7.5650634765625 33.65673828125
13.572998046875 10.9920654296875 44.7117919921875
26.51953125 -1.5885009765625 36.6597900390625
16.3486328125 26.1748046875 -6.717529296875
15.959716796875 19.3939208984375 -49.9344482421875
19.052734375 14.000244140625 38.376953125
18.2763671875 15.7757568359375 32.36572265625
17.47412109375 13.4986572265625 42.219970703125
16.673583984375 25.8170166015625 -4.9569091796875
15.966796875 27.79052734375 -11.824951171875
16.1201171875 16.7882080078125 -47.758056640625
12.24267578125 18.5272216796875 -52.05029296875
11.999267578125 17.7896728515625 -49.5850830078125
-29.524658203125 -5.33447265625 23.46484375
8.966796875 18.2103271484375 -9.6214599609375
6.964111328125 17.0548095703125 -49.1610107421875
27.9052734375 0.258544921875 40.111328125
4.375 18.6351318359375 -52.94921875
8.65087890625 23.4345703125 1.966796875
10.819091796875 22.9854736328125 1.1351318359375
12.1884765625 20.2691650390625 10.114990234375
6.0888671875 28.0479736328125 -13.0025634765625
14.759765625 11.7193603515625 40.4544677734375
-4.952880859375 19.7232666015625 -53.772216796875
9.556884765625 27.3787841796875 -13.7808837890625
-9.637939453125 -3.4658203125 15.4844970703125
4.4013671875 15.989501953125 -44.74755859375
1.299560546875 12.798095703125 -39.0479736328125
16.135986328125 13.85400390625 45.433349609375
6.208984375 15.676513671875 23.3404541015625
3.911865234375 15.7310791015625 25.8675537109375
3.245849609375 17.78564453125 18.634033203125
7.858154296875 9.837646484375 44.1873779296875
-5.97509765625 16.3470458984375 -44.931396484375
-6.005859375 14.983642578125 -39.567626953125
19.93994140625 -3.6751708984375 46.18408203125
9.451904296875 7.693115234375 49.1910400390625
6.90576171875 17.70556640625 15.3184814453125
13.604248046875 -6.98876953125 50.2740478515625
23.355224609375 15.064697265625 -31.8309326171875
-1.412109375 11.2667236328125 -32.607421875
4.13818359375 6.360595703125 50.459716796875
3.61572265625 7.4964599609375 46.6448974609375
4.210205078125 5.2552490234375 54.6932373046875
15.105224609375 11.5535888671875 43.669189453125
5.2587890625 9.7430419921875 38.835205078125
0.3798828125 9.9761962890625 -29.7030029296875
5.306884765625 14.4310302734375 29.28271484375
-24.12646484375 -1.6263427734375 11.97607421875
3.525390625 13.09130859375 -37.9727783203125
17.486572265625 -5.850341796875 49.7342529296875
18.62255859375 17.86474609375 -47.848388671875
5.48046875 6.077392578125 28.2022705078125
4.417724609375 18.0870361328125 -7.3427734375
-11.94677734375 -5.0125732421875 23.5985107421875
26.796875 2.242919921875 31.49755859375
21.08935546875 -2.9378662109375 43.368896484375
17.672607421875 10.5628662109375 -30.9398193359375
19.6533203125 15.4617919921875 -42.5345458984375
21.85009765625 18.3380126953125 -47.124755859375
-9.366455078125 -3.7933349609375 18.492919921875
-26.964599609375 -1.419189453125 9.1500244140625
16.376220703125 -6.8212890625 47.0225830078125
21.45458984375 11.4649658203125 -30.4862060546875
5.55126953125 9.7640380859375 45.7520751953125
12.71875 15.970703125 -43.3359375
14.52734375 14.6683349609375 -40.4046630859375
16.3388671875 12.0870361328125 -32.47998046875
15.367919921875 28.7431640625 -14.832763671875
3.661376953125 9.62646484375 29.5211181640625
9.310302734375 16.3035888671875 -44.8043212890625
15.219482421875 25.5736083984375 -3.771240234375
6.404541015625 15.2667236328125 -44.312744140625
10.14404296875 11.7821044921875 -35.158447265625
3.142822265625 17.543701171875 -49.3184814453125
14.42578125 8.5548095703125 -27.6561279296875
-1.580078125 20.80078125 -56.4110107421875
6.171630859375 13.323486328125 -36.4422607421875
12.29443359375 -2.353515625 44.408447265625
12.38037109375 12.88916015625 38.7222900390625
10.79345703125 18.950439453125 16.931884765625
-28.1904296875 -3.6416015625 19.2958984375
-6.282958984375 18.02587890625 -51.1239013671875
3.94287109375 7.4847412109375 -22.135498046875
3.802734375 9.639892578125 -30.389404296875
2.41796875 9.538330078125 -28.3404541015625
-4.148193359375 15.1507568359375 -42.4368896484375
-9.16943359375 -1.967041015625 11.121826171875
1.423828125 23.1336669921875 -0.089111328125
8.336181640625 13.82470703125 28.0384521484375
-29.068359375 -1.529296875 8.052490234375
-4.741943359375 8.736328125 -27.73779296875
0.916259765625 5.7320556640625 -22.7490234375
-5.786865234375 9.5838623046875 -29.802978515625
15.23828125 14.575439453125 31.703125
-14.629638671875 -3.767578125 21.934326171875
9.687744140625 -6.918212890625 47.595703125
3.828857421875 19.0233154296875 -10.2989501953125
2.93212890625 9.2239990234375 37.058837890625
7.5 19.473388671875 -9.8958740234375
-23.303955078125 -0.3511962890625 8.0445556640625
-20.15673828125 -5.283447265625 23.5616455078125
-18.388671875 -5.3065185546875 21.5423583984375
-11.045166015625 -5.4385986328125 18.7313232421875
-26.0703125 -6.7576904296875 25.5770263671875
11.70703125 14.6572265625 28.1600341796875
-3.90576171875 18.7410888671875 -52.578369140625
-35.719970703125 -1.084228515625 7.54736328125
14.388916015625 15.5628662109375 -43.7349853515625
12.58349609375 15.58642578125 -41.6728515625
-35.370361328125 -3.995849609375 17.1708984375
6.095458984375 22.35595703125 3.2906494140625
-26.604248046875 -5.762451171875 22.3250732421875
21.0107421875 17.0113525390625 -45.2254638671875
8.54541015625 13.6529541015625 -40.5615234375
-2.007568359375 21.15771484375 -53.7872314453125
2.44873046875 10.9017333984375 -33.7042236328125
4.34033203125 28.3677978515625 -12.1666259765625
4.146240234375 25.7685546875 -11.417236328125
12.877685546875 11.98388671875 -37.10400390625
-11.380859375 -3.406494140625 16.6480712890625
1.05322265625 19.578125 -51.2664794921875
0.65966796875 21.306640625 -54.032958984375
4.662841796875 19.661376953125 -54.4921875
-21.030029296875 -2.7200927734375 14.587890625
-20.292236328125 -4.4073486328125 20.30029296875
-9.399169921875 -5.3201904296875 22.4449462890625
14.653076171875 -5.1468505859375 44.666748046875
-30.53076171875 -3.0992431640625 16.6033935546875
1.665771484375 19.5677490234375 -7.668701171875
1.62109375 10.83984375 33.7686767578125
-28.8759765625 -2.0980224609375 11.3895263671875
10.324462890625 15.8614501953125 22.881103515625
-38.02294921875 -6.702392578125 18.2857666015625
13.47802734375 25.786865234375 -4.7742919921875
22.172119140625 15.2508544921875 -37.5911865234375
-35.875244140625 -6.09521484375 19.9805908203125
8.45068359375 16.9300537109375 17.982666015625
12.225830078125 10.764404296875 41.2694091796875
-19.192626953125 -3.807373046875 16.6441650390625
15.600830078125 -4.7344970703125 47.6239013671875
5.370849609375 10.51513671875 42.2962646484375
-16.6337890625 -4.637451171875 24.9930419921875
3.963134765625 20.2125244140625 -4.1865234375
11.201416015625 8.80810546875 44.2215576171875
10.741455078125 13.662353515625 -40.4114990234375
19.58056640625 9.8592529296875 -24.812255859375
22.7939453125 1.082275390625 35.7288818359375
24.810302734375 0.2255859375 35.2230224609375
17.001953125 8.33740234375 -27.0738525390625
-34.0927734375 -2.7244873046875 12.015380859375
-27.64794921875 -4.753173828125 21.644775390625
-3.544189453125 16.8656005859375 -49.85791015625
4.707275390625 22.0426025390625 1.733154296875
7.931640625 23.19677734375 -8.0992431640625
16.200439453125 17.8416748046875 26.7698974609375
4.427490234375 22.564208984375 0.029052734375
9.241943359375 5.430419921875 32.012939453125
6.338134765625 -7.55517578125 51.9658203125
8.6025390625 6.4552001953125 52.8326416015625
7.060791015625 7.2347412109375 50.155517578125
7.080078125 11.9600830078125 -33.599853515625
17.677490234375 16.7283935546875 29.35791015625
18.286865234375 26.4176025390625 -9.2283935546875
17.694091796875 24.734619140625 -1.94482421875
11.140380859375 17.2454833984375 22.435791015625
7.5029296875 10.4072265625 -30.8341064453125
14.64111328125 15.5250244140625 28.705078125
7.419921875 3.75048828125 54.5517578125
12.58251953125 16.1048583984375 25.916015625
11.525634765625 19.7083740234375 13.0968017578125
9.73046875 22.486083984375 3.640869140625
10.1533203125 23.73681640625 -1.0064697265625
12.33349609375 18.0391845703125 18.6553955078125
8.746826171875 22.2825927734375 4.8660888671875
2.08251953125 8.585693359375 -24.2176513671875
9.406982421875 -4.6751708984375 46.951171875
2.846435546875 23.170654296875 -2.66796875
4.389892578125 19.718017578125 9.7186279296875
10.30810546875 15.960693359375 24.7357177734375
8.6826171875 19.260498046875 -5.3656005859375
5.397216796875 24.7642822265625 0.652587890625
8.889404296875 15.39501953125 21.242431640625
1.28271484375 24.047607421875 -3.4913330078125
7.00732421875 16.62744140625 18.672607421875
6.1337890625 18.0931396484375 13.987548828125
4.14892578125 8.8060302734375 37.9703369140625
10.472412109375 8.053466796875 48.0400390625
5.549072265625 15.1181640625 26.3094482421875
9.979248046875 10.5987548828125 38.6827392578125
1.7958984375 22.196044921875 -5.6917724609375
7.74853515625 17.2628173828125 -5.919189453125
10.508056640625 4.981689453125 51.177001953125
5.280517578125 17.2034912109375 -50.5396728515625
-34.478759765625 -0.646728515625 10.3868408203125
3.05908203125 8.5345458984375 43.2530517578125
2.26416015625 7.587646484375 47.90087890625
19.239990234375 17.0333251953125 -45.336181640625
6.61572265625 9.3670654296875 34.29541015625
7.8974609375 3.89208984375 34.57763671875
21.305908203125 13.73828125 -37.060791015625
0.688720703125 24.9920654296875 -6.47314453125
20.6396484375 18.5843505859375 -50.2156982421875
2.9013671875 6.54931640625 29.435546875
29.1044921875 0.841796875 31.3145751953125
9.46484375 15.314208984375 -43.234619140625
8.859130859375 7.227294921875 29.7911376953125
6.34033203125 7.9080810546875 -26.6497802734375
20.778076171875 12.0084228515625 -33.930419921875
20.84765625 -2.326416015625 41.26806640625
19.591552734375 12.388916015625 -36.1253662109375
27.62841796875 -0.9215087890625 35.6202392578125
7.834228515625 15.5283203125 -46.339599609375
20.76806640625 0.43701171875 38.4962158203125
14.2919921875 12.495849609375 -35.16455078125
4.760986328125 6.81884765625 47.926513671875
16.426513671875 -5.12744140625 45.321533203125
-5.1162109375 20.777587890625 -54.9022216796875
14.29931640625 -4.5478515625 48.447021484375
0.481689453125 25.7779541015625 -8.5594482421875
7.21533203125 19.5550537109375 -52.1885986328125
11.26171875 27.1378173828125 -11.8927001953125
6.1025390625 8.5093994140625 -28.71533203125
0.7802734375 20.0869140625 -52.9288330078125
11.386962890625 17.3392333984375 -47.0946044921875
16.095947265625 13.9722900390625 -39.556396484375
12.546630859375 16.7691650390625 -46.25048828125
4.553466796875 13.6036376953125 -39.106201171875
19.0029296875 9.19580078125 -27.1851806640625
1.333251953125 27.1712646484375 -11.32421875
16.443115234375 15.076904296875 46.319091796875
-23.3173828125 -2.0478515625 10.6290283203125
6.68994140625 5.9405517578125 51.9853515625
9.124267578125 12.732421875 -37.6551513671875
12.6923828125 10.04296875 -31.4031982421875
11.133056640625 9.462646484375 -27.2755126953125
5.794921875 14.818115234375 -41.832763671875
8.54833984375 12.3795166015625 -35.5892333984375
5.010986328125 16.4381103515625 -47.2275390625
6.0 14.11865234375 -39.3446044921875
16.606689453125 24.3011474609375 1.0457763671875
13.75439453125 28.142578125 -10.561279296875
-3.369873046875 13.4744873046875 -37.510009765625
5.294189453125 7.4910888671875 -23.7720947265625
9.845458984375 17.235107421875 19.56689453125
-4.53857421875 8.042724609375 -25.270263671875
15.045166015625 -2.0777587890625 44.346435546875
-4.300048828125 11.54443359375 -35.786865234375
-12.557373046875 -1.682861328125 11.3165283203125
-0.18359375 18.3558349609375 -48.5238037109375
13.914306640625 14.60205078125 30.1990966796875
22.067138671875 16.246826171875 -41.357177734375
-22.986328125 -1.1083984375 6.563720703125
-34.0302734375 -0.85107421875 8.63720703125
-28.90380859375 -8.160888671875 25.730712890625
-11.95556640625 -1.2398681640625 8.8675537109375
-13.22021484375 -4.829833984375 24.40380859375
17.714111328125 14.52099609375 43.95654296875
-10.4794921875 -3.7197265625 12.7025146484375
-25.406494140625 -0.0167236328125 9.24560546875
-24.738037109375 -0.6397705078125 10.8824462890625
-19.021240234375 -5.8416748046875 24.3883056640625
8.2705078125 19.35595703125 13.15869140625
14.73828125 -6.119384765625 49.78759765625
-10.776123046875 -5.8818359375 20.8231201171875
-30.137451171875 -0.7276611328125 6.867919921875
14.1572265625 26.4874267578125 -6.82421875
9.488525390625 -5.9027099609375 48.8140869140625
-32.1025390625 -7.4443359375 24.7451171875
-34.056396484375 -6.7392578125 24.321044921875
6.778564453125 6.1044921875 30.15087890625
21.9462890625 17.2762451171875 -43.8057861328125
-36.972412109375 -4.9656982421875 10.24658203125
-37.656982421875 -8.1541748046875 23.52197265625
-37.0322265625 -7.6256103515625 20.7108154296875
2.404052734375 26.0872802734375 -10.584228515625
18.500732421875 -7.0643310546875 48.9910888671875
-37.960205078125 -5.279541015625 12.6514892578125
19.136474609375 13.7935791015625 -38.9471435546875
8.5126953125 7.656005859375 50.4560546875
14.80859375 18.353271484375 -50.1824951171875
8.599609375 9.774169921875 -28.2705078125
8.27880859375 11.6141357421875 -32.277099609375
7.06201171875 19.672119140625 10.4033203125
25.347900390625 -1.012451171875 35.806884765625
-37.662353515625 -5.30322265625 15.69921875
22.267822265625 14.1907958984375 -34.27734375
26.7265625 0.5181884765625 33.24169921875
8.00390625 21.3902587890625 7.753662109375
22.08935546875 10.760986328125 -27.0726318359375
13.9052734375 11.0955810546875 -34.1571044921875
-27.168212890625 -6.1080322265625 24.348388671875
4.96826171875 6.315673828125 33.65234375
22.4501953125 12.0086669921875 -28.1085205078125
10.771240234375 14.6856689453125 29.9073486328125
5.61572265625 20.67431640625 5.995849609375
11.867919921875 9.430419921875 41.732666015625
9.093505859375 22.9591064453125 -2.6429443359375
-35.88720703125 -7.59765625 23.872802734375
3.518798828125 14.4554443359375 29.10986328125
5.318603515625 22.300537109375 -2.2176513671875
12.57080078125 -5.8941650390625 50.0706787109375
6.118896484375 10.0264892578125 -31.880126953125
8.61572265625 13.3033447265625 29.74169921875
-2.48583984375 8.8402099609375 -30.1456298828125
-37.171630859375 -4.2862548828125 7.82958984375
-30.22119140625 -6.546875 24.3387451171875
-10.1787109375 -2.69580078125 10.3883056640625
2.024169921875 8.6849365234375 32.2498779296875
5.900146484375 8.0518798828125 31.550048828125
22.88916015625 -2.8560791015625 44.5010986328125
19.16845703125 11.109130859375 -32.034912109375
17.06201171875 15.5118408203125 -45.3106689453125
6.41650390625 10.2088623046875 32.7056884765625
23.0810546875 -2.4771728515625 39.192626953125
17.865234375 -1.66748046875 42.970703125
12.1298828125 24.213134765625 -2.991943359375
17.066650390625 8.6820068359375 -25.6856689453125
11.7734375 11.2802734375 -35.141845703125
25.870361328125 -2.22412109375 37.7548828125
13.616943359375 13.19482421875 -36.3851318359375
9.399169921875 -8.111572265625 46.2672119140625
3.0048828125 18.4344482421875 -52.634765625
3.528564453125 11.4140625 -36.994140625
15.027587890625 10.4315185546875 -32.9012451171875
12.4287109375 22.271240234375 2.0054931640625
14.008544921875 23.0797119140625 1.432861328125
8.794189453125 18.9896240234375 -50.4500732421875
16.031494140625 12.77392578125 36.3052978515625
21.79638671875 13.1572265625 -23.9530029296875
7.7021484375 8.621337890625 37.3748779296875
6.82275390625 23.421142578125 2.7127685546875
11.559326171875 16.540771484375 -44.1800537109375
20.512451171875 18.2635498046875 -48.0963134765625
7.38134765625 8.632568359375 31.876220703125
17.86767578125 13.8526611328125 -41.20263671875
12.336669921875 -5.2271728515625 48.45458984375
-11.178466796875 -4.09716796875 19.1053466796875
19.3896484375 18.833251953125 -51.123291015625
15.854736328125 13.5936279296875 33.313232421875
17.7578125 27.568359375 -13.093017578125
-30.095947265625 -4.3756103515625 21.0718994140625
15.266357421875 27.1282958984375 -8.4017333984375
17.4755859375 28.0941162109375 -14.8111572265625
16.39453125 25.0250244140625 -1.529296875
13.99853515625 28.835693359375 -13.5604248046875
18.1474609375 26.0216064453125 -7.5146484375
18.78125 25.16796875 -4.935302734375
16.635498046875 27.035888671875 -9.674072265625
19.296875 14.6932373046875 35.3778076171875
17.750244140625 15.6085205078125 33.646728515625
17.822998046875 14.4886474609375 37.935546875
17.990234375 15.647216796875 45.270263671875
2.487060546875 21.481201171875 -4.455810546875
2.292236328125 21.95849609375 -9.7454833984375
5.888671875 18.7125244140625 11.8594970703125
14.66748046875 17.1041259765625 25.4891357421875
-33.563232421875 -5.339599609375 18.2637939453125
-1.85009765625 6.6702880859375 -24.4925537109375
14.226806640625 15.4892578125 26.35986328125
14.1982421875 12.766357421875 37.033203125
14.23583984375 11.5528564453125 41.72998046875
-5.748779296875 12.5804443359375 -37.4149169921875
11.343017578125 23.15185546875 -0.140380859375
12.289794921875 21.876953125 3.7119140625
11.3203125 17.8048095703125 20.77978515625
11.737060546875 18.9876708984375 15.66064453125
7.60009765625 24.4136962890625 -0.6055908203125
12.431640625 20.9591064453125 7.12890625
10.683349609375 21.279052734375 7.96484375
12.058837890625 15.9383544921875 27.1915283203125
15.28369140625 11.8857421875 39.178955078125
6.472900390625 3.603759765625 35.2454833984375
9.4140625 14.2542724609375 25.07373046875
8.49560546875 20.1473388671875 12.0235595703125
-35.481201171875 -5.7833251953125 22.28564453125
-27.598388671875 -0.7041015625 7.11181640625
5.893310546875 25.5181884765625 -11.7843017578125
-2.968994140625 11.8935546875 -33.8936767578125
7.880615234375 15.16162109375 23.357666015625
7.286865234375 16.1060791015625 20.3758544921875
1.95166015625 20.6865234375 8.843505859375
2.47021484375 22.15869140625 2.4722900390625
6.34716796875 16.069091796875 21.6414794921875
3.968994140625 21.1531982421875 4.6131591796875
4.779296875 16.8782958984375 20.35009765625
4.637939453125 17.7921142578125 16.9478759765625
9.18115234375 9.6478271484375 43.3507080078125
2.54541015625 19.7420654296875 11.8251953125
9.809326171875 8.801513671875 45.90771484375
0.834716796875 11.3861083984375 34.7647705078125
27.61328125 -0.81298828125 38.833984375
21.783447265625 -0.7947998046875 37.7662353515625
12.136474609375 -4.46337890625 46.4205322265625
18.0634765625 10.466796875 -29.6192626953125
7.99951171875 8.9237060546875 47.589599609375
-35.94384765625 -5.0413818359375 15.944580078125
-18.153076171875 -1.111572265625 15.76025390625
6.876708984375 18.6512451171875 -11.030029296875
5.1630859375 8.210693359375 45.6695556640625
3.58447265625 6.097900390625 52.1470947265625
5.52734375 5.0662841796875 53.860107421875
2.92138671875 8.1436767578125 44.9447021484375
2.92431640625 6.8427734375 50.0240478515625
13.526123046875 14.31201171875 -39.231201171875
22.75927734375 13.035888671875 -29.636962890625
9.4453125 18.5096435546875 -7.7222900390625
2.819091796875 9.2149658203125 41.6121826171875
-27.8095703125 -2.2833251953125 16.2330322265625
2.572998046875 12.4989013671875 29.8062744140625
1.839111328125 11.618408203125 32.65869140625
7.436767578125 17.6826171875 -7.1878662109375
0.173095703125 16.47607421875 -45.8026123046875
5.109375 17.442626953125 -5.6497802734375
2.6201171875 19.50341796875 -10.7327880859375
30.99365234375 -0.34375 32.9681396484375
5.621337890625 6.8682861328125 30.7135009765625
15.7236328125 12.9154052734375 -34.98291015625
25.41552734375 0.7061767578125 34.07080078125
25.92138671875 -1.9232177734375 40.1248779296875
5.33740234375 4.275634765625 33.9749755859375
2.862060546875 5.0379638671875 33.9495849609375
-2.90576171875 20.82470703125 -55.623779296875
5.14013671875 11.9251708984375 28.985595703125
23.67333984375 13.262939453125 -27.322265625
14.19677734375 23.7099609375 0.23974609375
11.234619140625 12.359619140625 -38.015380859375
7.97265625 -6.4691162109375 50.712890625
21.40576171875 -2.0057373046875 40.0684814453125
-13.485107421875 -5.8736572265625 25.385498046875
-23.544677734375 0.3604736328125 6.906982421875
-31.9228515625 -4.5400390625 23.893798828125
18.05517578125 18.92333984375 -49.88330078125
13.642333984375 17.3504638671875 -49.122314453125
17.356689453125 18.1475830078125 -47.4437255859375
15.384765625 16.5826416015625 28.1668701171875
6.643310546875 23.4847412109375 -7.6873779296875
20.116455078125 9.89990234375 -29.1473388671875
13.59228515625 18.6326904296875 -51.9495849609375
-0.376708984375 8.8397216796875 -27.824462890625
8.74853515625 8.7314453125 -27.1685791015625
-2.85498046875 17.888671875 -50.501220703125
20.236328125 14.534912109375 -39.6080322265625
14.5244140625 15.9471435546875 -45.3980712890625
17.701416015625 12.0933837890625 -34.1304931640625
14.29052734375 13.9957275390625 -37.4942626953125
9.953857421875 18.4195556640625 -49.60595703125
16.741943359375 14.518798828125 -42.4625244140625
16.931396484375 -6.1688232421875 50.9268798828125
0.392578125 20.04736328125 -55.11962890625
16.29248046875 16.6878662109375 29.6683349609375
18.567626953125 -0.8984375 40.5670166015625
15.551025390625 9.2271728515625 -30.9251708984375
-28.65673828125 -5.449951171875 22.2091064453125
-9.671875 -5.1072998046875 18.524169921875
0.1201171875 20.5555419921875 -56.7802734375
-24.3486328125 -6.760498046875 24.87939453125
12.99853515625 9.6304931640625 -30.1568603515625
9.94189453125 11.2081298828125 -32.6744384765625
6.306396484375 13.7061767578125 -38.0982666015625
10.14697265625 10.5086669921875 -30.1861572265625
4.5390625 15.0987548828125 -41.4312744140625
12.385986328125 10.4554443359375 -32.6494140625
11.096435546875 10.640380859375 -31.8338623046875
4.09521484375 16.4019775390625 -45.9937744140625
13.176025390625 16.468505859375 23.787353515625
13.2373046875 9.0267333984375 -28.0826416015625
7.072998046875 7.1317138671875 28.67529296875
3.471923828125 14.42529296875 -40.326904296875
2.483154296875 12.3280029296875 -38.6231689453125
9.16064453125 19.396728515625 14.162841796875
3.366455078125 8.4014892578125 -25.02978515625
4.748291015625 9.7711181640625 -32.0301513671875
-5.670166015625 15.936279296875 -43.6903076171875
-2.18701171875 14.335693359375 -41.591552734375
1.43310546875 11.8480224609375 -36.1904296875
-0.32373046875 11.9666748046875 -34.557861328125
4.0712890625 10.402099609375 -33.6876220703125
2.653076171875 10.2052001953125 -31.2264404296875
4.95263671875 9.0745849609375 -29.5523681640625
-3.19970703125 14.013916015625 -39.126220703125
-1.543701171875 13.6094970703125 -39.5218505859375
-2.83349609375 16.3299560546875 -48.61279296875
-5.87158203125 15.3646240234375 -41.2166748046875
0.31982421875 11.240478515625 -32.4881591796875
0.996826171875 10.609619140625 -30.830810546875
9.6181640625 19.29736328125 -6.6258544921875
3.2724609375 19.1265869140625 -4.95361328125
3.1396484375 22.410400390625 -3.7281494140625
1.6240234375 5.1986083984375 -21.509033203125
-5.176513671875 7.5030517578125 -22.4005126953125
-2.7861328125 6.661865234375 -21.965087890625
-0.26220703125 6.2000732421875 -23.1719970703125
-0.7998046875 5.9449462890625 -21.5338134765625
-5.28271484375 9.744140625 -31.030517578125
6.17529296875 19.631103515625 9.4041748046875
-27.86083984375 -3.89453125 20.5654296875
10.738525390625 -4.76513671875 45.7138671875
-29.536376953125 -3.972412109375 19.5010986328125
-36.770263671875 -6.882080078125 17.49365234375
-13.7607421875 -2.6856689453125 15.3040771484375
-10.504150390625 -5.98046875 25.6593017578125
-15.07373046875 0.03466796875 7.6080322265625
-15.00439453125 -1.0340576171875 11.70068359375
-11.444580078125 -4.85302734375 22.3760986328125
-12.451904296875 -3.91455078125 19.91064453125
4.541259765625 9.1181640625 43.5992431640625
5.738525390625 11.797607421875 -34.1617431640625
21.26318359375 -3.7431640625 46.308349609375
-18.6484375 -0.3677978515625 9.3504638671875
-11.047607421875 -4.125732421875 14.2852783203125
4.961669921875 6.5938720703125 36.916015625
-28.601806640625 -3.90087890625 17.434814453125
9.87548828125 22.9482421875 2.40625
-13.459228515625 -2.917724609375 17.901123046875
-19.493896484375 -3.4017333984375 15.4185791015625
-19.3310546875 -1.678955078125 8.4927978515625
-19.66259765625 -2.619873046875 12.5643310546875
16.841796875 28.94775390625 -17.3905029296875
17.08447265625 15.0452880859375 36.6414794921875
14.0712890625 27.7158203125 -9.2716064453125
15.26318359375 28.4461669921875 -13.5474853515625
-26.6025390625 -2.1513671875 19.01318359375
9.209716796875 21.0079345703125 10.0379638671875
-0.98828125 9.597412109375 -30.747314453125
-22.455322265625 -4.028076171875 10.5989990234375
-30.36865234375 -1.383544921875 9.706298828125
11.68896484375 16.066650390625 24.9012451171875
23.98388671875 -2.2509765625 42.9951171875
1.77294921875 21.79345703125 -8.481689453125
11.210205078125 20.13330078125 11.812744140625
10.5791015625 20.9832763671875 9.24462890625
11.109130859375 18.5255126953125 18.2159423828125
12.440673828125 17.022705078125 22.4990234375
15.984375 11.2330322265625 40.8939208984375
-35.63330078125 -2.314697265625 10.248046875
12.649169921875 17.6141357421875 19.939453125
12.166015625 14.9219970703125 31.0350341796875
16.052734375 -6.1884765625 49.9132080078125
-14.000244140625 -0.7149658203125 9.255859375
12.82470703125 11.1917724609375 39.6258544921875
-34.092041015625 -5.5904541015625 19.875
-34.094970703125 -4.348388671875 15.025146484375
-33.9248046875 -6.365966796875 22.7056884765625
-35.591552734375 -3.5216064453125 14.246826171875
16.17822265625 7.321044921875 47.0484619140625
