20.866943359375 -10.8258056640625 46.68408203125
14.073974609375 11.2508544921875 -58.9923095703125
2.64013671875 13.0423583984375 10.73779296875
31.806396484375 -2.425048828125 23.0687255859375
11.728271484375 11.359130859375 -55.1771240234375
9.850830078125 1.464111328125 25.7890625
30.778076171875 -4.3387451171875 30.394775390625
-0.894287109375 12.3197021484375 11.4056396484375
-21.2646484375 -4.0712890625 20.7713623046875
-30.984375 -8.595703125 10.190185546875
2.974365234375 0.204345703125 -27.4228515625
-28.34765625 -8.2559814453125 7.9476318359375
15.564697265625 18.2021484375 -4.87353515625
10.57666015625 7.8763427734375 -46.17138671875
-11.337158203125 -9.4681396484375 14.8197021484375
-33.637451171875 -8.7957763671875 3.677490234375
7.373291015625 0.601806640625 31.4654541015625
-24.039794921875 -8.5113525390625 20.9423828125
4.115966796875 6.8912353515625 25.6824951171875
-22.4638671875 -4.870849609375 19.0968017578125
5.768310546875 3.1151123046875 31.486328125
-25.480712890625 -10.7803955078125 19.1966552734375
12.989013671875 11.928466796875 15.42041015625
2.220703125 10.9012451171875 17.7967529296875
-34.316650390625 -0.9508056640625 16.28759765625
5.913818359375 13.1617431640625 -13.6116943359375
9.834716796875 -1.23486328125 30.459228515625
-7.09375 33.491455078125 -51.7935791015625
6.508544921875 7.3316650390625 -44.8162841796875
-17.6591796875 -11.7266845703125 14.15625
-32.352294921875 -6.6260986328125 1.6376953125
-23.84912109375 -3.7315673828125 19.7406005859375
27.338623046875 -5.940185546875 37.957275390625
-10.733642578125 -6.1849365234375 5.1514892578125
-2.13720703125 6.081787109375 -42.9439697265625
-6.78662109375 -10.315185546875 12.3453369140625
22.654541015625 -11.6107177734375 41.6962890625
-6.02783203125 9.2823486328125 22.819091796875
24.008056640625 -9.61962890625 46.36962890625
-2.4912109375 5.22998046875 -40.7230224609375
2.31982421875 33.1419677734375 -27.854248046875
-23.638671875 -8.889892578125 12.5089111328125
13.076416015625 5.63525390625 27.73681640625
-10.67626953125 -9.900390625 17.2872314453125
-32.439697265625 -2.3123779296875 21.8345947265625
-18.825439453125 -13.302734375 16.7161865234375
-7.513427734375 -11.1424560546875 17.7281494140625
-33.53955078125 -1.6104736328125 19.3314208984375
-0.69189453125 8.2852783203125 26.001953125
-5.9287109375 -8.4547119140625 9.680908203125
15.197998046875 -10.98486328125 44.3043212890625
0.33642578125 7.75830078125 -47.8408203125
-0.533935546875 5.40576171875 34.954833984375
9.427001953125 11.9444580078125 14.72216796875
-22.88623046875 -10.1204833984375 16.3558349609375
7.173095703125 5.868896484375 20.7705078125
1.193115234375 13.3507080078125 -62.0379638671875
-19.77783203125 -13.34130859375 18.842529296875
2.7255859375 4.02978515625 39.602294921875
21.0048828125 3.3953857421875 -32.6871337890625
6.74365234375 13.077880859375 -10.1856689453125
2.4501953125 10.8114013671875 -54.6656494140625
22.35546875 11.856201171875 -52.1514892578125
18.846923828125 20.9710693359375 -13.270263671875
-19.758544921875 -12.66162109375 24.1041259765625
15.024169921875 11.15966796875 -54.2398681640625
-15.693603515625 -7.1947021484375 7.34033203125
2.941650390625 1.294189453125 -29.6358642578125
4.31201171875 14.778564453125 -11.0938720703125
-0.07080078125 13.112548828125 9.823486328125
-30.197021484375 -4.474609375 19.6602783203125
12.672607421875 3.1668701171875 -34.1981201171875
5.207275390625 16.04833984375 -9.464599609375
3.192626953125 6.472412109375 32.7086181640625
-4.401611328125 6.8746337890625 32.2274169921875
-25.077880859375 -7.68408203125 9.7645263671875
6.1015625 34.128173828125 -28.7701416015625
-14.438232421875 -9.023193359375 12.885986328125
-13.037109375 -11.014892578125 19.8399658203125
1.155029296875 1.5615234375 47.54052734375
-9.613525390625 -3.1873779296875 22.4686279296875
5.85107421875 2.93798828125 -34.49072265625
20.439208984375 -11.122314453125 43.285400390625
12.35400390625 -11.123779296875 44.9608154296875
9.41943359375 13.7659912109375 -15.2796630859375
15.1875 8.52392578125 -47.1871337890625
12.441162109375 7.676513671875 -45.4349365234375
-5.281982421875 10.130859375 20.782470703125
15.72021484375 7.63037109375 -44.60888671875
12.47998046875 -12.9217529296875 49.4088134765625
11.32080078125 3.683349609375 -35.236572265625
-16.435302734375 -6.0697021484375 3.47509765625
20.364013671875 7.055908203125 -42.7198486328125
6.27685546875 9.55615234375 -51.0189208984375
7.3046875 13.7950439453125 8.33056640625
28.860595703125 -5.4541015625 30.8873291015625
11.07568359375 14.8819580078125 -10.6634521484375
-9.31201171875 31.6865234375 -44.6624755859375
-28.057373046875 -7.97314453125 9.6478271484375
-2.12548828125 2.9805908203125 42.4981689453125
-18.678955078125 -8.7027587890625 24.088134765625
4.161376953125 3.2606201171875 28.4576416015625
0.326171875 33.0113525390625 -43.9873046875
3.255126953125 36.4256591796875 -36.9486083984375
-12.17041015625 9.5108642578125 21.1534423828125
-6.310302734375 32.0006103515625 -43.4052734375
4.281005859375 2.731689453125 26.8094482421875
6.202392578125 35.2490234375 -33.722412109375
-15.7958984375 -10.759521484375 17.4803466796875
1.668212890625 14.6402587890625 -60.238037109375
18.274658203125 21.19677734375 -14.81298828125
-1.20458984375 32.713134765625 -52.2078857421875
20.711181640625 12.109130859375 -55.1783447265625
-13.851318359375 -9.6627197265625 15.01611328125
11.494873046875 13.695556640625 -12.6455078125
2.995361328125 35.420654296875 -33.6055908203125
11.23388671875 17.2120361328125 -1.84912109375
0.070068359375 11.60791015625 -56.7630615234375
-23.796142578125 -8.42724609375 10.8487548828125
-6.026123046875 32.318115234375 -45.3009033203125
14.144287109375 15.9061279296875 2.71923828125
3.91845703125 13.52587890625 -62.8511962890625
5.24365234375 5.1434326171875 -39.931884765625
-10.260009765625 -8.00048828125 11.3748779296875
25.6796875 10.9931640625 -26.2852783203125
-21.61474609375 -8.2525634765625 20.2611083984375
-6.83837890625 10.6495361328125 17.95947265625
6.455810546875 4.735107421875 38.0224609375
4.102294921875 14.1422119140625 -58.3297119140625
-32.908935546875 -13.7266845703125 19.196533203125
7.79052734375 1.8594970703125 -31.1614990234375
3.69775390625 6.014404296875 27.16552734375
21.3671875 8.70751953125 -45.602294921875
-18.08837890625 -7.997314453125 9.3038330078125
23.27685546875 13.565673828125 -56.1983642578125
-2.662353515625 9.6329345703125 21.9144287109375
-20.240966796875 -11.2529296875 15.906494140625
18.020751953125 8.068359375 -45.451904296875
3.952392578125 9.7296142578125 -51.6297607421875
-9.4619140625 8.72412109375 23.3675537109375
16.51220703125 24.998046875 -25.9527587890625
23.600341796875 8.1761474609375 -40.4652099609375
-26.385498046875 -3.5946044921875 19.2822265625
-7.323486328125 -2.9881591796875 20.437255859375
17.007080078125 9.7867431640625 -50.0567626953125
20.81103515625 20.5692138671875 -6.831787109375
10.1396484375 15.0572509765625 4.0601806640625
7.4462890625 1.6690673828125 26.6727294921875
-0.901611328125 3.519287109375 -35.8192138671875
-3.1201171875 34.4581298828125 -40.2218017578125
-0.398681640625 11.03857421875 17.3251953125
-15.922119140625 -4.8123779296875 24.237548828125
2.3173828125 8.17431640625 26.368408203125
-33.844482421875 -1.4471435546875 22.6280517578125
0.249267578125 6.0181884765625 33.5516357421875
10.839111328125 -12.50390625 45.040283203125
-1.7080078125 1.2633056640625 48.2655029296875
18.320068359375 10.960205078125 -53.3026123046875
11.824951171875 10.0345458984375 -51.6309814453125
0.21142578125 1.1470947265625 -29.9207763671875
9.989013671875 10.542236328125 -52.5806884765625
7.960205078125 6.1236572265625 -41.747314453125
-9.709228515625 -3.9263916015625 19.559814453125
11.502685546875 12.75048828125 12.38525390625
15.572509765625 21.2520751953125 -14.7430419921875
22.87548828125 10.3218994140625 -48.0606689453125
8.470703125 12.7833251953125 12.5391845703125
8.80517578125 1.22412109375 31.7889404296875
5.0595703125 5.5775146484375 35.570556640625
1.294189453125 5.0777587890625 36.600830078125
-17.238037109375 -11.8958740234375 17.4786376953125
-25.13916015625 -12.282470703125 20.411865234375
25.12451171875 7.829345703125 -28.9974365234375
21.96435546875 4.4869384765625 -34.6336669921875
26.974609375 -6.696044921875 36.090087890625
23.614013671875 4.553466796875 -31.9183349609375
-32.442626953125 -7.112060546875 4.3726806640625
7.56689453125 13.81396484375 -15.904541015625
0.271484375 0.203125 -27.8013916015625
4.813720703125 10.984375 17.6766357421875
8.679931640625 8.688232421875 -48.365234375
-2.21533203125 10.619873046875 -54.9954833984375
1.034912109375 3.1744384765625 -33.9803466796875
8.7998046875 -13.1641845703125 49.8323974609375
-24.804443359375 -7.28076171875 19.9749755859375
-26.832763671875 -6.783203125 19.685791015625
12.89404296875 2.792724609375 -31.4029541015625
-30.74755859375 -6.9556884765625 4.3746337890625
3.569091796875 3.661865234375 -32.280029296875
13.357421875 14.5589599609375 6.0987548828125
8.80810546875 17.1795654296875 -7.353759765625
-3.479248046875 7.95947265625 -45.936767578125
4.815185546875 2.7825927734375 -31.52294921875
5.80224609375 15.1512451171875 4.4737548828125
4.26611328125 3.469970703125 42.78759765625
18.5205078125 7.026611328125 -42.7823486328125
-2.556396484375 9.893310546875 -52.80615234375
8.49267578125 17.433349609375 -2.8668212890625
11.61181640625 11.758544921875 -57.04736328125
31.90380859375 -4.550048828125 29.323486328125
6.05322265625 1.029541015625 -29.191162109375
12.935791015625 6.8663330078125 -43.442626953125
9.125 6.13818359375 36.7869873046875
0.78759765625 3.07666015625 42.3111572265625
18.733642578125 2.972900390625 -31.8812255859375
-12.2919921875 -4.8876953125 23.48046875
6.895263671875 3.714599609375 32.8277587890625
-33.572509765625 -12.6495361328125 16.390869140625
-3.748779296875 8.4703369140625 25.1326904296875
-2.42236328125 4.261474609375 -38.543212890625
-12.40380859375 10.3154296875 18.3804931640625
29.205078125 -4.347900390625 27.4405517578125
4.13916015625 17.381591796875 -9.4560546875
2.37646484375 10.3092041015625 20.0003662109375
0.377685546875 9.6650390625 22.2034912109375
4.257080078125 15.8443603515625 1.4542236328125
19.826416015625 9.1754150390625 -48.208984375
9.38916015625 6.048583984375 -40.98876953125
18.630859375 25.268798828125 -28.1881103515625
-25.53759765625 -4.6461181640625 23.4415283203125
-0.204345703125 10.22705078125 20.1175537109375
3.810546875 17.8671875 -5.5869140625
7.741455078125 11.6143798828125 15.745849609375
1.76513671875 -0.5184326171875 -25.1416015625
-27.58740234375 -3.5390625 22.3607177734375
-11.89111328125 7.1044921875 29.4620361328125
11.2001953125 5.177490234375 -39.2998046875
-15.87060546875 -9.631103515625 15.4541015625
-8.820068359375 9.86181640625 20.2451171875
8.0244140625 4.9222412109375 -38.8896484375
16.113037109375 23.43310546875 -22.337646484375
12.555908203125 -10.7945556640625 42.4874267578125
-13.086181640625 7.7071533203125 26.0980224609375
13.7177734375 -9.822509765625 39.9412841796875
2.91162109375 5.9149169921875 -41.96337890625
7.4365234375 8.066650390625 -46.0467529296875
14.24072265625 17.730224609375 -3.8133544921875
19.9599609375 22.366943359375 -18.4461669921875
-30.670166015625 -9.918701171875 13.7305908203125
-14.78955078125 6.40966796875 27.6011962890625
-6.712158203125 10.1356201171875 19.646240234375
-29.147216796875 -10.041748046875 12.9744873046875
-1.691650390625 5.0496826171875 36.3060302734375
-0.8330078125 11.010009765625 -55.5992431640625
6.281005859375 1.6376953125 31.177734375
-31.1064453125 -12.576416015625 21.91357421875
11.94970703125 18.22119140625 -9.152099609375
26.099853515625 -6.205078125 38.8052978515625
14.802490234375 -8.710205078125 40.083740234375
4.628662109375 8.2908935546875 -47.10107421875
-12.994140625 -7.8023681640625 9.47900390625
-2.049072265625 6.8900146484375 30.7816162109375
24.24609375 6.4715576171875 -30.0745849609375
2.395263671875 16.734130859375 -11.75537109375
-3.546142578125 8.174072265625 27.142333984375
19.067626953125 3.9661865234375 -35.193115234375
11.275390625 0.93359375 24.330810546875
3.2529296875 14.38134765625 6.442138671875
-16.31494140625 5.9246826171875 26.2847900390625
8.4990234375 6.3699951171875 20.2261962890625
14.98486328125 9.6153564453125 25.8170166015625
-8.2353515625 10.4351806640625 17.408935546875
14.387939453125 -10.0455322265625 42.651123046875
-10.8515625 -6.8770751953125 8.4759521484375
5.236083984375 5.4710693359375 33.7137451171875
10.91455078125 18.555908203125 -7.0653076171875
2.0146484375 11.8656005859375 -56.3287353515625
13.791259765625 5.8602294921875 29.84130859375
-7.769287109375 -4.375 22.217041015625
-7.947509765625 -6.5162353515625 4.21142578125
-31.126708984375 -3.5184326171875 20.77197265625
3.54248046875 5.4140625 30.33740234375
25.4912109375 -6.504150390625 33.5208740234375
-34.61083984375 -9.519775390625 6.2574462890625
7.046630859375 14.2528076171875 -13.469970703125
-17.038818359375 -12.4095458984375 19.6046142578125
-19.031982421875 -11.465576171875 12.8927001953125
-7.020751953125 -2.3502197265625 18.60302734375
6.39697265625 5.5074462890625 36.2603759765625
13.940673828125 5.78271484375 -40.349609375
-0.0087890625 7.045654296875 -45.689697265625
16.3857421875 25.668212890625 -28.4234619140625
14.77880859375 8.0355224609375 -45.702880859375
-21.591552734375 -5.9281005859375 2.6357421875
-22.555419921875 -9.4368896484375 14.953125
5.845947265625 1.462646484375 24.2774658203125
-1.27685546875 2.0233154296875 -32.7030029296875
-24.299560546875 -6.5523681640625 5.078857421875
2.3447265625 6.7960205078125 -44.5125732421875
16.99658203125 18.2755126953125 -4.2215576171875
22.0224609375 -8.8802490234375 37.7391357421875
-20.81298828125 -10.8134765625 17.2174072265625
10.647705078125 2.3731689453125 -30.6029052734375
-17.545166015625 -8.11083984375 22.5811767578125
-5.450927734375 32.37548828125 -48.2099609375
11.274658203125 4.6527099609375 32.382568359375
9.548095703125 12.2420654296875 -11.377197265625
19.092041015625 19.05908203125 -7.1502685546875
13.636962890625 10.9210205078125 -53.7391357421875
27.600830078125 -4.2288818359375 28.1927490234375
-20.782958984375 -3.721435546875 23.7867431640625
0.203125 5.3104248046875 -40.9117431640625
-0.80224609375 2.9119873046875 43.1781005859375
2.55078125 2.824462890625 43.4495849609375
-21.786865234375 -7.237548828125 5.85791015625
-26.18505859375 -7.2652587890625 7.3714599609375
-31.262451171875 -9.881591796875 15.2728271484375
-19.0341796875 3.62060546875 27.584716796875
-9.5751953125 -8.7740478515625 14.5206298828125
-18.7900390625 1.847412109375 28.4454345703125
10.0673828125 15.7431640625 2.212890625
-11.592041015625 -9.0128173828125 12.2354736328125
-7.2861328125 -10.1346435546875 14.7496337890625
-20.91015625 -6.077880859375 22.7109375
13.791748046875 9.2874755859375 -48.9398193359375
-32.497314453125 -1.9541015625 18.3333740234375
7.646728515625 3.704345703125 -35.9295654296875
0.353759765625 11.75537109375 15.332763671875
2.525146484375 16.3385009765625 -10.0318603515625
-1.844970703125 -0.720947265625 53.296630859375
8.90234375 12.131103515625 -57.1500244140625
14.880859375 -12.9366455078125 48.9232177734375
4.914794921875 0.072509765625 29.437744140625
-15.208251953125 -4.5008544921875 22.9730224609375
-6.516845703125 32.7525634765625 -49.827392578125
-6.44775390625 7.0040283203125 29.298095703125
15.9462890625 3.045166015625 -32.8212890625
24.2734375 6.7469482421875 -34.9808349609375
11.565673828125 17.170166015625 1.1131591796875
12.37109375 8.7491455078125 -48.2457275390625
-11.991455078125 -7.001708984375 6.384033203125
-8.682373046875 -10.2012939453125 17.004150390625
-10.734375 -7.9600830078125 20.5191650390625
-3.505615234375 2.998291015625 -34.329345703125
-3.847900390625 33.4796142578125 -52.0322265625
-22.364501953125 -3.4022216796875 23.965576171875
11.470458984375 0.098876953125 27.5552978515625
-12.2998046875 -12.2359619140625 20.806884765625
19.483154296875 5.7911376953125 -39.58935546875
19.673583984375 -11.2723388671875 48.045654296875
-9.0380859375 -3.84228515625 24.57666015625
-2.271240234375 3.6739501953125 40.3480224609375
-15.65185546875 6.96728515625 23.7037353515625
-14.09228515625 -6.29248046875 5.4962158203125
-34.461181640625 -11.77685546875 12.3052978515625
5.119140625 36.3094482421875 -36.78076171875
16.849365234375 -8.9375 40.2261962890625
-3.76416015625 2.38330078125 -31.7926025390625
-3.67041015625 33.0875244140625 -42.52490234375
7.36767578125 15.7337646484375 1.819580078125
9.0986328125 2.6695556640625 -33.0216064453125
-17.745849609375 -9.998779296875 11.30419921875
-20.37841796875 -10.71484375 23.1959228515625
11.25634765625 10.9422607421875 17.2757568359375
-31.5693359375 -8.28857421875 8.708984375
7.419677734375 2.9736328125 -28.621826171875
-8.96337890625 33.60888671875 -51.9580078125
-19.6826171875 -15.033203125 21.6253662109375
-18.888916015625 -14.13330078125 23.300537109375
6.239013671875 17.4556884765625 -6.923828125
-18.484375 -13.669677734375 19.673583984375
9.910400390625 14.4825439453125 6.8984375
-34.662109375 -10.59228515625 9.768310546875
6.13427734375 6.094970703125 -41.81005859375
19.324951171875 -11.3673095703125 44.9970703125
21.322265625 10.4080810546875 -49.8958740234375
7.838134765625 11.094482421875 17.4505615234375
21.470947265625 5.1363525390625 -36.49267578125
-29.773193359375 -12.376708984375 22.4423828125
-2.0869140625 32.3349609375 -47.3621826171875
16.614990234375 9.956787109375 28.164794921875
-23.882080078125 -4.016845703125 22.740234375
3.16015625 33.97900390625 -41.439697265625
6.432373046875 34.819580078125 -38.9212646484375
5.788818359375 33.216796875 -41.6143798828125
1.732421875 32.8592529296875 -43.68994140625
3.30078125 31.8931884765625 -44.5758056640625
-0.479736328125 32.2225341796875 -45.4971923828125
4.544677734375 32.5550537109375 -43.0950927734375
-1.00439453125 34.3394775390625 -41.7437744140625
8.643798828125 9.6868896484375 -50.6121826171875
-0.61572265625 -0.0472412109375 52.2835693359375
-10.87451171875 32.2818603515625 -46.8277587890625
4.095703125 12.6663818359375 12.5765380859375
8.255859375 12.431884765625 -59.3792724609375
-1.870849609375 11.892578125 -58.098388671875
4.228515625 8.6002197265625 23.8369140625
1.00634765625 4.7001953125 38.2412109375
6.45849609375 0.5115966796875 27.4725341796875
10.9501953125 8.9774169921875 -49.11572265625
-11.04345703125 -11.77734375 20.279052734375
11.9091796875 0.9287109375 29.87109375
4.61669921875 11.657470703125 14.9423828125
-25.632568359375 -11.774658203125 22.125244140625
4.56982421875 8.75146484375 -48.4559326171875
9.887939453125 13.184814453125 -14.0321044921875
12.413818359375 18.6973876953125 -5.9571533203125
-7.14501953125 -8.854248046875 10.65966796875
-2.370849609375 3.66796875 -37.12939453125
-14.649658203125 -6.802490234375 8.33349609375
17.831787109375 11.7926025390625 -55.34912109375
-1.832275390625 2.5130615234375 -34.4405517578125
-28.410400390625 -11.787353515625 19.9359130859375
-3.490966796875 33.0167236328125 -44.7034912109375
-5.326904296875 10.3326416015625 16.8284912109375
8.185791015625 -13.8641357421875 45.8026123046875
17.729736328125 21.9710693359375 -17.1923828125
3.87939453125 17.0216064453125 -3.62109375
7.385009765625 1.2493896484375 -29.6484375
24.79052734375 8.7791748046875 -30.005615234375
4.730224609375 35.3345947265625 -34.50146484375
6.408447265625 -14.893798828125 49.813232421875
-10.589599609375 -10.76025390625 19.1558837890625
9.41162109375 -0.56982421875 29.274658203125
-3.183349609375 11.5718994140625 -57.0067138671875
13.16259765625 15.1068115234375 3.3641357421875
3.36328125 3.44580078125 -33.6690673828125
-28.064208984375 -10.7135009765625 18.3253173828125
8.607421875 10.691650390625 -52.8729248046875
18.369140625 9.870361328125 -50.4493408203125
4.428955078125 13.737060546875 9.9783935546875
-13.767578125 9.7406005859375 18.49658203125
-3.059814453125 6.3115234375 33.6328125
-2.29248046875 7.8968505859375 -47.2691650390625
-10.949951171875 7.9013671875 26.0150146484375
8.110107421875 14.6771240234375 6.201416015625
18.0078125 8.681396484375 -46.9083251953125
-33.440185546875 -2.44482421875 23.54345703125
18.0908203125 20.027587890625 -10.0089111328125
6.312744140625 8.9407958984375 -49.55322265625
20.4091796875 19.38427734375 -8.1343994140625
22.842529296875 11.4132080078125 -50.9052734375
-1.4560546875 5.9913330078125 33.4544677734375
3.90673828125 5.43896484375 -40.3165283203125
22.254638671875 12.88671875 -55.51123046875
-30.6416015625 -11.5062255859375 18.3994140625
9.308837890625 7.1082763671875 -43.7652587890625
14.368896484375 6.790771484375 -42.6806640625
4.620361328125 14.1593017578125 7.2474365234375
10.25634765625 16.7218017578125 -9.4642333984375
-2.022705078125 9.07421875 -50.787353515625
5.377685546875 4.393798828125 -37.3809814453125
10.4814453125 11.8343505859375 16.49755859375
12.477294921875 -11.6324462890625 46.9901123046875
-0.8984375 6.4652099609375 -44.56396484375
-9.346435546875 -6.4559326171875 6.4439697265625
-19.68505859375 -9.564453125 5.7230224609375
1.80029296875 8.3642578125 -48.0550537109375
12.185791015625 14.6107177734375 7.31982421875
25.4794921875 8.7132568359375 -27.5120849609375
18.989501953125 23.272216796875 -20.8189697265625
9.870361328125 4.725341796875 -38.1627197265625
18.580322265625 5.362548828125 -38.5733642578125
14.556640625 4.0079345703125 -35.1728515625
11.19580078125 2.72900390625 31.473388671875
1.57568359375 7.975341796875 27.5770263671875
11.945556640625 8.1090087890625 -46.658447265625
3.0556640625 4.2681884765625 -37.7874755859375
24.299072265625 -6.4981689453125 34.233642578125
-1.332275390625 33.27294921875 -50.3167724609375
19.866455078125 19.7587890625 -9.7506103515625
2.427734375 6.8170166015625 29.3990478515625
-4.194580078125 33.2529296875 -50.704833984375
12.2490234375 4.4024658203125 -36.432861328125
-2.74560546875 32.84228515625 -49.70654296875
-2.764404296875 10.7789306640625 16.0364990234375
4.504150390625 3.0836181640625 -34.7755126953125
7.3642578125 13.6060791015625 -17.281005859375
-0.21923828125 13.346435546875 -62.22607421875
10.333740234375 12.4564208984375 -12.6993408203125
-20.390625 -11.9837646484375 18.70947265625
-21.05859375 -11.016845703125 21.6318359375
-17.13525390625 -12.4722900390625 22.0126953125
5.394775390625 10.0548095703125 20.4447021484375
-18.351806640625 -11.075439453125 23.4083251953125
-1.613525390625 0.6514892578125 49.897216796875
-33.304443359375 -10.255615234375 10.2227783203125
16.35107421875 18.337646484375 -2.0892333984375
-8.432373046875 8.3369140625 25.2520751953125
-8.9970703125 -8.7454833984375 12.4599609375
-33.03466796875 -9.103271484375 8.065185546875
-6.52392578125 32.3280029296875 -41.922119140625
-18.879150390625 -9.3868408203125 8.336181640625
6.684326171875 18.163818359375 -4.3743896484375
-15.861572265625 -7.9505615234375 10.214599609375
-10.4951171875 9.11279296875 21.4761962890625
-1.203857421875 11.7703857421875 13.2296142578125
24.326904296875 5.2410888671875 -30.929931640625
1.013916015625 1.76806640625 46.1024169921875
0.3291015625 3.8939208984375 -37.40966796875
13.25048828125 10.5772705078125 -52.33349609375
1.24560546875 35.3009033203125 -40.1400146484375
4.658447265625 34.0557861328125 -40.757568359375
1.845947265625 34.3599853515625 -41.3524169921875
5.012939453125 0.3734130859375 -25.43310546875
-2.138671875 11.008544921875 17.2344970703125
2.218017578125 3.6229248046875 -36.12548828125
-2.060791015625 8.7149658203125 24.646728515625
-28.02099609375 -12.754638671875 20.847900390625
4.37548828125 0.1324462890625 -26.6837158203125
14.194580078125 12.5341796875 13.381103515625
10.86474609375 16.8699951171875 -0.5755615234375
5.934814453125 2.2742919921875 -32.530517578125
-2.697265625 0.7176513671875 50.9913330078125
-2.08056640625 1.024658203125 -30.3265380859375
-2.61474609375 2.789306640625 45.44384765625
3.976806640625 15.95068359375 -1.0447998046875
6.546142578125 36.3203125 -36.583740234375
18.703857421875 -11.35595703125 39.1953125
1.578857421875 11.9130859375 14.4967041015625
-8.634521484375 31.922119140625 -43.338134765625
15.484375 19.1397705078125 -7.400146484375
5.75390625 10.765625 -53.8353271484375
14.58837890625 24.4891357421875 -25.7391357421875
17.40966796875 24.2591552734375 -24.6846923828125
20.761474609375 13.4422607421875 -57.6875
9.464111328125 3.361083984375 -35.1104736328125
10.021240234375 1.5318603515625 27.138427734375
-14.8759765625 -8.1029052734375 11.517333984375
6.2568359375 11.697265625 14.0775146484375
10.6083984375 11.865478515625 -57.9600830078125
12.01904296875 18.2003173828125 -4.5826416015625
14.4990234375 19.966552734375 -13.7789306640625
-1.096923828125 0.0579833984375 -27.8978271484375
5.6923828125 0.71337890625 -27.8729248046875
5.044677734375 0.0269775390625 27.078125
-10.32275390625 -7.4619140625 10.128662109375
-28.05517578125 -9.718017578125 14.4522705078125
-12.38818359375 -10.9783935546875 21.561767578125
-9.468994140625 9.9942626953125 18.3909912109375
5.837646484375 14.5489501953125 5.78076171875
-6.57080078125 -12.0203857421875 19.88525390625
-14.655029296875 -11.0953369140625 20.24462890625
-11.964111328125 -4.4615478515625 22.2384033203125
1.72607421875 13.61474609375 -57.9351806640625
-24.99072265625 -3.7283935546875 20.4669189453125
-29.55078125 -11.05615234375 16.958251953125
-16.736328125 -9.879150390625 12.445068359375
22.800048828125 0.892578125 52.1224365234375
26.76513671875 -5.02099609375 30.177001953125
-33.22412109375 -11.31201171875 14.616455078125
-31.990234375 -9.719482421875 12.9669189453125
6.69140625 10.20166015625 -52.62158203125
20.52734375 3.81640625 -33.87744140625
3.0087890625 13.518798828125 9.4219970703125
9.512939453125 16.48486328125 -0.0655517578125
-22.566162109375 -10.8978271484375 19.5496826171875
-18.65869140625 -13.9322509765625 21.7353515625
-32.349853515625 -7.7860107421875 5.7066650390625
-13.837890625 10.3203125 17.242919921875
30.157470703125 -4.646484375 33.484619140625
1.63427734375 8.9837646484375 -50.56884765625
-17.906005859375 -12.06689453125 15.826904296875
12.489990234375 5.708251953125 -41.0101318359375
21.7646484375 -10.6771240234375 39.13720703125
9.292724609375 18.189453125 -4.9759521484375
14.44970703125 4.7568359375 -37.7186279296875
-3.5966796875 12.39306640625 -57.9837646484375
24.361572265625 7.5745849609375 -36.0321044921875
-9.407958984375 -5.910888671875 5.1805419921875
21.48095703125 2.9755859375 -31.5001220703125
7.52197265625 -14.71923828125 48.603759765625
5.200927734375 33.6424560546875 -27.7496337890625
25.387451171875 10.1785888671875 -27.3070068359375
-33.04736328125 -9.10302734375 5.1708984375
11.71142578125 14.1268310546875 -15.5020751953125
6.75048828125 4.3955078125 -37.1915283203125
16.219482421875 11.963134765625 -57.7947998046875
7.89794921875 12.2381591796875 -58.062744140625
6.767578125 4.5914306640625 33.826904296875
-3.1865234375 5.2564697265625 40.6942138671875
22.786376953125 7.866943359375 -43.2828369140625
-7.348388671875 9.13720703125 22.6995849609375
-4.62109375 7.02587890625 30.3150634765625
-18.377197265625 -5.2130126953125 24.988037109375
1.13818359375 3.516357421875 41.1043701171875
3.91650390625 5.009765625 37.4853515625
-28.352783203125 -10.132568359375 15.701171875
-12.858642578125 -4.3153076171875 24.7171630859375
8.05322265625 15.5081787109375 4.2811279296875
23.110107421875 -10.854248046875 44.422607421875
0.739013671875 13.76318359375 8.31494140625
-29.646484375 -10.5311279296875 15.740966796875
12.698486328125 -11.18701171875 40.826904296875
-10.33544921875 31.805419921875 -45.57568359375
17.244384765625 -11.729248046875 45.601318359375
-28.381103515625 -4.3145751953125 20.5894775390625
2.40087890625 5.8575439453125 34.1170654296875
7.0478515625 0.76806640625 24.849853515625
26.39306640625 7.4615478515625 -29.0816650390625
-20.15771484375 -1.7403564453125 25.9031982421875
4.26416015625 5.2967529296875 25.984130859375
10.57470703125 12.998291015625 11.4776611328125
28.832275390625 -5.3236083984375 34.561767578125
-13.6318359375 -9.9169921875 17.0091552734375
4.6708984375 4.1572265625 31.1978759765625
0.255859375 34.05419921875 -42.4193115234375
-16.56396484375 4.9144287109375 28.745849609375
14.2548828125 11.3134765625 -57.4296875
8.3212890625 5.525390625 38.18310546875
-0.264404296875 4.3502197265625 38.676025390625
-30.861572265625 -7.7109375 7.2535400390625
-4.22314453125 4.787353515625 -35.787841796875
-10.982177734375 32.259521484375 -44.061279296875
-2.910400390625 5.6044921875 35.821533203125
0.5859375 12.6043701171875 12.3988037109375
-22.494384765625 -6.930908203125 3.417236328125
3.485595703125 15.551025390625 -11.8497314453125
-26.5634765625 -12.6771240234375 22.354736328125
8.59130859375 0.7237548828125 23.590576171875
-17.2783203125 -6.62548828125 22.6712646484375
-9.2041015625 8.0936279296875 29.3348388671875
12.479736328125 17.7874755859375 -11.5867919921875
-10.3349609375 7.491943359375 27.988525390625
32.218994140625 -2.955078125 24.200927734375
-16.4580078125 -6.958740234375 4.4713134765625
-0.2197265625 3.7938232421875 39.8643798828125
-17.014892578125 4.858154296875 25.5645751953125
-7.7841796875 7.7110595703125 27.8062744140625
-0.066650390625 8.5640869140625 -48.7919921875
-32.943115234375 -1.791015625 20.7196044921875
-18.427490234375 -8.2164306640625 7.0904541015625
8.482666015625 3.2542724609375 32.7222900390625
7.953125 5.6104736328125 34.950927734375
31.39892578125 -3.9691162109375 31.4866943359375
-26.58837890625 -8.9072265625 12.2340087890625
6.450439453125 1.8272705078125 -27.1751708984375
16.46240234375 -9.8206787109375 38.4482421875
-9.065185546875 -4.5106201171875 22.10009765625
-11.473388671875 10.0738525390625 19.2677001953125
-15.002197265625 -11.772216796875 21.6295166015625
9.705322265625 7.5927734375 -45.2392578125
-10.398193359375 -5.7547607421875 3.8577880859375
5.071533203125 34.0869140625 -29.5723876953125
-22.93505859375 -3.087890625 22.5086669921875
8.45654296875 1.88134765625 -29.2515869140625
3.341796875 1.1304931640625 49.119384765625
23.787353515625 -10.04150390625 41.1531982421875
-23.26171875 -7.79052734375 7.9615478515625
-3.268310546875 10.5570068359375 19.16357421875
12.614013671875 11.65185546875 -56.135498046875
14.859130859375 6.3619384765625 -41.467529296875
-25.037109375 -3.404052734375 22.6688232421875
7.84814453125 13.332275390625 -12.6220703125
18.980224609375 -11.136474609375 41.31640625
17.76611328125 19.3568115234375 -7.5240478515625
2.56689453125 11.22509765625 16.5845947265625
21.360595703125 9.322998046875 -47.0618896484375
-20.65576171875 -7.517333984375 5.270263671875
-15.42578125 6.6754150390625 25.7069091796875
-22.711669921875 -7.0128173828125 4.973388671875
-8.41552734375 -9.855712890625 15.3282470703125
3.68896484375 3.8658447265625 40.87060546875
-30.3359375 -7.8160400390625 5.2562255859375
-1.774658203125 9.1070556640625 22.951416015625
-0.739501953125 10.715576171875 18.533935546875
25.492431640625 -5.9658203125 32.3209228515625
4.72607421875 7.22412109375 -44.3050537109375
3.1083984375 8.676513671875 -49.1214599609375
-7.87890625 -9.160400390625 11.9559326171875
5.210205078125 35.4295654296875 -38.44921875
-28.826171875 -3.131103515625 21.944580078125
-4.218505859375 9.0194091796875 23.9991455078125
5.57666015625 11.243896484375 -56.2833251953125
-20.193359375 -9.050048828125 7.4832763671875
24.998046875 -6.9970703125 38.037109375
-7.033935546875 -7.83349609375 6.6856689453125
2.835693359375 35.6068115234375 -39.0731201171875
17.58349609375 -10.935546875 43.33154296875
-19.04931640625 -12.329345703125 13.8538818359375
5.724609375 13.4483642578125 10.3380126953125
4.9619140625 34.6944580078125 -31.5006103515625
-19.671630859375 -12.421630859375 15.4730224609375
-12.851806640625 -4.97216796875 19.388427734375
10.959716796875 -13.0269775390625 43.459228515625
-6.497802734375 -1.36181640625 17.9615478515625
15.890380859375 21.5396728515625 -16.5281982421875
3.524658203125 34.5228271484375 -31.599609375
-5.377197265625 32.7589111328125 -40.8310546875
20.2314453125 19.9576416015625 -10.9674072265625
-27.04736328125 -10.4647216796875 16.5380859375
-3.4951171875 7.602783203125 28.3682861328125
12.935546875 9.7789306640625 -66.5911865234375
0.104736328125 5.9876708984375 -42.91015625
10.12353515625 -0.33935546875 31.3546142578125
7.252197265625 14.2471923828125 7.1143798828125
-34.81982421875 -12.5145263671875 16.1270751953125
-24.9912109375 -8.95947265625 14.7650146484375
-31.989501953125 -10.847900390625 16.9229736328125
20.323974609375 -12.25537109375 40.67138671875
22.843994140625 6.949951171875 -40.5936279296875
18.61572265625 22.669677734375 -18.828125
-10.156494140625 -12.1279296875 21.212890625
-23.799560546875 -9.90087890625 15.4910888671875
-31.673583984375 -2.659423828125 19.007080078125
-2.41015625 0.8541259765625 -29.1016845703125
-33.087890625 -7.617919921875 3.3560791015625
7.50634765625 -0.615478515625 31.1107177734375
4.461181640625 7.2052001953125 24.4964599609375
16.82080078125 -9.7288818359375 41.534423828125
5.37841796875 12.748291015625 12.2532958984375
6.190673828125 3.8011474609375 40.847900390625
-23.79931640625 -12.0819091796875 20.9422607421875
14.445556640625 7.0828857421875 29.56982421875
-34.168701171875 -13.8551025390625 19.0831298828125
2.471923828125 14.0205078125 7.7955322265625
-0.100341796875 1.2197265625 47.9583740234375
-2.4091796875 12.7264404296875 -60.1546630859375
12.641845703125 14.0379638671875 8.5106201171875
-7.1552734375 6.9483642578125 30.419921875
13.931884765625 3.5042724609375 -31.5635986328125
-24.660400390625 -6.9068603515625 2.931884765625
8.90576171875 -13.7059326171875 44.6724853515625
14.583740234375 23.2900390625 -23.4732666015625
-10.982666015625 -4.40234375 20.094970703125
29.2890625 -4.889404296875 29.5767822265625
-20.015625 -9.501953125 24.341064453125
12.887451171875 4.6826171875 31.558837890625
-30.08251953125 -7.0545654296875 3.3040771484375
10.27001953125 6.217529296875 35.57568359375
8.949462890625 12.3634033203125 13.632080078125
18.692138671875 12.5611572265625 -57.7030029296875
-32.21875 -9.0621337890625 10.73681640625
28.7197265625 -4.6573486328125 36.116943359375
20.312744140625 9.74072265625 -49.2257080078125
-0.498779296875 7.491943359375 28.7344970703125
9.355712890625 4.5948486328125 34.2203369140625
-12.2509765625 -6.5345458984375 3.7486572265625
-1.938720703125 10.1976318359375 20.025634765625
-3.707763671875 6.789794921875 31.1824951171875
23.561767578125 4.854248046875 -33.1375732421875
-25.44677734375 -5.2979736328125 19.0445556640625
19.279052734375 18.8765869140625 -5.0594482421875
0.660400390625 8.2138671875 26.701171875
-6.493896484375 -10.8299560546875 15.42822265625
-22.35009765625 -3.3875732421875 21.1197509765625
-11.945068359375 32.65771484375 -48.438720703125
-22.3056640625 -8.9556884765625 13.1986083984375
-0.65673828125 32.9263916015625 -48.0714111328125
3.729248046875 33.1517333984375 -27.656982421875
20.443115234375 21.9161376953125 -17.2646484375
-20.779541015625 -9.213134765625 12.5162353515625
1.670654296875 9.525146484375 22.4769287109375
19.201171875 21.805419921875 -15.8817138671875
-3.090087890625 6.481689453125 -44.026611328125
2.704345703125 3.242431640625 -31.28955078125
-17.39599609375 3.0916748046875 27.974853515625
-19.95556640625 -4.8941650390625 25.1661376953125
21.360107421875 5.7425537109375 -38.956298828125
-3.6953125 3.4820556640625 -33.0096435546875
-32.366943359375 -12.70556640625 21.798828125
6.48583984375 -0.868408203125 30.04833984375
1.04296875 10.1624755859375 19.881591796875
16.725830078125 5.1851806640625 -38.540283203125
20.4462890625 4.939208984375 -37.18017578125
-2.779052734375 4.276123046875 38.7713623046875
-17.2177734375 -7.67919921875 6.0250244140625
-9.58447265625 -6.5386962890625 7.9990234375
0.11328125 0.4674072265625 -25.854736328125
0.703369140625 14.11572265625 -59.651123046875
-8.437744140625 -6.1298828125 3.1302490234375
11.5048828125 5.1368408203125 33.5045166015625
9.312255859375 -13.0245361328125 46.9638671875
15.889892578125 4.0853271484375 -35.5455322265625
15.7763671875 19.2689208984375 -9.067138671875
-24.278564453125 -10.7200927734375 18.8931884765625
5.075927734375 12.5 -12.0211181640625
-12.477783203125 8.6929931640625 23.0791015625
-27.1220703125 -8.0574951171875 7.552490234375
-13.392333984375 -6.2537841796875 4.34033203125
14.422119140625 15.194580078125 6.5196533203125
-16.787109375 4.572021484375 27.554443359375
2.2470703125 8.966064453125 24.552490234375
-12.971923828125 -12.133544921875 21.84228515625
0.08251953125 8.769287109375 24.6376953125
-20.78173828125 -8.000244140625 7.9927978515625
7.314697265625 12.1829833984375 -11.3388671875
-11.15283203125 8.338134765625 23.9306640625
-33.868408203125 -11.9432373046875 13.6915283203125
1.5478515625 1.00244140625 -29.63818359375
19.802490234375 -12.0904541015625 39.32763671875
-10.01416015625 7.804931640625 26.8131103515625
21.635009765625 -11.993896484375 40.7261962890625
-8.804443359375 -7.992919921875 9.595947265625
-15.17578125 -4.4888916015625 20.1195068359375
-13.472900390625 -7.2843017578125 8.333740234375
-5.720458984375 33.5972900390625 -52.19677734375
-9.82421875 32.697998046875 -50.0814208984375
8.1279296875 17.0909423828125 -1.59130859375
-10.301513671875 -3.7056884765625 24.3094482421875
8.2783203125 13.83935546875 9.0794677734375
-2.1640625 7.390869140625 29.138671875
-29.242919921875 -9.5123291015625 11.7440185546875
-27.701416015625 -3.28466796875 24.1365966796875
-6.9755859375 8.1177978515625 26.9532470703125
-24.758056640625 -8.612060546875 13.0875244140625
-16.649658203125 -10.275146484375 13.6007080078125
2.638671875 0.03515625 -26.2042236328125
-14.65234375 -8.96630859375 14.33740234375
-20.520751953125 -6.9298095703125 23.550048828125
15.072509765625 11.85693359375 -55.2437744140625
29.787841796875 -2.1912841796875 23.857421875
-18.62158203125 -10.712158203125 11.901611328125
-27.586181640625 -3.5247802734375 19.5123291015625
-21.342041015625 -9.7047119140625 20.9854736328125
4.311767578125 5.56591796875 32.92236328125
-20.496337890625 -8.9954833984375 23.2384033203125
-12.643310546875 -9.7357177734375 14.7838134765625
11.441650390625 -12.1597900390625 42.4791259765625
3.25048828125 24.9288330078125 -18.1273193359375
8.497802734375 -13.833740234375 48.4228515625
-20.955322265625 -5.1356201171875 21.2728271484375
-16.9814453125 -10.82421875 14.9327392578125
20.768798828125 11.790283203125 -53.896484375
8.628662109375 -1.0283203125 30.6114501953125
10.658447265625 6.0557861328125 -41.8394775390625
-9.550048828125 -4.1268310546875 21.0560302734375
14.545654296875 13.8326416015625 10.1739501953125
-23.588134765625 -11.8699951171875 22.1888427734375
-11.320068359375 33.36572265625 -51.7781982421875
-26.12060546875 -9.68505859375 16.3726806640625
13.998046875 12.2637939453125 16.0032958984375
24.213623046875 -11.261474609375 43.936767578125
-1.184326171875 4.44384765625 37.893310546875
-22.790771484375 -10.5137939453125 17.4990234375
21.92578125 -10.6497802734375 44.5682373046875
-26.94580078125 -10.8568115234375 17.6787109375
-17.67529296875 -4.0355224609375 25.6239013671875
-21.384765625 -11.10400390625 19.396728515625
16.935791015625 18.592529296875 -5.394287109375
3.81884765625 13.855712890625 -60.2762451171875
4.013671875 4.8426513671875 28.1632080078125
17.6357421875 25.3826904296875 -29.0809326171875
-10.0263671875 32.44580078125 -47.6826171875
6.171875 18.4503173828125 -5.4283447265625
22.814208984375 9.6307373046875 -47.073974609375
14.787841796875 -11.6544189453125 45.6199951171875
16.377685546875 -11.18896484375 44.1590576171875
3.203125 34.0418701171875 -29.6434326171875
17.548095703125 20.79443359375 -12.3623046875
12.5927734375 17.2171630859375 -1.6522216796875
-8.07470703125 32.5574951171875 -47.13330078125
-30.4228515625 -6.7047119140625 20.446533203125
15.678955078125 20.8428955078125 -12.99267578125
0.18017578125 9.9801025390625 -53.0111083984375
5.231689453125 4.801025390625 38.2442626953125
6.856689453125 -15.14794921875 47.1544189453125
5.972900390625 14.01416015625 -62.0345458984375
12.45849609375 -12.4090576171875 48.268798828125
15.23583984375 9.210693359375 -48.17041015625
-20.50341796875 -12.3125 21.269287109375
13.827392578125 12.2056884765625 14.6080322265625
1.603271484375 1.0391845703125 48.606689453125
-10.560546875 -5.5543212890625 2.316162109375
5.656005859375 11.4033203125 16.79296875
26.037109375 -6.5430908203125 34.81982421875
17.571044921875 -10.4141845703125 42.16943359375
3.991943359375 33.256103515625 -25.65576171875
-16.43310546875 -5.571044921875 21.4498291015625
5.947509765625 12.9166259765625 -60.20849609375
14.25146484375 19.7513427734375 -11.5469970703125
-13.498779296875 -4.8172607421875 23.708251953125
0.919921875 11.0419921875 17.5216064453125
8.75830078125 16.03564453125 1.84716796875
10.27392578125 3.837158203125 32.5262451171875
13.34765625 9.10888671875 -65.6988525390625
-2.728271484375 3.755126953125 43.169189453125
8.595947265625 14.998291015625 -9.1431884765625
6.914306640625 11.339111328125 16.5537109375
3.6884765625 11.9029541015625 14.0419921875
-3.90771484375 3.7818603515625 -35.241455078125
16.66943359375 23.04736328125 -20.678466796875
12.15087890625 16.29150390625 -11.69873046875
9.201171875 0.954833984375 24.765625
-1.797607421875 7.31640625 -45.949951171875
4.28076171875 6.2928466796875 -42.54052734375
4.419921875 14.8511962890625 4.4443359375
3.48291015625 7.5423583984375 26.439453125
19.740966796875 10.3411865234375 -51.6322021484375
19.874267578125 -11.220703125 42.083984375
4.754638671875 1.465576171875 -29.6611328125
-21.08349609375 -8.28662109375 9.1875
-6.40185546875 -6.9134521484375 3.59228515625
0.971923828125 2.316650390625 44.9344482421875
4.317626953125 2.1728515625 28.0306396484375
21.5419921875 -11.5294189453125 42.79931640625
24.200439453125 11.5849609375 -47.011474609375
-28.319580078125 -6.9635009765625 3.8148193359375
13.895263671875 19.5531005859375 -10.3314208984375
-25.602783203125 -4.7042236328125 20.1806640625
10.442138671875 13.8873291015625 -10.470703125
23.429443359375 -8.93896484375 39.314208984375
15.533447265625 9.4156494140625 27.2320556640625
31.40283203125 -4.029052734375 27.284423828125
14.601806640625 22.253662109375 -21.315673828125
-15.28515625 -6.560546875 6.40625
14.531005859375 3.1187744140625 -33.5712890625
9.869873046875 -12.944580078125 44.5517578125
2.886962890625 9.6787109375 21.6573486328125
-16.273193359375 -10.2520751953125 16.3609619140625
-18.61181640625 0.771240234375 28.0224609375
-24.608154296875 -6.978271484375 6.36181640625
6.024658203125 12.2484130859375 -11.0787353515625
7.47509765625 12.962890625 11.192138671875
19.49365234375 7.532470703125 -43.336181640625
8.759521484375 13.416259765625 10.1815185546875
3.145263671875 12.7677001953125 11.7523193359375
27.619873046875 -5.9237060546875 32.3179931640625
-31.615966796875 -9.0985107421875 12.0555419921875
21.26025390625 19.5281982421875 -8.915771484375
11.483154296875 2.497802734375 -31.4039306640625
-26.353759765625 -9.2969970703125 14.30810546875
-33.645263671875 -1.934326171875 16.1962890625
2.696044921875 7.5074462890625 -46.6593017578125
6.234375 17.6019287109375 -3.4603271484375
21.429443359375 -10.72802734375 47.878173828125
1.86474609375 12.6859130859375 12.0758056640625
2.348876953125 3.2506103515625 -34.349853515625
29.212890625 -3.8006591796875 26.2183837890625
13.699951171875 12.80908203125 12.3663330078125
-17.450439453125 -8.5045166015625 8.4774169921875
15.113525390625 -8.3653564453125 38.4718017578125
12.489990234375 3.7808837890625 29.734375
7.10498046875 12.119140625 13.18408203125
-11.6123046875 -9.9488525390625 16.5731201171875
-7.093505859375 -10.4627685546875 13.453125
-21.427001953125 -3.35546875 24.6768798828125
-5.847412109375 -10.2664794921875 13.06396484375
-26.325927734375 -8.153564453125 10.313720703125
4.911865234375 12.5897216796875 -13.5653076171875
-19.908203125 -6.6993408203125 24.7020263671875
18.12548828125 6.3155517578125 -40.6439208984375
-16.60107421875 -11.396484375 18.4822998046875
-25.0751953125 -9.8970947265625 18.1492919921875
-8.319580078125 -11.7025146484375 21.9881591796875
18.047119140625 -10.9901123046875 40.0682373046875
-4.55029296875 32.8128662109375 -45.4144287109375
-18.7734375 -7.4420166015625 24.8460693359375
13.61181640625 -11.1259765625 45.154541015625
-11.588134765625 7.275634765625 28.3660888671875
-33.460693359375 -3.14404296875 15.8621826171875
-9.725830078125 -9.7176513671875 17.9249267578125
6.953369140625 10.3880615234375 18.4898681640625
-28.3974609375 -8.932861328125 11.225341796875
-25.955322265625 -11.7303466796875 19.822998046875
-6.810302734375 -7.9581298828125 8.640380859375
5.283935546875 13.4541015625 -15.6817626953125
-26.318115234375 -3.5394287109375 22.5521240234375
-18.502685546875 -9.75732421875 23.6737060546875
-32.6650390625 -13.11962890625 20.216552734375
11.36962890625 0.0750732421875 30.413818359375
1.875732421875 10.578369140625 19.0050048828125
4.888427734375 10.6876220703125 18.78125
9.462890625 3.5782470703125 33.2935791015625
-3.99658203125 33.0245361328125 -41.3226318359375
3.540283203125 10.9046630859375 17.9932861328125
-3.720947265625 5.3720703125 -39.9759521484375
-20.69677734375 -12.842041015625 23.474609375
-32.13232421875 -11.244873046875 21.886474609375
-5.693603515625 7.9791259765625 27.224365234375
-25.4609375 -12.953125 21.7890625
-8.9111328125 -11.8021240234375 20.7603759765625
2.690673828125 18.2213134765625 -8.06640625
13.6494140625 -13.1246337890625 49.2659912109375
4.23828125 5.177490234375 36.404541015625
5.672119140625 15.9168701171875 2.0986328125
-22.48388671875 -7.4110107421875 7.085205078125
24.76123046875 6.093017578125 -33.1220703125
10.89697265625 15.890869140625 -10.166748046875
-1.7880859375 0.4427490234375 -26.9290771484375
-3.69873046875 10.947021484375 -52.6519775390625
-25.77294921875 -7.239013671875 4.3533935546875
18.291259765625 -11.7340087890625 47.6475830078125
-19.113525390625 -13.4447021484375 17.805419921875
2.255615234375 4.4244384765625 38.5804443359375
9.6796875 -12.605224609375 49.383544921875
1.603271484375 5.9847412109375 -41.682373046875
10.37890625 -12.2537841796875 47.7222900390625
10.487548828125 2.8177490234375 -32.9268798828125
-32.180419921875 -10.66015625 15.439697265625
8.1015625 13.0819091796875 -9.990966796875
-22.519775390625 -8.4288330078125 11.0382080078125
-7.463623046875 32.3585205078125 -49.3526611328125
0.362548828125 32.224853515625 -46.2491455078125
-30.13720703125 -11.875244140625 19.431640625
-9.22607421875 -3.914794921875 23.23974609375
-12.095458984375 -8.76953125 11.2552490234375
27.5419921875 -5.589599609375 30.765625
-29.614013671875 -8.1190185546875 7.6796875
-11.76220703125 -7.73876953125 9.162841796875
-28.9736328125 -7.61083984375 5.792236328125
25.144775390625 9.5616455078125 -37.4256591796875
-11.172607421875 32.75537109375 -49.78564453125
10.053955078125 13.695068359375 -17.443359375
16.925048828125 10.3343505859375 -52.01171875
16.9560546875 21.2584228515625 -14.54638671875
17.56201171875 20.1663818359375 -10.990478515625
-6.7373046875 8.722900390625 24.6912841796875
-8.44677734375 32.0107421875 -45.6158447265625
2.34375 15.43505859375 -59.8218994140625
7.8720703125 14.7713623046875 -14.9803466796875
15.12939453125 9.9886474609375 -50.80029296875
-0.38671875 12.0465087890625 12.416748046875
1.930908203125 3.772705078125 40.354248046875
-26.201904296875 -3.79443359375 20.7716064453125
4.42626953125 3.3807373046875 -35.9920654296875
23.86083984375 -7.1900634765625 35.5960693359375
17.565185546875 9.42138671875 -48.342041015625
8.575927734375 11.313720703125 -54.3531494140625
7.052490234375 11.319580078125 -55.6114501953125
-30.56591796875 -9.3123779296875 10.977294921875
-12.400390625 -10.321533203125 17.427978515625
9.865966796875 11.3270263671875 -55.2335205078125
-2.72705078125 3.3084716796875 47.0477294921875
21.77392578125 -10.257568359375 46.2259521484375
18.484619140625 7.4847412109375 -44.129150390625
4.511962890625 2.3785400390625 29.2999267578125
11.571044921875 12.0797119140625 14.1865234375
