0.15869140625 0.8779296875 -34.600830078125
-34.58837890625 -5.74072265625 17.09033203125
-28.55712890625 -16.7396240234375 20.136474609375
-19.695556640625 -7.7291259765625 25.428466796875
15.989013671875 3.3560791015625 -40.954345703125
-9.814453125 -10.7149658203125 7.924560546875
-0.947998046875 -0.5430908203125 -30.3228759765625
-10.72607421875 -10.293212890625 22.896728515625
-8.7265625 -15.749267578125 19.54833984375
25.4990234375 3.3377685546875 -29.874267578125
-37.70556640625 -8.9154052734375 16.08642578125
-16.903076171875 -0.1712646484375 27.7109375
-21.8212890625 -7.984619140625 22.6776123046875
-6.522216796875 -14.8343505859375 15.7042236328125
2.8291015625 6.063720703125 21.8966064453125
6.168212890625 10.2906494140625 -15.2017822265625
-5.77392578125 6.94091796875 18.406005859375
-31.614501953125 -7.7386474609375 21.8096923828125
-25.54638671875 -17.0599365234375 21.0684814453125
5.4453125 -0.10400390625 -26.8494873046875
3.537109375 14.2491455078125 -9.5343017578125
-10.037109375 4.0966796875 28.94775390625
8.259033203125 2.204345703125 -37.870849609375
-18.816650390625 -15.44482421875 13.4493408203125
30.399658203125 -6.7921142578125 26.28369140625
9.693359375 11.6854248046875 4.2178955078125
8.942626953125 9.968994140625 -10.4871826171875
-23.63623046875 -14.164306640625 16.7244873046875
-12.707763671875 -8.7899169921875 22.0760498046875
10.560302734375 14.5819091796875 -4.595947265625
5.018310546875 1.7469482421875 -37.3514404296875
21.760986328125 17.3564453125 -7.503173828125
-8.34228515625 -11.44189453125 7.007568359375
22.619873046875 17.0611572265625 -15.849365234375
11.213134765625 10.59423828125 7.462646484375
-11.54296875 29.6982421875 -44.044189453125
-20.912109375 -11.1956787109375 5.77783203125
-19.119140625 -10.84521484375 24.04052734375
8.14306640625 12.6282958984375 1.0360107421875
20.978271484375 7.9368896484375 -51.4464111328125
-11.844482421875 -11.1409912109375 6.1585693359375
6.7880859375 12.437255859375 -9.7979736328125
-2.17626953125 4.6983642578125 25.5616455078125
8.688720703125 -2.4356689453125 22.4542236328125
1.0126953125 30.7581787109375 -28.5574951171875
-4.129150390625 5.7071533203125 22.5709228515625
3.818115234375 11.7625732421875 -14.4432373046875
3.70458984375 -1.52392578125 -27.702392578125
-32.86962890625 -6.7921142578125 18.2301025390625
-27.650634765625 -10.97705078125 3.2552490234375
11.28076171875 -15.29931640625 47.38720703125
0.313720703125 -0.8695068359375 42.432373046875
16.4345703125 -16.1160888671875 46.2642822265625
0.14453125 -4.3082275390625 52.3675537109375
2.75390625 11.9775390625 2.05029296875
5.5234375 32.9439697265625 -37.3310546875
-6.211181640625 29.8931884765625 -43.2265625
12.18408203125 9.11328125 -56.620361328125
15.80859375 -15.4554443359375 39.6239013671875
26.674072265625 -7.6231689453125 29.8521728515625
-20.085205078125 -15.7408447265625 16.7762451171875
9.43798828125 10.6636962890625 -15.113037109375
-28.199462890625 -7.430419921875 18.98388671875
4.190673828125 8.7838134765625 -56.0958251953125
6.9375 9.7977294921875 10.2886962890625
4.045654296875 2.8018798828125 32.859130859375
8.484375 -0.661376953125 32.1729736328125
21.22802734375 16.048095703125 -9.793212890625
20.059814453125 5.259521484375 -45.7806396484375
11.55810546875 -4.12890625 27.4912109375
20.5341796875 21.7747802734375 -26.945556640625
17.19677734375 15.1392822265625 -3.2789306640625
15.377685546875 6.3428955078125 -48.019287109375
-26.5322265625 -13.7789306640625 13.7928466796875
11.91796875 -15.34033203125 42.220458984375
25.28857421875 -9.8428955078125 33.577880859375
4.356201171875 8.9373779296875 12.274658203125
-12.720947265625 4.6826171875 24.413330078125
-2.16357421875 0.8533935546875 37.4344482421875
10.603759765625 -2.888427734375 24.6832275390625
0.74658203125 5.412353515625 23.6282958984375
5.13916015625 9.7515869140625 10.201904296875
-6.549072265625 -5.3525390625 18.9814453125
8.4306640625 -16.052001953125 49.226806640625
-8.212646484375 -8.3360595703125 23.2684326171875
2.693359375 3.481201171875 28.02685546875
11.725341796875 3.9903564453125 -42.9989013671875
1.861572265625 29.57080078125 -23.8079833984375
-26.044189453125 -7.8768310546875 19.706787109375
0.308349609375 -2.155029296875 -28.6197509765625
14.36083984375 -14.481689453125 43.62255859375
-8.966064453125 5.072509765625 22.9404296875
6.953857421875 -0.2196044921875 -29.237060546875
19.608154296875 -15.2890625 39.2261962890625
-10.843505859375 5.75048828125 21.05908203125
21.41943359375 -14.466552734375 46.3255615234375
4.951904296875 10.691162109375 7.2657470703125
-11.166259765625 -9.643310546875 18.8212890625
-9.23974609375 4.6187744140625 24.6746826171875
7.985595703125 0.277587890625 -32.93896484375
-31.129150390625 -13.3631591796875 13.630859375
-9.484375 -8.3916015625 20.214111328125
13.443115234375 0.833984375 31.3836669921875
5.32421875 32.95166015625 -35.108154296875
2.40576171875 11.238037109375 -63.302490234375
1.4306640625 2.018798828125 33.77294921875
-0.37646484375 2.44873046875 32.512939453125
26.545166015625 -10.3118896484375 38.2418212890625
-2.769775390625 -1.1346435546875 -29.538330078125
-1.60009765625 9.048828125 10.5245361328125
25.216064453125 -11.044677734375 39.326171875
5.40478515625 3.250244140625 -40.4869384765625
14.670654296875 0.7203369140625 -35.3265380859375
5.05712890625 31.8270263671875 -31.700439453125
2.582763671875 6.523681640625 19.2818603515625
22.9501953125 15.5616455078125 -9.916015625
-1.732666015625 2.0439453125 -36.9697265625
23.119384765625 1.7354736328125 -31.5615234375
-1.374755859375 1.530029296875 36.0064697265625
-2.587890625 -1.5120849609375 47.0362548828125
-34.443359375 -16.1136474609375 19.2020263671875
5.55029296875 1.0184326171875 37.1925048828125
9.006591796875 -3.6923828125 30.6737060546875
22.634033203125 -2.2645263671875 49.2921142578125
15.410888671875 4.2869873046875 27.397705078125
10.11181640625 10.4005126953125 -16.678955078125
-23.451171875 -9.7899169921875 19.1781005859375
17.581298828125 -15.66748046875 44.4437255859375
14.386962890625 -16.8140869140625 47.9190673828125
-12.387451171875 6.256591796875 18.6982421875
23.271484375 -11.1815185546875 37.4520263671875
1.77294921875 -2.0089111328125 45.459716796875
-16.591064453125 -10.783203125 5.55908203125
-30.134765625 -13.8258056640625 15.103515625
1.9462890625 8.3519287109375 15.0643310546875
-18.086181640625 -3.807861328125 26.4376220703125
5.218017578125 5.74951171875 -46.271728515625
10.3681640625 0.40380859375 31.7481689453125
-13.20751953125 31.2655029296875 -47.882080078125
1.89990234375 11.9583740234375 -60.842529296875
6.237060546875 9.3729248046875 -13.1591796875
4.376953125 4.188720703125 -42.9556884765625
-0.839111328125 33.2271728515625 -39.2938232421875
-4.250244140625 11.180908203125 -59.930419921875
20.06298828125 -15.2900390625 43.3006591796875
1.61083984375 3.508056640625 -41.8719482421875
-20.6787109375 -12.4561767578125 8.8572998046875
8.147705078125 7.3214111328125 -51.766845703125
19.79150390625 3.097412109375 -39.5650634765625
-13.994140625 4.9515380859375 21.159912109375
-12.191162109375 -12.7205810546875 11.9676513671875
22.062255859375 18.6116943359375 -19.7159423828125
2.995849609375 22.5853271484375 -19.163330078125
-15.15185546875 31.6585693359375 -48.75732421875
14.758056640625 -16.0084228515625 46.095947265625
-5.828369140625 5.033935546875 23.74853515625
7.13232421875 13.00537109375 -0.461181640625
8.32275390625 1.30126953125 -35.748779296875
5.683837890625 6.4266357421875 19.6505126953125
8.755126953125 -3.034912109375 27.5428466796875
19.33740234375 16.942138671875 -11.9246826171875
2.969970703125 8.375732421875 -53.8880615234375
24.52587890625 -8.7369384765625 32.25927734375
12.598876953125 14.7984619140625 -10.8248291015625
-22.473876953125 -12.4915771484375 11.2247314453125
-11.056396484375 -15.009521484375 20.14990234375
9.660888671875 14.29443359375 -7.8359375
4.579345703125 6.2606201171875 -48.6015625
11.5390625 15.0780029296875 -8.673095703125
-3.023193359375 30.31103515625 -44.776123046875
-30.046875 -12.109130859375 8.3411865234375
-9.778076171875 29.0262451171875 -44.06787109375
5.682861328125 -18.1798095703125 47.130859375
-15.703369140625 1.823974609375 27.903076171875
-2.3173828125 5.505126953125 -46.9921875
2.18896484375 7.2679443359375 -50.8173828125
11.510009765625 11.733154296875 4.3021240234375
-23.62744140625 -11.49658203125 8.0228271484375
-2.575439453125 -4.1165771484375 53.7357177734375
12.503662109375 9.46630859375 -14.1129150390625
33.8779296875 -7.010009765625 26.6217041015625
3.444091796875 11.529052734375 4.652587890625
9.553955078125 -0.63525390625 -29.609375
3.42236328125 12.85009765625 -1.087158203125
19.32373046875 15.62890625 -5.5413818359375
-1.401611328125 11.6314697265625 -60.369873046875
-1.540283203125 -1.595458984375 45.47265625
1.909912109375 33.6121826171875 -36.873046875
5.001220703125 11.082275390625 -61.0635986328125
-12.392333984375 31.459228515625 -52.634765625
-7.4111328125 -13.66259765625 13.83251953125
-8.639404296875 -7.016845703125 18.3585205078125
33.207275390625 -7.5711669921875 29.89892578125
-3.451171875 5.0145263671875 -44.2503662109375
25.801025390625 -10.788330078125 36.2767333984375
10.383056640625 12.9676513671875 0.3685302734375
-10.654541015625 -12.2076416015625 19.5609130859375
-26.850341796875 -8.6380615234375 17.8775634765625
17.705810546875 19.4122314453125 -18.644287109375
4.491455078125 10.13037109375 -59.781494140625
14.12255859375 2.9029541015625 -40.2340087890625
-0.59326171875 28.46875 -23.176025390625
14.214111328125 2.306640625 -38.2928466796875
-13.137451171875 -7.9732666015625 24.1427001953125
-22.66552734375 -14.7652587890625 18.2669677734375
-25.914794921875 -10.7996826171875 3.2540283203125
-4.659912109375 29.3746337890625 -48.802734375
-27.484619140625 -14.8160400390625 16.9652099609375
24.761962890625 2.89892578125 -31.5648193359375
-2.225341796875 30.287841796875 -27.5540771484375
9.902099609375 -16.2572021484375 44.4483642578125
21.14208984375 4.5308837890625 -42.897705078125
-18.097412109375 -14.886962890625 14.9193115234375
-13.50146484375 -12.075439453125 10.9420166015625
13.518310546875 0.40380859375 -32.7435302734375
-4.49462890625 6.6912841796875 -47.731201171875
-31.099853515625 -16.46923828125 19.60302734375
-19.944580078125 -4.7686767578125 26.3643798828125
-15.394775390625 -9.99365234375 19.4442138671875
5.72802734375 -0.044189453125 -32.210205078125
-3.504150390625 2.62255859375 -37.4232177734375
-1.93115234375 1.907958984375 34.51953125
-8.1669921875 -16.0950927734375 21.038818359375
3.220458984375 0.1015625 40.452392578125
-3.4462890625 4.4586181640625 32.6597900390625
3.3359375 9.7784423828125 -57.0574951171875
7.896484375 9.123291015625 11.916259765625
-27.911376953125 -11.9053955078125 8.2352294921875
22.26416015625 -15.3865966796875 44.28125
-6.172607421875 -4.5716552734375 17.53076171875
-1.052001953125 2.48681640625 -39.5357666015625
-12.174072265625 -14.171630859375 17.08056640625
11.14990234375 8.5902099609375 13.9661865234375
7.49658203125 9.6895751953125 -57.4796142578125
8.47509765625 11.7978515625 -9.830078125
24.95751953125 9.089111328125 -20.9017333984375
-2.543701171875 26.1417236328125 -57.3826904296875
6.528076171875 -4.435302734375 29.1734619140625
11.033935546875 2.8797607421875 -38.9417724609375
-25.130126953125 -15.9837646484375 19.9327392578125
2.042236328125 7.6160888671875 16.8902587890625
24.3837890625 4.1396484375 -29.0179443359375
11.30224609375 11.090576171875 -11.6278076171875
20.9560546875 -11.6483154296875 36.7462158203125
16.05517578125 14.5732421875 -4.266357421875
-0.13427734375 7.2928466796875 17.516357421875
-9.253173828125 6.068115234375 19.5870361328125
12.392822265625 -14.98779296875 45.6409912109375
5.533935546875 1.6944580078125 32.605224609375
24.376953125 5.7342529296875 -36.8564453125
-10.797119140625 6.5758056640625 17.218017578125
-10.862548828125 29.9415283203125 -49.8695068359375
5.8369140625 -0.6265869140625 -30.3106689453125
19.345947265625 19.8260498046875 -21.3497314453125
-19.540771484375 -13.0634765625 5.5111083984375
-18.991455078125 -14.3912353515625 22.9896240234375
11.495849609375 -1.6710205078125 30.1287841796875
19.013916015625 -15.0479736328125 44.7833251953125
11.21435546875 1.466064453125 33.4481201171875
17.919921875 -15.7900390625 47.64453125
24.910888671875 12.0093994140625 -23.0413818359375
31.415283203125 -8.349365234375 31.119873046875
1.243408203125 31.7039794921875 -31.836669921875
-4.5302734375 32.41748046875 -37.422119140625
-15.911865234375 -12.6903076171875 12.7781982421875
-2.783203125 3.4989013671875 29.160888671875
9.140380859375 -16.8671875 42.5936279296875
-30.617919921875 -15.4034423828125 21.7872314453125
-1.564208984375 31.1046142578125 -30.8536376953125
-20.6171875 -11.08935546875 19.7164306640625
-15.149169921875 -11.2523193359375 10.380859375
24.892822265625 10.499267578125 -20.097900390625
13.98095703125 4.832275390625 -45.134521484375
0.65380859375 10.4827880859375 5.302001953125
17.572998046875 6.6385498046875 26.783935546875
0.52392578125 9.0716552734375 -55.9188232421875
0.198974609375 11.9285888671875 -59.2882080078125
6.558837890625 9.5142822265625 -10.7320556640625
-13.31298828125 -11.070068359375 7.919677734375
9.78662109375 0.0106201171875 -32.6815185546875
20.0224609375 -15.1639404296875 46.4715576171875
-17.83203125 -16.334716796875 18.5087890625
22.96875 3.584716796875 -36.8638916015625
-38.798583984375 -7.80224609375 16.2178955078125
0.91064453125 0.6685791015625 38.3062744140625
-13.923583984375 -14.2811279296875 19.9188232421875
-0.295654296875 10.2640380859375 8.6224365234375
21.7294921875 -13.3172607421875 39.2486572265625
16.9833984375 2.0120849609375 -37.7119140625
2.431396484375 3.3280029296875 29.5953369140625
-30.755859375 -7.9530029296875 19.3372802734375
16.71337890625 -14.935546875 42.8944091796875
-6.31982421875 2.97265625 29.1978759765625
-18.14453125 -11.26171875 4.205810546875
-7.3798828125 -7.1077880859375 21.5045166015625
15.4423828125 14.0595703125 -0.799560546875
-15.87451171875 -11.8145751953125 8.8955078125
-4.618408203125 3.7841796875 27.966064453125
-19.52587890625 -14.2960205078125 10.083251953125
-2.478759765625 0.0684814453125 42.5618896484375
13.582275390625 8.4464111328125 15.989501953125
-32.7138671875 -15.0338134765625 15.8472900390625
20.9892578125 -16.0111083984375 41.60302734375
-32.201416015625 -7.4739990234375 23.233642578125
3.0908203125 6.1884765625 -49.28173828125
-7.306884765625 -5.0205078125 16.0677490234375
19.44091796875 22.5587158203125 -29.8084716796875
-6.970703125 6.037109375 17.1602783203125
-24.3427734375 -11.857421875 9.35546875
9.54638671875 -4.680908203125 29.6142578125
7.719482421875 10.059326171875 8.9901123046875
7.36669921875 14.2628173828125 -4.233154296875
5.833251953125 0.816650390625 22.4071044921875
19.949462890625 15.731689453125 -8.3082275390625
-12.300048828125 -13.5107421875 15.31494140625
-1.627197265625 3.6112060546875 -42.2230224609375
20.387451171875 0.7244873046875 -33.503662109375
-32.35205078125 -12.8619384765625 7.8133544921875
-7.60791015625 -11.052490234375 2.2000732421875
18.714599609375 4.2301025390625 -43.21240234375
-1.694091796875 31.7818603515625 -32.8271484375
-5.71337890625 -12.7596435546875 12.49365234375
14.083984375 2.1094970703125 27.2806396484375
-17.303955078125 -10.522216796875 21.57177734375
-3.442138671875 1.4117431640625 -35.1156005859375
6.4716796875 32.128173828125 -32.194091796875
-10.82421875 -9.6513671875 24.4990234375
19.82763671875 9.4693603515625 -56.5115966796875
5.548828125 7.25048828125 17.3092041015625
20.030517578125 18.6484375 -17.1761474609375
-16.34228515625 -14.087890625 17.4736328125
3.948486328125 1.3641357421875 27.3553466796875
9.17333984375 3.03857421875 35.4991455078125
-14.580322265625 -13.491943359375 17.2520751953125
10.82568359375 -16.1324462890625 41.4359130859375
-23.497314453125 -7.6397705078125 19.5074462890625
9.565673828125 15.1229248046875 -6.2010498046875
-26.80126953125 -7.031005859375 22.3094482421875
-21.16943359375 -15.4921875 20.708984375
8.213623046875 10.8636474609375 -18.0648193359375
-32.76708984375 -14.459228515625 12.1776123046875
4.02685546875 13.55712890625 -11.8497314453125
-0.96044921875 5.040771484375 -46.4971923828125
15.7685546875 5.070556640625 -46.2542724609375
3.3583984375 4.44384765625 25.0076904296875
19.124267578125 5.859619140625 -47.0030517578125
6.168701171875 0.322509765625 39.7496337890625
31.194091796875 -8.2779541015625 33.02783203125
23.635986328125 3.5538330078125 -34.8692626953125
-24.747802734375 -10.8624267578125 5.4814453125
-15.71435546875 -7.69921875 23.6021728515625
1.094970703125 4.544677734375 -43.9920654296875
-21.436767578125 -8.432861328125 19.9508056640625
22.7978515625 16.38916015625 -12.9189453125
-24.420166015625 -10.901611328125 19.4927978515625
7.163818359375 3.48388671875 -41.5899658203125
-20.350341796875 -14.1468505859375 13.094482421875
3.908203125 10.75341796875 5.9573974609375
-23.1904296875 -8.051025390625 22.0521240234375
14.71337890625 -13.446044921875 41.2127685546875
5.6318359375 11.7156982421875 -10.6925048828125
-7.23291015625 -16.045654296875 18.4189453125
0.813232421875 2.6864013671875 -39.5726318359375
-32.37451171875 -13.508056640625 11.0877685546875
8.11767578125 -0.5521240234375 -30.3699951171875
0.9765625 4.271728515625 27.038330078125
5.0458984375 12.373046875 1.8470458984375
-11.880615234375 29.9239501953125 -46.849853515625
13.927978515625 -15.356201171875 45.041748046875
19.21923828125 18.0985107421875 -15.125732421875
-0.125732421875 9.0234375 11.7078857421875
-1.6044921875 0.3426513671875 -33.328857421875
-2.88232421875 32.5972900390625 -39.54931640625
16.029052734375 17.8267822265625 -14.2645263671875
-23.087890625 -14.8682861328125 21.279052734375
0.118896484375 30.685302734375 -42.986572265625
11.419677734375 9.961181640625 10.2376708984375
-17.5546875 -16.8592529296875 21.1087646484375
7.835205078125 1.5885009765625 37.402587890625
-11.494140625 -10.5169677734375 4.7574462890625
-22.17822265625 -10.627197265625 5.2618408203125
-2.455322265625 32.760986328125 -36.4658203125
-9.596435546875 3.9603271484375 26.0399169921875
7.540771484375 11.0281982421875 -59.436279296875
9.1025390625 -15.9075927734375 47.65478515625
-2.283935546875 6.1845703125 12.6353759765625
1.110107421875 11.3489990234375 -62.489990234375
0.174072265625 32.12646484375 -33.453125
-6.2978515625 30.1314697265625 -40.60498046875
3.243408203125 9.895751953125 9.0430908203125
14.530029296875 4.26318359375 -43.3018798828125
4.583740234375 1.190673828125 29.22509765625
-6.0947265625 29.52734375 -49.103759765625
-34.447998046875 -17.0908203125 17.3404541015625
5.7958984375 -2.826171875 24.2255859375
3.41357421875 29.5185546875 -26.2698974609375
-10.58251953125 30.325927734375 -51.8331298828125
3.2490234375 0.8045654296875 -35.298583984375
9.41552734375 8.468994140625 -54.985595703125
5.850830078125 -1.6728515625 29.8741455078125
0.948486328125 32.72216796875 -39.4212646484375
-4.55029296875 10.0926513671875 -56.9544677734375
-9.259033203125 30.04052734375 -41.4954833984375
7.6630859375 9.6966552734375 -13.1435546875
32.568115234375 -7.7012939453125 28.18701171875
15.962890625 6.2269287109375 28.762939453125
0.81103515625 -0.011474609375 -31.5841064453125
4.701904296875 2.5240478515625 24.7022705078125
-20.4013671875 -8.935791015625 24.767333984375
28.071044921875 -9.7911376953125 35.335693359375
-33.283447265625 -5.9774169921875 20.2987060546875
21.4990234375 8.7181396484375 -52.599365234375
18.216796875 24.034423828125 -30.8922119140625
-7.87939453125 5.8363037109375 20.3851318359375
-9.642578125 -14.2254638671875 17.0328369140625
9.63720703125 7.8131103515625 -51.887451171875
-2.526123046875 7.7772216796875 -52.15966796875
12.869873046875 14.819580078125 -12.4505615234375
-5.939697265625 -10.735595703125 4.6119384765625
-13.920654296875 6.2218017578125 17.0897216796875
15.231201171875 16.85888671875 -11.4842529296875
16.27099609375 8.376220703125 -56.6181640625
9.627685546875 -1.5443115234375 25.1873779296875
8.962890625 4.4442138671875 -43.6832275390625
5.661865234375 0.28759765625 32.30126953125
15.517578125 18.374755859375 -19.686279296875
5.59716796875 -3.80712890625 27.629150390625
14.461181640625 16.0572509765625 -8.813720703125
-7.999267578125 -10.9625244140625 5.6895751953125
12.6279296875 5.2979736328125 -45.6302490234375
14.489013671875 16.427734375 -13.1636962890625
9.71923828125 7.03759765625 -49.7900390625
-31.4697265625 -11.81103515625 7.0355224609375
16.313232421875 16.528564453125 -9.476318359375
18.67919921875 5.1527099609375 -45.3822021484375
28.259765625 -7.9981689453125 29.2276611328125
-32.28076171875 -7.057373046875 16.7940673828125
17.781494140625 21.696533203125 -26.2734375
25.10546875 6.43017578125 -35.830322265625
7.874267578125 6.317138671875 -48.3529052734375
11.060791015625 8.244140625 -52.501953125
-3.388916015625 3.7855224609375 -41.9007568359375
16.15673828125 15.9921875 -1.9635009765625
18.34716796875 20.8204345703125 -23.7890625
0.62060546875 -2.2703857421875 46.739501953125
-3.29296875 2.876708984375 -39.763916015625
-21.855224609375 -13.8677978515625 20.0069580078125
23.67724609375 -11.878173828125 38.6339111328125
23.221923828125 -9.9261474609375 34.516357421875
-13.613037109375 3.6593017578125 28.4742431640625
-20.508056640625 -10.4066162109375 22.685791015625
5.31005859375 5.9073486328125 20.9632568359375
-18.417724609375 -16.129638671875 17.09326171875
28.433349609375 -6.38525390625 27.453857421875
2.918701171875 -1.77001953125 -26.326416015625
6.298095703125 4.706298828125 -43.1962890625
7.78759765625 2.3475341796875 -30.4119873046875
9.627197265625 12.93359375 -9.6715087890625
9.103271484375 8.1341552734375 16.111328125
-30.959716796875 -9.97900390625 2.9635009765625
14.058349609375 13.2215576171875 0.4476318359375
12.799560546875 3.5218505859375 -40.823486328125
19.325439453125 2.246337890625 -37.8765869140625
-29.891845703125 -10.446533203125 1.99365234375
-12.088134765625 5.26025390625 22.0550537109375
3.31396484375 14.4351806640625 -15.280517578125
19.05322265625 18.939697265625 -18.16455078125
24.9169921875 5.449462890625 -26.725341796875
26.134765625 6.0791015625 -25.2584228515625
26.16162109375 8.505615234375 -21.3759765625
-14.880615234375 32.04638671875 -50.71875
6.14306640625 1.93212890625 -28.2008056640625
7.395751953125 14.3656005859375 -7.8841552734375
-19.940673828125 -17.1654052734375 19.41259765625
8.551025390625 8.7940673828125 -11.8177490234375
-2.62890625 3.2310791015625 30.6944580078125
-9.572265625 37.0389404296875 -56.6737060546875
7.463623046875 -2.372802734375 26.531005859375
4.675048828125 14.8150634765625 -8.5482177734375
4.481201171875 -0.8795166015625 -29.83935546875
15.149658203125 21.136474609375 -23.76708984375
-6.648193359375 -11.8387451171875 7.332763671875
18.29541015625 0.5880126953125 -31.3402099609375
3.064453125 -0.64306640625 -30.69384765625
-1.16943359375 6.1846923828125 21.221435546875
6.46484375 31.9447021484375 -39.7144775390625
1.874755859375 0.95068359375 -35.5869140625
-12.60693359375 30.957763671875 -50.058349609375
12.25390625 15.7667236328125 -7.653564453125
8.23486328125 11.6566162109375 -15.3868408203125
15.068115234375 15.5325927734375 -6.608154296875
-22.43505859375 -10.444091796875 3.2515869140625
4.097900390625 8.3734130859375 14.593505859375
1.400146484375 2.283203125 -37.86865234375
9.885009765625 10.892333984375 7.0960693359375
21.012451171875 0.79052734375 -32.1009521484375
-17.998291015625 -8.8223876953125 23.7138671875
-8.169921875 29.6497802734375 -47.021728515625
-24.95849609375 -7.0177001953125 23.3377685546875
1.72802734375 8.5751953125 13.02294921875
2.593017578125 11.751953125 -58.6617431640625
-34.296142578125 -5.25537109375 15.8026123046875
6.925537109375 10.2440185546875 -16.3863525390625
1.667724609375 4.998291015625 24.60693359375
-18.3642578125 -13.628662109375 8.48681640625
4.917236328125 12.822265625 0.1212158203125
-3.11572265625 8.9376220703125 -54.932861328125
2.107421875 0.705078125 37.57275390625
3.4501953125 0.480224609375 38.3470458984375
-20.634521484375 -12.9422607421875 21.6427001953125
-7.065673828125 32.0302734375 -38.24462890625
-0.435791015625 -2.0953369140625 -27.4312744140625
-18.5322265625 -14.61865234375 11.4906005859375
4.581298828125 15.64306640625 -6.91357421875
-15.694091796875 -12.60693359375 20.389404296875
-33.086669921875 -16.8865966796875 17.8824462890625
-13.645263671875 -13.294189453125 14.5322265625
-2.82373046875 32.3184814453125 -35.0400390625
7.795654296875 8.8419189453125 -10.6439208984375
-0.35693359375 1.3389892578125 -35.814208984375
4.573974609375 10.1558837890625 8.6219482421875
0.3955078125 31.3642578125 -41.798095703125
19.168701171875 21.81787109375 -26.65771484375
-0.5810546875 33.7352294921875 -38.00341796875
-23.15771484375 -11.3211669921875 19.914794921875
12.474365234375 1.4208984375 -35.749267578125
1.348388671875 10.5975341796875 7.094970703125
13.674560546875 15.102294921875 -6.0721435546875
5.042236328125 14.2755126953125 -4.74853515625
3.5078125 32.0367431640625 -33.0867919921875
13.88330078125 6.6876220703125 -49.5009765625
2.68798828125 2.4984130859375 32.80810546875
2.868896484375 -1.28759765625 43.042724609375
0.000732421875 6.864013671875 19.1712646484375
-18.92626953125 -2.2169189453125 27.7271728515625
6.85205078125 11.856689453125 2.7315673828125
-6.5732421875 29.4554443359375 -41.788330078125
12.56396484375 13.249755859375 -0.7642822265625
-2.610595703125 6.358642578125 19.978271484375
10.71630859375 6.337890625 -47.9703369140625
12.98388671875 13.955810546875 -2.2447509765625
9.332275390625 9.2525634765625 -57.108154296875
-1.1240234375 -0.4228515625 -31.9320068359375
26.16259765625 -8.4549560546875 30.835693359375
2.37744140625 30.7198486328125 -28.8485107421875
17.99072265625 19.8699951171875 -21.067138671875
9.324462890625 11.300537109375 5.5025634765625
6.1123046875 8.5711669921875 -55.3358154296875
5.49560546875 9.9188232421875 -16.3992919921875
-22.408447265625 -7.57666015625 24.0281982421875
4.037841796875 2.021240234375 -38.3470458984375
5.82470703125 8.397705078125 -53.5064697265625
1.63623046875 -2.0572509765625 -28.993408203125
-4.214599609375 7.5953369140625 -50.5369873046875
11.278076171875 5.349853515625 -45.334228515625
-16.38525390625 1.0294189453125 27.004638671875
0.6494140625 1.485107421875 35.1378173828125
-2.58349609375 7.8306884765625 14.81982421875
15.772216796875 7.57177734375 -51.04931640625
9.10400390625 12.3497314453125 1.983154296875
20.66162109375 17.159912109375 -12.8564453125
-12.956298828125 -9.987060546875 2.8255615234375
10.38134765625 4.0428466796875 -42.70556640625
-3.221923828125 4.2769775390625 14.7977294921875
15.780517578125 -14.2620849609375 40.9168701171875
-25.673095703125 -15.08056640625 18.1414794921875
-0.939697265625 -0.443603515625 42.0208740234375
10.045166015625 2.1854248046875 -38.2886962890625
32.9248046875 -6.212890625 24.0302734375
-7.67626953125 5.322021484375 22.5428466796875
-26.227294921875 -7.581787109375 21.0328369140625
-1.562744140625 29.1046142578125 -24.372802734375
4.79833984375 -1.271240234375 -26.5391845703125
-6.31103515625 30.2889404296875 -44.5343017578125
0.1982421875 29.8323974609375 -26.246337890625
29.74755859375 -8.2340087890625 35.6656494140625
1.1103515625 5.928466796875 22.3260498046875
-4.180419921875 7.111572265625 17.0001220703125
11.621826171875 0.8564453125 -34.148681640625
8.367431640625 5.6817626953125 -46.99755859375
22.58984375 12.96875 55.1710205078125
12.047119140625 11.168212890625 5.9852294921875
15.980224609375 21.4288330078125 -25.1810302734375
-18.434326171875 -12.900146484375 7.12939453125
1.883056640625 32.1910400390625 -34.970703125
3.0185546875 9.07958984375 11.9940185546875
2.033935546875 9.599609375 10.4515380859375
-4.226806640625 30.0103759765625 -42.6663818359375
-33.488525390625 -13.4495849609375 6.4444580078125
12.902587890625 8.72998046875 13.52197265625
-4.387939453125 8.46875 -53.226318359375
19.70703125 20.7769775390625 -24.07421875
-8.123291015625 30.48779296875 -51.41015625
-20.8935546875 -11.1090087890625 2.7755126953125
20.36865234375 19.4285888671875 -19.7801513671875
2.612548828125 13.9151611328125 -5.5528564453125
13.116943359375 3.8424072265625 -42.7069091796875
-9.47509765625 6.435302734375 17.495361328125
-2.46630859375 6.52685546875 -49.7603759765625
14.769775390625 12.259521484375 4.3314208984375
-1.373291015625 -2.734619140625 48.277587890625
11.35693359375 -15.0101318359375 44.0235595703125
-1.89453125 10.0933837890625 -58.168701171875
-13.718505859375 -12.709228515625 13.270263671875
31.189453125 -7.9962158203125 28.1397705078125
-20.36376953125 -12.1834716796875 4.7235107421875
-23.66259765625 -12.7977294921875 12.1405029296875
6.563232421875 4.713623046875 -44.885009765625
-12.4501953125 30.5709228515625 -44.8927001953125
7.808349609375 -1.309326171875 31.1971435546875
-30.03076171875 -13.1209716796875 12.2877197265625
31.613525390625 -6.9083251953125 25.60693359375
-16.117919921875 3.122314453125 23.4990234375
-7.672607421875 3.88134765625 27.597900390625
12.052490234375 0.7664794921875 30.748291015625
1.491943359375 0.0621337890625 40.353271484375
6.642333984375 8.5238037109375 13.479248046875
-5.8857421875 29.527587890625 -47.49462890625
-23.445068359375 -10.1123046875 1.817626953125
32.2529296875 -4.8739013671875 23.031982421875
8.918212890625 8.5098876953125 13.988525390625
-1.05615234375 0.1048583984375 40.383056640625
10.699951171875 14.283447265625 -2.9354248046875
-7.049560546875 1.150146484375 19.65087890625
6.61279296875 11.026611328125 5.7303466796875
-19.69384765625 -15.5814208984375 22.3360595703125
1.099853515625 31.7467041015625 -40.538818359375
3.50244140625 0.3431396484375 -32.436767578125
5.345458984375 31.4036865234375 -40.2384033203125
2.906494140625 31.4119873046875 -40.7689208984375
4.46533203125 32.9144287109375 -38.1614990234375
14.96337890625 17.8968505859375 -15.629638671875
-1.354736328125 31.5848388671875 -40.96630859375
-28.88427734375 -7.5113525390625 20.136962890625
2.988037109375 7.3472900390625 17.80517578125
-21.397705078125 -15.0413818359375 18.61181640625
9.5673828125 1.7786865234375 33.63818359375
0.7490234375 11.6004638671875 -58.109375
-9.142333984375 -12.5406494140625 12.165771484375
-5.703369140625 32.61669921875 -39.447509765625
-28.18359375 -15.166259765625 18.264404296875
16.721435546875 0.547119140625 -33.0594482421875
-23.803466796875 -15.42236328125 19.8209228515625
-11.530029296875 -8.42724609375 24.028076171875
-2.303955078125 6.970703125 18.1405029296875
17.34619140625 15.880859375 -7.296142578125
-2.713623046875 -1.7735595703125 -28.125732421875
-10.451416015625 -10.1005859375 2.3214111328125
-3.105712890625 1.63134765625 -36.390869140625
-5.622314453125 5.9718017578125 20.811279296875
4.935791015625 2.2474365234375 33.8922119140625
-14.61328125 -10.9317626953125 7.6468505859375
-11.648681640625 -14.942626953125 18.809326171875
-26.433837890625 -16.2657470703125 19.892822265625
-14.07861328125 -9.95068359375 4.0460205078125
11.7431640625 0.0228271484375 -31.5689697265625
3.705078125 1.533935546875 35.43408203125
11.32373046875 -3.9788818359375 28.9000244140625
0.1181640625 6.2862548828125 20.8984375
5.547119140625 11.9034423828125 2.9921875
-7.037353515625 -6.623291015625 20.2208251953125
5.8701171875 8.988037109375 -11.833251953125
-16.668212890625 -14.116455078125 15.15576171875
-12.515380859375 -8.4324951171875 19.9310302734375
2.408935546875 13.7967529296875 -3.4005126953125
-0.537353515625 5.311767578125 23.9481201171875
19.889404296875 9.106689453125 -55.197998046875
-1.10888671875 -4.031494140625 52.033935546875
14.133056640625 8.638671875 -55.1502685546875
-9.50341796875 -8.19873046875 22.9976806640625
-11.584228515625 -9.3343505859375 21.633544921875
-26.96826171875 -12.1514892578125 9.1317138671875
-2.0078125 -1.0242919921875 44.3731689453125
-1.238525390625 4.4351806640625 26.4586181640625
-17.198974609375 -15.9813232421875 19.61669921875
-18.38671875 -7.5806884765625 25.5479736328125
-4.7041015625 3.2041015625 -36.95068359375
13.317626953125 14.4488525390625 -4.1099853515625
22.958984375 2.1099853515625 -33.8636474609375
-7.24951171875 -15.0465087890625 16.9384765625
-29.731689453125 -12.651123046875 10.9969482421875
-2.836669921875 31.3668212890625 -30.1689453125
-27.704345703125 -12.935302734375 10.69580078125
3.2158203125 12.6751708984375 -2.4744873046875
4.77685546875 13.6851806640625 -2.3350830078125
-11.135009765625 -12.9840087890625 13.8121337890625
-33.8994140625 -13.83935546875 9.6732177734375
4.98095703125 7.3873291015625 -51.0301513671875
10.575927734375 8.83837890625 12.478271484375
-10.512451171875 -8.4901123046875 19.04443359375
-3.00341796875 1.254638671875 40.240478515625
-0.185302734375 3.6063232421875 29.04638671875
-1.87109375 30.567626953125 -43.5479736328125
-5.55126953125 30.0933837890625 -45.7012939453125
-4.13623046875 29.771484375 -45.2967529296875
5.49560546875 30.42822265625 -41.356201171875
-28.44482421875 -13.9344482421875 15.266357421875
-30.330810546875 -7.875244140625 22.0789794921875
-17.993408203125 -5.2528076171875 25.7144775390625
25.510009765625 -10.1536865234375 40.247802734375
-25.86181640625 -13.9259033203125 15.6494140625
-32.848876953125 -7.96875 22.198486328125
15.466064453125 11.116943359375 12.2723388671875
24.514404296875 12.6759033203125 53.52978515625
-3.91162109375 30.405029296875 -40.778076171875
13.218017578125 -14.1309814453125 40.453857421875
1.696533203125 3.1622314453125 -40.609619140625
-27.889404296875 -13.704345703125 13.09033203125
-33.39111328125 -16.084716796875 15.125244140625
12.52587890625 6.7391357421875 -49.2012939453125
-11.130126953125 30.31787109375 -41.7630615234375
16.729248046875 4.6314697265625 -45.13720703125
32.81396484375 -6.3135986328125 31.756591796875
-23.767578125 -8.53662109375 18.591796875
23.228271484375 -10.5146484375 35.7369384765625
-30.38427734375 -10.7686767578125 4.7452392578125
19.562255859375 7.6663818359375 -50.9361572265625
16.9189453125 2.356689453125 -38.97119140625
18.6005859375 6.177978515625 -48.157470703125
-28.761962890625 -6.8328857421875 23.1109619140625
-29.6650390625 -16.2027587890625 20.57275390625
-30.255859375 -14.8056640625 18.053466796875
-7.291259765625 -12.3624267578125 9.712890625
4.740478515625 30.8240966796875 -28.9088134765625
18.135498046875 -15.4285888671875 41.4495849609375
-32.17578125 -16.564208984375 20.84326171875
-33.29443359375 -17.142578125 19.495849609375
13.417236328125 7.9078369140625 -51.775390625
12.80126953125 0.8594970703125 29.5916748046875
-3.813232421875 30.65478515625 -51.433349609375
6.94873046875 -17.2125244140625 49.1549072265625
4.187255859375 0.410400390625 -26.8525390625
-3.910400390625 31.0546875 -52.76318359375
7.388671875 2.854248046875 -38.5850830078125
-21.400146484375 -13.54150390625 13.969970703125
29.100830078125 -8.90625 30.9180908203125
9.72119140625 1.31005859375 -35.5570068359375
21.8291015625 1.6982421875 -34.9493408203125
0.207763671875 7.9957275390625 -52.97021484375
3.841552734375 4.5023193359375 -44.0947265625
17.087158203125 0.7662353515625 -34.3360595703125
1.6611328125 2.936279296875 30.9017333984375
20.55029296875 7.38134765625 -49.9085693359375
-7.937255859375 -7.0789794921875 17.271240234375
-12.8486328125 -11.919189453125 9.2510986328125
1.912109375 30.060302734375 -27.8367919921875
-15.17919921875 -10.428466796875 6.0301513671875
1.95654296875 9.6668701171875 -56.6458740234375
16.63671875 17.2945556640625 -12.031494140625
30.212158203125 -9.0538330078125 33.6004638671875
-3.44873046875 29.518798828125 -46.9658203125
-5.36865234375 5.0726318359375 30.373291015625
33.877685546875 -6.467041015625 29.7056884765625
-14.082763671875 5.431640625 19.96484375
-21.364501953125 -12.388671875 9.94873046875
11.614013671875 14.089111328125 -10.22265625
-13.69384765625 -9.4500732421875 18.7906494140625
-24.858154296875 -12.3154296875 12.1478271484375
-5.270263671875 6.489501953125 19.50244140625
-10.095703125 29.419677734375 -46.97705078125
-8.807373046875 -11.0771484375 2.9786376953125
-28.429443359375 -7.7552490234375 17.760498046875
11.8662109375 -2.94140625 24.443115234375
-9.360595703125 -13.677734375 15.2371826171875
-14.763671875 -13.3955078125 15.7978515625
6.797119140625 -3.67578125 30.1748046875
-0.373779296875 -1.1884765625 44.118896484375
-15.432861328125 -7.9827880859375 19.8516845703125
23.53076171875 4.7919921875 -29.722412109375
-0.008056640625 32.298828125 -35.1376953125
15.51806640625 19.23095703125 -21.211181640625
-11.748779296875 4.03369140625 25.97607421875
-3.551513671875 33.0162353515625 -37.9932861328125
27.3984375 -9.2486572265625 31.91015625
6.8056640625 15.256103515625 -6.6871337890625
-2.8740234375 1.95751953125 37.056884765625
8.30078125 -1.5518798828125 24.989501953125
16.675048828125 7.904296875 -52.021728515625
-6.802001953125 -13.429931640625 11.6348876953125
26.662353515625 -10.3660888671875 35.4287109375
6.36767578125 1.8492431640625 -37.7373046875
6.2978515625 -17.832763671875 48.2103271484375
-1.543212890625 32.218994140625 -39.644775390625
4.15576171875 4.9908447265625 23.6033935546875
5.005126953125 0.577392578125 40.3369140625
-12.337890625 -14.8731689453125 19.881103515625
8.374267578125 14.296142578125 -3.451171875
21.77880859375 2.44921875 -36.979248046875
-29.52490234375 -7.8651123046875 19.0211181640625
-11.43896484375 4.9310302734375 24.0184326171875
-11.20166015625 -12.0909423828125 8.9755859375
-15.451904296875 2.9461669921875 25.3734130859375
-17.24609375 -12.532470703125 9.1033935546875
19.794677734375 1.6239013671875 -36.5518798828125
-3.505615234375 4.6890869140625 25.3629150390625
5.203857421875 11.67333984375 4.1942138671875
4.34326171875 2.900146484375 -41.0919189453125
-20.435546875 -13.564697265625 11.83251953125
14.65771484375 9.673828125 11.6796875
18.2666015625 15.278076171875 -6.1512451171875
25.601318359375 4.769287109375 -27.5509033203125
-31.021728515625 -8.847412109375 18.424072265625
13.35400390625 11.12109375 5.7266845703125
-28.609619140625 -10.8719482421875 2.4305419921875
9.83935546875 13.53955078125 -1.3358154296875
-2.828369140625 5.41748046875 22.9249267578125
8.509521484375 -0.02734375 -31.82666015625
-0.919921875 0.8028564453125 37.2032470703125
24.009033203125 -13.9302978515625 41.8585205078125
-20.781982421875 -7.7445068359375 23.762939453125
11.34375 12.6883544921875 1.31787109375
1.243408203125 0.9771728515625 -33.330810546875
18.643310546875 16.3052978515625 -4.72021484375
-34.003662109375 -16.019287109375 13.785400390625
-11.987548828125 3.8798828125 27.5445556640625
11.877197265625 12.0716552734375 -12.2906494140625
-0.44287109375 2.9208984375 31.345703125
-20.16259765625 -13.77392578125 22.924560546875
-8.6201171875 -13.321044921875 13.9185791015625
22.135498046875 -14.5347900390625 45.29248046875
-13.072509765625 31.710693359375 -50.952392578125
4.16943359375 -18.6436767578125 49.0220947265625
6.427001953125 3.2869873046875 -39.6837158203125
-0.1435546875 6.0350341796875 -48.9381103515625
-23.098388671875 -13.4326171875 13.8067626953125
16.5029296875 19.7978515625 -21.746826171875
6.897705078125 7.2606201171875 17.5084228515625
12.302978515625 15.248291015625 -6.35986328125
-8.4248046875 29.9327392578125 -49.3409423828125
-30.158935546875 -11.6636962890625 7.146240234375
4.243896484375 10.0936279296875 -12.071533203125
-5.9345703125 -16.0419921875 18.6114501953125
19.44384765625 -15.6407470703125 42.2066650390625
4.529052734375 29.6046142578125 -24.966064453125
32.486328125 -7.3641357421875 30.9005126953125
-2.25830078125 8.685791015625 9.36279296875
-15.712890625 -14.5152587890625 19.4766845703125
-11.030029296875 31.2496337890625 -52.83740234375
13.322265625 8.527099609375 -53.7806396484375
-29.4541015625 -11.3023681640625 5.809326171875
-1.205078125 2.0018310546875 33.3748779296875
7.2001953125 2.143798828125 34.9017333984375
24.177490234375 -12.59033203125 40.73095703125
-10.29296875 -8.818603515625 21.089111328125
7.564697265625 -2.6417236328125 24.2408447265625
-13.4169921875 -14.2547607421875 17.397705078125
13.867919921875 8.6112060546875 14.3653564453125
-10.310546875 -8.6251220703125 23.8665771484375
8.123046875 1.884765625 35.7840576171875
-10.860595703125 -14.0263671875 17.1959228515625
6.15771484375 13.697265625 -2.136474609375
8.6083984375 -4.5726318359375 28.8046875
6.407958984375 -3.138427734375 26.171630859375
-24.82861328125 -8.0745849609375 19.5440673828125
24.523681640625 -12.58251953125 43.9027099609375
13.01513671875 5.6859130859375 -47.0450439453125
12.465087890625 2.63818359375 -38.0711669921875
-24.404541015625 -7.853759765625 22.2138671875
-24.373779296875 -14.872314453125 21.087158203125
7.248291015625 8.0306396484375 15.5728759765625
-9.84326171875 -15.2080078125 19.9881591796875
6.302001953125 8.301025390625 14.6524658203125
13.468017578125 10.2718505859375 8.1417236328125
27.017822265625 -9.5843505859375 33.09619140625
-4.01220703125 3.7978515625 12.75537109375
19.52197265625 21.9073486328125 -27.8563232421875
0.15185546875 0.2860107421875 39.5821533203125
3.57763671875 7.53662109375 -51.3245849609375
7.280029296875 7.150634765625 -50.901611328125
14.338623046875 -13.9088134765625 42.4339599609375
14.125732421875 12.868408203125 1.6304931640625
13.27392578125 9.107421875 12.26123046875
29.09033203125 -9.3255615234375 35.846435546875
-14.199462890625 4.4080810546875 23.4140625
-2.0341796875 -3.41552734375 50.562744140625
11.210693359375 -14.65380859375 45.725341796875
14.330322265625 0.65625 -34.1453857421875
22.388671875 10.004150390625 -55.810302734375
-1.51220703125 5.817626953125 22.4486083984375
10.552734375 12.0106201171875 3.358642578125
14.99072265625 22.5965576171875 -27.738037109375
-0.32080078125 2.2083740234375 -36.8760986328125
-7.646728515625 29.256103515625 -42.513671875
-0.765869140625 9.3665771484375 9.6839599609375
1.6171875 -0.8619384765625 42.631591796875
-13.385986328125 -8.583740234375 23.073974609375
10.87060546875 -0.8834228515625 30.83251953125
-1.946533203125 9.024658203125 -56.931396484375
8.21435546875 8.80419921875 -53.796630859375
18.532470703125 8.4727783203125 -53.3739013671875
17.763916015625 18.1881103515625 -15.8936767578125
-13.912353515625 3.958740234375 25.988525390625
2.679443359375 -1.7142333984375 -28.3951416015625
-32.724609375 -10.7305908203125 3.2916259765625
2.765869140625 14.1334228515625 -8.2696533203125
-10.7802734375 -10.753173828125 7.181396484375
8.884033203125 -2.2957763671875 30.9742431640625
22.291015625 4.27978515625 -40.3299560546875
-27.32080078125 -11.239990234375 5.78125
16.96630859375 3.07861328125 -39.9493408203125
-17.591552734375 -12.3419189453125 21.621337890625
-31.418701171875 -7.748046875 20.3350830078125
20.789306640625 2.9771728515625 -38.660400390625
-7.322998046875 -11.317138671875 4.7464599609375
-31.996826171875 -12.8355712890625 10.151123046875
6.5732421875 31.9005126953125 -31.0076904296875
-9.39990234375 -10.5157470703125 4.2852783203125
16.77099609375 22.264892578125 -27.9605712890625
11.75146484375 -15.38623046875 40.889892578125
8.02880859375 10.9415283203125 6.47021484375
0.31689453125 30.9970703125 -30.686279296875
10.034912109375 9.7965087890625 10.1209716796875
-19.947509765625 -15.04296875 13.96826171875
-9.06591796875 4.8133544921875 28.8740234375
-8.457275390625 -8.2933349609375 21.382568359375
-12.686279296875 -10.5419921875 5.53125
-0.9619140625 6.980712890625 18.3392333984375
-2.551513671875 -2.25439453125 48.2940673828125
7.392822265625 1.705810546875 33.64453125
-20.707763671875 -14.970703125 17.4642333984375
12.18115234375 -2.0201416015625 29.2003173828125
14.37109375 13.968017578125 -2.0455322265625
30.413330078125 -8.674560546875 30.5341796875
20.560546875 17.6285400390625 -14.6497802734375
0.43017578125 -3.376953125 50.052978515625
11.908203125 9.4986572265625 11.3626708984375
-11.033447265625 3.7666015625 28.359375
-21.63134765625 -13.8065185546875 15.6090087890625
-0.650634765625 7.2467041015625 -51.19873046875
15.14892578125 13.058349609375 2.3218994140625
5.935546875 2.0919189453125 21.266357421875
-27.78857421875 -7.4962158203125 21.807373046875
-20.81396484375 -11.6439208984375 6.98046875
32.894775390625 -7.1925048828125 25.957275390625
3.306396484375 2.5401611328125 27.39599609375
9.229736328125 9.382080078125 11.4990234375
6.04638671875 1.3798828125 -35.78173828125
-25.95068359375 -11.3160400390625 6.492431640625
16.647216796875 6.4866943359375 -49.5062255859375
6.21826171875 -0.008056640625 -28.136474609375
-6.7412109375 -14.0150146484375 12.9031982421875
12.63623046875 -14.2965087890625 42.96484375
18.470703125 16.763427734375 -11.116943359375
15.421630859375 3.7642822265625 -42.6773681640625
30.33642578125 -8.28271484375 28.9332275390625
1.296142578125 29.750732421875 -24.8465576171875
-6.07763671875 -4.40966796875 21.2940673828125
-15.8505859375 -9.6142578125 3.275634765625
-32.111328125 -13.823974609375 13.1346435546875
-28.376953125 -17.107666015625 21.7171630859375
8.85107421875 6.867431640625 -48.92822265625
-17.026123046875 -11.75341796875 6.6763916015625
-24.925537109375 -10.474365234375 3.8338623046875
3.667724609375 2.597412109375 30.17041015625
6.573486328125 0.1146240234375 -33.034423828125
-17.569580078125 0.175048828125 28.63525390625
-19.884521484375 -6.638916015625 25.867919921875
0.57861328125 8.189453125 14.946044921875
10.23291015625 1.2838134765625 32.7847900390625
7.62841796875 4.085693359375 -42.60400390625
-0.701904296875 7.6888427734375 15.965087890625
-34.150390625 -6.5118408203125 17.882568359375
8.410888671875 4.6005859375 -44.724609375
-15.585693359375 -12.2174072265625 11.4822998046875
-11.2177734375 -12.539794921875 12.62548828125
0.797607421875 28.7623291015625 -23.6539306640625
4.237548828125 7.5435791015625 16.9503173828125
28.34619140625 -7.6785888671875 37.5723876953125
-17.0771484375 -9.4056396484375 21.9027099609375
23.68017578125 -13.5726318359375 45.9158935546875
9.67236328125 14.0926513671875 -3.6298828125
13.209228515625 -16.4814453125 48.0030517578125
1.0556640625 3.6630859375 -42.9068603515625
-25.670654296875 -13.1590576171875 13.2672119140625
5.625732421875 6.91357421875 18.44189453125
27.11328125 -8.0745849609375 38.9478759765625
2.945068359375 3.45556640625 -42.1636962890625
-2.87255859375 11.2940673828125 -60.3458251953125
12.252197265625 3.6771240234375 -41.860107421875
-20.795654296875 -9.8603515625 20.073486328125
-1.47705078125 3.8936767578125 28.6964111328125
-4.056396484375 2.80908203125 13.76513671875
7.790771484375 -3.968994140625 28.2032470703125
-3.278076171875 3.94140625 28.089111328125
-7.0888671875 6.5377197265625 18.88916015625
15.62109375 2.3157958984375 -38.100830078125
-25.566162109375 -13.599609375 14.44580078125
11.60107421875 0.9488525390625 -30.49560546875
21.145751953125 20.0899658203125 -22.431396484375
-21.18310546875 -12.62890625 11.4954833984375
-17.166259765625 -13.1192626953125 10.3760986328125
-22.185546875 -7.4906005859375 19.6243896484375
3.944580078125 6.6844482421875 19.40185546875
-2.010498046875 0.06982421875 39.6556396484375
-11.366943359375 6.04931640625 20.0474853515625
1.697509765625 -0.4976806640625 -30.9805908203125
-11.59228515625 -10.20849609375 3.625732421875
-33.079833984375 -11.332275390625 18.2701416015625
-3.80712890625 5.9237060546875 21.42333984375
-7.359375 5.53759765625 21.3970947265625
-1.908203125 7.32763671875 13.944580078125
-24.804443359375 -14.3255615234375 17.5484619140625
-16.538818359375 -12.9046630859375 11.5777587890625
-23.427490234375 -10.7139892578125 5.5919189453125
-7.916015625 29.3680419921875 -44.7117919921875
4.10205078125 6.014892578125 21.6522216796875
0.4404296875 33.4232177734375 -36.9703369140625
2.6904296875 1.918701171875 -37.960693359375
-10.937744140625 -11.985107421875 10.8096923828125
5.247314453125 9.49462890625 -14.03515625
9.505615234375 3.31103515625 -40.97705078125
-13.99072265625 -10.4033203125 5.257568359375
0.587158203125 -1.9053955078125 -26.739990234375
-1.265625 -2.250244140625 -26.6207275390625
22.002685546875 -14.844482421875 40.844482421875
