30.7822265625 -4.275390625 38.1956787109375
9.4111328125 13.962158203125 -7.4468994140625
11.793212890625 11.668701171875 24.24462890625
8.811279296875 15.0111083984375 -11.4708251953125
5.85107421875 30.671142578125 -15.3433837890625
1.28173828125 8.4918212890625 -38.0263671875
23.08447265625 7.3021240234375 -25.6640625
18.1875 -9.7991943359375 47.643310546875
26.7421875 -6.46142578125 39.84326171875
-5.735107421875 -5.4674072265625 10.30322265625
11.3271484375 10.6392822265625 -42.2813720703125
-0.453125 11.9434814453125 -44.77490234375
18.470703125 -8.0042724609375 43.847412109375
10.77392578125 15.4639892578125 -14.228515625
24.041748046875 -3.4866943359375 39.1136474609375
5.7646484375 18.840087890625 0.150634765625
9.224365234375 36.7249755859375 -28.5889892578125
-16.429931640625 -10.1431884765625 14.15966796875
1.0703125 22.8597412109375 -3.512451171875
9.47607421875 4.31201171875 44.312744140625
13.05078125 14.810546875 -9.19970703125
9.093017578125 35.15380859375 -24.614501953125
-22.603271484375 -5.6240234375 3.8023681640625
25.74462890625 -2.8155517578125 37.2708740234375
11.6875 18.247314453125 2.0697021484375
10.709228515625 3.136474609375 34.950927734375
1.329833984375 6.5518798828125 37.6522216796875
0.734619140625 7.6146240234375 33.5582275390625
-26.7626953125 -8.385009765625 20.765625
4.68603515625 11.3389892578125 -44.753173828125
3.124755859375 1.29248046875 52.4429931640625
3.4287109375 24.6932373046875 -12.7747802734375
23.135498046875 -11.0516357421875 46.4649658203125
16.62255859375 5.349365234375 42.638671875
-30.157470703125 -0.4986572265625 18.3935546875
18.3857421875 8.4759521484375 -36.3265380859375
0.4248046875 3.6094970703125 49.7919921875
-19.397216796875 -11.5240478515625 22.6051025390625
7.816162109375 19.4066162109375 -11.4921875
15.21337890625 4.3238525390625 44.4183349609375
10.984619140625 38.0477294921875 -35.5238037109375
7.582275390625 26.7529296875 -16.4312744140625
18.8798828125 19.3865966796875 0.5789794921875
18.548828125 4.0560302734375 46.420654296875
-0.719970703125 34.9906005859375 -42.9627685546875
14.24560546875 14.3819580078125 -50.5894775390625
4.69921875 27.3956298828125 -14.73876953125
8.92138671875 5.9146728515625 35.9783935546875
28.813232421875 -3.9569091796875 35.052490234375
14.314453125 13.361083984375 -47.8958740234375
-3.02783203125 -7.06103515625 8.4603271484375
1.968017578125 4.7579345703125 -22.4296875
-19.004150390625 -4.572021484375 3.8720703125
4.18603515625 18.1986083984375 3.328125
1.279052734375 1.2091064453125 53.9788818359375
2.27734375 20.1461181640625 1.5093994140625
4.63720703125 23.1656494140625 -10.4794921875
-0.046630859375 13.1077880859375 -48.607666015625
10.602294921875 13.4176025390625 -48.7674560546875
3.150146484375 22.5799560546875 -6.0089111328125
21.0244140625 -10.356689453125 44.7213134765625
-3.730712890625 -6.8729248046875 10.522216796875
1.701904296875 16.328125 -55.742431640625
10.451171875 7.2127685546875 -33.50830078125
11.97314453125 16.692626953125 -12.6728515625
11.02099609375 -12.6717529296875 49.10400390625
11.017333984375 -10.033203125 48.5885009765625
23.31005859375 11.327392578125 -42.7083740234375
12.3603515625 -12.442626953125 45.8582763671875
17.584228515625 15.9149169921875 10.5145263671875
7.22705078125 16.23193359375 -9.202392578125
24.858154296875 7.009765625 -32.2664794921875
8.34814453125 11.1746826171875 -43.0797119140625
10.177001953125 4.3013916015625 -27.0897216796875
9.146484375 9.6829833984375 -39.239990234375
-6.209228515625 -8.093994140625 18.746826171875
7.6845703125 17.5997314453125 4.2587890625
15.3525390625 5.4544677734375 -28.3343505859375
-16.909912109375 -7.672119140625 5.7369384765625
24.74853515625 8.97900390625 -36.472900390625
-3.00341796875 35.0142822265625 -42.592529296875
-8.326171875 -9.84130859375 21.459228515625
-18.686279296875 -6.09228515625 8.0250244140625
-4.12255859375 34.7547607421875 -44.30712890625
12.703369140625 19.6787109375 -1.845703125
-31.1708984375 1.2320556640625 16.688720703125
-30.94091796875 -10.1103515625 12.680908203125
-29.865478515625 -7.59765625 9.729736328125
-13.95947265625 -8.5853271484375 12.2637939453125
8.922607421875 25.5826416015625 -15.3236083984375
15.398193359375 10.377685546875 -41.4102783203125
-6.559326171875 -3.8995361328125 4.83544921875
-16.400390625 -8.814208984375 9.987060546875
19.38330078125 20.7486572265625 -3.40625
13.245361328125 9.5362548828125 -38.74755859375
-2.9169921875 -9.4874267578125 17.404052734375
-30.891845703125 -11.5714111328125 20.83349609375
4.29833984375 14.853271484375 -52.2982177734375
-26.982177734375 -11.7513427734375 22.73974609375
-12.033935546875 -5.3421630859375 9.0706787109375
-27.075927734375 -6.122314453125 7.4410400390625
11.6650390625 8.041259765625 -36.1839599609375
1.239013671875 21.5018310546875 4.7308349609375
-16.843017578125 -6.80712890625 7.57470703125
-13.26220703125 -9.7542724609375 20.672607421875
5.0537109375 1.3104248046875 53.083984375
2.984130859375 17.3924560546875 -59.1888427734375
4.6591796875 8.84765625 -37.875
16.845947265625 16.71875 6.7659912109375
-28.965087890625 -5.4471435546875 6.660400390625
2.732666015625 12.11328125 -46.2894287109375
-19.91455078125 -7.401123046875 14.9859619140625
-19.780517578125 -9.394287109375 20.244873046875
5.01708984375 20.5107421875 -3.7904052734375
12.058349609375 13.9903564453125 15.310791015625
4.203125 14.9862060546875 -55.4901123046875
18.385498046875 11.251220703125 26.3905029296875
11.399169921875 23.0233154296875 -14.85498046875
25.767333984375 7.9571533203125 -33.727783203125
26.627197265625 6.5618896484375 -30.2210693359375
28.158447265625 -5.460693359375 38.0703125
19.336669921875 10.7998046875 -41.6566162109375
-9.933837890625 -5.3670654296875 6.3309326171875
15.269775390625 8.869873046875 -37.5765380859375
14.716064453125 1.8846435546875 50.2725830078125
24.3232421875 -8.64306640625 43.7923583984375
22.5615234375 -5.586669921875 41.878173828125
5.1123046875 3.9051513671875 46.40478515625
12.393798828125 6.4130859375 -32.3587646484375
2.983642578125 5.8740234375 -31.5404052734375
6.055908203125 14.6435546875 -51.4954833984375
13.64794921875 0.6510009765625 51.56591796875
15.94921875 7.285888671875 37.8399658203125
-10.00634765625 -7.0198974609375 12.9306640625
17.59912109375 7.68212890625 -34.43408203125
16.883056640625 15.2462158203125 12.90869140625
10.77392578125 16.1920166015625 -55.645751953125
11.125732421875 15.6553955078125 -9.5469970703125
1.09521484375 37.276611328125 -48.3990478515625
3.564453125 2.4075927734375 49.7537841796875
1.427734375 0.0828857421875 -29.3721923828125
6.955810546875 18.08740234375 -59.8631591796875
5.86376953125 6.05078125 -30.6016845703125
7.895751953125 17.8629150390625 -12.6337890625
4.45703125 13.0289306640625 -48.53466796875
5.484130859375 2.9041748046875 -23.852294921875
2.333251953125 21.55419921875 -2.4422607421875
12.7314453125 17.021728515625 7.0096435546875
16.093994140625 -11.226806640625 49.61767578125
10.5927734375 32.7813720703125 -17.7386474609375
11.873291015625 5.4598388671875 42.23095703125
-22.535400390625 -7.087890625 12.00537109375
25.036376953125 -7.2349853515625 42.517578125
27.542236328125 6.9014892578125 -26.4005126953125
10.747314453125 2.3902587890625 51.34521484375
9.8505859375 19.545654296875 -0.7491455078125
15.173583984375 20.0985107421875 -4.191162109375
-23.428466796875 -6.8067626953125 8.343017578125
7.509765625 12.5477294921875 -46.530029296875
16.0263671875 11.6119384765625 23.6846923828125
-27.034423828125 -7.77978515625 17.6236572265625
1.8896484375 26.9886474609375 -10.280029296875
18.40771484375 6.178466796875 -30.563720703125
8.568115234375 19.24169921875 -4.2901611328125
11.226806640625 16.3270263671875 12.3511962890625
31.607666015625 -4.3275146484375 36.506591796875
23.99072265625 -1.121826171875 40.2001953125
15.41796875 15.0006103515625 -52.10498046875
7.169921875 1.9205322265625 51.2864990234375
-6.70703125 -5.394775390625 8.188232421875
13.07568359375 -4.64697265625 49.9488525390625
1.125244140625 19.34033203125 5.5279541015625
11.766845703125 15.81640625 9.6856689453125
9.75537109375 21.5400390625 -13.5205078125
14.70654296875 -7.1162109375 44.1724853515625
2.99169921875 3.21044921875 -22.2672119140625
10.603759765625 2.8287353515625 27.5181884765625
13.308837890625 1.803466796875 26.61181640625
6.9013671875 5.948974609375 33.208984375
14.7998046875 14.852294921875 -12.058837890625
11.7744140625 3.91943359375 46.61279296875
-0.82421875 7.085693359375 35.874755859375
12.972412109375 -10.766357421875 48.570068359375
10.04736328125 6.10205078125 37.4345703125
9.016357421875 14.01513671875 -49.9222412109375
13.40234375 4.5732421875 43.879150390625
8.415283203125 17.1427001953125 -57.5606689453125
3.775390625 39.0931396484375 -50.178466796875
-8.57958984375 -5.5164794921875 8.0322265625
6.320556640625 10.7730712890625 -42.784423828125
-22.486328125 -8.1851806640625 15.417236328125
-4.353271484375 -7.5880126953125 14.446044921875
17.0302734375 9.7896728515625 -39.83056640625
7.538818359375 8.075439453125 -36.29833984375
6.492431640625 6.572509765625 -32.5225830078125
23.23388671875 5.40283203125 -28.887451171875
6.66357421875 22.663818359375 -11.752197265625
11.76171875 15.085693359375 -52.14990234375
6.6025390625 19.7818603515625 -2.1568603515625
2.88330078125 4.4163818359375 43.7196044921875
28.1474609375 -1.58984375 33.8873291015625
-15.20751953125 -11.566650390625 17.5872802734375
20.717529296875 11.9066162109375 -44.3154296875
11.791015625 18.190185546875 -4.3375244140625
29.830078125 -1.7906494140625 31.7977294921875
11.400146484375 12.256591796875 20.029541015625
13.84423828125 6.0025634765625 -27.4718017578125
13.835693359375 -1.680908203125 51.7764892578125
30.976318359375 -3.2449951171875 32.3807373046875
-18.294921875 -2.2303466796875 4.046142578125
-25.658203125 -8.2625732421875 13.93505859375
16.5029296875 12.01416015625 -45.61279296875
22.288330078125 -8.774658203125 43.125244140625
12.18896484375 5.8258056640625 -30.425537109375
-9.00537109375 -5.1617431640625 4.7974853515625
13.4482421875 14.9229736328125 14.330810546875
8.466552734375 35.618408203125 -42.679443359375
-3.160888671875 -10.185791015625 19.703125
6.012451171875 35.1798095703125 -40.2916259765625
16.157470703125 2.919921875 48.951904296875
6.80419921875 1.53759765625 30.7364501953125
5.12890625 35.943603515625 -37.2657470703125
12.8837890625 8.9815673828125 26.6878662109375
7.257568359375 5.0679931640625 -29.09765625
14.421142578125 -5.28076171875 46.410400390625
-11.263671875 -8.35107421875 19.5330810546875
3.568115234375 17.6751708984375 5.734130859375
10.208984375 24.473876953125 -15.901611328125
16.54541015625 -5.3309326171875 42.6881103515625
3.20849609375 28.0010986328125 -12.9927978515625
0.393798828125 3.945068359375 -27.109619140625
1.235595703125 22.874755859375 -0.0958251953125
3.9072265625 19.8258056640625 -0.1693115234375
4.696533203125 4.18359375 44.6973876953125
-19.031005859375 -8.4351806640625 16.43701171875
-19.3525390625 -5.79052734375 9.6846923828125
23.12353515625 13.1624755859375 -46.9393310546875
6.64892578125 38.1885986328125 -49.0135498046875
22.225830078125 14.4329833984375 -50.0400390625
17.178466796875 -7.896728515625 45.055419921875
-24.99951171875 -8.943359375 16.6710205078125
17.824951171875 13.9569091796875 -48.96337890625
-13.801025390625 -6.9996337890625 8.1468505859375
14.916259765625 18.975341796875 1.984619140625
15.0546875 5.9744873046875 -30.302490234375
8.0927734375 37.187255859375 -47.4654541015625
14.54296875 11.6566162109375 -44.082275390625
-14.43994140625 -9.723876953125 23.895751953125
4.916259765625 7.45703125 34.30810546875
16.661376953125 14.5972900390625 -50.9244384765625
9.33642578125 8.506103515625 27.151123046875
6.973876953125 6.6641845703125 36.4453125
9.330322265625 -12.2777099609375 48.6171875
24.86474609375 6.7806396484375 46.01953125
9.920166015625 15.70654296875 -6.2197265625
-28.70556640625 -4.7513427734375 4.81689453125
9.53662109375 3.153564453125 47.9320068359375
13.386474609375 17.56689453125 5.022705078125
14.06201171875 15.3465576171875 12.7437744140625
15.156494140625 -1.5716552734375 48.869384765625
-25.70751953125 -8.0987548828125 10.717041015625
-30.944580078125 -9.467041015625 16.081787109375
13.112548828125 12.7283935546875 -46.794921875
11.37158203125 13.4295654296875 16.85546875
-8.3662109375 -7.4925537109375 14.5875244140625
4.27294921875 17.1300048828125 -58.0089111328125
-29.0205078125 0.65478515625 10.5439453125
-3.1015625 37.21435546875 -48.4757080078125
12.567626953125 1.163818359375 52.929443359375
17.082763671875 6.5855712890625 39.06640625
-18.438720703125 -7.6461181640625 10.93994140625
-6.45166015625 -6.123046875 11.75048828125
15.303466796875 5.7607421875 40.87451171875
16.207763671875 10.71044921875 26.9552001953125
21.888916015625 -10.1865234375 49.2069091796875
8.008056640625 5.4234619140625 41.4271240234375
1.330810546875 15.4605712890625 -54.263427734375
12.437255859375 4.344970703125 28.923095703125
10.024169921875 17.4638671875 5.2255859375
12.731689453125 6.50439453125 39.09375
9.2470703125 42.71826171875 -52.111328125
14.99169921875 3.6070556640625 47.2734375
2.635009765625 35.0849609375 -41.631591796875
13.164306640625 1.2296142578125 29.4654541015625
-28.711181640625 -7.1727294921875 11.94287109375
12.42724609375 15.6300048828125 -53.6815185546875
-4.989990234375 -8.209228515625 17.149658203125
8.78759765625 15.7132568359375 -53.7220458984375
-6.75341796875 -8.7774658203125 23.9425048828125
2.50537109375 16.2183837890625 8.7545166015625
3.379638671875 3.1983642578125 47.34375
-12.681884765625 -9.652099609375 22.4010009765625
1.39111328125 4.02392578125 46.0794677734375
13.164794921875 19.822265625 -3.5
-10.40966796875 -5.7188720703125 9.50537109375
-1.97705078125 34.936279296875 -39.263427734375
14.01708984375 8.02294921875 -35.302734375
10.142578125 17.87890625 -14.630615234375
5.619384765625 34.7127685546875 -43.705322265625
16.309326171875 15.9520263671875 -53.58203125
10.55029296875 9.84814453125 -40.394775390625
-20.91796875 -6.3310546875 10.262451171875
12.9560546875 17.513671875 -11.19970703125
1.58837890625 24.409912109375 -9.1090087890625
12.406005859375 12.091064453125 22.661376953125
3.361572265625 10.162109375 -40.9324951171875
9.440185546875 5.8240966796875 -30.11181640625
6.584716796875 20.153076171875 -6.328369140625
19.001953125 -7.723388671875 42.2430419921875
13.341796875 0.3345947265625 32.6961669921875
11.911376953125 2.2205810546875 31.347412109375
12.527587890625 14.627197265625 -50.5836181640625
9.4931640625 34.5963134765625 -39.883056640625
-0.521240234375 37.86474609375 -49.58349609375
-15.991943359375 -11.9095458984375 23.6094970703125
0.834228515625 10.8194580078125 -43.7109375
-23.41552734375 -8.1087646484375 13.323974609375
-3.677001953125 -7.7867431640625 11.9615478515625
-29.366943359375 -2.1419677734375 25.05712890625
-26.372314453125 -6.2158203125 4.2281494140625
14.621337890625 -10.6480712890625 43.583251953125
11.443359375 17.62255859375 3.6322021484375
2.5341796875 14.9625244140625 -52.310546875
7.61962890625 24.7750244140625 -14.2633056640625
0.1943359375 6.7783203125 -33.095458984375
7.72705078125 1.327392578125 32.4798583984375
-0.2255859375 7.9798583984375 -35.7335205078125
-12.16943359375 -5.3077392578125 5.78564453125
8.69482421875 32.75 -17.3941650390625
8.23974609375 18.0615234375 -7.9393310546875
-31.349853515625 -9.03125 11.298095703125
1.22509765625 20.211181640625 8.2943115234375
19.16943359375 15.05029296875 -52.0396728515625
0.418701171875 16.5911865234375 -56.9228515625
18.36083984375 14.033447265625 16.6241455078125
13.03271484375 19.065185546875 1.466796875
22.15771484375 9.66650390625 -38.8978271484375
3.258544921875 26.3031005859375 -13.74072265625
32.59326171875 -4.1116943359375 34.9044189453125
-16.945556640625 -8.4608154296875 13.7158203125
12.396728515625 -6.7001953125 49.2760009765625
17.920654296875 11.5101318359375 24.2388916015625
-4.05615234375 -5.3341064453125 6.318115234375
8.826904296875 1.197509765625 53.87744140625
8.30810546875 3.701171875 46.2169189453125
-26.374267578125 -7.8006591796875 12.3670654296875
2.866943359375 8.9490966796875 -38.3123779296875
-6.939453125 -8.8533935546875 20.99169921875
14.6591796875 -3.2589111328125 47.8919677734375
21.537353515625 10.5028076171875 -41.239990234375
2.47412109375 19.4622802734375 3.0767822265625
0.25634765625 3.1265869140625 51.381591796875
19.576904296875 11.4072265625 -43.19140625
18.642578125 12.5560302734375 -45.8946533203125
-24.200439453125 -10.2008056640625 18.867431640625
18.813720703125 10.5234375 -40.07763671875
17.817626953125 6.5274658203125 -28.0579833984375
-13.908447265625 -6.1163330078125 5.8917236328125
1.5517578125 3.31787109375 -24.74560546875
22.268310546875 7.7012939453125 -34.69970703125
-8.179443359375 -8.3492431640625 18.115478515625
-28.014892578125 -7.8294677734375 15.4949951171875
10.349853515625 6.002685546875 26.591064453125
-15.210693359375 -6.8822021484375 5.218994140625
4.921630859375 16.4248046875 8.1007080078125
-10.589111328125 -7.6163330078125 16.4583740234375
6.8671875 6.210205078125 38.923828125
4.880859375 40.4373779296875 -50.809814453125
8.64208984375 7.3170166015625 -33.9542236328125
-29.010498046875 -7.982177734375 14.16064453125
-24.746337890625 -10.5826416015625 20.771728515625
8.572265625 36.057373046875 -45.11767578125
1.226318359375 5.9940185546875 -31.578369140625
25.976318359375 9.6126708984375 -37.57080078125
-30.420166015625 2.371826171875 10.4451904296875
-24.076171875 -7.4283447265625 10.5892333984375
5.84716796875 4.6866455078125 43.6392822265625
2.473876953125 7.0560302734375 36.5899658203125
-20.06201171875 -6.634521484375 13.1138916015625
3.7841796875 3.3502197265625 -25.87158203125
13.095458984375 3.6138916015625 47.531982421875
-4.025146484375 35.091796875 -45.9063720703125
6.830078125 3.987060546875 -26.455078125
-28.62060546875 -8.335693359375 17.3602294921875
24.902587890625 -10.263916015625 44.6900634765625
13.637939453125 10.5091552734375 -41.026123046875
19.439453125 9.7908935546875 -38.540771484375
-26.86865234375 -6.757568359375 9.332763671875
-9.5498046875 -9.4312744140625 19.8077392578125
6.08935546875 5.3067626953125 42.0904541015625
24.361572265625 10.3243408203125 -39.556640625
8.483154296875 18.4212646484375 2.348876953125
4.8486328125 5.9415283203125 39.103515625
21.7314453125 5.1063232421875 -27.75634765625
1.115234375 4.6080322265625 -28.58544921875
-15.869384765625 -9.998291015625 24.9478759765625
-0.033447265625 5.992919921875 -29.59814453125
-11.149169921875 -10.169921875 22.3914794921875
18.7216796875 6.9168701171875 -32.0684814453125
19.771484375 6.01708984375 -29.7237548828125
0.590576171875 10.120849609375 -41.411376953125
5.792724609375 17.673095703125 3.308349609375
-14.600341796875 -11.552734375 20.92919921875
12.342529296875 33.3514404296875 -17.1351318359375
6.103515625 27.4588623046875 -15.5137939453125
14.932861328125 11.236328125 24.8118896484375
-20.402099609375 -8.68798828125 18.320556640625
9.253173828125 0.6624755859375 32.4332275390625
-8.00146484375 -6.447998046875 11.149169921875
7.757568359375 5.607177734375 34.9254150390625
26.018310546875 6.046142578125 -27.8504638671875
-27.878173828125 2.312744140625 8.556396484375
-30.85498046875 -7.5665283203125 6.0341796875
10.147216796875 16.63818359375 6.763671875
-29.832275390625 3.7376708984375 9.168212890625
10.54931640625 3.078857421875 49.766845703125
16.035888671875 13.1143798828125 -47.89892578125
12.45166015625 11.134521484375 -43.396484375
24.476806640625 -10.5130615234375 47.625732421875
12.883056640625 3.0050048828125 49.5361328125
-5.531982421875 -7.3563232421875 15.659912109375
23.814208984375 -4.85205078125 40.021728515625
-30.78857421875 -12.0662841796875 18.2767333984375
-16.896484375 -8.148193359375 11.3382568359375
2.9853515625 7.01513671875 -34.180419921875
27.9638671875 -5.4163818359375 41.9949951171875
13.227294921875 16.9693603515625 -9.6033935546875
2.4794921875 35.44384765625 -38.662841796875
14.913330078125 12.5185546875 20.7845458984375
-11.70068359375 -4.5081787109375 7.234130859375
8.37353515625 35.92724609375 -38.027587890625
1.94287109375 25.2950439453125 -11.0340576171875
5.77734375 24.7742919921875 -13.4989013671875
7.63134765625 20.7999267578125 -10.8040771484375
14.808837890625 13.5565185546875 17.56103515625
7.169921875 2.5106201171875 28.0152587890625
7.59765625 36.103759765625 -46.37890625
-15.11669921875 -8.989501953125 10.853759765625
-21.75830078125 -5.8333740234375 5.43359375
0.497314453125 34.7513427734375 -44.216552734375
10.474365234375 36.306640625 -27.7706298828125
11.564697265625 6.300537109375 37.1861572265625
20.730224609375 14.2288818359375 -49.6871337890625
9.923828125 38.200439453125 -49.3780517578125
9.0361328125 33.72802734375 -20.6131591796875
-31.03076171875 1.7694091796875 13.5404052734375
9.284423828125 18.130859375 -6.602783203125
21.136474609375 15.312255859375 -52.7869873046875
21.70361328125 6.2503662109375 -30.851806640625
11.11474609375 5.9556884765625 40.9852294921875
-4.66455078125 -10.6837158203125 21.952392578125
11.961181640625 0.5062255859375 31.7607421875
4.715576171875 38.10400390625 -49.470703125
-23.703125 -6.203857421875 5.2177734375
10.665771484375 1.3751220703125 34.0404052734375
-21.708251953125 -5.9024658203125 7.4547119140625
16.0380859375 6.2010498046875 -31.4586181640625
12.603515625 16.2398681640625 -13.994873046875
18.307861328125 17.98876953125 3.688232421875
25.837890625 -0.9447021484375 37.3529052734375
8.35986328125 1.192138671875 28.198974609375
14.68505859375 15.8743896484375 10.3177490234375
3.8671875 20.890625 -2.4981689453125
14.785400390625 -10.5948486328125 45.7735595703125
7.458251953125 17.63623046875 -9.7520751953125
7.694580078125 9.5887451171875 -39.6986083984375
17.3193359375 19.2547607421875 -0.3958740234375
9.201416015625 4.076904296875 -25.9415283203125
-21.7734375 -10.9925537109375 22.9591064453125
5.433349609375 26.083740234375 -14.956298828125
1.897705078125 22.8009033203125 -5.1795654296875
0.714111328125 3.4718017578125 47.598388671875
5.399658203125 28.79638671875 -14.86669921875
14.377685546875 16.40625 8.2646484375
15.866455078125 -3.295654296875 44.5074462890625
7.65625 18.768798828125 1.0953369140625
15.876953125 14.0211181640625 15.1492919921875
13.685302734375 14.0670166015625 -7.6292724609375
-19.48583984375 -10.9273681640625 23.989013671875
1.13525390625 11.5498046875 -45.2012939453125
19.513427734375 -9.896240234375 46.8775634765625
22.6669921875 -10.3570556640625 47.927001953125
13.035400390625 -7.0262451171875 47.0714111328125
3.007568359375 23.4859619140625 -8.80078125
1.265625 20.989990234375 0.781494140625
4.032958984375 23.929443359375 -11.6270751953125
1.153076171875 21.9151611328125 -1.5806884765625
-22.35693359375 -9.053466796875 18.075439453125
4.97021484375 18.0203857421875 2.057373046875
8.190185546875 15.273681640625 -8.08447265625
-17.1875 -11.3004150390625 19.963623046875
19.10693359375 21.2989501953125 -5.0245361328125
11.015625 14.3226318359375 -7.2911376953125
5.462158203125 2.6981201171875 -22.2606201171875
16.948486328125 12.994140625 18.44482421875
17.58642578125 -9.0394287109375 46.5018310546875
6.222412109375 11.7706298828125 -45.864990234375
9.689208984375 13.8148193359375 -9.5662841796875
18.302001953125 16.7918701171875 6.440673828125
25.205078125 6.604736328125 -30.67431640625
7.65771484375 39.364013671875 -50.0845947265625
9.661376953125 14.9720458984375 -12.6973876953125
-28.5498046875 -1.9981689453125 21.43896484375
15.525634765625 18.2052001953125 3.141845703125
-1.644287109375 34.88720703125 -41.7540283203125
15.53955078125 19.5032958984375 -0.442138671875
3.252685546875 11.056640625 -43.21630859375
2.137939453125 39.58447265625 -50.5496826171875
-12.724365234375 -7.0186767578125 12.322265625
3.328125 36.052490234375 -36.874755859375
7.922607421875 16.1051025390625 -12.556640625
-12.2626953125 -8.389404296875 17.791015625
-15.041259765625 -10.079833984375 14.6888427734375
5.01513671875 35.4765625 -44.8529052734375
-28.57275390625 -6.7275390625 10.0308837890625
8.70703125 5.1552734375 -28.623779296875
9.159423828125 37.2247314453125 -35.2791748046875
2.2177734375 16.600830078125 -57.300537109375
5.523681640625 34.3729248046875 -42.0926513671875
-29.9619140625 -2.3704833984375 23.70751953125
2.839599609375 35.8612060546875 -45.668701171875
24.72021484375 5.3876953125 -27.5992431640625
5.639404296875 13.6573486328125 -49.6297607421875
7.56787109375 15.2320556640625 -10.6470947265625
3.487548828125 12.80078125 -47.3795166015625
21.943359375 12.6441650390625 -46.221923828125
28.071044921875 -2.694091796875 34.8924560546875
7.644775390625 6.0328369140625 -31.3577880859375
-27.96337890625 -9.9439697265625 20.267822265625
3.6865234375 41.898193359375 -51.8758544921875
14.2998046875 -10.0128173828125 48.0594482421875
13.697509765625 7.18408203125 -33.0029296875
4.94482421875 36.5224609375 -47.612548828125
-30.47265625 0.93701171875 15.433349609375
12.891845703125 13.6376953125 16.580322265625
-3.366455078125 -5.6279296875 5.058837890625
-18.0234375 -10.246337890625 19.3443603515625
-14.880615234375 -9.61962890625 13.1741943359375
-3.052978515625 -8.606201171875 14.70703125
20.1767578125 20.173828125 -0.9036865234375
19.873779296875 8.6722412109375 -36.6614990234375
-17.85009765625 -4.9957275390625 4.6651611328125
14.48388671875 6.333740234375 37.89013671875
3.48583984375 34.7734375 -39.9937744140625
14.15771484375 -11.64453125 44.975341796875
19.126220703125 7.995361328125 -35.1552734375
17.67138671875 18.8453369140625 1.2550048828125
-25.746826171875 -11.7501220703125 20.798095703125
-5.098388671875 35.7867431640625 -46.650146484375
-4.36669921875 -9.9647216796875 20.4962158203125
11.3564453125 7.306640625 -34.6861572265625
22.0302734375 -10.134033203125 43.5809326171875
18.289794921875 15.0914306640625 13.8330078125
17.546875 5.2540283203125 -28.701904296875
-15.456787109375 -8.6004638671875 8.87939453125
-5.62646484375 -8.8304443359375 19.8533935546875
9.794921875 12.608154296875 -47.283447265625
-3.473876953125 -6.0699462890625 7.4239501953125
9.73046875 11.1380615234375 -42.64794921875
9.760986328125 14.792236328125 -52.2218017578125
0.9873046875 13.46826171875 -49.7396240234375
18.03662109375 15.7073974609375 -53.5909423828125
9.62060546875 15.6749267578125 -54.9244384765625
15.4482421875 6.9464111328125 -32.5784912109375
0.237060546875 9.1739501953125 -38.75146484375
-23.419189453125 -11.562744140625 21.8544921875
7.68505859375 17.615234375 -58.7125244140625
2.00341796875 8.01806640625 -36.87255859375
10.816650390625 14.4229736328125 14.465087890625
7.076171875 17.1781005859375 5.838623046875
17.697998046875 11.3878173828125 -43.2374267578125
-1.98486328125 8.5352783203125 35.2996826171875
7.615966796875 10.5018310546875 -41.58203125
-18.75 -7.6300048828125 13.786376953125
11.94921875 13.2662353515625 -47.954833984375
9.424072265625 2.31689453125 28.1495361328125
7.857666015625 35.4639892578125 -43.9669189453125
11.2978515625 13.9769287109375 -49.887939453125
17.02490234375 8.634033203125 -37.1573486328125
11.952392578125 5.2239990234375 -28.9046630859375
5.769775390625 35.471923828125 -38.579833984375
9.392333984375 3.4134521484375 -24.4205322265625
6.14990234375 43.1102294921875 -52.09814453125
-25.1591796875 -9.401123046875 18.177490234375
15.870849609375 20.374267578125 -2.81298828125
2.6162109375 6.1461181640625 39.3927001953125
-27.938720703125 -10.9534912109375 22.051513671875
8.51171875 11.6435546875 -44.6231689453125
10.468505859375 33.619384765625 -19.2984619140625
13.587890625 5.8853759765625 -30.7764892578125
6.060302734375 35.8448486328125 -46.443359375
-22.7666015625 -10.0128173828125 19.4383544921875
25.3203125 -5.5357666015625 39.534423828125
23.51708984375 7.185546875 -32.69140625
8.04833984375 44.1885986328125 -53.1842041015625
-21.5556640625 -10.3143310546875 20.27783203125
4.344970703125 2.406982421875 -23.17529296875
27.722900390625 -0.754150390625 34.94775390625
1.13671875 12.6917724609375 -47.8433837890625
-16.822021484375 -9.2381591796875 15.1737060546875
5.728515625 17.335205078125 -58.3675537109375
-30.397216796875 -10.010498046875 14.365234375
9.939208984375 31.404052734375 -16.7393798828125
-28.912841796875 0.5413818359375 15.040283203125
30.162841796875 -3.943115234375 33.431396484375
7.8251953125 35.168701171875 -41.5067138671875
2.434326171875 37.1290283203125 -47.9835205078125
9.9619140625 34.838134765625 -22.93701171875
-6.073486328125 -10.1109619140625 24.068359375
1.227783203125 24.4285888671875 -7.003662109375
8.1103515625 4.387939453125 44.6427001953125
0.600341796875 7.94189453125 -36.9254150390625
12.189697265625 13.9635009765625 -8.148193359375
-21.8056640625 -6.2352294921875 8.9989013671875
31.0126953125 -1.291259765625 30.7210693359375
5.51220703125 1.1507568359375 54.4002685546875
-11.074951171875 -5.4144287109375 11.1793212890625
9.5859375 4.60205078125 34.8138427734375
0.56982421875 36.078857421875 -46.9215087890625
11.68505859375 -7.2559814453125 50.3448486328125
-1.211669921875 36.186767578125 -46.5238037109375
18.250732421875 20.3463134765625 -2.69140625
6.55615234375 20.4212646484375 -9.6624755859375
-7.343505859375 -7.3475341796875 15.5269775390625
10.322265625 40.050048828125 -50.7867431640625
22.66650390625 -10.883544921875 45.1636962890625
0.288818359375 6.1993408203125 39.1966552734375
12.486572265625 16.3963623046875 8.5732421875
2.443115234375 34.8519287109375 -43.333251953125
0.111572265625 5.415283203125 43.740234375
1.73828125 7.6524658203125 34.5198974609375
13.745849609375 12.004150390625 21.873046875
0.71728515625 35.5755615234375 -37.850341796875
9.591796875 2.797119140625 26.5684814453125
19.84130859375 -9.0440673828125 44.5499267578125
10.4091796875 15.9871826171875 9.207763671875
22.7021484375 15.5521240234375 -52.3228759765625
5.3232421875 21.45751953125 -7.39892578125
-24.69580078125 -6.635009765625 7.483642578125
7.860107421875 16.708251953125 7.493896484375
24.222900390625 12.3822021484375 -44.9862060546875
5.09033203125 16.9078369140625 6.5107421875
12.128173828125 -12.203857421875 47.6290283203125
8.96484375 19.923095703125 -12.603271484375
18.88232421875 13.163818359375 -47.43017578125
0.6904296875 34.8101806640625 -40.46826171875
24.942138671875 8.306396484375 -34.9310302734375
16.81396484375 1.6025390625 47.7547607421875
17.156005859375 12.0048828125 22.9976806640625
9.849609375 19.8345947265625 -3.6737060546875
12.42041015625 4.354736328125 45.48095703125
0.70703125 38.4700927734375 -49.48095703125
-1.729248046875 37.1873779296875 -48.457275390625
6.0712890625 36.798583984375 -36.2684326171875
23.323974609375 -2.3199462890625 40.2442626953125
-20.8896484375 -6.4119873046875 11.8797607421875
16.401611328125 9.3648681640625 -38.6903076171875
-16.041015625 -4.7940673828125 3.197998046875
-29.573974609375 1.21923828125 12.2802734375
23.9462890625 -6.5230712890625 41.744384765625
10.84228515625 36.0953369140625 -37.5208740234375
15.132568359375 10.9112548828125 -42.9622802734375
26.2314453125 -6.9508056640625 43.5841064453125
-17.215087890625 -12.3355712890625 20.92822265625
-18.723388671875 -5.1766357421875 7.012939453125
11.3720703125 11.907958984375 -45.3311767578125
28.44873046875 -4.7215576171875 36.1199951171875
16.50634765625 7.306396484375 -33.7117919921875
11.7099609375 9.308837890625 -39.2315673828125
2.999755859375 16.164306640625 -55.3472900390625
25.382568359375 -3.581298828125 38.3367919921875
25.80517578125 -6.5546875 41.0377197265625
8.68896484375 4.7926025390625 42.62451171875
10.45068359375 8.8929443359375 26.4727783203125
10.464599609375 8.4639892578125 -36.962890625
-0.07958984375 6.59521484375 37.10546875
4.843017578125 10.3739013671875 -40.8619384765625
0.922119140625 35.1636962890625 -39.1600341796875
2.927978515625 1.976318359375 50.875244140625
11.49609375 4.1429443359375 30.9547119140625
-11.8486328125 -7.3253173828125 15.1964111328125
10.864990234375 5.898193359375 -30.050048828125
10.268310546875 5.01904296875 43.2728271484375
-29.8115234375 -6.362060546875 7.1962890625
2.885498046875 13.62353515625 -49.68359375
-19.74267578125 -10.306884765625 21.2471923828125
-13.24267578125 -9.1083984375 23.740234375
19.77197265625 -6.295166015625 41.8515625
21.97802734375 11.6011962890625 -43.9249267578125
7.55517578125 19.476806640625 -8.11083984375
8.100830078125 36.1982421875 -36.731689453125
5.77099609375 7.1163330078125 36.02734375
5.00341796875 5.1361083984375 41.07080078125
12.670166015625 12.9254150390625 19.419921875
16.81298828125 4.5506591796875 45.0732421875
6.595947265625 3.388671875 -24.9423828125
-2.3759765625 -7.86865234375 11.620849609375
14.364501953125 0.77685546875 29.877685546875
3.661865234375 36.716796875 -47.191650390625
10.17138671875 18.0335693359375 2.3631591796875
7.9638671875 4.4542236328125 32.46923828125
13.237060546875 5.277587890625 42.7447509765625
5.8525390625 9.572265625 -39.7493896484375
14.152099609375 13.011474609375 19.54833984375
11.015869140625 4.4161376953125 45.3648681640625
-23.14013671875 -8.714599609375 16.4625244140625
16.557373046875 3.8179931640625 47.4849853515625
23.9892578125 -11.0908203125 45.2330322265625
9.186279296875 6.1416015625 38.677001953125
6.083984375 3.817138671875 47.786376953125
11.430908203125 1.7567138671875 52.548583984375
24.021240234375 6.0943603515625 -29.97705078125
19.9208984375 19.4404296875 1.5106201171875
5.067626953125 2.6005859375 49.5223388671875
9.8525390625 -13.158935546875 49.70166015625
9.504638671875 19.9522705078125 -2.3892822265625
-21.3134765625 -7.572265625 15.2484130859375
9.715576171875 37.9949951171875 -31.7568359375
32.361572265625 -3.3270263671875 32.040771484375
29.77685546875 -5.143798828125 37.866943359375
3.03759765625 7.3533935546875 35.418701171875
15.25 10.806396484375 26.0333251953125
11.259521484375 19.602783203125 -1.513427734375
13.9462890625 14.8916015625 -10.8271484375
13.107421875 2.840576171875 29.8824462890625
13.27392578125 11.753173828125 24.3792724609375
20.84521484375 20.8262939453125 -3.742919921875
0.87939453125 5.3311767578125 41.179931640625
-31.4755859375 -8.172119140625 8.6697998046875
1.305419921875 2.6024169921875 49.5853271484375
12.944580078125 -9.6116943359375 45.4453125
16.120849609375 16.1368408203125 7.8829345703125
10.887451171875 3.564453125 25.57958984375
5.4189453125 21.800537109375 -9.0196533203125
16.0185546875 15.685302734375 10.3607177734375
0.19482421875 4.47607421875 45.6578369140625
2.338623046875 16.9189453125 7.6220703125
9.4150390625 37.0155029296875 -47.467529296875
16.602294921875 14.6015625 14.037353515625
6.944091796875 3.777587890625 46.5450439453125
-30.719482421875 4.6893310546875 8.9208984375
13.632080078125 6.822021484375 26.629638671875
-28.845947265625 3.1199951171875 7.8599853515625
-25.62939453125 -7.5057373046875 16.5743408203125
-0.694091796875 35.1861572265625 -44.5902099609375
14.2822265625 -8.0015869140625 45.1766357421875
6.212158203125 41.2945556640625 -51.5078125
18.570068359375 13.043701171875 21.18212890625
-11.99853515625 -9.0128173828125 20.5491943359375
3.64208984375 22.741455078125 -7.2237548828125
3.375244140625 20.7291259765625 -1.283447265625
16.882568359375 -10.5447998046875 48.5968017578125
2.17919921875 18.6171875 5.8585205078125
1.616943359375 19.501708984375 4.3134765625
-0.727294921875 7.431396484375 34.24755859375
4.4248046875 17.6357421875 4.497802734375
-29.989013671875 -1.2550048828125 20.68896484375
1.7705078125 1.3704833984375 52.7650146484375
1.685791015625 4.86865234375 43.299072265625
1.267578125 18.433349609375 8.323486328125
-30.74755859375 -1.08935546875 21.9093017578125
14.716552734375 8.579345703125 -36.4151611328125
-6.882568359375 -7.098388671875 13.1383056640625
20.68994140625 13.0509033203125 -47.41162109375
22.121826171875 8.149169921875 -25.963134765625
6.89453125 30.9398193359375 -16.10009765625
-28.885986328125 -0.5745849609375 18.0601806640625
14.98681640625 -4.9873046875 45.24462890625
20.28076171875 5.0325927734375 -27.821533203125
5.435791015625 20.5325927734375 -5.0374755859375
14.233642578125 19.1981201171875 -3.9996337890625
14.464111328125 13.890380859375 -8.8927001953125
11.4833984375 16.5318603515625 -11.46337890625
13.750244140625 15.572509765625 -12.3880615234375
7.595947265625 19.3095703125 -5.6007080078125
-16.75048828125 -11.0621337890625 17.1844482421875
6.2900390625 20.205810546875 -3.3609619140625
22.213134765625 5.81591796875 -26.3753662109375
15.493408203125 4.963134765625 43.305419921875
-20.693115234375 -4.7152099609375 7.3955078125
8.192626953125 0.712890625 29.7764892578125
-29.5283203125 -2.6043701171875 26.579345703125
8.62255859375 27.0174560546875 -17.185546875
1.5869140625 23.2237548828125 -6.3817138671875
15.52392578125 -9.3984375 47.0609130859375
-0.113525390625 15.258544921875 -53.9112548828125
0.838134765625 14.24462890625 -51.635986328125
-8.061767578125 -9.53466796875 23.638671875
-31.386474609375 3.0902099609375 10.958984375
-5.505126953125 -4.8736572265625 8.8056640625
12.474853515625 8.8466796875 -37.657958984375
21.4423828125 19.8460693359375 -0.9033203125
9.8125 43.868408203125 -52.368896484375
7.479736328125 17.8404541015625 -11.3953857421875
27.873779296875 -6.09033203125 39.178466796875
7.788330078125 14.416259765625 -51.096435546875
-16.151611328125 -11.7789306640625 18.6912841796875
5.23046875 6.863037109375 -33.325439453125
8.580322265625 6.70263671875 -29.1729736328125
-0.58984375 12.819580078125 -47.4571533203125
4.380859375 5.8455810546875 -30.6875
1.666748046875 25.5562744140625 -9.7249755859375
13.513916015625 16.013427734375 -54.422607421875
-5.869140625 -10.4627685546875 22.7442626953125
8.806640625 22.422607421875 -13.392822265625
-1.9814453125 35.2825927734375 -43.359619140625
0.806396484375 7.1961669921875 -34.2177734375
0.32666015625 2.0806884765625 54.14111328125
11.5126953125 15.088134765625 12.0831298828125
-31.196533203125 -1.4117431640625 25.9249267578125
24.230224609375 13.546630859375 -47.6798095703125
8.23291015625 38.14794921875 -34.73486328125
6.841552734375 19.21826171875 -0.9857177734375
11.864990234375 12.104736328125 21.324462890625
12.609375 10.3162841796875 26.137451171875
8.715576171875 41.5966796875 -51.4337158203125
27.1796875 -4.6015625 37.7823486328125
-2.44580078125 35.4898681640625 -45.8197021484375
-5.502197265625 34.686767578125 -43.5194091796875
-4.380859375 -6.2646484375 9.38134765625
20.568603515625 6.9144287109375 -32.419921875
1.090576171875 21.4066162109375 2.5657958984375
11.765625 16.23974609375 -54.819580078125
18.220458984375 18.838623046875 2.5758056640625
3.5263671875 11.7730712890625 -45.115966796875
15.764892578125 12.4918212890625 -46.776611328125
-3.52734375 -9.89697265625 18.5006103515625
25.359375 11.616943359375 -42.6163330078125
14.47900390625 13.83251953125 -49.447509765625
4.08056640625 20.595703125 -4.671142578125
23.697265625 11.0435791015625 -41.51318359375
14.292236328125 19.9326171875 -1.2774658203125
3.245361328125 6.486083984375 -32.642333984375
24.673095703125 -2.3056640625 38.6236572265625
9.422607421875 17.3914794921875 -58.3216552734375
25.830078125 10.508056640625 -40.3121337890625
16.946533203125 -9.462158203125 47.6180419921875
20.7802734375 9.7208251953125 -38.9256591796875
5.128662109375 11.1922607421875 -43.5556640625
2.138916015625 3.5306396484375 47.3184814453125
2.203857421875 2.71142578125 -23.6123046875
-9.818359375 -10.137451171875 21.67822265625
-28.388916015625 2.0428466796875 10.0982666015625
-7.27001953125 -5.294921875 4.8802490234375
-15.80419921875 -12.2655029296875 21.8834228515625
-9.464599609375 -6.5400390625 9.7877197265625
22.350830078125 8.995361328125 -37.3594970703125
23.68359375 14.5189208984375 -50.0028076171875
9.240234375 5.6202392578125 27.2666015625
2.136474609375 22.2379150390625 -4.0096435546875
16.857421875 15.3328857421875 11.6300048828125
-4.759765625 -6.2808837890625 11.0050048828125
-30.324951171875 0.1678466796875 17.3118896484375
20.850341796875 7.639404296875 -34.34228515625
21.248779296875 8.6168212890625 -36.63134765625
10.31787109375 10.3955078125 -41.5322265625
8.94189453125 4.203857421875 26.8780517578125
7.251953125 2.7799072265625 -23.8045654296875
6.739990234375 8.4193115234375 -37.4813232421875
5.990966796875 12.3160400390625 -46.9984130859375
17.03271484375 12.000732421875 -44.3822021484375
-29.182861328125 -9.6546630859375 19.020263671875
9.12548828125 15.183837890625 -7.2122802734375
-31.40625 2.9002685546875 12.96533203125
8.140380859375 9.440185546875 -38.4942626953125
6.132080078125 1.67578125 51.9866943359375
-28.029052734375 -3.0389404296875 24.933349609375
0.821044921875 9.5777587890625 -40.282958984375
5.216796875 37.17236328125 -48.76220703125
-0.68359375 12.4864501953125 -45.9031982421875
13.944091796875 10.0936279296875 -39.8624267578125
-5.328857421875 -6.7742919921875 13.7440185546875
0.45458984375 3.7822265625 -24.2979736328125
-4.082763671875 -7.8148193359375 13.1673583984375
6.12744140625 40.123046875 -50.8353271484375
31.343994140625 -4.4146728515625 33.4068603515625
7.912841796875 7.7938232421875 -35.1160888671875
8.01171875 2.8524169921875 49.010986328125
8.68212890625 2.1134033203125 51.056396484375
10.874267578125 19.0909423828125 -3.773681640625
-1.0234375 38.793212890625 -50.2896728515625
15.783447265625 -8.570556640625 43.8597412109375
-18.03662109375 -11.47265625 22.7303466796875
9.136474609375 6.2388916015625 -31.272705078125
29.609619140625 -0.5633544921875 32.5400390625
3.74462890625 6.7408447265625 37.050537109375
1.697509765625 3.871826171875 -27.4794921875
9.490234375 5.6060791015625 40.739990234375
23.510498046875 11.8182373046875 -43.85791015625
15.75390625 -6.0208740234375 43.718994140625
2.615478515625 7.2958984375 -35.3577880859375
16.214111328125 12.309814453125 20.3951416015625
10.068115234375 35.2818603515625 -25.4090576171875
7.4716796875 13.5792236328125 -48.8018798828125
2.933837890625 35.012939453125 -44.545166015625
-16.55517578125 -7.9559326171875 6.9163818359375
16.021484375 18.367919921875 1.917236328125
-17.7353515625 -9.53515625 17.9033203125
17.600341796875 -7.759033203125 42.966552734375
15.394775390625 15.1571044921875 12.7886962890625
14.113525390625 15.5723876953125 11.5048828125
0.69287109375 3.5330810546875 -25.9569091796875
10.91796875 11.9014892578125 23.36865234375
21.9033203125 6.73876953125 -31.995849609375
-9.321533203125 -8.8406982421875 18.318115234375
12.576171875 19.314453125 -0.646728515625
20.44287109375 -9.804443359375 45.6922607421875
-12.46337890625 -4.896240234375 4.6324462890625
10.4296875 34.702880859375 -21.665283203125
19.77978515625 20.46142578125 -2.1556396484375
-18.348388671875 -6.4796142578125 9.999755859375
-28.912841796875 -11.0906982421875 21.1195068359375
-16.679443359375 -7.4693603515625 8.654541015625
-26.184814453125 -7.6099853515625 14.872314453125
9.640869140625 35.157470703125 -42.7236328125
9.894775390625 35.8848876953125 -45.117919921875
6.78857421875 34.25341796875 -43.74951171875
8.1728515625 20.0347900390625 -1.591796875
3.328857421875 38.130126953125 -49.4881591796875
10.27490234375 36.9996337890625 -29.3592529296875
15.965087890625 16.947998046875 5.90185546875
16.125244140625 7.5902099609375 -34.90283203125
16.6220703125 17.494140625 3.9110107421875
-16.85009765625 -10.276123046875 16.1436767578125
9.323974609375 38.2734375 -32.9937744140625
3.69091796875 2.77001953125 48.5606689453125
9.211181640625 14.501220703125 -51.0609130859375
17.78857421875 5.75146484375 42.4180908203125
17.478271484375 6.2760009765625 -31.398193359375
-16.59326171875 -9.482177734375 13.0819091796875
2.93701171875 24.5318603515625 -11.560302734375
2.3037109375 5.3919677734375 40.8935546875
9.87744140625 9.2064208984375 -38.078369140625
-25.22607421875 -8.4097900390625 15.562255859375
12.492919921875 -11.2403564453125 44.9288330078125
-4.02392578125 34.746337890625 -41.82666015625
-21.473388671875 -5.1229248046875 3.991455078125
12.100830078125 2.1490478515625 27.03369140625
1.237060546875 24.0635986328125 -2.827880859375
14.9677734375 19.2001953125 0.7481689453125
-13.709228515625 -7.9873046875 11.1959228515625
8.13525390625 6.1163330078125 28.1678466796875
-19.2509765625 -5.1697998046875 4.940185546875
8.69140625 18.70751953125 -5.66748046875
-20.62890625 -11.32568359375 22.5555419921875
19.783203125 11.9986572265625 -45.1383056640625
-26.07958984375 -6.8060302734375 7.7535400390625
-26.225830078125 -6.04541015625 5.8961181640625
1.14794921875 24.00439453125 -4.121337890625
13.14111328125 1.3223876953125 28.1953125
-27.56982421875 -5.080810546875 4.411376953125
8.8896484375 3.3704833984375 33.98974609375
-1.77001953125 34.526611328125 -40.5670166015625
10.8134765625 20.020751953125 -14.1881103515625
10.07666015625 16.3751220703125 -9.8760986328125
3.0419921875 4.9366455078125 -21.1270751953125
8.380859375 23.4874267578125 -14.052978515625
15.187744140625 11.96728515625 22.40576171875
-26.82666015625 -8.417236328125 19.5234375
16.45654296875 10.7403564453125 -42.550537109375
11.64697265625 -11.201416015625 46.1495361328125
21.72607421875 -6.290771484375 42.4718017578125
24.087890625 6.574462890625 -25.7567138671875
11.09326171875 4.2025146484375 -26.256103515625
7.275146484375 3.529541015625 28.7186279296875
8.685791015625 14.65185546875 -10.288330078125
8.5537109375 17.372314453125 5.1163330078125
9.727783203125 16.615234375 8.0189208984375
10.822998046875 11.5535888671875 25.0087890625
15.1845703125 15.5506591796875 -53.248046875
14.054443359375 6.201416015625 40.005615234375
26.720703125 -2.7081298828125 36.514404296875
3.959228515625 35.010498046875 -42.4468994140625
2.7919921875 5.3934326171875 -30.41455078125
15.536376953125 14.19775390625 -50.5938720703125
7.9814453125 3.2215576171875 27.4068603515625
10.212158203125 7.4927978515625 26.9615478515625
6.00341796875 18.27685546875 1.3209228515625
8.10498046875 3.7965087890625 -26.4412841796875
15.161865234375 4.0948486328125 45.6680908203125
15.331787109375 0.449951171875 49.475341796875
7.494873046875 6.8125 -33.26220703125
6.851318359375 4.192626953125 -28.0457763671875
-30.104736328125 -8.1881103515625 10.7843017578125
23.5322265625 -5.4810791015625 41.1270751953125
7.243896484375 4.0853271484375 31.44677734375
9.97802734375 2.2010498046875 30.748046875
9.426513671875 11.5521240234375 -43.8072509765625
-7.572509765625 -7.939697265625 17.0206298828125
11.835693359375 2.7581787109375 50.2410888671875
0.544677734375 1.8099365234375 51.8958740234375
10.836181640625 3.8228759765625 47.8123779296875
-4.177978515625 34.537353515625 -43.1015625
15.4853515625 11.7681884765625 -44.85791015625
6.2373046875 16.237548828125 8.1417236328125
17.280517578125 13.8648681640625 16.0751953125
-22.335205078125 -11.0919189453125 21.2451171875
20.3857421875 -10.143310546875 47.761962890625
8.26904296875 15.722900390625 -54.9359130859375
-6.91064453125 -9.7767333984375 22.0050048828125
-16.446533203125 -6.6871337890625 5.18212890625
-6.615966796875 -8.1221923828125 19.9554443359375
2.434814453125 25.45654296875 -12.2491455078125
-8.514404296875 -10.3160400390625 22.5675048828125
19.99169921875 22.169677734375 -6.0894775390625
-11.0478515625 -6.534912109375 14.211181640625
-30.7470703125 -1.1795654296875 23.12548828125
0.34814453125 2.4927978515625 50.33056640625
1.098388671875 21.6927490234375 -0.354736328125
10.42724609375 9.49609375 -39.2357177734375
11.805908203125 7.15625 -33.475341796875
-29.989990234375 -1.1649169921875 19.474853515625
2.069091796875 0.8350830078125 54.8245849609375
-15.2451171875 -5.9669189453125 4.20458984375
2.560791015625 0.9964599609375 53.610107421875
-14.383544921875 -10.8717041015625 18.2379150390625
-31.51318359375 0.1158447265625 21.743896484375
17.72998046875 12.3070068359375 21.8096923828125
-4.041748046875 -9.03369140625 17.4315185546875
3.53173828125 4.954833984375 41.7548828125
0.516357421875 2.97509765625 48.742919921875
5.575439453125 7.710693359375 -35.2001953125
9.1494140625 16.85546875 -14.45263671875
1.884521484375 9.9510498046875 -41.0028076171875
11.639892578125 15.4522705078125 10.8843994140625
