-3.113525390625 4.087158203125 37.5821533203125
-28.580078125 -12.449462890625 18.967041015625
8.25634765625 9.567626953125 -48.71533203125
-29.245361328125 -4.533447265625 20.693115234375
20.643798828125 6.9110107421875 -40.3489990234375
11.994140625 -11.137939453125 43.123291015625
-10.374267578125 -4.846923828125 19.7215576171875
-2.79638671875 8.486328125 23.4854736328125
-30.299560546875 -11.909423828125 20.9532470703125
24.746337890625 8.1446533203125 -34.5556640625
-14.699951171875 -7.77197265625 6.69970703125
-4.48486328125 8.123291015625 31.2049560546875
0.05126953125 12.133544921875 12.775390625
2.12255859375 12.88525390625 10.4757080078125
-0.178466796875 1.89892578125 -28.8175048828125
11.790283203125 17.3271484375 -2.4039306640625
6.90185546875 17.36572265625 -9.5482177734375
25.786376953125 9.17236328125 -26.3944091796875
-31.22265625 -7.9952392578125 7.5333251953125
-25.610595703125 -10.5435791015625 20.1815185546875
22.027587890625 -9.61279296875 39.0203857421875
2.850341796875 8.2529296875 -44.9998779296875
4.1171875 16.7955322265625 -1.4940185546875
17.105224609375 4.243408203125 -33.162353515625
-18.3701171875 -9.75244140625 10.5146484375
5.195556640625 17.8612060546875 -9.4412841796875
17.7470703125 23.9427490234375 -23.3287353515625
-23.2412109375 -4.3544921875 21.23583984375
18.552734375 -11.835205078125 46.7406005859375
21.592529296875 -12.3330078125 48.658203125
3.995361328125 14.896728515625 -63.080810546875
-26.880859375 -9.2840576171875 9.704345703125
-3.084228515625 0.1763916015625 50.063232421875
-34.183349609375 -9.4215087890625 3.120849609375
-33.785888671875 -12.8280029296875 15.05322265625
3.18115234375 3.8603515625 -34.43896484375
12.07470703125 13.159912109375 -16.6636962890625
-0.88232421875 13.8653564453125 6.130859375
4.881103515625 3.8511962890625 -27.4715576171875
-12.032470703125 -6.661376953125 2.56640625
3.27587890625 18.815673828125 -15.7366943359375
-0.23388671875 9.6029052734375 21.4400634765625
1.892822265625 14.3292236328125 6.3021240234375
-6.50439453125 9.3360595703125 20.439453125
16.970703125 22.5838623046875 -19.2528076171875
12.1162109375 15.297607421875 4.1396484375
18.136962890625 7.07666015625 -42.540283203125
2.90576171875 23.5030517578125 -18.7408447265625
10.761474609375 -0.7174072265625 28.566650390625
-10.03125 -10.4481201171875 16.79052734375
10.17236328125 -12.386962890625 40.388671875
-0.968505859375 12.8741455078125 -57.8255615234375
5.912841796875 3.94970703125 -34.6044921875
-21.8056640625 -3.7713623046875 18.7142333984375
1.654052734375 6.07373046875 -39.6466064453125
15.61376953125 9.2525634765625 26.606201171875
-7.946533203125 -9.796142578125 12.1444091796875
8.55859375 17.54736328125 -3.35205078125
-31.6015625 -4.2496337890625 18.65673828125
-0.454833984375 8.890625 -46.7554931640625
-1.33447265625 -2.1427001953125 53.9654541015625
19.062255859375 24.701416015625 -25.6290283203125
-17.16650390625 -8.8037109375 8.771240234375
1.56884765625 3.2637939453125 42.1898193359375
14.879150390625 8.7003173828125 -45.9774169921875
-11.27001953125 -6.6348876953125 21.7823486328125
21.039794921875 8.8887939453125 -45.38916015625
-8.208251953125 -12.0924072265625 20.124267578125
18.695068359375 19.9464111328125 -10.917236328125
5.985595703125 8.16162109375 -45.6932373046875
-6.286865234375 -9.8377685546875 11.8072509765625
20.857177734375 20.431640625 -13.201171875
-5.53173828125 33.552734375 -49.995849609375
-34.96923828125 -2.6380615234375 17.0963134765625
-8.3037109375 -8.2060546875 6.998046875
-15.283447265625 -9.841552734375 14.7196044921875
-7.5166015625 -3.17236328125 16.3284912109375
4.151611328125 11.6396484375 14.631103515625
11.905029296875 10.5064697265625 -51.2523193359375
7.8203125 5.3104248046875 33.876220703125
9.08203125 14.442626953125 -17.22265625
-12.200927734375 7.764892578125 25.2918701171875
-0.287353515625 8.756591796875 -45.0947265625
15.04833984375 -11.1064453125 40.191650390625
14.7998046875 25.56201171875 -27.8128662109375
-13.1328125 -6.3292236328125 3.613037109375
15.7783203125 23.6824951171875 -23.8052978515625
8.7607421875 3.6043701171875 -32.9549560546875
3.122802734375 15.96923828125 -60.204345703125
7.2939453125 10.017822265625 -49.84619140625
17.806884765625 4.3701171875 -35.5181884765625
-25.315673828125 -7.1986083984375 3.34521484375
9.961669921875 16.8775634765625 -1.77685546875
5.34716796875 17.9249267578125 -4.3875732421875
5.2412109375 5.7548828125 33.2327880859375
-7.47705078125 9.852783203125 18.9248046875
16.485107421875 -12.3543701171875 44.179931640625
-29.215576171875 -11.1031494140625 16.0057373046875
-5.998291015625 -8.40625 8.554443359375
28.259765625 -5.9329833984375 33.220458984375
20.101806640625 5.3375244140625 -37.688232421875
5.7548828125 12.4525146484375 11.9136962890625
-0.542236328125 34.7005615234375 -41.9246826171875
6.054931640625 35.955810546875 -40.327392578125
-6.58740234375 6.9783935546875 29.796630859375
7.85205078125 0.79638671875 23.1573486328125
21.621826171875 6.37158203125 -38.6541748046875
10.968017578125 11.9632568359375 -54.1085205078125
4.936767578125 15.6002197265625 -11.7667236328125
5.734130859375 19.3116455078125 -7.25146484375
5.771484375 -0.1875 25.5107421875
-1.760986328125 3.997314453125 38.2945556640625
18.13916015625 9.921142578125 -48.5750732421875
27.3544921875 -5.958740234375 37.173583984375
4.4267578125 10.6951904296875 -51.750732421875
-9.8779296875 33.5335693359375 -50.6214599609375
4.737548828125 36.2286376953125 -35.8218994140625
-4.09814453125 13.2825927734375 -57.3165283203125
-19.44677734375 -5.033203125 25.068115234375
13.611572265625 12.0435791015625 -55.8953857421875
-7.039306640625 -11.200927734375 14.6199951171875
-0.756591796875 13.4219970703125 7.8282470703125
30.8408203125 -4.7237548828125 30.23046875
26.5966796875 -6.570068359375 35.2681884765625
-31.668701171875 -9.463623046875 11.8189697265625
-29.396484375 -9.94189453125 13.506103515625
-9.955078125 -11.391357421875 18.7020263671875
10.315185546875 16.79052734375 -10.5
8.36181640625 2.791259765625 31.6422119140625
-25.044921875 -7.0987548828125 5.190673828125
17.15283203125 10.8927001953125 -51.1083984375
-15.861083984375 -6.0084228515625 2.0714111328125
-26.583984375 -9.6871337890625 12.2738037109375
-0.4365234375 1.537109375 45.701904296875
9.16943359375 10.8876953125 -51.373779296875
-1.691650390625 5.4073486328125 33.36669921875
9.823486328125 3.432861328125 31.99169921875
1.541015625 8.0601806640625 -44.0318603515625
2.372314453125 9.5445556640625 21.4178466796875
3.26318359375 36.5076904296875 -36.7325439453125
16.56005859375 11.842529296875 -54.2843017578125
-31.675048828125 -12.444091796875 17.7298583984375
-3.30224609375 1.9356689453125 -28.63330078125
26.06787109375 -5.3021240234375 31.47119140625
-19.274658203125 -13.3031005859375 20.739501953125
5.213623046875 33.1090087890625 -26.646484375
-25.241943359375 -4.5692138671875 22.247314453125
-1.919677734375 0.5704345703125 48.7396240234375
1.376953125 9.17822265625 -47.3704833984375
24.976318359375 -7.2847900390625 37.8026123046875
4.855712890625 2.5015869140625 -29.2957763671875
-4.224365234375 33.4638671875 -43.0955810546875
-18.402099609375 -6.7669677734375 22.4033203125
-28.8076171875 -4.2669677734375 17.587158203125
-32.23974609375 -6.9136962890625 2.2760009765625
2.18505859375 3.75830078125 39.4998779296875
21.940185546875 -12.1204833984375 43.45068359375
14.23876953125 15.91552734375 1.8603515625
-20.78076171875 -10.4871826171875 12.4007568359375
15.957763671875 22.989990234375 -20.8270263671875
11.8798828125 12.949462890625 -13.9190673828125
-32.3037109375 -3.57275390625 16.0509033203125
-2.6015625 32.6568603515625 -47.944580078125
-4.98046875 8.8216552734375 15.993896484375
22.780029296875 -11.498291015625 42.072021484375
10.196044921875 12.8304443359375 11.2891845703125
-24.56201171875 -8.4073486328125 10.1771240234375
-19.228759765625 -13.8636474609375 18.646728515625
12.480712890625 -11.9803466796875 45.25732421875
21.293701171875 0.3194580078125 52.191650390625
4.8798828125 9.1280517578125 21.107177734375
-30.321533203125 -7.048828125 0.9381103515625
3.60009765625 5.8524169921875 30.18408203125
-8.2685546875 33.0360107421875 -44.6463623046875
-4.211669921875 7.28076171875 27.7322998046875
4.744384765625 13.4024658203125 -13.6181640625
16.114990234375 -13.02490234375 45.9403076171875
-3.97705078125 9.4228515625 -46.2352294921875
16.54443359375 -12.122314453125 40.3726806640625
2.94580078125 8.905029296875 23.5528564453125
-26.860107421875 -10.5159912109375 14.2216796875
-32.40087890625 -3.972900390625 21.5523681640625
-0.584716796875 6.5325927734375 30.2264404296875
23.6572265625 -9.0352783203125 41.21142578125
6.996826171875 13.7239990234375 -14.29345703125
1.58349609375 13.123291015625 -56.3992919921875
-12.404296875 -9.9495849609375 14.1549072265625
-26.840576171875 -4.292236328125 19.5775146484375
-21.7568359375 -8.57470703125 9.1673583984375
8.412109375 -12.1593017578125 46.6026611328125
6.658935546875 -0.3544921875 29.70166015625
-3.231201171875 3.677490234375 40.610595703125
-7.856689453125 -4.0687255859375 21.66943359375
14.32177734375 11.0533447265625 -51.620361328125
-0.88427734375 14.1077880859375 -59.1700439453125
-0.248046875 11.2669677734375 15.2437744140625
8.63525390625 -13.111328125 50.1849365234375
-1.72509765625 11.5013427734375 -54.0391845703125
-17.211669921875 -10.1854248046875 13.392578125
-15.330810546875 -8.7994384765625 19.45947265625
-9.0322265625 34.81298828125 -53.2489013671875
4.69970703125 12.552978515625 -56.8026123046875
5.35791015625 33.866943359375 -42.802001953125
18.244873046875 6.37744140625 -40.004150390625
-2.322021484375 9.8465576171875 -48.515380859375
9.306640625 7.68212890625 -44.03857421875
-3.170654296875 33.4774169921875 -46.091552734375
25.416259765625 -3.6046142578125 29.83984375
1.539794921875 4.4176025390625 -33.8555908203125
-21.506103515625 -5.827392578125 20.1927490234375
10.28076171875 18.0423583984375 -5.003662109375
12.0087890625 9.6319580078125 -48.5665283203125
-25.019775390625 -12.5089111328125 20.607421875
-3.755615234375 34.115234375 -51.85546875
-17.7216796875 -8.2989501953125 7.1595458984375
-3.953369140625 9.913818359375 19.1368408203125
19.0908203125 24.15966796875 -24.2760009765625
19.405517578125 10.998046875 -52.2587890625
-19.519775390625 0.923095703125 26.8441162109375
0.091796875 15.6834716796875 -61.5054931640625
18.1015625 8.255126953125 -45.3936767578125
14.377197265625 15.364990234375 4.12939453125
3.553955078125 9.5364990234375 -49.196533203125
22.680419921875 12.89404296875 -52.0029296875
-26.088134765625 -6.2216796875 18.025390625
11.72705078125 6.06787109375 -39.8890380859375
14.045166015625 -13.143310546875 46.4036865234375
20.795654296875 4.5504150390625 -33.67041015625
11.154296875 8.7958984375 -46.22998046875
4.4599609375 12.9112548828125 11.458251953125
17.12744140625 25.47607421875 -27.7537841796875
-27.32763671875 -11.959228515625 18.4378662109375
17.160400390625 10.2132568359375 -49.606689453125
17.596923828125 24.804931640625 -26.4219970703125
4.421630859375 5.0767822265625 34.6663818359375
7.7255859375 10.727783203125 -51.4742431640625
-3.125 11.6614990234375 -54.34619140625
22.367919921875 4.32763671875 -31.2635498046875
15.998291015625 5.7164306640625 -38.016357421875
-28.2900390625 -12.06689453125 20.6038818359375
7.143310546875 7.8988037109375 -43.1170654296875
-21.18408203125 -7.9208984375 18.8189697265625
-4.205078125 8.8203125 22.1597900390625
-14.34326171875 8.76416015625 20.8961181640625
16.3173828125 24.6434326171875 -24.9849853515625
-33.5859375 -12.8587646484375 19.315185546875
1.39501953125 8.26611328125 26.111083984375
-3.04931640625 28.5697021484375 -53.139404296875
32.004150390625 -3.9974365234375 31.5467529296875
-1.043212890625 10.3004150390625 -50.188232421875
19.23193359375 4.5238037109375 -35.41064453125
17.966064453125 13.4830322265625 -57.8360595703125
19.635498046875 7.9622802734375 -43.4232177734375
-5.096435546875 3.4661865234375 15.8077392578125
12.98876953125 9.34130859375 -47.5389404296875
-10.15673828125 -6.5177001953125 3.551513671875
9.3955078125 6.6678466796875 -41.3018798828125
11.477294921875 3.538818359375 -33.02294921875
11.82080078125 18.7869873046875 -8.8074951171875
-0.20654296875 0.2249755859375 49.4825439453125
9.065673828125 0.687255859375 30.134521484375
8.617431640625 11.1204833984375 15.9288330078125
18.423828125 22.4818115234375 -18.468505859375
-15.170654296875 -7.05859375 5.43896484375
12.448486328125 4.0465087890625 31.1710205078125
13.068359375 17.371826171875 -3.210693359375
-3.89794921875 7.931396484375 -43.1929931640625
8.263427734375 4.877685546875 -35.705322265625
24.915283203125 7.0 -30.2254638671875
18.23583984375 20.5977783203125 -12.2000732421875
-10.5205078125 -11.1961669921875 20.62939453125
-31.285888671875 -10.726318359375 15.7763671875
-8.46826171875 33.824951171875 -51.127197265625
15.48779296875 20.226318359375 -11.403564453125
-3.112548828125 4.4862060546875 -34.915771484375
12.327880859375 16.8880615234375 -13.0576171875
27.668212890625 -5.317138671875 30.2076416015625
17.644775390625 -12.09326171875 38.74951171875
9.527099609375 5.97265625 -38.7796630859375
6.72412109375 6.383544921875 -39.9647216796875
-4.182373046875 6.5859375 32.3560791015625
-28.09130859375 -7.4012451171875 5.05224609375
-18.654541015625 -11.08740234375 13.22216796875
-6.1357421875 33.409423828125 -47.0108642578125
4.258056640625 33.7589111328125 -27.8623046875
19.607177734375 4.8916015625 -32.535888671875
-27.32861328125 -3.5797119140625 18.352783203125
11.48291015625 4.74951171875 -35.32373046875
6.079345703125 1.004638671875 22.458251953125
-24.530029296875 -4.5386962890625 18.25341796875
0.22265625 3.5233154296875 -31.96435546875
3.985595703125 16.4625244140625 -13.5733642578125
-3.02001953125 27.675537109375 -51.503173828125
-13.627197265625 -4.3802490234375 23.516357421875
4.7060546875 14.13671875 7.80224609375
15.276123046875 18.0592041015625 -5.06640625
-31.67529296875 -12.3809814453125 20.5484619140625
8.66943359375 15.3134765625 -10.3739013671875
-7.849609375 7.495361328125 25.9722900390625
-28.97900390625 -9.0457763671875 9.5518798828125
-19.882568359375 -10.6395263671875 22.33349609375
12.1962890625 14.693115234375 5.9376220703125
3.5625 36.7266845703125 -38.5592041015625
18.869140625 12.2733154296875 -55.6544189453125
-16.621337890625 -10.2598876953125 14.74853515625
-1.844970703125 4.5169677734375 -35.761962890625
7.05419921875 5.0736083984375 35.0887451171875
-4.15185546875 5.2646484375 -37.254150390625
-2.4658203125 7.3095703125 27.8419189453125
11.991943359375 15.5928955078125 2.504150390625
-4.134521484375 33.6739501953125 -50.3958740234375
6.6142578125 15.0447998046875 -61.0343017578125
-18.760498046875 -8.643310546875 22.015380859375
3.136962890625 5.2999267578125 27.1971435546875
-12.993896484375 -11.184326171875 17.810546875
-2.924072265625 6.514892578125 -40.4266357421875
10.03076171875 0.47021484375 23.83056640625
7.00048828125 36.8370361328125 -37.766357421875
17.9580078125 19.205078125 -7.7862548828125
-2.82421875 14.1746826171875 -59.8436279296875
0.694091796875 34.542236328125 -43.213623046875
2.840087890625 34.9248046875 -41.73681640625
-20.357666015625 -8.91552734375 4.166748046875
-12.50244140625 -9.1396484375 12.2994384765625
15.692626953125 18.612548828125 -6.471435546875
6.37646484375 17.2777099609375 -2.2325439453125
-5.802734375 34.1279296875 -53.0465087890625
-2.704833984375 34.1485595703125 -43.2969970703125
32.334228515625 -4.1719970703125 26.3270263671875
-11.638671875 -5.5462646484375 17.46728515625
2.55224609375 6.23193359375 31.643798828125
8.09033203125 11.802001953125 -54.411376953125
8.736083984375 15.9105224609375 1.0150146484375
12.762939453125 12.5306396484375 14.8597412109375
5.36865234375 36.3790283203125 -38.7728271484375
1.600341796875 11.2747802734375 -53.063720703125
-29.847900390625 -4.453125 19.345458984375
2.11181640625 9.7943115234375 -50.09423828125
-9.108642578125 -4.1094970703125 18.5950927734375
17.926513671875 -12.145751953125 41.4937744140625
-11.72216796875 34.1673583984375 -51.117919921875
20.3740234375 21.616455078125 -15.8135986328125
-19.6240234375 -10.3114013671875 8.1796875
0.67578125 12.63232421875 -55.3240966796875
11.759765625 0.3560791015625 27.8416748046875
6.719482421875 11.9246826171875 13.4599609375
6.9951171875 2.8358154296875 -31.0386962890625
21.430419921875 12.5233154296875 -54.222900390625
24.012451171875 -5.230224609375 32.3240966796875
1.4189453125 12.2862548828125 12.9051513671875
-20.988037109375 -4.9825439453125 22.9892578125
22.58203125 -7.9365234375 36.7191162109375
1.584716796875 4.081298828125 37.5892333984375
2.210693359375 14.80859375 4.4859619140625
22.699462890625 11.6842041015625 -49.090576171875
8.35302734375 4.5430908203125 36.025146484375
-18.89404296875 -12.6298828125 16.4925537109375
3.616455078125 -15.30419921875 49.91748046875
0.911865234375 1.0765380859375 47.035888671875
-12.553955078125 -5.8577880859375 0.7625732421875
20.994384765625 20.2822265625 -11.59521484375
-1.54150390625 15.072998046875 -62.387939453125
7.74267578125 13.6510009765625 7.9083251953125
-34.185302734375 -11.6412353515625 8.2408447265625
10.32421875 12.8958740234375 -11.4864501953125
4.66943359375 4.0181884765625 38.4166259765625
18.501953125 25.8612060546875 -28.8094482421875
22.164794921875 9.5533447265625 -44.97119140625
7.60595703125 -13.5244140625 45.5712890625
-12.802490234375 9.8543701171875 18.0850830078125
-15.721435546875 -4.949951171875 18.0283203125
15.931396484375 6.725830078125 -40.7374267578125
6.993408203125 18.781494140625 -7.2430419921875
-6.54248046875 -7.498779296875 2.7955322265625
8.137451171875 14.18603515625 6.5533447265625
10.405517578125 14.00048828125 7.1689453125
3.443603515625 11.9893798828125 -54.49951171875
13.906494140625 5.3134765625 30.273681640625
-8.0546875 7.250732421875 28.0516357421875
-32.64013671875 -13.8017578125 18.18505859375
-3.69091796875 4.784423828125 38.77880859375
-8.58251953125 2.968505859375 19.702880859375
-1.712158203125 -0.505615234375 51.9366455078125
23.9013671875 8.436767578125 -29.7607421875
10.396728515625 12.3929443359375 -55.883544921875
10.067138671875 11.6351318359375 -53.1414794921875
-7.69091796875 -11.7093505859375 16.9476318359375
7.9130859375 9.08203125 -46.7119140625
19.014404296875 -11.7161865234375 42.920654296875
6.15625 12.738525390625 -12.0235595703125
6.0888671875 1.246826171875 29.5172119140625
-27.3720703125 -7.0413818359375 3.7158203125
-25.730712890625 -4.986083984375 19.2218017578125
-6.4921875 -8.096435546875 4.0921630859375
2.9208984375 6.923583984375 -42.0628662109375
-12.24169921875 -8.8704833984375 10.6466064453125
-8.818359375 -12.3004150390625 18.931884765625
-4.088134765625 5.394775390625 14.1229248046875
4.055419921875 12.2294921875 12.8759765625
-14.6748046875 7.7156982421875 22.9378662109375
11.31787109375 -12.2076416015625 46.508056640625
7.885009765625 15.0313720703125 -16.7613525390625
-3.04541015625 8.6610107421875 -44.91552734375
11.75146484375 17.525634765625 -11.208984375
7.690673828125 2.149169921875 30.6597900390625
10.19384765625 3.5091552734375 -32.178955078125
-5.878173828125 8.4573974609375 23.1673583984375
15.40771484375 16.0682373046875 8.0677490234375
5.8544921875 5.2562255859375 -37.487548828125
-9.129638671875 8.4029541015625 28.1893310546875
14.0634765625 -10.0830078125 40.8309326171875
3.125 5.7264404296875 -38.18798828125
8.95947265625 -1.1766357421875 28.681396484375
23.793212890625 6.59814453125 -31.32080078125
26.554931640625 7.4940185546875 -28.77392578125
25.525146484375 8.5206298828125 -27.543701171875
2.96923828125 3.365234375 -31.4615478515625
-18.801025390625 -8.96142578125 6.292236328125
-1.561767578125 11.0211181640625 15.6412353515625
11.393310546875 4.8111572265625 31.971435546875
-23.481201171875 -9.974853515625 13.678955078125
8.925048828125 11.8358154296875 13.5382080078125
-8.43505859375 -7.78662109375 1.89208984375
7.794677734375 1.8828125 24.5556640625
6.234619140625 4.4970703125 -28.6832275390625
10.331298828125 -12.3436279296875 41.719970703125
13.17822265625 13.90478515625 8.1317138671875
10.783935546875 0.5543212890625 22.6719970703125
-8.90380859375 8.3370361328125 23.3673095703125
16.832763671875 20.59521484375 -12.4114990234375
0.14013671875 3.150634765625 41.12353515625
31.6435546875 -4.50244140625 29.0115966796875
-6.6376953125 -1.166259765625 17.045166015625
8.74755859375 12.3101806640625 -12.3626708984375
29.3349609375 -4.2147216796875 26.958251953125
11.843994140625 11.2864990234375 -53.3555908203125
2.55810546875 7.852294921875 25.5936279296875
-7.137451171875 -8.47705078125 6.3997802734375
9.2236328125 15.434814453125 2.166748046875
-9.63720703125 -7.831787109375 6.110595703125
-27.1494140625 -4.0179443359375 17.1014404296875
5.491455078125 9.62939453125 -48.6329345703125
7.310302734375 3.5533447265625 32.4398193359375
-20.510009765625 -8.8389892578125 6.114501953125
-32.8427734375 -6.69140625 0.81201171875
14.50390625 4.4310302734375 -32.1395263671875
-0.928466796875 1.9620361328125 -27.635498046875
-8.2119140625 -10.568603515625 14.5400390625
4.40673828125 10.5247802734375 18.56591796875
1.63916015625 16.39892578125 -2.7816162109375
-0.8056640625 4.2974853515625 -34.2896728515625
0.155029296875 14.134521484375 -58.3353271484375
2.685546875 10.005126953125 19.666748046875
-23.76220703125 -7.3900146484375 5.55517578125
-17.490234375 -12.3104248046875 20.3150634765625
7.869140625 4.74560546875 -30.7823486328125
-21.901611328125 -4.5843505859375 22.0250244140625
-24.425048828125 -6.427978515625 2.7239990234375
5.705810546875 10.618408203125 18.2510986328125
1.979248046875 1.5887451171875 -29.138427734375
6.12353515625 15.6123046875 2.2315673828125
5.361572265625 3.205810546875 31.0986328125
16.0625 12.3333740234375 -55.565185546875
0.546630859375 13.096435546875 -57.2315673828125
9.2939453125 17.392333984375 -8.5428466796875
-23.058837890625 -3.994384765625 19.0965576171875
-16.409912109375 -9.123779296875 11.6878662109375
24.36083984375 -6.2276611328125 33.6734619140625
12.933349609375 12.5819091796875 12.328857421875
-31.05810546875 -7.642333984375 5.3536376953125
11.18310546875 -11.446044921875 40.2012939453125
2.4150390625 11.5133056640625 15.0562744140625
-29.943359375 -4.751708984375 21.9085693359375
-9.664306640625 -8.6568603515625 10.4581298828125
14.598876953125 11.7481689453125 -54.8521728515625
-28.718017578125 -8.3507080078125 7.6602783203125
-22.641357421875 -7.2908935546875 4.27392578125
-27.949462890625 -3.411865234375 22.7034912109375
-4.2451171875 3.468017578125 -31.410888671875
-19.383056640625 -2.5399169921875 25.696044921875
21.866943359375 -6.3232421875 34.690673828125
29.539306640625 -5.6282958984375 32.345947265625
-24.547119140625 -4.4930419921875 21.1064453125
-27.33203125 -12.8726806640625 19.3963623046875
-2.633544921875 2.317138671875 43.919677734375
-6.923583984375 9.9285888671875 16.3310546875
4.9169921875 35.2525634765625 -40.7593994140625
5.199462890625 -14.7894287109375 48.459716796875
-1.93115234375 35.2041015625 -42.4429931640625
4.756591796875 13.6353759765625 9.0433349609375
-12.705078125 -11.30029296875 20.1959228515625
-1.96923828125 2.8643798828125 41.6734619140625
6.4970703125 15.99853515625 0.9423828125
-8.77099609375 -4.838134765625 22.2518310546875
0.88427734375 9.8177490234375 -48.7266845703125
-5.337646484375 7.915283203125 24.770263671875
5.630615234375 9.3349609375 -46.861083984375
-20.102294921875 -3.8873291015625 25.1004638671875
-14.914306640625 -4.707763671875 20.6104736328125
8.965087890625 12.8167724609375 -56.9002685546875
16.4775390625 -12.876953125 48.9957275390625
0.188232421875 6.98681640625 -41.98681640625
5.39990234375 14.9984130859375 4.7132568359375
-11.26513671875 -5.5068359375 23.591552734375
13.757568359375 -13.9622802734375 49.1173095703125
25.023193359375 12.061767578125 -22.072265625
18.9130859375 -12.23828125 39.027587890625
6.5205078125 34.5233154296875 -29.8646240234375
-22.086181640625 -10.2816162109375 14.981689453125
7.22412109375 -13.01171875 48.599609375
-22.2939453125 -10.90625 17.273681640625
17.324951171875 6.97802734375 -41.216064453125
22.193115234375 -11.2020263671875 48.0244140625
21.444580078125 -10.6185302734375 39.610595703125
4.203857421875 34.3223876953125 -29.2349853515625
23.3623046875 6.1712646484375 -34.6815185546875
12.393798828125 -10.5390625 41.8406982421875
-18.95166015625 -9.5350341796875 9.070068359375
-10.193359375 9.946533203125 17.9815673828125
16.397216796875 -11.9820556640625 42.6434326171875
-3.001220703125 11.209716796875 14.3740234375
-2.569580078125 9.8203125 19.8704833984375
-21.07666015625 -8.869384765625 20.720947265625
12.521728515625 18.2135009765625 -5.5771484375
-7.409912109375 -2.7216796875 19.931396484375
-20.505615234375 -6.6719970703125 22.32373046875
-5.785400390625 -8.5906982421875 10.5528564453125
-10.591064453125 -9.5855712890625 14.53564453125
21.662841796875 8.27392578125 -42.4718017578125
-3.662841796875 6.3580322265625 29.9798583984375
15.6318359375 18.2437744140625 -2.1773681640625
4.060302734375 3.503662109375 26.9248046875
-0.536865234375 4.857666015625 -36.8040771484375
-10.0517578125 7.675537109375 25.3746337890625
-0.408203125 11.3985595703125 13.73583984375
-9.90966796875 -9.29248046875 12.7862548828125
12.0576171875 -13.4150390625 47.833984375
-10.845458984375 -6.8199462890625 5.3399658203125
11.797119140625 3.9317626953125 29.4493408203125
-8.025146484375 10.4022216796875 17.3004150390625
15.8037109375 9.1810302734375 -47.02880859375
6.917236328125 11.29833984375 16.1927490234375
0.551025390625 4.5435791015625 -34.7548828125
9.143798828125 3.97607421875 -34.3197021484375
10.75927734375 12.17333984375 13.480712890625
-16.07421875 -3.4544677734375 23.083740234375
20.5673828125 -12.7000732421875 47.6573486328125
-0.176513671875 9.1177978515625 22.6368408203125
-2.998046875 3.89794921875 -33.010009765625
-2.857666015625 8.96923828125 22.2928466796875
-17.673583984375 -8.8294677734375 20.9283447265625
12.782958984375 16.5245361328125 -0.167724609375
16.07763671875 19.6910400390625 -9.18115234375
-29.286376953125 -6.9580078125 2.13232421875
-22.945068359375 -11.9705810546875 19.880126953125
-8.234375 -8.656494140625 8.20068359375
9.66162109375 14.1785888671875 -15.65087890625
-12.93603515625 8.969970703125 21.4698486328125
0.471923828125 5.8514404296875 -37.635986328125
-12.752685546875 8.30517578125 23.694580078125
11.517333984375 0.49853515625 25.430419921875
-13.048583984375 -4.8984375 18.874755859375
19.093505859375 21.0362548828125 -13.65966796875
-33.04150390625 -10.725341796875 12.3184814453125
-2.310302734375 6.65185546875 30.0411376953125
5.565185546875 2.9306640625 -31.812255859375
2.58251953125 1.4971923828125 -27.6580810546875
2.10888671875 10.650146484375 17.5128173828125
3.492919921875 35.3056640625 -32.8553466796875
3.8212890625 18.641845703125 -6.9927978515625
9.078369140625 5.2510986328125 33.6527099609375
-34.203857421875 -1.2635498046875 15.2457275390625
-3.81298828125 10.7786865234375 -50.9022216796875
-23.669189453125 -7.8404541015625 6.756591796875
-1.669189453125 9.245849609375 20.9412841796875
4.345458984375 17.9002685546875 -5.1785888671875
-10.78076171875 -6.7271728515625 2.32568359375
-0.25634765625 2.2349853515625 -30.0433349609375
-2.771484375 4.4378662109375 36.406982421875
-29.62890625 -9.4796142578125 11.3804931640625
5.170654296875 13.5982666015625 -58.671142578125
5.4189453125 5.0147705078125 35.9154052734375
-17.614990234375 -4.7130126953125 22.616943359375
6.6708984375 10.9599609375 -53.001708984375
-8.09716796875 34.2662353515625 -52.5872802734375
21.139892578125 -9.3619384765625 38.1488037109375
-18.12890625 -2.3160400390625 25.3214111328125
7.034423828125 15.0157470703125 3.352783203125
-33.504150390625 -3.1802978515625 18.98583984375
-7.270751953125 -2.55908203125 17.41015625
-14.0009765625 0.8431396484375 20.4677734375
1.540771484375 5.0772705078125 35.71484375
4.514892578125 13.89453125 -16.4212646484375
-29.4150390625 -7.6822509765625 5.0108642578125
-0.746337890625 8.154541015625 -44.0810546875
-25.0654296875 -6.780517578125 1.5845947265625
4.36474609375 3.2022705078125 40.7325439453125
-14.625732421875 -6.218505859375 1.91259765625
-29.86962890625 -11.6683349609375 17.880615234375
5.94091796875 15.6256103515625 -10.9720458984375
22.212890625 5.6123046875 -35.681640625
20.749755859375 -12.31591796875 40.5489501953125
9.66064453125 18.411865234375 -7.1124267578125
-16.2412109375 -4.333984375 19.7413330078125
5.881103515625 -0.59130859375 27.11962890625
13.850830078125 18.576171875 -6.5675048828125
4.037109375 17.5635986328125 -11.0860595703125
-33.645751953125 -10.6300048828125 5.1351318359375
-26.771484375 -8.0596923828125 6.0970458984375
5.9609375 -13.7061767578125 49.623046875
9.816162109375 14.9197998046875 4.3187255859375
-8.080810546875 -9.4107666015625 10.5152587890625
-27.195068359375 -9.75341796875 10.9945068359375
-8.52490234375 -7.506103515625 4.2196044921875
-12.640625 -10.577880859375 16.459228515625
8.837646484375 12.8299560546875 11.077880859375
3.93310546875 17.194091796875 -3.696533203125
-19.8271484375 -0.4071044921875 26.144775390625
3.410400390625 3.55322265625 39.352783203125
13.315673828125 5.2578125 28.9847412109375
-28.707763671875 -9.8726806640625 12.3553466796875
-22.38037109375 -9.23388671875 11.59619140625
-0.11767578125 11.5224609375 -52.25439453125
-33.689208984375 -3.968994140625 21.3475341796875
-24.833740234375 -9.1016845703125 12.0606689453125
14.49755859375 15.0703125 5.7608642578125
14.603515625 21.064697265625 -16.8587646484375
-15.777587890625 -10.8739013671875 18.7230224609375
-15.125244140625 -10.726318359375 17.0711669921875
11.31005859375 -13.9654541015625 49.59912109375
18.657470703125 5.4342041015625 -38.4732666015625
-14.734619140625 -9.8585205078125 18.9263916015625
14.5341796875 17.173095703125 -1.8941650390625
14.4970703125 -11.03369140625 38.877685546875
14.412109375 12.2950439453125 14.1419677734375
3.643310546875 4.6944580078125 35.9478759765625
31.22802734375 -4.0750732421875 32.6865234375
-31.118408203125 -8.442626953125 8.7257080078125
0.228759765625 5.078857421875 35.50390625
-7.817138671875 33.0670166015625 -48.619384765625
-11.06298828125 33.4090576171875 -48.611572265625
3.964599609375 6.69921875 -40.569580078125
-1.866943359375 10.5570068359375 17.4066162109375
-3.887451171875 32.9315185546875 -47.2548828125
29.549072265625 -4.720458984375 34.743896484375
14.8662109375 -10.8890380859375 41.9742431640625
20.116943359375 20.210205078125 -6.7235107421875
22.179931640625 -11.5220947265625 44.505859375
1.79931640625 3.1192626953125 40.8101806640625
2.948974609375 18.317138671875 -13.8369140625
5.990234375 -14.1817626953125 47.1112060546875
-17.67919921875 -12.3541259765625 18.9503173828125
3.46875 20.8359375 -17.4052734375
22.114501953125 -4.525634765625 33.3138427734375
18.082763671875 4.7708740234375 -33.6981201171875
-6.80908203125 33.2115478515625 -44.540283203125
5.1201171875 5.72705078125 21.28125
5.456298828125 10.7225341796875 -50.9248046875
10.3154296875 -11.728515625 44.1929931640625
6.868896484375 16.7984619140625 -1.072265625
-23.885986328125 -8.620361328125 9.17333984375
23.9150390625 -7.21142578125 35.6402587890625
-33.316650390625 -11.8277587890625 14.413330078125
10.617919921875 15.5916748046875 2.2928466796875
-6.801513671875 6.6585693359375 28.5623779296875
3.502685546875 15.16015625 3.52734375
0.457275390625 10.1875 19.0618896484375
23.41943359375 5.5731201171875 -32.7567138671875
7.417724609375 13.282470703125 -59.0218505859375
-14.908203125 7.0267333984375 25.2525634765625
23.633544921875 -7.7861328125 38.3060302734375
3.646728515625 14.4599609375 5.863037109375
5.9716796875 13.541259765625 -14.9989013671875
2.63232421875 4.419677734375 -36.22998046875
-6.03076171875 -9.202880859375 9.4732666015625
11.83203125 13.65283203125 8.5423583984375
9.67333984375 9.9842529296875 -49.308837890625
-3.86767578125 13.560302734375 -59.7548828125
7.63037109375 14.502685546875 5.49755859375
-9.258544921875 -11.4825439453125 20.9849853515625
3.19384765625 9.307861328125 -47.885498046875
-16.8994140625 -6.2757568359375 20.4012451171875
3.3525390625 13.731201171875 8.2950439453125
-4.24365234375 12.0628662109375 -52.6820068359375
-3.18359375 1.7447509765625 47.068603515625
9.126708984375 13.4010009765625 8.74072265625
6.904296875 1.153076171875 25.5765380859375
-12.095458984375 -4.869140625 19.617431640625
3.55615234375 7.0250244140625 24.3472900390625
13.99658203125 19.5849609375 -11.25341796875
1.73291015625 -0.2664794921875 48.868896484375
-18.77099609375 -11.1861572265625 21.905029296875
13.08740234375 18.3077392578125 -12.955810546875
-1.449462890625 8.6348876953125 23.619140625
16.19287109375 21.9306640625 -16.632568359375
20.714599609375 -11.515869140625 46.6270751953125
7.875 12.957763671875 10.2227783203125
-1.222900390625 7.3975830078125 -42.9713134765625
10.5478515625 10.5675048828125 -50.963623046875
14.7216796875 19.58642578125 -8.8319091796875
-5.59423828125 7.30029296875 30.3941650390625
7.12060546875 5.998779296875 19.277099609375
-35.08203125 -13.0999755859375 15.0048828125
-7.4072265625 -9.2589111328125 8.82958984375
16.72119140625 21.3311767578125 -14.8603515625
-1.6162109375 3.0328369140625 -27.5794677734375
2.359619140625 14.865234375 1.9127197265625
19.064697265625 19.184814453125 -5.959716796875
28.965576171875 -4.41015625 28.0816650390625
2.861083984375 33.023681640625 -26.609619140625
11.477783203125 18.7080078125 -7.6632080078125
-16.186279296875 -6.3463134765625 3.3125
31.09130859375 -2.9720458984375 33.1376953125
-1.1181640625 6.232666015625 -40.15185546875
11.064697265625 16.447509765625 0.7449951171875
-17.526611328125 -7.28857421875 4.1220703125
-10.677490234375 -8.0947265625 8.432861328125
2.3447265625 16.450927734375 -4.4873046875
-6.544921875 7.3460693359375 26.2584228515625
-26.46240234375 -8.3255615234375 8.6085205078125
-27.113525390625 -11.0599365234375 16.005126953125
-20.580078125 -9.9998779296875 10.1619873046875
20.110107421875 19.686279296875 -10.0523681640625
-27.290283203125 -7.032470703125 1.2357177734375
24.822998046875 9.5428466796875 -36.9857177734375
8.802978515625 9.40380859375 -47.6614990234375
4.72021484375 11.38720703125 16.1134033203125
5.001220703125 5.0999755859375 -36.6622314453125
-34.687744140625 -13.288818359375 17.88134765625
-32.72119140625 -2.654296875 15.1754150390625
-15.0068359375 -4.57861328125 22.9532470703125
-9.061767578125 9.15234375 21.0606689453125
0.882080078125 4.60693359375 -35.928955078125
9.890869140625 -0.1646728515625 27.5218505859375
1.675048828125 7.2032470703125 -41.3995361328125
11.1337890625 13.1573486328125 -12.836181640625
8.837646484375 14.13232421875 -10.8011474609375
-21.07177734375 -12.3902587890625 18.7454833984375
-18.1181640625 -3.95703125 24.244140625
12.0849609375 15.5655517578125 -12.805419921875
11.21826171875 12.9957275390625 -15.8651123046875
-10.775146484375 -10.79833984375 18.0906982421875
25.279052734375 -7.156005859375 36.278076171875
13.597900390625 -12.737060546875 45.388427734375
6.18115234375 6.5433349609375 -41.0013427734375
-0.24560546875 7.277587890625 28.3642578125
-19.06494140625 -6.4151611328125 23.3150634765625
-33.563720703125 -13.5557861328125 17.30322265625
27.98095703125 -4.7896728515625 36.5001220703125
-12.6201171875 -6.614013671875 4.6373291015625
-22.9072265625 -6.5889892578125 1.4906005859375
-5.869384765625 3.5284423828125 13.0115966796875
13.793212890625 5.969970703125 28.0673828125
-9.71630859375 8.036376953125 24.1654052734375
8.062255859375 -12.4754638671875 47.73095703125
-11.49462890625 10.2474365234375 17.6141357421875
4.21044921875 4.9110107421875 29.5587158203125
-13.981689453125 -11.154296875 19.916015625
3.807861328125 3.9197998046875 -33.0374755859375
-2.92431640625 2.4539794921875 -30.0726318359375
14.417724609375 17.889892578125 -4.281982421875
-10.33740234375 9.060791015625 21.3704833984375
-5.55908203125 33.8514404296875 -43.0118408203125
9.120361328125 5.03369140625 -36.529541015625
-27.47900390625 -8.2742919921875 7.3453369140625
-3.22998046875 4.283203125 43.1297607421875
-0.03955078125 6.144775390625 31.7318115234375
-33.399658203125 -11.0301513671875 10.1512451171875
-13.7900390625 -7.00244140625 6.0845947265625
-4.79736328125 6.8177490234375 -37.5001220703125
22.778564453125 5.3585205078125 -34.0723876953125
1.017822265625 9.3948974609375 21.2847900390625
11.39794921875 4.9381103515625 -36.4764404296875
14.10791015625 4.7176513671875 -36.4503173828125
-14.485595703125 -8.1004638671875 8.7801513671875
17.081787109375 -12.718505859375 46.5225830078125
15.9775390625 4.4967041015625 -35.69580078125
1.25390625 3.876708984375 38.69091796875
3.149169921875 18.69580078125 -8.927734375
3.60107421875 1.6788330078125 -26.95703125
9.1708984375 -12.923828125 43.6046142578125
-20.79296875 -11.71044921875 16.8955078125
-1.278076171875 8.1187744140625 25.7655029296875
6.451416015625 3.79345703125 -33.5816650390625
20.009765625 -11.268798828125 43.436279296875
-6.372802734375 -2.4888916015625 21.036376953125
25.277587890625 -4.697021484375 30.8671875
14.633544921875 20.111572265625 -14.7864990234375
8.6259765625 16.7764892578125 -1.4375
-9.7509765625 -8.3504638671875 9.341552734375
2.3740234375 16.4056396484375 -0.4088134765625
-17.376953125 -9.296142578125 11.0223388671875
15.245849609375 8.254150390625 29.082275390625
18.15576171875 -12.6444091796875 48.560546875
14.399169921875 7.1895751953125 27.3594970703125
-28.87646484375 -10.2177734375 14.50146484375
-4.979736328125 6.3592529296875 29.76953125
-4.683837890625 4.414794921875 14.2607421875
-2.07861328125 33.838623046875 -45.45703125
-14.776123046875 -10.11865234375 15.7176513671875
7.227783203125 37.171142578125 -36.371826171875
15.985107421875 9.9901123046875 28.5888671875
7.528564453125 8.282470703125 -44.516357421875
-2.595703125 5.8211669921875 32.402099609375
-13.2548828125 -5.25732421875 21.01953125
25.099853515625 9.856689453125 -25.57421875
-0.416259765625 3.3841552734375 39.7215576171875
11.171875 7.7130126953125 -43.9620361328125
18.5419921875 10.9923095703125 -51.50146484375
10.301025390625 14.011474609375 -17.77587890625
19.522216796875 10.69873046875 -50.46533203125
14.261474609375 11.413818359375 -52.9202880859375
-17.08447265625 -5.1846923828125 20.8358154296875
-6.12353515625 33.5716552734375 -50.974853515625
2.251708984375 5.4027099609375 33.9991455078125
19.115966796875 9.6295166015625 -47.5450439453125
-32.283203125 -9.5296630859375 10.5406494140625
-10.243896484375 32.9344482421875 -45.2232666015625
-4.583984375 33.1785888671875 -49.4439697265625
11.005126953125 -11.5843505859375 42.6090087890625
-26.087646484375 -10.245849609375 13.4283447265625
22.7451171875 -11.4554443359375 45.741943359375
-20.324462890625 -12.107666015625 14.609130859375
-7.5087890625 33.4583740234375 -46.7191162109375
15.89111328125 12.31298828125 -57.1641845703125
5.5390625 14.299072265625 7.04443359375
17.790771484375 -12.221923828125 44.3189697265625
-32.218505859375 -11.5355224609375 15.9322509765625
17.96875 11.681396484375 -53.9754638671875
21.4287109375 11.1529541015625 -51.1961669921875
14.414306640625 -12.11962890625 44.021484375
6.537109375 13.11083984375 9.9295654296875
-33.670166015625 -13.1229248046875 16.1416015625
-24.343017578125 -11.8072509765625 18.6669921875
-33.86181640625 -11.896484375 10.724609375
20.22900390625 12.475830078125 -56.657958984375
-0.3779296875 15.056884765625 -60.442138671875
3.03125 11.1669921875 17.0640869140625
7.8759765625 -13.40771484375 44.0902099609375
4.677001953125 16.3748779296875 0.1251220703125
6.763427734375 36.672119140625 -35.442626953125
-27.8818359375 -11.3280029296875 16.7923583984375
0.59521484375 0.5072021484375 48.7391357421875
9.52587890625 1.38134765625 25.4061279296875
9.1455078125 11.9901123046875 -53.685302734375
-30.549560546875 -12.6474609375 19.9716796875
16.224609375 26.71630859375 -29.843994140625
1.787841796875 10.58251953125 18.5904541015625
6.83984375 9.568115234375 -48.9189453125
6.958740234375 8.700439453125 -46.25244140625
4.26220703125 14.1185302734375 -59.3272705078125
6.795166015625 35.4749755859375 -33.1529541015625
6.286865234375 17.4776611328125 -3.33544921875
-13.149658203125 -9.1492919921875 13.8935546875
-4.198486328125 10.3802490234375 16.51318359375
-4.050048828125 5.076416015625 -36.1051025390625
0.795654296875 10.5911865234375 -50.8106689453125
-2.410888671875 33.724853515625 -51.9398193359375
18.555419921875 21.900634765625 -16.09033203125
16.04833984375 22.0830078125 -18.252685546875
-1.48486328125 9.8511962890625 -49.262451171875
-0.7548828125 12.0491943359375 -54.61474609375
29.7890625 -1.13427734375 24.4111328125
14.122314453125 5.9383544921875 -38.7740478515625
15.055419921875 15.8814697265625 5.229736328125
-30.461669921875 -4.515380859375 18.0716552734375
17.257080078125 10.5706787109375 27.0928955078125
-1.149169921875 11.4952392578125 -53.0809326171875
10.88525390625 6.06640625 -39.1556396484375
-10.528076171875 -4.596435546875 18.1842041015625
-15.052734375 9.0445556640625 18.4761962890625
21.86572265625 4.640380859375 -32.3843994140625
-3.23681640625 -1.00634765625 53.82373046875
12.427734375 3.520263671875 28.0855712890625
12.473876953125 10.5009765625 -50.2947998046875
0.73876953125 10.8956298828125 16.69580078125
4.573974609375 9.980712890625 -49.170166015625
14.865234375 24.042236328125 -24.3294677734375
0.62744140625 8.408203125 -44.56298828125
16.834716796875 24.302734375 -23.852783203125
20.689453125 19.1522216796875 -7.83349609375
13.546142578125 8.5059814453125 -45.0032958984375
10.39111328125 7.359619140625 -41.9521484375
19.46142578125 9.958740234375 -49.4571533203125
-11.329345703125 9.426025390625 19.9388427734375
6.751953125 14.060302734375 -17.0115966796875
-12.49755859375 -7.8077392578125 7.213134765625
20.59033203125 9.948486328125 -47.544677734375
-18.87353515625 -8.3695068359375 5.0087890625
-33.18603515625 -9.8394775390625 7.5167236328125
-3.744873046875 13.51904296875 -58.6539306640625
31.49853515625 -4.3099365234375 27.0416259765625
3.932861328125 13.071044921875 10.4967041015625
-3.3212890625 2.5201416015625 44.889404296875
22.744873046875 8.3629150390625 -41.165771484375
-14.754638671875 8.1953125 21.749755859375
4.5849609375 1.073486328125 28.002197265625
13.08740234375 4.278076171875 -32.24853515625
8.814208984375 2.350830078125 25.0770263671875
21.531982421875 12.48291015625 -53.1241455078125
-2.19970703125 -0.222412109375 50.988525390625
-0.363037109375 1.222412109375 46.75634765625
0.866455078125 13.9954833984375 5.6922607421875
-35.427490234375 -12.1494140625 14.569091796875
26.946044921875 -4.0504150390625 28.7938232421875
-14.591064453125 -4.3712158203125 19.41064453125
3.482421875 34.1600341796875 -43.0872802734375
-1.580322265625 0.9110107421875 47.597412109375
-0.83056640625 33.2247314453125 -45.9381103515625
-3.022705078125 10.510009765625 15.2225341796875
3.437255859375 35.875 -34.244140625
6.417236328125 -1.341064453125 29.280029296875
-10.0078125 33.4305419921875 -47.76953125
-34.107666015625 -12.576171875 12.5914306640625
-25.08056640625 -5.4808349609375 18.3817138671875
4.232421875 0.4879150390625 25.97314453125
-4.470458984375 12.3028564453125 -54.9656982421875
7.50439453125 14.6416015625 -15.4259033203125
0.617919921875 13.576171875 7.9561767578125
6.78564453125 4.259033203125 -35.52197265625
-9.356689453125 7.3997802734375 27.76611328125
9.672119140625 15.7529296875 -10.3160400390625
21.8154296875 -12.024658203125 42.0479736328125
2.087158203125 13.53759765625 9.158203125
19.357177734375 -12.6484375 40.0589599609375
8.43701171875 14.234130859375 -18.5224609375
-10.86865234375 -9.993896484375 16.252685546875
-9.184814453125 9.7294921875 19.34130859375
13.865966796875 4.6209716796875 -34.2158203125
-0.271728515625 35.37548828125 -40.7344970703125
11.97412109375 4.2818603515625 -34.10400390625
-16.763916015625 -8.2685546875 7.9080810546875
10.4755859375 3.9293212890625 33.0494384765625
-6.12353515625 -9.9381103515625 13.2757568359375
-7.323486328125 9.03271484375 21.2449951171875
0.76904296875 12.8848876953125 10.264892578125
16.743408203125 -12.5582275390625 39.1513671875
16.189697265625 9.8277587890625 -49.14111328125
9.661865234375 13.353271484375 -14.1649169921875
3.13671875 17.912353515625 -11.5921630859375
4.791015625 35.6575927734375 -34.427734375
18.40234375 -11.8780517578125 45.41552734375
17.1787109375 18.1524658203125 -4.5018310546875
22.760009765625 6.522216796875 -36.87451171875
-16.183349609375 -8.48828125 9.3590087890625
13.381103515625 14.930419921875 4.0604248046875
-18.056396484375 -7.14892578125 3.1810302734375
28.8310546875 -5.8692626953125 34.489013671875
-20.41455078125 -12.40087890625 20.512939453125
-22.295166015625 -7.78466796875 7.3990478515625
-10.62109375 8.6053466796875 23.1060791015625
-18.582275390625 1.4715576171875 26.8529052734375
-31.38232421875 -6.430908203125 1.817138671875
24.86572265625 12.04150390625 -23.5972900390625
7.490234375 17.880859375 -5.3377685546875
5.260986328125 13.0830078125 -12.52783203125
-3.56494140625 6.7874755859375 33.5601806640625
1.61279296875 8.9056396484375 23.341796875
2.42578125 9.0592041015625 22.61572265625
10.525634765625 15.919921875 -11.1075439453125
-20.715576171875 -2.965576171875 25.713623046875
-4.8515625 33.1351318359375 -47.7003173828125
-3.153076171875 33.014892578125 -49.1302490234375
-15.483154296875 -7.9056396484375 7.4317626953125
14.802490234375 20.1229248046875 -13.271240234375
5.62890625 34.5428466796875 -41.6099853515625
-10.885498046875 34.0228271484375 -51.783203125
-1.660888671875 8.5025634765625 -44.6119384765625
6.0107421875 5.0701904296875 37.1878662109375
-18.739013671875 -10.6456298828125 12.04052734375
-21.168701171875 -7.226318359375 2.4388427734375
0.2763671875 4.083251953125 37.37841796875
2.125732421875 3.2122802734375 -30.6495361328125
11.18603515625 14.9207763671875 4.530029296875
-31.302734375 -4.8070068359375 21.2728271484375
-2.770751953125 35.34765625 -41.784912109375
25.31787109375 10.4073486328125 -38.676025390625
22.19482421875 7.4437255859375 -39.95654296875
5.696533203125 36.024658203125 -35.3809814453125
4.298828125 2.5025634765625 -30.21484375
0.05908203125 7.72900390625 26.644287109375
-15.6181640625 -8.849853515625 10.88525390625
-4.30908203125 34.4913330078125 -41.4833984375
4.286376953125 15.83203125 1.50146484375
-33.75634765625 -2.8443603515625 16.943603515625
-25.952880859375 -8.7471923828125 9.6953125
3.756591796875 4.2828369140625 37.533203125
-1.8271484375 34.34423828125 -44.162109375
-4.046875 33.28271484375 -45.2242431640625
-32.382568359375 -10.8985595703125 19.921142578125
1.5068359375 36.5692138671875 -39.6387939453125
2.956298828125 36.5765380859375 -39.427490234375
-14.8447265625 -6.7225341796875 4.2039794921875
-20.256103515625 -8.4825439453125 23.2000732421875
14.240234375 13.3316650390625 10.68798828125
-24.3935546875 -8.1981201171875 8.08447265625
-16.146240234375 6.0894775390625 23.5706787109375
-14.5068359375 -9.7109375 14.001220703125
0.69287109375 15.8382568359375 -60.638916015625
7.114990234375 13.1058349609375 -57.1817626953125
1.557861328125 1.848388671875 44.2408447265625
-4.248046875 10.975830078125 -47.117919921875
2.52197265625 15.814453125 -61.0711669921875
9.7255859375 18.0517578125 -5.911376953125
-2.36474609375 38.17138671875 -66.43701171875
9.407958984375 17.7156982421875 -4.133056640625
11.3427734375 12.197998046875 -55.442138671875
24.284423828125 -7.5201416015625 39.91552734375
-26.023681640625 -11.68603515625 18.4888916015625
-1.6259765625 -1.1817626953125 53.5919189453125
-0.918212890625 11.7083740234375 12.700439453125
5.391845703125 2.3475341796875 -28.2838134765625
24.930908203125 10.6334228515625 -24.3978271484375
11.93017578125 11.0867919921875 -52.159423828125
14.320068359375 13.1387939453125 11.7606201171875
9.890380859375 13.3099365234375 -57.982421875
-17.672607421875 -6.40966796875 21.1119384765625
7.853271484375 12.6546630859375 -12.867431640625
5.7099609375 12.842529296875 -56.677001953125
