2.524169921875 26.8028564453125 -13.6405029296875
-17.919189453125 -9.22998046875 18.7303466796875
-3.25341796875 5.954345703125 -29.2530517578125
5.194091796875 4.5164794921875 -25.44140625
7.498779296875 4.446533203125 31.9775390625
13.639892578125 18.27587890625 6.78173828125
12.09521484375 16.249267578125 -10.572509765625
13.143310546875 7.085205078125 -30.8079833984375
6.166259765625 7.5888671875 41.5042724609375
-9.9306640625 -6.197998046875 20.2373046875
6.565185546875 18.5455322265625 -4.42724609375
16.064697265625 11.456298828125 -41.111572265625
8.182373046875 -10.5419921875 47.3392333984375
11.43408203125 15.207763671875 -49.7108154296875
-3.9267578125 12.5753173828125 -41.583740234375
5.289306640625 17.318115234375 -12.0140380859375
4.233154296875 6.378662109375 -28.0201416015625
-4.134521484375 4.68701171875 -24.2108154296875
-6.31494140625 -6.5633544921875 14.1600341796875
10.327392578125 17.27392578125 10.6580810546875
12.3056640625 -9.0902099609375 50.4281005859375
1.35546875 7.93896484375 40.2330322265625
-30.5009765625 -2.5499267578125 6.578857421875
0.438232421875 17.09326171875 11.6063232421875
-13.75390625 -6.2021484375 19.477783203125
-19.84326171875 -3.8858642578125 5.4305419921875
9.443603515625 13.053955078125 -45.5875244140625
-2.880126953125 4.647705078125 -26.2073974609375
-24.302978515625 -3.80224609375 7.166748046875
0.22265625 18.1160888671875 -56.876708984375
0.725830078125 2.8878173828125 -20.6202392578125
-5.438720703125 -7.1212158203125 17.8680419921875
-3.75244140625 32.963134765625 -38.6151123046875
19.42822265625 14.6375732421875 -48.768310546875
8.99365234375 37.4853515625 -33.1827392578125
-23.240478515625 -9.18017578125 22.0009765625
-19.95751953125 4.6634521484375 7.0670166015625
-33.3115234375 -7.4564208984375 21.12451171875
-28.37109375 -9.386474609375 22.7137451171875
-2.708251953125 9.267578125 -36.3961181640625
-1.661376953125 4.0968017578125 51.110107421875
16.46533203125 21.4776611328125 -1.8740234375
-16.3466796875 -7.3653564453125 18.9432373046875
11.97900390625 1.2586669921875 51.7755126953125
21.760009765625 15.2454833984375 -49.02783203125
-1.3330078125 6.942626953125 -30.62451171875
10.2568359375 17.8372802734375 -8.637451171875
23.545166015625 10.3885498046875 -37.2982177734375
13.49658203125 7.2294921875 42.5948486328125
28.300048828125 -2.9822998046875 38.52783203125
-2.0537109375 24.08935546875 -7.187744140625
-5.7666015625 -8.0279541015625 20.967529296875
-9.58984375 -3.470703125 8.39599609375
-10.873291015625 -7.2822265625 22.80810546875
-25.70361328125 -9.600830078125 23.31884765625
6.067138671875 3.5496826171875 53.58447265625
2.275390625 23.2034912109375 -7.546875
-31.108642578125 -6.6029052734375 19.48828125
-5.823486328125 32.1104736328125 -40.9112548828125
23.61962890625 -5.042724609375 40.9912109375
4.904052734375 8.057861328125 40.6273193359375
-3.27001953125 7.9808349609375 -33.379638671875
23.6533203125 11.6666259765625 -39.9945068359375
23.563720703125 13.815673828125 -45.8846435546875
3.014404296875 37.5721435546875 -50.2828369140625
23.4609375 7.9805908203125 -31.465087890625
-1.389892578125 17.71533203125 -56.155517578125
3.3759765625 6.859619140625 43.212158203125
-0.46826171875 8.233642578125 39.6929931640625
10.973876953125 16.4136962890625 13.1142578125
14.17236328125 -9.0751953125 48.888916015625
11.71240234375 4.0498046875 51.699951171875
-0.444091796875 7.0853271484375 42.8798828125
8.267822265625 16.866943359375 13.0166015625
0.884765625 9.165771484375 37.0196533203125
3.329345703125 29.3304443359375 -16.5201416015625
13.98388671875 14.5355224609375 -48.926513671875
8.02978515625 14.263671875 -48.715087890625
-30.364013671875 -9.072265625 24.6812744140625
-32.4482421875 3.394287109375 11.1859130859375
-25.38818359375 -4.4190673828125 10.2235107421875
9.961669921875 5.0787353515625 33.2601318359375
12.606201171875 17.869140625 9.6611328125
5.827880859375 6.852294921875 43.0235595703125
17.982666015625 8.009521484375 -32.516357421875
6.658203125 38.81201171875 -50.438720703125
16.8154296875 15.296630859375 -49.9722900390625
17.9345703125 12.3284912109375 -42.9759521484375
19.011962890625 14.6602783203125 27.8505859375
8.1337890625 8.3367919921875 28.2841796875
5.219482421875 18.43359375 5.3564453125
13.300048828125 8.01953125 40.1376953125
10.324951171875 8.0880126953125 39.8582763671875
6.861572265625 5.0120849609375 -26.50732421875
-9.681396484375 -8.7574462890625 25.467041015625
14.88671875 13.2637939453125 -45.807373046875
3.786376953125 23.5518798828125 -9.9559326171875
13.826171875 -4.1844482421875 42.853515625
6.25732421875 8.410888671875 29.0064697265625
-0.766357421875 32.5992431640625 -41.513671875
-1.37744140625 32.2032470703125 -39.9212646484375
13.6123046875 12.6717529296875 25.9705810546875
9.773681640625 13.771484375 -47.1055908203125
8.896728515625 21.7884521484375 -13.0286865234375
-3.252685546875 32.6141357421875 -42.839599609375
6.7919921875 3.5965576171875 29.502197265625
16.396728515625 14.34375 -47.6563720703125
-1.27734375 2.6365966796875 55.1224365234375
-1.406982421875 4.80029296875 48.705322265625
9.084716796875 18.5294189453125 -10.2701416015625
23.108642578125 -8.949462890625 47.278564453125
4.7099609375 3.8746337890625 -20.2181396484375
-34.21044921875 -5.1781005859375 6.8720703125
13.482177734375 21.31396484375 -0.3638916015625
7.75537109375 16.8470458984375 -7.713134765625
13.354248046875 2.0843505859375 49.955078125
4.59814453125 17.837158203125 8.632568359375
-24.260986328125 -4.374267578125 13.2183837890625
19.73828125 12.7386474609375 33.181884765625
20.76318359375 11.8599853515625 33.9298095703125
0.91015625 18.5833740234375 5.51904296875
9.487060546875 5.4852294921875 -27.537841796875
23.587646484375 12.683349609375 -42.74169921875
9.451416015625 4.6536865234375 49.851806640625
14.19873046875 19.51318359375 4.05908203125
0.263671875 19.7025146484375 7.890869140625
5.48828125 20.107421875 1.8699951171875
29.84375 1.7998046875 25.8734130859375
-8.101806640625 32.2296142578125 -40.1290283203125
-15.920166015625 -6.4354248046875 17.1376953125
-20.0087890625 -6.3389892578125 10.593017578125
-0.15478515625 23.951904296875 -6.6759033203125
4.0517578125 25.1287841796875 -12.61328125
11.8642578125 -2.875 45.223876953125
-14.127685546875 -5.3074951171875 12.9935302734375
9.5537109375 -8.8369140625 51.0692138671875
20.001708984375 -8.4754638671875 48.400390625
1.414794921875 39.9964599609375 -51.6395263671875
8.9091796875 7.031982421875 42.952392578125
22.309326171875 14.3707275390625 -47.4915771484375
-9.5341796875 -3.7542724609375 11.671875
3.021484375 12.636962890625 -44.6170654296875
0.683837890625 22.7198486328125 -5.1746826171875
30.3583984375 -2.6885986328125 30.87548828125
23.317138671875 -0.93115234375 35.52294921875
5.8544921875 17.1754150390625 11.1690673828125
-6.375244140625 32.9891357421875 -42.4542236328125
4.63134765625 19.736572265625 -7.2857666015625
17.420654296875 5.4755859375 -25.5150146484375
-27.82958984375 -7.0361328125 17.18798828125
4.93115234375 8.2137451171875 -33.8291015625
0.664306640625 22.0263671875 0.686279296875
10.739990234375 3.7132568359375 28.59375
23.951904296875 8.664794921875 -25.02734375
20.9853515625 -1.7080078125 37.714111328125
18.33740234375 20.8948974609375 1.1640625
5.337890625 21.00537109375 -0.9583740234375
4.0888671875 8.00390625 36.571044921875
19.60888671875 -2.630615234375 40.3917236328125
1.410888671875 33.99609375 -35.321533203125
4.641357421875 23.485595703125 -11.205322265625
10.94287109375 11.9715576171875 -42.4298095703125
20.91064453125 9.1864013671875 -35.936767578125
0.027587890625 33.3062744140625 -35.4866943359375
-0.9501953125 24.6275634765625 -10.002197265625
2.91259765625 33.4686279296875 -37.470703125
8.939453125 3.44384765625 52.9873046875
-15.4013671875 -3.6708984375 7.478759765625
7.367431640625 5.5196533203125 48.1070556640625
21.8408203125 15.576171875 -50.6309814453125
15.944091796875 9.0294189453125 40.2442626953125
-1.20751953125 10.536376953125 -39.3875732421875
-9.9541015625 -5.0904541015625 17.1636962890625
22.645751953125 6.8131103515625 -26.2760009765625
8.748779296875 24.986572265625 -14.5316162109375
15.403564453125 -8.4110107421875 46.5950927734375
3.894287109375 36.453857421875 -49.171142578125
-6.91064453125 -8.663818359375 23.64306640625
7.697998046875 -6.2637939453125 50.769775390625
17.9541015625 24.052978515625 -9.9117431640625
18.563232421875 23.1729736328125 -7.8935546875
10.09814453125 16.4652099609375 -12.770751953125
-0.7724609375 23.457275390625 -4.247802734375
28.73974609375 -3.26123046875 34.0828857421875
18.67919921875 13.1549072265625 29.1981201171875
-5.403564453125 33.27197265625 -44.881103515625
-3.055908203125 36.1806640625 -49.3751220703125
3.169189453125 3.8502197265625 52.0184326171875
-10.97900390625 -4.88671875 14.1962890625
-25.890380859375 -5.9593505859375 16.397216796875
15.38525390625 -9.6688232421875 50.1610107421875
0.37548828125 33.254150390625 -44.7249755859375
-13.4189453125 -4.5968017578125 10.315185546875
8.234375 2.1412353515625 34.466796875
-3.705078125 32.3975830078125 -40.381103515625
-5.07177734375 34.1060791015625 -47.239990234375
-0.932861328125 17.40087890625 10.281005859375
10.678466796875 3.8525390625 52.8616943359375
-8.038330078125 -4.83544921875 15.2935791015625
13.632568359375 12.5777587890625 -43.8941650390625
0.218994140625 14.8465576171875 -49.23876953125
5.409423828125 16.757568359375 -52.8968505859375
20.111572265625 7.298583984375 -30.892578125
14.526611328125 15.633544921875 -50.8013916015625
13.849609375 8.7325439453125 -35.038818359375
7.39306640625 7.518798828125 38.52099609375
20.04150390625 12.7520751953125 -44.4986572265625
13.25341796875 13.905029296875 -46.9876708984375
15.754638671875 7.6524658203125 -33.0848388671875
-11.235595703125 -8.197021484375 25.473388671875
18.753173828125 15.2633056640625 -49.9285888671875
-1.84912109375 15.5357666015625 -50.8114013671875
17.319580078125 16.3822021484375 -52.2689208984375
-1.275146484375 11.4332275390625 -41.2783203125
15.79296875 7.7017822265625 42.52099609375
-33.76025390625 -7.197998046875 18.6806640625
10.06396484375 6.78271484375 -30.5794677734375
13.23974609375 10.607177734375 -39.28369140625
14.94189453125 16.3486328125 13.402587890625
-25.991943359375 -4.4073486328125 7.7086181640625
9.395751953125 15.0946044921875 -50.189697265625
9.703857421875 9.236572265625 -36.34619140625
28.34033203125 -3.3814697265625 36.212646484375
-3.001220703125 17.2188720703125 -54.6409912109375
10.966552734375 10.9510498046875 -40.1282958984375
6.533935546875 15.04638671875 -49.45166015625
11.202880859375 8.25 -33.9866943359375
4.5244140625 18.666259765625 -54.6761474609375
19.009033203125 21.414794921875 -0.856201171875
-17.161865234375 -2.4783935546875 5.560546875
3.013671875 9.2698974609375 -36.18017578125
-12.198486328125 -6.65771484375 18.657958984375
-3.635498046875 16.724609375 -52.7030029296875
-18.651611328125 -9.4427490234375 16.5355224609375
-32.806396484375 -8.497802734375 24.193115234375
-0.651611328125 14.062255859375 -48.16357421875
-21.79541015625 -4.654052734375 10.8690185546875
2.4091796875 11.12841796875 -40.3887939453125
6.387939453125 6.141357421875 36.2764892578125
5.037353515625 33.8206787109375 -45.3480224609375
26.2646484375 9.776611328125 -23.8653564453125
31.460205078125 -1.103759765625 25.6917724609375
2.17724609375 8.506103515625 -34.70654296875
-7.3701171875 -5.2520751953125 8.134033203125
-20.341796875 -3.0286865234375 4.362060546875
0.864013671875 13.1033935546875 -45.422607421875
-30.567138671875 -8.338134765625 21.9659423828125
20.593017578125 13.853271484375 -46.37744140625
14.34423828125 21.3472900390625 -2.4700927734375
-2.76025390625 14.541015625 -48.55224609375
11.285888671875 21.14794921875 -1.8409423828125
16.564208984375 23.3946533203125 -9.693603515625
7.22509765625 5.302490234375 27.8267822265625
-5.16064453125 32.9410400390625 -37.826904296875
12.771728515625 20.7781982421875 1.2066650390625
18.525390625 9.405029296875 -36.8177490234375
-20.045654296875 -9.7484130859375 19.2344970703125
-24.16552734375 -9.3499755859375 23.5306396484375
5.220458984375 15.290771484375 -9.4693603515625
6.727783203125 40.7130126953125 -51.4229736328125
-0.4951171875 34.556884765625 -47.4720458984375
-3.24462890625 13.3773193359375 -45.5001220703125
-15.492919921875 -5.5040283203125 15.3294677734375
5.134033203125 14.1031494140625 -47.5914306640625
5.031005859375 33.644287109375 -36.5250244140625
-12.343994140625 -5.8924560546875 16.7513427734375
6.02001953125 5.962646484375 46.321044921875
2.067626953125 17.4893798828125 10.526611328125
4.20166015625 15.2509765625 -50.296630859375
1.087890625 3.5494384765625 53.0201416015625
8.842529296875 4.729736328125 27.8214111328125
-31.58935546875 -2.9759521484375 7.6192626953125
8.602783203125 16.27978515625 -4.7916259765625
-1.671875 33.97607421875 -45.50390625
9.92822265625 3.481689453125 32.8177490234375
8.14404296875 36.1729736328125 -34.2911376953125
0.59326171875 5.9268798828125 46.6131591796875
-12.325927734375 -4.07568359375 8.03466796875
-4.437744140625 9.1693115234375 -33.2142333984375
9.63330078125 20.5443115234375 0.9471435546875
-20.203857421875 -9.594482421875 22.5853271484375
-1.871337890625 8.7432861328125 36.192138671875
4.969970703125 20.6728515625 -10.486328125
0.81005859375 23.6453857421875 -4.1092529296875
-0.49658203125 25.523681640625 -11.0728759765625
12.24609375 15.9693603515625 -51.62744140625
2.05810546875 35.6390380859375 -47.6617431640625
21.005126953125 -9.4112548828125 43.83642578125
17.99609375 13.5860595703125 -46.0797119140625
9.345703125 -8.993408203125 49.684814453125
-3.077392578125 34.0484619140625 -45.5303955078125
10.563720703125 -3.045166015625 48.9906005859375
-10.86962890625 -4.1507568359375 9.37939453125
13.646728515625 6.0029296875 -28.083251953125
-4.2548828125 6.8699951171875 -31.171142578125
17.91455078125 -9.045166015625 45.8033447265625
16.127685546875 13.34033203125 27.2491455078125
2.234130859375 18.428955078125 -58.0113525390625
13.99169921875 16.2801513671875 14.6251220703125
28.159423828125 -1.3201904296875 30.162109375
1.158447265625 22.2685546875 -1.37939453125
-1.669921875 38.8255615234375 -51.457275390625
6.070068359375 37.7354736328125 -49.7696533203125
6.190673828125 20.6395263671875 0.3095703125
28.432373046875 2.447021484375 28.1187744140625
14.322021484375 13.5115966796875 21.851806640625
-14.1552734375 -7.2276611328125 22.52294921875
6.56005859375 17.90771484375 7.9256591796875
7.007568359375 20.6549072265625 -2.220947265625
-15.77880859375 -8.708740234375 25.3270263671875
26.765869140625 1.2254638671875 29.840576171875
-10.06591796875 32.481201171875 -43.474609375
0.81640625 23.26904296875 -8.0469970703125
5.605712890625 -10.9656982421875 49.0955810546875
-23.60302734375 -5.177490234375 16.38330078125
13.649658203125 6.424560546875 44.60009765625
4.9150390625 7.086181640625 -31.1541748046875
18.672119140625 11.246337890625 38.0174560546875
15.6337890625 -6.6759033203125 41.8790283203125
-0.31884765625 17.7947998046875 8.6944580078125
8.605224609375 18.55126953125 -3.440185546875
20.15234375 5.3485107421875 -27.0816650390625
2.81591796875 12.0682373046875 -42.673095703125
26.48583984375 -3.905029296875 36.322998046875
-2.552734375 33.1815185546875 -36.85986328125
13.66015625 9.3956298828125 -36.5843505859375
23.58642578125 -5.47998046875 43.9466552734375
10.34326171875 -9.1041259765625 44.5260009765625
2.74560546875 2.777587890625 55.1873779296875
-13.1474609375 -5.52197265625 15.52392578125
12.416259765625 15.6220703125 -7.695068359375
-34.272705078125 -5.488525390625 8.829833984375
-5.06103515625 36.0439453125 -49.442626953125
10.687744140625 19.593994140625 2.9697265625
-0.913818359375 33.486083984375 -44.3060302734375
18.238037109375 10.1552734375 41.238525390625
21.186767578125 -5.002685546875 41.630615234375
-1.605712890625 32.952392578125 -42.737548828125
13.415771484375 13.4600830078125 23.5189208984375
22.103515625 7.165771484375 -29.5811767578125
5.969970703125 5.5633544921875 28.6517333984375
3.357666015625 5.59033203125 46.810546875
4.677734375 6.5081787109375 43.6871337890625
-8.474853515625 -3.34326171875 9.7677001953125
-29.319091796875 -6.4754638671875 17.616455078125
17.3525390625 6.6878662109375 -29.871826171875
-1.6904296875 12.6307373046875 -43.946533203125
-18.097900390625 -7.0809326171875 10.976318359375
19.331787109375 6.6553955078125 -29.376708984375
22.45947265625 -3.3807373046875 38.26806640625
20.049560546875 21.722900390625 -2.9005126953125
-4.4609375 13.5299072265625 -43.885986328125
0.32275390625 4.0589599609375 51.762451171875
12.15234375 18.5501708984375 4.5673828125
3.5888671875 7.4481201171875 41.200439453125
16.93798828125 -9.329345703125 48.2427978515625
-0.311767578125 15.9981689453125 -53.1400146484375
-20.732177734375 -8.5430908203125 26.576904296875
5.07080078125 9.6832275390625 -37.673095703125
9.606689453125 12.834716796875 24.3460693359375
5.862060546875 17.9156494140625 -56.3880615234375
10.58544921875 16.1064453125 -9.8360595703125
5.725830078125 5.794677734375 -28.8863525390625
-9.63330078125 -7.6304931640625 23.2490234375
5.344482421875 35.426513671875 -47.612548828125
4.418212890625 39.2542724609375 -51.263916015625
14.6845703125 15.636962890625 15.8350830078125
10.906982421875 17.5531005859375 9.461669921875
-15.2587890625 -6.4404296875 20.1187744140625
6.964111328125 17.513427734375 10.030517578125
19.392333984375 11.781982421875 36.4517822265625
20.041015625 13.57568359375 30.3206787109375
13.3955078125 3.7972412109375 49.58251953125
10.222900390625 7.302001953125 38.3006591796875
9.046142578125 13.8306884765625 21.9267578125
-16.267822265625 -5.7359619140625 12.7083740234375
3.60009765625 21.5435791015625 -9.529541015625
-1.260009765625 3.7197265625 -22.203857421875
1.939453125 32.97705078125 -40.5308837890625
-7.598388671875 33.6214599609375 -44.8868408203125
3.76025390625 21.8890380859375 -3.0172119140625
1.098388671875 17.705078125 8.77734375
-32.1513671875 -4.5301513671875 12.931640625
-3.244140625 3.73095703125 -23.532470703125
18.30908203125 22.2593994140625 -3.761962890625
18.646240234375 16.1607666015625 -52.271240234375
2.29345703125 14.1552734375 -47.661376953125
3.52685546875 34.1729736328125 -34.3702392578125
15.708984375 20.8221435546875 0.105712890625
16.677490234375 -7.5228271484375 43.05419921875
15.423828125 -7.365478515625 44.7177734375
1.960205078125 34.3343505859375 -44.931640625
9.205810546875 16.4144287109375 -11.12939453125
2.03369140625 3.782470703125 -23.26220703125
-34.407470703125 -8.777587890625 22.7281494140625
12.263671875 16.9217529296875 12.8994140625
19.321044921875 15.5352783203125 -51.111572265625
-32.082763671875 -7.7880859375 21.9739990234375
0.25634765625 5.090576171875 48.974609375
11.84765625 19.9527587890625 2.26171875
6.206787109375 30.1546630859375 -17.5008544921875
16.240478515625 5.4315185546875 -27.6585693359375
8.891357421875 5.8612060546875 45.710693359375
25.57763671875 -1.0142822265625 33.0787353515625
27.49072265625 -1.8299560546875 32.1578369140625
-19.781982421875 -7.2696533203125 15.3421630859375
6.4970703125 16.9449462890625 -12.44775390625
5.215576171875 6.844482421875 34.6046142578125
30.76171875 -2.6748046875 29.5985107421875
0.0673828125 3.505615234375 -21.7674560546875
21.820556640625 12.252685546875 -42.8670654296875
7.008544921875 26.2724609375 -15.222900390625
17.117919921875 20.61572265625 0.5865478515625
-2.7666015625 8.6923828125 37.8389892578125
24.150634765625 0.5728759765625 33.819091796875
10.631103515625 -3.440673828125 46.68017578125
14.674560546875 11.610107421875 28.8699951171875
3.124267578125 17.5081787109375 11.4766845703125
10.34326171875 5.8258056640625 32.18701171875
0.06396484375 25.4100341796875 -8.92578125
4.0615234375 20.1949462890625 1.7940673828125
0.068115234375 3.3541259765625 54.171630859375
-18.570068359375 -10.619384765625 21.2125244140625
4.437744140625 3.3262939453125 33.1197509765625
-21.781005859375 -6.2451171875 18.3408203125
0.485595703125 26.486083984375 -12.1038818359375
8.82470703125 11.537353515625 -41.3363037109375
2.654052734375 21.44921875 -1.03369140625
2.513671875 33.353515625 -42.5533447265625
-31.88427734375 1.2618408203125 17.7503662109375
-2.00244140625 37.29248046875 -50.43701171875
9.20947265625 8.1651611328125 -34.0802001953125
-3.075439453125 4.2005615234375 50.9835205078125
-17.467529296875 -9.80126953125 23.6170654296875
4.225341796875 16.2449951171875 -11.0240478515625
3.909912109375 34.5216064453125 -46.5281982421875
3.85986328125 19.837890625 -5.171875
9.385009765625 11.805908203125 -42.506591796875
3.489990234375 18.0006103515625 -56.82958984375
-20.185546875 -5.5916748046875 8.2874755859375
7.81396484375 18.0244140625 -10.0216064453125
7.88671875 17.69677734375 -13.0660400390625
5.115234375 25.3546142578125 -13.365966796875
3.50048828125 4.732177734375 -24.2435302734375
0.843505859375 19.6129150390625 2.7369384765625
8.74951171875 -10.27587890625 46.17724609375
22.823974609375 15.943359375 46.9600830078125
5.167724609375 10.9407958984375 -40.32666015625
31.697998046875 -1.668701171875 26.880126953125
16.29296875 13.07177734375 -44.9720458984375
5.65771484375 12.011474609375 -42.591796875
11.963623046875 7.1981201171875 42.4285888671875
4.4599609375 18.9036865234375 -9.6053466796875
18.715576171875 10.8062744140625 -39.4752197265625
-1.240234375 17.042724609375 -55.0341796875
1.0390625 22.2137451171875 -2.688232421875
7.983642578125 6.1993408203125 37.3282470703125
-8.534912109375 -6.298095703125 20.755859375
-8.533447265625 -4.6771240234375 13.615234375
15.771484375 10.8514404296875 -39.9820556640625
2.507080078125 22.4442138671875 -4.6932373046875
21.4638671875 8.11181640625 -32.7742919921875
21.7197265625 6.4310302734375 -28.47998046875
5.263671875 7.40380859375 37.397216796875
4.534912109375 19.0704345703125 4.159423828125
-7.294189453125 -7.559814453125 22.2177734375
14.171875 5.19873046875 48.3018798828125
15.228515625 9.658447265625 -37.3087158203125
23.11865234375 16.0716552734375 -50.93896484375
-0.677978515625 15.074462890625 -50.4462890625
7.49755859375 6.08203125 45.18505859375
1.747802734375 20.530029296875 0.853515625
-24.278564453125 -4.5762939453125 14.8216552734375
6.69873046875 22.075927734375 -11.80810546875
-7.04833984375 -6.879638671875 19.89306640625
-0.41796875 8.028564453125 -33.665283203125
11.457763671875 14.1851806640625 -47.404541015625
6.7021484375 19.694091796875 -12.2967529296875
3.79345703125 20.866455078125 -7.9510498046875
9.131591796875 9.171875 28.159912109375
15.611328125 6.17138671875 -29.2108154296875
-11.329345703125 -7.1114501953125 21.5513916015625
0.740966796875 4.0096435546875 -23.2818603515625
9.973388671875 16.3038330078125 -52.45068359375
-12.833740234375 -7.2464599609375 21.3797607421875
0.596435546875 19.7750244140625 4.91015625
8.75732421875 7.9375 40.0999755859375
-3.120361328125 7.313232421875 -32.268310546875
13.216796875 11.62939453125 -41.5889892578125
6.8935546875 24.08984375 -12.2413330078125
19.135986328125 11.7584228515625 -41.789306640625
-20.11328125 -8.2666015625 19.204345703125
20.048583984375 -8.5721435546875 49.698486328125
-7.357177734375 -5.753173828125 12.6038818359375
4.7744140625 18.2799072265625 -6.733154296875
23.671875 15.09619140625 -48.586669921875
3.125244140625 26.0308837890625 -12.480224609375
14.609619140625 5.7772216796875 -26.4205322265625
-20.96142578125 -9.614501953125 25.42578125
0.84765625 9.25341796875 35.7249755859375
8.3310546875 10.4642333984375 -39.0665283203125
-8.670654296875 -7.7572021484375 24.5677490234375
-23.5712890625 -6.17041015625 18.6177978515625
-14.61328125 -4.7396240234375 14.764892578125
14.550048828125 -6.1578369140625 42.7908935546875
16.293701171875 -8.25390625 44.11083984375
11.001953125 5.6275634765625 -27.8568115234375
9.061767578125 8.8399658203125 -35.2034912109375
7.585693359375 16.392333984375 -52.9013671875
2.93017578125 34.2364501953125 -44.0811767578125
16.9111328125 12.8291015625 28.510498046875
3.3857421875 13.3658447265625 -45.714599609375
19.5703125 22.861328125 -5.295166015625
17.249755859375 -9.1209716796875 44.3948974609375
-22.4765625 -7.85302734375 22.01171875
6.98486328125 10.6729736328125 -39.4888916015625
22.419677734375 9.0177001953125 -34.243408203125
14.640625 10.5120849609375 -39.251220703125
-23.741455078125 -4.63525390625 9.065673828125
19.293212890625 20.826416015625 21.0206298828125
13.633056640625 -0.7921142578125 44.7056884765625
11.89404296875 6.5079345703125 -29.724365234375
10.303466796875 18.6314697265625 5.7591552734375
12.703857421875 -7.103759765625 45.814453125
9.164794921875 19.4464111328125 3.6990966796875
4.42431640625 11.4307861328125 -41.498779296875
-19.458251953125 -6.374755859375 12.2833251953125
3.966552734375 33.0126953125 -39.6202392578125
9.4921875 16.3873291015625 13.429931640625
3.044921875 11.524169921875 -41.5286865234375
-28.63720703125 -7.9700927734375 20.174560546875
-3.504150390625 11.5751953125 -40.5145263671875
4.66259765625 8.7437744140625 -35.3890380859375
-7.536376953125 -5.7034912109375 16.373291015625
3.170166015625 6.3607177734375 -29.3055419921875
-1.37939453125 4.8218994140625 -19.932373046875
3.047119140625 23.0013427734375 -8.8289794921875
1.717529296875 6.431640625 -30.17724609375
10.2080078125 3.45361328125 30.217529296875
-0.691650390625 33.2293701171875 -38.471435546875
-3.3037109375 4.967529296875 48.107666015625
0.797119140625 38.8988037109375 -51.3935546875
-1.8271484375 25.839599609375 -11.93603515625
0.21533203125 11.5819091796875 -41.6121826171875
28.820556640625 -2.9190673828125 32.425537109375
29.925537109375 -1.44140625 28.0965576171875
11.56005859375 13.95458984375 21.2939453125
-3.09375 2.9375 54.564208984375
-1.46240234375 12.088623046875 -42.80615234375
6.952392578125 13.840087890625 -46.7640380859375
-1.09326171875 4.272705078125 -24.5537109375
-10.060791015625 -5.122802734375 15.8880615234375
11.765625 -5.4017333984375 45.3427734375
-18.041748046875 -8.164794921875 14.431640625
-5.329833984375 16.4443359375 11.0123291015625
4.228271484375 3.214599609375 -21.2008056640625
-20.98291015625 -7.51611328125 20.5726318359375
8.562255859375 20.3212890625 1.691650390625
0.07666015625 6.95849609375 -30.97119140625
10.551513671875 12.49267578125 26.533447265625
10.905029296875 8.0543212890625 41.2354736328125
15.50244140625 17.5863037109375 10.6807861328125
-3.353271484375 14.1610107421875 -47.0037841796875
-1.341796875 9.1724853515625 -36.3612060546875
15.560791015625 19.2879638671875 4.1009521484375
22.517578125 -8.5003662109375 48.6715087890625
-20.78759765625 -5.657470703125 14.011474609375
9.48681640625 10.5640869140625 28.1240234375
-19.710693359375 -5.3544921875 6.321533203125
0.802978515625 6.4110107421875 45.45556640625
8.14306640625 4.208984375 29.3582763671875
-26.391357421875 -5.8126220703125 14.32568359375
21.58837890625 10.6304931640625 -38.9908447265625
2.259765625 3.1392822265625 -21.3160400390625
-28.038330078125 -8.6904296875 21.69091796875
-3.452880859375 12.713134765625 -42.76708984375
19.49755859375 13.310546875 31.978759765625
20.613037109375 10.7510986328125 -39.8345947265625
1.753662109375 18.1168212890625 7.6268310546875
16.60595703125 14.820068359375 -48.8140869140625
13.74072265625 -2.8551025390625 43.6722412109375
-3.119873046875 6.59521484375 43.7752685546875
8.311279296875 17.0859375 11.7672119140625
7.259765625 6.6468505859375 43.9970703125
6.195068359375 3.90380859375 52.374267578125
16.609130859375 12.6522216796875 -43.791259765625
6.994384765625 36.7314453125 -49.0567626953125
8.823974609375 18.602783203125 6.0821533203125
16.256591796875 8.728759765625 -35.361572265625
3.809326171875 2.986328125 54.486572265625
-22.357421875 -3.427001953125 5.3494873046875
4.416259765625 8.2239990234375 39.3033447265625
7.392333984375 18.8929443359375 4.3165283203125
8.3681640625 21.103515625 -0.7408447265625
23.7470703125 -4.68994140625 39.7850341796875
-1.5537109375 4.534912109375 -26.5765380859375
16.573486328125 -8.9080810546875 46.5745849609375
8.80517578125 5.5206298828125 47.3751220703125
12.468994140625 9.9647216796875 -37.76904296875
5.123046875 6.2227783203125 45.41748046875
-25.15966796875 -3.56005859375 5.92529296875
10.0166015625 -7.451904296875 45.854736328125
-2.6650390625 32.435546875 -39.5050048828125
13.35107421875 7.5576171875 -31.9564208984375
8.282470703125 12.5008544921875 -43.65966796875
-29.8818359375 -7.73876953125 20.1234130859375
-30.27734375 -3.0814208984375 7.69677734375
-30.35205078125 -5.5888671875 14.870361328125
-30.83984375 -4.6370849609375 13.0142822265625
-24.225830078125 -3.9708251953125 10.0164794921875
-14.699462890625 -5.975830078125 17.3626708984375
25.607177734375 -0.058349609375 32.02392578125
11.921142578125 16.0760498046875 15.2882080078125
-18.874755859375 -6.5101318359375 8.1651611328125
15.390869140625 11.833251953125 29.8773193359375
2.373779296875 24.5064697265625 -10.2662353515625
8.41162109375 17.2567138671875 -8.8680419921875
2.287353515625 27.365234375 -14.823486328125
10.270263671875 7.2537841796875 -31.724609375
20.476318359375 -9.77734375 46.3031005859375
14.041259765625 -5.6868896484375 45.065673828125
-1.9873046875 23.0609130859375 -4.408447265625
-3.4326171875 10.7779541015625 -39.42431640625
9.54931640625 14.9476318359375 -7.583251953125
4.5205078125 18.2142333984375 -57.5927734375
3.869384765625 20.974365234375 -0.629638671875
12.27001953125 5.3814697265625 48.1510009765625
12.15966796875 6.4085693359375 44.8839111328125
6.943359375 15.89404296875 -50.9476318359375
4.79248046875 17.156982421875 10.2178955078125
-25.773193359375 -5.332275390625 12.4366455078125
1.519287109375 12.2896728515625 -42.6781005859375
11.85302734375 6.09130859375 -26.9027099609375
-31.995849609375 -6.4698486328125 18.61865234375
-7.89697265625 -5.706787109375 18.0218505859375
-5.529541015625 32.9234619140625 -43.690185546875
-6.441162109375 34.0091552734375 -45.2105712890625
6.96044921875 11.690185546875 -41.78271484375
-1.195068359375 5.3865966796875 46.701416015625
21.255126953125 -3.9368896484375 40.1856689453125
-3.739501953125 32.4725341796875 -41.6239013671875
11.51806640625 -7.8641357421875 49.3974609375
3.415283203125 18.5155029296875 -55.5364990234375
22.229736328125 15.5537109375 49.053466796875
4.86572265625 5.4114990234375 48.689697265625
23.778076171875 9.835205078125 -36.13427734375
-9.773193359375 33.2908935546875 -46.2421875
8.371826171875 17.439697265625 -10.9639892578125
-7.928955078125 32.7886962890625 -42.5321044921875
13.433349609375 14.9427490234375 18.1915283203125
0.978759765625 4.464111328125 50.632568359375
-15.3916015625 -4.9736328125 12.14111328125
1.057861328125 7.1162109375 43.045166015625
2.954833984375 5.8897705078125 45.5313720703125
1.227783203125 7.5863037109375 41.438232421875
-1.8486328125 4.16259765625 -20.912109375
7.36376953125 8.1561279296875 39.5802001953125
-22.4375 -9.7445068359375 25.25
-21.078369140625 -4.74951171875 8.4241943359375
5.2958984375 26.6024169921875 -14.389892578125
-20.220703125 8.9638671875 8.922119140625
10.0341796875 10.05126953125 -38.6654052734375
-1.412841796875 7.211669921875 41.9373779296875
3.14404296875 21.1214599609375 -5.3677978515625
-1.80224609375 3.75634765625 -23.4564208984375
12.624755859375 14.7412109375 -49.3411865234375
0.29638671875 8.648193359375 -35.5731201171875
18.902099609375 12.409423828125 -43.760498046875
-8.6298828125 32.61865234375 -44.6572265625
17.763916015625 14.136962890625 -47.2386474609375
7.279296875 9.1253662109375 -35.6334228515625
-10.780517578125 -4.423828125 13.0751953125
10.620849609375 20.631591796875 0.165771484375
-9.221923828125 -5.5859375 18.3583984375
-11.41162109375 -8.246826171875 23.3406982421875
-28.10498046875 -6.423583984375 14.435791015625
5.2080078125 3.337158203125 30.1527099609375
-10.11376953125 -6.3529052734375 18.9205322265625
-12.152099609375 -8.865478515625 24.7855224609375
9.842529296875 15.162353515625 -5.3843994140625
4.72705078125 7.7442626953125 -32.6881103515625
-8.716552734375 -7.9737548828125 25.7706298828125
-32.0537109375 -3.1112060546875 8.7791748046875
-14.04296875 -8.909423828125 25.0162353515625
12.734375 18.325439453125 7.599365234375
-16.464111328125 -6.195556640625 13.822265625
-16.702880859375 -5.3643798828125 9.8614501953125
6.884033203125 28.83056640625 -17.7254638671875
-2.0908203125 5.3902587890625 -28.07861328125
5.274169921875 33.4674072265625 -38.66015625
-8.34765625 -6.95361328125 22.28369140625
12.043701171875 13.333740234375 -45.467041015625
-3.216552734375 15.624755859375 -50.831787109375
26.585205078125 -1.775390625 32.9658203125
-21.250244140625 -8.095947265625 21.6427001953125
3.12841796875 40.4688720703125 -51.9547119140625
26.64404296875 -2.59912109375 34.0633544921875
6.788818359375 8.15576171875 -34.1771240234375
-12.1865234375 -4.9415283203125 10.744873046875
14.1513671875 12.934814453125 24.325927734375
5.361328125 16.7530517578125 -6.171142578125
8.901123046875 14.0177001953125 -47.910888671875
19.003173828125 10.705810546875 40.13037109375
5.6337890625 2.0013427734375 33.7391357421875
0.910400390625 34.2939453125 -45.8038330078125
4.728515625 21.10693359375 -3.556640625
11.076416015625 1.3126220703125 52.5792236328125
-1.842041015625 24.6749267578125 -9.1890869140625
-22.798828125 -9.3504638671875 23.242431640625
0.894775390625 33.1300048828125 -43.0552978515625
7.329833984375 34.2923583984375 -37.186767578125
-24.488525390625 -9.243408203125 24.7763671875
15.728759765625 22.0010986328125 -2.6746826171875
1.803466796875 18.5343017578125 4.7088623046875
19.367431640625 -3.9559326171875 41.744384765625
-23.194091796875 -4.2762451171875 7.137451171875
21.250732421875 -5.9276123046875 43.568115234375
2.475830078125 10.22900390625 -38.4925537109375
16.283935546875 12.326904296875 30.9757080078125
16.8095703125 -5.618408203125 41.872802734375
1.733642578125 33.173828125 -37.9803466796875
9.924560546875 15.037841796875 17.0579833984375
3.156494140625 13.9102783203125 -46.85986328125
1.44677734375 3.131591796875 54.703857421875
-4.6552734375 5.9395751953125 -28.9091796875
-4.354248046875 5.426513671875 -26.9471435546875
-6.70654296875 32.155517578125 -40.09716796875
-19.991943359375 -7.930908203125 18.0570068359375
-19.190185546875 -7.3018798828125 10.4189453125
10.36474609375 20.0230712890625 1.744873046875
-20.755859375 -5.252197265625 10.803955078125
19.695068359375 23.418701171875 -8.2105712890625
-24.59326171875 -5.36962890625 17.0772705078125
-4.105224609375 6.203369140625 -30.061767578125
-7.1005859375 35.791748046875 -49.1129150390625
-3.552978515625 34.1925048828125 -46.771484375
-1.32470703125 7.5489501953125 40.2882080078125
-18.89404296875 -10.1129150390625 18.8262939453125
11.755859375 12.9630126953125 25.4442138671875
28.535400390625 1.1046142578125 27.770751953125
23.74365234375 7.66064453125 -25.6468505859375
12.08984375 -7.5953369140625 48.2275390625
-26.041259765625 -4.6192626953125 8.885986328125
6.216064453125 19.5877685546875 2.6651611328125
5.101318359375 27.283447265625 -15.9774169921875
6.08984375 33.47607421875 -41.165283203125
2.86376953125 35.2650146484375 -46.8603515625
0.593505859375 34.7144775390625 -47.00244140625
26.556396484375 0.0054931640625 30.8111572265625
10.413330078125 17.712158203125 8.15869140625
27.3427734375 -1.1353759765625 31.0146484375
6.326171875 2.208251953125 34.7352294921875
22.78076171875 13.064697265625 -43.5360107421875
-28.693603515625 -5.6033935546875 12.12548828125
-0.362548828125 35.78466796875 -48.9534912109375
16.361083984375 19.9603271484375 2.5660400390625
18.78271484375 7.6275634765625 -31.720703125
10.1279296875 20.88818359375 -1.9715576171875
18.1513671875 6.3056640625 -29.07568359375
6.338134765625 33.69970703125 -39.4329833984375
-27.98779296875 -4.8013916015625 8.685546875
1.176025390625 26.7261962890625 -11.1605224609375
2.779296875 27.5084228515625 -16.0521240234375
4.27099609375 16.818359375 -8.352783203125
3.510986328125 18.766845703125 6.177001953125
21.035888671875 15.95556640625 -51.420166015625
2.702880859375 21.3935546875 -7.048828125
-20.09375 -9.96240234375 20.4183349609375
20.4033203125 8.1053466796875 -33.6502685546875
4.8330078125 28.607666015625 -17.0145263671875
13.681396484375 -7.2440185546875 46.7554931640625
4.06103515625 33.727294921875 -44.549560546875
4.670166015625 19.6546630859375 -6.017822265625
-1.906005859375 17.3160400390625 11.0504150390625
-15.380859375 -6.7784423828125 21.274169921875
22.79052734375 -1.8170166015625 36.103515625
15.192626953125 12.726318359375 26.564208984375
7.239990234375 36.2177734375 -33.4627685546875
8.24609375 26.7747802734375 -15.91650390625
7.0458984375 15.663330078125 -7.5810546875
9.28466796875 -5.8056640625 48.4560546875
13.365966796875 -8.8927001953125 49.73095703125
1.2958984375 36.1297607421875 -48.8621826171875
3.11572265625 35.8721923828125 -48.4385986328125
4.4833984375 17.50048828125 -11.1727294921875
1.6689453125 36.897705078125 -49.994384765625
-13.38720703125 -7.6094970703125 23.330078125
11.60888671875 11.5360107421875 28.5736083984375
-2.2470703125 17.9566650390625 -56.947509765625
-1.45263671875 4.5794677734375 49.9561767578125
18.155517578125 14.1768798828125 27.205078125
1.441650390625 15.332275390625 -49.539306640625
-6.908935546875 35.1201171875 -47.5474853515625
-20.613037109375 -8.8114013671875 23.5919189453125
6.93603515625 7.3826904296875 -32.2513427734375
-16.748046875 -6.9813232421875 16.508056640625
-4.1572265625 9.037841796875 -34.85986328125
-27.5439453125 -4.576416015625 6.314697265625
26.358154296875 -4.2584228515625 37.531005859375
8.97314453125 -9.083740234375 45.68896484375
22.673095703125 7.43603515625 -30.7607421875
-6.04931640625 -9.5252685546875 23.0697021484375
-12.74609375 -6.918212890625 19.7978515625
21.542236328125 6.5911865234375 -25.9493408203125
20.57568359375 6.1961669921875 -28.573486328125
3.649658203125 9.6646728515625 -37.3179931640625
15.79638671875 5.4652099609375 47.6634521484375
-24.641845703125 -7.5872802734375 21.8843994140625
-13.447265625 -4.5059814453125 9.087890625
22.44287109375 -0.0269775390625 36.1300048828125
8.58642578125 7.4647216796875 41.7161865234375
9.768798828125 6.6534423828125 44.2611083984375
-3.73974609375 4.6983642578125 -25.419189453125
18.1474609375 8.5704345703125 -34.9024658203125
25.14501953125 9.6514892578125 -24.36376953125
0.780517578125 9.712158203125 -37.8238525390625
15.029052734375 16.618896484375 -52.2867431640625
-8.67431640625 -3.80712890625 10.8914794921875
17.01123046875 10.2962646484375 -38.377685546875
0.579345703125 12.40673828125 -43.5050048828125
16.025146484375 9.2781982421875 -36.5172119140625
-7.3935546875 34.1065673828125 -46.052978515625
-2.30419921875 13.4573974609375 -46.272705078125
-25.580810546875 -4.8758544921875 11.330322265625
0.887939453125 18.2408447265625 -55.221435546875
-13.41552734375 -4.9051513671875 6.0889892578125
18.590087890625 -9.258056640625 43.6231689453125
-25.522705078125 -6.2491455078125 17.5958251953125
-2.90185546875 35.485107421875 -48.225341796875
19.16064453125 -8.9134521484375 47.735595703125
-12.2158203125 -5.4517822265625 14.7850341796875
4.78466796875 17.392822265625 -53.6329345703125
1.69189453125 7.4420166015625 -32.4559326171875
-7.217041015625 -5.8133544921875 15.1134033203125
11.17919921875 9.269287109375 -36.2855224609375
-8.68701171875 32.21728515625 -41.814453125
3.524169921875 8.5849609375 37.5565185546875
-3.967041015625 15.720703125 -48.8074951171875
4.612548828125 5.26318359375 -26.563720703125
6.320556640625 4.6103515625 27.993408203125
-19.35400390625 -10.048583984375 25.45947265625
11.14404296875 14.602783203125 -48.580078125
4.07861328125 17.4920654296875 -9.923095703125
-32.168701171875 -5.7271728515625 16.3251953125
-1.8310546875 3.627685546875 52.71337890625
-30.1337890625 -3.8350830078125 9.5743408203125
9.966064453125 -6.0206298828125 46.276611328125
-32.38134765625 -5.0958251953125 14.412353515625
7.884765625 2.98828125 35.9796142578125
8.00244140625 9.749755859375 -37.55517578125
-19.71533203125 5.87939453125 7.3779296875
1.3837890625 7.8572998046875 -33.6236572265625
-20.47119140625 -3.465087890625 6.309326171875
-18.37158203125 -10.5635986328125 23.7432861328125
-6.05908203125 -6.4903564453125 17.1370849609375
-0.63134765625 9.693603515625 -37.4698486328125
-0.77734375 6.3529052734375 44.390625
1.286865234375 18.345947265625 -57.2291259765625
8.7802734375 5.9927978515625 -28.3016357421875
-13.394287109375 -4.1903076171875 7.093017578125
-7.83447265625 -4.3758544921875 7.4779052734375
-1.64404296875 16.102783203125 -52.74951171875
6.1416015625 9.905029296875 -38.0067138671875
6.279541015625 4.4110107421875 35.7822265625
-1.869873046875 4.6497802734375 -25.3394775390625
6.592041015625 5.5433349609375 -28.0701904296875
10.617919921875 2.877197265625 53.4490966796875
5.2001953125 13.200439453125 -45.6881103515625
-20.845458984375 -6.9764404296875 17.816162109375
-31.2119140625 -5.7379150390625 17.2303466796875
1.1875 13.8160400390625 -46.93017578125
-17.94091796875 -8.53271484375 26.4276123046875
-24.90771484375 -6.1627197265625 19.3316650390625
8.967041015625 4.6673583984375 29.9945068359375
3.510498046875 8.196533203125 -33.47802734375
8.42431640625 19.798095703125 -2.7493896484375
-21.762451171875 -4.2501220703125 7.6678466796875
8.897216796875 6.7957763671875 38.0264892578125
-17.794189453125 -3.57763671875 5.6612548828125
6.380859375 19.789794921875 -3.7396240234375
-23.09228515625 -4.5357666015625 11.2064208984375
2.552490234375 7.1925048828125 -31.6448974609375
-21.74169921875 -7.1370849609375 19.7728271484375
-20.465576171875 -5.76611328125 12.7677001953125
-21.924072265625 -4.697021484375 9.1954345703125
6.087890625 7.8697509765625 38.0496826171875
27.77099609375 0.5675048828125 28.8765869140625
10.4521484375 17.8602294921875 -12.8909912109375
-31.425048828125 -5.105712890625 15.3148193359375
-28.66650390625 -4.304931640625 7.933349609375
-2.65673828125 10.40380859375 -38.6455078125
0.954345703125 11.093505859375 -40.4439697265625
5.025390625 4.754150390625 29.2161865234375
7.39697265625 -9.4307861328125 47.15234375
-27.28759765625 -5.3883056640625 10.650390625
-30.138427734375 -6.2210693359375 16.7857666015625
-30.2314453125 -5.2554931640625 13.73095703125
-29.158447265625 -5.7386474609375 13.2864990234375
-28.45263671875 -4.9366455078125 9.8465576171875
-30.375 -4.5018310546875 11.853271484375
-29.743896484375 -6.207275390625 15.5870361328125
-29.6689453125 -3.6998291015625 8.413330078125
6.530517578125 35.725341796875 -47.1171875
2.5087890625 34.15380859375 -34.8331298828125
13.080078125 -3.2554931640625 44.802490234375
18.146728515625 -3.5743408203125 42.1676025390625
23.77880859375 12.013916015625 -41.1815185546875
1.248779296875 34.408447265625 -33.9879150390625
4.388427734375 40.1209716796875 -51.9788818359375
18.822021484375 -5.6737060546875 42.506591796875
4.94921875 33.394287109375 -42.8963623046875
-10.53515625 -3.745849609375 10.757568359375
-11.26513671875 -5.677490234375 16.8995361328125
3.492431640625 34.84375 -33.408203125
14.870361328125 -6.5885009765625 44.0118408203125
-21.61865234375 -5.402099609375 13.1781005859375
16.97265625 8.0174560546875 -32.970947265625
17.688232421875 7.4058837890625 -31.3900146484375
-11.62158203125 -4.9759521484375 12.4495849609375
19.36572265625 -8.0086669921875 43.1973876953125
7.664306640625 21.2950439453125 -12.342041015625
9.197509765625 24.715576171875 -12.8463134765625
18.479248046875 22.835205078125 -6.234619140625
11.273193359375 17.6453857421875 6.9017333984375
-8.7255859375 -5.8480224609375 14.140380859375
17.59375 21.7213134765625 -2.184326171875
9.8076171875 15.845703125 -50.884765625
16.68603515625 8.29248046875 42.781494140625
-15.801025390625 -4.693115234375 10.5155029296875
15.391845703125 12.1802978515625 -43.0794677734375
1.4951171875 22.5362548828125 -6.0216064453125
15.0576171875 11.4605712890625 -41.5570068359375
9.05517578125 17.206298828125 -13.1019287109375
6.249755859375 24.7445068359375 -13.0
-11.16015625 -6.5567626953125 19.1947021484375
20.73974609375 13.1700439453125 -45.2392578125
5.64404296875 19.5413818359375 -5.1260986328125
12.64013671875 8.1669921875 -33.5313720703125
29.246337890625 -2.8126220703125 36.4613037109375
2.22314453125 33.812255859375 -36.1695556640625
21.293701171875 9.9229736328125 -37.0430908203125
13.625244140625 7.58544921875 41.3780517578125
14.989501953125 14.5343017578125 -48.48876953125
31.005859375 -2.7218017578125 32.68798828125
11.187744140625 16.903564453125 11.9407958984375
-9.3544921875 31.9737548828125 -42.7047119140625
1.351806640625 24.201904296875 -8.24755859375
17.9150390625 11.186767578125 -40.267333984375
-5.0244140625 35.1905517578125 -48.7379150390625
10.836669921875 12.8626708984375 -44.7557373046875
13.648193359375 15.4334716796875 17.0166015625
13.11962890625 19.390869140625 3.957275390625
5.560546875 19.3394775390625 -11.58154296875
7.72314453125 24.8782958984375 -14.1790771484375
-23.334716796875 -5.2061767578125 13.498291015625
0.966064453125 32.88427734375 -39.73583984375
10.808349609375 13.20263671875 24.106689453125
-19.7548828125 -6.3577880859375 14.7491455078125
11.4560546875 12.2364501953125 27.425537109375
0.6513671875 23.57080078125 -5.8515625
11.14990234375 12.44482421875 -43.5802001953125
8.37939453125 4.5472412109375 49.702392578125
7.684326171875 15.014404296875 -6.8291015625
0.7734375 21.1121826171875 3.0726318359375
21.327392578125 -9.8433837890625 45.0592041015625
10.22900390625 13.23095703125 22.7491455078125
22.231689453125 -7.5489501953125 49.8104248046875
10.654052734375 5.01123046875 49.6455078125
9.478515625 12.480224609375 25.557861328125
5.1318359375 35.1685791015625 -33.7181396484375
24.5712890625 -5.193359375 41.48681640625
11.049560546875 16.2896728515625 -5.066162109375
9.9208984375 5.642333984375 47.97509765625
0.2431640625 32.7125244140625 -41.884033203125
6.2314453125 34.730224609375 -35.453369140625
20.380859375 11.302734375 -40.9949951171875
24.831298828125 -2.3837890625 34.826416015625
5.867919921875 15.397705078125 -8.1337890625
18.669921875 12.9605712890625 -44.919677734375
1.984375 14.5697021484375 -48.827880859375
-16.621337890625 -3.226806640625 6.249267578125
-0.09521484375 16.172119140625 11.77587890625
3.88525390625 12.390869140625 -43.813232421875
-25.78515625 -8.825927734375 22.2764892578125
4.872314453125 12.387451171875 -43.3741455078125
3.278564453125 19.52880859375 3.3148193359375
5.828369140625 18.2359619140625 -12.219482421875
5.127197265625 3.69384765625 53.0780029296875
24.395263671875 -3.243408203125 36.3017578125
7.13671875 18.18603515625 6.7325439453125
-14.40576171875 -5.5849609375 18.3260498046875
-0.877197265625 5.8594970703125 -28.3460693359375
-16.23681640625 -4.322509765625 7.6690673828125
2.771240234375 18.219482421875 7.2926025390625
4.490478515625 10.5299072265625 -39.599365234375
-1.103759765625 33.815673828125 -35.01806640625
5.773681640625 9.0784912109375 -36.109619140625
-4.742431640625 32.35986328125 -41.2550048828125
1.845703125 13.1007080078125 -44.9859619140625
11.35205078125 15.5052490234375 -7.783447265625
3.191650390625 10.752685546875 -39.606689453125
13.3046875 14.587158203125 19.4068603515625
7.6806640625 6.7899169921875 -30.266845703125
17.645263671875 -9.136962890625 49.258544921875
5.984375 23.3643798828125 -12.0113525390625
12.251220703125 13.8079833984375 -46.6197509765625
5.939208984375 3.1956787109375 54.794677734375
12.060302734375 2.9810791015625 51.8612060546875
13.040771484375 7.7237548828125 39.141845703125
5.42626953125 38.3900146484375 -50.5281982421875
5.618896484375 6.5804443359375 -30.3934326171875
4.335205078125 5.4619140625 47.761962890625
-26.788818359375 -5.5341796875 12.7132568359375
12.84521484375 17.201416015625 11.700927734375
-2.389404296875 13.1329345703125 -44.7005615234375
2.29248046875 5.2760009765625 48.3692626953125
-0.98681640625 3.2496337890625 54.018798828125
18.000732421875 23.9720458984375 -8.626220703125
9.6259765625 14.3126220703125 19.036376953125
3.09765625 3.99755859375 -23.580322265625
14.30810546875 18.69189453125 5.619140625
