9.576171875 -6.1165771484375 41.9039306640625
9.069091796875 16.4808349609375 -55.7720947265625
20.640625 -6.2447509765625 41.1080322265625
9.434326171875 19.4599609375 2.41845703125
17.864501953125 -7.8997802734375 37.9324951171875
4.41455078125 18.5633544921875 -60.757568359375
-0.86376953125 12.4544677734375 24.7742919921875
-20.345947265625 -6.7855224609375 16.0728759765625
-20.19580078125 -3.02783203125 1.7901611328125
-5.7763671875 15.248046875 -50.8702392578125
1.687744140625 10.1649169921875 -34.468017578125
21.100830078125 -3.5999755859375 34.826171875
9.832275390625 19.3287353515625 -19.01904296875
-2.623046875 9.9124755859375 32.3697509765625
-7.587890625 -1.50927734375 9.6302490234375
-1.416748046875 16.7012939453125 -55.4879150390625
6.691650390625 13.086669921875 14.401611328125
-10.862548828125 -2.8743896484375 16.213623046875
17.05712890625 14.0740966796875 -48.2596435546875
-15.897216796875 -2.1142578125 7.9688720703125
-0.53466796875 7.03564453125 41.04345703125
13.087158203125 22.6646728515625 -3.4482421875
5.049072265625 14.8973388671875 -51.1636962890625
5.706298828125 10.239013671875 -39.0828857421875
-29.9052734375 -4.9725341796875 13.009765625
-34.609375 -1.213623046875 1.160888671875
22.025390625 17.2001953125 -47.5911865234375
17.914306640625 10.9256591796875 -40.8193359375
-0.847900390625 8.70166015625 35.3328857421875
8.806396484375 5.1180419921875 22.581787109375
-10.649658203125 -1.6732177734375 1.8123779296875
2.9453125 12.876953125 -45.2130126953125
-16.013916015625 -0.943603515625 15.39453125
12.526123046875 -4.956787109375 35.8258056640625
-23.325927734375 -1.8134765625 1.831787109375
-5.794677734375 8.8155517578125 -34.99755859375
14.70849609375 11.7781982421875 -43.1751708984375
11.462646484375 25.13671875 -15.9195556640625
-30.936279296875 -3.524658203125 15.7435302734375
21.635009765625 16.8995361328125 -51.0423583984375
10.786865234375 -8.176513671875 46.1654052734375
2.78955078125 20.5699462890625 -0.1597900390625
-0.56787109375 11.1185302734375 -36.5576171875
19.9501953125 9.508056640625 -34.7626953125
-1.90771484375 18.8262939453125 4.1846923828125
12.925537109375 21.9307861328125 0.91259765625
-3.72802734375 10.83642578125 -40.305908203125
16.21435546875 3.35791015625 49.3067626953125
-23.39306640625 -0.2393798828125 18.4830322265625
-26.134033203125 -6.8253173828125 15.9541015625
15.09814453125 23.0933837890625 -6.5894775390625
15.604736328125 16.00439453125 -53.8577880859375
-4.920654296875 19.7738037109375 -64.0806884765625
-18.6083984375 -2.276611328125 16.6346435546875
-29.172607421875 -0.8345947265625 0.6923828125
22.6865234375 15.849853515625 -31.781982421875
2.520263671875 11.23388671875 -41.5146484375
9.58203125 23.30810546875 -8.5008544921875
17.040771484375 9.9478759765625 -37.959228515625
-10.56982421875 -3.1285400390625 4.960205078125
6.006591796875 5.956298828125 18.533447265625
9.44677734375 16.96142578125 11.914306640625
20.296630859375 -1.7218017578125 30.4517822265625
-0.984619140625 15.9647216796875 13.6300048828125
10.018310546875 17.722900390625 -58.3760986328125
-36.577392578125 -6.3533935546875 10.9984130859375
0.193115234375 13.2864990234375 -46.3739013671875
14.976806640625 28.230224609375 -23.9844970703125
3.84228515625 22.809814453125 -6.990966796875
18.099853515625 -5.974365234375 35.6318359375
-21.266357421875 -1.1181640625 -2.8525390625
-3.861328125 4.3123779296875 49.2001953125
11.492431640625 14.749755859375 -50.5079345703125
-21.142333984375 5.3255615234375 21.7235107421875
12.42138671875 9.6654052734375 -38.2607421875
-19.804931640625 -5.1282958984375 11.3524169921875
28.989990234375 1.3594970703125 29.0821533203125
-11.618896484375 -4.465087890625 12.5118408203125
-31.529052734375 1.9072265625 16.796875
11.986328125 10.86767578125 -40.9449462890625
-22.40576171875 -4.2601318359375 18.9302978515625
11.76806640625 12.637939453125 22.573486328125
4.248046875 5.5843505859375 26.5531005859375
2.49560546875 7.917236328125 25.3280029296875
-16.4208984375 -0.3494873046875 0.9427490234375
7.226318359375 21.0389404296875 -0.861083984375
14.667724609375 -5.6107177734375 37.9591064453125
-1.607666015625 14.5396728515625 18.26904296875
15.931396484375 -3.1839599609375 49.126220703125
-28.81884765625 2.414794921875 17.82421875
-20.344482421875 1.6796875 20.1212158203125
-33.488525390625 -3.7545166015625 9.3994140625
-27.080810546875 -3.63134765625 10.7469482421875
-22.9990234375 -7.9483642578125 16.3226318359375
16.95166015625 26.729736328125 -19.0003662109375
-2.105224609375 17.7681884765625 8.158203125
-35.696044921875 -4.91552734375 15.6427001953125
-19.912353515625 -3.5911865234375 4.89111328125
-8.05810546875 -0.86865234375 0.807373046875
-23.3447265625 -4.8231201171875 12.4342041015625
7.294921875 14.004150390625 -49.57568359375
8.825927734375 11.400390625 -42.07373046875
-3.073486328125 35.3336181640625 -56.116943359375
-14.857177734375 -0.4544677734375 3.5281982421875
-4.08203125 16.044677734375 12.8048095703125
-3.1455078125 13.2464599609375 22.047607421875
-25.228271484375 -1.52880859375 -0.2935791015625
-29.6435546875 -3.0172119140625 6.265625
-35.267333984375 -3.8504638671875 5.596435546875
11.3759765625 24.1220703125 -18.912109375
20.300537109375 12.02978515625 -42.5555419921875
7.174560546875 18.8775634765625 -61.631591796875
-2.89306640625 11.6785888671875 26.95947265625
13.950927734375 28.955810546875 -26.7310791015625
-7.631591796875 -2.0794677734375 6.616455078125
21.927001953125 -3.4078369140625 38.651611328125
0.5322265625 7.23388671875 -30.9522705078125
2.341064453125 24.3504638671875 -11.4747314453125
-33.954833984375 -1.963134765625 3.8076171875
-21.7333984375 -5.2879638671875 6.203125
1.3173828125 -10.932373046875 47.0855712890625
1.801025390625 18.7786865234375 -59.7071533203125
-2.60595703125 9.1065673828125 -34.89501953125
21.7900390625 -3.717529296875 42.42236328125
5.18798828125 19.9854736328125 -21.8896484375
12.472900390625 19.194580078125 6.7864990234375
6.331298828125 19.4461669921875 -14.26318359375
11.197998046875 24.65380859375 -13.0767822265625
-18.991943359375 -5.060302734375 14.4185791015625
4.774169921875 8.9095458984375 -36.5263671875
-24.086181640625 1.907958984375 16.6025390625
7.042724609375 6.5921630859375 26.8919677734375
4.662353515625 10.39990234375 -32.216552734375
-1.697021484375 -5.3271484375 53.0543212890625
-28.89990234375 0.260009765625 13.802490234375
1.8525390625 14.197265625 19.1400146484375
-0.627685546875 10.536865234375 30.2891845703125
19.97509765625 19.4967041015625 -60.8133544921875
-33.787841796875 -0.64794921875 -2.695556640625
0.60498046875 22.9541015625 -16.3912353515625
-34.583251953125 -6.7615966796875 14.043701171875
18.890869140625 18.0185546875 -58.5648193359375
-31.865966796875 -5.866943359375 14.8406982421875
14.31689453125 9.27978515625 -36.410400390625
-15.058837890625 7.9044189453125 16.3397216796875
6.92626953125 19.2828369140625 4.0196533203125
27.670654296875 -0.6640625 24.7515869140625
-24.176025390625 -3.3299560546875 7.1175537109375
-37.103271484375 -2.9923095703125 0.3060302734375
3.147216796875 18.42041015625 7.2017822265625
3.359130859375 15.0706787109375 15.5509033203125
16.1806640625 25.41455078125 -14.5723876953125
17.49658203125 -6.324462890625 43.1097412109375
-7.14013671875 11.6409912109375 8.961181640625
-11.024169921875 -4.07666015625 9.8265380859375
-14.87451171875 0.8743896484375 18.4345703125
-19.80712890625 -1.6986083984375 -0.455322265625
12.323486328125 13.4781494140625 -48.3543701171875
6.94970703125 -7.073486328125 42.4210205078125
-28.506103515625 -1.9317626953125 4.0042724609375
-2.66796875 7.172607421875 -31.6971435546875
10.944580078125 21.1766357421875 -3.7080078125
-26.0419921875 -3.8472900390625 15.782470703125
1.77685546875 9.093505859375 35.54345703125
5.746337890625 17.353759765625 9.12255859375
22.553955078125 12.2645263671875 -38.521728515625
25.36181640625 -0.8648681640625 32.694091796875
-2.450927734375 11.7537841796875 -42.72216796875
-22.203369140625 0.0440673828125 20.874755859375
-26.738525390625 1.4630126953125 15.995361328125
-29.980224609375 -0.4814453125 -2.6844482421875
15.039794921875 17.368896484375 -58.308349609375
23.736572265625 13.2196044921875 -33.11865234375
14.59033203125 2.6541748046875 51.2603759765625
-3.871826171875 18.3575439453125 -60.2069091796875
-25.16455078125 -2.1961669921875 4.3560791015625
-15.791015625 -3.079345703125 10.3433837890625
13.94287109375 -6.5841064453125 41.25
2.3671875 28.17333984375 -22.6717529296875
-20.047119140625 -4.21533203125 17.937255859375
5.4814453125 9.889404296875 29.35888671875
-36.896484375 0.236328125 9.9146728515625
-9.0595703125 5.0672607421875 14.6099853515625
-11.785888671875 -2.40576171875 7.6966552734375
3.70654296875 9.8695068359375 32.49951171875
4.172119140625 5.3175048828125 22.5087890625
26.9453125 0.900634765625 21.8175048828125
15.350341796875 24.29443359375 -11.2774658203125
2.77001953125 21.7633056640625 -14.71728515625
11.03076171875 -8.314208984375 48.8311767578125
3.382568359375 -8.4361572265625 49.943603515625
18.831298828125 13.156982421875 -46.552734375
-15.016357421875 -5.0472412109375 16.3525390625
-12.192138671875 -4.716796875 15.10791015625
-17.71728515625 -1.766357421875 6.2861328125
-19.65625 0.1336669921875 17.96142578125
23.952880859375 -0.84619140625 26.5264892578125
2.336181640625 14.9852294921875 -51.090087890625
7.312744140625 23.74462890625 -9.7362060546875
6.1806640625 22.19921875 -4.6949462890625
-2.462158203125 6.0087890625 44.1434326171875
-15.070068359375 1.02783203125 -0.5806884765625
0.2509765625 21.9910888671875 -63.4835205078125
2.216796875 9.50390625 27.4183349609375
2.99755859375 18.21875 -17.8927001953125
20.983642578125 -3.11376953125 32.343017578125
10.542236328125 -5.1839599609375 37.235595703125
-1.959228515625 -9.3607177734375 50.96875
14.051513671875 14.979736328125 22.877685546875
3.5 19.5567626953125 -62.7735595703125
3.872802734375 -9.7149658203125 42.0311279296875
10.599853515625 17.98046875 8.271728515625
25.7958984375 -1.618408203125 30.207275390625
9.68310546875 12.7720947265625 -45.715576171875
-1.58740234375 5.0728759765625 46.1873779296875
-11.916748046875 -0.1986083984375 -0.621337890625
16.5419921875 12.883056640625 -45.84326171875
2.19091796875 -9.328857421875 51.8919677734375
20.3984375 11.541259765625 -40.200927734375
-3.77392578125 16.5960693359375 -55.916015625
2.2216796875 7.6312255859375 -32.6038818359375
10.8349609375 9.8348388671875 27.8372802734375
-8.34716796875 -3.6358642578125 10.429443359375
-13.83447265625 -2.998046875 15.9796142578125
-27.4501953125 2.0201416015625 13.0452880859375
13.00537109375 30.8189697265625 -31.179931640625
0.548583984375 12.158203125 22.75244140625
2.47998046875 8.206298828125 -35.57080078125
15.095947265625 27.45166015625 -21.0218505859375
0.56396484375 17.5177001953125 9.168212890625
-32.120849609375 0.24072265625 14.510498046875
11.662841796875 19.8837890625 1.728271484375
-0.37060546875 15.4637451171875 -51.7860107421875
4.334716796875 17.5621337890625 11.72509765625
20.34375 17.429443359375 -56.4046630859375
9.166015625 22.1729736328125 -5.824462890625
-27.643310546875 -2.8270263671875 8.56005859375
10.245361328125 23.1038818359375 -14.567626953125
-12.42431640625 -0.75048828125 3.14892578125
-12.3515625 1.0557861328125 18.2744140625
1.9169921875 21.908935546875 -2.6326904296875
17.300048828125 28.435546875 -24.0994873046875
18.703369140625 -6.968017578125 40.0302734375
-8.3232421875 6.825439453125 10.714599609375
4.435546875 39.3419189453125 -46.725830078125
10.36328125 -7.2723388671875 44.0616455078125
-6.139892578125 13.4666748046875 10.6993408203125
6.709228515625 17.9891357421875 -16.0775146484375
-21.51611328125 -4.3782958984375 3.291259765625
23.927734375 -1.815185546875 28.8392333984375
11.451171875 17.03857421875 -61.0059814453125
0.34912109375 19.3076171875 3.945068359375
6.00634765625 -7.463134765625 45.8988037109375
9.929443359375 6.8330078125 21.517822265625
8.079345703125 17.8863525390625 -59.61962890625
-12.324951171875 1.525634765625 14.279052734375
7.860107421875 18.170654296875 6.815185546875
14.94091796875 -6.7562255859375 43.365478515625
0.995361328125 10.65478515625 25.7220458984375
-16.0087890625 1.484130859375 15.0892333984375
12.043212890625 13.2613525390625 -46.046142578125
28.62744140625 1.479248046875 19.78466796875
-18.358642578125 -3.1846923828125 10.015625
13.773681640625 -7.4708251953125 45.7005615234375
12.62451171875 21.6241455078125 -1.3316650390625
-22.869384765625 1.8436279296875 19.643310546875
-5.407958984375 13.8912353515625 -49.075439453125
0.900390625 16.89501953125 -55.638427734375
17.1953125 0.2056884765625 45.5931396484375
3.672607421875 15.6920166015625 -52.9083251953125
22.89453125 -2.6480712890625 33.5655517578125
10.30908203125 9.9105224609375 -37.3865966796875
28.01513671875 -0.560791015625 28.3369140625
4.567138671875 15.678955078125 13.566650390625
-8.960693359375 4.772216796875 12.3740234375
1.087646484375 16.7701416015625 11.3572998046875
21.563720703125 14.995361328125 -46.708740234375
-27.015380859375 -0.2613525390625 0.3773193359375
-4.6865234375 14.6195068359375 17.447509765625
7.331298828125 -9.1787109375 50.3824462890625
-5.6162109375 12.6693115234375 -44.602783203125
3.0869140625 -9.510498046875 45.6419677734375
3.792724609375 20.1263427734375 1.8150634765625
11.778564453125 19.3902587890625 3.9112548828125
-31.18505859375 -3.879150390625 11.308349609375
18.373291015625 25.3134765625 -10.4556884765625
9.937255859375 9.113525390625 -34.7669677734375
-0.463623046875 -11.2060546875 49.7578125
-1.533447265625 8.21337890625 37.522705078125
6.440673828125 22.6556396484375 -11.4781494140625
6.74267578125 20.163330078125 -20.3031005859375
3.193115234375 16.541015625 -54.9112548828125
10.142578125 8.2926025390625 24.5147705078125
11.660888671875 17.1458740234375 11.8419189453125
-18.58740234375 -0.786865234375 1.1800537109375
6.42626953125 9.076171875 -33.9197998046875
10.91015625 24.0224609375 -10.166015625
-15.544189453125 -1.1959228515625 5.981689453125
4.165283203125 19.853515625 -14.5037841796875
21.532470703125 11.9649658203125 -33.95947265625
19.915283203125 15.4658203125 -50.8387451171875
12.3505859375 26.079833984375 -18.14404296875
-16.42529296875 -4.8228759765625 14.67431640625
-23.584228515625 -2.96826171875 17.5924072265625
1.65478515625 11.00537109375 -36.4998779296875
5.09033203125 6.4864501953125 20.812744140625
4.939208984375 20.5506591796875 -0.61181640625
3.1552734375 22.5240478515625 -12.6934814453125
-0.353271484375 29.546630859375 -21.271240234375
22.980712890625 15.23974609375 -41.918701171875
1.7138671875 12.6094970703125 20.8834228515625
23.357177734375 12.679931640625 -35.82958984375
-28.605224609375 -5.7939453125 14.55712890625
-2.53955078125 39.03759765625 -54.0948486328125
7.4462890625 12.0301513671875 -43.68798828125
0.340576171875 9.892578125 -38.1220703125
18.371826171875 9.17578125 -36.2684326171875
-23.240478515625 -1.4974365234375 -1.2374267578125
-5.8271484375 9.796630859375 -37.115234375
-23.281005859375 -5.83447265625 14.3519287109375
2.2578125 6.3238525390625 22.4151611328125
3.43212890625 21.9183349609375 -4.94580078125
18.433349609375 16.3773193359375 -54.232666015625
4.715087890625 12.2042236328125 -44.1861572265625
-0.032958984375 20.096435546875 -66.590087890625
22.255859375 -2.974365234375 36.5751953125
8.500244140625 9.6693115234375 30.2430419921875
30.3818359375 0.0662841796875 24.311767578125
17.79736328125 4.3438720703125 50.3575439453125
1.957275390625 13.6209716796875 -47.5274658203125
1.733642578125 20.5654296875 -64.051513671875
6.811767578125 16.7471923828125 -55.9202880859375
11.41650390625 16.432861328125 -55.2425537109375
-31.635009765625 -1.087158203125 1.381591796875
4.21240234375 4.3232421875 24.84619140625
9.920166015625 20.341796875 -16.0457763671875
2.215576171875 -8.9813232421875 47.77978515625
5.686767578125 -8.6590576171875 49.152587890625
7.9599609375 -7.1466064453125 40.4656982421875
0.7197265625 7.0582275390625 -28.8543701171875
1.6259765625 10.4249267578125 -39.7803955078125
9.870849609375 -5.694580078125 39.8583984375
6.266845703125 -8.370361328125 38.6885986328125
18.871826171875 -5.2774658203125 41.913330078125
14.844482421875 2.8294677734375 53.3526611328125
-35.19189453125 -4.90087890625 10.3863525390625
-10.44482421875 -5.6273193359375 13.7979736328125
0.43017578125 23.576416015625 -11.146484375
-30.6982421875 1.8609619140625 13.8306884765625
-25.537109375 -4.8387451171875 11.51513671875
-34.519775390625 -3.5098876953125 7.611083984375
9.2216796875 14.863037109375 -50.55908203125
-2.388916015625 13.820068359375 20.2001953125
-2.18310546875 14.8209228515625 -50.4237060546875
4.304931640625 10.715087890625 -40.5906982421875
-2.6044921875 7.14306640625 40.95068359375
7.540283203125 11.01171875 -40.49462890625
-9.615966796875 3.5855712890625 15.9483642578125
11.921875 -8.8050537109375 50.636962890625
8.55029296875 20.2607421875 0.728759765625
-22.437255859375 -5.430419921875 10.6785888671875
8.181640625 4.622802734375 25.744140625
18.380615234375 14.4744873046875 -49.8768310546875
3.65283203125 18.3956298828125 -58.8468017578125
4.1640625 7.9178466796875 -31.689697265625
11.55224609375 -6.624267578125 42.1912841796875
-20.52783203125 -6.378173828125 14.0369873046875
4.572509765625 19.9447021484375 -19.1885986328125
-33.8359375 -0.2083740234375 -0.521240234375
18.819091796875 25.0302734375 -14.44189453125
-10.848388671875 1.5054931640625 19.5975341796875
-4.404296875 10.05810546875 31.27783203125
-1.47802734375 11.429443359375 28.6497802734375
-4.552734375 16.5882568359375 7.8238525390625
-3.779296875 7.3011474609375 -29.978759765625
-13.79345703125 -2.0911865234375 7.9703369140625
-3.921142578125 19.2454833984375 -62.3702392578125
4.690185546875 13.0599365234375 -46.2679443359375
7.474365234375 13.8109130859375 -47.3875732421875
-10.406494140625 -5.529296875 17.47216796875
16.292724609375 29.822265625 -28.25048828125
-0.075439453125 19.00732421875 -60.466796875
-20.39453125 -6.2137451171875 18.109619140625
13.9033203125 25.612060546875 -15.189697265625
8.789306640625 -8.13037109375 46.538330078125
14.72265625 16.9864501953125 -55.846435546875
16.52099609375 11.4056396484375 -42.3389892578125
14.962646484375 23.4517822265625 -8.7451171875
4.94384765625 16.974365234375 -56.676025390625
11.91455078125 12.0941162109375 25.1502685546875
0.932861328125 20.727783203125 -1.3172607421875
-22.615478515625 -4.408447265625 7.820556640625
-1.728759765625 21.192138671875 -63.041015625
16.60498046875 -6.386474609375 38.3819580078125
7.5087890625 9.870361328125 -38.255615234375
-35.337890625 -7.725830078125 15.646240234375
18.811279296875 -4.1519775390625 34.180908203125
21.51904296875 13.5008544921875 -43.18310546875
-15.635009765625 -3.6331787109375 12.480712890625
-28.14697265625 -4.031494140625 12.5986328125
8.4443359375 18.563720703125 -17.7861328125
-27.388427734375 -5.23876953125 16.795166015625
-1.2490234375 13.6197509765625 -47.8072509765625
-2.316162109375 17.8355712890625 -57.57421875
6.321044921875 15.1470947265625 -52.6878662109375
-0.25439453125 -9.49072265625 52.005126953125
13.22021484375 26.0718994140625 -22.9339599609375
-1.815185546875 10.071533203125 -37.7149658203125
16.176513671875 30.6158447265625 -31.26416015625
-22.69677734375 -1.75927734375 19.572509765625
13.224609375 23.2545166015625 -7.7650146484375
-0.432373046875 16.18310546875 -53.8077392578125
-3.9580078125 8.36962890625 -33.629150390625
-3.540283203125 20.412353515625 -65.369140625
-0.86474609375 9.6278076171875 33.5296630859375
14.24462890625 13.9456787109375 -48.56689453125
7.706787109375 6.6004638671875 21.1527099609375
-4.2763671875 9.4688720703125 33.3701171875
10.128173828125 16.1793212890625 -53.705322265625
-19.955322265625 -4.4447021484375 9.142822265625
14.186279296875 26.7459716796875 -19.4178466796875
8.519775390625 -6.4384765625 36.4268798828125
-2.3037109375 -12.2930908203125 49.7398681640625
8.9365234375 21.2305908203125 -1.820068359375
9.984375 21.4954833984375 -22.2706298828125
2.8740234375 23.564697265625 -9.1719970703125
25.978759765625 -0.95068359375 25.69921875
-25.779541015625 -3.7451171875 8.165283203125
8.00830078125 22.1864013671875 -12.57861328125
15.537353515625 18.1934814453125 -60.0145263671875
2.443359375 11.784423828125 -43.3912353515625
6.5908203125 21.0650634765625 -2.71142578125
-5.908935546875 11.24658203125 -40.5482177734375
6.65625 8.408203125 27.5
-1.089599609375 -3.9627685546875 48.808349609375
6.329833984375 19.9384765625 -63.1661376953125
-13.508544921875 -3.3409423828125 12.3375244140625
9.337646484375 9.5201416015625 26.4271240234375
-32.664794921875 -4.933349609375 16.8511962890625
16.575439453125 26.27001953125 -17.1431884765625
-0.662109375 11.234619140625 -41.797119140625
-32.25830078125 -2.438232421875 4.63720703125
-2.9580078125 16.9688720703125 9.705322265625
22.253173828125 -2.0980224609375 29.773681640625
10.2255859375 17.4090576171875 10.084716796875
-31.447509765625 -3.3929443359375 8.7562255859375
7.5927734375 16.9698486328125 10.8546142578125
-1.760986328125 18.339111328125 6.3446044921875
4.739013671875 19.0091552734375 4.623291015625
2.920166015625 18.8048095703125 -15.673095703125
-0.745361328125 9.5584716796875 -35.0849609375
-4.531982421875 15.888916015625 -53.159912109375
14.335205078125 15.90478515625 -52.4224853515625
1.931396484375 19.5196533203125 2.033447265625
22.7353515625 14.0047607421875 -31.2674560546875
6.17822265625 17.96044921875 -60.2784423828125
13.4443359375 29.52392578125 -28.4833984375
12.6640625 24.6158447265625 -11.8660888671875
-2.321533203125 16.5751953125 12.1708984375
11.8447265625 17.827880859375 -58.88720703125
-25.173583984375 -5.32470703125 14.9637451171875
-0.86279296875 15.3458251953125 15.81884765625
-2.520263671875 9.18505859375 34.52685546875
1.2412109375 15.6922607421875 14.732666015625
18.944580078125 -2.6126708984375 44.72265625
-21.359375 -4.0062255859375 0.66748046875
-16.2109375 1.3076171875 17.097412109375
-27.792724609375 -7.4251708984375 16.6268310546875
13.3603515625 12.5611572265625 -44.89208984375
30.63720703125 0.6004638671875 20.7337646484375
-9.711669921875 -4.6385498046875 11.248291015625
8.20947265625 17.375 -57.1824951171875
17.0185546875 18.0029296875 -58.6387939453125
-28.900146484375 -0.322021484375 -1.0888671875
19.376220703125 5.416259765625 46.9017333984375
-15.951904296875 -2.8143310546875 15.4056396484375
21.8779296875 10.8095703125 -37.0009765625
-11.173828125 2.36962890625 15.4847412109375
-5.5498046875 17.0401611328125 -56.289306640625
8.34326171875 19.21337890625 -20.1436767578125
-8.843994140625 -3.3328857421875 5.6409912109375
-1.383544921875 13.1778564453125 22.658203125
13.828125 11.2618408203125 -41.6146240234375
-1.276123046875 6.493896484375 42.7908935546875
-21.4892578125 -7.744140625 14.9588623046875
14.6357421875 14.81884765625 24.718994140625
16.591796875 -7.48486328125 36.6427001953125
-4.033447265625 14.656005859375 -50.4036865234375
-5.8798828125 15.5986328125 12.926513671875
-0.3447265625 20.6231689453125 -61.9437255859375
10.8876953125 -4.490478515625 35.0316162109375
1.52001953125 11.0689697265625 29.6046142578125
3.73291015625 9.95751953125 28.7529296875
-2.984130859375 13.4359130859375 -46.7498779296875
11.114990234375 10.3553466796875 -39.3951416015625
5.44921875 9.8017578125 33.1033935546875
13.338134765625 22.74658203125 -5.5316162109375
-1.95361328125 18.4378662109375 -59.6510009765625
-1.2529296875 12.0787353515625 -44.7747802734375
4.99462890625 10.79248046875 30.886474609375
7.357666015625 16.3546142578125 -54.207763671875
8.27880859375 9.38134765625 -34.017578125
16.468505859375 14.395751953125 -50.43212890625
11.016845703125 17.353271484375 -56.779296875
11.41015625 23.4771728515625 -8.48681640625
-2.76416015625 16.2308349609375 -54.3349609375
-15.313720703125 0.908447265625 -2.3934326171875
16.13623046875 15.613037109375 -52.148193359375
9.297119140625 12.192138671875 -43.7025146484375
5.604736328125 23.3067626953125 -8.133544921875
8.92578125 -8.917236328125 49.5137939453125
-21.673095703125 -8.3638916015625 17.6416015625
-35.4921875 -5.927001953125 12.402587890625
10.4140625 20.4979248046875 -20.2938232421875
-2.665283203125 10.7054443359375 30.6217041015625
-3.261474609375 8.2806396484375 36.923828125
4.710693359375 23.090576171875 -11.830322265625
2.4912109375 9.369384765625 33.8963623046875
20.03955078125 -4.8414306640625 35.6185302734375
16.547119140625 10.4720458984375 -39.708740234375
-33.821533203125 -2.58447265625 5.5389404296875
-2.10888671875 -6.749755859375 52.015869140625
-20.250732421875 -4.498779296875 6.8740234375
13.247314453125 16.2939453125 -55.0673828125
-0.722900390625 11.994140625 26.8330078125
17.959228515625 -4.545166015625 43.551513671875
-1.413818359375 7.6328125 39.5850830078125
-9.555908203125 -1.53515625 0.0548095703125
8.130126953125 19.4619140625 -14.16796875
27.625 2.084228515625 30.8636474609375
0.166259765625 14.8389892578125 18.2291259765625
6.369384765625 -6.8525390625 44.216552734375
10.98095703125 15.2906494140625 -52.3067626953125
-31.7392578125 -6.4708251953125 16.5230712890625
8.7353515625 19.21240234375 4.646484375
5.813720703125 16.8101806640625 10.8255615234375
14.831298828125 -7.050048828125 47.0767822265625
1.763671875 23.405517578125 -14.871337890625
-4.397705078125 15.628173828125 14.511474609375
-25.865234375 -1.395263671875 -2.14697265625
-4.2802734375 11.2115478515625 -41.959228515625
21.044189453125 -5.6241455078125 39.3948974609375
13.943115234375 -5.8514404296875 39.566162109375
-28.08251953125 -0.5384521484375 2.2032470703125
-11.54736328125 0.736083984375 -2.65771484375
-11.611083984375 -1.68115234375 4.420654296875
-2.667236328125 4.9254150390625 47.8046875
3.3408203125 9.55810546875 18.2607421875
18.91015625 10.7216796875 -39.371337890625
-5.968505859375 18.5091552734375 -58.7054443359375
16.45654296875 -1.35107421875 45.984619140625
8.49609375 7.55419921875 26.6016845703125
14.0908203125 27.675048828125 -22.4573974609375
-21.292724609375 -6.5177001953125 11.470458984375
-14.550537109375 0.5413818359375 14.7890625
19.81884765625 15.729248046875 -52.57275390625
-24.787353515625 -1.3505859375 2.863525390625
0.818359375 17.468017578125 -57.5799560546875
-35.723876953125 -1.782470703125 -0.1917724609375
-36.46435546875 -4.5137939453125 6.6947021484375
-22.5908203125 -3.075439453125 2.827392578125
1.72900390625 6.9493408203125 24.088134765625
1.884765625 19.48876953125 -18.3360595703125
16.7470703125 -5.9544677734375 34.5360107421875
-22.45654296875 4.439208984375 22.440673828125
-2.232666015625 7.9403076171875 -33.2724609375
16.07763671875 12.2359619140625 -44.2967529296875
-5.06494140625 10.238525390625 -39.11181640625
21.58251953125 16.109130859375 -49.4942626953125
2.390869140625 14.2708740234375 -49.0806884765625
7.2705078125 5.29931640625 23.7442626953125
12.840576171875 15.064697265625 -51.554931640625
2.677734375 8.6282958984375 36.95068359375
-29.4013671875 2.7421875 13.0931396484375
26.830078125 -0.0726318359375 23.2442626953125
7.364990234375 15.08837890625 -51.308837890625
13.892333984375 1.02294921875 52.103271484375
18.381103515625 11.5672607421875 -42.352294921875
8.380859375 -6.5675048828125 43.2415771484375
-32.8505859375 -1.7626953125 2.4989013671875
6.198486328125 4.858642578125 26.5015869140625
-18.9091796875 1.0870361328125 19.18408203125
-2.538330078125 12.363037109375 25.1607666015625
-17.588623046875 -2.597900390625 8.593994140625
-23.974365234375 1.4013671875 14.9639892578125
-4.24267578125 12.2738037109375 -43.6485595703125
19.38525390625 12.688232421875 -44.300537109375
7.791015625 19.9493408203125 2.5203857421875
-24.896484375 -4.8309326171875 13.2447509765625
15.166259765625 9.6400146484375 -37.8565673828125
3.7177734375 14.5836181640625 -50.1204833984375
5.52197265625 14.0560302734375 -49.1787109375
-14.930908203125 0.31689453125 1.6949462890625
24.82080078125 -0.240478515625 34.3419189453125
-24.500732421875 2.2467041015625 19.320556640625
1.98974609375 10.4349365234375 31.196044921875
-16.24951171875 -1.7470703125 4.5244140625
-19.489990234375 -2.476806640625 3.2470703125
-2.662109375 16.0125732421875 13.9576416015625
10.189208984375 11.0054931640625 -41.1207275390625
4.794189453125 17.70361328125 7.69775390625
26.162841796875 0.6444091796875 32.7470703125
9.48388671875 5.5299072265625 24.10986328125
6.8193359375 21.1949462890625 -13.296630859375
-27.0947265625 -1.81787109375 5.0570068359375
-30.0791015625 -2.079345703125 4.9093017578125
-8.96044921875 -1.806396484375 1.989013671875
18.313232421875 26.32080078125 -18.0628662109375
-0.3935546875 17.8673095703125 7.74560546875
-31.900390625 -4.9287109375 13.4229736328125
-32.1806640625 1.9078369140625 15.065185546875
-4.1533203125 5.8646240234375 44.0908203125
1.384033203125 18.028076171875 7.772216796875
-36.384521484375 -2.307861328125 1.6796875
1.25927734375 25.533935546875 -19.455322265625
-29.051025390625 0.660888671875 -3.5228271484375
-17.843994140625 0.7308349609375 14.92919921875
-19.16064453125 -2.6337890625 6.1146240234375
-7.95263671875 -2.587158203125 8.3773193359375
0.625244140625 11.6361083984375 24.3936767578125
-19.074951171875 -4.3135986328125 12.6436767578125
12.16845703125 -7.9339599609375 47.1119384765625
-10.793212890625 -3.7752685546875 7.7265625
0.76025390625 16.3505859375 13.0736083984375
-11.696044921875 -0.2161865234375 1.2637939453125
12.986572265625 10.6641845703125 -39.49951171875
29.7060546875 1.3453369140625 27.5560302734375
17.166015625 24.31298828125 -11.1800537109375
12.388427734375 -4.4525146484375 37.42626953125
2.16748046875 18.625732421875 5.85009765625
4.39404296875 9.9376220703125 -38.0750732421875
16.201171875 24.682861328125 -12.6749267578125
19.798095703125 -6.9769287109375 38.467041015625
3.423095703125 20.1412353515625 -64.75
12.573974609375 25.28466796875 -14.2177734375
0.270751953125 7.6417236328125 39.7015380859375
27.773193359375 -0.9542236328125 26.723876953125
27.304443359375 -0.543701171875 29.8560791015625
-19.08984375 -4.8897705078125 16.682861328125
-4.98388671875 14.560546875 11.341796875
20.276123046875 9.63134765625 -36.4617919921875
12.87255859375 -9.4659423828125 49.4278564453125
14.010009765625 -6.017822265625 36.47607421875
4.83642578125 22.5965576171875 -5.6031494140625
-30.23583984375 -6.1309814453125 15.0889892578125
-29.518310546875 -3.8760986328125 11.4105224609375
-2.384765625 10.29638671875 -39.2672119140625
-3.382080078125 20.29443359375 -63.701904296875
2.625244140625 19.011962890625 -61.135498046875
0.695068359375 28.4288330078125 -21.92333984375
3.236328125 -9.8802490234375 44.0113525390625
5.404052734375 -8.5609130859375 42.5247802734375
-36.99462890625 -7.85888671875 15.615234375
-26.95849609375 -5.9251708984375 14.733154296875
-17.578857421875 -3.865966796875 13.96044921875
0.279296875 20.6669921875 -64.843505859375
-8.002685546875 -2.697998046875 11.7537841796875
-31.56640625 -0.0091552734375 -2.5859375
-13.457763671875 0.6915283203125 -0.75830078125
6.984130859375 9.2156982421875 28.908447265625
16.41162109375 3.470703125 51.0015869140625
5.416259765625 6.78515625 27.1319580078125
0.15771484375 8.57568359375 37.0194091796875
-22.751220703125 -5.7872314453125 18.3973388671875
12.439208984375 11.5079345703125 -42.4752197265625
2.02392578125 22.2537841796875 -6.3045654296875
20.386962890625 18.7191162109375 -59.35595703125
-20.742919921875 -0.276611328125 19.7977294921875
13.66064453125 9.7257080078125 -34.9647216796875
7.17578125 -7.4814453125 37.6390380859375
-0.09521484375 -11.75146484375 46.861328125
2.6923828125 15.2073974609375 17.0506591796875
0.873046875 9.5601806640625 34.1318359375
-16.29296875 -0.7064208984375 2.5445556640625
3.715576171875 7.131103515625 26.3853759765625
-29.484375 -1.7542724609375 2.6961669921875
-9.361572265625 -2.5185546875 3.4151611328125
6.675537109375 9.510498046875 -36.8114013671875
11.608154296875 11.4212646484375 23.656982421875
12.8173828125 20.713134765625 2.5338134765625
11.3876953125 21.828125 -5.1324462890625
7.262939453125 17.7552490234375 -14.5655517578125
-25.02197265625 -2.5467529296875 5.9383544921875
-11.100830078125 -6.0738525390625 16.0379638671875
4.173828125 -8.310302734375 45.761962890625
-3.8173828125 3.5550537109375 50.85888671875
-30.439453125 1.97705078125 15.5909423828125
18.479248046875 17.170654296875 -55.7960205078125
13.435546875 12.774169921875 25.925537109375
-3.04052734375 12.86328125 23.619384765625
3.601806640625 20.9444580078125 -1.5115966796875
15.440673828125 28.914794921875 -25.4918212890625
-12.177978515625 -3.11181640625 9.1002197265625
-21.6201171875 -2.913818359375 19.9295654296875
-18.7197265625 -0.4300537109375 -0.4246826171875
15.956298828125 27.8507080078125 -22.4544677734375
-21.27392578125 -2.224853515625 -1.2821044921875
14.7119140625 30.561767578125 -31.9468994140625
13.88916015625 27.98876953125 -25.1558837890625
-0.9228515625 10.27978515625 31.8553466796875
3.85791015625 11.68798828125 -42.6263427734375
-6.0546875 8.84130859375 -33.4095458984375
-14.13525390625 2.1776123046875 19.0218505859375
-16.182861328125 0.1019287109375 -1.2791748046875
-28.196044921875 -2.4969482421875 7.0877685546875
5.08447265625 19.4071044921875 -17.492431640625
3.072265625 16.283447265625 14.5374755859375
4.645751953125 19.4139404296875 2.9739990234375
5.7177734375 6.26416015625 23.1307373046875
12.375244140625 27.873779296875 -26.3016357421875
-13.43994140625 -5.37744140625 16.18310546875
-17.782470703125 1.2921142578125 17.9075927734375
-4.384033203125 13.6834716796875 -47.614501953125
-1.024658203125 4.110107421875 49.1845703125
1.662841796875 22.0040283203125 -17.1248779296875
-18.784423828125 -1.926025390625 4.703125
-4.141357421875 11.250732421875 27.8824462890625
-1.1103515625 19.19482421875 2.850830078125
-37.20263671875 -6.5936279296875 12.6661376953125
11.490478515625 20.9395751953125 -2.219482421875
12.5439453125 30.1260986328125 -29.65087890625
-2.16748046875 -11.076904296875 48.7208251953125
9.917724609375 18.916015625 -17.2958984375
-4.42236328125 9.3251953125 -35.623046875
1.099609375 12.71435546875 -45.1973876953125
6.55517578125 17.71826171875 7.802490234375
0.97900390625 8.37646484375 -33.2584228515625
-24.996337890625 -2.131591796875 15.1341552734375
9.675048828125 -8.426025390625 47.8238525390625
9.5439453125 23.235107421875 -12.9700927734375
-23.575927734375 -6.4581298828125 16.1375732421875
1.476318359375 23.6632080078125 -9.918701171875
12.292724609375 -6.254150390625 40.5306396484375
11.956298828125 23.228271484375 -20.0863037109375
-0.860595703125 7.32763671875 -31.7017822265625
1.044921875 -11.44677734375 45.6131591796875
-27.25341796875 1.94873046875 17.7271728515625
3.765380859375 -9.3922119140625 51.6129150390625
-0.492431640625 17.3011474609375 -56.6187744140625
-1.646728515625 -8.591064453125 52.311279296875
18.93310546875 14.2392578125 -48.278076171875
-33.595703125 -5.331787109375 13.539306640625
0.197509765625 -11.1094970703125 48.267822265625
16.133544921875 9.290283203125 -36.326416015625
-31.267822265625 -2.4788818359375 5.863037109375
6.733642578125 6.648681640625 19.9228515625
22.721435546875 -2.27587890625 35.249755859375
-6.77392578125 13.74853515625 12.1275634765625
21.43359375 10.3209228515625 -35.578125
12.86962890625 14.347412109375 -49.53662109375
-2.936767578125 14.7755126953125 17.4813232421875
7.22021484375 -7.9371337890625 46.760009765625
10.383056640625 24.41796875 -11.76611328125
1.875732421875 9.2720947265625 24.804443359375
1.90185546875 6.99462890625 -30.1136474609375
5.616943359375 13.6468505859375 -47.3699951171875
9.230224609375 18.0755615234375 7.543701171875
-32.95703125 -0.86328125 0.5985107421875
-37.03515625 -5.5670166015625 9.7418212890625
10.2578125 19.83203125 1.0732421875
-3.395751953125 17.7430419921875 -58.8651123046875
5.4990234375 21.7056884765625 -1.818603515625
-14.452880859375 -1.404296875 4.8994140625
12.015380859375 -7.7978515625 45.3077392578125
11.73876953125 26.111083984375 -24.1640625
2.2451171875 18.0081787109375 -58.2628173828125
11.036865234375 14.0958251953125 -48.9443359375
-30.2373046875 -2.7259521484375 7.6611328125
15.5634765625 13.2420654296875 -47.4053955078125
-22.67431640625 -1.695556640625 0.184814453125
-4.20751953125 11.9102783203125 26.185302734375
21.111328125 -4.4150390625 37.017578125
-4.801025390625 13.03759765625 -46.07080078125
-23.08056640625 -7.176513671875 17.794677734375
28.552001953125 -0.0675048828125 23.35400390625
-24.94482421875 -1.1334228515625 1.3463134765625
-2.21142578125 9.588134765625 -36.3023681640625
-15.483154296875 1.1617431640625 19.817626953125
4.38671875 5.9345703125 19.3521728515625
5.29296875 19.1070556640625 -62.3944091796875
-3.36083984375 16.3424072265625 11.0660400390625
-27.60107421875 2.1163330078125 14.9078369140625
-2.4287109375 11.1395263671875 -41.317626953125
-34.9609375 -2.0579833984375 2.655029296875
-28.224365234375 2.129150390625 16.4407958984375
-3.128662109375 17.680419921875 6.9686279296875
2.9443359375 5.8116455078125 25.7828369140625
-21.36474609375 -4.5894775390625 4.7982177734375
5.7099609375 -7.6802978515625 47.3831787109375
1.507080078125 20.2578125 0.766845703125
-14.1806640625 -2.7977294921875 9.37255859375
-12.474365234375 -2.3369140625 15.816650390625
-35.95068359375 -7.3404541015625 13.71875
-14.501953125 -3.4364013671875 11.191650390625
14.3798828125 15.2503662109375 21.264892578125
-4.380859375 12.9547119140625 22.91259765625
-32.181396484375 -3.974365234375 10.1689453125
-19.944091796875 -1.3494873046875 17.845703125
11.100341796875 23.8843994140625 -16.69140625
-4.369384765625 4.6475830078125 47.8135986328125
6.680419921875 8.9031982421875 -35.4244384765625
17.904541015625 4.1280517578125 47.75048828125
-23.990478515625 1.14306640625 18.373291015625
-26.738037109375 -6.66650390625 17.3946533203125
-23.71533203125 0.0582275390625 15.5989990234375
-9.415283203125 -4.27392578125 9.5792236328125
15.485107421875 -6.310546875 39.470458984375
8.2724609375 22.9876708984375 -7.549072265625
10.002197265625 19.3746337890625 3.8077392578125
9.836181640625 21.5570068359375 -15.1650390625
-34.896484375 -0.8515625 -1.3702392578125
22.730712890625 14.7127685546875 -33.21728515625
-28.387451171875 -3.410888671875 9.976318359375
-11.60302734375 1.3785400390625 17.0167236328125
-1.2470703125 14.3953857421875 -49.3333740234375
12.5791015625 9.713623046875 -36.7713623046875
0.9619140625 -8.9893798828125 51.10498046875
-26.440673828125 -0.8280029296875 -0.88427734375
-12.41259765625 1.063720703125 0.255615234375
30.734375 0.3060302734375 22.726318359375
9.690673828125 21.7841796875 -4.246826171875
3.2412109375 8.746337890625 26.640380859375
9.524658203125 8.9117431640625 29.465087890625
-30.46923828125 -0.335693359375 -0.2481689453125
2.85400390625 4.8389892578125 23.0145263671875
12.4169921875 18.2884521484375 8.2205810546875
11.121337890625 13.685791015625 -47.133056640625
21.3642578125 11.186767578125 -38.658447265625
-23.610595703125 -2.3212890625 3.601806640625
-30.664306640625 -4.8436279296875 16.37060546875
-34.37451171875 -7.893798828125 16.913818359375
-37.177978515625 -5.35888671875 14.3380126953125
-17.986572265625 -4.8306884765625 15.4825439453125
17.786376953125 -6.03466796875 41.129638671875
14.902587890625 29.5777587890625 -27.8035888671875
-22.364990234375 -3.1151123046875 1.365234375
15.62939453125 14.1722412109375 -49.03515625
3.8798828125 10.64990234375 17.1392822265625
-11.546142578125 -2.4444580078125 6.239990234375
2.859375 20.5509033203125 -15.59619140625
5.097900390625 4.9932861328125 23.8741455078125
16.128662109375 -6.4368896484375 42.0908203125
17.5087890625 -4.06689453125 33.493896484375
-11.584228515625 -3.3773193359375 10.9979248046875
-15.161376953125 0.8297119140625 16.1798095703125
-30.1943359375 1.9564208984375 17.419189453125
-32.7822265625 -3.442138671875 8.134033203125
15.16162109375 12.65869140625 -45.38037109375
-17.27978515625 0.3101806640625 -0.183349609375
-24.442138671875 -3.908447265625 15.4678955078125
1.744873046875 10.085693359375 22.099365234375
-12.177001953125 -3.767822265625 13.678955078125
19.95556640625 -4.3170166015625 42.15869140625
-34.844482421875 -4.072509765625 8.9273681640625
12.483154296875 25.9571533203125 -16.5821533203125
-3.895263671875 7.3682861328125 40.197509765625
-26.041748046875 -4.109375 9.830810546875
20.365234375 18.072998046875 -57.87744140625
4.427490234375 16.759033203125 10.1793212890625
-20.06298828125 -5.354736328125 12.9339599609375
28.056884765625 0.697509765625 30.0426025390625
9.078857421875 23.8526611328125 -10.1788330078125
-20.166015625 -2.7625732421875 18.14892578125
-21.3974609375 -5.4720458984375 18.8712158203125
18.891845703125 10.1075439453125 -37.968994140625
-22.83935546875 -4.367431640625 9.2637939453125
-34.91845703125 -3.014892578125 4.1173095703125
-33.5693359375 -6.4005126953125 15.0274658203125
-3.300537109375 18.396484375 4.214599609375
15.663330078125 26.70654296875 -18.1929931640625
15.617919921875 -6.6143798828125 37.333984375
21.421630859375 -2.5487060546875 31.072998046875
-0.67529296875 4.7562255859375 47.492431640625
18.52294921875 9.2244873046875 -34.7816162109375
13.87158203125 10.0982666015625 -38.3377685546875
13.64013671875 17.13623046875 -57.8245849609375
6.020263671875 11.7427978515625 -43.69970703125
11.72412109375 24.979736328125 -17.4161376953125
7.295654296875 19.123779296875 -21.3828125
15.271240234375 25.8486328125 -15.6160888671875
15.385009765625 15.338623046875 22.436279296875
18.883056640625 -6.607177734375 36.674560546875
-2.2109375 6.5980224609375 -30.4488525390625
-21.07861328125 -5.1448974609375 7.87353515625
-10.039794921875 -3.4600830078125 6.4462890625
3.50537109375 18.9947509765625 5.379638671875
8.890380859375 9.626953125 -37.4033203125
-28.357666015625 -2.28271484375 5.5865478515625
7.44091796875 6.6279296875 22.59912109375
-24.467529296875 -0.9332275390625 -1.7513427734375
-16.396484375 -5.498046875 15.9501953125
16.952392578125 15.6865234375 -53.457275390625
-1.286865234375 20.7957763671875 -66.71728515625
9.597412109375 -7.5714111328125 45.2384033203125
22.2978515625 13.16650390625 -33.7894287109375
7.7177734375 19.800537109375 -18.802001953125
-0.736572265625 -6.1822509765625 52.3717041015625
-34.609130859375 -4.957275390625 11.694091796875
24.427978515625 -0.13427734375 25.1617431640625
10.48779296875 22.8814697265625 -7.47607421875
11.8837890625 19.1322021484375 5.482177734375
18.820068359375 18.444091796875 -60.4293212890625
-2.04638671875 8.56005859375 36.095458984375
-23.483154296875 -4.4793701171875 10.8760986328125
-13.5703125 0.651123046875 19.203369140625
-0.880615234375 18.913818359375 5.380615234375
17.876220703125 12.5692138671875 -45.448974609375
12.521484375 29.05810546875 -27.5009765625
10.56005859375 20.1444091796875 -18.1044921875
-1.6513671875 13.12353515625 -46.357177734375
9.447998046875 17.9652099609375 -60.004150390625
22.320068359375 14.867919921875 -43.1221923828125
6.9306640625 18.669921875 5.302978515625
4.87841796875 17.946533203125 -59.410400390625
9.66650390625 -5.8182373046875 38.1585693359375
0.565673828125 15.036376953125 -50.6915283203125
7.82421875 21.9437255859375 -5.414794921875
3.292236328125 13.3077392578125 -47.1336669921875
-31.007568359375 -3.955078125 12.7154541015625
2.385498046875 9.0325927734375 -33.9722900390625
2.082763671875 -10.5126953125 45.8594970703125
9.61279296875 17.3641357421875 -56.98095703125
-0.598876953125 16.4443359375 12.3536376953125
-5.32373046875 19.255859375 -62.57080078125
-1.801025390625 15.9541015625 -53.333740234375
14.202880859375 16.0155029296875 -54.059814453125
5.209716796875 18.5228271484375 -14.5223388671875
0.662109375 10.9246826171875 -41.408203125
3.501220703125 21.0140380859375 -65.860107421875
-28.6591796875 -6.9263916015625 15.6265869140625
12.7529296875 26.4461669921875 -19.4493408203125
5.615478515625 12.6376953125 -45.185791015625
8.75537109375 16.3436279296875 -54.0062255859375
4.132080078125 -8.1407470703125 48.7838134765625
-1.003662109375 -10.5330810546875 50.872314453125
14.0615234375 -7.383544921875 44.270751953125
7.004150390625 11.3887939453125 -42.155029296875
4.77783203125 19.482421875 -20.5037841796875
4.548095703125 16.6181640625 -55.2891845703125
17.589599609375 25.3145751953125 -13.81640625
17.874267578125 27.1878662109375 -19.9608154296875
15.686767578125 2.4544677734375 50.2481689453125
6.143798828125 10.875244140625 -40.6025390625
1.840087890625 16.4638671875 -54.533935546875
-1.198486328125 5.6492919921875 44.956298828125
-4.77490234375 15.152099609375 15.7786865234375
10.763916015625 -5.9962158203125 41.16455078125
8.24658203125 13.7301025390625 -48.581787109375
3.655517578125 24.0390625 -11.0965576171875
22.601318359375 -1.634765625 36.795654296875
20.20947265625 -3.2916259765625 33.49560546875
23.970947265625 -1.80712890625 33.8697509765625
-0.259033203125 7.848876953125 38.347900390625
13.3525390625 11.9404296875 -43.4722900390625
3.41259765625 10.28759765625 -39.6051025390625
-3.3154296875 14.302490234375 18.7392578125
2.533935546875 23.119384765625 -7.3662109375
8.338134765625 12.6988525390625 -45.349609375
-5.018310546875 15.168701171875 -52.068603515625
15.18115234375 11.0999755859375 -41.318115234375
-16.476806640625 1.068603515625 18.6767578125
16.5341796875 10.9381103515625 -41.021728515625
-11.01025390625 -2.111572265625 3.0841064453125
-14.29541015625 -4.8719482421875 15.174072265625
-1.209228515625 17.357666015625 9.1405029296875
1.642333984375 23.685791015625 -12.4757080078125
10.16552734375 11.4722900390625 -42.4356689453125
5.913330078125 23.84326171875 -10.484619140625
5.636474609375 20.812744140625 -19.3936767578125
0.110595703125 13.8446044921875 -48.2718505859375
5.26806640625 11.458740234375 -32.9698486328125
-25.253662109375 1.7750244140625 17.3878173828125
0.302490234375 6.5157470703125 42.018798828125
8.1328125 16.7425537109375 12.2967529296875
13.981201171875 24.30322265625 -11.486328125
19.80908203125 -2.559326171875 31.8624267578125
10.4794921875 22.7938232421875 -15.9698486328125
15.362548828125 9.3748779296875 -35.16064453125
-10.6943359375 -0.7659912109375 -0.1060791015625
0.6455078125 14.1881103515625 19.8668212890625
-19.443603515625 -5.9503173828125 15.4447021484375
5.3095703125 8.539794921875 -34.888916015625
3.434814453125 9.06982421875 -36.81982421875
16.0380859375 27.1676025390625 -20.0545654296875
2.109619140625 10.5078125 28.3577880859375
29.02294921875 -0.4044189453125 24.81494140625
9.134521484375 20.263916015625 -14.82080078125
-1.1240234375 11.8258056640625 -43.08349609375
7.726806640625 24.2545166015625 -11.098388671875
1.664794921875 19.5308837890625 3.55078125
5.73681640625 9.7769775390625 -37.7808837890625
11.245361328125 9.6436767578125 -36.416259765625
-21.645751953125 -1.1260986328125 20.41943359375
-14.311279296875 -1.6212158203125 6.41162109375
4.247802734375 23.3157958984375 -8.341796875
0.802001953125 18.108154296875 -59.0472412109375
-30.54052734375 0.2232666015625 -1.4993896484375
7.351318359375 6.2227783203125 18.5924072265625
20.424072265625 13.968017578125 -46.35791015625
-25.4248046875 1.858642578125 15.978515625
-2.546875 4.7042236328125 49.2166748046875
13.88037109375 27.3360595703125 -23.7685546875
-3.70361328125 10.22607421875 -38.9107666015625
12.99755859375 14.6043701171875 21.8551025390625
10.1396484375 20.9490966796875 -2.427978515625
-16.36083984375 -3.0205078125 9.0206298828125
24.4560546875 -1.875244140625 30.1402587890625
-13.70947265625 0.8697509765625 17.72216796875
3.115478515625 21.6279296875 -3.24072265625
-23.01953125 -3.3388671875 6.3931884765625
10.927001953125 24.255859375 -14.826171875
13.073974609375 14.2159423828125 23.43896484375
10.933349609375 10.205322265625 23.9063720703125
11.420166015625 18.3472900390625 6.94580078125
6.18505859375 7.49365234375 21.0328369140625
2.290771484375 9.803466796875 -36.462890625
7.206298828125 20.2703857421875 0.520263671875
-36.1650390625 -3.476318359375 4.6463623046875
-13.62060546875 -0.881591796875 3.9608154296875
5.000732421875 15.61572265625 -53.1849365234375
-17.330078125 -2.8184814453125 11.0133056640625
