-5.204833984375 32.6956787109375 -47.5750732421875
3.9541015625 16.84228515625 -9.3248291015625
18.412353515625 5.0594482421875 -44.6199951171875
-4.74560546875 35.5003662109375 -49.756591796875
1.857177734375 20.9149169921875 -10.0203857421875
-7.625 -16.617431640625 26.1796875
24.21484375 4.00048828125 -41.7818603515625
-16.012451171875 -14.9007568359375 23.8360595703125
22.497314453125 15.681884765625 -6.132080078125
23.15869140625 15.830078125 -13.7880859375
17.13427734375 6.5350341796875 -48.954345703125
-28.877685546875 -12.5982666015625 11.151123046875
-2.625244140625 26.111572265625 -36.69287109375
0.17626953125 4.3638916015625 -50.9957275390625
-16.6953125 -16.3631591796875 26.7501220703125
6.5146484375 -1.5670166015625 31.5552978515625
-2.010498046875 -1.08544921875 49.0423583984375
9.492431640625 0.1806640625 -32.37255859375
1.464111328125 42.2886962890625 -56.9517822265625
-2.386474609375 7.2362060546875 -51.112548828125
-8.297607421875 -12.9443359375 16.9959716796875
19.725341796875 12.9002685546875 0.555419921875
7.74609375 30.0263671875 -46.0552978515625
6.005859375 6.0020751953125 -46.725341796875
5.95263671875 -3.06396484375 37.6138916015625
3.708740234375 46.2470703125 -66.2083740234375
-28.905029296875 -15.2652587890625 24.381103515625
3.3984375 13.668701171875 -3.541015625
9.399169921875 11.5780029296875 5.3291015625
-0.43212890625 3.1190185546875 -39.11181640625
1.160400390625 35.8349609375 -49.668701171875
0.19189453125 -0.75390625 -28.7015380859375
7.174560546875 44.277099609375 -61.787353515625
3.1455078125 3.943603515625 -42.5711669921875
-2.766357421875 1.057861328125 -34.191650390625
-22.818115234375 -11.329833984375 10.59619140625
12.045654296875 5.03466796875 26.54931640625
2.61279296875 -0.2073974609375 44.48876953125
10.4931640625 9.3330078125 -5.212890625
32.114013671875 -8.5145263671875 35.955810546875
-13.70556640625 -16.039306640625 27.8922119140625
5.3671875 2.5711669921875 -38.65576171875
6.658447265625 17.55078125 -11.632568359375
8.38427734375 -3.9947509765625 38.8970947265625
-0.675537109375 33.187744140625 -47.8876953125
0.21630859375 0.4000244140625 -32.1839599609375
2.60107421875 8.881591796875 -54.1016845703125
-1.326171875 39.4793701171875 -53.064453125
-0.899169921875 15.51953125 6.3338623046875
15.456298828125 4.85302734375 28.0670166015625
0.1826171875 6.7451171875 -49.9361572265625
-10.002685546875 27.1885986328125 -34.639404296875
24.191162109375 2.9041748046875 -39.04052734375
26.0654296875 -7.072265625 36.654052734375
-6.94677734375 26.8485107421875 -36.2745361328125
13.945556640625 -2.7020263671875 -24.0609130859375
15.481201171875 11.427734375 -7.5906982421875
-9.57666015625 -11.6654052734375 13.8729248046875
2.131591796875 -4.750244140625 -18.66650390625
-21.695068359375 -14.1026611328125 19.473876953125
-22.154052734375 -12.04052734375 14.16064453125
-26.787109375 -16.4952392578125 26.313720703125
23.20166015625 -10.75439453125 43.349609375
2.599853515625 -0.472412109375 -30.618408203125
15.105712890625 3.8880615234375 32.1746826171875
6.72265625 -3.9188232421875 -21.220947265625
6.83154296875 43.4630126953125 -59.3453369140625
9.65771484375 12.235595703125 2.901611328125
14.696044921875 -1.7994384765625 50.460205078125
7.30322265625 26.0203857421875 -16.6534423828125
2.089599609375 15.802001953125 -5.7764892578125
2.44580078125 26.875 -39.4130859375
-26.90185546875 -14.64404296875 21.0057373046875
-24.722900390625 -16.122802734375 27.7952880859375
0.171875 -2.7381591796875 -24.934814453125
-32.94970703125 -6.9600830078125 29.22265625
7.816162109375 8.9666748046875 -6.24609375
0.021240234375 18.3336181640625 -8.4066162109375
-33.3935546875 -15.3197021484375 24.825439453125
-1.1728515625 26.9940185546875 -36.1368408203125
-15.77392578125 -11.8046875 10.9656982421875
-14.312744140625 -11.8826904296875 13.91552734375
18.08349609375 14.740478515625 -4.3526611328125
17.65966796875 -0.7698974609375 -29.8250732421875
19.8505859375 -2.29833984375 -25.8638916015625
-19.549072265625 -17.574462890625 29.12109375
4.049072265625 -1.618896484375 50.79443359375
-0.926513671875 19.338134765625 1.4862060546875
9.81982421875 7.2117919921875 -50.5855712890625
8.161865234375 0.4600830078125 31.28466796875
7.960205078125 6.18408203125 -47.486328125
0.14892578125 21.1123046875 -7.51708984375
10.5107421875 10.7236328125 8.2275390625
6.58837890625 24.4537353515625 -13.0872802734375
15.771728515625 11.65478515625 4.8424072265625
4.505126953125 14.22412109375 -7.198974609375
8.633544921875 9.7669677734375 10.9296875
7.7353515625 24.8941650390625 -14.67919921875
4.216796875 35.2425537109375 -49.2860107421875
15.19970703125 -12.0032958984375 45.7696533203125
13.39501953125 -0.0196533203125 43.3316650390625
8.627685546875 6.1419677734375 23.5125732421875
9.35302734375 8.5782470703125 -9.6058349609375
27.568359375 -6.0345458984375 34.4093017578125
7.16943359375 10.9150390625 7.213623046875
-2.29833984375 30.956787109375 -46.4898681640625
1.97119140625 38.421875 -52.3160400390625
-12.2060546875 -13.31201171875 17.05224609375
1.979248046875 16.5902099609375 -7.3404541015625
-0.947998046875 12.538818359375 10.0286865234375
-11.429931640625 -13.739013671875 19.0772705078125
2.439453125 24.970458984375 -14.869140625
0.404541015625 25.4930419921875 -12.7432861328125
-1.36279296875 26.751953125 -13.8895263671875
-30.158203125 -16.921630859375 26.350341796875
2.224853515625 46.292724609375 -67.863037109375
3.592041015625 0.885986328125 41.8062744140625
-0.2958984375 26.2364501953125 -39.53955078125
9.022216796875 -1.2296142578125 48.3126220703125
16.896484375 0.6844482421875 -33.3382568359375
3.435302734375 29.72119140625 -30.2318115234375
7.742431640625 -1.0224609375 39.9805908203125
7.465576171875 -2.49169921875 51.3397216796875
-1.454833984375 11.3101806640625 14.022216796875
-0.873291015625 18.2781982421875 5.139404296875
5.8076171875 3.4962158203125 -40.5557861328125
-7.631103515625 30.7227783203125 -46.579345703125
-14.324462890625 30.2591552734375 -43.42578125
-30.609619140625 -12.863525390625 16.6435546875
19.96826171875 5.3167724609375 -45.38330078125
-5.46923828125 36.9007568359375 -50.8609619140625
6.057373046875 12.137939453125 -0.2857666015625
4.47802734375 12.5821533203125 1.8343505859375
1.26708984375 11.451416015625 8.6748046875
0.699462890625 13.39794921875 3.9024658203125
-1.08642578125 13.37646484375 7.198974609375
1.231689453125 13.621337890625 2.2733154296875
0.616455078125 1.2939453125 -34.4796142578125
17.74267578125 -14.30908203125 46.2972412109375
-6.690673828125 -16.4810791015625 24.625244140625
21.471923828125 16.591796875 20.48779296875
10.34716796875 10.0897216796875 -7.203125
11.927734375 6.910400390625 -6.402099609375
8.264404296875 -5.77783203125 38.0328369140625
-1.408447265625 15.8408203125 12.7789306640625
5.952880859375 7.0296630859375 -50.2431640625
3.578125 -2.8131103515625 -21.5753173828125
10.043701171875 -4.9871826171875 35.3583984375
-1.747314453125 0.8994140625 40.9041748046875
-5.67236328125 25.916259765625 -39.2615966796875
-9.42822265625 32.7440185546875 -47.615966796875
6.428955078125 7.4864501953125 -7.4022216796875
5.4990234375 26.8897705078125 -35.5931396484375
-8.207275390625 -13.86328125 20.1136474609375
5.36474609375 -5.6446533203125 36.5262451171875
13.16552734375 7.8109130859375 16.8448486328125
11.45068359375 0.2733154296875 -32.3082275390625
-6.0380859375 -14.88330078125 19.2266845703125
-26.71533203125 -13.097900390625 16.061279296875
-17.001220703125 -13.360107421875 13.0177001953125
-14.05078125 -12.522216796875 17.4989013671875
22.23486328125 4.9952392578125 -44.5677490234375
-3.036865234375 -3.1390380859375 -19.0220947265625
-0.682861328125 17.6737060546875 -5.165771484375
7.683837890625 2.158203125 31.197509765625
-12.82373046875 -14.882568359375 22.8494873046875
3.999267578125 40.5621337890625 -54.599853515625
-33.856689453125 -5.897705078125 26.093017578125
1.257080078125 14.8154296875 -1.3299560546875
1.797607421875 45.260498046875 -64.614013671875
14.060791015625 -9.1209716796875 46.8150634765625
21.400146484375 14.41748046875 -3.3916015625
-24.698974609375 -14.987060546875 24.3677978515625
-20.7216796875 -13.78076171875 16.7532958984375
-1.605224609375 1.5906982421875 -35.7054443359375
0.379150390625 24.2890625 -9.10986328125
8.586669921875 27.69677734375 -19.7664794921875
5.47900390625 10.0943603515625 -8.26708984375
15.265380859375 0.220458984375 -31.80517578125
-0.9814453125 25.44384765625 -10.68212890625
20.00341796875 16.1912841796875 -12.1502685546875
11.5986328125 2.1932373046875 31.0828857421875
27.7724609375 -9.308837890625 38.44921875
-26.481689453125 -13.670654296875 18.3970947265625
4.1064453125 13.08447265625 -1.9141845703125
11.8623046875 5.3837890625 -45.496826171875
12.455078125 1.44482421875 -35.3907470703125
7.1630859375 26.5828857421875 -37.69091796875
9.213623046875 8.7677001953125 14.628662109375
22.69580078125 -1.542236328125 -26.4901123046875
-26.0341796875 -12.390625 12.1954345703125
-1.27392578125 19.064697265625 8.2601318359375
4.967041015625 30.1943359375 -45.6541748046875
7.349365234375 8.6397705078125 -2.1083984375
10.601806640625 11.023681640625 6.5767822265625
-0.9638671875 24.35009765625 -7.45556640625
6.47021484375 7.2467041015625 -51.826416015625
-30.541748046875 -11.4901123046875 10.861328125
5.48583984375 10.5916748046875 -3.9713134765625
-19.986328125 -12.884033203125 11.6898193359375
-0.857421875 22.2266845703125 -0.1328125
2.625 28.6834716796875 -24.4837646484375
6.513916015625 12.6492919921875 3.23291015625
29.2333984375 -8.213623046875 34.9149169921875
14.1474609375 -0.7593994140625 47.158203125
-3.37060546875 28.7720947265625 -43.8505859375
13.992431640625 -7.0296630859375 49.508544921875
-1.86181640625 -4.2667236328125 -19.9639892578125
7.3515625 32.005615234375 -47.094970703125
3.917236328125 24.885986328125 -13.124755859375
-7.213134765625 26.5869140625 -39.62158203125
-3.918701171875 30.5947265625 -46.5491943359375
6.87548828125 -1.6512451171875 49.3131103515625
13.927978515625 2.489013671875 -37.2623291015625
13.503662109375 0.66015625 -33.836181640625
4.889404296875 -1.8016357421875 -25.8626708984375
4.77001953125 6.40869140625 -47.90673828125
13.24560546875 4.3084716796875 29.5150146484375
-33.512939453125 -4.9825439453125 22.20947265625
-8.737548828125 -13.03271484375 18.5986328125
-23.51171875 -12.263671875 17.282958984375
-12.4345703125 28.9993896484375 -37.3594970703125
-12.464111328125 -17.107177734375 27.74951171875
-21.331787109375 -12.0521240234375 12.176513671875
-2.277587890625 0.1221923828125 -32.2884521484375
12.165771484375 -4.8275146484375 36.867919921875
-11.591552734375 -16.49560546875 29.2037353515625
12.25537109375 -2.371337890625 -23.6590576171875
6.593017578125 0.039306640625 43.6070556640625
10.933349609375 -2.0042724609375 -25.697021484375
19.451904296875 13.497802734375 -1.928955078125
5.830078125 28.0577392578125 -20.6566162109375
-28.37451171875 -12.3870849609375 9.611328125
-0.9130859375 14.7689208984375 4.4906005859375
-13.6982421875 -13.85107421875 21.35888671875
-28.135986328125 -13.587646484375 21.1434326171875
1.354248046875 18.271484375 -10.0487060546875
6.313720703125 -2.764892578125 -23.9190673828125
11.79736328125 10.3067626953125 9.51025390625
-2.043212890625 0.7769775390625 46.470458984375
7.626220703125 37.1995849609375 -51.1455078125
-18.6591796875 -14.6253662109375 11.830322265625
13.92236328125 10.802978515625 7.1546630859375
16.0478515625 -2.2122802734375 -25.9727783203125
-6.1572265625 27.0301513671875 -42.8531494140625
15.294677734375 5.609130859375 -46.233642578125
6.70947265625 18.622802734375 -13.1524658203125
3.545166015625 -1.5433349609375 -27.49462890625
12.341064453125 -11.3887939453125 49.112548828125
-3.899658203125 -0.7342529296875 -26.8006591796875
8.29296875 42.5250244140625 -58.5911865234375
4.83740234375 28.0775146484375 -43.812744140625
7.090087890625 15.635498046875 -10.232177734375
-4.464599609375 2.9505615234375 40.2930908203125
7.958984375 -2.3319091796875 30.6395263671875
31.0029296875 -6.7735595703125 32.7796630859375
-7.15283203125 -11.971435546875 9.8555908203125
-6.094482421875 -14.8424072265625 17.5782470703125
8.84912109375 10.314697265625 8.9078369140625
21.99609375 13.411865234375 0.3328857421875
-5.91162109375 -14.255126953125 14.413818359375
6.804443359375 35.58935546875 -49.6441650390625
-0.173828125 2.6231689453125 -37.5560302734375
32.560791015625 -5.6221923828125 30.1156005859375
8.333740234375 5.000244140625 -45.189208984375
-3.921142578125 38.10888671875 -51.9710693359375
4.584716796875 12.61376953125 -6.6220703125
-2.922607421875 1.53955078125 38.7984619140625
20.200927734375 -10.2059326171875 45.382080078125
14.96728515625 12.1063232421875 3.1651611328125
23.9150390625 1.2449951171875 -34.733154296875
-15.607421875 -12.7340087890625 16.1104736328125
-0.203369140625 19.553466796875 -6.9443359375
3.467529296875 10.2039794921875 8.9932861328125
-10.848876953125 -14.6077880859375 22.23486328125
5.481689453125 4.8626708984375 -44.0372314453125
30.994140625 -8.90380859375 37.9500732421875
-19.460205078125 -17.13671875 25.5301513671875
15.619873046875 4.1514892578125 -41.918212890625
-12.46630859375 29.1573486328125 -40.643310546875
3.289794921875 33.464111328125 -48.2327880859375
23.412109375 -12.3214111328125 46.4608154296875
5.570068359375 -4.5885009765625 -17.6904296875
11.588623046875 -0.8270263671875 46.0299072265625
5.855712890625 29.2667236328125 -24.30517578125
9.44140625 25.28466796875 -14.1265869140625
5.62646484375 -0.058837890625 -31.2890625
8.16650390625 28.1524658203125 -23.968505859375
-25.03564453125 -12.4744873046875 15.9056396484375
7.96044921875 9.0938720703125 -52.8280029296875
20.1396484375 15.02392578125 -5.921875
-0.705078125 18.9998779296875 -0.2672119140625
8.66357421875 -0.3719482421875 41.08447265625
-3.0400390625 29.3865966796875 -31.6956787109375
-5.291015625 28.7774658203125 -32.247314453125
5.03857421875 27.626220703125 -33.41259765625
8.991943359375 6.60400390625 -3.64794921875
21.35791015625 3.145263671875 -40.29833984375
-19.415283203125 -16.284423828125 15.5023193359375
0.00390625 29.8173828125 -44.9288330078125
22.05224609375 14.1710205078125 2.19580078125
22.0986328125 0.429931640625 -32.4171142578125
12.532958984375 -2.1375732421875 50.606201171875
5.98486328125 30.0208740234375 -30.9730224609375
14.40966796875 12.2542724609375 0.1661376953125
20.067138671875 2.3865966796875 -37.9600830078125
8.07421875 27.854736328125 -22.3140869140625
-21.212890625 -11.5987548828125 9.02099609375
24.930419921875 -8.3209228515625 38.8724365234375
2.40966796875 9.8375244140625 11.41552734375
3.962890625 29.4481201171875 -25.6070556640625
19.0263671875 0.1162109375 -32.1290283203125
19.9716796875 13.0789794921875 3.181884765625
24.310791015625 -10.368408203125 41.3704833984375
8.07470703125 41.970703125 -56.5447998046875
5.0712890625 41.8582763671875 -57.40185546875
9.652099609375 -2.0457763671875 50.790283203125
5.60791015625 -2.396240234375 52.056396484375
24.38134765625 -1.46337890625 -23.5277099609375
-18.363525390625 -16.2794189453125 29.51953125
-0.189208984375 -0.0943603515625 45.126708984375
5.995849609375 41.686767578125 -56.1588134765625
7.524658203125 8.8216552734375 -10.485595703125
10.35302734375 3.4322509765625 30.8291015625
-0.63232421875 22.2415771484375 -6.5146484375
-16.8955078125 -14.3319091796875 17.3206787109375
5.554931640625 -3.256591796875 31.951904296875
24.962890625 0.8218994140625 -21.089111328125
4.539306640625 -4.4449462890625 35.022216796875
-1.48974609375 -3.3206787109375 -23.456298828125
0.657470703125 28.36669921875 -32.9979248046875
11.6640625 6.3428955078125 23.342041015625
24.431396484375 13.478271484375 -1.2550048828125
3.2626953125 2.052490234375 -37.148681640625
13.147705078125 8.9049072265625 13.617431640625
-9.0546875 -11.367431640625 11.498046875
11.62451171875 9.867431640625 11.1319580078125
14.198974609375 -11.3214111328125 46.710693359375
2.6123046875 26.8878173828125 -35.654052734375
9.573486328125 -1.744384765625 -27.3370361328125
11.426025390625 -0.8912353515625 -28.794189453125
6.8466796875 29.4984130859375 -26.789306640625
-8.4755859375 27.40185546875 -34.5784912109375
7.766357421875 12.3665771484375 2.3968505859375
-1.6806640625 3.5794677734375 -41.4947509765625
1.312744140625 27.8018798828125 -21.26611328125
-0.75830078125 -0.678466796875 -29.9329833984375
-2.489013671875 26.5133056640625 -38.7161865234375
-3.619873046875 3.24462890625 -39.162109375
1.139892578125 27.362060546875 -19.6427001953125
1.597900390625 29.6654052734375 -27.3345947265625
26.92236328125 -7.17138671875 35.3984375
4.76025390625 39.180419921875 -53.058349609375
0.4541015625 1.5406494140625 39.0909423828125
2.927978515625 14.668212890625 -5.083984375
22.408935546875 -7.8289794921875 41.3785400390625
18.697265625 1.4964599609375 -35.645751953125
9.1396484375 14.1883544921875 -10.8026123046875
5.13037109375 47.121337890625 -66.56201171875
4.284912109375 43.351806640625 -61.0294189453125
4.68505859375 10.8465576171875 6.6307373046875
1.9365234375 40.2821044921875 -54.218994140625
-0.332275390625 4.4046630859375 -42.5771484375
-6.083251953125 28.1302490234375 -43.9627685546875
7.6298828125 27.2100830078125 -35.088134765625
15.97021484375 9.6593017578125 12.2191162109375
9.258056640625 -2.125244140625 34.663818359375
4.790771484375 37.3194580078125 -51.1546630859375
-0.94775390625 20.0692138671875 2.8975830078125
14.457763671875 7.39013671875 18.1392822265625
-1.3232421875 27.4049072265625 -33.5855712890625
13.1162109375 -10.09228515625 49.083251953125
-24.040283203125 -11.0184326171875 9.7659912109375
-12.151123046875 -11.91748046875 11.1822509765625
3.381591796875 26.994873046875 -41.4639892578125
-0.64013671875 26.6002197265625 -41.1614990234375
7.340087890625 -3.6275634765625 33.2991943359375
3.389404296875 12.265380859375 2.99267578125
-7.37744140625 -12.6624755859375 13.405517578125
25.656982421875 2.6749267578125 -20.3680419921875
-0.245849609375 27.037841796875 -37.3619384765625
-8.1337890625 28.7283935546875 -44.3358154296875
4.194091796875 -4.9173583984375 33.599609375
-8.183837890625 26.3599853515625 -37.1884765625
-10.01513671875 27.3065185546875 -36.6942138671875
5.044677734375 26.341064453125 -39.0137939453125
18.75390625 -9.352783203125 45.4591064453125
-17.154052734375 -16.0140380859375 22.267578125
3.3935546875 5.4180908203125 -45.21630859375
-12.6826171875 -12.29736328125 14.3525390625
10.964111328125 5.84228515625 24.9134521484375
7.9453125 11.5548095703125 5.669921875
-10.021240234375 -11.3011474609375 9.8040771484375
7.234619140625 22.984619140625 -12.8668212890625
2.0341796875 4.58837890625 -44.125732421875
32.5927734375 -7.474365234375 33.184326171875
22.93017578125 -0.0443115234375 -21.70654296875
-3.1875 0.8048095703125 42.0478515625
0.334716796875 40.993896484375 -55.8265380859375
4.177978515625 -3.217529296875 -23.651611328125
18.87060546875 4.080078125 -43.094482421875
-1.70166015625 12.6451416015625 13.416748046875
2.55419921875 5.723876953125 -46.8050537109375
-2.707763671875 33.8955078125 -48.6630859375
3.930419921875 31.0194091796875 -46.824951171875
16.757568359375 3.5792236328125 -41.150634765625
-3.509765625 -2.950439453125 -21.446044921875
2.49169921875 11.3006591796875 5.7392578125
13.5029296875 4.7926025390625 -43.9146728515625
8.045654296875 12.2003173828125 -9.9083251953125
-26.01416015625 -14.81787109375 23.07568359375
22.732666015625 3.958740234375 -41.8135986328125
-32.907958984375 -3.362060546875 15.2178955078125
-20.173828125 -13.4639892578125 14.81787109375
-9.970458984375 -12.54931640625 16.1353759765625
-4.10595703125 -2.169189453125 -23.7802734375
26.53076171875 -9.767333984375 39.102783203125
-6.517333984375 -17.190673828125 26.96875
21.394287109375 15.9986572265625 -11.697021484375
10.309326171875 6.1861572265625 -47.8599853515625
1.624755859375 -0.638427734375 -29.4534912109375
12.145751953125 -0.3037109375 -30.7349853515625
-31.025390625 -2.9805908203125 11.742431640625
16.81689453125 2.6229248046875 -38.408447265625
0.634765625 -3.470458984375 -16.4852294921875
13.953125 -0.4754638671875 -30.708251953125
12.378662109375 3.456787109375 -41.247314453125
-33.50439453125 -3.9210205078125 19.5655517578125
-1.606689453125 4.4119873046875 43.061767578125
17.796875 5.9310302734375 -47.7916259765625
-10.302490234375 30.03515625 -45.452880859375
6.10888671875 0.9700927734375 -33.5745849609375
16.052978515625 2.00537109375 -36.8685302734375
-13.804931640625 -15.2069091796875 25.591796875
2.884033203125 0.18603515625 -32.546630859375
-32.093017578125 -15.344970703125 24.1103515625
11.658447265625 2.8670654296875 -39.3001708984375
-25.312255859375 -11.7215576171875 9.94677734375
-1.030029296875 15.7857666015625 11.077392578125
5.77880859375 25.6396484375 -13.3594970703125
10.363037109375 0.95068359375 -33.468994140625
21.50537109375 4.480224609375 -43.41162109375
-0.067626953125 10.5625 11.4036865234375
3.916748046875 -4.844482421875 -19.427490234375
10.1416015625 26.54736328125 -14.3316650390625
-7.4443359375 -15.13037109375 21.9652099609375
0.67626953125 8.8526611328125 -54.9208984375
1.4130859375 -4.2001953125 -20.643798828125
3.86767578125 10.520263671875 13.7774658203125
-7.05419921875 -14.017578125 16.8582763671875
4.849365234375 9.8748779296875 11.5736083984375
5.38427734375 1.5181884765625 -35.549072265625
8.089599609375 0.2503662109375 -32.8070068359375
-0.453857421875 -4.0167236328125 -22.713623046875
6.82666015625 -0.4969482421875 -30.5028076171875
-19.087646484375 -18.289794921875 27.760986328125
5.668701171875 8.5025634765625 -54.117431640625
4.6142578125 4.010986328125 -42.1331787109375
-12.8818359375 -13.9454345703125 20.16259765625
-15.7939453125 -13.3173828125 19.25927734375
-2.914794921875 -0.4085693359375 -29.5538330078125
6.1904296875 -0.9508056640625 -28.5501708984375
9.46533203125 -3.1187744140625 -23.046630859375
2.778076171875 3.072509765625 -39.859130859375
-3.048828125 4.6373291015625 -43.8016357421875
3.984375 1.505859375 -35.1788330078125
1.203369140625 34.064453125 -48.606201171875
9.63525390625 3.6405029296875 -41.276123046875
-33.281005859375 -5.5560302734375 24.568115234375
-19.3662109375 -15.8739013671875 22.128662109375
-10.27978515625 28.0013427734375 -41.156005859375
-19.774658203125 -14.0823974609375 10.6468505859375
6.88916015625 -3.4954833984375 -22.783935546875
-33.170166015625 -11.4669189453125 11.9007568359375
-0.479736328125 20.5906982421875 -4.235107421875
-19.739013671875 -14.719482421875 19.895263671875
-2.178466796875 8.6807861328125 -54.15869140625
-3.13232421875 6.5462646484375 -48.794677734375
-21.547119140625 -17.058349609375 29.0740966796875
-22.242919921875 -14.4193115234375 21.409423828125
-33.457763671875 -3.679931640625 17.1600341796875
-1.147216796875 16.552490234375 -1.56982421875
-1.987548828125 6.0106201171875 -47.637939453125
4.82470703125 45.4210205078125 -63.357666015625
25.39453125 -11.2679443359375 43.858642578125
-10.36572265625 31.775146484375 -46.495849609375
3.203125 0.8702392578125 -34.0667724609375
8.18701171875 1.462646484375 -35.48974609375
-20.113037109375 -14.023681640625 12.6688232421875
3.270751953125 9.364990234375 -55.6539306640625
12.05322265625 7.3321533203125 19.6903076171875
4.155517578125 18.1131591796875 -9.954345703125
24.032958984375 14.3095703125 -8.436279296875
7.973388671875 35.0155029296875 -48.8563232421875
0.243896484375 6.72021484375 -48.332275390625
10.148193359375 0.2821044921875 43.5504150390625
4.017578125 7.0042724609375 -51.07177734375
2.792724609375 -2.27880859375 52.6824951171875
17.61767578125 -12.0340576171875 45.5557861328125
-0.75732421875 21.6328125 -1.5130615234375
6.16259765625 14.79541015625 -9.564453125
7.977783203125 28.4859619140625 -32.39208984375
-0.231201171875 29.685791015625 -25.272705078125
7.490966796875 -1.291259765625 47.716796875
4.022216796875 27.134765625 -17.029052734375
5.862548828125 -5.3634033203125 33.635009765625
-1.02490234375 27.817626953125 -43.5120849609375
-4.617431640625 27.0491943359375 -39.9332275390625
-18.36279296875 -15.1583251953125 14.9984130859375
20.876220703125 -8.969970703125 44.0091552734375
12.03662109375 4.869873046875 28.2451171875
10.125244140625 4.84814453125 29.3935546875
-1.963134765625 36.280029296875 -50.0657958984375
17.264892578125 12.80517578125 1.6983642578125
-0.94775390625 17.8531494140625 8.907470703125
28.9306640625 -8.89697265625 36.905029296875
-0.820556640625 21.6470947265625 -3.21923828125
9.162841796875 6.3665771484375 21.87451171875
-4.710693359375 27.0263671875 -42.00537109375
-29.58837890625 -16.5869140625 24.84375
0.550048828125 0.5911865234375 42.33056640625
-15.83740234375 -12.0738525390625 12.9522705078125
-9.98779296875 28.87548828125 -32.7618408203125
0.79833984375 21.5098876953125 -8.6962890625
14.886962890625 8.4090576171875 14.9219970703125
16.8642578125 -2.718017578125 -23.1422119140625
17.07666015625 13.5418701171875 -0.7537841796875
-27.521240234375 -17.099365234375 27.3411865234375
4.961181640625 7.99169921875 -52.96923828125
8.490966796875 30.05908203125 -29.636474609375
22.135009765625 5.9290771484375 -47.7357177734375
6.703857421875 11.998291015625 4.8289794921875
10.86474609375 6.797607421875 21.65380859375
29.51123046875 -9.25048828125 41.6666259765625
0.474365234375 9.621337890625 13.8101806640625
11.15087890625 -15.766357421875 48.744140625
5.32666015625 43.3681640625 -59.3548583984375
26.84814453125 -10.435791015625 42.886962890625
16.064453125 4.8861083984375 29.8602294921875
16.21142578125 -1.6795654296875 49.7559814453125
5.294921875 7.7701416015625 -4.46875
7.435302734375 0.8504638671875 -33.963134765625
1.524658203125 0.2001953125 -31.771240234375
-3.471435546875 27.8660888671875 -33.9920654296875
0.904052734375 17.3070068359375 -8.11474609375
19.833984375 0.75927734375 -33.2535400390625
11.85693359375 -1.4296875 48.5296630859375
6.302978515625 9.97705078125 10.4005126953125
19.853515625 -0.2247314453125 -30.9207763671875
12.6669921875 6.188232421875 -48.2349853515625
-9.852783203125 26.8994140625 -39.218994140625
17.938232421875 15.58740234375 -7.2117919921875
14.6640625 0.4798583984375 43.12841796875
18.563720703125 16.0340576171875 -9.674560546875
-8.7216796875 29.474609375 -45.4952392578125
10.4453125 8.076416015625 18.0098876953125
9.86376953125 -0.796630859375 50.2510986328125
-3.18994140625 5.3681640625 -45.7237548828125
22.85888671875 15.224853515625 -3.6131591796875
-25.5458984375 -15.822509765625 25.7490234375
0.888671875 31.6165771484375 -47.2103271484375
-14.73388671875 -15.3431396484375 27.14013671875
-0.999267578125 28.7587890625 -19.9324951171875
22.57763671875 15.5731201171875 -12.57080078125
7.225830078125 38.29150390625 -51.875244140625
20.82763671875 -1.2291259765625 -28.56396484375
14.583984375 -2.3275146484375 -25.2158203125
25.4013671875 -7.4559326171875 37.8126220703125
21.208740234375 -12.6575927734375 46.1702880859375
22.638916015625 14.58447265625 -9.73583984375
7.96240234375 -2.2022705078125 -25.821533203125
30.85009765625 -3.5416259765625 30.009521484375
2.88916015625 13.3157958984375 0.18408203125
-2.90625 -2.4442138671875 -24.589599609375
18.5068359375 13.45703125 -0.6964111328125
-16.7490234375 -15.2008056640625 21.245361328125
-1.16162109375 -1.18359375 47.798095703125
10.903076171875 -1.905029296875 35.71533203125
12.20849609375 8.865478515625 14.8406982421875
-0.73876953125 -1.4281005859375 49.5113525390625
22.04931640625 -9.3917236328125 43.142822265625
-0.849853515625 -2.8394775390625 53.9173583984375
-10.091552734375 -11.6541748046875 12.605224609375
-15.419189453125 28.8685302734375 -40.727783203125
20.730712890625 -14.2718505859375 46.589111328125
-20.4951171875 -18.3228759765625 27.2276611328125
6.671630859375 -4.6348876953125 31.728515625
-3.695556640625 28.0543212890625 -42.28271484375
5.350341796875 -1.7120361328125 48.7169189453125
-6.47119140625 33.0113525390625 -47.96826171875
22.819091796875 -11.4803466796875 44.440185546875
-20.0947265625 -16.5440673828125 24.38232421875
20.606689453125 14.09423828125 3.831787109375
29.405517578125 -3.69384765625 32.4774169921875
-27.90185546875 -12.6221923828125 13.6417236328125
-17.751708984375 -17.2623291015625 24.4063720703125
4.757080078125 9.57568359375 13.2191162109375
4.75146484375 5.3284912109375 -45.2059326171875
6.920654296875 45.92919921875 -66.250244140625
-31.0244140625 -13.0709228515625 20.6300048828125
33.231689453125 -5.23583984375 28.9476318359375
34.167724609375 -7.1641845703125 31.203369140625
-0.703125 19.964599609375 -1.3751220703125
-31.52197265625 -16.1175537109375 26.4228515625
12.523193359375 12.0128173828125 4.2999267578125
3.39892578125 41.3240966796875 -55.78369140625
12.462158203125 12.9964599609375 1.479736328125
2.871826171875 9.6298828125 13.537841796875
10.34619140625 5.4796142578125 26.5189208984375
-27.731201171875 -15.5390625 23.596923828125
10.302490234375 8.40380859375 -7.909912109375
14.768798828125 -0.39697265625 45.5517578125
-2.675048828125 2.2603759765625 -36.852294921875
3.1474609375 16.170166015625 -8.2032470703125
-14.708984375 28.2569580078125 -37.907958984375
7.202880859375 29.6304931640625 -31.4171142578125
-0.989013671875 15.5875244140625 3.360595703125
-11.580810546875 28.976806640625 -39.4117431640625
12.931396484375 5.687744140625 -46.6644287109375
-0.974609375 -2.19580078125 -26.10888671875
-24.1875 -11.634521484375 14.511474609375
4.11572265625 10.5941162109375 7.827880859375
17.755859375 14.90576171875 -3.0545654296875
11.12744140625 -5.5391845703125 34.4608154296875
7.540283203125 16.5216064453125 -11.3382568359375
20.359375 15.6563720703125 -8.8038330078125
5.968994140625 45.807373046875 -64.1649169921875
-0.037841796875 27.7855224609375 -18.77294921875
7.672119140625 44.3934326171875 -63.03466796875
0.109619140625 27.0213623046875 -16.7630615234375
7.41064453125 43.7281494140625 -60.5789794921875
14.2607421875 11.5213623046875 5.5916748046875
-10.349853515625 28.8931884765625 -43.1129150390625
7.22021484375 -0.7744140625 46.076416015625
5.24658203125 -0.842041015625 46.3123779296875
4.24755859375 19.29443359375 -11.8759765625
12.0791015625 -14.228271484375 48.79638671875
0.1962890625 37.712646484375 -51.1490478515625
6.966064453125 9.198486328125 13.284423828125
23.951171875 14.4100341796875 -10.9912109375
26.716064453125 4.327880859375 -19.661376953125
4.357666015625 12.783935546875 -3.2242431640625
19.474853515625 14.6265869140625 -4.734619140625
-3.46142578125 30.310546875 -30.7462158203125
32.208251953125 -3.6103515625 28.3563232421875
7.249755859375 5.6739501953125 -46.341064453125
10.070556640625 9.1143798828125 -1.463623046875
6.082763671875 26.41259765625 -16.21240234375
5.24755859375 27.7210693359375 -18.5994873046875
6.011474609375 30.8070068359375 -29.1763916015625
33.13720703125 -7.7642822265625 36.6522216796875
18.06982421875 12.2723388671875 4.22314453125
17.078857421875 12.0406494140625 6.707275390625
6.32568359375 28.173583984375 -21.898681640625
1.8154296875 44.1619873046875 -61.3729248046875
6.621826171875 26.6387939453125 -17.862060546875
3.015869140625 42.6380615234375 -59.0052490234375
11.939208984375 0.136474609375 41.9302978515625
30.5869140625 -8.8853759765625 39.228271484375
8.985107421875 -3.0308837890625 39.6107177734375
10.5595703125 0.26123046875 42.2740478515625
4.8720703125 30.43798828125 -28.4091796875
0.79638671875 29.39697265625 -31.6019287109375
15.57568359375 6.445556640625 21.9114990234375
2.55908203125 17.8818359375 -10.4830322265625
21.720703125 14.010498046875 -2.1572265625
9.368896484375 0.0657958984375 30.8609619140625
23.145263671875 -1.1817626953125 -22.69873046875
0.7568359375 -1.142578125 47.1220703125
1.542724609375 -1.6002197265625 48.81787109375
13.643310546875 5.4637451171875 24.162841796875
11.76171875 -0.3870849609375 44.406005859375
6.80224609375 -1.6566162109375 -27.0028076171875
-0.177734375 30.84765625 -27.6436767578125
2.014892578125 26.1689453125 -17.6715087890625
1.4248046875 29.2257080078125 -25.711181640625
-0.91748046875 40.3585205078125 -54.6424560546875
1.643310546875 24.08544921875 -10.7913818359375
1.4501953125 30.4296875 -29.344482421875
5.80615234375 0.58056640625 41.06103515625
23.81689453125 -7.013916015625 39.9564208984375
4.857421875 33.68994140625 -48.1925048828125
17.193603515625 5.5780029296875 -46.2099609375
1.529052734375 28.3515625 -23.29541015625
0.220703125 26.9241943359375 -36.11669921875
-1.385986328125 31.820556640625 -47.213623046875
19.3701171875 15.5045166015625 -7.1611328125
15.74951171875 10.52978515625 7.63818359375
0.26806640625 5.749267578125 -46.0301513671875
-5.345458984375 27.127197265625 -35.3758544921875
-2.336181640625 28.1097412109375 -32.6822509765625
19.90380859375 4.116455078125 -42.254638671875
21.07373046875 6.71728515625 -49.2955322265625
2.222412109375 0.0626220703125 43.2186279296875
6.722412109375 28.865966796875 -43.6956787109375
3.050048828125 27.4840087890625 -21.6793212890625
9.787109375 9.0208740234375 13.427734375
-3.003662109375 30.1234130859375 -28.6600341796875
14.651123046875 3.0799560546875 -39.2127685546875
4.4921875 -0.3577880859375 45.057861328125
6.070068359375 10.5184326171875 9.2088623046875
-7.642333984375 35.369384765625 -49.3824462890625
-0.63330078125 18.4603271484375 -2.908935546875
19.430419921875 6.2435302734375 -47.7354736328125
5.256591796875 31.7081298828125 -47.151123046875
-32.2255859375 -10.60302734375 13.3564453125
-0.6552734375 0.0401611328125 43.8184814453125
-1.2255859375 30.2447509765625 -45.7266845703125
-24.4697265625 -13.475830078125 21.037841796875
-13.8857421875 29.2325439453125 -42.304443359375
1.91357421875 26.651611328125 -37.7840576171875
4.861083984375 -0.8760986328125 38.899658203125
2.909912109375 25.79541015625 -37.0364990234375
0.931640625 12.858154296875 5.0906982421875
1.05029296875 16.5491943359375 -6.1214599609375
0.03857421875 12.847412109375 6.739013671875
1.74658203125 14.9298095703125 -2.556640625
31.035888671875 -8.5355224609375 34.9901123046875
-3.619140625 33.027587890625 -47.936279296875
5.787109375 11.7742919921875 -1.635986328125
-30.967529296875 -3.9139404296875 14.418701171875
-0.790771484375 27.010498046875 -15.1009521484375
9.079833984375 3.3966064453125 -40.098876953125
8.58447265625 45.3284912109375 -65.052001953125
12.907470703125 2.454833984375 -38.1043701171875
16.3447265625 4.7440185546875 -43.8740234375
5.138671875 11.8070068359375 4.706298828125
-0.775390625 29.384521484375 -22.7965087890625
-5.895263671875 27.716064453125 -33.233154296875
-8.257568359375 27.4456787109375 -42.0128173828125
3.220458984375 45.2811279296875 -65.451416015625
-0.71240234375 10.173095703125 12.565185546875
10.31201171875 -6.2696533203125 36.3719482421875
3.700927734375 11.8636474609375 4.211181640625
-3.69482421875 26.8228759765625 -37.4564208984375
11.69677734375 7.447998046875 -7.58544921875
-2.18994140625 27.2733154296875 -41.52197265625
10.7646484375 7.32861328125 -5.5430908203125
10.11083984375 -4.458740234375 30.760498046875
3.43603515625 20.3887939453125 -11.3106689453125
-0.974853515625 -0.0772705078125 -31.8768310546875
8.7734375 -2.5418701171875 -24.6197509765625
-2.12451171875 0.0030517578125 43.67578125
-12.378173828125 -15.919189453125 25.131591796875
-4.63671875 30.0535888671875 -45.37744140625
-32.847900390625 -2.2520751953125 13.40478515625
-16.535400390625 -16.17529296875 28.0433349609375
10.610107421875 5.7132568359375 -45.883056640625
-34.325927734375 -1.7265625 15.049560546875
12.23046875 -2.1514892578125 -26.4951171875
4.657470703125 11.7999267578125 -5.4913330078125
-22.044921875 -17.0419921875 27.804443359375
22.005615234375 15.8062744140625 -7.4212646484375
6.19873046875 8.0218505859375 -8.580810546875
4.870361328125 8.005859375 -6.128662109375
6.131103515625 6.7294921875 -4.6080322265625
-8.328857421875 27.111572265625 -39.1654052734375
-8.094970703125 33.5384521484375 -48.3416748046875
3.8359375 -0.803955078125 -30.2237548828125
-6.65478515625 31.7247314453125 -47.283447265625
5.911865234375 44.627685546875 -61.7547607421875
-0.75732421875 19.415771484375 4.49951171875
-11.33935546875 28.3245849609375 -36.1805419921875
7.580810546875 9.560791015625 11.6812744140625
7.853271484375 40.4971923828125 -54.1685791015625
23.155029296875 5.03271484375 -45.7779541015625
2.585205078125 -4.8841552734375 -17.4468994140625
-16.80224609375 -14.040771484375 15.75146484375
5.648193359375 13.0380859375 0.7030029296875
22.79296875 14.061279296875 -1.23486328125
-10.443359375 -12.432373046875 14.4788818359375
23.686279296875 1.77685546875 -35.9041748046875
23.951171875 -0.8114013671875 -29.2388916015625
15.212646484375 -2.6966552734375 51.6004638671875
-1.065185546875 14.203369140625 8.20849609375
0.664306640625 -4.885498046875 -18.337646484375
21.89501953125 2.1358642578125 -37.1317138671875
3.736083984375 9.692626953125 10.615966796875
-3.2333984375 26.979736328125 -39.9171142578125
22.302001953125 -1.276123046875 -27.702392578125
1.452392578125 39.3277587890625 -53.480712890625
-11.103271484375 -14.1099853515625 20.671875
-0.840576171875 30.6368408203125 -29.375732421875
5.279541015625 29.006591796875 -23.086181640625
17.718994140625 -1.726318359375 -27.0828857421875
3.007080078125 29.04443359375 -31.594970703125
16.482666015625 -0.220947265625 -31.012939453125
-6.62255859375 -16.123779296875 21.810302734375
8.90673828125 11.2001953125 -0.3052978515625
15.943359375 -1.445556640625 -27.5081787109375
-0.196044921875 -4.5133056640625 -21.1572265625
-15.371826171875 -12.18994140625 14.5994873046875
13.792724609375 3.390869140625 -40.82177734375
-0.882568359375 1.125732421875 -34.5389404296875
1.24169921875 1.6666259765625 -35.6280517578125
-0.977294921875 13.1756591796875 12.284423828125
-0.97314453125 7.202880859375 -50.300048828125
-14.735107421875 -13.01123046875 18.5797119140625
7.645751953125 0.2381591796875 42.8798828125
12.194091796875 4.0902099609375 -42.80029296875
21.594482421875 14.50341796875 27.106689453125
13.342041015625 10.4676513671875 9.2037353515625
-1.4228515625 3.08447265625 -39.9417724609375
10.86279296875 4.287841796875 -43.2056884765625
-3.80224609375 3.8701171875 -40.6956787109375
-7.7509765625 -11.4952392578125 11.1466064453125
13.072265625 12.479248046875 0.1370849609375
2.853759765625 37.3018798828125 -51.171142578125
24.1953125 14.027099609375 -2.4632568359375
-1.5859375 17.25048828125 13.043701171875
9.704345703125 6.883544921875 -2.29833984375
13.631103515625 5.216552734375 26.7071533203125
9.523681640625 9.79931640625 -10.658447265625
-0.410888671875 19.0850830078125 -5.7611083984375
6.824951171875 3.6912841796875 -41.3223876953125
-2.1181640625 36.96728515625 -51.243408203125
1.600341796875 0.8724365234375 40.7608642578125
18.323974609375 -13.3055419921875 45.7381591796875
-32.92919921875 -6.739990234375 26.3890380859375
-8.620849609375 -14.9144287109375 23.9940185546875
28.685791015625 -5.729248046875 33.264892578125
13.200439453125 7.7574462890625 18.1298828125
18.533447265625 -2.3963623046875 -22.624755859375
-0.919677734375 35.52978515625 -49.7193603515625
27.53857421875 -8.7652587890625 37.2525634765625
10.345703125 2.00830078125 -36.5888671875
-1.5380859375 5.885009765625 -46.4425048828125
14.77294921875 1.2509765625 -34.5438232421875
8.614013671875 -0.7491455078125 -29.672607421875
-2.500244140625 -3.589599609375 -21.9117431640625
-30.65478515625 -14.3609619140625 24.853271484375
-17.948974609375 -15.608642578125 19.8360595703125
22.673828125 -14.421142578125 47.6033935546875
13.644775390625 4.038330078125 30.7886962890625
26.31591796875 -10.2294921875 40.2777099609375
4.753662109375 -0.9857177734375 -28.5980224609375
15.68408203125 4.1414794921875 30.97119140625
23.95947265625 14.5760498046875 -3.671630859375
-19.72705078125 -15.6090087890625 20.9306640625
2.64794921875 32.235595703125 -47.5391845703125
8.36669921875 -3.439208984375 -22.315185546875
8.799072265625 -0.5185546875 45.4130859375
4.496337890625 -2.8468017578125 34.9609375
-3.768310546875 1.7781982421875 -34.524169921875
-4.09912109375 0.937255859375 -31.4200439453125
-8.28271484375 -11.87646484375 14.330322265625
-7.70166015625 -15.844970703125 25.1026611328125
5.015625 0.6461181640625 -32.8341064453125
21.433837890625 15.94921875 -10.4208984375
3.80322265625 28.9014892578125 -44.9815673828125
13.627197265625 12.331787109375 3.1336669921875
7.807373046875 3.8602294921875 -42.4989013671875
-7.27001953125 -14.62646484375 19.60498046875
-1.222900390625 21.4713134765625 0.9971923828125
4.913330078125 9.8438720703125 -7.074462890625
14.30859375 4.51171875 28.7734375
-2.907958984375 3.906494140625 -41.8795166015625
7.40234375 10.37353515625 8.4058837890625
5.510986328125 27.46630859375 -42.6240234375
29.98681640625 -7.69580078125 33.791748046875
17.567626953125 4.3857421875 -43.8963623046875
8.93603515625 6.4464111328125 26.1907958984375
3.9921875 23.1607666015625 -11.693115234375
10.43798828125 -1.3294677734375 48.4210205078125
6.47802734375 1.8431396484375 -36.2923583984375
21.11865234375 -0.6427001953125 -29.7088623046875
22.709228515625 2.86376953125 -39.07568359375
19.20703125 -2.6744384765625 -24.703857421875
6.716552734375 29.167236328125 -25.566650390625
6.951416015625 28.62060546875 -24.3634033203125
1.17041015625 26.8487548828125 -35.2718505859375
6.4638671875 -1.45751953125 38.900634765625
20.177001953125 5.7724609375 -46.5537109375
29.381103515625 -9.23583984375 39.4766845703125
-12.775146484375 -12.5894775390625 15.9296875
-14.175537109375 -16.1492919921875 29.070068359375
-14.209228515625 -14.065673828125 22.9232177734375
33.951904296875 -7.8018798828125 34.092041015625
3.88720703125 -3.9569091796875 -20.9224853515625
15.31201171875 5.701904296875 25.20166015625
5.558837890625 -2.58984375 53.31201171875
-4.090576171875 32.09326171875 -47.21435546875
8.539306640625 -3.249267578125 33.484619140625
20.089599609375 3.4788818359375 -40.6912841796875
9.240966796875 5.084228515625 28.511962890625
2.818603515625 0.644287109375 38.6510009765625
14.7314453125 6.873291015625 19.779296875
0.95361328125 27.88671875 -42.6448974609375
-16.595947265625 -12.544677734375 11.9866943359375
-24.851318359375 -14.3486328125 23.2705078125
15.151611328125 6.3511962890625 -48.1854248046875
13.538818359375 6.3382568359375 21.7457275390625
2.346923828125 26.8951416015625 -19.2469482421875
19.594970703125 12.56884765625 1.7786865234375
18.905029296875 1.950439453125 -36.8116455078125
7.7470703125 10.1146240234375 -1.4053955078125
1.30517578125 25.50390625 -14.4052734375
1.77294921875 24.415283203125 -12.0089111328125
-1.474609375 23.1087646484375 -3.4261474609375
-31.3681640625 -8.1741943359375 27.837158203125
-23.3388671875 -15.0528564453125 25.2802734375
28.142333984375 -7.5704345703125 34.972900390625
-31.493408203125 -3.090087890625 12.9156494140625
-33.438232421875 -6.95361328125 27.9471435546875
7.6630859375 46.494140625 -67.463134765625
15.126708984375 5.1820068359375 -44.6571044921875
1.822265625 27.8692626953125 -33.035400390625
27.91943359375 -10.1583251953125 41.306884765625
-30.48779296875 -16.78271484375 27.57763671875
-11.566162109375 30.0860595703125 -42.168701171875
-18.31982421875 -12.1368408203125 9.1004638671875
-31.2275390625 -11.2286376953125 12.8907470703125
10.0791015625 6.07763671875 24.0352783203125
-1.580322265625 -1.49462890625 -27.64599609375
11.19189453125 12.318359375 3.4271240234375
-33.215576171875 -4.3092041015625 20.7349853515625
14.429931640625 9.742919921875 9.9892578125
-2.250244140625 28.2452392578125 -44.3087158203125
-0.7919921875 -4.939208984375 -18.809326171875
-16.300048828125 -10.9805908203125 9.462158203125
9.058837890625 7.23828125 19.4656982421875
9.5283203125 11.9068603515625 4.1153564453125
10.17822265625 8.6728515625 15.53125
9.384765625 -6.3046875 37.57470703125
-23.699462890625 -13.816650390625 22.249267578125
5.53662109375 19.0445556640625 -12.286376953125
7.1455078125 27.67236328125 -40.905029296875
-22.701904296875 -12.3572998046875 16.0960693359375
-22.68505859375 -13.390869140625 19.145263671875
-21.163818359375 -12.7523193359375 14.4892578125
-21.228759765625 -13.99365234375 18.305419921875
4.01904296875 -1.560791015625 49.4991455078125
21.2861328125 -10.8458251953125 45.324462890625
3.192626953125 27.6436767578125 -43.0546875
7.39501953125 6.3145751953125 -3.3568115234375
1.921142578125 28.9305419921875 -44.5880126953125
-11.70556640625 -16.4952392578125 26.709228515625
18.28662109375 2.743408203125 -39.1807861328125
7.942626953125 28.852294921875 -26.84765625
-19.68359375 -14.1622314453125 13.8912353515625
4.23974609375 21.8802490234375 -11.88720703125
3.691162109375 1.2703857421875 39.3070068359375
-28.593505859375 -17.3555908203125 26.3787841796875
0.363525390625 -2.20751953125 51.591552734375
9.12939453125 -2.452392578125 35.871337890625
1.395751953125 11.778564453125 7.46728515625
2.228271484375 12.7652587890625 3.020751953125
2.34912109375 10.8134765625 8.6171875
-0.57421875 15.927490234375 -2.497802734375
1.056396484375 10.0340576171875 10.9442138671875
-31.778076171875 -12.9349365234375 22.6378173828125
10.5390625 -3.2445068359375 34.51171875
11.408447265625 9.3182373046875 13.1591796875
2.68896484375 29.0220947265625 -27.392578125
4.747314453125 36.3004150390625 -50.424072265625
-31.23291015625 -14.4925537109375 23.1484375
13.222412109375 6.744873046875 20.5125732421875
10.316162109375 11.9102783203125 0.319580078125
7.134033203125 27.915283203125 -33.3277587890625
-32.275146484375 -11.7545166015625 16.353515625
-10.42919921875 33.521484375 -47.54248046875
-12.80908203125 -10.505859375 9.78271484375
-3.4638671875 7.824951171875 -51.4603271484375
1.967529296875 1.2005615234375 -34.4586181640625
-1.663818359375 4.6527099609375 -44.1783447265625
5.854248046875 27.0247802734375 -40.168701171875
-0.402587890625 16.3634033203125 -4.10693359375
-1.40576171875 2.037109375 -36.8521728515625
3.392822265625 46.6455078125 -67.425537109375
-2.4267578125 2.891357421875 -39.181640625
-0.4765625 -3.7320556640625 -16.9794921875
10.532470703125 -2.3720703125 52.5445556640625
4.589111328125 45.96923828125 -64.564697265625
-18.474609375 -16.7314453125 22.008056640625
7.42919921875 29.8350830078125 -28.8465576171875
-0.943115234375 41.379638671875 -57.0440673828125
6.8046875 10.030517578125 -9.898681640625
24.087890625 3.677978515625 -40.591064453125
3.3837890625 0.4224853515625 42.9769287109375
2.75927734375 -0.9664306640625 46.485107421875
23.788330078125 0.922607421875 -33.5433349609375
2.806396484375 44.3936767578125 -63.857177734375
8.247314453125 6.8480224609375 -49.4300537109375
9.5908203125 1.3944091796875 -35.0584716796875
10.28271484375 7.0858154296875 -49.3802490234375
2.921630859375 -1.950927734375 51.471923828125
-27.44384765625 -15.926513671875 24.7564697265625
16.993408203125 -2.3155517578125 -25.1356201171875
8.112060546875 -3.7752685546875 31.1834716796875
-6.00244140625 -13.337158203125 11.3013916015625
15.13916015625 -1.5693359375 -23.4425048828125
7.63916015625 7.63232421875 -51.774169921875
1.666015625 19.715576171875 -10.223388671875
4.90283203125 30.396240234375 -27.143798828125
13.642822265625 -2.224365234375 -26.05126953125
-1.40869140625 29.7486572265625 -31.6090087890625
20.698486328125 -7.6312255859375 43.8851318359375
5.504638671875 40.7265625 -55.4149169921875
5.35009765625 -4.8145751953125 -19.3682861328125
1.192138671875 -2.556884765625 52.888427734375
4.076904296875 9.0347900390625 -54.476806640625
-22.005126953125 -15.9671630859375 25.590576171875
7.07958984375 34.247314453125 -48.5281982421875
-21.302001953125 -16.434814453125 26.7723388671875
-6.25537109375 35.3082275390625 -49.3760986328125
-34.010986328125 -6.37255859375 28.857666015625
1.28076171875 5.4736328125 -50.864013671875
-0.99609375 -2.08203125 51.925048828125
0.771240234375 30.4693603515625 -46.5069580078125
13.446533203125 9.59326171875 11.6201171875
-32.39599609375 -5.38427734375 21.3846435546875
-1.640625 -2.4649658203125 53.066162109375
-34.357421875 -5.0499267578125 25.00830078125
3.020751953125 3.626708984375 -41.4012451171875
0.78271484375 3.840087890625 -41.8199462890625
11.693115234375 11.179931640625 7.0970458984375
