-26.12646484375 2.4208984375 23.291015625
-10.333740234375 2.3917236328125 24.0396728515625
25.418701171875 11.5906982421875 -28.75830078125
4.27490234375 17.9473876953125 14.638916015625
12.21875 21.5963134765625 3.5364990234375
4.07666015625 12.3662109375 -38.3431396484375
22.791748046875 -0.016357421875 37.025390625
11.735107421875 -3.232666015625 42.6661376953125
-2.552734375 20.427001953125 -57.7626953125
8.623046875 23.1781005859375 -6.5123291015625
6.2265625 6.1890869140625 48.4532470703125
12.677734375 8.998779296875 40.431884765625
4.547607421875 7.3265380859375 -23.85791015625
16.138671875 14.5782470703125 23.279541015625
10.723388671875 19.4415283203125 -55.6221923828125
3.467529296875 12.3743896484375 30.0654296875
-28.915771484375 -3.197021484375 13.173828125
-18.247802734375 2.47119140625 2.5174560546875
17.57470703125 27.8935546875 -16.565673828125
15.0126953125 12.7659912109375 -38.51708984375
-11.158447265625 -2.587890625 11.431884765625
7.3916015625 15.1622314453125 22.4490966796875
-18.34716796875 1.2786865234375 27.1690673828125
19.75732421875 16.294189453125 -47.746337890625
15.365234375 -8.3453369140625 50.5439453125
-25.88427734375 -6.61083984375 20.4217529296875
7.2744140625 31.7830810546875 -18.7698974609375
11.885009765625 8.384521484375 32.1834716796875
4.196044921875 17.3927001953125 -50.977783203125
-10.13916015625 -6.2930908203125 21.90625
5.478515625 19.3740234375 -12.5751953125
-3.07470703125 13.552490234375 -40.841552734375
30.37255859375 -0.813232421875 37.1470947265625
1.52978515625 24.5404052734375 -3.228515625
-25.21630859375 -0.7877197265625 3.066650390625
5.017333984375 10.0167236328125 -31.1824951171875
-16.293212890625 -4.9228515625 16.1629638671875
9.9833984375 19.2408447265625 10.3125
20.87744140625 11.4000244140625 -34.44775390625
-4.56689453125 -2.42919921875 8.1041259765625
26.03125 -2.57275390625 43.1697998046875
14.52734375 24.6507568359375 -10.623291015625
-0.194091796875 7.2611083984375 45.6964111328125
2.74951171875 14.75390625 -44.6353759765625
4.091552734375 21.111083984375 -56.994873046875
10.503662109375 17.345458984375 16.624267578125
6.953125 4.3604736328125 30.6851806640625
6.78515625 22.6630859375 0.0189208984375
-14.852294921875 -1.6656494140625 6.2235107421875
18.61572265625 11.41015625 -28.29931640625
7.095947265625 11.074951171875 35.3275146484375
1.627685546875 15.874267578125 19.984619140625
0.560302734375 19.0833740234375 9.67236328125
13.958984375 23.3037109375 -2.2691650390625
-22.9541015625 -4.12060546875 15.5535888671875
9.892333984375 11.0936279296875 -35.2042236328125
17.316650390625 -4.0135498046875 40.113037109375
15.2529296875 17.863525390625 -51.6734619140625
4.41943359375 3.720458984375 53.7977294921875
16.298095703125 20.2227783203125 8.1236572265625
11.96240234375 19.178955078125 -9.7637939453125
-21.652099609375 -2.500244140625 21.8265380859375
7.049072265625 8.120849609375 42.7816162109375
-1.32080078125 7.2584228515625 -24.8675537109375
6.395263671875 20.846923828125 5.6558837890625
-31.32080078125 0.075927734375 21.712158203125
9.54541015625 13.3551025390625 -40.65625
-1.286865234375 11.5086669921875 -35.63427734375
-0.353271484375 11.0535888671875 34.439208984375
26.630615234375 2.986328125 31.67138671875
-33.47265625 -3.142333984375 9.5108642578125
-15.433349609375 -1.4927978515625 23.0638427734375
21.167724609375 -6.9786376953125 50.233642578125
10.76220703125 -6.99169921875 46.829345703125
-33.4990234375 -6.314208984375 14.6214599609375
16.046142578125 14.88134765625 -43.701171875
16.81005859375 9.36474609375 36.5997314453125
-25.424560546875 -2.4033203125 8.4390869140625
3.962890625 25.3404541015625 -8.572021484375
-10.170654296875 -4.1556396484375 16.59765625
0.426513671875 22.9036865234375 -61.6214599609375
15.860107421875 -6.29443359375 45.012451171875
13.3291015625 9.9342041015625 23.77685546875
-2.25537109375 17.841552734375 -52.975830078125
1.27294921875 14.131103515625 25.40087890625
13.926513671875 29.300048828125 -20.481689453125
15.18359375 12.445068359375 28.78857421875
6.857177734375 26.985595703125 -16.43310546875
-0.09521484375 5.6719970703125 50.7930908203125
5.7275390625 10.36083984375 25.8326416015625
-5.45654296875 1.87548828125 22.3089599609375
-4.55859375 8.0 23.044921875
13.02783203125 5.289306640625 28.227783203125
-20.4755859375 -1.563720703125 5.1785888671875
-29.937744140625 -4.56591796875 18.090087890625
22.71337890625 15.660888671875 -30.177001953125
15.80517578125 10.7896728515625 -33.6531982421875
9.225830078125 17.46826171875 -51.2193603515625
22.22119140625 -5.0291748046875 40.53271484375
25.33740234375 -6.447021484375 47.3179931640625
9.495849609375 23.6434326171875 -13.869384765625
-5.384521484375 -7.50146484375 21.1298828125
8.07177734375 8.297119140625 -27.181396484375
16.313232421875 16.838623046875 18.6431884765625
-6.46728515625 -3.1292724609375 12.6578369140625
26.53857421875 -1.4876708984375 34.301025390625
12.111328125 15.2421875 20.6256103515625
21.76708984375 18.115478515625 -51.6925048828125
8.256591796875 21.9310302734375 -59.1802978515625
-10.031494140625 -1.387939453125 6.879638671875
-27.0 -2.0870361328125 22.3702392578125
-20.0185546875 -5.822998046875 18.80712890625
23.4912109375 15.7027587890625 -44.885986328125
19.562255859375 12.97509765625 -39.1636962890625
26.467529296875 -2.959228515625 38.6248779296875
-20.0224609375 1.7489013671875 21.86474609375
16.382080078125 22.7381591796875 1.537353515625
10.123291015625 10.065185546875 27.0885009765625
10.9521484375 -7.6925048828125 51.3338623046875
11.830322265625 10.5679931640625 36.1475830078125
5.05517578125 19.2098388671875 10.0089111328125
6.24267578125 8.7979736328125 31.0538330078125
6.4970703125 16.19482421875 -47.3167724609375
3.33740234375 30.059326171875 -17.494873046875
-15.60400390625 -3.457763671875 11.2469482421875
-14.327392578125 -5.3514404296875 20.1669921875
5.129150390625 24.0531005859375 -12.9617919921875
-30.314453125 -6.6376953125 22.167236328125
8.0634765625 20.1351318359375 -16.168701171875
13.03173828125 24.6103515625 -6.400146484375
6.11572265625 16.833740234375 18.486572265625
18.064208984375 26.6591796875 -12.31982421875
-29.54541015625 -1.21533203125 7.462158203125
-19.218017578125 -2.9080810546875 26.175537109375
18.814208984375 14.8536376953125 28.5238037109375
16.3740234375 19.8955078125 -55.5804443359375
3.837890625 11.3402099609375 -27.2864990234375
15.218994140625 16.4647216796875 -47.637451171875
22.098876953125 9.7576904296875 -30.64111328125
-11.432861328125 -2.1766357421875 21.8782958984375
24.835205078125 12.7664794921875 -34.8106689453125
8.69775390625 9.2410888671875 38.72802734375
6.55078125 18.899169921875 -54.4490966796875
1.041748046875 16.4808349609375 -48.026123046875
-18.503173828125 -6.06884765625 12.8402099609375
1.483642578125 18.86767578125 -54.6724853515625
0.989990234375 10.3468017578125 -32.07666015625
14.481201171875 11.7174072265625 33.1983642578125
-1.698974609375 15.093994140625 -44.575927734375
2.7275390625 22.5574951171875 0.072998046875
9.9580078125 23.7568359375 -2.7618408203125
5.444580078125 24.2301025390625 -4.0869140625
2.8408203125 8.4083251953125 43.188232421875
5.701416015625 5.956298828125 26.8341064453125
6.282958984375 21.89208984375 -9.5692138671875
6.926025390625 14.7144775390625 -43.3592529296875
20.1435546875 14.546875 -42.79541015625
0.892822265625 13.1412353515625 -40.81982421875
0.77392578125 17.41015625 16.4124755859375
-17.864990234375 -4.188232421875 6.582275390625
-0.4501953125 12.900634765625 28.7275390625
5.8271484375 11.003662109375 -35.1025390625
8.99609375 9.7725830078125 -31.196533203125
12.2333984375 20.38134765625 7.2498779296875
17.705322265625 25.8497314453125 -8.525634765625
-21.978515625 -6.69482421875 22.0577392578125
0.4951171875 8.8175048828125 -28.5472412109375
-23.672119140625 0.91943359375 20.723388671875
-23.572021484375 -3.22802734375 11.7188720703125
30.93701171875 -0.963134765625 33.354248046875
12.2255859375 18.27880859375 13.254150390625
-7.46240234375 -4.5035400390625 19.2647705078125
18.33740234375 -7.3974609375 47.7183837890625
2.76904296875 20.22021484375 6.6156005859375
18.491943359375 -6.8626708984375 42.348388671875
18.038818359375 23.1923828125 -1.8427734375
3.570556640625 11.34423828125 33.9853515625
7.284423828125 -6.135986328125 48.31884765625
12.344970703125 14.472900390625 -43.1121826171875
-26.350830078125 -5.003173828125 16.914306640625
-5.953369140625 -1.531005859375 4.7244873046875
3.94140625 21.8404541015625 -60.896728515625
-8.8310546875 0.480224609375 21.2064208984375
8.195556640625 17.9686279296875 13.757080078125
-22.660888671875 2.1561279296875 24.6104736328125
-28.91162109375 -0.466552734375 3.8765869140625
-16.535888671875 4.4541015625 26.540283203125
12.2041015625 -6.9105224609375 43.4158935546875
-13.680908203125 0.975830078125 3.937744140625
9.220947265625 7.2562255859375 29.2362060546875
14.318359375 9.0037841796875 28.0394287109375
-0.738037109375 8.59814453125 41.042236328125
10.344970703125 22.307861328125 0.5445556640625
3.29248046875 7.1943359375 46.5867919921875
14.41552734375 -1.8917236328125 40.1849365234375
16.142822265625 8.971435546875 -29.256591796875
-13.200439453125 -3.6358642578125 14.77294921875
-7.705322265625 -1.6495361328125 9.613525390625
-33.137939453125 -2.9349365234375 21.1146240234375
8.292724609375 19.0274658203125 -10.1807861328125
-13.577880859375 1.62353515625 22.8336181640625
4.728759765625 14.2401123046875 24.5794677734375
-2.685302734375 14.181884765625 19.8453369140625
3.72705078125 5.5931396484375 50.82470703125
12.42822265625 16.9400634765625 -49.6788330078125
-17.348388671875 -2.3421630859375 3.6693115234375
1.13232421875 20.8988037109375 -58.8609619140625
-16.994384765625 -7.9959716796875 19.616455078125
17.727294921875 16.721923828125 25.8343505859375
7.715087890625 12.343017578125 -37.9127197265625
13.947021484375 19.0052490234375 10.331787109375
18.512939453125 10.1595458984375 -31.614501953125
-0.57568359375 14.8116455078125 22.521728515625
17.658203125 11.794677734375 -36.3778076171875
8.096435546875 7.76708984375 46.03662109375
4.08642578125 21.43505859375 3.1900634765625
15.397216796875 21.2451171875 4.9876708984375
18.51416015625 17.7242431640625 -50.693603515625
2.26513671875 11.151123046875 -35.1192626953125
-7.356201171875 0.0501708984375 24.4495849609375
10.751708984375 20.7655029296875 -12.587646484375
10.404541015625 7.658203125 42.8985595703125
4.156005859375 13.810302734375 -41.41064453125
22.8095703125 12.7916259765625 -37.7298583984375
1.491943359375 18.07666015625 12.765869140625
11.427734375 22.128173828125 -8.0020751953125
12.067626953125 18.34716796875 -52.748291015625
11.334716796875 12.364013671875 -37.9412841796875
1.172607421875 4.490966796875 53.6451416015625
-19.6533203125 -4.580078125 15.661865234375
24.468505859375 -5.474365234375 43.6302490234375
8.5234375 21.273193359375 3.1380615234375
-23.307373046875 -5.3651123046875 18.6983642578125
12.568359375 10.296875 -33.1234130859375
14.074951171875 17.582763671875 16.18896484375
14.748291015625 -4.6925048828125 42.09765625
-8.147705078125 -2.7918701171875 22.0140380859375
12.62890625 6.4669189453125 25.162109375
-22.310791015625 -1.333984375 7.893798828125
0.611572265625 17.70849609375 -51.0286865234375
14.154296875 -7.2161865234375 47.72216796875
27.911865234375 -0.436279296875 31.526123046875
5.33740234375 9.907470703125 38.1690673828125
20.682373046875 -2.3343505859375 39.576416015625
9.22119140625 16.53369140625 19.476318359375
15.3408203125 27.2677001953125 -13.9083251953125
4.9013671875 8.43505859375 -28.14111328125
-33.7763671875 -2.9949951171875 6.16162109375
-16.051513671875 1.0794677734375 24.857666015625
16.26318359375 24.2076416015625 -4.480712890625
-13.3369140625 -1.7423095703125 9.018798828125
-31.9755859375 -3.3709716796875 12.303955078125
9.5673828125 -4.384521484375 45.4664306640625
-7.137939453125 -3.5211181640625 15.735595703125
-28.25 -2.4964599609375 10.0484619140625
1.381591796875 40.0400390625 -50.0184326171875
-19.33154296875 -4.2373046875 23.060546875
0.891845703125 12.037353515625 -37.8468017578125
21.967529296875 -6.294921875 47.2396240234375
-2.85693359375 9.12451171875 -26.8447265625
13.456787109375 22.095703125 0.6566162109375
9.76123046875 9.903076171875 33.916015625
-15.237060546875 -4.87744140625 23.1063232421875
22.689697265625 17.29541015625 -48.842041015625
24.682861328125 11.3240966796875 -31.7623291015625
9.140625 20.5931396484375 7.1348876953125
8.57373046875 7.15478515625 32.2666015625
1.75048828125 7.2470703125 -25.2584228515625
1.84716796875 26.7088623046875 -10.358154296875
-26.08251953125 -4.21923828125 13.843505859375
4.298583984375 15.4610595703125 21.4632568359375
-19.321533203125 -0.1888427734375 24.1484375
13.5546875 11.4918212890625 -35.7728271484375
-11.11083984375 -1.246337890625 4.01220703125
23.446533203125 -2.862060546875 38.1044921875
-17.98291015625 -7.407958984375 16.73828125
10.0048828125 4.46484375 30.76171875
17.263427734375 13.5157470703125 -41.2611083984375
11.191162109375 21.9698486328125 -57.2581787109375
16.226806640625 13.9444580078125 26.3524169921875
28.732666015625 1.716796875 29.0777587890625
19.04296875 18.941162109375 -53.84619140625
-2.220947265625 10.3187255859375 -32.9967041015625
-31.02490234375 -4.4305419921875 15.28369140625
23.770263671875 -8.1470947265625 49.26806640625
-3.063720703125 12.4478759765625 -37.8699951171875
3.542236328125 13.771728515625 27.330810546875
16.718994140625 29.086669921875 -19.41845703125
0.1494140625 10.1844482421875 37.427734375
-7.47265625 -6.220703125 23.2550048828125
7.066650390625 20.0728759765625 -57.14013671875
0.467041015625 11.928466796875 31.714599609375
-33.918212890625 -5.47412109375 17.4423828125
8.750732421875 -8.821044921875 48.02880859375
-27.58984375 -7.9129638671875 22.45751953125
-9.36279296875 -3.183349609375 13.84130859375
16.217041015625 29.835205078125 -22.2427978515625
1.86474609375 25.2908935546875 -6.5208740234375
-28.6123046875 0.6551513671875 22.5718994140625
-24.2822265625 -1.671630859375 5.649169921875
3.394775390625 16.8734130859375 17.49072265625
-21.024658203125 -3.92724609375 13.2103271484375
4.670166015625 26.58642578125 -14.28125
12.77490234375 13.4296875 -40.191650390625
17.51171875 15.962890625 -45.9862060546875
14.378173828125 9.6376953125 38.0869140625
25.37158203125 0.998291015625 33.299560546875
13.53271484375 19.447998046875 -55.0791015625
15.03515625 10.859375 26.024658203125
-16.082763671875 -2.5167236328125 8.62353515625
-1.206298828125 19.3785400390625 -55.3587646484375
-11.807373046875 -4.902099609375 18.9827880859375
24.724365234375 -3.710693359375 40.952880859375
13.796630859375 15.5511474609375 -45.3909912109375
2.760498046875 5.0743408203125 55.8905029296875
13.556396484375 30.52783203125 -22.9630126953125
4.94873046875 9.1097412109375 40.80908203125
0.680908203125 6.3597412109375 48.1768798828125
6.77490234375 13.1390380859375 -40.6929931640625
-27.242919921875 -1.8072509765625 6.02392578125
5.93798828125 23.51171875 -7.14111328125
9.582763671875 14.6839599609375 -44.163818359375
-22.809326171875 0.5556640625 3.3944091796875
5.0498046875 10.0916748046875 28.9091796875
14.85693359375 15.62060546875 20.699951171875
-4.671630859375 -3.8662109375 10.4608154296875
-3.4365234375 17.7332763671875 -50.483154296875
-27.91064453125 -5.2198486328125 22.9267578125
3.747314453125 16.1446533203125 -47.3924560546875
-17.669921875 -4.79736328125 10.0255126953125
5.685791015625 21.0882568359375 -14.713134765625
4.395751953125 -9.0206298828125 51.7188720703125
8.883544921875 21.0015869140625 -8.3846435546875
13.1416015625 19.5501708984375 -13.1004638671875
13.8857421875 10.06982421875 30.495849609375
3.18505859375 10.539794921875 36.6458740234375
5.445068359375 7.8079833984375 45.0595703125
5.9072265625 29.51953125 -18.1632080078125
12.65966796875 16.5260009765625 18.2296142578125
6.937744140625 17.00927734375 -49.87353515625
0.460205078125 14.13525390625 -43.269287109375
5.637451171875 6.5614013671875 29.71240234375
16.3330078125 12.8148193359375 31.172119140625
-19.47314453125 -1.9779052734375 7.6668701171875
-7.351318359375 -0.8834228515625 6.9049072265625
-28.664306640625 -5.6348876953125 20.178955078125
14.788818359375 9.6417236328125 -31.4696044921875
-1.599365234375 21.460205078125 -60.0264892578125
0.111083984375 20.3359375 6.467529296875
27.336669921875 -1.881103515625 40.8985595703125
-13.99462890625 -4.6044921875 17.5201416015625
12.52685546875 6.0286865234375 30.7164306640625
7.310791015625 17.103271484375 16.1522216796875
11.17578125 6.9549560546875 27.372802734375
-16.422607421875 -4.390625 13.5875244140625
9.677978515625 16.626220703125 -48.7698974609375
-31.921875 -6.9871826171875 19.100830078125
4.847412109375 22.7725830078125 -1.9866943359375
6.757080078125 7.5340576171875 24.8199462890625
-4.4794921875 -4.3228759765625 13.8753662109375
20.186279296875 15.454833984375 -45.30517578125
15.7294921875 24.7628173828125 -7.1982421875
21.80322265625 -7.1314697265625 42.0322265625
-29.5478515625 -1.927734375 21.804443359375
-19.845703125 0.3411865234375 3.5032958984375
18.757568359375 15.67236328125 30.994873046875
6.470458984375 12.3427734375 24.2122802734375
3.836181640625 18.753173828125 -53.5772705078125
-13.058349609375 -6.2685546875 22.2313232421875
-1.26220703125 16.76513671875 -49.16064453125
13.074462890625 22.0986328125 -9.983642578125
13.016845703125 -6.0015869140625 45.6834716796875
7.232177734375 10.4969482421875 -32.9228515625
3.842041015625 26.021240234375 -11.82275390625
8.503662109375 21.2193603515625 -13.740478515625
20.45458984375 12.2215576171875 -36.8394775390625
27.873779296875 -1.993896484375 36.7117919921875
24.455810546875 -1.61083984375 35.7840576171875
5.924072265625 18.2913818359375 12.22802734375
16.275146484375 19.0616455078125 11.3690185546875
23.699462890625 -7.364990234375 45.537109375
5.760009765625 21.07958984375 -59.0826416015625
6.80859375 19.84814453125 7.959228515625
5.885009765625 10.384765625 33.00830078125
-11.262939453125 0.836669921875 21.8477783203125
-30.787109375 -2.18115234375 9.4542236328125
14.79443359375 12.4705810546875 23.7061767578125
18.64306640625 -7.117919921875 45.2171630859375
-16.822021484375 -2.87939453125 24.6611328125
-26.182373046875 -3.376953125 11.209228515625
10.35693359375 9.1031494140625 -28.9876708984375
9.322998046875 9.219482421875 41.1766357421875
18.032958984375 -7.676025390625 50.2108154296875
-28.40771484375 -4.1295166015625 15.7669677734375
-15.305419921875 -7.376953125 23.056396484375
7.133544921875 8.867431640625 -29.415283203125
13.27783203125 13.960693359375 22.389404296875
9.22509765625 10.482421875 36.43310546875
-4.599609375 -6.8887939453125 18.87451171875
16.686767578125 11.446044921875 34.264892578125
8.148681640625 7.208740234375 26.825439453125
11.800048828125 -6.934814453125 49.15234375
18.111083984375 21.5133056640625 -56.22412109375
21.507568359375 13.859375 -40.533203125
18.5126953125 10.878662109375 -34.025146484375
5.102783203125 15.2847900390625 -45.0780029296875
4.03662109375 10.4254150390625 -33.3890380859375
3.355224609375 8.812255859375 -26.240478515625
5.955810546875 5.6436767578125 51.8291015625
-30.833251953125 0.9739990234375 3.4307861328125
15.208984375 27.7843017578125 -17.162109375
5.44189453125 4.15478515625 49.552490234375
-32.94384765625 -7.425048828125 22.1693115234375
12.11572265625 23.709228515625 -3.9010009765625
11.02392578125 10.06103515625 38.3927001953125
0.2373046875 8.166748046875 43.4837646484375
14.527587890625 13.6817626953125 -41.8486328125
-10.407470703125 -2.11328125 9.158935546875
-16.2763671875 -5.8760986328125 18.3883056640625
-17.5537109375 -0.7467041015625 26.1087646484375
2.776123046875 18.6380615234375 10.7939453125
10.732421875 18.41650390625 -11.7015380859375
1.75634765625 15.4461669921875 22.60546875
-19.140380859375 -6.646728515625 20.9024658203125
-8.77880859375 -0.7259521484375 4.9228515625
3.239501953125 28.8128662109375 -15.4302978515625
-33.022705078125 -0.931396484375 10.350830078125
8.870361328125 18.612060546875 -53.3043212890625
6.577392578125 18.14990234375 -51.951171875
0.549560546875 15.3306884765625 -45.3916015625
17.50927734375 16.705322265625 -48.464111328125
30.253662109375 1.3450927734375 27.275634765625
22.94775390625 14.7659912109375 -42.7607421875
14.453857421875 10.8575439453125 35.4149169921875
4.86181640625 23.865478515625 -10.2041015625
-15.65283203125 -0.34716796875 3.9730224609375
-31.80224609375 -1.7691650390625 6.9803466796875
22.232421875 11.685302734375 -29.270751953125
16.712646484375 18.74267578125 -53.4794921875
8.076171875 23.9913330078125 -4.3597412109375
-13.237548828125 -2.8265380859375 12.552490234375
15.874755859375 23.2406005859375 -0.7056884765625
10.989990234375 23.45458984375 -5.9525146484375
6.254150390625 7.564208984375 -25.4576416015625
-12.620849609375 -1.03125 5.853271484375
6.316650390625 21.6776123046875 2.447998046875
16.333740234375 26.5577392578125 -10.73779296875
11.7646484375 23.1810302734375 -1.0994873046875
10.383056640625 20.0223388671875 -15.0888671875
10.35546875 20.8729248046875 4.7515869140625
8.7021484375 15.615234375 -46.556640625
12.40380859375 10.1494140625 33.60498046875
14.42822265625 21.6697998046875 2.8250732421875
29.072265625 -1.7664794921875 34.480224609375
16.819580078125 -5.2586669921875 43.171142578125
-20.15185546875 1.8795166015625 24.786376953125
-1.0146484375 4.597412109375 52.626953125
1.54248046875 19.9180908203125 -56.8037109375
8.71142578125 -8.263427734375 51.21044921875
8.138427734375 18.5277099609375 11.5042724609375
28.629150390625 -1.38037109375 39.0537109375
-18.9931640625 -3.8460693359375 12.12353515625
0.77490234375 3.7598876953125 55.7926025390625
-3.273681640625 20.3883056640625 -55.3309326171875
21.401123046875 19.093017578125 -53.740234375
-8.4921875 -2.281494140625 11.91650390625
7.115234375 22.9710693359375 -2.2899169921875
7.498046875 5.541015625 28.7974853515625
22.6728515625 10.83740234375 -32.750732421875
3.210693359375 20.1053466796875 -59.4100341796875
22.185791015625 16.5225830078125 -46.744873046875
5.367431640625 8.1405029296875 27.4317626953125
-1.316162109375 12.864501953125 -39.554931640625
3.99462890625 24.5867919921875 -6.20556640625
-17.372802734375 -5.37939453125 23.8311767578125
2.85400390625 6.2930908203125 48.786865234375
7.1376953125 19.294921875 -14.1033935546875
18.35205078125 15.073486328125 -44.053466796875
4.456298828125 10.55224609375 31.0306396484375
-8.421142578125 1.6956787109375 23.0848388671875
-0.905029296875 9.5269775390625 -31.2008056640625
-22.1435546875 1.3865966796875 22.5733642578125
17.22802734375 12.6175537109375 -38.7750244140625
5.985107421875 24.565185546875 -14.9619140625
-9.709228515625 -5.279052734375 19.6331787109375
-22.2783203125 -2.3037109375 10.157470703125
13.7822265625 7.036865234375 27.077880859375
-1.28076171875 15.901611328125 -47.1126708984375
-21.697509765625 -5.0045166015625 17.2122802734375
6.175537109375 19.7252197265625 -10.4967041015625
19.882568359375 -5.955078125 40.8773193359375
10.37158203125 10.445556640625 -32.8704833984375
17.69287109375 27.6485595703125 -14.266357421875
16.271240234375 17.394775390625 16.4029541015625
2.845458984375 16.8641357421875 -49.2828369140625
13.2138671875 -3.60107421875 40.9090576171875
16.18994140625 -7.740478515625 48.377197265625
-0.494140625 7.7286376953125 -26.849365234375
-3.027587890625 14.573974609375 -42.906494140625
8.93115234375 22.6143798828125 -1.1129150390625
20.17236328125 10.8209228515625 -29.7220458984375
3.29150390625 19.7283935546875 8.8211669921875
1.886962890625 22.0548095703125 2.0233154296875
2.625244140625 22.9615478515625 -2.1986083984375
4.046875 11.5206298828125 -36.33837890625
14.80322265625 17.260986328125 -49.616943359375
12.84814453125 16.145263671875 -47.701416015625
15.553955078125 7.625 36.9283447265625
1.422119140625 8.5728759765625 41.23583984375
14.459228515625 20.4073486328125 6.9888916015625
-25.584228515625 1.8076171875 21.228271484375
7.8466796875 9.63818359375 32.4658203125
12.150146484375 19.3568115234375 9.1717529296875
14.51171875 18.6375732421875 12.94189453125
-0.1201171875 16.384765625 18.8173828125
13.543212890625 23.6229248046875 -8.524658203125
-1.8037109375 8.513916015625 -28.630126953125
4.90283203125 12.1361083984375 26.9671630859375
7.092529296875 9.1259765625 40.583251953125
9.884521484375 15.055908203125 20.8984375
-7.927978515625 -5.48486328125 21.1258544921875
-0.490234375 13.60400390625 26.515869140625
10.596923828125 6.7310791015625 31.679931640625
-30.479248046875 -0.5269775390625 5.3441162109375
1.67822265625 12.757568359375 28.51416015625
1.92529296875 18.067626953125 -52.681640625
-16.1748046875 -6.5556640625 20.967529296875
8.4404296875 19.4156494140625 -55.3023681640625
10.45068359375 17.902587890625 14.38037109375
16.83984375 13.71044921875 29.3052978515625
6.95068359375 15.9710693359375 20.2381591796875
4.94384765625 8.2647705078125 42.9849853515625
20.357421875 17.36376953125 -49.46826171875
-33.398681640625 -4.826904296875 13.123046875
1.46533203125 11.0382080078125 35.5096435546875
4.940185546875 11.0570068359375 35.5587158203125
13.055419921875 20.7109375 5.34423828125
4.22998046875 19.1864013671875 -55.594482421875
8.6806640625 -6.8072509765625 46.61865234375
-15.26513671875 2.0584716796875 3.08740234375
15.423583984375 11.9874267578125 -36.581298828125
10.245849609375 -6.7193603515625 44.8214111328125
10.48974609375 5.3282470703125 28.9200439453125
-22.274658203125 -1.548583984375 4.1195068359375
13.322265625 -8.0098876953125 50.3150634765625
-21.5517578125 -5.7230224609375 20.21142578125
18.948974609375 24.8948974609375 -7.1591796875
-1.326416015625 13.7591552734375 -42.031494140625
-24.138671875 2.00146484375 22.709716796875
25.925537109375 -2.8330078125 36.59765625
5.9287109375 22.4437255859375 -60.8621826171875
7.677490234375 11.496826171875 -35.9072265625
1.937255859375 7.475341796875 45.040283203125
-27.141357421875 -5.734619140625 18.7774658203125
2.74169921875 12.18603515625 32.283935546875
9.524169921875 20.7467041015625 -57.1845703125
12.07666015625 8.1822509765625 24.1478271484375
-16.786865234375 -2.6251220703125 5.76806640625
-5.99462890625 -5.0657958984375 17.92919921875
20.071044921875 -6.9263916015625 46.680908203125
-17.65625 -6.85791015625 14.5355224609375
14.193603515625 -5.821533203125 43.911376953125
-23.722900390625 -6.5274658203125 20.9908447265625
15.148193359375 25.90673828125 -12.278564453125
-31.525634765625 -8.1317138671875 20.8780517578125
2.33935546875 21.0050048828125 4.7841796875
-4.76806640625 -2.5504150390625 6.0294189453125
-27.50390625 -2.06201171875 8.2061767578125
15.7470703125 25.471923828125 -9.121337890625
12.821044921875 -5.48095703125 41.564208984375
2.7841796875 13.125244140625 -39.7064208984375
10.5068359375 14.1397705078125 -42.3328857421875
22.72119140625 11.7279052734375 -35.2127685546875
4.328125 16.2969970703125 19.6240234375
7.72021484375 19.3067626953125 9.68798828125
-20.135986328125 -6.063232421875 22.5850830078125
-11.5302734375 -3.307373046875 13.690673828125
4.973388671875 20.0321044921875 6.828125
0.004150390625 10.755859375 -34.2838134765625
1.63037109375 5.342529296875 51.8818359375
20.346435546875 10.484619140625 -32.3726806640625
6.99951171875 6.279296875 31.2822265625
13.948974609375 24.0540771484375 -4.6251220703125
7.596923828125 18.67626953125 -12.258056640625
7.530029296875 10.2879638671875 37.4752197265625
5.86083984375 11.847412109375 -37.10302734375
5.08154296875 16.914306640625 16.4306640625
-12.330810546875 -4.2784423828125 16.4454345703125
-0.360595703125 18.307373046875 -53.352783203125
-0.279296875 9.469482421875 39.2283935546875
9.575439453125 12.8402099609375 -38.7249755859375
19.989501953125 -7.90771484375 43.1201171875
9.542724609375 -7.6956787109375 49.455810546875
-3.03857421875 15.69091796875 -45.9093017578125
4.97265625 22.3221435546875 0.7322998046875
2.771728515625 21.8984375 -58.4129638671875
12.34912109375 11.5584716796875 23.2418212890625
12.236328125 18.9617919921875 11.407470703125
2.294677734375 13.9951171875 -42.57080078125
18.060791015625 23.895751953125 -3.747802734375
7.523193359375 22.8763427734375 -8.1114501953125
1.889892578125 26.1708984375 -8.4710693359375
4.5478515625 20.816650390625 4.9967041015625
3.1123046875 23.9061279296875 -4.197265625
4.98193359375 28.8682861328125 -16.561767578125
5.132568359375 16.8419189453125 -49.1275634765625
5.380859375 6.8515625 46.82080078125
-30.259521484375 -2.77197265625 11.5875244140625
19.587158203125 13.6611328125 -41.146240234375
-6.082763671875 -2.40771484375 10.391357421875
10.4345703125 21.9049072265625 2.811767578125
12.2392578125 17.5535888671875 15.5318603515625
2.71533203125 22.9327392578125 -61.9483642578125
-6.60009765625 0.3341064453125 22.65283203125
18.141845703125 9.9158935546875 -29.7164306640625
-18.803955078125 -5.3721923828125 17.35302734375
4.580322265625 14.399169921875 -43.4273681640625
-19.68603515625 -1.4324951171875 22.69970703125
-31.7353515625 -4.7041015625 17.0718994140625
10.433349609375 18.62890625 12.09912109375
-24.7705078125 -4.7955322265625 15.451171875
19.531005859375 -3.7364501953125 40.262451171875
16.62548828125 17.429443359375 -50.3660888671875
3.756591796875 18.43408203125 12.453857421875
10.37646484375 19.6630859375 8.45263671875
1.518798828125 20.0340576171875 8.1033935546875
23.717041015625 10.505859375 -29.6602783203125
-25.116943359375 -6.03564453125 18.591552734375
-11.80322265625 -5.6651611328125 20.7581787109375
1.952880859375 17.4698486328125 14.5389404296875
2.698486328125 6.8883056640625 -23.53076171875
-18.5751953125 -4.309814453125 8.3707275390625
0.412353515625 17.780517578125 11.196044921875
2.02197265625 21.3651123046875 -60.5057373046875
-0.680908203125 20.7257080078125 -58.0989990234375
8.24951171875 16.7352294921875 17.8294677734375
14.516357421875 16.9759521484375 17.958984375
-18.748779296875 -1.1121826171875 4.4722900390625
8.183837890625 13.7803955078125 -41.939697265625
3.4716796875 14.9814453125 23.33544921875
-33.481689453125 -2.040771484375 11.8453369140625
-26.823974609375 -0.809326171875 4.1104736328125
-2.684326171875 22.3095703125 -58.696533203125
11.16552734375 17.88818359375 -51.12451171875
-6.963623046875 0.2413330078125 3.692138671875
16.641357421875 -7.0784912109375 46.6407470703125
-6.4638671875 -6.0460205078125 19.794189453125
14.363037109375 18.5914306640625 -53.58544921875
9.346923828125 8.09033203125 44.628662109375
-23.9208984375 -3.750732421875 13.518310546875
-12.128662109375 1.81787109375 24.31884765625
17.85400390625 15.0531005859375 26.8907470703125
30.0673828125 -0.4273681640625 31.293701171875
8.1669921875 21.015380859375 4.9832763671875
-8.38232421875 -3.978515625 17.2030029296875
10.41845703125 19.98193359375 -8.8316650390625
16.364501953125 16.030517578125 21.7705078125
16.637451171875 9.9219970703125 -31.7698974609375
21.548095703125 15.0250244140625 -44.009521484375
-25.428466796875 -7.3031005859375 22.123779296875
0.611083984375 9.938232421875 -30.14599609375
10.429931640625 21.85595703125 -14.0968017578125
10.103271484375 8.28076171875 26.47265625
2.76416015625 3.53857421875 54.7969970703125
-18.62841796875 -7.4083251953125 18.8865966796875
13.40576171875 17.7406005859375 -51.392333984375
-24.53515625 -3.048583984375 10.12353515625
-18.974365234375 -4.6134033203125 13.91796875
10.901611328125 6.76171875 24.466064453125
19.814208984375 -6.86572265625 48.735595703125
30.951171875 -1.4691162109375 35.49560546875
18.694091796875 19.8746337890625 -55.4268798828125
16.206787109375 23.3323974609375 -2.540283203125
17.332763671875 -6.021728515625 41.151123046875
-1.24365234375 17.6324462890625 -51.2176513671875
-12.86767578125 -2.2994384765625 10.741943359375
-12.1513671875 -1.591064453125 7.5863037109375
-17.502685546875 3.299560546875 27.6380615234375
5.89453125 12.6949462890625 -39.112060546875
8.59814453125 22.3070068359375 1.1927490234375
15.149658203125 28.155517578125 -19.044189453125
5.650634765625 15.002685546875 23.0919189453125
3.296142578125 4.896484375 52.57568359375
4.6689453125 23.3631591796875 -61.8643798828125
11.715087890625 11.4200439453125 -35.9677734375
12.568603515625 18.491943359375 -11.493896484375
6.927001953125 15.4044189453125 -45.3514404296875
11.248291015625 9.746826171875 -31.0341796875
1.532958984375 23.6212158203125 -0.8509521484375
-0.530517578125 14.3101806640625 24.294921875
13.153564453125 12.480712890625 -38.207275390625
6.64599609375 24.08154296875 -5.5421142578125
17.654052734375 24.698974609375 -5.6258544921875
-25.4599609375 -2.3758544921875 21.4073486328125
23.570556640625 -6.88330078125 47.947998046875
13.96826171875 22.558837890625 -11.52001953125
-1.3671875 11.8507080078125 -37.50537109375
13.92431640625 19.5234375 8.5042724609375
21.3779296875 12.879150390625 -38.9259033203125
5.576171875 21.3236083984375 -11.1649169921875
15.759033203125 19.3394775390625 9.6361083984375
7.582275390625 13.667724609375 23.48583984375
18.119140625 26.2916259765625 -10.455078125
24.240478515625 12.7039794921875 -36.5345458984375
-18.7822265625 -1.9222412109375 24.3311767578125
25.464599609375 -5.34423828125 45.15283203125
10.90283203125 -5.3643798828125 43.7965087890625
-33.67578125 -7.160400390625 18.5020751953125
15.519287109375 13.4774169921875 -40.1104736328125
-2.513671875 14.128662109375 21.974609375
3.209716796875 8.7996826171875 41.441650390625
9.710205078125 19.6236572265625 -16.72216796875
-13.493408203125 -4.4736328125 22.8531494140625
1.423583984375 11.52978515625 33.7711181640625
-30.8779296875 -4.93310546875 21.9808349609375
16.264404296875 21.7469482421875 3.0404052734375
-21.0478515625 -3.1580810546875 11.4132080078125
0.244384765625 21.586669921875 -60.316162109375
-18.8154296875 -2.164794921875 5.9302978515625
6.508056640625 18.1378173828125 14.3580322265625
5.660888671875 22.800048828125 -14.1380615234375
1.91748046875 15.8084716796875 -46.60595703125
10.87890625 16.4085693359375 18.4451904296875
26.534423828125 0.83837890625 31.9390869140625
-30.413818359375 -5.99853515625 20.0191650390625
11.950927734375 20.8812255859375 -9.179931640625
22.975341796875 -3.541015625 39.880615234375
10.477783203125 9.0655517578125 39.8172607421875
-18.15380859375 -8.1365966796875 21.0093994140625
15.263671875 17.431396484375 14.774169921875
1.7177734375 17.0423583984375 18.0867919921875
1.6083984375 9.0726318359375 -26.51708984375
-24.263916015625 -5.1884765625 17.118896484375
-3.3623046875 12.35107421875 21.460205078125
27.681640625 2.3515625 30.37451171875
29.07373046875 -1.2998046875 32.758056640625
15.5576171875 15.33056640625 -45.5743408203125
-24.714599609375 2.654052734375 24.3529052734375
-7.59716796875 -2.96728515625 14.0244140625
0.477783203125 11.45703125 -35.8546142578125
-23.994873046875 1.5418701171875 2.5130615234375
8.751708984375 17.8603515625 15.4468994140625
-14.489990234375 -4.2093505859375 15.846435546875
3.029296875 14.2457275390625 25.19287109375
-8.6640625 -1.4674072265625 8.0032958984375
25.0087890625 -0.611083984375 33.9449462890625
21.979248046875 -1.8739013671875 38.1488037109375
-14.615966796875 -3.6748046875 13.265869140625
-30.561767578125 -3.3323974609375 13.8048095703125
3.693359375 7.7413330078125 44.831787109375
9.8203125 23.7747802734375 -4.5302734375
-17.22412109375 -5.5001220703125 11.7640380859375
-2.600341796875 11.2100830078125 -34.4942626953125
-14.719970703125 -2.5955810546875 9.74169921875
1.8115234375 12.543701171875 30.6473388671875
19.847900390625 17.8662109375 -51.834716796875
14.705078125 11.5118408203125 31.0797119140625
24.71923828125 -3.25048828125 39.2535400390625
-21.13525390625 -2.3094482421875 8.7611083984375
13.38720703125 20.0452880859375 -11.434326171875
11.76806640625 22.2183837890625 1.72021484375
6.74609375 9.7982177734375 -31.35888671875
1.589599609375 5.8172607421875 50.1971435546875
9.50830078125 12.0355224609375 -37.1734619140625
12.548583984375 29.7447509765625 -21.7672119140625
8.482421875 3.515380859375 30.6248779296875
-8.8720703125 -3.5814208984375 15.5242919921875
17.10302734375 17.986572265625 -51.9549560546875
-23.61474609375 -2.069580078125 9.012939453125
5.798583984375 -7.827880859375 50.2540283203125
12.71240234375 10.05224609375 37.7958984375
-2.979736328125 19.1612548828125 -54.133544921875
-21.32568359375 -4.14013671875 14.9512939453125
1.572021484375 7.087646484375 46.7740478515625
12.67529296875 -6.2099609375 47.3677978515625
4.56494140625 6.2008056640625 49.0340576171875
-6.22265625 -2.021484375 7.8079833984375
16.2470703125 27.740966796875 -15.4664306640625
5.945556640625 13.97314453125 -42.1422119140625
18.65869140625 12.5301513671875 -37.5809326171875
13.675048828125 10.47998046875 32.1619873046875
-22.524658203125 -1.4539794921875 5.8262939453125
24.336181640625 13.513916015625 -38.0924072265625
7.843994140625 16.5048828125 -48.4925537109375
15.695068359375 -3.840087890625 40.67529296875
-1.73291015625 23.1280517578125 -60.44287109375
1.8779296875 10.0921630859375 37.6748046875
-26.884521484375 -4.7637939453125 15.273681640625
11.422119140625 15.018310546875 -44.946533203125
11.01806640625 8.9669189453125 41.445068359375
16.798828125 11.520751953125 -34.8472900390625
-6.039306640625 -3.8382568359375 14.3997802734375
-21.97216796875 0.8260498046875 20.9630126953125
3.63330078125 9.9581298828125 38.343017578125
-13.120361328125 -0.6268310546875 4.14501953125
14.1376953125 14.4222412109375 -43.339111328125
8.70458984375 7.7098388671875 43.0693359375
-27.736328125 -2.894287109375 11.7315673828125
7.315673828125 20.4112548828125 -9.4244384765625
-25.55712890625 -2.2509765625 6.7435302734375
5.5625 8.25439453125 29.5076904296875
-33.186767578125 -2.9281005859375 7.7620849609375
-4.904541015625 -3.6146240234375 12.132568359375
17.414794921875 -6.5841064453125 44.0653076171875
9.034423828125 5.615478515625 31.564208984375
-0.50537109375 4.3475341796875 54.2353515625
-16.492431640625 -1.21630859375 24.8082275390625
-28.345458984375 -4.739013671875 17.5185546875
7.623779296875 8.1827392578125 44.380859375
4.4755859375 7.6597900390625 -25.6947021484375
3.55517578125 21.7164306640625 1.44189453125
12.514404296875 21.4027099609375 -56.36279296875
5.780029296875 20.101318359375 -56.039794921875
7.02587890625 9.452392578125 38.88037109375
16.0283203125 10.16064453125 35.327880859375
8.117431640625 10.276123046875 34.047607421875
-6.871826171875 -6.7152099609375 21.59912109375
20.220458984375 9.5203857421875 -30.79736328125
-27.96728515625 -6.9554443359375 21.122802734375
-32.78955078125 -5.1400146484375 15.5994873046875
11.669189453125 19.1036376953125 -54.2733154296875
7.2216796875 -8.3460693359375 48.5428466796875
1.788330078125 10.45068359375 -33.55029296875
4.216552734375 9.913330078125 -29.7125244140625
-32.021240234375 -2.6021728515625 10.508544921875
-14.730224609375 -1.8192138671875 7.9271240234375
-10.411865234375 0.2340087890625 3.67626953125
0.47900390625 7.1209716796875 -24.182373046875
14.02294921875 16.27392578125 19.4088134765625
7.004638671875 6.4830322265625 46.69091796875
-28.677978515625 0.0045166015625 5.4615478515625
10.301513671875 8.8763427734375 32.7156982421875
3.775390625 12.45166015625 28.32470703125
16.377685546875 21.036865234375 6.669189453125
23.143798828125 -7.43359375 43.9688720703125
-14.381103515625 1.2203369140625 24.2344970703125
24.80517578125 -3.8609619140625 42.6070556640625
10.0546875 18.764892578125 -9.9017333984375
17.345947265625 14.328369140625 -42.830078125
5.4013671875 22.832763671875 -11.8707275390625
14.49169921875 10.9605712890625 24.365966796875
13.52294921875 17.6907958984375 14.4984130859375
-27.714599609375 -4.00830078125 13.9993896484375
-9.81396484375 1.6187744140625 21.9935302734375
17.35400390625 23.539794921875 -0.0404052734375
-10.876220703125 -0.7734375 5.603759765625
8.63134765625 11.1287841796875 -34.1456298828125
6.543701171875 10.6240234375 24.4326171875
16.934814453125 12.8321533203125 33.2294921875
10.22265625 18.223876953125 -52.46630859375
14.6591796875 -6.437255859375 46.3731689453125
19.35205078125 23.3382568359375 -2.913818359375
2.39990234375 17.4420166015625 -50.7454833984375
-18.260009765625 -3.1690673828125 4.76708984375
14.05615234375 23.1153564453125 -0.4705810546875
21.252685546875 16.85693359375 -48.08203125
26.18115234375 -2.864013671875 40.2977294921875
22.013671875 -6.59375 48.892578125
-27.510498046875 1.6019287109375 23.5628662109375
13.966796875 10.7183837890625 -33.8489990234375
-31.988037109375 -4.253173828125 13.7003173828125
5.867431640625 21.1273193359375 3.912841796875
15.388427734375 30.7120361328125 -23.687255859375
25.599853515625 10.9990234375 -30.4576416015625
-10.691162109375 -3.9136962890625 14.9461669921875
0.367919921875 15.740234375 21.003173828125
2.689208984375 11.94189453125 -37.6103515625
-23.873046875 -1.023681640625 4.2193603515625
15.778076171875 29.4327392578125 -20.73779296875
28.904541015625 0.4395751953125 30.0565185546875
-26.64453125 -2.6697998046875 9.4683837890625
22.86279296875 13.4324951171875 -39.246826171875
3.322021484375 17.2171630859375 15.7200927734375
3.81982421875 25.35986328125 -10.35107421875
19.48974609375 11.65478515625 -35.6805419921875
5.189697265625 18.3653564453125 -52.739990234375
4.560546875 13.07421875 -39.93017578125
18.229736328125 13.356201171875 -39.9853515625
27.0400390625 -0.83837890625 32.9207763671875
7.74365234375 12.9801025390625 -39.4224853515625
18.012451171875 14.7469482421875 29.9053955078125
11.429443359375 16.188720703125 -48.4403076171875
6.947021484375 6.078125 25.8375244140625
0.449462890625 12.601318359375 -39.2752685546875
14.9814453125 24.9862060546875 -5.80419921875
3.725341796875 15.497802734375 -45.8590087890625
-23.72021484375 -1.760986328125 7.287353515625
4.968994140625 23.6761474609375 -8.3935546875
11.4033203125 13.6417236328125 -40.9691162109375
-25.327392578125 -3.9813232421875 12.4637451171875
-1.225830078125 19.8643798828125 -56.8720703125
-31.3486328125 -5.67041015625 18.420654296875
6.21923828125 8.0628662109375 -27.3392333984375
1.728759765625 13.5377197265625 27.1331787109375
24.271240234375 11.8887939453125 -33.1868896484375
12.142333984375 10.857666015625 -34.543701171875
-0.434814453125 10.223388671875 -32.76025390625
8.558349609375 8.9903564453125 -28.731689453125
21.7548828125 17.6312255859375 -50.183837890625
12.185791015625 23.0867919921875 -6.9241943359375
9.78125 22.6396484375 -7.4486083984375
11.75048828125 19.8092041015625 -14.3209228515625
14.919189453125 11.281494140625 -35.0006103515625
10.914794921875 20.7613525390625 6.4639892578125
5.785400390625 9.9539794921875 -32.6141357421875
23.130615234375 -2.03466796875 36.8026123046875
5.8046875 10.583251953125 36.78369140625
4.348388671875 11.4461669921875 32.6234130859375
3.337646484375 10.8203125 -32.0382080078125
12.17236328125 5.7568359375 26.9957275390625
-14.773681640625 -6.326904296875 22.0186767578125
19.46435546875 -7.07275390625 50.414794921875
-0.497314453125 8.806884765625 -29.7550048828125
-10.6015625 -4.7935791015625 17.9957275390625
8.148193359375 15.1046142578125 21.0845947265625
6.43896484375 19.16748046875 10.7296142578125
11.1826171875 10.18408203125 34.5748291015625
-29.639892578125 0.176513671875 21.50732421875
21.519287109375 14.333740234375 -42.013916015625
5.977783203125 7.4364013671875 26.1881103515625
6.23046875 8.9659423828125 25.1119384765625
0.7236328125 14.4422607421875 23.2838134765625
14.85595703125 22.052978515625 1.3853759765625
22.100341796875 -7.002197265625 45.6650390625
13.48291015625 15.2001953125 21.340087890625
11.405517578125 13.17041015625 -39.496337890625
14.70849609375 14.499267578125 22.1590576171875
16.7138671875 28.5877685546875 -17.9554443359375
0.560791015625 16.8863525390625 -49.43798828125
10.175537109375 -8.0343017578125 47.804931640625
-20.762451171875 1.6585693359375 23.2152099609375
4.457275390625 24.620361328125 -11.6385498046875
2.573974609375 15.7181396484375 21.190185546875
4.51513671875 25.452880859375 -13.1484375
9.795654296875 19.0262451171875 -54.461669921875
-22.5458984375 -3.482421875 14.1531982421875
4.359619140625 27.6488037109375 -15.34716796875
-32.16015625 -2.4505615234375 8.8206787109375
23.67578125 -4.6451416015625 41.5732421875
-18.21875 -3.4927978515625 24.48828125
1.43310546875 39.6956787109375 -48.523193359375
16.915283203125 15.208984375 25.6871337890625
2.629638671875 26.8804931640625 -12.283935546875
14.31884765625 24.805908203125 -7.932861328125
2.087158203125 14.4005126953125 23.9940185546875
14.232666015625 31.716552734375 -23.7427978515625
-16.978515625 -7.2777099609375 18.263916015625
29.227294921875 -1.6077880859375 36.1097412109375
-34.11767578125 -4.90966796875 14.4693603515625
13.431640625 8.140869140625 24.8536376953125
4.058837890625 11.0555419921875 -34.882568359375
10.60009765625 17.03564453125 -49.9156494140625
20.42138671875 19.25830078125 -55.0433349609375
5.75341796875 12.5650634765625 25.541015625
16.271728515625 16.20751953125 20.031494140625
10.845947265625 15.7794189453125 19.8309326171875
-16.21923828125 -3.5654296875 23.4451904296875
-6.016845703125 -4.453125 16.1676025390625
9.379638671875 5.8443603515625 29.8172607421875
12.310546875 21.137939453125 -16.886962890625
0.520751953125 12.909912109375 29.8936767578125
3.671142578125 9.4708251953125 40.067626953125
22.92138671875 -6.1268310546875 42.2191162109375
-2.5849609375 12.0523681640625 -36.488525390625
24.646484375 -6.7108154296875 44.5570068359375
11.80029296875 5.1279296875 29.6446533203125
15.093994140625 9.415771484375 36.7750244140625
-22.220458984375 -3.11376953125 12.3817138671875
-9.478515625 -2.25634765625 10.34033203125
-30.0263671875 -4.1099853515625 16.3670654296875
-25.58984375 -1.474853515625 4.9251708984375
5.033447265625 4.961181640625 52.8055419921875
-20.779541015625 -1.78125 6.943359375
13.099853515625 10.89892578125 34.709716796875
-11.32080078125 2.22265625 22.9158935546875
14.3994140625 9.4423828125 -30.0296630859375
1.8798828125 24.8048095703125 -5.097900390625
-16.164306640625 -1.2733154296875 5.0411376953125
13.02978515625 9.9039306640625 -31.7481689453125
-20.81787109375 -6.7413330078125 21.1064453125
25.11376953125 -7.5867919921875 48.2655029296875
16.36572265625 -4.865966796875 41.5374755859375
-32.786865234375 -7.7890625 20.146484375
29.742919921875 0.687255859375 28.67578125
-18.580322265625 -5.6221923828125 15.69970703125
-8.787353515625 -4.4630126953125 18.5745849609375
-10.31787109375 -3.1966552734375 12.693115234375
2.30908203125 13.52392578125 -41.0977783203125
4.181396484375 6.8883056640625 47.7674560546875
5.76953125 5.6343994140625 28.552978515625
-15.469970703125 -4.377197265625 14.730712890625
6.057373046875 15.36865234375 21.710205078125
-18.115234375 -1.45556640625 2.7584228515625
5.33056640625 20.8287353515625 -12.8302001953125
10.61962890625 -6.8883056640625 50.078369140625
-18.821533203125 -6.1033935546875 23.2696533203125
-28.6640625 -6.8836669921875 22.4285888671875
-31.836181640625 -1.1873779296875 5.619384765625
4.3251953125 13.8768310546875 25.95263671875
13.3916015625 -7.2960205078125 49.0250244140625
2.3251953125 21.481201171875 3.388671875
-30.8193359375 -1.600830078125 8.0992431640625
5.05712890625 15.590576171875 -46.5184326171875
14.038818359375 21.457275390625 4.2294921875
-29.514892578125 -1.7969970703125 8.8199462890625
-16.881591796875 -6.097412109375 16.8270263671875
-16.6142578125 -3.781005859375 10.15625
0.938232421875 20.618408203125 5.010009765625
-14.221435546875 -2.9949951171875 11.43212890625
11.522705078125 -6.9114990234375 45.523193359375
17.74609375 13.1427001953125 31.406494140625
8.0869140625 -8.63330078125 49.6947021484375
-26.961669921875 -3.770263671875 12.6201171875
13.7744140625 16.553955078125 -48.8453369140625
8.592041015625 19.755615234375 8.2059326171875
0.5322265625 19.204345703125 -56.0177001953125
12.73779296875 13.7327880859375 -41.622802734375
7.78564453125 20.8043212890625 6.380126953125
-17.15478515625 -5.9556884765625 13.501220703125
2.796630859375 19.0107421875 -55.8165283203125
9.8642578125 6.7130126953125 27.9691162109375
5.044677734375 19.6815185546875 8.6263427734375
