4.08251953125 21.0074462890625 2.87353515625
4.66943359375 27.99365234375 -14.7890625
3.6953125 16.873291015625 -48.2733154296875
8.033203125 6.70654296875 36.006591796875
8.58056640625 12.6954345703125 -38.896240234375
15.242919921875 20.5849609375 17.5238037109375
-18.631103515625 -4.620849609375 13.9735107421875
17.50244140625 13.8721923828125 -41.831298828125
5.245361328125 6.7432861328125 45.4056396484375
7.331298828125 14.034912109375 23.0919189453125
-23.072265625 -3.380126953125 24.6513671875
17.323974609375 10.4068603515625 -32.5015869140625
13.823486328125 15.2989501953125 21.2513427734375
1.728759765625 6.4925537109375 46.2447509765625
-1.496826171875 17.2498779296875 -50.0191650390625
-27.512939453125 -7.028076171875 21.073974609375
13.189208984375 30.6036376953125 -21.62548828125
5.032958984375 14.6868896484375 -42.6805419921875
1.93017578125 14.899658203125 20.9013671875
-18.357666015625 -6.7205810546875 21.6595458984375
16.64013671875 22.1602783203125 0.669677734375
0.5048828125 26.2252197265625 -9.694091796875
2.8525390625 7.1903076171875 -25.17041015625
-23.5263671875 -6.7755126953125 21.8470458984375
-12.96728515625 -1.270751953125 6.09619140625
-24.46533203125 -2.6053466796875 7.7657470703125
25.3359375 11.0518798828125 -26.7410888671875
10.7978515625 7.4134521484375 40.8240966796875
13.523193359375 9.0511474609375 -29.34130859375
9.724365234375 18.258056640625 -11.043212890625
9.049560546875 21.80810546875 -0.6331787109375
9.797607421875 -7.4034423828125 44.2010498046875
23.154541015625 16.325439453125 -43.71142578125
17.857421875 -5.828125 41.8431396484375
16.747802734375 -8.1832275390625 46.521240234375
28.045654296875 2.8004150390625 29.55126953125
19.200927734375 17.446044921875 -50.12158203125
-36.207275390625 -3.4732666015625 18.03271484375
-7.937744140625 -9.242919921875 23.0185546875
6.128173828125 7.9072265625 42.1309814453125
28.5068359375 -1.4267578125 39.2332763671875
10.240966796875 17.478271484375 -50.30517578125
2.331298828125 9.4375 34.9361572265625
1.2470703125 21.3890380859375 0.861083984375
25.9638671875 0.958740234375 32.239990234375
-32.963134765625 -1.7164306640625 8.198486328125
16.29638671875 12.556884765625 32.4971923828125
16.237548828125 24.76220703125 -6.7181396484375
15.9501953125 18.0028076171875 -51.248291015625
2.16552734375 13.79052734375 -41.111328125
12.02392578125 23.0205078125 -1.69287109375
22.285400390625 13.197509765625 -38.07421875
5.74951171875 11.466064453125 -35.8609619140625
-21.990478515625 -6.19482421875 18.552978515625
0.087158203125 20.7447509765625 -57.41796875
19.09326171875 8.2384033203125 -26.18603515625
19.5537109375 -8.2193603515625 43.256591796875
-19.1982421875 -3.437255859375 9.903076171875
-21.1689453125 -8.81982421875 23.6356201171875
21.45654296875 19.5390625 -52.4351806640625
0.490966796875 24.4327392578125 -5.1593017578125
6.94140625 21.5101318359375 -3.07177734375
-13.82421875 -4.831787109375 24.6805419921875
3.451904296875 19.9989013671875 -7.8516845703125
13.6650390625 10.6309814453125 33.50830078125
11.394775390625 5.005126953125 32.8310546875
23.938232421875 -4.258056640625 41.401123046875
6.1943359375 9.5396728515625 -30.33154296875
8.81298828125 -4.6483154296875 45.64208984375
-30.357177734375 -0.483154296875 5.8851318359375
0.468505859375 19.6142578125 7.212158203125
-10.089599609375 -6.855224609375 22.434814453125
6.032470703125 17.218994140625 -8.0611572265625
5.149658203125 17.21630859375 15.2130126953125
12.517578125 28.1409912109375 -16.7581787109375
7.823974609375 4.1767578125 29.4300537109375
8.962890625 19.1136474609375 -5.6004638671875
-32.91845703125 -6.60302734375 22.0657958984375
4.63427734375 18.378173828125 -52.6209716796875
15.4375 20.3746337890625 -53.254150390625
-26.4423828125 0.02734375 23.606689453125
6.40625 19.329833984375 7.9134521484375
0.02294921875 16.491943359375 15.4906005859375
0.9638671875 18.3565673828125 11.001953125
13.561767578125 -5.9044189453125 43.17041015625
13.198974609375 17.7445068359375 -49.3614501953125
21.57763671875 -2.1375732421875 37.9310302734375
9.962890625 8.871826171875 37.2320556640625
6.76513671875 4.28173828125 32.5833740234375
6.155029296875 7.338134765625 -24.2645263671875
-33.6845703125 -3.2550048828125 12.4986572265625
-27.1328125 -2.1397705078125 6.2528076171875
19.687255859375 16.6336669921875 -47.1142578125
-22.94921875 0.8406982421875 26.9547119140625
-14.717529296875 0.44482421875 27.368896484375
12.181640625 11.0660400390625 -35.234375
8.74169921875 21.3267822265625 2.7044677734375
20.406494140625 13.9566650390625 -40.8358154296875
-4.439208984375 20.9630126953125 -55.8721923828125
-15.531982421875 -2.0667724609375 8.7581787109375
3.690185546875 20.23583984375 5.80078125
-8.2080078125 9.339111328125 26.065673828125
11.495361328125 14.05419921875 -41.5235595703125
31.23193359375 -0.68310546875 30.588623046875
15.172607421875 13.343505859375 -39.96337890625
-30.017578125 -3.6431884765625 24.6453857421875
9.428955078125 18.878662109375 -52.9576416015625
6.796630859375 -6.731201171875 48.242919921875
-11.123779296875 0.23095703125 23.9573974609375
-22.1845703125 -3.0206298828125 9.750732421875
0.43212890625 16.718994140625 -47.7747802734375
0.3935546875 8.6337890625 40.4862060546875
-27.7421875 -4.293701171875 13.2755126953125
15.779296875 26.3704833984375 -11.644775390625
8.859375 8.2479248046875 -27.60205078125
10.16748046875 15.3643798828125 20.767333984375
-33.89501953125 -5.59716796875 19.000732421875
16.734375 15.4884033203125 -44.9803466796875
-16.018798828125 -6.6497802734375 23.5218505859375
1.02294921875 6.3607177734375 -22.89892578125
-31.21826171875 -2.8428955078125 10.382080078125
-8.22314453125 -4.4044189453125 12.6827392578125
5.3232421875 20.9056396484375 -57.2506103515625
11.938232421875 18.56884765625 10.5655517578125
-36.799560546875 -9.1650390625 21.693359375
7.48583984375 10.0235595703125 -32.9437255859375
-1.338134765625 34.250244140625 -41.572998046875
13.462158203125 15.863525390625 -46.0469970703125
1.619384765625 10.0999755859375 -31.70654296875
1.90576171875 11.2520751953125 30.332763671875
17.8544921875 11.4534912109375 -35.1639404296875
22.541259765625 9.8121337890625 -28.8681640625
4.65966796875 12.892822265625 26.6826171875
1.9697265625 28.7476806640625 -15.5433349609375
-22.008056640625 -4.9447021484375 15.7384033203125
23.276611328125 12.0740966796875 -33.2398681640625
-2.537353515625 11.812744140625 -36.68359375
-4.2919921875 18.70361328125 -53.8302001953125
-0.337158203125 6.017578125 49.1025390625
-9.73046875 -1.6610107421875 8.8521728515625
16.322265625 9.296142578125 -29.77392578125
7.315185546875 21.0596923828125 -14.5714111328125
4.7275390625 19.1015625 -12.4342041015625
2.76953125 22.90576171875 -1.4541015625
-30.052978515625 -7.4908447265625 22.3109130859375
-45.977783203125 0.130126953125 -70.957763671875
-3.1865234375 36.9537353515625 -47.818115234375
30.553955078125 -0.670166015625 33.707275390625
16.777099609375 29.3843994140625 -20.4002685546875
-0.997802734375 10.4078369140625 35.1644287109375
-13.345458984375 -3.6060791015625 12.279541015625
-5.078857421875 15.97314453125 -44.9144287109375
5.694091796875 7.6500244140625 37.4361572265625
11.347900390625 -7.691650390625 48.302490234375
22.552978515625 -7.591552734375 46.2498779296875
-2.271240234375 5.99072265625 -23.2916259765625
4.642822265625 14.694091796875 21.5133056640625
-18.5107421875 -5.232666015625 16.671142578125
-19.38330078125 -2.9595947265625 26.3045654296875
-5.10888671875 17.02685546875 -48.0277099609375
-0.02734375 7.315673828125 44.1707763671875
6.26708984375 -9.310546875 49.0469970703125
10.6318359375 15.3134765625 -44.56298828125
-36.309814453125 -5.9390869140625 16.7716064453125
-1.53955078125 11.7193603515625 30.6490478515625
-2.537841796875 10.1005859375 -32.072265625
-1.036865234375 15.328369140625 -44.8353271484375
6.13916015625 4.503662109375 35.2281494140625
13.7822265625 22.0130615234375 0.1268310546875
-0.535888671875 18.4013671875 -52.849365234375
13.3720703125 10.409912109375 36.204833984375
-22.13623046875 -0.8311767578125 24.9779052734375
26.186279296875 -1.9681396484375 33.51123046875
-8.4501953125 1.7255859375 26.009033203125
-12.29248046875 -4.1939697265625 15.7425537109375
3.827880859375 25.567626953125 -12.765869140625
-27.535400390625 -8.3740234375 23.4501953125
-19.439208984375 -6.7181396484375 19.205078125
-19.90869140625 0.1141357421875 28.448974609375
10.378662109375 10.56298828125 -33.0018310546875
10.054931640625 17.761962890625 12.287841796875
15.361083984375 27.869873046875 -15.6533203125
12.68359375 8.9732666015625 31.6640625
17.551513671875 27.7069091796875 -17.306884765625
7.426513671875 16.653076171875 16.83984375
8.377685546875 16.7750244140625 -47.9527587890625
18.617919921875 12.3438720703125 34.0352783203125
9.583984375 3.08740234375 32.446044921875
12.386962890625 16.796875 15.787109375
17.562744140625 23.552734375 -3.862060546875
15.47802734375 -4.708251953125 41.52294921875
21.591796875 10.5255126953125 -31.704833984375
-0.790771484375 17.8441162109375 13.1041259765625
-9.35693359375 -5.8189697265625 18.2850341796875
20.462890625 -5.9842529296875 42.0086669921875
14.481689453125 13.796630859375 28.53515625
-7.181640625 6.087158203125 25.15673828125
-0.76416015625 14.822998046875 21.2252197265625
24.69970703125 -3.678955078125 43.811767578125
-28.681884765625 -3.3212890625 10.5997314453125
1.49560546875 13.53369140625 24.727783203125
-14.098876953125 -5.2352294921875 17.445068359375
29.16943359375 0.29736328125 29.3643798828125
2.0810546875 9.252197265625 32.36767578125
-2.0126953125 8.5902099609375 -27.1561279296875
8.8779296875 20.4522705078125 6.9578857421875
22.127685546875 16.6470947265625 -46.0289306640625
-1.2724609375 4.112060546875 53.279052734375
-11.9208984375 -8.04150390625 24.1375732421875
3.26513671875 21.8724365234375 -9.599853515625
17.538818359375 -9.6689453125 44.51318359375
-23.82177734375 -3.6795654296875 12.252197265625
26.35546875 -2.9853515625 39.6790771484375
2.467529296875 24.9234619140625 -10.598876953125
-28.060791015625 -6.3267822265625 18.4371337890625
1.901611328125 5.379638671875 -20.5018310546875
-18.761962890625 -2.315673828125 7.4481201171875
7.24755859375 13.5850830078125 -40.818603515625
2.270751953125 5.650146484375 49.72998046875
-9.809814453125 -3.0499267578125 11.313232421875
14.2705078125 20.0919189453125 6.37744140625
-15.12060546875 -2.7154541015625 24.9095458984375
-0.041015625 25.0133056640625 -7.521484375
-32.559814453125 -3.3287353515625 24.4595947265625
13.817626953125 14.5048828125 23.611083984375
-22.17236328125 -1.7989501953125 7.32763671875
6.5576171875 22.138916015625 1.9002685546875
4.75390625 8.4698486328125 40.0340576171875
-2.20458984375 35.46923828125 -43.6939697265625
9.952880859375 5.863037109375 34.609130859375
-17.403564453125 0.1099853515625 27.29931640625
11.31201171875 21.530517578125 -6.3809814453125
-3.31494140625 14.043212890625 -40.889892578125
15.0654296875 -7.4444580078125 44.9111328125
-11.2822265625 -5.567626953125 20.62939453125
22.15771484375 12.0924072265625 -35.9036865234375
0.817626953125 9.961669921875 36.774169921875
8.283203125 8.0133056640625 41.015869140625
4.140380859375 15.7125244140625 -45.1849365234375
17.76025390625 -8.34326171875 48.970458984375
10.820068359375 11.7755126953125 -37.0960693359375
5.952880859375 5.40380859375 30.3265380859375
-16.423828125 -0.588134765625 25.139892578125
2.23583984375 4.3055419921875 52.8896484375
2.630126953125 8.8292236328125 -26.9111328125
13.7626953125 -8.4349365234375 48.139404296875
14.179443359375 18.1148681640625 11.2862548828125
23.460693359375 -2.923828125 36.11083984375
22.44677734375 -4.365234375 39.43408203125
-27.43994140625 -2.61181640625 8.568359375
-24.160888671875 -6.864990234375 24.508056640625
-20.292724609375 -6.3194580078125 13.6204833984375
0.704345703125 22.0850830078125 -59.327392578125
11.150146484375 19.9385986328125 8.1444091796875
-3.52197265625 7.41845703125 -25.7547607421875
-34.913818359375 -7.8167724609375 21.231689453125
-16.046875 -5.77099609375 21.22412109375
-20.891845703125 -5.30615234375 9.594970703125
12.846435546875 28.3416748046875 -19.1954345703125
2.560791015625 12.75927734375 -39.024658203125
17.97216796875 24.701904296875 -8.315185546875
6.984619140625 18.3297119140625 -52.4625244140625
21.787353515625 -7.791748046875 48.4757080078125
-2.822998046875 18.3331298828125 -52.0299072265625
14.7880859375 24.0001220703125 -4.9959716796875
0.290771484375 20.809326171875 -55.06591796875
2.032470703125 10.792236328125 -34.255615234375
3.547119140625 5.5260009765625 33.193115234375
28.51025390625 -1.7471923828125 34.08837890625
-21.35986328125 -4.495361328125 26.785888671875
-2.000244140625 10.7073974609375 33.045166015625
-26.23291015625 -4.6053466796875 16.182373046875
-32.093505859375 -7.779296875 23.882568359375
-30.621826171875 -4.603515625 15.4114990234375
-0.644775390625 13.5892333984375 25.8487548828125
13.67236328125 8.950927734375 -27.02294921875
11.65966796875 9.5108642578125 -31.0579833984375
0.227294921875 11.6021728515625 -36.0755615234375
16.454833984375 12.277099609375 -37.98974609375
9.69482421875 -7.966064453125 50.1986083984375
18.082275390625 8.5447998046875 -28.43798828125
4.336669921875 21.1971435546875 -5.9058837890625
4.755859375 19.6912841796875 -54.912353515625
-1.8037109375 4.6800537109375 50.70654296875
4.18212890625 17.7135009765625 -50.4693603515625
-10.10791015625 -4.46142578125 16.399169921875
12.362060546875 20.6768798828125 3.7601318359375
-2.875 14.92626953125 -43.5311279296875
8.138671875 18.5623779296875 -8.603515625
-5.021240234375 11.69775390625 -33.0596923828125
-2.94091796875 11.117431640625 -34.1263427734375
5.998046875 16.64599609375 -48.060302734375
-3.904052734375 9.1011962890625 -29.3310546875
3.665283203125 17.975830078125 11.6517333984375
7.465576171875 16.8564453125 -6.3319091796875
8.724609375 15.55029296875 -45.7799072265625
15.89111328125 10.7657470703125 -34.26171875
9.11962890625 20.285400390625 4.6812744140625
-19.953857421875 -8.0286865234375 25.924560546875
-44.323974609375 -1.3892822265625 -69.7879638671875
17.588623046875 22.899658203125 -1.42919921875
1.294921875 14.75439453125 -43.1229248046875
23.669677734375 11.24560546875 -24.7091064453125
-14.39892578125 -5.5384521484375 19.69580078125
10.594970703125 18.6949462890625 -7.0980224609375
10.80712890625 9.15234375 -29.0030517578125
4.724365234375 15.7764892578125 19.5406494140625
9.679443359375 23.1246337890625 -2.3465576171875
0.17529296875 11.986328125 29.0955810546875
9.946533203125 4.11181640625 28.326904296875
4.897705078125 22.503662109375 -2.5562744140625
-8.332275390625 -2.8900146484375 7.599609375
3.864013671875 17.7362060546875 -7.895751953125
12.668701171875 -4.68017578125 44.80712890625
12.50439453125 16.23046875 19.012451171875
19.1171875 13.7047119140625 30.246337890625
16.72412109375 14.0841064453125 27.3515625
11.833251953125 22.958740234375 -3.96240234375
19.682373046875 11.6734619140625 -36.402099609375
-12.96630859375 1.17919921875 25.7493896484375
11.312744140625 18.5985107421875 -9.4703369140625
9.733642578125 17.0645751953125 16.051513671875
-2.310302734375 20.3719482421875 -56.9700927734375
3.509765625 4.243408203125 30.7777099609375
8.572265625 4.8148193359375 31.430419921875
3.573486328125 8.7799072265625 30.0810546875
9.7275390625 9.0428466796875 39.4144287109375
-24.059814453125 -4.8714599609375 16.83544921875
0.7177734375 14.8118896484375 22.8358154296875
1.542724609375 15.911865234375 18.9932861328125
-16.6904296875 -3.610107421875 13.9891357421875
7.591796875 11.860107421875 -37.14501953125
20.4541015625 8.6103515625 -27.8421630859375
-25.59521484375 -6.6533203125 22.4979248046875
2.328125 16.6170654296875 15.6470947265625
-33.672607421875 -4.2537841796875 14.417236328125
21.91455078125 14.8760986328125 -42.6949462890625
19.56298828125 10.0062255859375 -32.2388916015625
8.05224609375 8.0650634765625 -25.606689453125
5.458984375 15.8511962890625 17.2052001953125
2.61376953125 8.582763671875 40.685791015625
3.258544921875 22.154296875 0.9254150390625
-15.0830078125 -0.93701171875 6.2906494140625
-33.2099609375 -1.8641357421875 10.4373779296875
-11.184326171875 -1.6544189453125 7.271240234375
5.658935546875 2.8914794921875 33.78125
0.51171875 3.6787109375 54.8465576171875
3.859619140625 9.4190673828125 -30.4517822265625
3.603759765625 6.6019287109375 47.3223876953125
-34.79296875 -1.6605224609375 7.1026611328125
6.450927734375 4.7347412109375 27.314453125
10.688720703125 -7.993408203125 46.2989501953125
-18.193359375 -3.7171630859375 12.0137939453125
12.34912109375 22.56689453125 -8.1072998046875
-3.80322265625 17.240966796875 -49.691650390625
15.406494140625 9.8968505859375 -31.654541015625
-22.432861328125 -4.0084228515625 13.8836669921875
13.868408203125 14.180419921875 -41.4110107421875
21.266845703125 18.2801513671875 -50.6334228515625
-19.4560546875 -8.3233642578125 22.493896484375
21.014404296875 -8.0648193359375 44.7777099609375
-23.514404296875 -5.78662109375 19.9534912109375
-14.229248046875 -2.88720703125 10.505859375
-25.348876953125 -3.7572021484375 24.1201171875
-30.124267578125 -5.422607421875 17.6591796875
-33.20263671875 -1.4263916015625 23.35009765625
5.623046875 18.3111572265625 -10.5360107421875
19.547119140625 -7.8450927734375 47.873291015625
15.853759765625 22.1337890625 2.6070556640625
-16.13232421875 -4.3724365234375 17.0994873046875
6.9248046875 15.266357421875 -44.0369873046875
9.61181640625 13.7105712890625 -40.7056884765625
-4.1328125 35.653076171875 -44.4432373046875
13.259033203125 25.450927734375 -11.1370849609375
-25.588134765625 -5.6649169921875 20.607421875
23.98095703125 14.47412109375 -38.623779296875
17.71435546875 16.162841796875 -46.7164306640625
2.579833984375 21.906982421875 -6.7523193359375
13.839111328125 24.686767578125 -7.3330078125
3.35888671875 20.4259033203125 -56.8360595703125
18.08056640625 14.8236083984375 -43.5731201171875
-31.2197265625 -4.31201171875 8.490966796875
0.30126953125 13.4483642578125 -40.2967529296875
-6.739990234375 8.205078125 25.2017822265625
18.04541015625 26.2664794921875 -12.3756103515625
-24.833984375 0.7835693359375 25.453857421875
-13.62939453125 -1.1572265625 8.3525390625
13.85400390625 21.54345703125 2.5015869140625
6.378173828125 17.3082275390625 13.2523193359375
10.501708984375 17.0849609375 14.157470703125
14.872802734375 29.56591796875 -21.1402587890625
-17.223388671875 -2.2578125 9.875732421875
9.196533203125 14.541259765625 22.351318359375
7.635009765625 19.364990234375 -11.4736328125
1.299560546875 23.333984375 -3.6566162109375
14.205078125 12.6795654296875 -38.253662109375
-21.978759765625 -7.0240478515625 20.419677734375
4.0390625 8.48974609375 36.6285400390625
0.524169921875 8.8148193359375 -30.318359375
17.54736328125 13.468994140625 -39.849609375
-14.1435546875 -8.0947265625 23.5478515625
25.595458984375 -3.3057861328125 36.3612060546875
-24.255859375 -2.526611328125 9.90869140625
24.89990234375 12.6463623046875 -32.19189453125
28.7958984375 -1.44091796875 37.0438232421875
8.695068359375 15.60400390625 18.6617431640625
16.66796875 25.557373046875 -9.722900390625
0.4697265625 17.662841796875 -49.9329833984375
4.35107421875 7.3167724609375 43.6995849609375
-2.4990234375 12.9649658203125 -39.318359375
7.568359375 20.82666015625 -4.8525390625
8.28515625 18.28662109375 11.5009765625
3.94921875 11.2474365234375 -34.6292724609375
5.484130859375 13.2498779296875 24.7608642578125
5.90234375 20.6541748046875 3.632568359375
11.749267578125 9.248291015625 36.1092529296875
24.219482421875 10.7835693359375 -28.390869140625
-21.06640625 -7.82958984375 17.874267578125
1.520263671875 19.4141845703125 -53.41943359375
18.255126953125 -4.009521484375 41.1270751953125
0.93212890625 18.9329833984375 9.09375
5.07470703125 18.9420166015625 9.5030517578125
15.575927734375 13.7774658203125 31.0731201171875
12.52783203125 16.482666015625 -47.9796142578125
22.04931640625 -4.8319091796875 41.6824951171875
-25.882568359375 -3.397216796875 12.8831787109375
6.92138671875 21.3140869140625 -56.1494140625
-2.628662109375 5.7103271484375 -21.3516845703125
2.27978515625 16.3616943359375 -46.9903564453125
15.227783203125 26.7786865234375 -13.99853515625
12.76611328125 -3.6822509765625 42.9598388671875
8.4228515625 22.49169921875 1.1475830078125
-1.225341796875 37.5306396484375 -48.7265625
-34.5048828125 -5.212158203125 16.4215087890625
3.228271484375 15.2193603515625 -43.512451171875
-30.966064453125 -1.790283203125 24.872314453125
-2.497314453125 34.9400634765625 -40.1431884765625
2.951416015625 14.818603515625 22.578125
13.684326171875 -9.4593505859375 50.382080078125
11.427734375 -6.19775390625 44.7144775390625
3.3115234375 8.2896728515625 33.6842041015625
7.565185546875 9.06591796875 -29.0118408203125
-9.38916015625 -4.4644775390625 14.575439453125
8.42333984375 18.0169677734375 -51.1485595703125
-18.93115234375 -0.5828857421875 26.292724609375
2.533203125 6.8326416015625 44.390380859375
5.7333984375 9.4329833984375 38.4891357421875
19.788330078125 18.4140625 -51.8980712890625
4.217041015625 6.721435546875 -23.8636474609375
3.249755859375 12.0125732421875 28.3038330078125
1.161376953125 12.259521484375 -37.769775390625
-1.431396484375 8.6375732421875 39.8167724609375
11.563232421875 9.0390625 40.086669921875
3.980712890625 12.4542236328125 -37.7374267578125
8.04150390625 8.3199462890625 37.0841064453125
-1.157958984375 21.906005859375 -58.52783203125
17.861572265625 13.67333984375 31.718994140625
7.0576171875 7.4981689453125 43.8172607421875
0.78076171875 9.0791015625 38.644775390625
0.033203125 22.5240478515625 -0.1258544921875
-27.932861328125 1.18505859375 24.01708984375
-32.16748046875 -5.141357421875 18.2828369140625
5.848388671875 -9.871337890625 50.840576171875
4.48486328125 19.1556396484375 7.267822265625
17.30517578125 17.3311767578125 -49.82568359375
-5.09375 11.995361328125 24.843017578125
1.793212890625 20.00341796875 5.617919921875
6.156005859375 6.32568359375 35.8330078125
8.011962890625 4.881591796875 35.400634765625
-29.212890625 -6.5428466796875 20.3314208984375
7.328369140625 18.72021484375 9.727294921875
14.47509765625 16.7171630859375 -47.8380126953125
1.20751953125 5.3946533203125 48.15869140625
-9.707763671875 0.0606689453125 25.556640625
19.458740234375 23.6123046875 -3.64453125
16.198486328125 14.711669921875 -43.28466796875
-22.6669921875 -7.63720703125 23.60888671875
4.78955078125 7.8082275390625 -25.57373046875
0.057861328125 21.7017822265625 2.3175048828125
5.451904296875 21.465087890625 -4.2579345703125
3.604248046875 19.77001953125 -11.0489501953125
-16.37158203125 -7.06103515625 25.34765625
-9.25244140625 -6.2197265625 20.503662109375
15.304931640625 22.8271484375 -0.6754150390625
-1.460205078125 16.6630859375 -47.9683837890625
15.04833984375 12.52685546875 33.9622802734375
9.15771484375 18.41552734375 -12.8509521484375
2.84326171875 13.06591796875 25.976806640625
12.704345703125 11.828125 -36.8978271484375
-21.472412109375 0.5711669921875 29.416748046875
14.00830078125 10.7137451171875 -34.4610595703125
10.928955078125 21.8663330078125 -0.4151611328125
-19.833984375 -5.0521240234375 11.157958984375
2.856689453125 21.143798828125 4.365478515625
7.127685546875 10.98828125 -34.530029296875
3.779541015625 8.3387451171875 -28.3304443359375
-33.35205078125 -5.213623046875 24.016845703125
1.0146484375 16.2369384765625 17.2105712890625
-0.3681640625 20.51904296875 5.78271484375
12.31640625 13.4986572265625 24.8310546875
15.345458984375 15.9765625 -46.33837890625
-21.642822265625 -8.2176513671875 21.8756103515625
2.332275390625 17.5408935546875 -49.6866455078125
12.437255859375 14.7794189453125 -43.7281494140625
-25.281982421875 -1.608642578125 6.358154296875
14.403076171875 12.389404296875 31.8494873046875
27.1962890625 -2.661376953125 37.8201904296875
3.214111328125 27.281494140625 -13.517578125
-0.243896484375 10.048583984375 -31.906005859375
-20.350830078125 -6.0673828125 26.92822265625
2.141357421875 23.7181396484375 -5.681884765625
14.096435546875 18.06689453125 -51.005126953125
-35.237060546875 -2.2156982421875 12.4906005859375
8.09033203125 -8.956787109375 49.229248046875
-3.660400390625 36.30224609375 -46.1278076171875
17.91064453125 -7.57373046875 42.4979248046875
4.229248046875 17.82080078125 13.4161376953125
-1.358154296875 17.9989013671875 11.3419189453125
0.32421875 7.5909423828125 42.367919921875
6.734130859375 12.817626953125 -39.143310546875
-5.00048828125 14.5792236328125 -40.3270263671875
-31.218505859375 -6.309326171875 21.3853759765625
27.5634765625 -2.02978515625 40.7100830078125
1.81787109375 21.2298583984375 2.6500244140625
9.607666015625 7.55615234375 42.235595703125
7.24658203125 22.104736328125 -0.928955078125
-4.798828125 12.2681884765625 -37.4224853515625
10.563720703125 20.97265625 3.4649658203125
-30.9921875 -2.0623779296875 6.7132568359375
-0.045654296875 6.1763916015625 46.90478515625
-11.97607421875 -2.8304443359375 11.0966796875
11.998046875 15.18994140625 21.478759765625
17.80615234375 17.9385986328125 -51.49169921875
-17.887451171875 -7.3271484375 23.42578125
-5.147705078125 8.1171875 -25.2459716796875
18.7099609375 10.7288818359375 -33.699462890625
14.94970703125 14.939697265625 25.196044921875
1.412109375 26.73681640625 -11.3099365234375
13.406494140625 23.3609619140625 -2.85107421875
-13.262451171875 -3.96337890625 14.07763671875
14.942138671875 -7.159912109375 42.3385009765625
5.25830078125 29.1630859375 -16.521484375
7.442626953125 15.059326171875 21.5772705078125
27.044189453125 0.31591796875 30.9078369140625
16.90234375 12.5240478515625 34.6392822265625
-0.21240234375 7.28759765625 -23.869384765625
20.3037109375 13.0804443359375 -39.1865234375
12.958984375 19.8770751953125 7.939697265625
-21.1005859375 -2.4366455078125 6.006103515625
-7.620849609375 3.982666015625 25.1119384765625
10.50439453125 12.92431640625 -38.74853515625
4.02392578125 13.90087890625 -41.3961181640625
15.70458984375 14.11474609375 -41.646484375
-9.431396484375 -8.4691162109375 23.9197998046875
15.010009765625 17.501220703125 -49.5498046875
12.5419921875 9.4283447265625 34.2449951171875
0.693115234375 10.22802734375 34.5660400390625
-1.334716796875 19.4434814453125 7.91357421875
4.614990234375 16.312255859375 -46.8297119140625
-15.005126953125 -3.632568359375 13.3555908203125
21.91064453125 14.0023193359375 -39.6380615234375
-35.38037109375 -6.48388671875 18.478515625
15.841796875 -8.763671875 47.9598388671875
2.661865234375 19.274658203125 7.0111083984375
25.411865234375 10.830078125 -24.8419189453125
13.99169921875 26.85205078125 -11.9871826171875
-2.205078125 15.23291015625 19.0963134765625
0.241943359375 11.60107421875 30.9063720703125
8.904296875 -7.9853515625 45.643798828125
-1.5068359375 13.7457275390625 -40.5933837890625
5.1943359375 3.5765380859375 31.5596923828125
11.159912109375 5.305419921875 28.8807373046875
7.850341796875 -7.3582763671875 46.943359375
5.732421875 17.27001953125 -6.19970703125
-26.6806640625 -5.45361328125 17.6849365234375
14.421630859375 18.5863037109375 12.9854736328125
4.395263671875 8.1922607421875 41.8466796875
-7.74267578125 -7.875244140625 21.9039306640625
14.738037109375 -7.5360107421875 46.6529541015625
7.303955078125 2.54443359375 33.21533203125
-26.33251953125 -4.2509765625 14.3978271484375
-7.701904296875 -6.00390625 17.68896484375
9.544921875 7.5750732421875 35.716064453125
-28.7470703125 -1.205810546875 5.829345703125
23.572509765625 9.7320556640625 -27.1285400390625
2.6015625 10.064697265625 36.5631103515625
26.7529296875 -1.099853515625 32.0198974609375
8.154541015625 21.318359375 -10.5626220703125
-34.974853515625 -1.109619140625 8.7635498046875
5.627197265625 14.4415283203125 23.2218017578125
18.2177734375 9.8594970703125 -31.0921630859375
1.43603515625 20.1279296875 -56.478271484375
10.58642578125 14.61083984375 -42.95654296875
-32.299560546875 -3.3736572265625 13.6541748046875
6.56005859375 8.5185546875 40.2655029296875
-17.95068359375 -5.988037109375 19.76220703125
1.632080078125 24.7742919921875 -9.0712890625
-11.791748046875 -6.5751953125 22.155517578125
-21.75537109375 -6.4217529296875 16.8406982421875
23.80908203125 -4.112548828125 45.2454833984375
-35.03662109375 -9.17333984375 22.3388671875
18.21435546875 -9.161376953125 46.067138671875
9.616943359375 4.005859375 30.1268310546875
0.480224609375 4.208740234375 53.08447265625
-20.611083984375 -3.2940673828125 27.7900390625
18.25537109375 16.9454345703125 -48.425537109375
11.1953125 17.0931396484375 -48.9071044921875
-32.49462890625 -5.5546875 20.1158447265625
23.14697265625 10.9754638671875 -31.088623046875
9.933837890625 19.90380859375 -13.2666015625
18.661376953125 15.7791748046875 -45.3228759765625
-32.06884765625 -0.4134521484375 6.0826416015625
-44.53662109375 1.0047607421875 -71.4591064453125
21.441650390625 -8.71630859375 46.9351806640625
-26.545166015625 1.0650634765625 25.1732177734375
5.304443359375 6.3699951171875 47.1708984375
19.34521484375 -9.4722900390625 44.716552734375
7.785888671875 5.88818359375 29.6094970703125
17.55859375 9.517333984375 -26.2830810546875
14.0927734375 -6.03369140625 44.8311767578125
-23.62060546875 -2.0048828125 6.2314453125
-12.691650390625 -5.6103515625 19.507080078125
30.020263671875 -1.3765869140625 35.1688232421875
-23.663818359375 -5.755126953125 18.2423095703125
-28.51171875 -4.626708984375 24.20751953125
-19.52978515625 -6.367431640625 17.4287109375
13.74755859375 17.123291015625 14.6715087890625
-21.756591796875 -8.1790771484375 25.3048095703125
4.066162109375 16.15234375 15.9718017578125
-12.178466796875 -5.224365234375 24.5550537109375
2.801025390625 18.7001953125 10.2698974609375
-17.132080078125 -4.303955078125 15.471923828125
-11.22119140625 -7.373046875 25.659912109375
-29.1005859375 -4.0142822265625 12.0860595703125
20.6806640625 12.27880859375 -37.62646484375
12.114013671875 8.560546875 -28.110107421875
5.63134765625 18.171142578125 -51.27392578125
-0.07080078125 15.9412841796875 -46.076904296875
12.20556640625 17.9515380859375 -50.70849609375
20.738525390625 17.4337158203125 -48.424072265625
9.01318359375 17.541259765625 -6.2061767578125
7.412353515625 18.4254150390625 -5.727294921875
10.829833984375 18.385498046875 -51.587158203125
5.71826171875 19.302978515625 -53.505615234375
-31.349609375 -2.6468505859375 8.6180419921875
14.408203125 28.264892578125 -17.0260009765625
16.5927734375 -8.3126220703125 44.860595703125
-3.732421875 19.6121826171875 -55.11767578125
9.77978515625 17.8526611328125 -9.122802734375
24.7900390625 -2.634521484375 35.0595703125
-43.451904296875 2.4947509765625 -72.103759765625
19.423583984375 14.16015625 -42.1690673828125
-28.99072265625 -4.5782470703125 14.3455810546875
-31.994873046875 -3.1156005859375 11.8330078125
-0.852783203125 7.0267333984375 45.5906982421875
-22.20263671875 -3.81494140625 11.21142578125
-15.40234375 -8.37255859375 24.59814453125
5.1953125 8.773193359375 -29.08642578125
-18.575927734375 -5.036376953125 25.265869140625
14.4404296875 30.2254638671875 -22.6500244140625
17.598388671875 24.3284912109375 -5.8721923828125
11.938720703125 30.9815673828125 -20.6014404296875
8.268798828125 19.3861083984375 8.1343994140625
23.264404296875 12.9951171875 -36.7462158203125
-21.519775390625 -6.6488037109375 15.1265869140625
30.0263671875 -0.5340576171875 32.007080078125
8.381591796875 17.3056640625 -49.521484375
5.59033203125 20.4686279296875 5.98388671875
11.601318359375 28.7186279296875 -18.176513671875
-1.657958984375 11.0911865234375 -35.2242431640625
5.254638671875 9.910888671875 -31.6865234375
16.636962890625 26.5224609375 -13.1868896484375
-24.67919921875 0.0709228515625 23.8260498046875
-3.493896484375 8.3197021484375 -27.813720703125
3.172119140625 19.3472900390625 -9.522705078125
-3.485107421875 9.50634765625 -30.8721923828125
21.53759765625 15.68701171875 -44.273193359375
-1.24365234375 16.513427734375 16.5318603515625
-3.8896484375 10.5201416015625 -32.9202880859375
3.390869140625 19.292236328125 -53.1729736328125
6.923095703125 14.741455078125 -42.4844970703125
16.673828125 19.45458984375 -52.69921875
-2.886962890625 15.4501953125 -45.08154296875
9.830810546875 8.0513916015625 -26.3001708984375
2.426513671875 6.789794921875 -23.6429443359375
1.502685546875 21.0283203125 -58.1810302734375
12.2333984375 10.6700439453125 -33.2783203125
-17.31201171875 -1.8970947265625 8.06640625
8.223388671875 4.615234375 27.5693359375
-2.549560546875 7.223388671875 -24.46142578125
9.347900390625 20.588134765625 -5.0255126953125
13.297607421875 20.2960205078125 5.0882568359375
-0.4111328125 5.7626953125 -22.11279296875
8.652587890625 19.3372802734375 -10.2115478515625
24.239013671875 -4.32373046875 39.6622314453125
25.36083984375 -3.6966552734375 40.74267578125
-28.558349609375 -2.9796142578125 6.5941162109375
13.936279296875 27.579833984375 -14.9415283203125
10.164794921875 22.0760498046875 1.0147705078125
14.889404296875 8.5770263671875 -28.02099609375
-4.620849609375 16.5718994140625 -46.5545654296875
8.622314453125 20.9757080078125 -3.6331787109375
5.749755859375 11.9822998046875 -37.3919677734375
4.684326171875 22.0806884765625 1.6815185546875
-0.262451171875 8.857666015625 -28.8377685546875
5.01904296875 17.2459716796875 -9.316650390625
12.06982421875 29.4075927734375 -20.2720947265625
4.65087890625 20.8486328125 4.6597900390625
7.697509765625 20.35888671875 3.927001953125
10.38525390625 11.077392578125 -34.52734375
21.56982421875 10.01123046875 -30.18115234375
30.888671875 0.062255859375 29.20703125
12.50732421875 -8.5533447265625 49.1312255859375
-12.783935546875 0.626953125 24.083984375
1.39990234375 17.7359619140625 12.4136962890625
13.533935546875 9.56201171875 -30.8575439453125
0.58251953125 17.59765625 13.88525390625
17.083740234375 28.178955078125 -18.76123046875
-21.789306640625 -0.1549072265625 27.4149169921875
-1.34716796875 16.7374267578125 14.7119140625
13.8134765625 -4.5242919921875 42.105712890625
6.99951171875 17.2711181640625 15.4365234375
11.017578125 9.18359375 38.3824462890625
16.916748046875 11.829345703125 -36.5341796875
8.985107421875 10.2972412109375 -32.28369140625
14.431640625 13.119140625 29.97119140625
5.737060546875 10.7220458984375 -33.8099365234375
0.566162109375 15.143798828125 20.1273193359375
11.581787109375 15.7506103515625 -45.7562255859375
-0.670166015625 12.9146728515625 27.2838134765625
-0.5625 17.6904296875 -51.2218017578125
-19.374267578125 -3.565673828125 8.2025146484375
-1.667724609375 37.0655517578125 -47.0855712890625
5.848388671875 13.8353271484375 -41.6307373046875
-26.02880859375 -2.3575439453125 9.2196044921875
-35.774169921875 -3.31591796875 22.2578125
9.745849609375 3.21337890625 34.1473388671875
-21.666015625 -3.3375244140625 25.7711181640625
-34.2763671875 -6.1207275390625 20.4276123046875
3.561767578125 29.9503173828125 -16.4747314453125
-26.181884765625 -2.322998046875 7.484130859375
1.90380859375 22.58251953125 0.0919189453125
29.089111328125 1.98876953125 28.2430419921875
-30.1201171875 -3.5255126953125 9.5089111328125
4.490234375 5.337158203125 34.4210205078125
13.87158203125 22.9012451171875 -1.435546875
-1.818603515625 19.134765625 -53.346435546875
-28.39501953125 -7.7216796875 22.1558837890625
22.109130859375 17.0001220703125 -47.5469970703125
8.78271484375 9.234619140625 38.183349609375
-19.7744140625 -8.572265625 24.2855224609375
6.967529296875 5.5472412109375 31.5003662109375
15.7109375 25.1065673828125 -8.5804443359375
3.222412109375 18.098876953125 -51.8680419921875
6.973876953125 20.2193603515625 6.7738037109375
-11.05615234375 -0.571044921875 6.1663818359375
22.202880859375 -6.871826171875 44.92041015625
1.322998046875 24.5811767578125 -6.6785888671875
3.54248046875 6.975341796875 45.5579833984375
6.668212890625 3.0341796875 34.94873046875
4.588623046875 18.5152587890625 -6.77001953125
10.5576171875 3.8175048828125 31.3575439453125
-32.274658203125 -4.002197265625 15.0670166015625
8.758056640625 15.201171875 -44.27392578125
14.23388671875 28.4505615234375 -19.86865234375
18.165771484375 -7.934814453125 47.1849365234375
23.55908203125 -4.51513671875 43.1881103515625
-10.957275390625 -3.7943115234375 15.076416015625
-27.35302734375 -3.552734375 11.35205078125
14.324951171875 10.991943359375 35.140625
5.68701171875 15.577880859375 20.80224609375
11.929443359375 18.0484619140625 12.0162353515625
15.17333984375 21.7615966796875 0.9239501953125
-23.10546875 -2.6756591796875 8.4869384765625
18.92431640625 13.5643310546875 -40.533203125
-14.861328125 0.4815673828125 25.648681640625
-10.418212890625 -4.976318359375 19.1280517578125
10.06103515625 18.2813720703125 10.8392333984375
-28.910400390625 -9.0303955078125 23.7244873046875
12.31982421875 21.614990234375 0.3814697265625
-33.975341796875 -7.9937744140625 22.43359375
16.622802734375 8.16357421875 -28.153076171875
-21.5302734375 -3.5577392578125 8.464599609375
2.49755859375 9.6475830078125 30.9476318359375
-17.5419921875 -5.25244140625 17.85693359375
-2.663818359375 3.11279296875 54.8172607421875
3.2900390625 15.1654052734375 20.2545166015625
28.955078125 -0.79150390625 30.4237060546875
-35.02099609375 -4.1842041015625 13.7020263671875
22.626220703125 -3.2471923828125 37.970947265625
-33.486572265625 -1.25732421875 6.4246826171875
23.259521484375 12.41796875 -34.726318359375
-3.43701171875 6.531494140625 -22.35009765625
-26.5810546875 -5.8052978515625 19.4591064453125
21.088623046875 -4.81201171875 40.5001220703125
22.779296875 -7.651611328125 49.6231689453125
8.519775390625 22.1461181640625 -2.47216796875
-14.69970703125 -6.2567138671875 22.8714599609375
6.863037109375 15.778564453125 17.9498291015625
12.603515625 -7.572265625 47.3084716796875
-4.34521484375 14.8240966796875 -44.241455078125
-27.640625 -4.64794921875 15.0614013671875
8.98974609375 10.810791015625 -33.806396484375
13.83447265625 15.811767578125 19.823974609375
6.089599609375 4.4620361328125 29.1456298828125
29.51220703125 -0.7076416015625 38.1614990234375
-26.548583984375 -8.2344970703125 24.591796875
-11.07861328125 -2.2786865234375 10.0093994140625
8.6748046875 17.490966796875 12.949462890625
7.861083984375 7.6221923828125 42.415283203125
14.8515625 15.3758544921875 -44.6904296875
-23.386474609375 -5.03564453125 15.0545654296875
7.902099609375 17.2742919921875 -7.84814453125
-36.14208984375 -8.6605224609375 23.231689453125
-8.963623046875 -5.4510498046875 16.873779296875
7.520263671875 9.6854248046875 -31.472412109375
12.905029296875 16.4696044921875 17.580078125
20.927978515625 -3.2740478515625 39.0201416015625
1.109375 10.3681640625 -33.095703125
11.541015625 15.6314697265625 20.1181640625
13.31787109375 13.4658203125 -40.2109375
-0.8193359375 20.47705078125 -56.2535400390625
-12.7119140625 -4.725341796875 17.1895751953125
12.454345703125 14.749267578125 22.8363037109375
6.49365234375 18.62841796875 -12.0963134765625
5.140380859375 17.3287353515625 -49.072998046875
11.00634765625 18.9462890625 9.248779296875
-33.53662109375 -5.2318115234375 17.6014404296875
1.817138671875 4.8856201171875 51.5830078125
0.53369140625 5.50048828125 50.3599853515625
7.468505859375 16.513671875 -46.80712890625
-3.246826171875 17.140625 -48.3199462890625
-0.447021484375 18.429443359375 10.253662109375
10.96044921875 20.2275390625 -6.9954833984375
16.22607421875 29.4927978515625 -21.7713623046875
9.75439453125 16.87353515625 -48.646728515625
-3.015869140625 21.727294921875 -57.72998046875
1.111572265625 13.30029296875 26.136962890625
-19.432861328125 -7.5460205078125 21.06982421875
-36.727783203125 -8.125 20.646728515625
-1.15576171875 12.080322265625 -37.4071044921875
-2.6787109375 34.8226318359375 -42.0166015625
13.822998046875 19.4283447265625 -52.769775390625
-9.789306640625 -3.522216796875 12.7083740234375
0.4111328125 15.4879150390625 -44.607177734375
16.83251953125 28.0380859375 -15.40625
28.09375 1.207763671875 29.7847900390625
21.010986328125 9.3095703125 -29.009765625
2.5244140625 28.640625 -14.1865234375
16.222900390625 24.22412109375 -5.2177734375
14.88037109375 9.1416015625 -30.008056640625
0.399658203125 14.4970703125 -41.99072265625
4.681884765625 3.88134765625 29.829833984375
21.97509765625 14.7047119140625 -41.24072265625
-0.151611328125 14.595458984375 -43.3516845703125
4.3203125 9.33642578125 37.78564453125
1.49462890625 10.355712890625 33.1453857421875
-16.104736328125 0.3521728515625 26.678466796875
9.012939453125 12.07275390625 -37.3924560546875
2.531494140625 5.6434326171875 47.557373046875
13.3798828125 29.1512451171875 -20.8563232421875
13.17626953125 24.252197265625 -8.5545654296875
-4.3701171875 10.962158203125 -34.3577880859375
-23.099365234375 0.8775634765625 25.2373046875
6.62353515625 7.9122314453125 -25.8416748046875
7.032958984375 8.3701171875 -27.849365234375
16.4521484375 -6.126953125 41.609375
-11.27587890625 0.9466552734375 25.5926513671875
-5.058349609375 18.918212890625 -52.35009765625
-31.181640625 -8.1143798828125 25.1124267578125
0.093505859375 19.4305419921875 -53.699462890625
-25.690673828125 -7.701416015625 23.5458984375
2.96533203125 10.1912841796875 -32.3746337890625
20.489013671875 14.8936767578125 -42.9766845703125
4.59814453125 6.9541015625 36.7850341796875
-1.6884765625 9.439208984375 -31.0980224609375
2.607421875 26.1822509765625 -12.2755126953125
-21.800537109375 -1.8372802734375 25.9683837890625
-20.5263671875 -9.14404296875 21.905029296875
13.32666015625 18.842041015625 9.89892578125
10.159912109375 15.7679443359375 -46.036865234375
1.935302734375 11.9219970703125 28.906982421875
22.1533203125 11.2313232421875 -32.88427734375
15.307861328125 13.9296875 27.0906982421875
8.7509765625 15.2088623046875 20.50927734375
-10.540283203125 -7.53857421875 23.8924560546875
9.394775390625 8.9437255859375 -28.7642822265625
-1.415283203125 16.3131103515625 -46.4609375
15.629150390625 23.3145751953125 -4.0391845703125
17.12451171875 25.9942626953125 -11.26904296875
5.483642578125 15.3408203125 -44.80126953125
-34.991943359375 -4.81005859375 15.11181640625
5.89990234375 30.2147216796875 -17.30078125
16.28369140625 28.145263671875 -16.7691650390625
4.19677734375 18.3848876953125 -11.2923583984375
2.904296875 21.8009033203125 -8.154541015625
-3.489013671875 11.2130126953125 -35.4705810546875
10.6630859375 15.095703125 22.0936279296875
18.46826171875 -9.1365966796875 43.4954833984375
5.627685546875 6.6485595703125 -23.1156005859375
19.2666015625 11.4351806640625 -34.882568359375
24.232177734375 10.15869140625 -25.92333984375
17.753662109375 23.0205078125 0.3704833984375
21.34375 -6.324462890625 43.2381591796875
10.136474609375 15.7041015625 19.3734130859375
1.331298828125 22.7432861328125 -1.70458984375
3.910888671875 11.588134765625 -36.1077880859375
-0.619384765625 10.635986328125 33.77734375
12.123046875 9.06982421875 -29.6220703125
11.757568359375 -7.0760498046875 46.065673828125
-5.158935546875 9.809326171875 -29.796875
13.31689453125 23.5977783203125 -4.7342529296875
-8.94091796875 -7.214111328125 21.5006103515625
0.634033203125 10.810546875 -34.535400390625
-2.130615234375 7.624267578125 -25.9892578125
23.641845703125 10.7049560546875 -29.69189453125
-12.31640625 1.7476806640625 26.88330078125
-8.57080078125 -6.5933837890625 19.19287109375
4.283935546875 22.8922119140625 0.1993408203125
11.05908203125 21.992431640625 -5.058349609375
2.46484375 9.437744140625 -30.731689453125
-13.65234375 -4.5440673828125 15.9677734375
17.26025390625 10.57275390625 -33.932373046875
23.0458984375 15.43994140625 -42.047607421875
15.9560546875 10.599609375 -32.8306884765625
-12.497802734375 -1.896240234375 7.9171142578125
18.13232421875 12.6085205078125 32.7275390625
6.994384765625 22.5654296875 0.3900146484375
3.09130859375 21.627685546875 -5.377685546875
21.030029296875 8.689208984375 -26.5477294921875
10.192138671875 20.3759765625 6.3587646484375
-12.70703125 -7.273193359375 23.2412109375
11.889892578125 17.068603515625 14.447998046875
20.677490234375 18.49951171875 -53.00439453125
13.77490234375 16.7803955078125 16.077880859375
8.01171875 19.1336669921875 -53.7840576171875
-1.041015625 11.4571533203125 31.949951171875
3.057861328125 22.6226806640625 -2.8126220703125
-22.514892578125 -0.5706787109375 5.8134765625
-31.55419921875 -6.5133056640625 22.7457275390625
-23.61474609375 -8.4407958984375 24.2841796875
-25.7763671875 1.1453857421875 4.9974365234375
4.197998046875 13.3284912109375 25.33837890625
2.430908203125 6.2879638671875 -22.15234375
-28.78515625 -2.9638671875 8.80126953125
-19.71484375 -5.2452392578125 12.91748046875
2.016845703125 8.57861328125 -28.152587890625
-0.90087890625 4.3297119140625 51.93505859375
18.308837890625 11.8670654296875 -36.7325439453125
-21.6982421875 -4.0595703125 12.5013427734375
-19.65185546875 -5.7593994140625 14.7391357421875
3.581787109375 8.916015625 35.3096923828125
22.979736328125 -7.9906005859375 47.527099609375
13.147705078125 24.61083984375 -10.0184326171875
2.632568359375 23.0904541015625 -9.3111572265625
4.189453125 18.6842041015625 10.559814453125
3.730712890625 17.059326171875 14.9571533203125
0.427490234375 5.1124267578125 -21.158935546875
17.37353515625 -8.545166015625 50.3021240234375
-15.279052734375 -5.03662109375 18.4151611328125
11.08251953125 16.87451171875 16.3759765625
-14.285400390625 -2.57666015625 9.1416015625
-15.474609375 -2.3779296875 10.12353515625
0.1279296875 13.5509033203125 24.4381103515625
7.263427734375 17.5638427734375 12.2010498046875
-11.922607421875 -3.1405029296875 12.4581298828125
6.786376953125 6.7354736328125 37.0101318359375
-27.370361328125 -2.9210205078125 9.927734375
-30.3447265625 -3.50927734375 11.707275390625
11.106689453125 18.2991943359375 -11.2265625
-8.656494140625 -3.834716796875 11.3201904296875
10.968017578125 -7.8941650390625 49.6336669921875
2.279296875 17.991943359375 11.362060546875
-24.193115234375 1.349365234375 26.5828857421875
8.846923828125 16.809814453125 17.0968017578125
3.635009765625 5.176025390625 29.7493896484375
-0.944091796875 9.4173583984375 -27.4974365234375
12.2900390625 8.7462158203125 33.05712890625
8.311279296875 16.907470703125 15.7947998046875
-9.025146484375 -2.7257080078125 9.40673828125
-34.042236328125 -2.251220703125 11.483154296875
-10.439453125 -4.508544921875 17.7486572265625
12.89208984375 20.0499267578125 6.55029296875
-21.4453125 -5.543212890625 13.6153564453125
-45.687744140625 -1.367919921875 -70.0537109375
-31.42041015625 -5.032958984375 16.8812255859375
-7.701171875 -4.697998046875 14.4161376953125
25.707763671875 -3.339599609375 38.0770263671875
18.0859375 13.5589599609375 29.053466796875
4.289306640625 14.6300048828125 22.9000244140625
5.983642578125 16.5526123046875 16.127685546875
1.190673828125 12.952392578125 -39.354248046875
-19.057373046875 0.5045166015625 27.42529296875
6.017822265625 14.6771240234375 21.8033447265625
20.510009765625 15.714111328125 -45.561767578125
9.993896484375 -7.8282470703125 48.0416259765625
11.410400390625 13.1796875 -39.8765869140625
6.509033203125 6.66259765625 44.8492431640625
-3.426513671875 12.305908203125 -37.6202392578125
4.32080078125 8.2452392578125 -26.996826171875
1.83447265625 16.995361328125 -48.519775390625
1.233154296875 7.2352294921875 43.6138916015625
2.70068359375 8.318603515625 31.5626220703125
-33.412109375 -8.120361328125 24.0958251953125
-3.313720703125 17.7862548828125 -50.859130859375
26.199462890625 -2.2801513671875 34.853271484375
1.59228515625 11.3603515625 31.6697998046875
3.089111328125 10.8883056640625 29.3753662109375
10.718017578125 17.4737548828125 -7.7828369140625
12.869140625 8.4114990234375 29.970458984375
4.094970703125 3.7845458984375 33.8238525390625
-26.978271484375 -7.3148193359375 22.774658203125
-0.468017578125 10.315673828125 36.4290771484375
10.95263671875 6.548583984375 33.962890625
-0.465576171875 17.222412109375 -48.7325439453125
-24.363525390625 -7.152587890625 22.8680419921875
2.079345703125 14.568359375 23.60791015625
13.152587890625 9.123779296875 37.2840576171875
1.272705078125 6.9132080078125 44.946533203125
6.857666015625 7.4210205078125 30.356201171875
-1.549072265625 12.22021484375 29.2542724609375
-5.157958984375 17.3779296875 -49.537841796875
6.970458984375 9.185302734375 37.952392578125
