16.12646484375 13.9627685546875 -48.6461181640625
20.900634765625 -4.8121337890625 47.4765625
8.717529296875 20.74853515625 1.8052978515625
13.451904296875 14.246337890625 32.557373046875
7.347412109375 -7.1409912109375 51.7606201171875
13.708984375 27.61376953125 -18.935302734375
22.077880859375 9.681884765625 -28.865478515625
0.460693359375 20.12744140625 4.3697509765625
-13.725341796875 0.0623779296875 23.784912109375
10.76611328125 19.1494140625 10.7904052734375
-17.73876953125 -0.8060302734375 6.5145263671875
-2.695556640625 24.9295654296875 -10.3470458984375
3.822998046875 8.0594482421875 -32.5155029296875
-16.23193359375 -3.0718994140625 10.5067138671875
-16.5380859375 -5.1497802734375 20.4520263671875
-1.511962890625 21.8963623046875 0.3375244140625
9.766845703125 -6.017333984375 48.7938232421875
10.345458984375 -3.63525390625 43.7269287109375
9.498779296875 27.33740234375 -17.8203125
10.984619140625 24.609130859375 -11.3204345703125
-21.340576171875 -3.052001953125 9.9212646484375
24.076904296875 -0.7164306640625 36.8670654296875
11.694091796875 22.3260498046875 -3.6834716796875
-19.306640625 -2.738525390625 12.1656494140625
-27.220947265625 -0.6942138671875 4.4969482421875
-32.460205078125 -5.4608154296875 21.53955078125
-30.307373046875 -3.5133056640625 11.585693359375
15.7236328125 27.12890625 -20.6239013671875
10.69091796875 27.5274658203125 -22.614990234375
-4.853271484375 14.9722900390625 -49.9105224609375
-3.215087890625 15.395751953125 -52.239990234375
4.52197265625 19.173828125 -14.42578125
14.126220703125 15.1180419921875 -52.69091796875
19.531005859375 9.0718994140625 -28.997802734375
8.60791015625 18.3397216796875 -11.907470703125
7.027099609375 13.66650390625 -46.7996826171875
23.094482421875 0.3148193359375 41.5419921875
18.156494140625 8.2896728515625 -31.642822265625
29.133056640625 1.4031982421875 33.5594482421875
7.826171875 -5.4185791015625 46.02880859375
11.454833984375 17.2130126953125 15.6829833984375
10.822509765625 20.488525390625 5.529541015625
-0.293701171875 16.159912109375 -54.324951171875
8.66796875 19.407470703125 7.08251953125
4.5263671875 17.96875 13.339599609375
-28.2158203125 -4.8524169921875 19.6798095703125
-13.782470703125 -3.523193359375 16.070556640625
1.947998046875 9.0189208984375 31.7545166015625
2.036865234375 16.9129638671875 16.938232421875
-12.626708984375 -0.3310546875 4.187255859375
17.113037109375 28.8780517578125 -25.8211669921875
-6.6767578125 6.914794921875 -25.0618896484375
10.864990234375 15.7501220703125 -53.5477294921875
6.802001953125 9.8154296875 -36.056640625
4.446044921875 16.2022705078125 18.61865234375
17.640380859375 -6.067138671875 50.8963623046875
6.408935546875 6.9085693359375 24.6441650390625
-24.774658203125 -4.333984375 16.27685546875
-17.416748046875 3.164306640625 24.990966796875
2.756591796875 20.7744140625 -7.572021484375
1.566650390625 15.30615234375 21.7662353515625
5.82861328125 19.2437744140625 10.1436767578125
-32.89501953125 -4.206787109375 17.7728271484375
12.505126953125 -6.4443359375 51.50439453125
14.740966796875 12.204345703125 -44.267333984375
-36.00341796875 -4.481689453125 17.9508056640625
-29.038330078125 -3.8172607421875 15.95751953125
5.670654296875 17.2781982421875 -8.60693359375
-35.417724609375 -0.990234375 6.11474609375
6.547119140625 16.194091796875 21.832275390625
19.07275390625 13.9444580078125 -45.837158203125
7.4482421875 7.2069091796875 -29.56884765625
-4.59228515625 14.254150390625 -53.9385986328125
1.95556640625 17.5069580078125 -10.5770263671875
9.12939453125 8.050048828125 -31.9527587890625
8.55810546875 10.399169921875 32.919677734375
11.6845703125 29.491455078125 -26.5670166015625
12.32958984375 25.9268798828125 -14.648193359375
29.599609375 2.3094482421875 28.569091796875
-9.573486328125 -5.2716064453125 17.81591796875
18.177490234375 26.0306396484375 -16.6444091796875
-6.84326171875 17.5709228515625 -57.3583984375
6.852783203125 5.9459228515625 32.4598388671875
14.946533203125 -5.31591796875 48.529541015625
-24.1337890625 -2.9854736328125 7.63427734375
11.82421875 22.7432861328125 0.84716796875
9.23828125 22.5518798828125 -3.202880859375
21.756591796875 15.6624755859375 -48.1683349609375
5.796875 10.6807861328125 34.5997314453125
-7.72314453125 16.0853271484375 -53.889404296875
-21.688232421875 -5.5093994140625 17.955810546875
19.074951171875 0.5711669921875 37.2529296875
9.552001953125 14.6240234375 -50.1739501953125
-0.51513671875 19.6724853515625 -61.7757568359375
9.747314453125 15.9554443359375 19.690185546875
16.31689453125 29.975830078125 -30.784912109375
-25.355712890625 2.1861572265625 25.066162109375
21.584716796875 13.877197265625 -43.8370361328125
11.599609375 27.7318115234375 -20.1444091796875
21.160400390625 -2.5302734375 44.3914794921875
15.250732421875 7.93359375 -31.4014892578125
-4.734130859375 6.447265625 -26.68994140625
4.24169921875 21.4439697265625 1.4375
6.534912109375 18.4556884765625 -13.095703125
24.990478515625 0.4664306640625 33.4537353515625
5.035888671875 -6.5330810546875 49.8021240234375
17.0517578125 9.8475341796875 -36.1783447265625
-1.28515625 14.9085693359375 -56.437744140625
18.530517578125 -4.26513671875 42.74267578125
12.506103515625 28.8114013671875 -23.439208984375
21.891357421875 16.4747314453125 -20.070556640625
17.53515625 10.717041015625 -38.53515625
9.42431640625 17.869384765625 12.745361328125
12.938232421875 -5.3524169921875 46.240234375
-38.074951171875 -3.0841064453125 11.4310302734375
14.10107421875 14.5281982421875 -49.9708251953125
-35.671630859375 -3.187744140625 14.1282958984375
-11.8759765625 -3.0283203125 11.911376953125
-18.860595703125 -5.0667724609375 20.925537109375
3.97021484375 5.58544921875 30.20556640625
-24.66162109375 -5.421875 23.1947021484375
-8.310791015625 8.6839599609375 -32.8902587890625
6.13818359375 7.275634765625 29.4495849609375
-15.636474609375 -4.046142578125 22.197998046875
-10.697021484375 -1.2816162109375 5.505859375
6.585205078125 17.8533935546875 14.519775390625
7.968994140625 5.85986328125 28.3984375
-21.757080078125 -5.3525390625 14.7613525390625
4.73876953125 22.9490966796875 -2.2489013671875
0.302978515625 10.6611328125 -38.455810546875
-2.02783203125 18.9619140625 8.4459228515625
-6.314697265625 7.7982177734375 -30.6839599609375
-11.087890625 -3.5777587890625 13.9791259765625
-7.32861328125 14.8487548828125 -49.73876953125
5.34521484375 -6.8765869140625 47.4866943359375
-22.632568359375 -5.3277587890625 10.8272705078125
-2.846435546875 14.0126953125 -48.052001953125
-4.1005859375 13.24169921875 -45.656005859375
6.2578125 20.2781982421875 5.3455810546875
3.37451171875 19.662109375 8.501953125
-28.481689453125 -3.9989013671875 22.697509765625
5.26953125 18.8077392578125 -16.474853515625
6.708984375 21.1224365234375 2.6519775390625
16.833251953125 12.334228515625 -43.57275390625
14.425537109375 26.2156982421875 -16.5125732421875
20.478271484375 9.8070068359375 -27.148193359375
13.443359375 23.82666015625 -8.72119140625
14.205810546875 10.5511474609375 -39.5736083984375
-17.301513671875 -4.192626953125 18.32568359375
10.228271484375 26.04443359375 -15.8526611328125
1.105712890625 26.9398193359375 -16.90966796875
11.5615234375 13.5701904296875 -46.5946044921875
25.001220703125 -0.01220703125 38.727294921875
14.17236328125 9.7822265625 -36.0115966796875
27.9765625 1.5267333984375 35.5899658203125
9.017822265625 17.0462646484375 17.87646484375
8.374755859375 -3.3466796875 41.7783203125
-36.3330078125 -5.7674560546875 21.7496337890625
-0.183837890625 12.41943359375 29.263671875
-38.280517578125 -6.8228759765625 22.4110107421875
14.81982421875 -5.5897216796875 43.0570068359375
-1.05224609375 6.3231201171875 -23.952880859375
17.8466796875 27.063232421875 -19.0008544921875
21.03662109375 17.064208984375 -52.7938232421875
3.47705078125 7.702880859375 -27.4244384765625
-7.82763671875 11.574951171875 -40.7900390625
-3.33984375 11.5743408203125 -41.027587890625
12.393310546875 26.085693359375 -12.1387939453125
5.4072265625 14.1759033203125 -48.125732421875
6.744140625 8.8978271484375 -33.72119140625
10.28955078125 12.0611572265625 28.931884765625
7.159423828125 22.8695068359375 -5.2816162109375
-4.20849609375 10.46484375 -38.5828857421875
4.8798828125 12.4093017578125 -44.21875
4.3056640625 8.2772216796875 32.997314453125
1.1591796875 21.693359375 -9.3817138671875
8.87158203125 22.411865234375 0.2022705078125
15.562255859375 23.8135986328125 -6.7008056640625
7.0615234375 28.389892578125 -19.658447265625
16.863525390625 25.3236083984375 -14.719970703125
-26.029541015625 -2.4412841796875 8.8017578125
2.54736328125 20.4595947265625 4.2149658203125
-22.130859375 2.3973388671875 27.7000732421875
-15.69921875 0.222900390625 23.0360107421875
21.906982421875 12.3143310546875 -36.254638671875
1.646240234375 18.1402587890625 11.7681884765625
-5.994873046875 18.611328125 -60.707763671875
11.582763671875 14.156982421875 -49.3018798828125
1.323974609375 21.465576171875 -0.1148681640625
4.343017578125 9.88818359375 -36.783935546875
8.001220703125 16.474365234375 -55.7314453125
12.57861328125 22.47607421875 -1.6514892578125
-2.650390625 19.1331787109375 -61.9144287109375
-27.07861328125 -3.29736328125 15.381103515625
-0.70361328125 23.540771484375 -8.0223388671875
2.92138671875 13.9552001953125 -47.5047607421875
-34.5400390625 -1.662841796875 10.601806640625
-2.73193359375 12.4390869140625 -55.1854248046875
17.98974609375 -5.70751953125 45.32958984375
-2.466796875 12.88330078125 -44.3800048828125
14.68359375 29.3690185546875 -23.249267578125
-21.74951171875 -8.0677490234375 21.977294921875
-0.74462890625 15.3702392578125 -52.368896484375
1.736328125 14.9053955078125 -49.8287353515625
0.30859375 11.4310302734375 -42.0191650390625
14.439697265625 13.3919677734375 -46.2762451171875
9.29443359375 10.7991943359375 -40.2225341796875
7.006103515625 17.51025390625 17.046875
-22.32421875 -0.314697265625 26.57177734375
0.81689453125 13.188720703125 -45.906005859375
-6.648681640625 10.4925537109375 -38.4622802734375
6.16650390625 28.2379150390625 -21.715087890625
17.981201171875 23.4801025390625 -9.2720947265625
11.79736328125 11.3565673828125 -41.768798828125
7.857421875 7.8466796875 32.1259765625
-0.64501953125 8.063720703125 -32.2879638671875
14.86572265625 25.7567138671875 -12.1778564453125
-29.128662109375 -2.5728759765625 10.1556396484375
2.37158203125 11.605224609375 -42.177734375
11.2119140625 12.60107421875 31.66796875
10.80517578125 8.845947265625 -34.75
12.8310546875 8.629150390625 -34.379150390625
-32.111328125 -5.07275390625 19.4825439453125
-24.495361328125 -1.286376953125 4.9022216796875
-2.98681640625 10.0677490234375 -36.868408203125
2.6962890625 9.3310546875 -34.462158203125
-32.950439453125 -3.1346435546875 14.0048828125
20.02587890625 10.412353515625 -34.8084716796875
-7.55810546875 7.0943603515625 -29.1943359375
3.248291015625 6.9132080078125 27.19140625
3.000732421875 22.95361328125 -6.376953125
1.406005859375 23.326416015625 -5.12451171875
14.31396484375 23.5731201171875 -4.90576171875
3.576904296875 10.9619140625 -39.9661865234375
-21.263427734375 -5.7269287109375 19.955810546875
9.671142578125 9.8804931640625 -36.22314453125
27.951416015625 1.8685302734375 30.31298828125
2.8896484375 19.0931396484375 -13.0728759765625
11.970703125 -3.02197265625 42.3985595703125
-6.60986328125 11.947021484375 -42.6341552734375
-27.534912109375 -0.5758056640625 7.289306640625
3.04296875 9.5531005859375 43.754150390625
-4.33056640625 13.34130859375 -57.0592041015625
-23.70703125 -6.8914794921875 18.295654296875
3.982666015625 17.2373046875 -10.609130859375
-0.428955078125 12.6651611328125 -44.0069580078125
10.507080078125 10.30419921875 -38.05517578125
18.891845703125 24.43896484375 -12.06640625
-9.609375 -4.8388671875 14.557861328125
-6.250732421875 9.5277099609375 -34.8856201171875
-17.439453125 -1.5233154296875 4.64453125
12.2919921875 15.80615234375 25.7913818359375
10.06689453125 12.630859375 35.372314453125
4.665283203125 10.19580078125 41.1881103515625
19.79931640625 12.6591796875 -41.713134765625
12.65087890625 14.927001953125 28.7945556640625
15.410400390625 28.9412841796875 -27.0418701171875
19.9873046875 -1.98486328125 40.782470703125
-14.607421875 -2.8048095703125 11.9820556640625
8.323974609375 10.9171142578125 38.93505859375
23.3828125 0.26171875 34.7451171875
-19.351806640625 -1.75390625 7.578125
8.065673828125 22.922119140625 -1.5479736328125
2.3544921875 5.6455078125 29.0472412109375
7.3046875 -6.207763671875 43.7965087890625
-26.275634765625 -5.06005859375 20.0350341796875
6.677001953125 15.0968017578125 -51.849853515625
-7.448486328125 10.216552734375 -36.6763916015625
-15.36279296875 -3.325927734375 14.904052734375
0.36328125 18.219482421875 -11.5009765625
-30.38232421875 -2.306640625 6.567626953125
14.12744140625 8.494873046875 -29.4100341796875
-14.57763671875 -4.9952392578125 20.3455810546875
-35.793701171875 0.4464111328125 4.632568359375
10.980712890625 23.8017578125 -6.494384765625
12.94677734375 10.129150390625 -38.1346435546875
-24.098388671875 -4.3765869140625 12.2891845703125
-23.05078125 -3.8895263671875 6.1781005859375
-36.420654296875 -3.7144775390625 15.845458984375
13.6201171875 8.1409912109375 -32.622314453125
-0.891357421875 11.354248046875 -40.2581787109375
-11.81689453125 -1.517822265625 9.2113037109375
8.92041015625 24.123779296875 -7.316162109375
-25.58935546875 -3.0679931640625 12.094970703125
-23.683837890625 -7.5511474609375 20.7806396484375
-7.3583984375 13.91357421875 -47.356689453125
4.226318359375 8.582763671875 27.2840576171875
9.54443359375 12.038330078125 32.6309814453125
20.066650390625 15.6729736328125 -49.7796630859375
16.891357421875 -5.5240478515625 48.8856201171875
9.580078125 9.16455078125 30.2344970703125
-0.19140625 18.1075439453125 -58.7489013671875
4.555908203125 19.642822265625 5.9593505859375
9.0537109375 -4.7593994140625 44.7159423828125
0.4560546875 17.7177734375 15.617431640625
2.543212890625 18.909912109375 -8.8270263671875
17.51806640625 15.6368408203125 -52.60595703125
-37.68994140625 -0.572998046875 8.1240234375
-3.893798828125 18.845458984375 -60.47265625
8.541259765625 -6.672607421875 50.0960693359375
5.02685546875 14.967529296875 -50.8736572265625
-21.7529296875 -1.3707275390625 4.8004150390625
16.156494140625 27.4854736328125 -22.438720703125
6.311279296875 15.94384765625 -54.2027587890625
0.890380859375 11.3306884765625 27.7716064453125
8.748046875 5.383544921875 30.0604248046875
19.612548828125 23.0595703125 -8.407958984375
-31.771484375 -4.14453125 16.1319580078125
-13.815185546875 -1.5458984375 8.10009765625
13.002685546875 14.193115234375 30.536376953125
2.3896484375 5.5172119140625 31.483154296875
22.126953125 10.45068359375 -32.4132080078125
15.0537109375 29.8294677734375 -29.394287109375
-25.505615234375 -4.3985595703125 18.2996826171875
-18.8876953125 -4.1336669921875 17.1884765625
16.489013671875 8.2047119140625 -32.785888671875
5.529541015625 11.2369384765625 38.5814208984375
25.581298828125 2.09130859375 30.7677001953125
10.50390625 14.0614013671875 28.1937255859375
9.15625 15.0711669921875 -51.978759765625
8.113525390625 17.34765625 -10.405029296875
-16.246826171875 -1.899169921875 6.2734375
15.853759765625 -3.3203125 40.721923828125
-30.849609375 -4.699462890625 22.521484375
10.713134765625 7.500732421875 -31.056884765625
3.16748046875 10.630859375 -38.1793212890625
17.8828125 14.939208984375 -50.2969970703125
-2.00048828125 20.051513671875 4.9056396484375
-2.6826171875 25.6917724609375 -13.054931640625
-34.493408203125 -2.1986083984375 13.093017578125
3.16845703125 14.8994140625 22.594970703125
2.131103515625 6.2237548828125 -26.1497802734375
5.821533203125 22.4176025390625 -7.64892578125
9.972412109375 20.5416259765625 3.8839111328125
19.5400390625 -2.569580078125 42.4693603515625
-1.637451171875 18.3656005859375 10.203125
0.052490234375 23.9794921875 -13.6370849609375
20.104248046875 -5.06298828125 49.1129150390625
0.08154296875 15.0189208984375 -50.617431640625
3.74169921875 17.9822998046875 15.024169921875
17.567138671875 16.3812255859375 -55.384521484375
0.659912109375 9.59228515625 -35.677734375
3.445556640625 20.64794921875 -13.874755859375
-20.47900390625 -3.35498046875 13.9271240234375
-0.318359375 6.1522216796875 -26.8350830078125
-1.392578125 9.0390625 -33.7567138671875
8.1162109375 15.8272705078125 20.599853515625
-5.661376953125 16.1143798828125 -54.0128173828125
-3.865234375 8.5345458984375 -33.078857421875
1.730224609375 10.66796875 32.7208251953125
-4.6650390625 8.2615966796875 -31.304931640625
-0.067626953125 14.83837890625 23.5498046875
0.4736328125 18.356689453125 13.4317626953125
-6.343994140625 6.703125 -27.5009765625
1.385498046875 16.789306640625 -56.307373046875
9.6455078125 24.0035400390625 -12.39306640625
20.003173828125 10.0277099609375 -33.030517578125
7.363037109375 12.7249755859375 -45.2835693359375
26.2763671875 0.666015625 37.382568359375
-33.059326171875 -2.0255126953125 8.2205810546875
6.305419921875 19.37744140625 -8.6822509765625
5.675048828125 15.9493408203125 20.261962890625
-24.75341796875 -6.2117919921875 21.367919921875
10.2529296875 17.6680908203125 14.4063720703125
-0.76171875 14.4365234375 -48.7105712890625
-13.355224609375 -0.1192626953125 6.185546875
-17.31396484375 -2.07568359375 11.5533447265625
27.716064453125 3.232421875 28.0860595703125
2.857666015625 12.97021484375 -45.5323486328125
-16.701904296875 -2.6007080078125 22.3797607421875
-0.21728515625 23.2939453125 -3.3646240234375
18.5380859375 7.8553466796875 -29.8824462890625
-37.949462890625 -5.2706298828125 18.5721435546875
11.919677734375 7.107177734375 -29.353759765625
2.94677734375 14.887451171875 -51.159423828125
-11.827880859375 -4.8944091796875 20.6136474609375
17.693603515625 -1.215087890625 39.95654296875
2.708740234375 11.4560546875 37.432861328125
5.1396484375 23.14453125 -3.989013671875
5.947509765625 9.671630859375 27.0399169921875
-8.886962890625 17.8427734375 -57.3260498046875
-21.267578125 -4.4730224609375 16.5560302734375
10.428466796875 21.2879638671875 1.6224365234375
9.08056640625 -4.9658203125 47.4989013671875
21.283447265625 -0.9031982421875 38.191162109375
11.286376953125 -6.5345458984375 49.595458984375
2.357421875 18.1895751953125 -14.5167236328125
-24.074462890625 -5.0443115234375 14.798095703125
2.181396484375 7.3184814453125 -29.331787109375
3.03076171875 21.4586181640625 2.7410888671875
20.159912109375 11.828125 -38.13525390625
27.43115234375 0.6748046875 34.1346435546875
0.874755859375 19.531494140625 7.3836669921875
17.370849609375 13.805419921875 -47.3983154296875
14.848876953125 24.338623046875 -3.4033203125
-29.025146484375 -4.4456787109375 17.659912109375
1.7734375 15.9918212890625 -53.5406494140625
-32.7353515625 -1.4998779296875 4.9053955078125
2.377685546875 6.5316162109375 25.671142578125
0.819091796875 6.3765869140625 28.58251953125
-16.333984375 1.924560546875 24.362060546875
6.897705078125 21.0367431640625 -8.65576171875
9.181640625 23.0455322265625 -9.2017822265625
-19.544921875 0.938720703125 24.656982421875
-2.3125 23.5599365234375 -5.8505859375
13.687744140625 -5.032958984375 41.833984375
-36.390625 -5.5142822265625 19.3426513671875
-1.070068359375 24.4571533203125 -9.893798828125
-28.30224609375 -2.4796142578125 11.6951904296875
11.83740234375 -4.520751953125 44.9822998046875
6.00439453125 22.9412841796875 -1.042236328125
13.290771484375 -6.1959228515625 49.8778076171875
-13.384033203125 -3.930419921875 17.72119140625
15.912353515625 11.07421875 -39.8074951171875
-0.330810546875 21.5792236328125 -0.903564453125
-20.0185546875 -5.8515625 23.482421875
20.018798828125 15.0296630859375 -47.4686279296875
17.72314453125 25.2685546875 -13.0479736328125
10.575439453125 15.17919921875 25.13818359375
9.2197265625 16.0146484375 -54.3853759765625
5.0361328125 7.7603759765625 -31.251953125
-30.17919921875 -5.4168701171875 19.8626708984375
8.71728515625 19.0716552734375 11.719970703125
15.478271484375 29.2044677734375 -24.9635009765625
12.154296875 29.646728515625 -24.910888671875
12.497802734375 12.699951171875 34.8677978515625
1.446533203125 17.7900390625 -58.3179931640625
10.98046875 -5.4969482421875 47.505859375
-23.81787109375 -4.7315673828125 8.7718505859375
5.400390625 18.7535400390625 11.91455078125
0.38232421875 28.3392333984375 -18.0528564453125
8.79296875 19.8504638671875 -10.998291015625
4.25537109375 16.163818359375 -54.5791015625
-28.4033203125 -1.7330322265625 6.364013671875
16.08984375 26.04833984375 -16.1258544921875
1.8037109375 8.275634765625 -32.88525390625
19.610595703125 -5.4920654296875 46.427734375
7.87939453125 14.1497802734375 -48.25244140625
3.853271484375 16.613525390625 -56.392578125
-6.875244140625 16.7232666015625 -55.400390625
-6.564453125 12.828857421875 -44.144775390625
-24.00830078125 -5.11328125 17.5804443359375
12.47900390625 15.28369140625 -53.07373046875
-33.8427734375 -1.237548828125 6.896484375
-27.54345703125 -1.6307373046875 9.10205078125
15.4990234375 11.412109375 -42.4010009765625
3.425537109375 11.04833984375 35.0350341796875
2.585205078125 21.457763671875 1.0875244140625
9.90234375 19.0518798828125 9.180908203125
8.148193359375 18.187744140625 -13.5281982421875
6.271728515625 -6.1314697265625 50.884765625
8.340087890625 11.486328125 36.4173583984375
5.585693359375 5.525390625 31.3638916015625
22.469970703125 -1.271484375 40.99169921875
-33.591552734375 -5.570556640625 22.7860107421875
8.203369140625 17.7364501953125 14.0621337890625
-26.584228515625 1.7733154296875 23.9884033203125
5.613037109375 10.9368896484375 -40.4857177734375
3.242919921875 12.3797607421875 -43.7022705078125
-3.3408203125 11.9603271484375 -42.812255859375
0.194091796875 7.824951171875 -29.778076171875
8.634033203125 13.2037353515625 -46.331787109375
6.844482421875 10.58935546875 -38.3603515625
-0.686279296875 21.440673828125 2.4854736328125
16.0478515625 -5.4110107421875 44.5667724609375
3.1171875 -6.7532958984375 52.6314697265625
16.57958984375 9.172607421875 -34.7177734375
5.84326171875 7.3255615234375 -29.10400390625
21.0908203125 12.8516845703125 -40.14794921875
-10.695556640625 -1.9609375 8.0506591796875
-0.005859375 16.591796875 18.3131103515625
2.835693359375 16.319091796875 19.0732421875
0.52783203125 11.060302734375 31.080078125
21.55224609375 14.2679443359375 -22.878173828125
-12.22509765625 -3.4134521484375 15.1898193359375
-34.76318359375 -5.0172119140625 21.5511474609375
1.445068359375 23.381103515625 -3.4560546875
21.864990234375 -0.081298828125 42.8363037109375
2.6376953125 22.612548828125 -2.086669921875
14.126220703125 -5.1046142578125 44.984375
10.6123046875 12.053466796875 -43.5831298828125
-18.884765625 -2.870361328125 13.767578125
10.282958984375 17.527587890625 16.9139404296875
-17.36669921875 -1.864990234375 8.7159423828125
15.00537109375 15.902099609375 -55.5245361328125
-29.8818359375 -3.644287109375 13.18212890625
-33.01171875 -2.1951904296875 10.244873046875
-34.440673828125 -3.7757568359375 17.3592529296875
11.69677734375 16.0362548828125 -55.38037109375
16.506103515625 -5.2568359375 47.28857421875
3.006591796875 7.47314453125 32.362060546875
3.373779296875 7.3917236328125 -31.070068359375
5.89404296875 11.3175048828125 36.12353515625
-36.868896484375 -3.1802978515625 12.9866943359375
7.37353515625 10.4189453125 34.177001953125
-21.96533203125 -5.7806396484375 23.1519775390625
6.040771484375 11.41650390625 -42.3199462890625
20.733642578125 -3.2333984375 48.4593505859375
-5.74560546875 13.160400390625 -45.5439453125
21.588623046875 18.0640869140625 -26.34619140625
4.777099609375 21.6463623046875 -14.5870361328125
3.877685546875 19.7537841796875 -8.2366943359375
9.974609375 8.5206298828125 -33.3697509765625
8.569091796875 12.1749267578125 -43.5084228515625
-4.643798828125 9.2186279296875 -34.4693603515625
22.188720703125 10.327880859375 -27.3658447265625
-14.04638671875 -3.7899169921875 22.486083984375
-13.40673828125 -0.4659423828125 22.26953125
-10.0107421875 -6.746337890625 21.2716064453125
-0.00537109375 23.0665283203125 -12.1612548828125
16.42138671875 24.514892578125 -10.2760009765625
12.223388671875 24.2943115234375 -10.037353515625
-26.728515625 -3.2691650390625 13.7723388671875
3.781982421875 -7.4190673828125 50.349365234375
-15.369384765625 -3.957763671875 16.6148681640625
-1.10888671875 16.564697265625 -55.675048828125
9.056884765625 7.182861328125 -30.4739990234375
15.796142578125 15.2010498046875 -52.8074951171875
-24.1474609375 -2.4898681640625 5.9364013671875
28.70849609375 1.3975830078125 31.968505859375
6.604736328125 -5.98779296875 46.932861328125
10.5654296875 15.5618896484375 22.19677734375
11.327392578125 15.542236328125 19.2886962890625
15.364013671875 27.3935546875 -18.9615478515625
2.15283203125 -7.990234375 49.696044921875
11.15478515625 27.22021484375 -18.2967529296875
-23.39013671875 -6.563720703125 14.666259765625
-11.189697265625 -2.8017578125 6.640869140625
13.29736328125 14.9315185546875 -51.31689453125
-6.132568359375 14.1929931640625 -48.768798828125
-25.20947265625 -2.4864501953125 10.3709716796875
-2.6611328125 6.4849853515625 -24.3267822265625
0.986572265625 -8.233154296875 50.9366455078125
2.671630859375 10.503662109375 40.4053955078125
0.03271484375 18.64990234375 10.4947509765625
-36.11328125 -1.7825927734375 10.2939453125
-11.07958984375 -4.515380859375 17.7364501953125
7.735107421875 11.843994140625 -42.10986328125
2.12744140625 19.3262939453125 9.449462890625
1.117431640625 9.06787109375 30.157958984375
-31.447021484375 -3.6251220703125 12.8468017578125
-0.64208984375 25.56982421875 -14.3912353515625
-28.17822265625 -4.930908203125 21.2728271484375
21.223388671875 -1.5428466796875 39.880126953125
12.216552734375 23.4881591796875 -5.2166748046875
3.68994140625 17.0467529296875 17.26123046875
7.235595703125 17.19873046875 -12.422119140625
10.490966796875 22.8424072265625 -4.58154296875
-30.7197265625 -2.058349609375 8.1270751953125
25.48193359375 1.2513427734375 32.10986328125
5.103515625 8.7239990234375 -33.174072265625
-21.771484375 -3.0587158203125 8.3458251953125
21.29931640625 12.62158203125 -24.9727783203125
12.402587890625 8.0159912109375 -31.2784423828125
-18.987060546875 -1.5855712890625 5.9267578125
-4.96826171875 11.83447265625 -41.851806640625
-20.901611328125 -2.9071044921875 11.4683837890625
-22.1728515625 -7.0087890625 17.860595703125
-8.95361328125 15.9012451171875 -52.9190673828125
-9.61328125 -5.330322265625 16.2408447265625
5.0615234375 21.635009765625 0.107177734375
-0.398193359375 13.642578125 -47.2347412109375
-0.17529296875 18.65771484375 -60.626220703125
19.862548828125 8.6676025390625 -30.5775146484375
-15.404052734375 -3.38427734375 13.323974609375
18.419677734375 -5.86669921875 48.8795166015625
14.174072265625 15.714599609375 -54.1455078125
1.344970703125 20.97119140625 3.328857421875
18.110107421875 12.4749755859375 -42.4156494140625
-15.011474609375 -2.3057861328125 9.9036865234375
14.705322265625 24.1197509765625 -10.111083984375
4.081787109375 21.57177734375 -7.3861083984375
7.429931640625 19.2215576171875 8.002685546875
11.22412109375 11.989013671875 36.240478515625
20.54248046875 11.3868408203125 -36.3548583984375
22.121826171875 10.2132568359375 -30.6768798828125
13.057861328125 11.78125 -43.216064453125
23.5166015625 1.3798828125 33.365966796875
-4.6708984375 13.7501220703125 -55.473388671875
18.78369140625 -5.45751953125 43.6907958984375
-13.196533203125 1.5582275390625 24.7034912109375
20.37353515625 14.2359619140625 -44.7197265625
-0.131591796875 26.899658203125 -15.992919921875
-20.5458984375 -1.378173828125 5.951416015625
17.5869140625 11.3023681640625 -39.9583740234375
15.669189453125 13.4248046875 -47.1971435546875
-30.92529296875 -6.2496337890625 22.4083251953125
18.0341796875 24.0904541015625 -10.6785888671875
-36.1748046875 -1.2947998046875 7.4078369140625
18.169921875 -0.4376220703125 38.631591796875
-35.50537109375 -5.402587890625 23.2254638671875
8.126953125 21.0736083984375 -9.5601806640625
9.439208984375 27.7432861328125 -23.461669921875
13.017578125 11.0531005859375 -40.489013671875
-2.721923828125 24.320068359375 -8.9451904296875
10.576171875 11.324951171875 -40.85546875
6.862548828125 6.826416015625 27.8779296875
16.39306640625 -5.4818115234375 42.198486328125
-18.0732421875 -4.492919921875 19.6016845703125
3.708251953125 18.2213134765625 12.0831298828125
9.938232421875 27.74609375 -19.2156982421875
-18.442138671875 -2.8145751953125 15.7296142578125
-14.767822265625 2.0390625 23.4813232421875
20.701171875 1.007568359375 35.529052734375
12.774169921875 13.212646484375 -45.7132568359375
-3.53662109375 6.10009765625 -25.8353271484375
17.16357421875 23.439208984375 -7.95849609375
6.10302734375 16.5301513671875 18.0830078125
-7.7177734375 15.6920166015625 -52.0789794921875
6.633544921875 8.4605712890625 27.618896484375
-26.047607421875 -1.1689453125 5.3455810546875
18.730712890625 10.029296875 -35.476806640625
0.36474609375 15.6600341796875 20.9302978515625
8.330078125 28.3294677734375 -18.8502197265625
14.068603515625 27.34912109375 -20.59765625
7.81884765625 27.9146728515625 -21.28955078125
0.15380859375 23.4866943359375 -6.3653564453125
17.7158203125 12.96435546875 -45.0634765625
5.870361328125 21.227294921875 1.4117431640625
-7.1064453125 8.3343505859375 -32.029052734375
8.00146484375 22.7637939453125 -4.0343017578125
16.0615234375 25.4356689453125 -13.4342041015625
13.589111328125 25.7646484375 -13.39501953125
-2.93994140625 14.1407470703125 -53.151123046875
4.9189453125 10.200927734375 33.488037109375
-8.523193359375 14.3782958984375 -46.1640625
-8.24267578125 12.4007568359375 -44.3525390625
-37.624267578125 -4.34423828125 15.2242431640625
1.283447265625 19.8729248046875 5.6351318359375
11.82861328125 24.1490478515625 -7.8740234375
7.43994140625 19.616943359375 6.2598876953125
17.230712890625 23.6990966796875 -5.9056396484375
22.871826171875 -0.881103515625 37.732666015625
14.30419921875 23.8734130859375 -7.50244140625
4.993896484375 19.34765625 8.9112548828125
-10.002685546875 -3.849853515625 10.797119140625
23.80712890625 -0.1278076171875 39.98388671875
7.054931640625 19.0347900390625 10.9639892578125
1.0439453125 11.6502685546875 33.8118896484375
-20.531494140625 -2.2841796875 8.9349365234375
-6.42529296875 17.9652099609375 -58.779296875
-4.193115234375 10.0369873046875 -35.9632568359375
19.49462890625 9.154541015625 -31.9383544921875
18.421630859375 16.3287353515625 -53.7115478515625
6.030029296875 21.5867919921875 -13.7886962890625
22.78515625 16.8214111328125 -18.9344482421875
7.961181640625 8.69287109375 -32.8958740234375
20.531494140625 16.216552734375 -51.2392578125
-16.1904296875 -3.0135498046875 12.0889892578125
14.855712890625 27.081787109375 -21.8526611328125
-23.423828125 1.9681396484375 24.23046875
3.873046875 23.1524658203125 -5.196533203125
0.12939453125 21.731201171875 0.718994140625
-2.365966796875 21.8499755859375 -0.871337890625
6.150146484375 18.9571533203125 -14.4515380859375
-4.883056640625 15.359619140625 -52.9835205078125
5.850341796875 9.84912109375 42.003662109375
-6.099365234375 15.0316162109375 -50.70458984375
13.661376953125 26.9949951171875 -17.5091552734375
5.77685546875 18.8687744140625 -11.897216796875
18.48193359375 11.9810791015625 -41.0343017578125
14.394287109375 15.8951416015625 28.5751953125
11.61669921875 19.195556640625 11.994384765625
6.8603515625 17.013671875 -9.437255859375
11.537109375 18.887451171875 9.5609130859375
6.196533203125 7.245849609375 32.6844482421875
-3.399658203125 13.9888916015625 -54.7711181640625
20.732666015625 13.542724609375 -42.4302978515625
-2.0068359375 15.2799072265625 -53.1192626953125
-36.747802734375 -7.02685546875 22.38671875
-12.277099609375 -6.1551513671875 22.441162109375
-1.98046875 15.1866455078125 -51.3997802734375
-12.215576171875 -3.76953125 16.8486328125
2.4287109375 15.9840087890625 20.7938232421875
14.64453125 14.132080078125 31.7135009765625
-10.707275390625 -5.1075439453125 19.0216064453125
9.80078125 15.8216552734375 23.416259765625
17.269287109375 7.6220703125 -30.5897216796875
-23.531005859375 -6.2093505859375 23.683837890625
13.539306640625 25.657958984375 -15.492431640625
-3.65966796875 11.310546875 -55.212890625
8.028564453125 5.924072265625 31.210693359375
14.292236328125 14.2919921875 33.746826171875
22.934326171875 -0.2391357421875 36.0372314453125
10.691650390625 13.036376953125 -45.5511474609375
10.35791015625 12.409423828125 30.505615234375
7.505615234375 -5.0345458984375 47.5609130859375
12.247314453125 15.2197265625 27.121337890625
-0.276123046875 6.8687744140625 -28.2625732421875
-9.568115234375 -2.762451171875 8.5643310546875
12.099853515625 13.08544921875 32.78466796875
9.160400390625 20.303955078125 6.052978515625
-33.29248046875 -3.6153564453125 16.490234375
10.1064453125 24.0556640625 -10.3114013671875
-22.24462890625 -4.839599609375 9.5216064453125
-15.74658203125 -5.3800048828125 21.649169921875
-3.35205078125 11.137939453125 -39.64990234375
8.82470703125 9.4210205078125 31.4388427734375
17.376220703125 -3.9324951171875 41.9443359375
-3.621337890625 15.155517578125 -50.8773193359375
11.615478515625 -2.385009765625 40.3389892578125
4.8642578125 7.2696533203125 25.857177734375
6.8564453125 7.056396484375 26.2218017578125
3.824462890625 9.585693359375 42.513427734375
15.26416015625 25.39599609375 -10.8426513671875
5.59912109375 10.263916015625 -37.36962890625
8.03076171875 23.41943359375 -6.2806396484375
-1.37841796875 9.471435546875 -35.1226806640625
-27.120361328125 -2.6744384765625 12.47998046875
10.013916015625 -2.9019775390625 42.4493408203125
13.728759765625 -5.53369140625 47.81201171875
19.75048828125 -4.134521484375 43.868896484375
-36.63525390625 -1.766357421875 5.5299072265625
15.219970703125 7.502685546875 -30.0389404296875
-17.1806640625 -3.9288330078125 22.6343994140625
-1.363525390625 10.1917724609375 -37.82177734375
-31.59765625 -2.3482666015625 5.0328369140625
-2.28564453125 25.178955078125 -11.688720703125
-27.94091796875 -0.9658203125 22.5328369140625
-31.862060546875 -3.218505859375 11.1954345703125
2.967041015625 15.4302978515625 -53.015625
-14.63330078125 -1.5902099609375 6.9420166015625
6.6865234375 20.6728515625 3.9969482421875
-11.862060546875 -2.482666015625 10.6053466796875
-7.087158203125 9.0057373046875 -33.8701171875
3.1025390625 9.5640869140625 -35.7967529296875
18.68115234375 14.2928466796875 -47.1854248046875
16.139404296875 -5.4114990234375 50.075927734375
-4.49658203125 14.1259765625 -48.8385009765625
-13.79296875 -4.55810546875 19.044921875
-0.376708984375 20.231689453125 3.134033203125
4.29296875 8.9278564453125 28.8468017578125
6.250244140625 7.5562744140625 -30.4295654296875
-1.046875 7.8326416015625 -30.9613037109375
17.473876953125 27.9425048828125 -22.611328125
-0.759765625 19.498291015625 7.8740234375
-5.0634765625 8.030517578125 -29.97998046875
-4.54296875 15.145751953125 -55.479248046875
-20.447998046875 -4.29150390625 17.67822265625
-19.728759765625 -2.6065673828125 10.5621337890625
6.78125 9.7169189453125 28.2200927734375
-31.325927734375 -5.5753173828125 20.7266845703125
7.530517578125 21.3131103515625 1.322998046875
14.478515625 14.0301513671875 -48.576171875
-17.312255859375 -3.2060546875 14.96142578125
-27.04443359375 -4.2813720703125 18.7362060546875
9.197998046875 12.29345703125 34.23291015625
-34.036865234375 -4.2293701171875 18.6142578125
-5.130859375 6.218505859375 -25.3736572265625
-22.21923828125 -5.5947265625 12.4493408203125
-22.822998046875 -7.400146484375 23.86669921875
-34.216796875 -0.171142578125 5.8935546875
-15.390625 -0.4771728515625 4.73974609375
-16.175048828125 -4.582763671875 17.558837890625
2.494873046875 22.3446044921875 -7.9041748046875
24.507080078125 -0.3568115234375 35.598876953125
-8.93017578125 15.36376953125 -49.8017578125
5.4130859375 14.469482421875 -49.4794921875
-24.478515625 -2.87548828125 9.2218017578125
12.923828125 9.553466796875 -35.46728515625
11.1484375 13.7681884765625 -47.8968505859375
12.98974609375 22.7718505859375 -3.834716796875
0.31787109375 21.8988037109375 -11.0709228515625
0.440185546875 22.6649169921875 -8.72314453125
22.488037109375 12.357177734375 -25.802490234375
-0.427490234375 12.9561767578125 -45.3515625
-28.658203125 -3.3272705078125 14.657958984375
10.3642578125 18.9586181640625 12.5048828125
-16.152587890625 -4.799072265625 19.1842041015625
4.37109375 9.9334716796875 27.462646484375
18.903076171875 25.046875 -16.0260009765625
-19.242919921875 -5.4168701171875 22.1898193359375
8.060791015625 10.6204833984375 -39.2701416015625
-20.052490234375 -5.1475830078125 20.1966552734375
17.44091796875 14.548583984375 -48.886962890625
6.1748046875 17.61328125 15.8211669921875
5.724853515625 12.7923583984375 -45.2147216796875
1.658447265625 13.5728759765625 -46.9044189453125
2.20751953125 11.1063232421875 34.2587890625
-3.683349609375 13.628173828125 -47.052490234375
7.940673828125 20.911865234375 3.47802734375
-12.228515625 -0.654296875 5.4429931640625
7.137939453125 8.984130859375 -35.014892578125
29.998046875 1.9058837890625 32.64599609375
1.5615234375 17.4156494140625 -9.2857666015625
10.17529296875 16.3421630859375 18.368408203125
17.94287109375 10.521728515625 -37.244873046875
-22.235595703125 0.898681640625 27.1585693359375
3.17529296875 9.0113525390625 32.9248046875
3.927001953125 11.3980712890625 38.2091064453125
0.945556640625 16.2459716796875 -54.84423828125
10.765380859375 28.35595703125 -23.6737060546875
4.16015625 19.5504150390625 7.242919921875
-13.0146484375 -2.3675537109375 11.4302978515625
9.04931640625 27.8001708984375 -22.1749267578125
1.353515625 -8.6793212890625 52.150634765625
0.472412109375 14.521484375 -49.2249755859375
15.361083984375 9.3782958984375 -35.5460205078125
-3.226806640625 14.6580810546875 -49.4852294921875
-33.2568359375 -5.2315673828125 20.3470458984375
25.341552734375 -0.2626953125 37.1536865234375
29.697021484375 2.441162109375 34.18359375
12.589111328125 13.623779296875 33.9093017578125
-21.710693359375 -4.21435546875 13.74658203125
21.2119140625 9.489013671875 -30.02490234375
7.872314453125 7.5831298828125 -30.9342041015625
10.331298828125 27.792236328125 -20.9527587890625
19.75390625 16.873291015625 -53.0936279296875
4.49755859375 17.7908935546875 -8.2496337890625
8.029296875 9.897216796875 -36.560302734375
10.55126953125 22.55029296875 0.5213623046875
2.111572265625 17.9500732421875 15.5089111328125
5.063720703125 20.379150390625 -14.3087158203125
-36.538330078125 -1.5118408203125 8.6640625
12.91748046875 29.2730712890625 -27.0023193359375
10.894287109375 29.7598876953125 -25.306884765625
14.177490234375 29.1597900390625 -26.6064453125
11.30859375 22.383544921875 -2.41748046875
-8.947021484375 16.346435546875 -54.3232421875
-37.280517578125 -2.1322021484375 10.81103515625
0.259521484375 9.9327392578125 -37.0008544921875
-30.208984375 -4.163818359375 16.467529296875
15.115966796875 11.471923828125 -41.135986328125
-22.5625 -8.2469482421875 20.862548828125
7.897705078125 14.8358154296875 -51.416259765625
20.153076171875 -0.376953125 37.754638671875
16.978515625 27.01611328125 -20.2296142578125
11.97265625 27.51953125 -21.392822265625
9.738037109375 15.6640625 20.9766845703125
1.959716796875 10.9842529296875 -39.050048828125
10.376953125 14.81005859375 -51.544921875
21.546142578125 -2.9306640625 47.205810546875
-0.668212890625 22.591064453125 -1.9378662109375
-20.894287109375 -4.2589111328125 15.3096923828125
9.504150390625 18.9598388671875 10.4622802734375
12.825927734375 14.2418212890625 -49.8177490234375
9.573486328125 23.189697265625 -11.3616943359375
11.877197265625 25.8250732421875 -15.8787841796875
10.6640625 25.9918212890625 -14.586181640625
11.940673828125 25.98388671875 -13.368896484375
13.642822265625 25.973388671875 -11.74609375
6.67919921875 22.464111328125 -6.4351806640625
18.7998046875 10.9022216796875 -38.2320556640625
3.76416015625 20.1983642578125 4.632568359375
-3.404052734375 19.40234375 -59.39013671875
-17.281982421875 -5.0374755859375 21.648681640625
-35.5703125 -5.0609130859375 20.40869140625
13.04443359375 -3.827880859375 41.6844482421875
16.662109375 10.1895751953125 -37.507080078125
-1.40576171875 18.92138671875 -61.06494140625
4.073486328125 15.8258056640625 22.4019775390625
2.533447265625 14.4517822265625 -48.89453125
0.158203125 16.853515625 -55.8328857421875
8.923828125 -5.72900390625 43.673828125
8.8427734375 6.6566162109375 27.4268798828125
0.507080078125 15.7041015625 -53.3848876953125
-1.082763671875 24.6075439453125 -11.1929931640625
6.1572265625 17.9029541015625 13.2857666015625
17.058837890625 28.6676025390625 -27.4837646484375
-5.417236328125 10.7215576171875 -39.0078125
20.8134765625 -5.283447265625 45.9647216796875
20.81005859375 9.4022216796875 -28.72998046875
20.515869140625 15.77392578125 -48.5582275390625
12.209716796875 22.685791015625 -0.4180908203125
3.591064453125 21.96484375 -13.3409423828125
16.89404296875 -5.0921630859375 45.6771240234375
-1.099853515625 23.4456787109375 -6.72119140625
14.9833984375 15.16455078125 -51.477783203125
14.184814453125 10.0701904296875 -37.345703125
-9.9921875 -2.361083984375 5.6976318359375
9.93408203125 19.696533203125 6.973388671875
10.304931640625 -4.1771240234375 44.9874267578125
10.50048828125 10.4454345703125 -39.3499755859375
10.897216796875 12.4852294921875 37.399169921875
-5.209228515625 17.4525146484375 -57.83984375
12.952392578125 9.9881591796875 -36.8408203125
15.338134765625 14.4171142578125 -49.5821533203125
11.222900390625 20.581787109375 4.2408447265625
0.06640625 19.935791015625 6.09033203125
11.21630859375 15.0479736328125 -52.509765625
7.4462890625 -5.97314453125 50.0418701171875
15.2265625 12.9395751953125 -45.34521484375
-2.22021484375 13.57470703125 -55.5577392578125
-2.5205078125 15.01953125 -56.825927734375
2.309326171875 20.673828125 -8.7880859375
11.569091796875 -3.32666015625 44.0372314453125
8.29443359375 14.3892822265625 -49.6134033203125
0.319091796875 11.0968017578125 -39.8319091796875
-8.50634765625 17.7841796875 -58.6060791015625
3.66796875 19.1275634765625 -15.634521484375
-6.1787109375 11.899169921875 -41.38671875
7.104736328125 11.3990478515625 35.6622314453125
-4.855224609375 15.266357421875 -51.2650146484375
2.75244140625 5.8712158203125 27.7857666015625
6.629638671875 14.111328125 -48.5960693359375
-6.603515625 11.368896484375 -39.960693359375
5.02587890625 20.388916015625 4.95849609375
4.95458984375 17.919189453125 14.5733642578125
12.16064453125 13.813232421875 31.444580078125
-1.615478515625 13.902099609375 -47.665283203125
12.8701171875 8.217041015625 -29.274658203125
8.5234375 11.39501953125 -41.186279296875
5.225341796875 17.1781005859375 -9.8172607421875
2.3212890625 17.299072265625 -11.8001708984375
7.048828125 19.2794189453125 9.2552490234375
5.547607421875 9.5360107421875 -35.9158935546875
-7.866455078125 10.41064453125 -37.9586181640625
2.103271484375 19.4210205078125 7.769775390625
-25.9326171875 -3.95361328125 15.855712890625
-27.585693359375 -0.773193359375 5.730712890625
11.72216796875 10.2391357421875 -38.51953125
-32.54736328125 -3.58984375 15.265869140625
2.479248046875 18.0369873046875 12.995849609375
5.5234375 10.95263671875 39.8377685546875
12.43310546875 27.46826171875 -18.84130859375
11.966552734375 27.673095703125 -22.7110595703125
6.74755859375 11.178955078125 39.357666015625
8.54248046875 16.21337890625 19.2799072265625
13.726806640625 -6.0518798828125 51.4149169921875
0.8017578125 16.874267578125 16.5819091796875
11.708984375 13.997802734375 27.7496337890625
5.785888671875 19.5322265625 6.3458251953125
8.675537109375 19.26123046875 8.3594970703125
-2.12890625 11.3167724609375 -40.60107421875
1.135009765625 14.7750244140625 23.1046142578125
3.48291015625 8.8870849609375 -33.5506591796875
0.558349609375 7.99853515625 -32.7474365234375
5.353759765625 16.405517578125 22.253662109375
1.1875 16.38037109375 17.8917236328125
8.28515625 -5.2647705078125 48.744384765625
14.0947265625 9.0032958984375 -34.9620361328125
-0.306396484375 6.014892578125 -25.56201171875
-14.490966796875 0.6263427734375 22.91796875
-31.761474609375 -4.6837158203125 17.4205322265625
10.6474609375 25.4820556640625 -12.347900390625
5.30224609375 6.3487548828125 32.8568115234375
2.58935546875 7.8333740234375 -31.9769287109375
18.841064453125 -1.6002197265625 40.3697509765625
16.269775390625 16.0401611328125 -55.6363525390625
11.202392578125 19.98583984375 6.864013671875
10.183837890625 24.2662353515625 -7.403564453125
0.89208984375 6.04345703125 -26.4547119140625
-16.966552734375 -2.185791015625 9.9625244140625
26.08056640625 1.99560546875 38.39599609375
-37.509765625 -7.505126953125 23.2874755859375
-7.767822265625 14.260009765625 -48.6990966796875
21.278564453125 10.4046630859375 -33.614013671875
-7.11474609375 6.8162841796875 -26.2529296875
-36.835693359375 -3.534912109375 14.6400146484375
28.40869140625 2.375 29.0062255859375
-24.082763671875 -4.64208984375 13.53125
7.288330078125 9.8336181640625 33.052978515625
29.555419921875 1.8922119140625 29.8470458984375
0.28173828125 17.61572265625 -12.6142578125
26.193603515625 0.4091796875 34.2203369140625
4.455810546875 16.058837890625 19.87890625
4.6455078125 11.085205078125 35.391357421875
3.08154296875 11.3973388671875 36.2117919921875
8.6826171875 10.7132568359375 37.736083984375
0.822998046875 18.4697265625 -10.3238525390625
-25.915771484375 -4.2191162109375 17.0946044921875
5.881103515625 15.5521240234375 -52.788818359375
14.326904296875 23.876220703125 -6.237060546875
3.432861328125 9.920654296875 41.2694091796875
4.859375 11.9705810546875 -42.8326416015625
21.9931640625 13.678955078125 -42.534912109375
28.8671875 2.882568359375 27.6962890625
14.5478515625 -5.5289306640625 49.750244140625
-23.77880859375 -5.6630859375 12.5281982421875
3.6337890625 6.9969482421875 25.9495849609375
13.527099609375 12.4635009765625 -44.6971435546875
-1.469482421875 23.152587890625 -3.2796630859375
4.812744140625 7.069091796875 24.273193359375
4.96435546875 7.483642578125 29.8641357421875
-1.847412109375 8.318603515625 -32.70947265625
16.751220703125 11.546630859375 -42.505126953125
3.379638671875 6.9698486328125 -28.472900390625
14.9189453125 26.985107421875 -17.565673828125
16.73828125 29.0911865234375 -24.567626953125
-17.00634765625 -1.92578125 7.5125732421875
3.614501953125 5.7877197265625 31.3951416015625
17.787353515625 8.7760009765625 -33.003662109375
21.53173828125 14.2626953125 -24.1346435546875
-12.523193359375 0.2353515625 24.10693359375
-24.451904296875 -3.3209228515625 11.301025390625
4.583251953125 19.1055908203125 10.22119140625
1.98486328125 5.705078125 30.2601318359375
-12.237060546875 -2.967529296875 13.1116943359375
5.796630859375 -6.509033203125 48.598388671875
-25.906494140625 -5.833984375 20.9510498046875
-0.78369140625 19.9886474609375 4.4501953125
-37.1845703125 -4.787353515625 17.661376953125
27.0625 0.6939697265625 36.1490478515625
15.246337890625 8.072998046875 -32.6873779296875
6.895263671875 -6.643798828125 45.4420166015625
-11.104736328125 -5.7716064453125 21.139404296875
16.93798828125 26.85888671875 -21.471435546875
16.60546875 27.2283935546875 -18.981201171875
12.8408203125 27.566650390625 -20.1640625
-3.707275390625 12.748291015625 -44.275146484375
9.22509765625 21.7020263671875 1.1708984375
-0.760986328125 19.202392578125 9.17724609375
-7.694091796875 17.0294189453125 -56.2962646484375
-10.70556640625 -3.362060546875 12.7255859375
17.417724609375 26.81005859375 -17.6417236328125
22.257080078125 0.7491455078125 35.11181640625
4.556640625 -7.1724853515625 48.7271728515625
-37.045166015625 -2.7723388671875 6.1551513671875
-34.13916015625 -2.2591552734375 11.8970947265625
9.556396484375 -3.2742919921875 41.331298828125
-4.2197265625 10.03076171875 -37.2110595703125
12.50732421875 15.7298583984375 -54.4830322265625
-21.762939453125 -2.0572509765625 6.143798828125
-22.26904296875 -3.5386962890625 5.273681640625
-5.346923828125 15.6988525390625 -56.8734130859375
-19.116943359375 1.034912109375 25.8203125
-32.059814453125 -5.911376953125 22.786376953125
19.6611328125 -5.2960205078125 47.97607421875
18.394775390625 23.275390625 -7.97802734375
-27.3505859375 -4.701416015625 22.778076171875
